8.41392135620117,8.4137659072876,8.41361045837402,8.41345500946045,8.41329860687256,8.41314315795898,8.41298770904541,8.41283226013184,8.41267681121826,8.41252136230469,8.41236591339111,8.41221046447754,8.41205501556396,8.41189861297607,8.4117431640625,8.41158771514893,8.41143226623535,8.41127681732178,8.4111213684082,8.41096591949463,8.41081047058105,8.41065502166748,8.41049957275391,8.41034412384033,8.41018867492676,8.41003322601318,8.40987777709961,8.40972232818604,8.40956687927246,8.40941143035889,8.40925598144531,8.40910053253174,8.40894508361816,8.40878963470459,8.40863418579102,8.40847873687744,8.40832328796387,8.40816783905029,8.40801239013672,8.40785694122314,8.40770149230957,8.407546043396,8.40739059448242,8.40723514556885,8.40708065032959,8.40692520141602,8.40676975250244,8.40661430358887,8.40645885467529,8.40630340576172,8.40614795684814,8.40599250793457,8.40583801269531,8.4232702255249,8.45343208312988,8.48381042480469,8.51440715789795,8.54522609710693,8.57626914978027,8.6075382232666,8.63903617858887,8.6707649230957,8.70272827148438,8.73492813110352,8.76736736297607,8.80004787445068,8.83297348022461,8.86614513397217,8.89956855773926,8.93324375152588,8.96717548370361,9.00136566162109,9.03581714630127,9.07053470611572,9.10551834106445,9.14077377319336,9.17630386352539,9.21211051940918,9.24819755554199,9.28456878662109,9.32122707366943,9.35817527770996,9.39541912078857,9.43295955657959,9.47080135345459,9.50894832611084,9.54740333557129,9.58617115020752,9.62525463104248,9.66465759277344,9.70438575744629,9.74444103240967,9.78482913970947,9.82555294036865,9.86661815643311,9.90802764892578,9.94978523254395,9.99189758300781,10.034366607666,11.584508895874,11.5939512252808,11.6034116744995,11.6808080673218,11.6805925369263,11.6803770065308,11.6801614761353,11.6799459457397,11.6797304153442,11.6795148849487,11.6792993545532,11.6790838241577,11.6788682937622,11.6786527633667,11.6784372329712,11.6782217025757,11.6780061721802,11.6777906417847,11.6775751113892,11.6773595809937,11.6771440505981,11.6769285202026,11.6767129898071,11.6764974594116,11.6762828826904,11.6760673522949,11.6758518218994,11.6756362915039,11.6754207611084,11.6752052307129,11.6749897003174,11.6747751235962,11.6745595932007,11.7035474777222,11.76198387146,11.821005821228,11.8806247711182,11.9408464431763,12.0016832351685,12.006763458252,12.00843334198,12.010103225708,12.0117740631104,12.013445854187,12.0151176452637,12.0167894363403,12.0184621810913,12.0201358795166,12.0218095779419,12.0234832763672,12.0251579284668,12.0268325805664,12.0285081863403,12.0301847457886,12.0318613052368,12.0335378646851,12.0352153778076,12.0368928909302,12.0385713577271,12.0402498245239,12.0419292449951,12.0436096191406,12.0452890396118,12.0469703674316,12.0486516952515,12.0503330230713,12.0520153045654,12.0536975860596,12.055380821228,12.0570640563965,12.0587482452393,12.060432434082,12.0621175765991,12.0638027191162,12.0654888153076,12.067174911499,12.0688619613647,12.0705490112305,12.0722370147705,12.0739250183105,12.0756130218506,12.0773029327393,12.0789918899536,12.0806827545166,12.0823726654053,12.0840635299683,12.0857553482056,12.0874471664429,12.0891399383545,12.0908327102661,12.0925264358521,12.094220161438,12.0959148406982,12.0976095199585,12.0993041992188,12.1010007858276,12.1026964187622,12.1043930053711,12.1060905456543,12.1077880859375,12.109486579895,12.1111850738525,12.1128845214844,12.1145839691162,12.116283416748,12.1179847717285,12.1196851730347,12.1213865280151,12.1230888366699,12.1247911453247,12.1264944076538,12.1281976699829,12.1299018859863,12.1316061019897,12.1333103179932,12.1350164413452,12.1367216110229,12.138427734375,12.1401348114014,12.1418418884277,12.1435499191284,12.1452579498291,12.1469669342041,12.1486759185791,12.1503858566284,12.1520957946777,12.1538066864014,12.155517578125,12.1572294235229,12.1589412689209,12.1606540679932,12.1623668670654,12.1640796661377,12.1657943725586,12.1675081253052,12.1692237854004,12.1709384918213,12.1726551055908,12.1743717193604,12.1760883331299,12.1778059005737,12.1795234680176,12.1812419891357,12.1829605102539,12.1846799850464,12.1863994598389,12.1881198883057,12.1898403167725,12.1915616989136,12.193284034729,12.1950063705444,12.1967287063599,12.1984519958496,12.2001752853394,12.2018995285034,12.2036247253418,12.2053499221802,12.2070751190186,12.2088012695312,12.2105283737183,12.2122554779053,12.2139825820923,12.2157106399536,12.2174396514893,12.2191686630249,12.2208976745605,12.2226276397705,12.2243585586548,12.2260894775391,12.2278213500977,12.2295532226562,12.2312850952148,12.2330188751221,12.234751701355,12.2364854812622,12.2382202148438,12.2399549484253,12.2416906356812,12.243426322937,12.2451629638672,12.2468996047974,12.2486371994019,12.2503757476807,12.2521133422852,12.2538528442383,12.2555923461914,12.2573318481445,12.259072303772,12.2608127593994,12.2625541687012,12.2705812454224,12.2799854278564,12.2894048690796,12.2988386154175,12.3082866668701,12.3177490234375,12.3272266387939,12.3367185592651,12.3462247848511,12.3557462692261,12.3652820587158,12.3748321533203,12.3843975067139,12.3939771652222,12.4035720825195,12.413182258606,12.4228067398071,12.4324464797974,12.4421014785767,12.4517707824707,12.4614553451538,12.471155166626,12.4808702468872,12.4905996322632,12.5003452301025,12.510106086731,12.5198812484741,12.5296726226807,12.539478302002,12.5493001937866,12.5591373443604,12.5689897537231,12.578857421875,12.5887413024902,12.5986394882202,12.6085548400879,12.6184844970703,12.6284303665161,12.6383924484253,12.6483688354492,12.6583623886108,12.6683712005615,12.6783952713013,12.6884365081787,12.6984930038452,12.7085647583008,12.718653678894,12.7287578582764,12.7388782501221,12.7490148544312,12.7591676712036,12.7693367004395,12.7795219421387,12.7897233963013,12.7999410629272,12.8101749420166,12.8204250335693,12.8306922912598,12.8409757614136,12.8495025634766,12.8554096221924,12.8613224029541,12.8672409057617,12.8731651306152,12.8790941238403,12.8850288391113,12.8909683227539
8.41380214691162,8.41364669799805,8.41349029541016,8.41333484649658,8.41317939758301,8.41302394866943,8.41286849975586,8.41271305084229,8.41255760192871,8.41240119934082,8.41224575042725,8.41209030151367,8.4119348526001,8.41177940368652,8.41162395477295,8.41146850585938,8.4113130569458,8.41115760803223,8.41100215911865,8.41084671020508,8.4106912612915,8.41053581237793,8.41038036346436,8.41022491455078,8.41006946563721,8.40991401672363,8.40975761413574,8.40960216522217,8.40944671630859,8.40929126739502,8.40913677215576,8.40898132324219,8.40882587432861,8.40867042541504,8.40851497650146,8.40835952758789,8.40820407867432,8.40804862976074,8.40789318084717,8.40773773193359,8.40758228302002,8.40742683410645,8.40727138519287,8.4071159362793,8.40696048736572,8.40680503845215,8.40665054321289,8.40649509429932,8.40633964538574,8.40618419647217,8.40602874755859,8.40587329864502,8.40571784973145,8.42338085174561,8.45354270935059,8.48392200469971,8.51451969146729,8.54533958435059,8.57638263702393,8.60765266418457,8.63915157318115,8.6708812713623,8.70284557342529,8.73504638671875,8.76748657226562,8.80016803741455,8.83309364318848,8.86626720428467,8.89969062805176,8.93336772918701,8.96730041503906,9.00149154663086,9.03594398498535,9.0706615447998,9.10564708709717,9.14090347290039,9.17643356323242,9.21224117279053,9.24833011627197,9.28470230102539,9.32136154174805,9.35831165313721,9.39555549621582,9.43309688568115,9.47094058990479,9.50908756256104,9.54754447937012,9.58631324768066,9.62539768218994,9.66480255126953,9.7045316696167,9.74458885192871,9.78497791290283,9.82570266723633,9.8667688369751,9.90817928314209,9.94993877410889,9.99205207824707,10.0345230102539,11.5750827789307,11.5754079818726,11.5848255157471,11.5942707061768,11.6037311553955,11.6802110671997,11.6799955368042,11.6797800064087,11.6795644760132,11.6793489456177,11.6791334152222,11.6789178848267,11.6787023544312,11.6784868240356,11.6782712936401,11.6780557632446,11.6778402328491,11.6776247024536,11.6774091720581,11.6771936416626,11.6769781112671,11.6767635345459,11.6765480041504,11.6763324737549,11.6761169433594,11.6759014129639,11.6756858825684,11.6754703521729,11.6752557754517,11.6750402450562,11.6748247146606,11.6746091842651,11.6743936538696,11.7037496566772,11.7621879577637,11.8212127685547,11.8808326721191,11.9410572052002,12.0004873275757,12.0021553039551,12.0038242340088,12.0054931640625,12.0071630477905,12.0088329315186,12.0105028152466,12.0121746063232,12.0138454437256,12.0155172348022,12.0171899795532,12.0188627243042,12.0205364227295,12.0222101211548,12.0238838195801,12.0255584716797,12.0272340774536,12.0289096832275,12.0305852890015,12.0322618484497,12.0339393615723,12.0356168746948,12.0372943878174,12.0389728546143,12.0406522750854,12.0423316955566,12.0440111160278,12.0456914901733,12.0473728179932,12.049054145813,12.0507354736328,12.052417755127,12.0541000366211,12.0557832717896,12.0574674606323,12.0591506958008,12.0608358383179,12.062520980835,12.0642061233521,12.0658922195435,12.0675783157349,12.0692653656006,12.0709524154663,12.0726404190063,12.0743293762207,12.0760173797607,12.0777072906494,12.0793972015381,12.0810871124268,12.0827779769897,12.0844688415527,12.08616065979,12.0878524780273,12.089545249939,12.0912380218506,12.0929317474365,12.0946254730225,12.0963201522827,12.098014831543,12.0997104644775,12.1014060974121,12.103102684021,12.1047992706299,12.1064968109131,12.1081943511963,12.1098928451538,12.1115913391113,12.1132907867432,12.114990234375,12.1166906356812,12.1183910369873,12.1200923919678,12.1217937469482,12.123496055603,12.1251993179321,12.1269016265869,12.1286058425903,12.1303091049194,12.1320142745972,12.1337184906006,12.1354246139526,12.1371297836304,12.1388368606567,12.1405439376831,12.1422510147095,12.1439590454102,12.1456670761108,12.1473760604858,12.1490850448608,12.1507949829102,12.1525049209595,12.1542158126831,12.1559267044067,12.1576385498047,12.159351348877,12.1610631942749,12.1627769470215,12.1644906997681,12.1662044525146,12.1679191589355,12.1696338653564,12.1713495254517,12.1730661392212,12.1747817993164,12.1764993667603,12.1782169342041,12.1799345016479,12.1816530227661,12.1833724975586,12.1850919723511,12.1868114471436,12.1885318756104,12.1902523040771,12.1919736862183,12.1936960220337,12.1954183578491,12.1971406936646,12.1988639831543,12.2005882263184,12.2023124694824,12.2040376663208,12.2057628631592,12.2074880599976,12.2092142105103,12.2109413146973,12.2126684188843,12.2143964767456,12.2161245346069,12.2178535461426,12.2195825576782,12.2213115692139,12.2230424880981,12.2247724533081,12.2265043258667,12.228235244751,12.2299680709839,12.2316999435425,12.2334337234497,12.2351665496826,12.2369012832642,12.2386360168457,12.2403707504272,12.2421064376831,12.243842124939,12.2455787658691,12.2473154067993,12.2490530014038,12.2507915496826,12.2525300979614,12.2542686462402,12.2560081481934,12.2577486038208,12.2594890594482,12.2612295150757,12.2629709243774,12.26731300354,12.2767133712769,12.2861270904541,12.2955560684204,12.3049993515015,12.3144569396973,12.3239288330078,12.3334150314331,12.3429164886475,12.3524332046509,12.3619632720947,12.3715085983276,12.3810691833496,12.3906440734863,12.4002342224121,12.4098386764526,12.4194574356079,12.4290924072266,12.43874168396,12.4484062194824,12.4580860137939,12.4677801132202,12.4774894714355,12.4872140884399,12.4969539642334,12.5067090988159,12.5164794921875,12.5262651443481,12.5360660552979,12.5458822250366,12.5557136535645,12.5655612945557,12.5754241943359,12.585301399231,12.5951957702637,12.6051044464111,12.615029335022,12.6249694824219,12.6349258422852,12.6448974609375,12.6548852920532,12.664888381958,12.6749076843262,12.6849422454834,12.694993019104,12.705060005188,12.7151432037354,12.7252416610718,12.7353563308716,12.7454872131348,12.7556343078613,12.7657976150513,12.7759771347046,12.7861728668213,12.7963848114014,12.8066139221191,12.816858291626,12.8271198272705,12.8349466323853,12.8408403396606,12.8467397689819,12.8526449203491,12.8585548400879,12.8644704818726
8.41368198394775,8.41352653503418,8.41337108612061,8.41321563720703,8.41306018829346,8.41290473937988,8.41274833679199,8.41259288787842,8.41243743896484,8.41228199005127,8.4121265411377,8.41197109222412,8.41181564331055,8.41166019439697,8.4115047454834,8.41134929656982,8.41119384765625,8.41103744506836,8.41088199615479,8.41072654724121,8.41057109832764,8.41041564941406,8.41026020050049,8.41010475158691,8.40994930267334,8.40979385375977,8.40963840484619,8.40948295593262,8.40932750701904,8.40917205810547,8.40901660919189,8.40886116027832,8.40870571136475,8.40855026245117,8.4083948135376,8.40823936462402,8.40808486938477,8.40792942047119,8.40777397155762,8.40761852264404,8.40746307373047,8.40730762481689,8.40715217590332,8.40699672698975,8.40684127807617,8.4066858291626,8.40653038024902,8.40637588500977,8.40622043609619,8.40606498718262,8.40590953826904,8.40575408935547,8.40559864044189,8.42349052429199,8.45365333557129,8.48403263092041,8.51463222503662,8.54545211791992,8.57649707794189,8.60776710510254,8.63926696777344,8.67099857330322,8.70296287536621,8.73516464233398,8.76760482788086,8.80028820037842,8.83321475982666,8.86638927459717,8.89981365203857,8.93349170684814,8.9674243927002,9.00161647796631,9.03607082366943,9.0707893371582,9.10577583312988,9.14103317260742,9.17656421661377,9.21237277984619,9.24846267700195,9.28483581542969,9.32149600982666,9.35844707489014,9.39569187164307,9.43323516845703,9.47107887268066,9.50922775268555,9.54768562316895,9.58645534515381,9.62554168701172,9.66494750976562,9.70467758178711,9.74473571777344,9.78512573242188,9.825852394104,9.86691951751709,9.90833187103271,9.95009231567383,9.99220657348633,10.0346794128418,11.5749177932739,11.5747041702271,11.5744905471802,11.5757236480713,11.5851440429688,11.5945901870728,11.6040506362915,11.6796140670776,11.6793985366821,11.6791830062866,11.6789674758911,11.6787519454956,11.6785364151001,11.6783208847046,11.6781053543091,11.6778898239136,11.6776742935181,11.6774597167969,11.6772441864014,11.6770286560059,11.6768131256104,11.6765975952148,11.6763820648193,11.6761665344238,11.6759510040283,11.6757354736328,11.6755208969116,11.6753053665161,11.6750898361206,11.6748743057251,11.6746587753296,11.6744432449341,11.6742286682129,11.7039518356323,11.7623920440674,11.821418762207,11.8810415267944,11.9412679672241,11.9958839416504,11.9975509643555,11.9992189407349,12.0008859634399,12.0025548934937,12.0042238235474,12.0058927536011,12.0075626373291,12.0092325210571,12.0109033584595,12.0125741958618,12.0142459869385,12.0159177780151,12.0175905227661,12.0192632675171,12.0209369659424,12.0226106643677,12.0242853164673,12.0259599685669,12.0276346206665,12.0293111801147,12.0309867858887,12.0326633453369,12.0343408584595,12.036018371582,12.0376968383789,12.0393753051758,12.0410537719727,12.0427331924438,12.0444135665894,12.0460939407349,12.0477752685547,12.0494565963745,12.0511379241943,12.0528202056885,12.0545034408569,12.0561866760254,12.0578699111938,12.0595541000366,12.0612392425537,12.0629243850708,12.0646095275879,12.0662956237793,12.067982673645,12.0696697235107,12.0713567733765,12.0730447769165,12.0747327804565,12.0764217376709,12.0781116485596,12.0798015594482,12.0814914703369,12.0831823348999,12.0848731994629,12.0865650177002,12.0882577896118,12.0899505615234,12.0916433334351,12.093337059021,12.0950307846069,12.0967254638672,12.0984210968018,12.1001167297363,12.1018123626709,12.1035089492798,12.1052055358887,12.1069030761719,12.1086015701294,12.1102991104126,12.1119985580444,12.1136980056763,12.1153974533081,12.1170978546143,12.1187982559204,12.1204996109009,12.1222019195557,12.1239042282104,12.1256065368652,12.1273097991943,12.1290130615234,12.1307172775269,12.1324224472046,12.134126663208,12.1358327865601,12.1375389099121,12.1392450332642,12.1409521102905,12.1426591873169,12.1443672180176,12.1460762023926,12.1477851867676,12.1494941711426,12.1512041091919,12.1529150009155,12.1546249389648,12.1563367843628,12.1580486297607,12.1597604751587,12.161473274231,12.1631870269775,12.1649007797241,12.1666145324707,12.1683292388916,12.1700448989868,12.171760559082,12.1734762191772,12.1751928329468,12.1769104003906,12.1786279678345,12.1803455352783,12.1820650100708,12.183783531189,12.1855030059814,12.1872234344482,12.188943862915,12.1906642913818,12.1923866271973,12.1941080093384,12.1958303451538,12.1975536346436,12.1992769241333,12.2010011672974,12.2027254104614,12.2044506072998,12.2061758041382,12.2079010009766,12.2096281051636,12.2113542556763,12.2130823135376,12.2148094177246,12.2165384292603,12.2182664871216,12.2199964523315,12.2217264175415,12.2234563827515,12.2251873016357,12.22691822052,12.2286500930786,12.2303819656372,12.2321147918701,12.2338485717773,12.2355823516846,12.2373161315918,12.2390508651733,12.2407855987549,12.2425212860107,12.2442579269409,12.2459945678711,12.2477312088013,12.2494697570801,12.2512073516846,12.2529458999634,12.2546854019165,12.2564249038696,12.2581653594971,12.2599058151245,12.261646270752,12.263388633728,12.2651300430298,12.2734422683716,12.2828512191772,12.292275428772,12.3017129898071,12.3111658096313,12.3206329345703,12.330114364624,12.3396110534668,12.34912109375,12.3586473464966,12.3681869506836,12.377742767334,12.3873119354248,12.3968963623047,12.4064960479736,12.4161109924316,12.4257402420044,12.4353837966919,12.4450435638428,12.4547176361084,12.4644069671631,12.4741106033325,12.4838304519653,12.4935646057129,12.5033149719238,12.5130796432495,12.5228605270386,12.5326557159424,12.5424671173096,12.5522928237915,12.5621347427368,12.5719919204712,12.5818643569946,12.5917530059814,12.601655960083,12.6115751266479,12.6215105056763,12.6314611434937,12.6414270401001,12.6514091491699,12.6614074707031,12.6714210510254,12.681450843811,12.6914958953857,12.7015571594238,12.7116346359253,12.7217273712158,12.731837272644,12.7419624328613,12.752103805542,12.762261390686,12.7724351882935,12.7826251983643,12.7928314208984,12.8030548095703,12.8132934570312,12.8204231262207,12.8263034820557,12.8321895599365,12.8380813598633
8.4135627746582,8.41340732574463,8.41325187683105,8.41309642791748,8.41294002532959,8.41278457641602,8.41262912750244,8.41247367858887,8.41231822967529,8.41216278076172,8.41200733184814,8.41185188293457,8.411696434021,8.41154003143311,8.41138458251953,8.41122913360596,8.41107368469238,8.41091823577881,8.41076278686523,8.41060733795166,8.41045188903809,8.41029644012451,8.41014099121094,8.40998554229736,8.40983009338379,8.40967464447021,8.40951919555664,8.40936374664307,8.40920829772949,8.40905284881592,8.40889739990234,8.40874195098877,8.4085865020752,8.40843105316162,8.40827560424805,8.40812015533447,8.4079647064209,8.40780925750732,8.40765380859375,8.40749931335449,8.40734386444092,8.40718841552734,8.40703296661377,8.4068775177002,8.40672206878662,8.40656661987305,8.40641117095947,8.4062557220459,8.40610027313232,8.40594577789307,8.40579032897949,8.40563488006592,8.40547943115234,8.42360019683838,8.45376396179199,8.48414421081543,8.51474475860596,8.54556560516357,8.57661056518555,8.60788249969482,8.63938236236572,8.67111492156982,8.70308017730713,8.73528289794922,8.76772403717041,8.80040740966797,8.83333587646484,8.86651134490967,8.89993667602539,8.93361473083496,8.96754932403564,9.00174236297607,9.0361967086792,9.07091617584229,9.10590362548828,9.14116191864014,9.17669486999512,9.21250438690186,9.24859523773193,9.28496932983398,9.32163047790527,9.35858249664307,9.39582920074463,9.43337249755859,9.47121810913086,9.50936794281006,9.54782676696777,9.58659744262695,9.62568473815918,9.6650915145874,9.70482349395752,9.74488258361816,9.78527450561523,9.82600212097168,9.8670711517334,9.90848350524902,9.95024585723877,9.9923620223999,10.0348348617554,11.5973176956177,11.5745391845703,11.5743265151978,11.5741128921509,11.573899269104,11.57603931427,11.5854625701904,11.5949087142944,11.6043710708618,11.6790170669556,11.6788024902344,11.6785869598389,11.6783714294434,11.6781558990479,11.6779403686523,11.6777248382568,11.6775093078613,11.6772937774658,11.6770782470703,11.6768627166748,11.6766471862793,11.6764316558838,11.6762161254883,11.6760015487671,11.6757860183716,11.6755704879761,11.6753549575806,11.6751394271851,11.6749238967896,11.6747093200684,11.6744937896729,11.6742782592773,11.6740627288818,11.7041540145874,11.7625961303711,11.8216257095337,11.8812494277954,11.941478729248,11.9912853240967,11.9929504394531,11.9946165084839,11.996283531189,11.997950553894,11.9996175765991,12.0012855529785,12.0029544830322,12.0046234130859,12.0062923431396,12.0079622268677,12.0096321105957,12.011302947998,12.0129747390747,12.0146455764771,12.016318321228,12.017991065979,12.01966381073,12.0213375091553,12.0230112075806,12.0246858596802,12.0263605117798,12.0280361175537,12.0297117233276,12.0313882827759,12.0330648422241,12.0347423553467,12.0364198684692,12.0380983352661,12.039776802063,12.0414562225342,12.0431356430054,12.0448160171509,12.0464963912964,12.0481777191162,12.049859046936,12.0515403747559,12.05322265625,12.0549058914185,12.0565891265869,12.0582733154297,12.0599575042725,12.0616426467896,12.0633277893066,12.0650129318237,12.0666990280151,12.0683860778809,12.0700731277466,12.0717611312866,12.0734491348267,12.0751371383667,12.0768260955811,12.0785160064697,12.0802059173584,12.0818958282471,12.0835866928101,12.0852785110474,12.0869703292847,12.0886631011963,12.0903558731079,12.0920486450195,12.0937423706055,12.0954370498657,12.097131729126,12.0988264083862,12.1005220413208,12.1022186279297,12.1039152145386,12.1056118011475,12.1073093414307,12.1090078353882,12.1107063293457,12.1124048233032,12.1141042709351,12.1158046722412,12.1175050735474,12.1192054748535,12.120906829834,12.1226091384888,12.1243114471436,12.1260137557983,12.1277170181274,12.1294212341309,12.1311254501343,12.1328296661377,12.1345348358154,12.1362409591675,12.1379470825195,12.1396541595459,12.1413612365723,12.1430683135986,12.1447763442993,12.1464853286743,12.1481943130493,12.1499032974243,12.1516132354736,12.1533241271973,12.1550350189209,12.1567468643188,12.1584587097168,12.1601705551147,12.161883354187,12.1635971069336,12.1653108596802,12.1670255661011,12.168740272522,12.1704549789429,12.1721706390381,12.1738872528076,12.1756038665771,12.177321434021,12.1790390014648,12.180757522583,12.1824760437012,12.1841955184937,12.1859149932861,12.1876354217529,12.1893558502197,12.1910762786865,12.192798614502,12.1945199966431,12.1962432861328,12.1979656219482,12.1996898651123,12.2014131546021,12.2031383514404,12.2048635482788,12.2065887451172,12.2083148956299,12.2100410461426,12.2117681503296,12.2134952545166,12.2152233123779,12.2169523239136,12.2186803817749,12.2204103469849,12.2221403121948,12.2238702774048,12.2256011962891,12.2273330688477,12.2290649414062,12.2307968139648,12.2325296401978,12.234263420105,12.2359972000122,12.2377309799194,12.239465713501,12.2412014007568,12.2429370880127,12.2446737289429,12.246410369873,12.2481479644775,12.249885559082,12.2516231536865,12.2533626556396,12.2551012039185,12.2568416595459,12.258581161499,12.2603225708008,12.2620630264282,12.2638053894043,12.2655477523804,12.2701730728149,12.279577255249,12.2889957427979,12.2984285354614,12.3078765869141,12.3173389434814,12.3268146514893,12.3363065719604,12.3458118438721,12.3553323745728,12.3648672103882,12.3744173049927,12.3839826583862,12.3935613632202,12.4031562805176,12.4127655029297,12.4223890304565,12.4320278167725,12.4416818618774,12.4513511657715,12.4610347747803,12.4707345962524,12.4804487228394,12.490177154541,12.4999217987061,12.5096817016602,12.5194568634033,12.5292472839355,12.5390529632568,12.5488739013672,12.5587100982666,12.5685615539551,12.5784292221069,12.5883121490479,12.5982103347778,12.6081237792969,12.6180534362793,12.6279983520508,12.6379594802856,12.6479358673096,12.6579284667969,12.6679363250732,12.677960395813,12.6880006790161,12.6980562210083,12.7081279754639,12.7182149887085,12.7283191680908,12.7384386062622,12.7485752105713,12.7587270736694,12.768895149231,12.7790794372559,12.7892799377441,12.7994976043701,12.8059329986572,12.8118000030518
8.41344356536865,8.41328716278076,8.41313171386719,8.41297626495361,8.41282081604004,8.41266536712646,8.41250991821289,8.41235446929932,8.41219902038574,8.41204261779785,8.41188716888428,8.4117317199707,8.41157627105713,8.41142082214355,8.41126537322998,8.41110992431641,8.41095447540283,8.41079902648926,8.41064357757568,8.41048812866211,8.41033267974854,8.41017723083496,8.41002178192139,8.40986633300781,8.40971088409424,8.40955543518066,8.40939998626709,8.40924453735352,8.40908908843994,8.40893363952637,8.40877819061279,8.40862274169922,8.40846729278564,8.40831184387207,8.4081563949585,8.40800094604492,8.40784549713135,8.40769004821777,8.4075345993042,8.40737915039062,8.40722370147705,8.40706920623779,8.40691375732422,8.40675830841064,8.40660285949707,8.4064474105835,8.40629196166992,8.40613651275635,8.40598106384277,8.4058256149292,8.40567111968994,8.40551567077637,8.40536022186279,8.42370986938477,8.4538745880127,8.48425579071045,8.51485633850098,8.54567909240723,8.57672500610352,8.60799694061279,8.63949871063232,8.67123126983643,8.70319747924805,8.73540115356445,8.76784324645996,8.80052757263184,8.83345699310303,8.86663246154785,8.90005874633789,8.93373870849609,8.96767330169678,9.00186729431152,9.03632354736328,9.07104396820068,9.106032371521,9.14129161834717,9.17682552337646,9.21263599395752,9.24872779846191,9.28510284423828,9.32176494598389,9.358717918396,9.39596557617188,9.43351078033447,9.47135734558105,9.50950813293457,9.5479679107666,9.58674049377441,9.62582874298096,9.6652364730835,9.70496940612793,9.74503040313721,9.78542327880859,9.82615184783936,9.86722183227539,9.90863609313965,9.95039939880371,9.99251651763916,10.0349912643433,11.6807918548584,11.6805763244629,11.5920600891113,11.5739479064941,11.5737342834473,11.5735216140747,11.5733079910278,11.5763540267944,11.5857820510864,11.5952281951904,11.6046905517578,11.6784210205078,11.6782054901123,11.6779899597168,11.6777744293213,11.6775588989258,11.6773433685303,11.6771278381348,11.6769123077393,11.6766967773438,11.6764822006226,11.6762666702271,11.6760511398315,11.675835609436,11.6756200790405,11.675404548645,11.6751890182495,11.6749744415283,11.6747589111328,11.6745433807373,11.6743278503418,11.6741123199463,11.6738977432251,11.7043561935425,11.7628011703491,11.821831703186,11.8814582824707,11.941689491272,11.9866895675659,11.988353729248,11.9900178909302,11.9916839599609,11.9933490753174,11.9950151443481,11.9966821670532,11.9983491897583,12.0000171661377,12.0016851425171,12.0033531188965,12.0050220489502,12.0066919326782,12.0083618164062,12.0100326538086,12.0117034912109,12.0133743286133,12.0150461196899,12.0167188644409,12.0183906555176,12.0200643539429,12.0217380523682,12.0234117507935,12.0250864028931,12.026762008667,12.0284376144409,12.0301132202148,12.0317897796631,12.0334663391113,12.0351438522339,12.0368213653564,12.0384998321533,12.0401792526245,12.0418577194214,12.0435380935669,12.0452175140381,12.0468988418579,12.0485801696777,12.0502614974976,12.0519437789917,12.0536260604858,12.0553092956543,12.0569925308228,12.0586767196655,12.0603609085083,12.0620460510254,12.0637311935425,12.0654163360596,12.0671033859253,12.0687894821167,12.0704774856567,12.0721645355225,12.0738525390625,12.0755414962769,12.0772304534912,12.0789203643799,12.0806102752686,12.0823011398315,12.0839920043945,12.0856838226318,12.0873756408691,12.0890674591064,12.0907611846924,12.092453956604,12.0941476821899,12.0958423614502,12.0975370407104,12.099232673645,12.1009283065796,12.1026248931885,12.1043214797974,12.1060180664062,12.1077156066895,12.109414100647,12.1111125946045,12.1128120422363,12.1145114898682,12.1162118911743,12.1179122924805,12.1196126937866,12.1213140487671,12.1230163574219,12.1247186660767,12.1264219284058,12.1281251907349,12.1298294067383,12.1315336227417,12.1332378387451,12.1349439620972,12.1366491317749,12.138355255127,12.1400623321533,12.1417694091797,12.1434774398804,12.1451854705811,12.1468944549561,12.1486034393311,12.1503124237061,12.1520233154297,12.153733253479,12.1554441452026,12.1571559906006,12.1588678359985,12.1605806350708,12.1622934341431,12.1640071868896,12.1657209396362,12.1674356460571,12.169150352478,12.1708660125732,12.1725816726685,12.174298286438,12.1760149002075,12.1777324676514,12.1794500350952,12.1811685562134,12.1828870773315,12.184606552124,12.1863269805908,12.1880464553833,12.1897678375244,12.1914892196655,12.1932106018066,12.1949329376221,12.1966552734375,12.1983785629272,12.200101852417,12.2018260955811,12.2035512924194,12.2052764892578,12.2070016860962,12.2087278366089,12.2104539871216,12.2121810913086,12.2139091491699,12.2156372070312,12.2173652648926,12.2190952301025,12.2208242416382,12.2225542068481,12.2242851257324,12.2260160446167,12.227746963501,12.2294788360596,12.2312116622925,12.2329444885254,12.2346782684326,12.2364120483398,12.2381467819214,12.2398815155029,12.2416172027588,12.2433528900146,12.2450895309448,12.246826171875,12.2485637664795,12.250301361084,12.2520399093628,12.2537784576416,12.2555179595947,12.2572574615479,12.2589979171753,12.2607393264771,12.2624807357788,12.2642221450806,12.2659645080566,12.2677068710327,12.2763051986694,12.2857189178467,12.2951469421387,12.3045892715454,12.3140459060669,12.3235177993774,12.3330039978027,12.3425045013428,12.3520193099976,12.3615493774414,12.3710947036743,12.380654335022,12.3902282714844,12.3998174667358,12.4094209671021,12.4190406799316,12.4286737442017,12.4383230209351,12.4479866027832,12.4576654434204,12.4673595428467,12.4770679473877,12.4867925643921,12.4965314865112,12.5062856674194,12.5160551071167,12.5258407592773,12.5356407165527,12.5454559326172,12.555287361145,12.5651340484619,12.5749950408936,12.5848731994629,12.594765663147,12.6046743392944,12.614598274231,12.6245384216309,12.6344928741455,12.6444644927979,12.6544513702393,12.6644535064697,12.6744718551636,12.6845064163208,12.6945571899414,12.7046232223511,12.7147054672241,12.7248029708862,12.734917640686,12.7450475692749,12.7551937103271,12.7653570175171,12.7755355834961,12.785626411438
8.41332340240479,8.41316795349121,8.41301250457764,8.41285705566406,8.41270160675049,8.41254615783691,8.41238975524902,8.41223430633545,8.41207885742188,8.4119234085083,8.41176795959473,8.41161251068115,8.41145706176758,8.411301612854,8.41114616394043,8.41099071502686,8.41083526611328,8.41067981719971,8.41052436828613,8.41036891937256,8.41021347045898,8.41005706787109,8.40990161895752,8.40974617004395,8.40959072113037,8.4094352722168,8.40927982330322,8.40912437438965,8.40896987915039,8.40881443023682,8.40865898132324,8.40850353240967,8.40834808349609,8.40819263458252,8.40803718566895,8.40788173675537,8.4077262878418,8.40757083892822,8.40741539001465,8.40725994110107,8.4071044921875,8.40694904327393,8.40679359436035,8.40663909912109,8.40648365020752,8.40632820129395,8.40617275238037,8.4060173034668,8.40586185455322,8.40570640563965,8.40555191040039,8.40539646148682,8.40524101257324,8.42382049560547,8.4539852142334,8.48436737060547,8.51496887207031,8.54579162597656,8.57683849334717,8.60811138153076,8.63961410522461,8.67134761810303,8.70331478118896,8.73551940917969,8.76796245574951,8.8006477355957,8.83357715606689,8.86675453186035,8.90018177032471,8.93386173248291,8.96779823303223,9.00199317932129,9.03644943237305,9.07117176055908,9.10616111755371,9.1414213180542,9.1769552230835,9.21276760101318,9.24885940551758,9.28523635864258,9.3218994140625,9.35885429382324,9.39610290527344,9.43364810943604,9.47149562835693,9.50964832305908,9.54810905456543,9.58688259124756,9.62597179412842,9.66538143157959,9.70511531829834,9.74517726898193,9.78557109832764,9.82630157470703,9.86737251281738,9.90878772735596,9.95055294036865,9.99267101287842,10.0351476669312,11.6806259155273,11.6804103851318,11.6801948547363,11.6799793243408,11.5868082046509,11.573356628418,11.5731430053711,11.5729303359985,11.5727167129517,11.5766696929932,11.5861005783081,11.5955476760864,11.6050100326538,11.6778240203857,11.6776084899902,11.6773929595947,11.6771783828735,11.676962852478,11.6767473220825,11.676531791687,11.6763162612915,11.676100730896,11.6758852005005,11.675669670105,11.6754550933838,11.6752395629883,11.6750240325928,11.6748085021973,11.6745929718018,11.6743774414062,11.6741628646851,11.6739473342896,11.673731803894,11.7045583724976,11.7630052566528,11.8220376968384,11.8816661834717,11.9418992996216,11.9820966720581,11.9837598800659,11.9854230880737,11.9870872497559,11.9887523651123,11.9904165267944,11.9920825958252,11.9937477111816,11.9954147338867,11.9970808029175,11.9987487792969,12.000415802002,12.0020847320557,12.0037527084351,12.0054216384888,12.0070915222168,12.0087614059448,12.0104322433472,12.0121030807495,12.0137748718262,12.0154466629028,12.0171184539795,12.0187911987305,12.0204648971558,12.0221385955811,12.0238132476807,12.0254878997803,12.0271625518799,12.0288381576538,12.0305147171021,12.0321912765503,12.0338678359985,12.0355453491211,12.037223815918,12.0389013290405,12.0405807495117,12.0422601699829,12.0439395904541,12.0456199645996,12.0473012924194,12.0489826202393,12.0506639480591,12.0523462295532,12.0540285110474,12.0557117462158,12.0573949813843,12.0590791702271,12.0607643127441,12.0624485015869,12.0641345977783,12.0658206939697,12.0675067901611,12.0691938400269,12.0708808898926,12.0725688934326,12.0742568969727,12.075945854187,12.0776348114014,12.07932472229,12.0810146331787,12.0827054977417,12.0843963623047,12.086088180542,12.0877799987793,12.0894727706909,12.0911664962769,12.0928592681885,12.0945539474487,12.0962476730347,12.0979433059692,12.0996379852295,12.1013345718384,12.1030302047729,12.1047277450562,12.106424331665,12.1081228256226,12.1098203659058,12.1115198135376,12.1132183074951,12.1149187088013,12.1166181564331,12.1183195114136,12.1200199127197,12.1217222213745,12.123423576355,12.1251268386841,12.1268291473389,12.1285333633423,12.1302366256714,12.1319417953491,12.1336460113525,12.1353521347046,12.1370573043823,12.1387643814087,12.1404705047607,12.1421785354614,12.1438856124878,12.1455945968628,12.1473035812378,12.1490125656128,12.1507225036621,12.1524324417114,12.1541433334351,12.1558542251587,12.1575660705566,12.1592779159546,12.1609907150269,12.1627035140991,12.1644172668457,12.1661310195923,12.1678457260132,12.1695613861084,12.1712770462036,12.1729927062988,12.1747093200684,12.1764259338379,12.1781435012817,12.1798620223999,12.1815795898438,12.1832990646362,12.1850185394287,12.1867380142212,12.188458442688,12.1901798248291,12.1919012069702,12.1936225891113,12.1953449249268,12.1970682144165,12.1987915039062,12.200514793396,12.2022390365601,12.2039642333984,12.2056894302368,12.2074146270752,12.2091407775879,12.2108678817749,12.2125949859619,12.2143230438232,12.2160511016846,12.2177791595459,12.2195091247559,12.2212381362915,12.2229681015015,12.2246990203857,12.22642993927,12.2281618118286,12.2298936843872,12.2316265106201,12.233359336853,12.2350931167603,12.2368268966675,12.238561630249,12.2402963638306,12.2420320510864,12.2437686920166,12.2455053329468,12.247241973877,12.2489795684814,12.2507171630859,12.2524557113647,12.2541952133179,12.255934715271,12.2576742172241,12.2594146728516,12.2611560821533,12.2628974914551,12.2646389007568,12.2663812637329,12.2681245803833,12.2730340957642,12.2824430465698,12.2918663024902,12.3013029098511,12.310754776001,12.3202219009399,12.3297023773193,12.3391981124878,12.348708152771,12.3582334518433,12.3677730560303,12.3773279190063,12.3868970870972,12.3964805603027,12.4060792922974,12.4156932830811,12.4253215789795,12.434965133667,12.4446239471436,12.4542970657349,12.4639863967896,12.473690032959,12.4834079742432,12.4931421279907,12.5028915405273,12.512656211853,12.5224351882935,12.5322303771973,12.5420408248901,12.5518665313721,12.5617074966431,12.5715637207031,12.5814361572266,12.5913228988647,12.6012258529663,12.6111450195312,12.6210794448853,12.6310291290283,12.6409950256348,12.6509761810303,12.6609735488892,12.6709861755371,12.6810150146484,12.6910600662231,12.7011203765869,12.7111968994141,12.7212896347046,12.7313976287842,12.7415227890015,12.7516632080078
8.41320419311523,8.41304874420166,8.41289329528809,8.4127368927002,8.41258144378662,8.41242599487305,8.41227054595947,8.4121150970459,8.41195964813232,8.41180419921875,8.41164875030518,8.4114933013916,8.41133785247803,8.41118240356445,8.41102600097656,8.41087055206299,8.41071510314941,8.41055965423584,8.41040420532227,8.41024875640869,8.41009330749512,8.40993785858154,8.40978240966797,8.40962696075439,8.40947151184082,8.40931606292725,8.40916061401367,8.4090051651001,8.40884971618652,8.40869426727295,8.40853881835938,8.4083833694458,8.40822792053223,8.40807247161865,8.40791797637939,8.40776252746582,8.40760707855225,8.40745162963867,8.4072961807251,8.40714073181152,8.40698528289795,8.40682983398438,8.4066743850708,8.40651893615723,8.40636348724365,8.40620899200439,8.40605354309082,8.40589809417725,8.40574264526367,8.4055871963501,8.40543174743652,8.40527725219727,8.40512180328369,8.42393016815186,8.4540958404541,8.48447895050049,8.51508140563965,8.54590511322021,8.57695293426514,8.60822677612305,8.63972949981689,8.67146396636963,8.70343208312988,8.73563766479492,8.76808166503906,8.80076789855957,8.83369827270508,8.86687660217285,8.90030479431152,8.93398571014404,8.96792316436768,9.00211906433105,9.03657627105713,9.07129859924316,9.10628890991211,9.14155101776123,9.17708587646484,9.21289920806885,9.24899196624756,9.28536987304688,9.32203483581543,9.35898971557617,9.39623928070068,9.43378639221191,9.47163486480713,9.50978851318359,9.54825019836426,9.5870246887207,9.6261157989502,9.66552639007568,9.70526123046875,9.74532508850098,9.785719871521,9.82645130157471,9.86752319335938,9.90894031524658,9.95070648193359,9.99282550811768,10.0353031158447,11.6804599761963,11.6802444458008,11.6800289154053,11.6798133850098,11.6795978546143,11.6793823242188,11.5815601348877,11.5727653503418,11.5725517272949,11.5723390579224,11.5721254348755,11.5769872665405,11.5864191055298,11.5958671569824,11.6053304672241,11.677227973938,11.6770124435425,11.676796913147,11.6765813827515,11.676365852356,11.6761503219604,11.6759357452393,11.6757202148438,11.6755046844482,11.6752891540527,11.6750736236572,11.6748580932617,11.6746435165405,11.674427986145,11.6742124557495,11.673996925354,11.6737813949585,11.6735668182373,11.7047605514526,11.7632093429565,11.822244644165,11.881875038147,11.9421110153198,11.9775075912476,11.9791698455811,11.9808320999146,11.9824953079224,11.9841585159302,11.985821723938,11.9874858856201,11.9891500473022,11.9908151626587,11.9924812316895,11.9941473007202,11.995813369751,11.9974803924561,11.9991474151611,12.0008153915405,12.0024833679199,12.0041522979736,12.0058212280273,12.0074911117554,12.0091609954834,12.0108318328857,12.0125026702881,12.0141744613647,12.0158462524414,12.0175189971924,12.0191917419434,12.0208654403687,12.0225391387939,12.0242137908936,12.0258884429932,12.0275640487671,12.029239654541,12.0309152603149,12.0325918197632,12.0342693328857,12.0359468460083,12.0376253128052,12.0393037796021,12.0409822463989,12.0426616668701,12.0443420410156,12.0460224151611,12.047703742981,12.0493850708008,12.0510663986206,12.0527486801147,12.0544319152832,12.0561151504517,12.0577983856201,12.0594825744629,12.0611667633057,12.0628519058228,12.0645380020142,12.0662240982056,12.067910194397,12.0695972442627,12.0712852478027,12.0729732513428,12.0746612548828,12.0763502120972,12.0780391693115,12.0797290802002,12.0814199447632,12.0831108093262,12.0848016738892,12.0864934921265,12.0881853103638,12.0898780822754,12.0915718078613,12.0932645797729,12.0949592590332,12.0966539382935,12.0983486175537,12.1000442504883,12.1017398834229,12.1034364700317,12.1051340103149,12.1068305969238,12.1085290908813,12.1102275848389,12.1119260787964,12.1136255264282,12.1153249740601,12.1170253753662,12.1187257766724,12.1204271316528,12.1221294403076,12.1238317489624,12.1255340576172,12.1272373199463,12.1289405822754,12.1306447982788,12.1323490142822,12.13405418396,12.135760307312,12.1374664306641,12.1391725540161,12.1408796310425,12.1425867080688,12.1442947387695,12.1460037231445,12.1477117538452,12.1494216918945,12.1511316299438,12.1528415679932,12.1545524597168,12.1562643051147,12.1579761505127,12.1596879959106,12.1614007949829,12.1631135940552,12.1648273468018,12.1665420532227,12.1682567596436,12.1699714660645,12.1716871261597,12.1734037399292,12.1751203536987,12.1768369674683,12.1785545349121,12.1802730560303,12.1819915771484,12.1837100982666,12.1854295730591,12.1871500015259,12.1888704299927,12.1905918121338,12.1923131942749,12.194034576416,12.1957569122314,12.1974802017212,12.1992034912109,12.200927734375,12.2026519775391,12.2043771743774,12.2061023712158,12.2078275680542,12.2095546722412,12.2112808227539,12.2130088806152,12.2147359848022,12.2164649963379,12.2181930541992,12.2199230194092,12.2216520309448,12.2233829498291,12.2251138687134,12.2268447875977,12.2285766601562,12.2303085327148,12.2320413589478,12.2337741851807,12.2355079650879,12.2372426986694,12.238977432251,12.2407121658325,12.2424478530884,12.2441835403442,12.2459201812744,12.2476577758789,12.2493953704834,12.2511339187622,12.252872467041,12.2546110153198,12.2563505172729,12.2580909729004,12.2598314285278,12.2615728378296,12.2633142471313,12.2650566101074,12.2667989730835,12.2685413360596,12.2702856063843,12.2791690826416,12.2885866165161,12.2980194091797,12.307466506958,12.3169279098511,12.3264036178589,12.3358945846558,12.3453989028931,12.3549194335938,12.3644533157349,12.374002456665,12.3835668563843,12.3931455612183,12.4027395248413,12.4123477935791,12.421971321106,12.4316091537476,12.4412631988525,12.4509315490723,12.4606142044067,12.4703130722046,12.4800262451172,12.4897556304932,12.4994993209839,12.5092582702637,12.5190324783325,12.5288219451904,12.5386266708374,12.5484476089478,12.5582828521729,12.5681343078613,12.5780010223389,12.5878829956055,12.5977802276611,12.6076936721802,12.6176223754883,12.6275663375854,12.637526512146,12.6475028991699,12.6574945449829,12.667501449585,12.6775255203247,12.6875638961792,12.6976194381714,12.7076902389526,12.7177772521973
8.41308403015137,8.41292858123779,8.41277313232422,8.41261768341064,8.41246223449707,8.4123067855835,8.41215133666992,8.41199588775635,8.41184043884277,8.41168403625488,8.41152858734131,8.41137313842773,8.41121768951416,8.41106224060059,8.41090679168701,8.41075134277344,8.41059589385986,8.41044044494629,8.41028499603271,8.41012954711914,8.40997409820557,8.40981864929199,8.40966320037842,8.40950775146484,8.40935230255127,8.4091968536377,8.40904140472412,8.40888595581055,8.40873050689697,8.4085750579834,8.40841960906982,8.40826416015625,8.40810871124268,8.4079532623291,8.40779781341553,8.40764236450195,8.40748691558838,8.40733242034912,8.40717697143555,8.40702152252197,8.4068660736084,8.40671062469482,8.40655517578125,8.40639972686768,8.4062442779541,8.40608882904053,8.40593433380127,8.4057788848877,8.40562343597412,8.40546798706055,8.40531253814697,8.4051570892334,8.40500259399414,8.42403984069824,8.45420742034912,8.48459053039551,8.51519393920898,8.54601764678955,8.57706642150879,8.60834121704102,8.63984489440918,8.67158031463623,8.7035493850708,8.73575592041016,8.76820087432861,8.80088710784912,8.83381938934326,8.86699771881104,8.90042686462402,8.93410968780518,8.96804714202881,9.0022439956665,9.03670310974121,9.07142639160156,9.10641765594482,9.14167976379395,9.17721652984619,9.21303081512451,9.24912452697754,9.28550338745117,9.32216930389404,9.3591251373291,9.39637565612793,9.43392467498779,9.47177410125732,9.50992870330811,9.54839134216309,9.58716678619385,9.62625885009766,9.66567134857178,9.70540714263916,9.7454719543457,9.78586864471436,9.82660102844238,9.86767482757568,9.90909290313721,9.95086002349854,9.99298095703125,10.0354595184326,11.6802949905396,11.680079460144,11.6798639297485,11.679648399353,11.6794328689575,11.679217338562,11.6790018081665,11.678786277771,11.5763168334961,11.5721740722656,11.5719614028931,11.5717477798462,11.5715341567993,11.5773057937622,11.5867385864258,11.5961866378784,11.6768465042114,11.6766309738159,11.6764163970947,11.6762008666992,11.6759853363037,11.6757698059082,11.6755542755127,11.6753387451172,11.6751232147217,11.6749086380005,11.674693107605,11.6744775772095,11.674262046814,11.6740465164185,11.6738319396973,11.6736164093018,11.6734008789062,11.7049627304077,11.7634134292603,11.8224506378174,11.8820877075195,11.9423322677612,11.9729223251343,11.9745836257935,11.9762439727783,11.9779062271118,11.979567527771,11.9812297821045,11.9828929901123,11.9845561981201,11.9862203598022,11.9878845214844,11.9895486831665,11.9912137985229,11.9928798675537,11.9945459365845,11.9962120056152,11.9978790283203,11.9995470046997,12.0012149810791,12.0028829574585,12.0045518875122,12.0062208175659,12.0078907012939,12.0095615386963,12.0112323760986,12.012903213501,12.0145750045776,12.0162467956543,12.0179195404053,12.0195922851562,12.0212659835815,12.0229396820068,12.0246143341064,12.0262889862061,12.02796459198,12.0296401977539,12.0313167572021,12.0329933166504,12.0346708297729,12.0363483428955,12.0380268096924,12.0397052764893,12.0413846969604,12.0430641174316,12.0447444915771,12.0464248657227,12.0481061935425,12.0497875213623,12.0514688491821,12.0531511306763,12.0548343658447,12.0565176010132,12.058201789856,12.0598859786987,12.0615701675415,12.0632553100586,12.06494140625,12.0666275024414,12.0683145523071,12.0700016021729,12.0716886520386,12.0733766555786,12.075065612793,12.0767545700073,12.0784435272217,12.0801334381104,12.0818243026733,12.0835151672363,12.0852069854736,12.0868988037109,12.0885906219482,12.0902833938599,12.0919771194458,12.0936708450317,12.0953645706177,12.0970592498779,12.0987548828125,12.1004505157471,12.1021461486816,12.1038427352905,12.1055402755737,12.1072368621826,12.1089353561401,12.1106338500977,12.1123323440552,12.114031791687,12.1157321929932,12.1174325942993,12.1191329956055,12.1208343505859,12.1225366592407,12.1242389678955,12.1259412765503,12.1276445388794,12.1293487548828,12.1310529708862,12.1327571868896,12.1344623565674,12.1361684799194,12.1378746032715,12.1395807266235,12.1412878036499,12.1429958343506,12.1447038650513,12.146411895752,12.148120880127,12.1498308181763,12.1515407562256,12.1532516479492,12.1549625396729,12.1566734313965,12.1583852767944,12.1600980758667,12.161810874939,12.1635236740112,12.1652383804321,12.1669521331787,12.1686668395996,12.1703824996948,12.17209815979,12.1738147735596,12.1755313873291,12.1772480010986,12.1789655685425,12.1806840896606,12.1824026107788,12.1841220855713,12.1858415603638,12.1875619888306,12.1892824172974,12.1910037994385,12.1927251815796,12.194447517395,12.1961698532104,12.1978931427002,12.1996164321899,12.201340675354,12.2030649185181,12.2047901153564,12.2065153121948,12.2082414627075,12.2099676132202,12.2116947174072,12.2134218215942,12.2151498794556,12.2168779373169,12.2186069488525,12.2203369140625,12.2220668792725,12.2237968444824,12.2255277633667,12.227258682251,12.2289905548096,12.2307233810425,12.2324562072754,12.2341890335083,12.2359228134155,12.2376575469971,12.2393922805786,12.2411279678345,12.2428636550903,12.2445993423462,12.2463359832764,12.2480735778809,12.2498111724854,12.2515497207642,12.253288269043,12.2550277709961,12.2567672729492,12.2585077285767,12.2602481842041,12.2619895935059,12.2637310028076,12.2654733657837,12.2672157287598,12.2689590454102,12.2707023620605,12.275897026062,12.2853097915649,12.2947368621826,12.3041791915894,12.3136358261108,12.3231058120728,12.332592010498,12.3420915603638,12.3516063690186,12.3611354827881,12.3706798553467,12.38023853302,12.3898124694824,12.3994007110596,12.4090042114258,12.4186229705811,12.4282560348511,12.4379034042358,12.447566986084,12.4572448730469,12.4669380187988,12.4766464233398,12.4863700866699,12.4961080551147,12.5058622360229,12.5156316757202,12.5254154205322,12.5352153778076,12.5450296401978,12.5548601150513,12.5647058486938,12.5745677947998,12.5844440460205,12.5943365097046,12.6042442321777,12.6141672134399,12.6241064071655,12.6340608596802,12.6440315246582,12.6540174484253,12.6640195846558,12.6740369796753,12.6840705871582
8.41296482086182,8.41280937194824,8.41265392303467,8.41249847412109,8.41234302520752,8.41218757629395,8.41203117370605,8.41187572479248,8.41172027587891,8.41156482696533,8.41140937805176,8.41125392913818,8.41109848022461,8.41094303131104,8.41078758239746,8.41063213348389,8.41047668457031,8.41032123565674,8.41016578674316,8.41001033782959,8.40985488891602,8.40969944000244,8.40954399108887,8.40938854217529,8.40923309326172,8.40907764434814,8.40892219543457,8.408766746521,8.40861129760742,8.40845584869385,8.40830039978027,8.4081449508667,8.40798950195312,8.40783405303955,8.40767860412598,8.4075231552124,8.40736770629883,8.40721225738525,8.40705680847168,8.40690231323242,8.40674686431885,8.40659141540527,8.4064359664917,8.40628051757812,8.40612506866455,8.40596961975098,8.4058141708374,8.40565967559814,8.40550422668457,8.405348777771,8.40519332885742,8.40503787994385,8.40488243103027,8.42414951324463,8.45431709289551,8.48470211029053,8.515305519104,8.5461311340332,8.57718086242676,8.6084566116333,8.63996124267578,8.67169666290283,8.70366668701172,8.73587417602539,8.76832008361816,8.80100727081299,8.83393955230713,8.86711978912354,8.90054988861084,8.93423271179199,8.96817207336426,9.00236988067627,9.03682899475098,9.07155418395996,9.10654640197754,9.14180946350098,9.17734718322754,9.21316146850586,9.24925708770752,9.28563690185547,9.32230377197266,9.35926151275635,9.39651298522949,9.43406200408936,9.4719123840332,9.51006889343262,9.54853248596191,9.58730983734131,9.62640285491943,9.66581630706787,9.70555400848389,9.74561882019043,9.7860164642334,9.82675075531006,9.86782550811768,9.90924453735352,9.95101356506348,9.99313545227051,10.0356159210205,11.6801290512085,11.679913520813,11.6796979904175,11.679482460022,11.6792669296265,11.679051399231,11.6788358688354,11.6786203384399,11.6784048080444,11.6781892776489,11.5717964172363,11.5715827941895,11.5713701248169,11.57115650177,11.5709438323975,11.5776233673096,11.5870571136475,11.5965061187744,11.5974225997925,11.5973587036133,11.5972909927368,11.597222328186,11.5971527099609,11.5970840454102,11.5970153808594,11.5969467163086,11.5968770980835,11.5968084335327,11.6740970611572,11.6738815307617,11.6736660003662,11.6734504699707,11.6732358932495,11.7051658630371,11.7636184692383,11.8226642608643,11.882306098938,11.9425525665283,11.9683408737183,11.9700002670288,11.9716596603394,11.9733200073242,11.9749813079834,11.9766416549683,11.9783039093018,11.9799652099609,11.9816284179688,11.9832906723022,11.9849548339844,11.9866180419922,11.9882822036743,11.9899473190308,11.9916124343872,11.993278503418,11.9949445724487,11.9966115951538,11.9982786178589,11.999945640564,12.0016136169434,12.0032825469971,12.0049514770508,12.0066213607788,12.0082912445068,12.0099611282349,12.0116319656372,12.0133037567139,12.0149745941162,12.0166473388672,12.0183200836182,12.0199928283691,12.0216665267944,12.023341178894,12.0250158309937,12.0266904830933,12.0283660888672,12.0300416946411,12.0317182540894,12.0333948135376,12.0350723266602,12.0367498397827,12.0384283065796,12.0401077270508,12.0417861938477,12.0434665679932,12.0451459884644,12.0468273162842,12.0485076904297,12.0501899719238,12.0518712997437,12.0535545349121,12.0552368164062,12.056921005249,12.0586042404175,12.0602893829346,12.0619735717773,12.0636596679688,12.0653448104858,12.0670309066772,12.068717956543,12.0704050064087,12.0720930099487,12.0737810134888,12.0754699707031,12.0771589279175,12.0788488388062,12.0805387496948,12.0822286605835,12.0839195251465,12.0856113433838,12.0873031616211,12.0889959335327,12.0906887054443,12.0923824310303,12.0940761566162,12.0957698822021,12.0974645614624,12.099160194397,12.1008558273315,12.1025524139404,12.1042490005493,12.1059465408325,12.1076440811157,12.1093416213989,12.1110401153564,12.1127395629883,12.1144390106201,12.1161394119263,12.1178398132324,12.1195402145386,12.121241569519,12.1229438781738,12.1246461868286,12.1263494491577,12.1280527114868,12.1297569274902,12.1314611434937,12.1331653594971,12.1348705291748,12.1365766525269,12.1382827758789,12.1399898529053,12.1416969299316,12.1434049606323,12.145112991333,12.1468210220337,12.1485300064087,12.150239944458,12.1519498825073,12.153660774231,12.1553716659546,12.1570835113525,12.1587953567505,12.1605081558228,12.162220954895,12.1639347076416,12.1656484603882,12.1673622131348,12.16907787323,12.1707925796509,12.1725091934204,12.1742248535156,12.1759424209595,12.177659034729,12.1793775558472,12.181095123291,12.1828145980835,12.1845331192017,12.1862535476685,12.1879739761353,12.1896944046021,12.1914157867432,12.1931371688843,12.1948595046997,12.1965818405151,12.1983051300049,12.2000284194946,12.2017526626587,12.2034778594971,12.2052030563354,12.2069282531738,12.2086544036865,12.2103805541992,12.2121076583862,12.2138357162476,12.2155637741089,12.2172918319702,12.2190208435059,12.2207508087158,12.2224807739258,12.2242107391357,12.22594165802,12.2276735305786,12.2294054031372,12.2311382293701,12.232871055603,12.2346048355103,12.2363386154175,12.2380723953247,12.2398071289062,12.2415428161621,12.243278503418,12.2450151443481,12.2467517852783,12.2484893798828,12.2502269744873,12.2519655227661,12.2537050247192,12.255443572998,12.2571840286255,12.2589244842529,12.2606649398804,12.2624063491821,12.2641477584839,12.26589012146,12.2676334381104,12.2693767547607,12.2711200714111,12.2728643417358,12.2820348739624,12.2914571762085,12.3008937835693,12.3103446960449,12.3198108673096,12.329291343689,12.3387861251831,12.3482961654663,12.3578195571899,12.367359161377,12.3769130706787,12.3864812850952,12.3960647583008,12.4056625366211,12.4152755737305,12.4249038696289,12.4345464706421,12.4442043304443,12.4538774490356,12.4635648727417,12.4732685089111,12.4829864501953,12.4927196502686,12.5024681091309,12.5122318267822,12.5220108032227,12.5318050384521,12.5416145324707,12.5514392852783,12.5612802505493,12.5711355209351,12.5810070037842,12.5908937454224,12.6007966995239,12.6107139587402,12.6206474304199,12.630597114563,12.6405620574951,12.6505422592163
8.41284561157227,8.41269016265869,8.41253471374512,8.41237831115723,8.41222286224365,8.41206741333008,8.4119119644165,8.41175651550293,8.41160106658936,8.41144561767578,8.41129016876221,8.41113471984863,8.41097927093506,8.41082382202148,8.41066837310791,8.41051292419434,8.41035747528076,8.41020107269287,8.4100456237793,8.40989017486572,8.40973472595215,8.40957927703857,8.409423828125,8.40926837921143,8.40911293029785,8.40895748138428,8.40880298614502,8.40864753723145,8.40849208831787,8.4083366394043,8.40818119049072,8.40802574157715,8.40787029266357,8.40771484375,8.40755939483643,8.40740394592285,8.40724849700928,8.4070930480957,8.40693759918213,8.40678215026855,8.4066276550293,8.40647220611572,8.40631675720215,8.40616130828857,8.406005859375,8.40585041046143,8.40569496154785,8.40553951263428,8.40538501739502,8.40522956848145,8.40507411956787,8.4049186706543,8.40476322174072,8.42426013946533,8.45442867279053,8.48481369018555,8.51541805267334,8.54624462127686,8.57729434967041,8.60857105255127,8.64007663726807,8.67181301116943,8.70378398895264,8.73599147796631,8.7684383392334,8.80112743377686,8.83406066894531,8.86724185943604,8.90067291259766,8.93435668945312,8.96829605102539,9.00249481201172,9.03695583343506,9.07168102264404,9.10667419433594,9.14193916320801,9.17747783660889,9.21329307556152,9.2493896484375,9.28577041625977,9.32243824005127,9.35939693450928,9.39664936065674,9.43420028686523,9.4720516204834,9.51020812988281,9.54867362976074,9.58745193481445,9.62654590606689,9.66596126556396,9.7056999206543,9.74576663970947,9.78616523742676,9.82690048217773,9.86797618865967,9.90939712524414,9.95116710662842,9.99328994750977,10.0357723236084,11.6799631118774,11.6797475814819,11.6795320510864,11.6793165206909,11.6791009902954,11.6788854598999,11.6786699295044,11.6784543991089,11.6782388687134,11.6780233383179,11.6778087615967,11.6775932312012,11.5712051391602,11.5709915161133,11.5707788467407,11.5705652236938,11.5703525543213,11.5728950500488,11.5728311538696,11.5727682113647,11.5727043151855,11.5726404190063,11.5725774765015,11.5725135803223,11.5724506378174,11.5723867416382,11.5723209381104,11.5936546325684,11.6739311218262,11.6737155914307,11.6735010147095,11.673285484314,11.6730699539185,11.7053718566895,11.7638330459595,11.8228807449341,11.8825244903564,11.9427728652954,11.9637632369995,11.9654207229614,11.9670791625977,11.9687385559082,11.9703979492188,11.9720573425293,11.9737176895142,11.975378036499,11.9770393371582,11.9787015914917,11.9803638458252,11.9820261001587,11.9836893081665,11.9853525161743,11.9870166778564,11.9886808395386,11.990345954895,11.9920110702515,11.9936771392822,11.995343208313,11.9970102310181,11.9986772537231,12.0003452301025,12.0020132064819,12.0036821365356,12.0053510665894,12.0070209503174,12.0086908340454,12.0103607177734,12.0120315551758,12.0137033462524,12.0153751373291,12.0170478820801,12.0187206268311,12.020393371582,12.0220670700073,12.0237417221069,12.0254163742065,12.0270910263062,12.0287666320801,12.0304431915283,12.0321197509766,12.0337963104248,12.0354738235474,12.0371522903442,12.0388307571411,12.040509223938,12.0421886444092,12.0438680648804,12.0455484390259,12.0472297668457,12.0489110946655,12.0505924224854,12.0522747039795,12.0539569854736,12.0556402206421,12.0573234558105,12.0590076446533,12.0606918334961,12.0623769760132,12.0640630722046,12.0657482147217,12.0674352645874,12.0691213607788,12.0708093643188,12.0724973678589,12.0741853713989,12.0758743286133,12.0775632858276,12.0792531967163,12.080943107605,12.082633972168,12.084324836731,12.0860166549683,12.0877084732056,12.0894012451172,12.0910940170288,12.0927877426147,12.0944814682007,12.0961761474609,12.0978708267212,12.0995664596558,12.1012620925903,12.1029586791992,12.1046552658081,12.1063528060913,12.1080503463745,12.109748840332,12.1114473342896,12.1131458282471,12.1148462295532,12.1165456771851,12.1182470321655,12.1199474334717,12.1216497421265,12.1233510971069,12.125054359436,12.1267566680908,12.1284608840942,12.1301641464233,12.1318683624268,12.1335735321045,12.1352787017822,12.1369848251343,12.1386909484863,12.1403980255127,12.1421051025391,12.1438131332397,12.1455211639404,12.1472301483154,12.1489400863647,12.1506490707397,12.1523599624634,12.1540699005127,12.1557817459106,12.1574926376343,12.1592054367065,12.1609182357788,12.1626310348511,12.1643447875977,12.1660585403442,12.1677732467651,12.169487953186,12.1712036132812,12.1729192733765,12.174635887146,12.1763534545898,12.1780700683594,12.1797885894775,12.1815071105957,12.1832256317139,12.1849451065063,12.1866645812988,12.1883850097656,12.1901063919067,12.1918277740479,12.193549156189,12.1952714920044,12.1969947814941,12.1987180709839,12.2004413604736,12.2021656036377,12.2038908004761,12.2056159973145,12.2073411941528,12.2090673446655,12.2107944488525,12.2125215530396,12.2142496109009,12.2159776687622,12.2177057266235,12.2194347381592,12.2211647033691,12.2228946685791,12.2246255874634,12.2263565063477,12.2280883789062,12.2298202514648,12.2315530776978,12.2332859039307,12.2350196838379,12.2367534637451,12.2384881973267,12.2402229309082,12.2419586181641,12.2436943054199,12.2454309463501,12.2471675872803,12.2489051818848,12.2506437301636,12.2523822784424,12.2541208267212,12.2558603286743,12.2575998306274,12.2593402862549,12.2610816955566,12.2628231048584,12.2645654678345,12.2663078308105,12.2680501937866,12.269793510437,12.2715377807617,12.2732820510864,12.2787609100342,12.2881784439087,12.2976102828979,12.307056427002,12.3165168762207,12.3259925842285,12.3354816436768,12.3449869155884,12.3545055389404,12.3640394210815,12.3735885620117,12.3831520080566,12.3927297592163,12.402322769165,12.4119310379028,12.4215536117554,12.431191444397,12.4408435821533,12.4505109786987,12.4601945877075,12.4698915481567,12.4796047210693,12.489333152771,12.4990758895874,12.5088348388672,12.5186080932617,12.5283966064453,12.5382013320923,12.5480213165283,12.5578556060791,12.5677061080933,12.5775718688965,12.5874538421631,12.5973501205444,12.6072626113892,12.6171913146973
8.4127254486084,8.41256999969482,8.41241455078125,8.41225910186768,8.4121036529541,8.41194820404053,8.41179275512695,8.41163730621338,8.4114818572998,8.41132640838623,8.41117000579834,8.41101455688477,8.41085910797119,8.41070365905762,8.41054821014404,8.41039276123047,8.41023731231689,8.41008186340332,8.40992641448975,8.40977096557617,8.4096155166626,8.40946006774902,8.40930461883545,8.40914916992188,8.4089937210083,8.40883827209473,8.40868282318115,8.40852737426758,8.408371925354,8.40821647644043,8.40806102752686,8.4079065322876,8.40775108337402,8.40759563446045,8.40744018554688,8.4072847366333,8.40712928771973,8.40697383880615,8.40681838989258,8.406662940979,8.40650749206543,8.40635204315186,8.4061975479126,8.40604209899902,8.40588665008545,8.40573120117188,8.4055757522583,8.40542030334473,8.40526580810547,8.40511035919189,8.40495491027832,8.40479946136475,8.40464401245117,8.42436981201172,8.45453929901123,8.48492527008057,8.51553058624268,8.54635715484619,8.57740783691406,8.60868549346924,8.64019203186035,8.67192935943604,8.70390129089355,8.73610973358154,8.76855754852295,8.80124759674072,8.8341817855835,8.86736297607422,8.90079498291016,8.93448066711426,8.96842098236084,9.00262069702148,9.03708267211914,9.07180881500244,9.10680294036865,9.14206790924072,9.17760753631592,9.21342468261719,9.24952220916748,9.28590393066406,9.32257270812988,9.35953235626221,9.3967866897583,9.4343376159668,9.47219085693359,9.51034832000732,9.54881477355957,9.5875940322876,9.62668991088867,9.66610622406006,9.70584583282471,9.7459135055542,9.78631401062012,9.82705020904541,9.86812782287598,9.90954971313477,9.95132064819336,9.99344539642334,10.035927772522,11.6797971725464,11.6795816421509,11.6793661117554,11.6791505813599,11.6789350509644,11.6787204742432,11.6785049438477,11.6782894134521,11.6780738830566,11.6778583526611,11.6776428222656,11.6774272918701,11.6772117614746,11.6769962310791,11.570613861084,11.5704011917114,11.5701875686646,11.5699739456177,11.5697612762451,11.5695476531982,11.5693340301514,11.5691204071045,11.5689067840576,11.5686931610107,11.5684804916382,11.5682668685913,11.5680532455444,11.5938749313354,11.6737651824951,11.6735506057739,11.6733350753784,11.6731195449829,11.6729040145874,11.7055835723877,11.7640466690063,11.8230972290039,11.8827428817749,11.9429941177368,11.9591884613037,11.9608449935913,11.9625015258789,11.9641599655151,11.9658174514771,11.9674758911133,11.9691352844238,11.9707946777344,11.9724550247192,11.9741153717041,11.975775718689,11.9774370193481,11.9790992736816,11.9807615280151,11.9824237823486,11.9840869903564,11.9857511520386,11.9874153137207,11.9890794754028,11.9907445907593,11.9924097061157,11.9940757751465,11.9957427978516,11.9974088668823,11.9990768432617,12.0007448196411,12.0024127960205,12.0040817260742,12.0057506561279,12.007420539856,12.009090423584,12.0107612609863,12.0124320983887,12.0141038894653,12.015775680542,12.017448425293,12.0191211700439,12.0207939147949,12.0224676132202,12.0241422653198,12.0258169174194,12.0274925231934,12.0291681289673,12.0308446884155,12.0325212478638,12.034197807312,12.0358753204346,12.0375537872314,12.0392322540283,12.0409107208252,12.0425901412964,12.0442705154419,12.0459508895874,12.0476322174072,12.0493135452271,12.0509948730469,12.052677154541,12.0543594360352,12.0560426712036,12.0577268600464,12.0594110488892,12.0610952377319,12.062780380249,12.0644664764404,12.0661525726318,12.0678386688232,12.069525718689,12.0712127685547,12.0729007720947,12.0745897293091,12.0762786865234,12.0779676437378,12.0796575546265,12.0813474655151,12.0830383300781,12.0847291946411,12.0864210128784,12.08811378479,12.0898065567017,12.0914993286133,12.0931930541992,12.0948867797852,12.0965814590454,12.0982761383057,12.0999717712402,12.1016683578491,12.1033639907837,12.1050615310669,12.1067590713501,12.1084566116333,12.1101551055908,12.1118535995483,12.1135530471802,12.115252494812,12.1169528961182,12.1186542510986,12.1203546524048,12.1220569610596,12.1237592697144,12.1254615783691,12.1271648406982,12.1288681030273,12.1305723190308,12.1322765350342,12.1339817047119,12.135687828064,12.1373929977417,12.1391000747681,12.1408071517944,12.1425142288208,12.1442222595215,12.1459302902222,12.1476392745972,12.1493492126465,12.1510591506958,12.1527690887451,12.1544799804688,12.1561908721924,12.1579027175903,12.1596155166626,12.1613273620605,12.1630411148071,12.1647548675537,12.1664686203003,12.1681833267212,12.1698989868164,12.1716146469116,12.1733303070068,12.1750469207764,12.1767644882202,12.1784820556641,12.1801996231079,12.1819181442261,12.1836376190186,12.185357093811,12.1870765686035,12.1887969970703,12.1905183792114,12.1922397613525,12.1939611434937,12.1956844329834,12.1974067687988,12.1991300582886,12.2008543014526,12.2025785446167,12.2043037414551,12.2060289382935,12.2077541351318,12.2094812393188,12.2112073898315,12.2129354476929,12.2146625518799,12.2163906097412,12.2181196212769,12.2198486328125,12.2215785980225,12.2233085632324,12.2250394821167,12.2267713546753,12.2285022735596,12.2302350997925,12.2319679260254,12.2337007522583,12.2354345321655,12.2371683120728,12.2389030456543,12.2406387329102,12.242374420166,12.2441101074219,12.2458467483521,12.2475833892822,12.2493209838867,12.2510595321655,12.2527980804443,12.2545375823975,12.2562770843506,12.2580165863037,12.2597570419312,12.2614984512329,12.2632398605347,12.2649822235107,12.2667245864868,12.2684679031372,12.2702112197876,12.2719554901123,12.273699760437,12.2754888534546,12.2849016189575,12.2943277359009,12.3037691116333,12.3132247924805,12.3226947784424,12.3321800231934,12.3416795730591,12.3511934280396,12.3607225418091,12.3702659606934,12.3798236846924,12.3893966674805,12.3989849090576,12.4085874557495,12.4182052612305,12.4278373718262,12.4374847412109,12.4471473693848,12.4568252563477,12.4665174484253,12.476224899292,12.4859476089478,12.4956855773926,12.5054388046265,12.5152072906494,12.5249910354614,12.5347900390625,12.5446043014526,12.5544338226318,12.5642786026001,12.5741395950317,12.5840148925781
8.41260623931885,8.41245079040527,8.4122953414917,8.41213989257812,8.41198444366455,8.41182899475098,8.41167259216309,8.41151714324951,8.41136169433594,8.41120624542236,8.41105079650879,8.41089534759521,8.41073989868164,8.41058444976807,8.41042900085449,8.41027355194092,8.41011810302734,8.40996265411377,8.4098072052002,8.40965175628662,8.40949630737305,8.40934085845947,8.4091854095459,8.40902996063232,8.40887451171875,8.40871906280518,8.4085636138916,8.40840816497803,8.40825271606445,8.40809726715088,8.4079418182373,8.40778636932373,8.40763092041016,8.40747547149658,8.40732097625732,8.40716552734375,8.40701007843018,8.4068546295166,8.40669918060303,8.40654373168945,8.40638828277588,8.4062328338623,8.40607738494873,8.40592288970947,8.4057674407959,8.40561199188232,8.40545654296875,8.40530109405518,8.4051456451416,8.40499114990234,8.40483570098877,8.4046802520752,8.40452480316162,8.42447948455811,8.45464992523193,8.48503684997559,8.51564311981201,8.54647064208984,8.57752227783203,8.60880088806152,8.64030742645264,8.67204666137695,8.70401859283447,8.73622798919678,8.7686767578125,8.80136775970459,8.83430290222168,8.86748504638672,8.90091800689697,8.93460369110107,8.96854591369629,9.00274658203125,9.03720855712891,9.07193660736084,9.10693168640137,9.14219760894775,9.17773818969727,9.21355628967285,9.24965476989746,9.28603744506836,9.3227071762085,9.35966777801514,9.39692306518555,9.43447589874268,9.47233009338379,9.51048851013184,9.54895687103271,9.58773708343506,9.62683391571045,9.66625022888184,9.70599174499512,9.74606132507324,9.78646183013916,9.82719993591309,9.86827850341797,9.90970134735107,9.9514741897583,9.9935998916626,10.0360841751099,11.6796321868896,11.6794166564941,11.6792011260986,11.6789855957031,11.6787700653076,11.6785545349121,11.6783390045166,11.6781234741211,11.6779079437256,11.6776924133301,11.6774768829346,11.6772613525391,11.6770458221436,11.676830291748,11.6766147613525,11.6764001846313,11.5700225830078,11.5698099136353,11.5695962905884,11.5693826675415,11.5691690444946,11.5689554214478,11.5687427520752,11.5685291290283,11.5683155059814,11.5681018829346,11.567889213562,11.5940961837769,11.6736001968384,11.6733846664429,11.6731691360474,11.6729545593262,11.6727390289307,11.7057952880859,11.7642602920532,11.8233127593994,11.8829612731934,11.9432144165039,11.9546165466309,11.9562721252441,11.9579286575317,11.959584236145,11.9612417221069,11.9628982543945,11.9645566940308,11.9662141799927,11.9678735733032,11.9695320129395,11.9711923599243,11.9728517532349,11.974513053894,11.9761734008789,11.9778347015381,11.9794969558716,11.9811592102051,11.9828224182129,11.9844856262207,11.9861488342285,11.9878129959106,11.9894781112671,11.9911432266235,11.99280834198,11.9944744110107,11.9961414337158,11.9978084564209,11.999475479126,12.0011434555054,12.0028123855591,12.0044813156128,12.0061502456665,12.0078201293945,12.0094900131226,12.0111608505249,12.0128316879272,12.0145034790039,12.0161762237549,12.0178480148315,12.0195217132568,12.0211944580078,12.0228691101074,12.0245428085327,12.0262184143066,12.0278930664062,12.0295696258545,12.0312452316284,12.032922744751,12.0345993041992,12.0362768173218,12.0379552841187,12.0396337509155,12.0413131713867,12.0429925918579,12.0446729660034,12.0463533401489,12.0480337142944,12.0497159957886,12.0513973236084,12.0530796051025,12.054762840271,12.0564460754395,12.0581302642822,12.059814453125,12.0614986419678,12.0631837844849,12.0648698806763,12.0665559768677,12.0682420730591,12.0699291229248,12.0716171264648,12.0733051300049,12.0749940872192,12.0766830444336,12.0783720016479,12.0800619125366,12.0817527770996,12.0834436416626,12.0851345062256,12.0868263244629,12.0885190963745,12.0902118682861,12.0919046401978,12.0935983657837,12.0952920913696,12.0969867706299,12.0986824035645,12.100378036499,12.1020736694336,12.1037702560425,12.1054677963257,12.1071653366089,12.1088628768921,12.1105613708496,12.1122608184814,12.1139602661133,12.1156597137451,12.1173601150513,12.1190614700317,12.1207618713379,12.1224641799927,12.1241664886475,12.1258687973022,12.1275720596313,12.1292762756348,12.1309804916382,12.1326847076416,12.1343898773193,12.1360960006714,12.1378021240234,12.1395082473755,12.1412153244019,12.1429233551025,12.1446313858032,12.1463394165039,12.1480484008789,12.1497583389282,12.1514682769775,12.1531782150269,12.1548891067505,12.1566009521484,12.1583127975464,12.1600246429443,12.1617374420166,12.1634511947632,12.1651649475098,12.1668796539307,12.1685943603516,12.1703090667725,12.1720247268677,12.1737413406372,12.1754579544067,12.1771755218506,12.1788930892944,12.1806106567383,12.1823301315308,12.1840486526489,12.1857681274414,12.1874885559082,12.189208984375,12.1909303665161,12.1926517486572,12.1943740844727,12.1960964202881,12.1978197097778,12.1995429992676,12.2012672424316,12.2029914855957,12.2047166824341,12.2064418792725,12.2081680297852,12.2098941802979,12.2116212844849,12.2133483886719,12.2150764465332,12.2168045043945,12.2185335159302,12.2202634811401,12.2219924926758,12.2237234115601,12.2254543304443,12.2271852493286,12.2289171218872,12.2306499481201,12.232382774353,12.2341156005859,12.2358493804932,12.2375841140747,12.2393188476562,12.2410535812378,12.2427892684937,12.2445259094238,12.246262550354,12.2480001449585,12.249737739563,12.2514753341675,12.2532138824463,12.2549533843994,12.2566928863525,12.25843334198,12.2601737976074,12.2619152069092,12.2636566162109,12.265398979187,12.2671413421631,12.2688846588135,12.2706289291382,12.2723722457886,12.2741174697876,12.2758626937866,12.2816257476807,12.2910480499268,12.3004837036133,12.3099346160889,12.3193998336792,12.3288793563843,12.3383741378784,12.3478832244873,12.3574066162109,12.3669452667236,12.3764982223511,12.3860654830933,12.3956480026245,12.4052457809448,12.4148588180542,12.424485206604,12.4341278076172,12.4437847137451,12.4534578323364,12.4631443023682,12.4728469848633,12.4825649261475,12.4922971725464,12.5020446777344,12.5118083953857,12.5215864181519,12.531379699707,12.5411891937256,12.5510129928589
8.4124870300293,8.41233158111572,8.41217517852783,8.41201972961426,8.41186428070068,8.41170883178711,8.41155338287354,8.41139793395996,8.41124248504639,8.41108703613281,8.41093158721924,8.41077613830566,8.41062068939209,8.41046524047852,8.41030979156494,8.41015434265137,8.40999889373779,8.40984344482422,8.40968799591064,8.40953254699707,8.4093770980835,8.40922164916992,8.40906620025635,8.40891075134277,8.4087553024292,8.40859985351562,8.40844440460205,8.40828895568848,8.4081335067749,8.40797805786133,8.40782260894775,8.40766716003418,8.40751171112061,8.40735626220703,8.40720081329346,8.40704536437988,8.40689086914062,8.40673542022705,8.40657997131348,8.4064245223999,8.40626907348633,8.40611362457275,8.40595817565918,8.40580272674561,8.40564823150635,8.40549278259277,8.4053373336792,8.40518188476562,8.40502643585205,8.40487098693848,8.40471649169922,8.40456104278564,8.40440559387207,8.42458915710449,8.45476055145264,8.48514842987061,8.51575469970703,8.5465841293335,8.57763671875,8.60891532897949,8.64042282104492,8.67216300964355,8.70413589477539,8.73634624481201,8.76879596710205,8.80148792266846,8.83442306518555,8.86760711669922,8.90104103088379,8.93472766876221,8.96866989135742,9.0028715133667,9.03733539581299,9.07206344604492,9.10706043243408,9.14232730865479,9.17786884307861,9.21368789672852,9.24978733062744,9.28617095947266,9.32284164428711,9.35980415344238,9.39705944061279,9.43461322784424,9.47246837615967,9.51062870025635,9.54909801483154,9.5878791809082,9.62697696685791,9.66639518737793,9.70613765716553,9.74620819091797,9.78661060333252,9.82734966278076,9.86842918395996,9.9098539352417,9.95162773132324,9.99375534057617,10.0362405776978,11.6794662475586,11.6792507171631,11.6790351867676,11.6788196563721,11.6786041259766,11.6783885955811,11.6781730651855,11.67795753479,11.6777420043945,11.677526473999,11.6773109436035,11.677095413208,11.6768798828125,11.6766653060913,11.6764497756958,11.6762342453003,11.6760187149048,11.6758031845093,11.6755876541138,11.6753721237183,11.6751575469971,11.6749420166016,11.6747264862061,11.6229200363159,11.674295425415,11.6740808486938,11.6738653182983,11.6736497879028,11.6734342575073,11.6732196807861,11.6730041503906,11.6727886199951,11.6725730895996,11.7060070037842,11.7644748687744,11.8235292434692,11.8831796646118,11.943434715271,11.9500494003296,11.9517030715942,11.9533576965332,11.9550132751465,11.9566688537598,11.958324432373,11.9599809646606,11.9616384506226,11.9632959365845,11.9649534225464,11.9666118621826,11.9682703018188,11.9699296951294,11.9715890884399,11.9732494354248,11.9749097824097,11.9765710830688,11.978232383728,11.9798946380615,11.981556892395,11.9832201004028,11.9848833084106,11.9865474700928,11.9882116317749,11.9898767471313,11.9915418624878,11.9932079315186,11.9948740005493,11.9965400695801,11.9982070922852,11.9998750686646,12.0015430450439,12.0032119750977,12.0048809051514,12.0065498352051,12.0082197189331,12.0098896026611,12.0115604400635,12.0132322311401,12.0149040222168,12.0165758132935,12.0182485580444,12.0199222564697,12.021595954895,12.0232696533203,12.0249443054199,12.0266189575195,12.0282945632935,12.0299701690674,12.0316467285156,12.0333232879639,12.0350008010864,12.0366792678833,12.0383567810059,12.0400362014771,12.0417146682739,12.0433950424194,12.0450744628906,12.0467557907104,12.048436164856,12.0501184463501,12.0517997741699,12.0534830093384,12.0551652908325,12.0568494796753,12.0585327148438,12.0602169036865,12.0619020462036,12.0635871887207,12.0652732849121,12.0669593811035,12.0686464309692,12.070333480835,12.072021484375,12.073709487915,12.0753974914551,12.0770874023438,12.0787763595581,12.0804662704468,12.0821571350098,12.0838479995728,12.0855398178101,12.0872316360474,12.0889234542847,12.0906162261963,12.0923099517822,12.0940036773682,12.0956983566284,12.0973930358887,12.0990877151489,12.1007843017578,12.1024799346924,12.1041765213013,12.1058740615845,12.1075716018677,12.1092691421509,12.1109685897827,12.1126670837402,12.1143665313721,12.1160669326782,12.1177673339844,12.1194677352905,12.1211700439453,12.1228713989258,12.1245737075806,12.1262769699097,12.1279802322388,12.1296834945679,12.1313886642456,12.133092880249,12.1347980499268,12.1365041732788,12.1382102966309,12.1399173736572,12.1416244506836,12.14333152771,12.1450395584106,12.1467485427856,12.1484575271606,12.15016746521,12.1518774032593,12.1535882949829,12.1552991867065,12.1570100784302,12.1587228775024,12.1604347229004,12.1621475219727,12.1638612747192,12.1655750274658,12.1672897338867,12.1690044403076,12.1707201004028,12.172435760498,12.1741523742676,12.1758689880371,12.177586555481,12.1793041229248,12.181022644043,12.1827411651611,12.1844606399536,12.1861801147461,12.1879005432129,12.1896209716797,12.1913423538208,12.1930637359619,12.1947860717773,12.1965084075928,12.1982316970825,12.1999559402466,12.2016792297363,12.2034044265747,12.2051296234131,12.2068548202515,12.2085809707642,12.2103071212769,12.2120342254639,12.2137622833252,12.2154903411865,12.2172183990479,12.2189474105835,12.2206773757935,12.2224073410034,12.2241373062134,12.2258682250977,12.2276000976562,12.2293319702148,12.2310638427734,12.2327976226807,12.2345304489136,12.2362642288208,12.2379989624023,12.2397336959839,12.2414693832397,12.2432050704956,12.2449417114258,12.246678352356,12.2484159469604,12.2501535415649,12.2518920898438,12.2536306381226,12.2553701400757,12.2571096420288,12.2588500976562,12.2605905532837,12.2623319625854,12.2640743255615,12.2658157348633,12.2675590515137,12.2693023681641,12.2710456848145,12.2727899551392,12.2745351791382,12.2762804031372,12.2783527374268,12.287769317627,12.2972002029419,12.3066463470459,12.3161058425903,12.3255805969238,12.3350696563721,12.3445739746094,12.3540925979614,12.3636255264282,12.3731737136841,12.3827362060547,12.3923139572144,12.4019060134888,12.4115133285522,12.4211359024048,12.4307727813721,12.4404249191284,12.4500913619995,12.459774017334,12.4694709777832,12.4791831970215,12.4889106750488,12.4986524581909,12.5084104537964,12.5181837081909
8.41236686706543,8.41221141815186,8.41205596923828,8.41190052032471,8.41174507141113,8.41158962249756,8.41143417358398,8.41127872467041,8.41112327575684,8.41096782684326,8.41081237792969,8.41065692901611,8.41050148010254,8.41034507751465,8.41018962860107,8.4100341796875,8.40987873077393,8.40972328186035,8.40956783294678,8.4094123840332,8.40925693511963,8.40910148620605,8.40894603729248,8.40879058837891,8.40863609313965,8.40848064422607,8.4083251953125,8.40816974639893,8.40801429748535,8.40785884857178,8.4077033996582,8.40754795074463,8.40739250183105,8.40723705291748,8.40708160400391,8.40692615509033,8.40677070617676,8.40661525726318,8.40646076202393,8.40630531311035,8.40614986419678,8.4059944152832,8.40583896636963,8.40568351745605,8.40552806854248,8.40537357330322,8.40521812438965,8.40506267547607,8.4049072265625,8.40475177764893,8.40459728240967,8.40444183349609,8.40428638458252,8.4246997833252,8.45487117767334,8.48526000976562,8.51586723327637,8.54669666290283,8.57775020599365,8.60902976989746,8.64053916931152,8.67227935791016,8.70425415039062,8.73646450042725,8.7689151763916,8.80160713195801,8.83454418182373,8.86772918701172,8.90116310119629,8.93485069274902,8.96879482269287,9.00299739837646,9.03746223449707,9.07219123840332,9.10718822479248,9.14245700836182,9.17799949645996,9.21381950378418,9.24991989135742,9.28630447387695,9.32297706604004,9.35993957519531,9.39719676971436,9.43475151062012,9.47260761260986,9.51076889038086,9.54923915863037,9.58802223205566,9.62712097167969,9.66654014587402,9.70628356933594,9.7463550567627,9.78675937652588,9.82749938964844,9.86857986450195,9.91000556945801,9.95178127288818,9.99390983581543,10.0363969802856,11.6793003082275,11.679084777832,11.6788692474365,11.678653717041,11.6784381866455,11.67822265625,11.6780071258545,11.677791595459,11.6775760650635,11.677360534668,11.6771459579468,11.6769304275513,11.6767148971558,11.6764993667603,11.6762838363647,11.6760683059692,11.6758527755737,11.6756372451782,11.675422668457,11.6752071380615,11.674991607666,11.6747760772705,11.674560546875,11.6347455978394,11.6730289459229,11.6737623214722,11.6736993789673,11.6734838485718,11.6732692718506,11.6730537414551,11.6728382110596,11.6726236343384,11.6724081039429,11.7062196731567,11.7646884918213,11.8237457275391,11.8833980560303,11.9436550140381,11.9454851150513,11.9471378326416,11.9487915039062,11.9504451751709,11.9520988464355,11.9537544250488,11.9554090499878,11.9570646286011,11.9587211608887,11.9603776931763,11.9620351791382,11.9636926651001,11.965350151062,11.9670085906982,11.9686679840088,11.970326423645,11.9719867706299,11.9736471176147,11.9753074645996,11.9769687652588,11.9786310195923,11.9802923202515,11.9819555282593,11.9836187362671,11.9852819442749,11.986946105957,11.9886102676392,11.9902753829956,11.9919404983521,11.9936065673828,11.9952726364136,11.9969396591187,11.9986066818237,12.0002746582031,12.0019426345825,12.0036106109619,12.0052795410156,12.0069494247437,12.0086193084717,12.010290145874,12.0119609832764,12.0136318206787,12.0153045654297,12.0169763565063,12.0186491012573,12.0203227996826,12.0219964981079,12.0236701965332,12.0253448486328,12.0270204544067,12.0286960601807,12.0303716659546,12.0320482254028,12.0337247848511,12.0354022979736,12.0370807647705,12.0387592315674,12.0404376983643,12.0421171188354,12.0437965393066,12.0454769134521,12.047158241272,12.0488386154175,12.0505208969116,12.0522031784058,12.0538854598999,12.0555686950684,12.0572519302368,12.0589361190796,12.0606203079224,12.0623054504395,12.0639905929565,12.0656766891479,12.0673627853394,12.0690498352051,12.0707368850708,12.0724248886108,12.0741138458252,12.0758018493652,12.0774917602539,12.0791807174683,12.0808715820312,12.0825614929199,12.0842533111572,12.0859441757202,12.0876359939575,12.0893287658691,12.0910215377808,12.0927152633667,12.0944089889526,12.0961036682129,12.0977983474731,12.0994939804077,12.1011896133423,12.1028861999512,12.1045827865601,12.1062803268433,12.1079778671265,12.109676361084,12.1113748550415,12.1130743026733,12.1147737503052,12.1164741516113,12.1181745529175,12.1198749542236,12.1215772628784,12.1232786178589,12.124981880188,12.1266841888428,12.1283874511719,12.1300916671753,12.1317958831787,12.1335010528564,12.1352062225342,12.1369123458862,12.1386184692383,12.1403255462646,12.142032623291,12.1437406539917,12.1454486846924,12.1471576690674,12.1488666534424,12.1505765914917,12.152286529541,12.1539974212646,12.1557083129883,12.1574201583862,12.1591320037842,12.1608448028564,12.1625576019287,12.1642713546753,12.1659860610962,12.1676998138428,12.169415473938,12.1711301803589,12.1728467941284,12.1745634078979,12.1762800216675,12.1779975891113,12.1797151565552,12.1814336776733,12.1831521987915,12.184871673584,12.1865921020508,12.1883125305176,12.1900329589844,12.1917543411255,12.1934757232666,12.195198059082,12.1969213485718,12.1986446380615,12.2003679275513,12.2020921707153,12.2038173675537,12.2055425643921,12.2072677612305,12.2089939117432,12.2107210159302,12.2124481201172,12.2141752243042,12.2159042358398,12.2176322937012,12.2193613052368,12.2210912704468,12.2228212356567,12.224552154541,12.2262830734253,12.2280139923096,12.2297468185425,12.2314786911011,12.2332124710083,12.2349452972412,12.2366800308228,12.23841381073,12.2401494979858,12.2418842315674,12.2436208724976,12.2453575134277,12.2470941543579,12.2488317489624,12.2505693435669,12.2523078918457,12.2540464401245,12.2557859420776,12.2575263977051,12.2592668533325,12.26100730896,12.2627487182617,12.2644910812378,12.2662334442139,12.2679758071899,12.2697191238403,12.271463394165,12.2732076644897,12.2749528884888,12.2766981124878,12.2784442901611,12.2844924926758,12.2939186096191,12.3033590316772,12.3128147125244,12.322283744812,12.3317680358887,12.3412666320801,12.3507804870605,12.3603086471558,12.3698511123657,12.3794088363647,12.3889808654785,12.3985681533813,12.4081707000732,12.4177875518799,12.4274196624756,12.437066078186,12.4467277526855,12.4564046859741,12.4660968780518,12.4758033752441,12.4855251312256
8.41224765777588,8.4120922088623,8.41193675994873,8.41178131103516,8.41162586212158,8.41147041320801,8.41131496429443,8.41115856170654,8.41100311279297,8.41084766387939,8.41069221496582,8.41053676605225,8.41038131713867,8.4102258682251,8.41007041931152,8.40991497039795,8.40975952148438,8.4096040725708,8.40944862365723,8.40929317474365,8.40913772583008,8.4089822769165,8.40882682800293,8.40867137908936,8.40851593017578,8.40836048126221,8.40820503234863,8.40804958343506,8.40789413452148,8.40773963928223,8.40758419036865,8.40742874145508,8.4072732925415,8.40711784362793,8.40696239471436,8.40680694580078,8.40665149688721,8.40649604797363,8.40634059906006,8.4061861038208,8.40603065490723,8.40587520599365,8.40571975708008,8.4055643081665,8.40540885925293,8.40525436401367,8.4050989151001,8.40494346618652,8.40478801727295,8.40463256835938,8.4044771194458,8.40432262420654,8.40416717529297,8.42480945587158,8.45498180389404,8.48537063598633,8.5159797668457,8.54681015014648,8.57786464691162,8.60914516448975,8.64065456390381,8.67239570617676,8.70437145233154,8.73658275604248,8.76903438568115,8.80172729492188,8.83466529846191,8.8678503036499,8.90128612518311,8.93497467041016,8.96891975402832,9.00312328338623,9.03758811950684,9.07231903076172,9.1073169708252,9.14258670806885,9.17813014984131,9.21395111083984,9.2500524520874,9.28643798828125,9.32311153411865,9.36007499694824,9.3973331451416,9.43488883972168,9.47274684906006,9.51090908050537,9.5493803024292,9.58816432952881,9.62726497650146,9.66668510437012,9.70642948150635,9.74650287628174,9.78690814971924,9.82764911651611,9.86873149871826,9.91015815734863,9.95193481445312,9.99406433105469,10.0365524291992,11.6791343688965,11.678918838501,11.6787033081055,11.67848777771,11.6782722473145,11.6780567169189,11.6778421401978,11.6776266098022,11.6774110794067,11.6771955490112,11.6769800186157,11.6767644882202,11.6765489578247,11.6763334274292,11.6761178970337,11.6759023666382,11.675687789917,11.6754722595215,11.675256729126,11.6750411987305,11.674825668335,11.6746101379395,11.6722774505615,11.6481008529663,11.6694316864014,11.6701641082764,11.6722421646118,11.673318862915,11.6731033325195,11.6728887557983,11.6726732254028,11.6724576950073,11.6722421646118,11.706431388855,11.7649030685425,11.8239622116089,11.8836164474487,11.9392728805542,11.9409236907959,11.9425754547119,11.9442281723022,11.9458799362183,11.9475336074829,11.9491872787476,11.9508409500122,11.9524955749512,11.9541501998901,11.9558057785034,11.9574613571167,11.9591178894043,11.9607744216919,11.9624309539795,11.9640893936157,11.9657468795776,11.9674053192139,11.9690647125244,11.970724105835,11.9723844528198,11.9740447998047,11.9757051467896,11.9773664474487,11.9790287017822,11.9806909561157,11.9823532104492,11.984016418457,11.9856796264648,11.987343788147,11.9890089035034,11.9906740188599,11.9923391342163,11.9940052032471,11.9956712722778,11.9973382949829,11.999005317688,12.0006732940674,12.0023412704468,12.0040102005005,12.0056791305542,12.0073490142822,12.0090188980103,12.0106897354126,12.0123605728149,12.0140323638916,12.0157041549683,12.0173768997192,12.0190496444702,12.0207233428955,12.0223970413208,12.0240707397461,12.02574634552,12.0274209976196,12.0290966033936,12.0307731628418,12.03244972229,12.0341262817383,12.0358037948608,12.0374822616577,12.0391607284546,12.0408401489258,12.042519569397,12.0441989898682,12.0458793640137,12.0475606918335,12.0492420196533,12.0509233474731,12.0526056289673,12.0542879104614,12.0559711456299,12.0576553344727,12.0593395233154,12.0610237121582,12.0627088546753,12.0643939971924,12.0660800933838,12.0677671432495,12.0694541931152,12.071141242981,12.072829246521,12.074517250061,12.0762062072754,12.0778961181641,12.0795850753784,12.0812759399414,12.0829668045044,12.0846576690674,12.0863494873047,12.088041305542,12.0897340774536,12.0914268493652,12.0931205749512,12.0948152542114,12.0965089797974,12.0982046127319,12.0999002456665,12.1015958786011,12.10329246521,12.1049890518188,12.1066865921021,12.1083841323853,12.1100826263428,12.1117811203003,12.1134805679321,12.1151809692383,12.1168804168701,12.1185817718506,12.1202821731567,12.1219844818115,12.1236867904663,12.1253890991211,12.1270923614502,12.1287956237793,12.1304998397827,12.1322040557861,12.1339092254639,12.1356143951416,12.1373205184937,12.13902759552,12.1407346725464,12.1424417495728,12.1441497802734,12.1458578109741,12.1475667953491,12.1492757797241,12.1509857177734,12.1526966094971,12.1544065475464,12.1561183929443,12.1578302383423,12.1595420837402,12.1612548828125,12.1629676818848,12.1646814346313,12.1663961410522,12.1681108474731,12.169825553894,12.1715412139893,12.1732578277588,12.1749744415283,12.1766910552979,12.1784086227417,12.1801261901855,12.1818447113037,12.1835641860962,12.1852836608887,12.1870031356812,12.1887235641479,12.1904449462891,12.1921663284302,12.1938886642456,12.195611000061,12.1973333358765,12.1990566253662,12.2007808685303,12.2025051116943,12.2042303085327,12.2059555053711,12.2076807022095,12.2094078063965,12.2111339569092,12.2128610610962,12.2145891189575,12.2163171768188,12.2180461883545,12.2197751998901,12.2215051651001,12.2232351303101,12.2249660491943,12.2266969680786,12.2284288406372,12.2301607131958,12.2318935394287,12.2336273193359,12.2353601455688,12.2370948791504,12.2388296127319,12.2405643463135,12.2423000335693,12.2440357208252,12.2457723617554,12.2475099563599,12.2492475509644,12.2509851455688,12.2527236938477,12.2544631958008,12.2562026977539,12.2579431533813,12.2596836090088,12.2614240646362,12.263165473938,12.2649078369141,12.2666501998901,12.2683935165405,12.2701368331909,12.2718811035156,12.2736253738403,12.2753705978394,12.2771158218384,12.2788619995117,12.2812175750732,12.290638923645,12.3000745773315,12.3095245361328,12.3189888000488,12.3284683227539,12.3379611968994,12.3474702835083,12.3569927215576,12.366530418396,12.3760833740234,12.3856506347656,12.3952322006226,12.4048290252686,12.4144411087036,12.4240674972534,12.4337091445923,12.4433660507202,12.4530372619629
