11.7235517501831,11.7234029769897,11.7232542037964,11.7231063842773,11.722957611084,11.7228088378906,11.7226600646973,11.7225112915039,11.7223625183105,11.7222137451172,11.7220659255981,11.7219171524048,11.7217683792114,11.7216196060181,11.7214708328247,11.7213220596313,11.7211742401123,11.7210254669189,11.7208766937256,11.7207279205322,11.7205791473389,11.7204313278198,11.7202825546265,11.7201337814331,11.7199850082397,11.7198371887207,11.7196884155273,11.719539642334,11.7193908691406,11.7192430496216,11.7190942764282,11.7189455032349,11.7187967300415,11.7186489105225,11.7185001373291,11.7183513641357,11.7182025909424,11.7180547714233,11.71790599823,11.7177572250366,11.7176094055176,11.7174606323242,11.7173118591309,11.7171630859375,11.7170152664185,11.7168664932251,11.7167177200317,11.7165699005127,11.7164211273193,11.716272354126,11.7161245346069,11.7159757614136,11.7158269882202,11.7156791687012,11.7155303955078,11.7153816223145,11.7152338027954,11.7150850296021,11.714937210083,11.7147884368896,11.7146396636963,11.7144918441772,11.7143430709839,11.7338590621948,11.7922973632812,11.8200702667236,11.8226299285889,11.8251914978027,11.8307361602783,11.8392562866211,11.8477878570557,11.8563327789307,11.8648891448975,11.8734579086304,11.8820390701294,11.8906335830688,11.8992395401001,11.9078578948975,11.9164896011353,11.9251337051392,11.9337892532349,11.942458152771,11.9511404037476,11.9598350524902,11.968542098999,11.9772615432739,11.9859943389893,11.9947395324707,12.0034971237183,12.0122680664062,12.0210514068604,12.0298480987549,12.0386571884155,12.0474796295166,12.0563144683838,12.0651626586914,12.0740242004395,12.0828981399536,12.0917854309082,12.1006860733032,12.1095991134644,12.1185264587402,12.1274662017822,12.1364192962646,12.1453847885132,12.1543645858765,12.1633567810059,12.17236328125,12.1813821792603,12.1904153823853,12.1994619369507,12.2085208892822,12.2175941467285,12.2266807556152,12.2357807159424,12.2448949813843,12.2540216445923,12.263162612915,12.2723169326782,12.2814855575562,12.2906675338745,12.2998628616333,12.3090724945068,12.3182954788208,12.3275327682495,12.3367834091187,12.3460483551025,12.3553266525269,12.3646202087402,12.3739261627197,12.3832473754883,12.3925819396973,12.401930809021,12.4112939834595,12.4206705093384,12.4300622940063,12.4394674301147,12.4488868713379,12.4583215713501,12.4677696228027,12.4772319793701,12.4867095947266,12.4962005615234,12.5057067871094,12.5152273178101,12.5247621536255,12.5343112945557,12.5438747406006,12.5534534454346,12.5630474090576,12.5726547241211,12.5822772979736,12.5919151306152,12.6015672683716,12.6112337112427,12.6209154129028,12.6306123733521,12.640323638916,12.650050163269,12.6597919464111,12.669548034668,12.6793193817139,12.6891059875488,12.6989078521729,12.7087249755859,12.7185573577881,12.728404045105,12.7382669448853,12.7481451034546,12.758038520813,12.7679471969604,12.777871131897,12.7878103256226,12.7977657318115,12.8077363967896,12.8177223205566,12.8277235031128,12.8377408981323,12.8477735519409,12.8578224182129,12.8678865432739,12.8779668807983,12.8880624771118,12.8981742858887,12.9083023071289,12.9184455871582,12.9286050796509,12.9387807846069,12.9489727020264,12.9591798782349,12.9694032669067,12.9796438217163,12.9898996353149,13.000171661377,13.0104598999023,13.0207653045654,13.0310859680176,13.0414237976074,13.0517778396606,13.0621480941772,13.0725345611572,13.0829381942749,13.093358039856,13.1037950515747,13.1142482757568,13.1247177124023,13.1352043151855,13.1457080841064,13.1562280654907,13.1667652130127,13.1773195266724,13.1878900527954,13.1984777450562,13.2090826034546,13.2197046279907,13.2303438186646,13.2410001754761,13.2516736984253,13.2623643875122,13.2730722427368,13.2837972640991,13.2945394515991,13.3052997589111,13.3160772323608,13.3268718719482,13.3376836776733,13.3485136032104,13.3593616485596,13.3702268600464,13.3811092376709,13.396803855896,13.4154396057129,13.4341278076172,13.4528675079346,13.4716606140137,13.4905128479004,13.5784645080566,13.5925893783569,13.6233749389648,13.6542997360229,13.6853656768799,13.7165727615356,13.7479228973389,13.7794160842896,13.8110542297363,13.8428382873535,13.8747682571411,13.9068460464478,13.9390735626221,13.9714498519897,14.0039768218994,14.0366554260254,14.0694875717163,14.1024732589722,14.1356143951416,14.1689109802246,14.2023658752441,14.2359781265259,14.2697505950928,14.3036832809448,14.3377771377563,14.3720350265503,14.4064559936523,14.4410429000854,14.4757957458496,14.5107164382935,14.5458068847656,14.5810661315918,14.6164979934692,14.6521015167236,14.6878795623779,14.7238321304321,14.7599611282349,14.7962684631348,14.8327550888062,14.869421005249,14.9062690734863,14.9433012008667,14.9805164337158,15.017918586731,15.0555067062378,15.0932846069336,15.1312522888184,15.1694107055664,15.2077627182007,15.2463092803955,15.2850513458252,15.3239917755127,15.3631296157837,15.4024686813354,15.4343385696411,15.4569892883301,15.4797058105469,15.5024900436401,15.5253410339355,15.5482597351074,15.5712461471558,15.5943002700806,15.6174230575562,15.6493558883667,15.6832399368286,15.7172698974609,16.0585842132568,16.7966995239258,17.593578338623,19.9223575592041,19.9987869262695,0,0,0,0,0,0,0,0,0,0,0,0,0,0,0,0,0,0,0,0,0,0,0,0,0,0,0,0,0,0,0,0,0,0,0,0,0,0,0,0,0,0,0,0,0
11.7237920761108,11.7236433029175,11.7234945297241,11.7233467102051,11.7231979370117,11.7230491638184,11.722900390625,11.7227516174316,11.7226028442383,11.7224540710449,11.7223062515259,11.7221574783325,11.7220087051392,11.7218599319458,11.7217111587524,11.7215623855591,11.72141456604,11.7212657928467,11.7211170196533,11.72096824646,11.7208194732666,11.7206716537476,11.7205228805542,11.7203741073608,11.7202253341675,11.7200775146484,11.7199287414551,11.7197799682617,11.7196311950684,11.719482421875,11.719334602356,11.7191858291626,11.7190370559692,11.7188882827759,11.7187404632568,11.7185916900635,11.7184429168701,11.7182950973511,11.7181463241577,11.7179975509644,11.717848777771,11.717700958252,11.7175521850586,11.7174034118652,11.7172555923462,11.7171068191528,11.7169580459595,11.7168102264404,11.7166614532471,11.7165126800537,11.7163639068604,11.7162160873413,11.7160673141479,11.7159185409546,11.7157707214355,11.7156219482422,11.7154741287231,11.7153253555298,11.7151765823364,11.7150287628174,11.714879989624,11.714732170105,11.7145833969116,11.7338562011719,11.7922945022583,11.8300685882568,11.8326330184937,11.8351993560791,11.8377656936646,11.8403339385986,11.842903137207,11.8454732894897,11.8480443954468,11.8506164550781,11.8531904220581,11.857458114624,11.8660163879395,11.874587059021,11.8831701278687,11.8917655944824,11.9003734588623,11.9089937210083,11.9176263809204,11.9262714385986,11.9349298477173,11.9435997009277,11.9522829055786,11.9609794616699,11.969687461853,11.9784088134766,11.9871425628662,11.995888710022,12.0046482086182,12.0134201049805,12.0222053527832,12.0310029983521,12.0398139953613,12.0486373901367,12.0574741363525,12.0663242340088,12.0751867294312,12.0840616226196,12.0929508209229,12.1018524169922,12.110767364502,12.1196947097778,12.1286363601685,12.1375904083252,12.1465578079224,12.1555395126343,12.1645336151123,12.1735410690308,12.1825618743896,12.191596031189,12.200644493103,12.2097053527832,12.2187805175781,12.2278690338135,12.2369709014893,12.2460861206055,12.2552146911621,12.2643575668335,12.2735137939453,12.2826833724976,12.2918672561646,12.3010654449463,12.3102760314941,12.3195009231567,12.3287401199341,12.3379926681519,12.3472595214844,12.3565397262573,12.365834236145,12.3751430511475,12.3844652175903,12.3938016891479,12.4031524658203,12.4125175476074,12.421895980835,12.4312896728516,12.4406967163086,12.4501180648804,12.4595546722412,12.4690046310425,12.4784688949585,12.4879484176636,12.4974412918091,12.5069494247437,12.5164709091187,12.5260076522827,12.5355596542358,12.5451250076294,12.554705619812,12.5643005371094,12.5739107131958,12.583535194397,12.5931749343872,12.6028289794922,12.6124973297119,12.6221809387207,12.6318798065186,12.6415929794312,12.6513214111328,12.6610651016235,12.670823097229,12.6805973052979,12.6903858184814,12.7001895904541,12.7100086212158,12.7198419570923,12.7296915054321,12.739556312561,12.749436378479,12.759331703186,12.7692422866821,12.7791681289673,12.7891092300415,12.7990665435791,12.8090391159058,12.8190269470215,12.8290309906006,12.8390502929688,12.849084854126,12.8591356277466,12.8692016601562,12.8792839050293,12.8893823623657,12.8994960784912,12.9096260070801,12.919771194458,12.9299325942993,12.940110206604,12.9503040313721,12.9605140686035,12.970739364624,12.9809818267822,12.9912395477295,13.0015144348145,13.0118045806885,13.0221118927002,13.032434463501,13.0427742004395,13.0531301498413,13.0635032653809,13.0738916397095,13.0842971801758,13.0947198867798,13.1051588058472,13.1156139373779,13.1260862350464,13.1365747451782,13.1470804214478,13.157603263855,13.1681423187256,13.1786985397339,13.1892719268799,13.1998615264893,13.2104692459106,13.2210931777954,13.2317342758179,13.242392539978,13.257134437561,13.2753839492798,13.2936840057373,13.3120336532593,13.3304347991943,13.3488864898682,13.3673896789551,13.3859434127808,13.4045495986938,13.42320728302,13.4419174194336,13.4606790542603,13.4794940948486,13.4983682632446,13.5172986984253,13.5574550628662,13.5659885406494,13.5909194946289,13.6216974258423,13.6526145935059,13.6836719512939,13.7148714065552,13.7462139129639,13.77769947052,13.8093299865723,13.8411054611206,13.8730278015137,13.9050979614258,13.9373168945312,13.9696846008301,14.0022039413452,14.0348749160767,14.0676984786987,14.1006755828857,14.1338081359863,14.1670961380005,14.2005424499512,14.2341461181641,14.2679090499878,14.301833152771,14.335919380188,14.3701677322388,14.404580116272,14.4391574859619,14.4739017486572,14.5088138580322,14.5438938140869,14.5791444778442,14.6145668029785,14.6501607894897,14.6859292984009,14.7218723297119,14.7579917907715,14.7942895889282,14.8307657241821,14.8674221038818,14.904260635376,14.9412822723389,14.9784879684448,15.0158796310425,15.0534582138062,15.0912246704102,15.1291818618774,15.1673307418823,15.2056722640991,15.2442083358765,15.2829399108887,15.3218688964844,15.3462495803833,15.3686418533325,15.3910999298096,15.4136238098145,15.4362134933472,15.4588689804077,15.4815912246704,15.5043811798096,15.5272378921509,15.5501623153687,15.5731544494629,15.6019744873047,15.6356525421143,15.6694765090942,15.7034463882446,15.7553062438965,16.548849105835,17.3218441009521,19.7428359985352,19.8178901672363,19.893518447876,19.9697265625,0,0,0,0,0,0,0,0,0,0,0,0,0,0,0,0,0,0,0,0,0,0,0,0,0,0,0,0,0,0,0,0,0,0,0,0,0,0,0,0,0
11.7240324020386,11.7238836288452,11.7237358093262,11.7235870361328,11.7234382629395,11.7232894897461,11.7231407165527,11.7229919433594,11.722843170166,11.722695350647,11.7225465774536,11.7223978042603,11.7222490310669,11.7221002578735,11.7219514846802,11.7218036651611,11.7216548919678,11.7215061187744,11.7213573455811,11.7212085723877,11.7210597991943,11.7209119796753,11.7207632064819,11.7206144332886,11.7204656600952,11.7203168869019,11.7201690673828,11.7200202941895,11.7198715209961,11.7197227478027,11.7195749282837,11.7194261550903,11.719277381897,11.7191286087036,11.7189807891846,11.7188320159912,11.7186832427979,11.7185344696045,11.7183866500854,11.7182378768921,11.7180891036987,11.7179412841797,11.7177925109863,11.717643737793,11.7174949645996,11.7173471450806,11.7171983718872,11.7170495986938,11.7169017791748,11.7167530059814,11.7166042327881,11.716456413269,11.7163076400757,11.7161588668823,11.7160110473633,11.7158622741699,11.7157135009766,11.7155656814575,11.7154169082642,11.7152681350708,11.7151203155518,11.7149715423584,11.7148237228394,11.7338533401489,11.7922916412354,11.8400840759277,11.8426532745361,11.8452234268188,11.8477945327759,11.8503675460815,11.8529415130615,11.8555154800415,11.8580913543701,11.860668182373,11.8632459640503,11.8658246994019,11.8684043884277,11.8709859848022,11.8735685348511,11.8761520385742,11.8787364959717,11.8813219070435,11.8843002319336,11.892897605896,11.9015064239502,11.9101285934448,11.9187631607056,11.9274101257324,11.9360694885254,11.9447422027588,11.9534273147583,11.9621248245239,11.9708347320557,11.9795570373535,11.9882926940918,11.9970407485962,12.005802154541,12.014575958252,12.023362159729,12.0321617126465,12.0409746170044,12.0497999191284,12.0586385726929,12.0674896240234,12.0763540267944,12.0852308273315,12.0941209793091,12.1030244827271,12.1119413375854,12.12087059021,12.1298141479492,12.1387701034546,12.1477394104004,12.1567220687866,12.1657180786133,12.1747274398804,12.1837491989136,12.1927852630615,12.2018346786499,12.2108974456787,12.2199745178223,12.2290639877319,12.238166809082,12.2472839355469,12.2564144134521,12.2655582427979,12.2747163772583,12.2838878631592,12.2930727005005,12.3022718429565,12.311484336853,12.3207111358643,12.3299512863159,12.3392057418823,12.3484735488892,12.3577556610107,12.3670520782471,12.3763618469238,12.3856859207153,12.3950233459473,12.4043760299683,12.4137420654297,12.4231224060059,12.4325170516968,12.4419269561768,12.4513502120972,12.4607877731323,12.4702396392822,12.4797058105469,12.4891872406006,12.4986820220947,12.5081920623779,12.5177164077759,12.5272550582886,12.536808013916,12.5463752746582,12.5559577941895,12.5655555725098,12.5751667022705,12.5847930908203,12.5944347381592,12.6040906906128,12.6137609481812,12.6234474182129,12.6331472396851,12.6428632736206,12.6525936126709,12.6623382568359,12.6720991134644,12.6818742752075,12.6916646957397,12.7014713287354,12.7112913131714,12.7211275100708,12.7309789657593,12.7408456802368,12.7507276535034,12.7606248855591,12.7705373764038,12.7804651260376,12.7904090881348,12.8003673553467,12.810341835022,12.8203325271606,12.8303384780884,12.8403596878052,12.850396156311,12.8604488372803,12.8705177307129,12.8806018829346,12.8907012939453,12.9008178710938,12.9109497070312,12.9210968017578,12.9312610626221,12.9414405822754,12.9516363143921,12.9618482589722,12.9720754623413,12.9823198318481,12.9925804138184,13.0028562545776,13.0131492614746,13.023458480835,13.0337839126587,13.0441255569458,13.0544834136963,13.0648584365845,13.075249671936,13.085657119751,13.0960817337036,13.1065225601196,13.1203479766846,13.138222694397,13.1561450958252,13.1741180419922,13.192138671875,13.2102098464966,13.2283296585083,13.2465000152588,13.2647199630737,13.2829904556274,13.3013114929199,13.3196821212769,13.3381042480469,13.35657787323,13.3751020431519,13.3936777114868,13.4123048782349,13.4309844970703,13.4497156143188,13.4685001373291,13.4873361587524,13.506233215332,13.5195264816284,13.5280132293701,13.536509513855,13.5450162887573,13.5586185455322,13.5892496109009,13.6200199127197,13.6509294509888,13.6819791793823,13.713171005249,13.7445058822632,13.7759838104248,13.8076057434082,13.839373588562,13.8712882995605,13.9033498764038,13.9355611801147,13.967921257019,14.0004320144653,14.0330944061279,14.0659093856812,14.0988779067993,14.1320018768311,14.1652822494507,14.1987190246582,14.2323141098022,14.2660694122314,14.2999839782715,14.3340606689453,14.3683004379272,14.4027042388916,14.4372730255127,14.4720077514648,14.5069103240967,14.5419816970825,14.5772228240967,14.6126356124878,14.6482210159302,14.6839799880981,14.719913482666,14.7560234069824,14.7923107147217,14.8287773132324,14.865424156189,14.9022531509399,14.9392642974854,14.9764595031738,15.013840675354,15.0514097213745,15.0891666412354,15.1271133422852,15.1652517318726,15.2035827636719,15.2370853424072,15.2591600418091,15.2812986373901,15.3035020828247,15.3257694244385,15.3481025695801,15.3705005645752,15.3929634094238,15.4154930114746,15.4380884170532,15.4607496261597,15.4834775924683,15.506272315979,15.5291347503662,15.5548782348633,15.5883531570435,15.6219720840454,15.6557369232178,15.6896476745605,15.7237062454224,16.297342300415,17.0583763122559,19.5665187835693,19.6402359008789,19.7145118713379,19.7893524169922,19.8647613525391,19.9407482147217,0,0,0,0,0,0,0,0,0,0,0,0,0,0,0,0,0,0,0,0,0,0,0,0,0,0,0,0,0,0,0,0,0,0,0,0,0
11.7242727279663,11.7241249084473,11.7239761352539,11.7238273620605,11.7236785888672,11.7235298156738,11.7233810424805,11.7232322692871,11.7230834960938,11.7229356765747,11.7227869033813,11.722638130188,11.7224893569946,11.7223405838013,11.7221918106079,11.7220439910889,11.7218952178955,11.7217464447021,11.7215976715088,11.7214488983154,11.7213001251221,11.721152305603,11.7210035324097,11.7208547592163,11.7207059860229,11.7205572128296,11.7204093933105,11.7202606201172,11.7201118469238,11.7199630737305,11.7198152542114,11.7196664810181,11.7195177078247,11.7193689346313,11.7192211151123,11.7190723419189,11.7189235687256,11.7187747955322,11.7186269760132,11.7184782028198,11.7183294296265,11.7181806564331,11.7180328369141,11.7178840637207,11.7177352905273,11.7175874710083,11.7174386978149,11.7172899246216,11.7171421051025,11.7169933319092,11.7168445587158,11.7166957855225,11.7165479660034,11.7163991928101,11.7162504196167,11.7161026000977,11.7159538269043,11.7158050537109,11.7156572341919,11.7155084609985,11.7153606414795,11.7152118682861,11.7150630950928,11.733850479126,11.7922887802124,11.850115776062,11.852689743042,11.8552646636963,11.8578405380249,11.8604173660278,11.8629951477051,11.865574836731,11.8681545257568,11.8707361221313,11.8733186721802,11.875901222229,11.8784856796265,11.8810720443726,11.8836584091187,11.8862457275391,11.8888349533081,11.8914251327515,11.8940162658691,11.8966083526611,11.8992023468018,11.9017972946167,11.9043922424316,11.9069890975952,11.9095878601074,11.9121866226196,11.919900894165,11.9285488128662,11.9372100830078,11.9458847045898,11.9545707702637,11.9632701873779,11.9719820022583,11.9807062149048,11.9894428253174,11.9981927871704,12.0069561004639,12.0157318115234,12.0245199203491,12.0333213806152,12.0421352386475,12.0509624481201,12.0598020553589,12.0686550140381,12.0775213241577,12.0864000320435,12.0952920913696,12.1041975021362,12.1131153106689,12.1220474243164,12.13099193573,12.139949798584,12.1489210128784,12.157904624939,12.1669025421143,12.17591381073,12.1849384307861,12.1939754486084,12.2030267715454,12.2120914459229,12.2211694717407,12.230260848999,12.2393665313721,12.2484846115112,12.2576169967651,12.2667627334595,12.2759227752686,12.2850961685181,12.294282913208,12.3034830093384,12.3126983642578,12.3219261169434,12.3311681747437,12.3404245376587,12.3496942520142,12.3589782714844,12.368275642395,12.3775882720947,12.3869132995605,12.3962535858154,12.4056072235107,12.4149761199951,12.4243583679199,12.4337549209595,12.4431657791138,12.4525899887085,12.4620294570923,12.4714832305908,12.4809513092041,12.4904336929321,12.4999303817749,12.5094413757324,12.518967628479,12.528507232666,12.5380620956421,12.5476312637329,12.5572156906128,12.5668144226074,12.5764274597168,12.5860557556152,12.5956983566284,12.6053552627563,12.6150283813477,12.6247148513794,12.6344175338745,12.6441345214844,12.6538667678833,12.663613319397,12.6733751296997,12.6831521987915,12.6929445266724,12.7027530670166,12.7125759124756,12.7224130630493,12.7322664260864,12.7421350479126,12.7520189285278,12.7619180679321,12.7718334197998,12.7817630767822,12.791708946228,12.8016691207886,12.8116464614868,12.8216381072998,12.8316459655762,12.8416690826416,12.8517074584961,12.8617630004883,12.8718328475952,12.8819198608398,12.8920211791992,12.9021396636963,12.9122734069824,12.9224233627319,12.9325885772705,12.9427709579468,12.9529685974121,12.9631824493408,12.9734125137329,12.9863548278809,13.0038661956787,13.0214242935181,13.0390300750732,13.0566835403442,13.0743846893311,13.092134475708,13.1099319458008,13.1277780532837,13.1456727981567,13.1636161804199,13.1816082000732,13.1996507644653,13.2177419662476,13.2358827590942,13.2540731430054,13.2723140716553,13.2906055450439,13.3089475631714,13.3273401260376,13.3457832336426,13.3642778396606,13.3828229904175,13.4014205932617,13.420069694519,13.4387702941895,13.4565582275391,13.4649648666382,13.4733829498291,13.4818105697632,13.4902496337891,13.4986991882324,13.5071582794189,13.5156288146973,13.5241098403931,13.5326013565063,13.5569562911987,13.5875806808472,13.6183423995972,13.649245262146,13.680287361145,13.7114715576172,13.7427978515625,13.7742681503296,13.8058824539185,13.8376426696777,13.8695487976074,13.9016027450562,13.9338054656982,13.9661569595337,13.9986600875854,14.0313138961792,14.0641202926636,14.0970811843872,14.1301965713501,14.1634683609009,14.1968965530396,14.2304830551147,14.2642297744751,14.2981357574463,14.3322038650513,14.36643409729,14.4008293151855,14.4353885650635,14.4701147079468,14.5050077438354,14.5400705337524,14.5753021240234,14.6107053756714,14.6462812423706,14.6820306777954,14.7179546356201,14.7540550231934,14.7903327941895,14.826789855957,14.8634271621704,14.9002456665039,14.9372463226318,14.9744319915771,15.0118036270142,15.0493612289429,15.0871086120605,15.1250448226929,15.1512269973755,15.1730537414551,15.1949424743652,15.2168960571289,15.2389116287231,15.2609920501709,15.2831363677979,15.305344581604,15.327618598938,15.3499565124512,15.3723592758179,15.3948287963867,15.4173631668091,15.4399633407593,15.4626302719116,15.4853639602661,15.5081644058228,15.5413389205933,15.5747556686401,15.6083164215088,15.6420221328735,15.6758737564087,15.7098712921143,15.9850673675537,16.8028030395508,17.6002750396729,19.4657402038574,19.5386981964111,19.6122074127197,19.6862697601318,19.7608947753906,19.836088180542,19.9118556976318,19.9882030487061,0,0,0,0,0,0,0,0,0,0,0,0,0,0,0,0,0,0,0,0,0,0,0,0,0,0,0,0,0,0,0,0
11.7245140075684,11.724365234375,11.7242164611816,11.7240676879883,11.7239189147949,11.7237701416016,11.7236213684082,11.7234725952148,11.7233247756958,11.7231760025024,11.7230272293091,11.7228784561157,11.7227296829224,11.722580909729,11.7224321365356,11.7222843170166,11.7221355438232,11.7219867706299,11.7218379974365,11.7216892242432,11.7215404510498,11.7213926315308,11.7212438583374,11.721095085144,11.7209463119507,11.7207975387573,11.7206497192383,11.7205009460449,11.7203521728516,11.7202033996582,11.7200555801392,11.7199068069458,11.7197580337524,11.7196092605591,11.71946144104,11.7193126678467,11.7191638946533,11.71901512146,11.7188673019409,11.7187185287476,11.7185697555542,11.7184209823608,11.7182731628418,11.7181243896484,11.7179756164551,11.7178268432617,11.7176790237427,11.7175302505493,11.717381477356,11.7172336578369,11.7170848846436,11.7169361114502,11.7167882919312,11.7166395187378,11.7164907455444,11.7163429260254,11.716194152832,11.7160453796387,11.7158975601196,11.7157487869263,11.7156000137329,11.7154521942139,11.7153034210205,11.7338466644287,11.7922849655151,11.8513088226318,11.8627433776855,11.8653221130371,11.8679027557373,11.8704843521118,11.8730669021606,11.8756504058838,11.8782348632812,11.8808212280273,11.8834075927734,11.8859958648682,11.8885841369629,11.8911743164062,11.8937654495239,11.8963575363159,11.8989515304565,11.9015455245972,11.9041414260864,11.90673828125,11.9093360900879,11.9119348526001,11.9145355224609,11.9171361923218,11.9197387695312,11.922342300415,11.9249467849731,11.9275531768799,11.9301605224609,11.932767868042,11.9353771209717,11.93798828125,11.9405994415283,11.9470272064209,11.9557151794434,11.9644155502319,11.9731292724609,11.9818553924561,11.9905939102173,11.9993457794189,12.0081100463867,12.0168876647949,12.0256776809692,12.0344800949097,12.0432958602905,12.0521249771118,12.0609664916992,12.0698213577271,12.078688621521,12.0875692367554,12.0964632034302,12.1053705215454,12.1142902374268,12.1232233047485,12.1321697235107,12.1411294937134,12.1501026153564,12.1590881347656,12.1680879592896,12.1771001815796,12.1861267089844,12.1951656341553,12.2042188644409,12.213285446167,12.2223653793335,12.2314586639404,12.2405652999878,12.2496862411499,12.2588195800781,12.2679672241211,12.2771291732788,12.286304473877,12.2954931259155,12.3046951293945,12.3139114379883,12.3231420516968,12.3323860168457,12.3416433334351,12.3509149551392,12.360200881958,12.3695001602173,12.3788146972656,12.3881416320801,12.3974838256836,12.4068393707275,12.4162101745605,12.425594329834,12.4349927902222,12.4444046020508,12.4538316726685,12.4632730484009,12.472728729248,12.4821977615356,12.4916820526123,12.5011806488037,12.5106945037842,12.5202217102051,12.529764175415,12.5393209457397,12.5488920211792,12.5584774017334,12.5680780410767,12.577693939209,12.5873231887817,12.5969686508179,12.6066274642944,12.6163024902344,12.6259908676147,12.6356954574585,12.645414352417,12.6551485061646,12.6648969650269,12.6746616363525,12.684440612793,12.6942348480225,12.704044342041,12.7138681411743,12.723708152771,12.7335634231567,12.7434329986572,12.7533187866211,12.763219833374,12.773136138916,12.7830677032471,12.7930145263672,12.8029775619507,12.8129558563232,12.8229494094849,12.8329582214355,12.8429832458496,12.8530244827271,12.8630800247192,12.8731527328491,12.9066848754883,12.9239816665649,12.9413242340088,12.9587135314941,12.9761505126953,12.993634223938,13.0111646652222,13.0287427902222,13.0463676452637,13.0640411376953,13.0817623138428,13.0995321273804,13.1173496246338,13.1352157592773,13.1531314849854,13.1710948944092,13.1891078948975,13.2071704864502,13.2252826690674,13.243444442749,13.2616558074951,13.27991771698,13.2982301712036,13.3165922164917,13.3350057601929,13.3534708023071,13.3719863891602,13.3905534744263,13.4025030136108,13.4108419418335,13.4191923141479,13.4275531768799,13.435923576355,13.4443044662476,13.4526968002319,13.4610986709595,13.4695110321045,13.4779348373413,13.4863681793213,13.4948129653931,13.503267288208,13.5117330551147,13.5248165130615,13.5552949905396,13.5859117507935,13.6166667938232,13.6475610733032,13.6785955429077,13.7097721099854,13.7410907745361,13.7725524902344,13.8041591644287,13.8359117507935,13.8678102493286,13.8998556137085,13.9320497512817,13.9643936157227,13.9968881607056,14.0295343399048,14.0623331069946,14.0952854156494,14.1283922195435,14.1616544723511,14.1950750350952,14.2286529541016,14.2623901367188,14.2962875366211,14.3303470611572,14.3645687103271,14.3989543914795,14.4335050582886,14.4682216644287,14.5031061172485,14.5381593704224,14.5733823776245,14.6087760925293,14.6443424224854,14.6800813674927,14.7159967422485,14.7520875930786,14.7883558273315,14.8248023986816,14.8614301681519,14.8982381820679,14.9352293014526,14.9724054336548,15.0097665786743,15.044810295105,15.066330909729,15.0879135131836,15.1095581054688,15.1312646865845,15.1530332565308,15.1748647689819,15.1967601776123,15.2187175750732,15.2407398223877,15.262825012207,15.2849740982056,15.3071880340576,15.3294668197632,15.3518104553223,15.3742189407349,15.3966932296753,15.4192333221436,15.4418392181396,15.4645118713379,15.494607925415,15.5278234481812,15.5611820220947,15.5946846008301,15.6283311843872,15.6621227264404,15.6960611343384,15.7301473617554,16.5433082580566,17.3283367156982,19.2943153381348,19.3659934997559,19.4382057189941,19.5109577178955,19.5842571258545,19.658109664917,19.7325210571289,19.8074970245361,19.8830451965332,19.9591732025146,0,0,0,0,0,0,0,0,0,0,0,0,0,0,0,0,0,0,0,0,0,0,0,0,0,0,0,0
11.7247543334961,11.7246055603027,11.7244567871094,11.724308013916,11.7241592407227,11.7240104675293,11.7238616943359,11.7237138748169,11.7235651016235,11.7234163284302,11.7232675552368,11.7231187820435,11.7229700088501,11.7228212356567,11.7226734161377,11.7225246429443,11.722375869751,11.7222270965576,11.7220783233643,11.7219295501709,11.7217807769775,11.7216329574585,11.7214841842651,11.7213354110718,11.7211866378784,11.7210378646851,11.720890045166,11.7207412719727,11.7205924987793,11.7204437255859,11.7202959060669,11.7201471328735,11.7199983596802,11.7198495864868,11.7197008132935,11.7195529937744,11.7194042205811,11.7192554473877,11.7191066741943,11.7189588546753,11.7188100814819,11.7186613082886,11.7185134887695,11.7183647155762,11.7182159423828,11.7180671691895,11.7179193496704,11.7177705764771,11.7176218032837,11.7174739837646,11.7173252105713,11.7171764373779,11.7170276641846,11.7168798446655,11.7167310714722,11.7165822982788,11.7164344787598,11.7162857055664,11.716136932373,11.715989112854,11.7158403396606,11.7156925201416,11.7155437469482,11.7338438034058,11.7922821044922,11.8513059616089,11.8728141784668,11.8753976821899,11.8779821395874,11.8805685043335,11.8831548690796,11.8857431411743,11.8883323669434,11.8909225463867,11.8935136795044,11.8961067199707,11.898699760437,11.901294708252,11.9038896560669,11.9064865112305,11.9090843200684,11.9116830825806,11.9142837524414,11.9168844223022,11.9194869995117,11.9220905303955,11.9246950149536,11.927300453186,11.9299077987671,11.9325160980225,11.9351253509521,11.9377355575562,11.9403467178345,11.9429588317871,11.9455728530884,11.948187828064,11.9508037567139,11.9534206390381,11.9560394287109,11.9586591720581,11.9612789154053,11.9639015197754,11.9665241241455,11.9691476821899,11.9742765426636,11.9830045700073,11.9917449951172,12.0004987716675,12.0092639923096,12.0180435180664,12.0268354415894,12.0356397628784,12.0444574356079,12.0532875061035,12.0621309280396,12.070987701416,12.0798568725586,12.0887393951416,12.0976343154907,12.1065435409546,12.1154651641846,12.124400138855,12.1333484649658,12.1423091888428,12.1512842178345,12.1602716445923,12.1692733764648,12.1782875061035,12.1873149871826,12.1963567733765,12.2054109573364,12.2144794464111,12.2235612869263,12.2326564788818,12.2417650222778,12.2508869171143,12.2600231170654,12.269172668457,12.2783355712891,12.2875127792358,12.296703338623,12.3059072494507,12.3151254653931,12.3243570327759,12.3336029052734,12.3428630828857,12.3521366119385,12.361424446106,12.3707256317139,12.3800411224365,12.3893709182739,12.3987140655518,12.4080715179443,12.417444229126,12.426830291748,12.4362297058105,12.4456443786621,12.4550733566284,12.4645166397095,12.4739742279053,12.4834451675415,12.4929313659668,12.5024318695068,12.5119476318359,12.5214767456055,12.5310211181641,12.5405788421631,12.5501527786255,12.5597400665283,12.5693426132202,12.5789604187012,12.5885915756226,12.5982389450073,12.6078996658325,12.6175765991211,12.6272678375244,12.6369733810425,12.6466941833496,12.6564302444458,12.6661815643311,12.6759471893311,12.6857280731201,12.6955242156982,12.7053356170654,12.7151622772217,12.725004196167,12.7348613739014,12.7447338104248,12.754620552063,12.7645235061646,12.7744417190552,12.7843761444092,12.7943248748779,12.8042898178101,12.8142700195312,12.8242654800415,12.8342771530151,12.8443040847778,12.8543472290039,12.9659614562988,12.9834175109863,13.0009212493896,13.0184707641602,13.0360689163208,13.0537147521973,13.0714073181152,13.0891485214233,13.1069383621216,13.1247758865356,13.1426630020142,13.1605978012085,13.1785821914673,13.1966161727905,13.2146987915039,13.2328319549561,13.2510137557983,13.2692461013794,13.2875289916992,13.3058624267578,13.3242464065552,13.3406171798706,13.3488798141479,13.3571529388428,13.3654356002808,13.3737297058105,13.3820333480835,13.3903474807739,13.3986721038818,13.4070062637329,13.4153518676758,13.4237070083618,13.4320735931396,13.4404497146606,13.4488372802734,13.4572343826294,13.4656419754028,13.4740600585938,13.4824895858765,13.4909286499023,13.49937915802,13.5231628417969,13.5536346435547,13.5842428207397,13.614990234375,13.6458768844604,13.6769046783447,13.7080726623535,13.7393836975098,13.7708387374878,13.8024368286133,13.8341808319092,13.8660717010498,13.8981094360352,13.9302959442139,13.9626312255859,13.9951171875,14.0277547836304,14.0605449676514,14.0934886932373,14.1265878677368,14.1598415374756,14.1932535171509,14.2268228530884,14.2605514526367,14.2944402694702,14.3284902572632,14.3627033233643,14.3970804214478,14.4316215515137,14.466329574585,14.5012044906616,14.5362482070923,14.5714616775513,14.6068468093872,14.6424036026001,14.6781339645386,14.714038848877,14.7501201629639,14.7863788604736,14.8228158950806,14.8594331741333,14.8962316513062,14.9332132339478,14.9610986709595,14.9823808670044,15.0037231445312,15.0251264572144,15.0465908050537,15.0681171417236,15.0897045135498,15.1113538742065,15.1330661773682,15.1548404693604,15.1766767501831,15.1985769271851,15.2205400466919,15.2425670623779,15.2646579742432,15.2868127822876,15.3090324401855,15.3313159942627,15.3536653518677,15.3760786056519,15.3985586166382,15.4211044311523,15.4481573104858,15.4811735153198,15.514331817627,15.5476322174072,15.581075668335,15.6146640777588,15.6483964920044,15.6822757720947,15.7163019180298,16.2216281890869,17.0646724700928,19.1258850097656,19.1963138580322,19.2672653198242,19.3387413024902,19.4107494354248,19.4832954406738,19.5563869476318,19.6300296783447,19.7042274475098,19.7789878845215,19.8543186187744,19.9302272796631,0,0,0,0,0,0,0,0,0,0,0,0,0,0,0,0,0,0,0,0,0,0,0,0
11.7249946594238,11.7248458862305,11.7246971130371,11.7245483398438,11.7243995666504,11.724250793457,11.724102973938,11.7239542007446,11.7238054275513,11.7236566543579,11.7235078811646,11.7233591079712,11.7232103347778,11.7230615615845,11.7229137420654,11.7227649688721,11.7226161956787,11.7224674224854,11.722318649292,11.7221698760986,11.7220220565796,11.7218732833862,11.7217245101929,11.7215757369995,11.7214269638062,11.7212781906128,11.7211303710938,11.7209815979004,11.720832824707,11.7206840515137,11.7205362319946,11.7203874588013,11.7202386856079,11.7200899124146,11.7199411392212,11.7197933197021,11.7196445465088,11.7194957733154,11.7193470001221,11.719199180603,11.7190504074097,11.7189016342163,11.7187528610229,11.7186050415039,11.7184562683105,11.7183074951172,11.7181596755981,11.7180109024048,11.7178621292114,11.7177133560181,11.717565536499,11.7174167633057,11.7172679901123,11.7171201705933,11.7169713973999,11.7168226242065,11.7166748046875,11.7165260314941,11.7163772583008,11.7162294387817,11.7160806655884,11.715931892395,11.715784072876,11.7338409423828,11.7922792434692,11.8513021469116,11.8829021453857,11.8854904174805,11.8880786895752,11.8906688690186,11.8932609558105,11.8958530426025,11.8984460830688,11.9010410308838,11.903636932373,11.9062337875366,11.9088315963745,11.911431312561,11.9140310287476,11.9166326522827,11.9192352294922,11.921838760376,11.9244432449341,11.9270486831665,11.9296550750732,11.9322633743286,11.9348726272583,11.9374828338623,11.9400939941406,11.9427061080933,11.9453201293945,11.9479351043701,11.95055103302,11.9531679153442,11.9557857513428,11.9584054946899,11.9610252380371,11.9636468887329,11.9662704467773,11.9688940048218,11.9715194702148,11.9741449356079,11.9767732620239,11.9794015884399,11.9820308685303,11.9846620559692,11.9872941970825,11.9899272918701,11.992561340332,11.9951972961426,11.9978332519531,12.0016508102417,12.0104188919067,12.0191993713379,12.0279932022095,12.0367994308472,12.0456190109253,12.0544509887695,12.0632953643799,12.072154045105,12.0810251235962,12.0899095535278,12.0988063812256,12.1077165603638,12.1166400909424,12.1255769729614,12.1345272064209,12.1434898376465,12.1524658203125,12.1614561080933,12.1704587936401,12.1794748306274,12.1885042190552,12.1975479125977,12.2066040039062,12.2156734466553,12.224757194519,12.2338542938232,12.2429647445679,12.2520885467529,12.2612266540527,12.2703771591187,12.2795419692993,12.2887210845947,12.2979135513306,12.3071193695068,12.3163394927979,12.3255729675293,12.3348207473755,12.3440828323364,12.3533582687378,12.3626470565796,12.3719511032104,12.3812675476074,12.3905992507935,12.3999452590942,12.4093046188354,12.4186782836914,12.4280662536621,12.4374685287476,12.4468841552734,12.4563150405884,12.4657602310181,12.4752197265625,12.4846925735474,12.4941806793213,12.50368309021,12.5132007598877,12.5227317810059,12.5322780609131,12.5418386459351,12.5514135360718,12.5610036849976,12.5706081390381,12.5802268981934,12.5898609161377,12.5995092391968,12.6091728210449,12.6188507080078,12.6285438537598,12.6382522583008,12.6479749679565,12.6577129364014,12.6674661636353,12.6772336959839,12.6870164871216,12.6968154907227,12.7066287994385,12.7164573669434,12.726300239563,12.736159324646,12.7460336685181,12.7559232711792,12.7658281326294,12.7757482528687,12.7856845855713,12.7956352233887,12.8056020736694,12.8155841827393,12.8255825042725,13.0082159042358,13.0257863998413,13.0434036254883,13.0610685348511,13.078782081604,13.0965433120728,13.1143531799316,13.1322107315063,13.1501178741455,13.1680736541748,13.1860780715942,13.2041320800781,13.2222356796265,13.2403898239136,13.2585926055908,13.2768459320068,13.2874870300293,13.2956838607788,13.3038911819458,13.3121089935303,13.3203363418579,13.3285732269287,13.3368215560913,13.3450794219971,13.3533477783203,13.361626625061,13.3699150085449,13.3782138824463,13.3865232467651,13.3948431015015,13.4031734466553,13.4115133285522,13.419864654541,13.4282255172729,13.4365968704224,13.4449796676636,13.4533720016479,13.4617748260498,13.4701881408691,13.4786128997803,13.4911832809448,13.5215101242065,13.5519733428955,13.5825748443604,13.6133146286011,13.644193649292,13.6752128601074,13.706374168396,13.7376775741577,13.7691240310669,13.8007144927979,13.8324508666992,13.864333152771,13.8963632583618,13.9285411834717,13.9608688354492,13.9933471679688,14.0259761810303,14.0587577819824,14.0916938781738,14.1247835159302,14.1580295562744,14.1914319992065,14.2249927520752,14.2587127685547,14.2925930023193,14.3266344070435,14.3608388900757,14.395206451416,14.4297389984131,14.4644374847412,14.499303817749,14.5343379974365,14.5695428848267,14.6049175262451,14.6404647827148,14.6761856079102,14.7120819091797,14.7481536865234,14.7844018936157,14.8208293914795,14.8573265075684,14.8783140182495,14.8993606567383,14.920467376709,14.9416341781616,14.9628601074219,14.9841470718384,15.0054941177368,15.0269031524658,15.0483722686768,15.0699033737183,15.0914964675903,15.1131505966187,15.1348676681519,15.1566476821899,15.1784896850586,15.2003946304321,15.2223634719849,15.2443952560425,15.2664918899536,15.2886514663696,15.3108758926392,15.3331651687622,15.3555202484131,15.3779392242432,15.4019842147827,15.4348030090332,15.4677629470825,15.5008630752563,15.5341062545776,15.5674915313721,15.6010208129883,15.6346940994263,15.668514251709,15.7024803161621,15.9122200012207,16.7968120574951,17.6069774627686,19.0295829772949,19.0993041992188,19.1695365905762,19.2402896881104,19.3115653991699,19.3833713531494,19.4557132720947,19.5285968780518,19.6020278930664,19.6760158538818,0,0,0,0,0,0,0,0,0,0,0,0,0,0,0,0,0,0,0,0,0,0,0
11.7252349853516,11.7250862121582,11.7249374389648,11.7247886657715,11.7246398925781,11.7244920730591,11.7243432998657,11.7241945266724,11.724045753479,11.7238969802856,11.7237482070923,11.7235994338989,11.7234506607056,11.7233028411865,11.7231540679932,11.7230052947998,11.7228565216064,11.7227077484131,11.7225589752197,11.7224102020264,11.7222623825073,11.722113609314,11.7219648361206,11.7218160629272,11.7216672897339,11.7215185165405,11.7213706970215,11.7212219238281,11.7210731506348,11.7209243774414,11.720775604248,11.720627784729,11.7204790115356,11.7203302383423,11.7201814651489,11.7200336456299,11.7198848724365,11.7197360992432,11.7195873260498,11.7194395065308,11.7192907333374,11.719141960144,11.7189931869507,11.7188453674316,11.7186965942383,11.7185478210449,11.7183990478516,11.7182512283325,11.7181024551392,11.7179536819458,11.7178058624268,11.7176570892334,11.71750831604,11.7173595428467,11.7172117233276,11.7170629501343,11.7169141769409,11.7167663574219,11.7166175842285,11.7164688110352,11.7163209915161,11.7161722183228,11.7160243988037,11.7338380813599,11.7922763824463,11.8512992858887,11.8930072784424,11.8955993652344,11.898193359375,11.9007873535156,11.9033832550049,11.9059801101685,11.9085779190063,11.9111766815186,11.9137773513794,11.9163789749146,11.918981552124,11.9215850830078,11.9241895675659,11.9267950057983,11.9294023513794,11.9320106506348,11.9346199035645,11.9372301101685,11.9398412704468,11.9424533843994,11.9450674057007,11.947681427002,11.9502973556519,11.9529142379761,11.9555320739746,11.9581518173218,11.9607725143433,11.9633932113647,11.9660158157349,11.9686403274536,11.9712648391724,11.9738912582397,11.9765186309814,11.9791469573975,11.9817762374878,11.9844074249268,11.98703956604,11.9896726608276,11.9923067092896,11.9949417114258,11.9975786209106,12.0002164840698,12.0028553009033,12.0054950714111,12.0081357955933,12.010778427124,12.0134220123291,12.0160665512085,12.0187120437622,12.0213594436646,12.0240077972412,12.0266571044922,12.0293073654175,12.0379590988159,12.0467796325684,12.0556135177612,12.0644607543945,12.0733203887939,12.0821933746338,12.0910797119141,12.0999784469604,12.1088905334473,12.1178159713745,12.1267538070679,12.135705947876,12.1446704864502,12.1536483764648,12.1626396179199,12.1716442108154,12.1806621551514,12.1896934509277,12.1987380981445,12.2077970504761,12.2168684005737,12.2259540557861,12.2350521087646,12.2441644668579,12.2532901763916,12.26243019104,12.2715826034546,12.2807493209839,12.2899303436279,12.2991247177124,12.3083324432373,12.3175535202026,12.326789855957,12.3360385894775,12.3453025817871,12.3545799255371,12.3638706207275,12.3731756210327,12.3824949264526,12.3918285369873,12.4011754989624,12.4105377197266,12.4199132919312,12.4293031692505,12.4387063980103,12.4481248855591,12.4575576782227,12.467004776001,12.4764652252197,12.4859409332275,12.4954309463501,12.5049352645874,12.5144538879395,12.5239877700806,12.5335350036621,12.5430974960327,12.5526752471924,12.5622663497925,12.5718727111816,12.5814943313599,12.5911293029785,12.6007804870605,12.6104459762573,12.6201257705688,12.6298208236694,12.6395311355591,12.6492557525635,12.6589956283569,12.6687507629395,12.6785202026367,12.6883058547974,12.6981058120728,12.7079210281372,12.7177515029907,12.7275972366333,12.7374582290649,12.7473344802856,12.7572259902954,12.7671327590942,12.7770557403564,12.7869930267334,12.7969465255737,12.8069152832031,13.068431854248,13.0861644744873,13.103946685791,13.1217756271362,13.1396541595459,13.1575813293457,13.1755571365356,13.19358253479,13.2116575241089,13.2266569137573,13.2347784042358,13.2429103851318,13.2510528564453,13.259204864502,13.2673673629761,13.2755393981934,13.2837219238281,13.2919139862061,13.3001165390015,13.3083295822144,13.3165521621704,13.3247852325439,13.3330278396606,13.3412809371948,13.3495445251465,13.3578186035156,13.3661022186279,13.374397277832,13.3827018737793,13.391016960144,13.399341583252,13.4076776504517,13.4160232543945,13.4243803024292,13.432746887207,13.4411239624023,13.4495115280151,13.4579095840454,13.4663190841675,13.4895372390747,13.5198574066162,13.5503129959106,13.580906867981,13.6116390228271,13.6425104141235,13.6735229492188,13.7046756744385,13.7359714508057,13.7674102783203,13.7989931106567,13.8307218551636,13.8625955581665,13.8946180343628,13.9267873764038,13.9591073989868,13.9915761947632,14.0241975784302,14.0569715499878,14.089898109436,14.1229801177979,14.1562175750732,14.1896114349365,14.2231636047363,14.256875038147,14.2907466888428,14.324779510498,14.3589744567871,14.3933334350586,14.4278564453125,14.4625463485718,14.4974031448364,14.5324287414551,14.5676240921021,14.6029891967773,14.6385278701782,14.6742391586304,14.7101249694824,14.746187210083,14.7756834030151,14.796441078186,14.8172559738159,14.8381309509277,14.8590641021729,14.8800563812256,14.9011077880859,14.9222192764282,14.9433908462524,14.9646215438843,14.9859142303467,15.0072660446167,15.0286798477173,15.0501546859741,15.0716905593872,15.0932884216309,15.1149482727051,15.1366701126099,15.1584548950195,15.1803026199341,15.2022132873535,15.2241868972778,15.2462244033813,15.2683258056641,15.290491104126,15.3127212524414,15.335015296936,15.3573751449585,15.3887100219727,15.4214725494385,15.4543752670288,15.4874181747437,15.5206031799316,15.5539302825928,15.5874013900757,15.6210165023804,15.6547765731812,15.6886835098267,15.7227373123169,16.4652976989746,17.3348331451416,18.86572265625,18.9342460632324,19.0032691955566,19.0727958679199,19.1428337097168,19.2133884429932,19.2844638824463,0,0,0,0,0,0,0,0,0,0,0,0,0,0,0,0,0,0,0,0,0,0,0,0
11.7254753112793,11.7253265380859,11.7251777648926,11.7250299453735,11.7248811721802,11.7247323989868,11.7245836257935,11.7244348526001,11.7242860794067,11.7241373062134,11.72398853302,11.7238397598267,11.7236909866333,11.7235431671143,11.7233943939209,11.7232456207275,11.7230968475342,11.7229480743408,11.7227993011475,11.7226505279541,11.7225027084351,11.7223539352417,11.7222051620483,11.722056388855,11.7219076156616,11.7217597961426,11.7216110229492,11.7214622497559,11.7213134765625,11.7211647033691,11.7210168838501,11.7208681106567,11.7207193374634,11.72057056427,11.7204217910767,11.7202739715576,11.7201251983643,11.7199764251709,11.7198276519775,11.7196798324585,11.7195310592651,11.7193822860718,11.7192335128784,11.7190856933594,11.718936920166,11.7187881469727,11.7186393737793,11.7184915542603,11.7183427810669,11.7181940078735,11.7180452346802,11.7178974151611,11.7177486419678,11.7175998687744,11.7174520492554,11.717303276062,11.7171545028687,11.7170057296753,11.7168579101562,11.7167091369629,11.7165613174438,11.7164125442505,11.7162637710571,11.7338352203369,11.7922735214233,11.8512964248657,11.9031295776367,11.9057264328003,11.9083242416382,11.9109230041504,11.9135227203369,11.9161243438721,11.9187269210815,11.9213304519653,11.9239349365234,11.9265403747559,11.9291477203369,11.9317560195923,11.934365272522,11.936975479126,11.9395866394043,11.9421997070312,11.9448137283325,11.9474277496338,11.950044631958,11.9526615142822,11.9552793502808,11.9578981399536,11.9605188369751,11.9631395339966,11.9657621383667,11.9683856964111,11.9710111618042,11.9736366271973,11.976263999939,11.978892326355,11.9815216064453,11.9841527938843,11.9867839813232,11.9894170761108,11.9920511245728,11.9946870803833,11.9973230361938,11.999960899353,12.0025997161865,12.0052394866943,12.0078802108765,12.0105228424072,12.0131664276123,12.0158109664917,12.0184564590454,12.0211029052734,12.0237512588501,12.0264005661011,12.0290508270264,12.031702041626,12.0343551635742,12.0370092391968,12.0396642684937,12.0423202514648,12.0449781417847,12.0476360321045,12.0502958297729,12.0529565811157,12.0556192398071,12.0582818984985,12.0656261444092,12.0744876861572,12.0833616256714,12.0922498703003,12.1011505126953,12.1100645065308,12.1189908981323,12.1279315948486,12.1368846893311,12.1458511352539,12.1548309326172,12.1638240814209,12.172830581665,12.1818504333496,12.1908836364746,12.19993019104,12.2089900970459,12.2180633544922,12.2271499633789,12.2362508773804,12.2453651428223,12.2544927597046,12.2636337280273,12.2727880477905,12.2819566726685,12.2911396026611,12.3003349304199,12.3095455169678,12.3187685012817,12.3280057907104,12.3372573852539,12.3465223312378,12.3558015823364,12.3650951385498,12.3744020462036,12.3837232589722,12.3930578231812,12.4024076461792,12.4117708206177,12.4211483001709,12.4305400848389,12.4399452209473,12.4493656158447,12.4588003158569,12.4682483673096,12.4777116775513,12.4871892929077,12.4966812133789,12.5061874389648,12.5157079696655,12.5252437591553,12.5347929000854,12.5443572998047,12.5539360046387,12.5635299682617,12.5731382369995,12.5827617645264,12.5923986434937,12.6020517349243,12.6117191314697,12.6214008331299,12.6310977935791,12.6408100128174,12.6505365371704,12.6602792739868,12.6700353622437,12.6798076629639,12.6895942687988,12.6993970870972,12.7092142105103,12.7190465927124,12.7288942337036,12.7387571334839,12.7486352920532,12.7585296630859,12.7684383392334,12.7783622741699,13.108603477478,13.129207611084,13.1471061706543,13.1650533676147,13.1744289398193,13.1824865341187,13.1905546188354,13.1986322402954,13.2067203521729,13.2148180007935,13.2229251861572,13.2310428619385,13.2391710281372,13.2473077774048,13.2554559707642,13.2636127471924,13.2717809677124,13.2799587249756,13.2881460189819,13.2963438034058,13.3045520782471,13.3127698898315,13.3209981918335,13.3292369842529,13.3374853134155,13.3457441329956,13.3540134429932,13.3622922897339,13.3705825805664,13.3788824081421,13.3871917724609,13.3955125808716,13.4038438796997,13.412184715271,13.4205369949341,13.4288988113403,13.4372711181641,13.4456539154053,13.4577159881592,13.4878931045532,13.5182046890259,13.5486536026001,13.5792398452759,13.6099643707275,13.6408281326294,13.6718320846558,13.7029781341553,13.7342662811279,13.7656965255737,13.7972717285156,13.8289918899536,13.8608589172363,13.8928728103638,13.9250345230103,13.9573459625244,13.9898071289062,14.0224199295044,14.0551853179932,14.0881042480469,14.1211767196655,14.1544055938721,14.1877918243408,14.2213354110718,14.2550373077393,14.2889003753662,14.3229246139526,14.3571109771729,14.3914604187012,14.4259748458862,14.4606561660767,14.4955034255981,14.5305194854736,14.5657052993774,14.6010618209839,14.6365909576416,14.6722927093506,14.6949329376221,14.7154636383057,14.7360515594482,14.7566976547241,14.7774019241333,14.7981634140015,14.8189840316772,14.8398628234863,14.8608016967773,14.8817987442017,14.9028549194336,14.9239711761475,14.9451475143433,14.966383934021,14.987681388855,15.0090389251709,15.0304574966431,15.0519371032715,15.0734777450562,15.0950813293457,15.1167459487915,15.1384735107422,15.1602630615234,15.1821155548096,15.2040319442749,15.2260103225708,15.2480535507202,15.2701597213745,15.2923307418823,15.3145656585693,15.3428907394409,15.3754577636719,15.4081649780273,15.4410104751587,15.4739961624146,15.5071239471436,15.5403928756714,15.573805809021,15.6073617935181,15.6410627365112,15.6749105453491,15.7089042663574,16.146614074707,17.0582065582275,18.7046604156494,18.7720165252686,18.8398590087891,18.9081935882568,18.9770259857178,0,0,0,0,0,0,0,0,0,0,0,0,0,0,0,0,0,0,0,0,0,0,0,0
11.725715637207,11.725567817688,11.7254190444946,11.7252702713013,11.7251214981079,11.7249727249146,11.7248239517212,11.7246751785278,11.7245264053345,11.7243776321411,11.7242288589478,11.7240800857544,11.7239322662354,11.723783493042,11.7236347198486,11.7234859466553,11.7233371734619,11.7231884002686,11.7230396270752,11.7228918075562,11.7227430343628,11.7225942611694,11.7224454879761,11.7222967147827,11.7221479415894,11.7220001220703,11.721851348877,11.7217025756836,11.7215538024902,11.7214050292969,11.7212572097778,11.7211084365845,11.7209596633911,11.7208108901978,11.7206621170044,11.7205142974854,11.720365524292,11.7202167510986,11.7200679779053,11.7199192047119,11.7197713851929,11.7196226119995,11.7194738388062,11.7193250656128,11.7191772460938,11.7190284729004,11.718879699707,11.7187309265137,11.7185831069946,11.7184343338013,11.7182855606079,11.7181377410889,11.7179889678955,11.7178401947021,11.7176914215088,11.7175436019897,11.7173948287964,11.717246055603,11.717098236084,11.7169494628906,11.7168006896973,11.7166528701782,11.7165040969849,11.733832359314,11.7922706604004,11.8512935638428,11.9109106063843,11.9158706665039,11.9184722900391,11.9210758209229,11.923680305481,11.9262857437134,11.9288930892944,11.9315004348755,11.9341096878052,11.9367198944092,11.9393320083618,11.9419441223145,11.9445581436157,11.9471731185913,11.9497890472412,11.9524059295654,11.955023765564,11.9576435089111,11.9602642059326,11.9628858566284,11.9655084609985,11.968132019043,11.9707565307617,11.9733829498291,11.9760103225708,11.9786376953125,11.9812679290771,11.9838981628418,11.9865293502808,11.9891624450684,11.9917964935303,11.9944314956665,11.9970684051514,11.9997053146362,12.0023441314697,12.0049839019775,12.0076246261597,12.0102672576904,12.0129098892212,12.0155544281006,12.0181999206543,12.0208473205566,12.023494720459,12.02614402771,12.0287942886353,12.0314455032349,12.0340986251831,12.0367517471313,12.0394067764282,12.0420627593994,12.0447206497192,12.0473785400391,12.0500383377075,12.0526990890503,12.0553617477417,12.0580244064331,12.0606889724731,12.0633544921875,12.0660209655762,12.0686893463135,12.0713577270508,12.0740280151367,12.076699256897,12.0793724060059,12.0820465087891,12.0861911773682,12.093111038208,12.1000385284424,12.1069736480713,12.113917350769,12.1208686828613,12.1291084289551,12.1380634307861,12.1470317840576,12.1560134887695,12.1650085449219,12.1740169525146,12.1830387115479,12.1920728683472,12.2011213302612,12.2101831436157,12.2192583084106,12.228346824646,12.2374496459961,12.2465648651123,12.2556943893433,12.2648372650146,12.2739944458008,12.2831649780273,12.2923488616943,12.3015470504761,12.3107585906982,12.3199834823608,12.3292226791382,12.3384761810303,12.3477430343628,12.3570241928101,12.3663187026978,12.3756275177002,12.3849506378174,12.3942880630493,12.4036388397217,12.4130039215088,12.4223833084106,12.4317770004272,12.4411849975586,12.4506063461304,12.4600429534912,12.4694938659668,12.4789581298828,12.4884376525879,12.4979314804077,12.5074396133423,12.5169620513916,12.52649974823,12.5360507965088,12.5456171035767,12.5551986694336,12.564793586731,12.5744037628174,12.5840291976929,12.5936689376831,12.6033229827881,12.6129922866821,12.6226768493652,12.6323757171631,12.64208984375,12.6518182754517,12.6615619659424,12.6713209152222,12.681095123291,12.6908836364746,12.7006883621216,12.7105073928833,12.7203416824341,12.7301912307739,12.7400569915771,12.7499370574951,12.7598323822021,13.1386108398438,13.1466255187988,13.1546497344971,13.1626834869385,13.170726776123,13.1787805557251,13.1868438720703,13.194917678833,13.2030000686646,13.2110939025879,13.2191963195801,13.2273092269897,13.2354326248169,13.2435655593872,13.2517080307007,13.2598609924316,13.2680244445801,13.2761974334717,13.2843799591064,13.292573928833,13.3007764816284,13.3089904785156,13.317214012146,13.3254470825195,13.3336915969849,13.3419456481934,13.3502101898193,13.3584842681885,13.3667697906494,13.3750648498535,13.3833703994751,13.3916854858398,13.4000120162964,13.4083480834961,13.4166955947876,13.4250526428223,13.4334201812744,13.4560785293579,13.4862480163574,13.5165529251099,13.5469942092896,13.5775728225708,13.6082897186279,13.6391458511353,13.6701431274414,13.7012805938721,13.7325601577759,13.7639837265015,13.7955513000488,13.8272638320923,13.8591222763062,13.8911275863647,13.9232816696167,13.955584526062,13.9880380630493,14.0206422805786,14.0533990859985,14.0863094329834,14.1193742752075,14.1525945663452,14.1859722137451,14.2195072174072,14.2532005310059,14.287055015564,14.3210697174072,14.3552474975586,14.3895883560181,14.4240942001343,14.4587659835815,14.4936046600342,14.5286111831665,14.5637874603271,14.5948076248169,14.6150598526001,14.6353673934937,14.6557321548462,14.6761531829834,14.6966314315796,14.7171678543091,14.7377605438232,14.7584114074707,14.7791194915771,14.7998867034912,14.8207120895386,14.8415966033936,14.8625392913818,14.8835411071777,14.9046030044556,14.925724029541,14.9469051361084,14.968147277832,14.9894485473633,15.0108118057251,15.0322351455688,15.0537195205688,15.0752658843994,15.0968742370605,15.1185445785522,15.1402769088745,15.1620721817017,15.1839294433594,15.2058506011963,15.2278347015381,15.2498826980591,15.2719945907593,15.2973432540894,15.3297176361084,15.362229347229,15.3948793411255,15.4276685714722,15.4605979919434,15.4936676025391,15.5268793106079,15.5602331161499,15.5937309265137,15.6273736953735,15.6611614227295,15.6950960159302,15.8400344848633,16.7163963317871,17.6136856079102,18.6125431060791,0,0,0,0,0,0,0,0,0,0,0,0,0,0,0,0,0,0,0,0,0,0,0,0,0
11.7259569168091,11.7258081436157,11.7256593704224,11.725510597229,11.7253618240356,11.7252130508423,11.7250642776489,11.7249155044556,11.7247667312622,11.7246179580688,11.7244701385498,11.7243213653564,11.7241725921631,11.7240238189697,11.7238750457764,11.723726272583,11.7235774993896,11.7234287261963,11.7232809066772,11.7231321334839,11.7229833602905,11.7228345870972,11.7226858139038,11.7225370407104,11.7223882675171,11.722240447998,11.7220916748047,11.7219429016113,11.721794128418,11.7216453552246,11.7214975357056,11.7213487625122,11.7211999893188,11.7210512161255,11.7209024429321,11.7207546234131,11.7206058502197,11.7204570770264,11.720308303833,11.7201595306396,11.7200117111206,11.7198629379272,11.7197141647339,11.7195653915405,11.7194175720215,11.7192687988281,11.7191200256348,11.7189712524414,11.7188234329224,11.718674659729,11.7185258865356,11.7183771133423,11.7182292938232,11.7180805206299,11.7179317474365,11.7177839279175,11.7176351547241,11.7174863815308,11.7173376083374,11.7171897888184,11.717041015625,11.716893196106,11.7167444229126,11.7338285446167,11.7922668457031,11.8512907028198,11.9109077453613,11.9260311126709,11.928638458252,11.931245803833,11.9338550567627,11.9364652633667,11.939076423645,11.9416885375977,11.9443025588989,11.9469175338745,11.9495325088501,11.9521503448486,11.9547681808472,11.95738697052,11.9600076675415,11.9626293182373,11.9652519226074,11.9678764343262,11.9705009460449,11.9731273651123,11.975754737854,11.97838306427,11.9810123443604,11.9836435317993,11.9862747192383,11.9889078140259,11.9915418624878,11.994176864624,11.9968128204346,11.9994497299194,12.0020885467529,12.0047283172607,12.0073690414429,12.0100107192993,12.0126543045044,12.0152988433838,12.0179443359375,12.0205907821655,12.0232381820679,12.0258874893188,12.0285377502441,12.0311889648438,12.0338411331177,12.0364952087402,12.0391502380371,12.0418062210083,12.0444631576538,12.0471220016479,12.0497808456421,12.0524415969849,12.055103302002,12.0577669143677,12.0604305267334,12.0630960464478,12.0657625198364,12.0684309005737,12.071099281311,12.073769569397,12.0764408111572,12.0791139602661,12.081787109375,12.0844621658325,12.0871381759644,12.0898151397705,12.0924940109253,12.0962419509888,12.1031732559204,12.1101121902466,12.1170587539673,12.1240139007568,12.1309766769409,12.1379470825195,12.144926071167,12.151912689209,12.1589078903198,12.1659107208252,12.1729221343994,12.1799411773682,12.1869688034058,12.1940040588379,12.2010478973389,12.2080993652344,12.2151584625244,12.2222270965576,12.2293033599854,12.2363872528076,12.2434797286987,12.2505807876587,12.2576894760132,12.2648067474365,12.2719326019287,12.2790660858154,12.286208152771,12.2935590744019,12.3027582168579,12.3119716644287,12.3211994171143,12.3304395675659,12.3396949768066,12.3489637374878,12.3582468032837,12.36754322052,12.3768539428711,12.3861789703369,12.3955173492432,12.4048709869385,12.4142379760742,12.4236192703247,12.4330139160156,12.4424238204956,12.4518480300903,12.4612855911255,12.4707384109497,12.4802055358887,12.4896860122681,12.4991817474365,12.5086917877197,12.518217086792,12.5277557373047,12.5373096466064,12.5468778610229,12.5564603805542,12.5660581588745,12.5756702423096,12.5852966308594,12.5949382781982,12.6045951843262,12.6142663955688,12.6239519119263,12.6336536407471,12.6433687210083,12.6531000137329,12.6628456115723,12.6726064682007,12.6823825836182,12.6921739578247,12.701979637146,12.7118005752563,12.7216377258301,12.7314891815186,12.7413558959961,13.1349296569824,13.1429395675659,13.1509590148926,13.1589879989624,13.1670274734497,13.1750764846802,13.1831350326538,13.1912040710449,13.1992826461792,13.2073707580566,13.2154693603516,13.223578453064,13.2316961288452,13.2398242950439,13.2479629516602,13.2561111450195,13.2642698287964,13.2724380493164,13.2806167602539,13.2888050079346,13.2970037460327,13.3052129745483,13.3134317398071,13.3216609954834,13.3298997879028,13.3381490707397,13.3464088439941,13.354679107666,13.3629589080811,13.3712491989136,13.3795499801636,13.3878612518311,13.396183013916,13.4045143127441,13.4128561019897,13.4244146347046,13.454442024231,13.4846038818359,13.5149011611938,13.545334815979,13.57590675354,13.6066160202026,13.6374645233154,13.6684532165527,13.6995840072632,13.7308559417725,13.7622709274292,13.793830871582,13.8255348205566,13.857385635376,13.88938331604,13.9215288162231,13.9538240432739,13.9862689971924,14.0188655853271,14.0516138076782,14.0845155715942,14.1175718307495,14.1507844924927,14.1841526031494,14.2176790237427,14.2513647079468,14.2852096557617,14.3192157745361,14.3533840179443,14.387716293335,14.4222135543823,14.4568758010864,14.4917049407959,14.5160160064697,14.5360498428345,14.5561389923096,14.576283454895,14.5964841842651,14.6167402267456,14.6370525360107,14.6574220657349,14.6778478622437,14.6983318328857,14.7188720703125,14.7394695281982,14.7601251602173,14.7808389663696,14.801609992981,14.8224401473999,14.8433294296265,14.8642778396606,14.8852844238281,14.9063510894775,14.9274768829346,14.9486637115479,14.9699096679688,14.9912166595459,15.0125846862793,15.0340127944946,15.0555028915405,15.0770540237427,15.0986680984497,15.120343208313,15.1420803070068,15.1638803482056,15.1857442855835,15.207670211792,15.2296600341797,15.2520656585693,15.2842493057251,15.3165674209595,15.3490238189697,15.3816175460815,15.4143495559692,15.4472217559814,15.4802350997925,15.513388633728,15.546685218811,15.5801248550415,15.6137084960938,15.6474370956421,15.6813116073608,15.7153339385986,0,0,0,0,0,0,0,0,0,0,0,0,0,0,0,0,0,0,0,0,0,0,0,0,0,0
11.7261972427368,11.7260484695435,11.7258996963501,11.7257509231567,11.7256021499634,11.72545337677,11.7253046035767,11.7251558303833,11.7250070571899,11.7248592376709,11.7247104644775,11.7245616912842,11.7244129180908,11.7242641448975,11.7241153717041,11.7239665985107,11.7238178253174,11.723669052124,11.723521232605,11.7233724594116,11.7232236862183,11.7230749130249,11.7229261398315,11.7227773666382,11.7226295471191,11.7224807739258,11.7223320007324,11.7221832275391,11.7220344543457,11.7218856811523,11.7217378616333,11.7215890884399,11.7214403152466,11.7212915420532,11.7211427688599,11.7209949493408,11.7208461761475,11.7206974029541,11.7205486297607,11.7203998565674,11.7202520370483,11.720103263855,11.7199544906616,11.7198057174683,11.7196578979492,11.7195091247559,11.7193603515625,11.7192115783691,11.7190637588501,11.7189149856567,11.7187662124634,11.71861743927,11.718469619751,11.7183208465576,11.7181720733643,11.7180233001709,11.7178754806519,11.7177267074585,11.7175779342651,11.7174301147461,11.7172813415527,11.7171325683594,11.7169847488403,11.7338256835938,11.7922639846802,11.8512868881226,11.9109039306641,11.9362096786499,11.9388208389282,11.9414339065552,11.9440469741821,11.9466619491577,11.9492769241333,11.9518938064575,11.9545125961304,11.9571313858032,11.9597520828247,11.9623727798462,11.9649953842163,11.9676198959351,11.9702444076538,11.9728708267212,11.9754981994629,11.9781265258789,11.9807558059692,11.9833860397339,11.9860181808472,11.9886512756348,11.9912853240967,11.9939203262329,11.9965572357178,11.999195098877,12.0018329620361,12.0044727325439,12.0071134567261,12.0097551345825,12.0123987197876,12.0150423049927,12.0176877975464,12.0203342437744,12.0229825973511,12.0256309509277,12.028281211853,12.0309324264526,12.0335845947266,12.0362386703491,12.0388927459717,12.0415487289429,12.0442056655884,12.0468645095825,12.0495233535767,12.0521841049194,12.0548458099365,12.0575094223022,12.060173034668,12.0628385543823,12.065505027771,12.068172454834,12.0708417892456,12.0735111236572,12.0761823654175,12.0788545608521,12.0815286636353,12.0842027664185,12.0868787765503,12.0895557403564,12.0922346115112,12.094913482666,12.0975942611694,12.1002769470215,12.1029596328735,12.1063089370728,12.1132516860962,12.1202020645142,12.127161026001,12.1341276168823,12.1411018371582,12.1480846405029,12.1550750732422,12.162073135376,12.1690797805786,12.1760950088501,12.1831178665161,12.1901483535767,12.1971874237061,12.2042350769043,12.2112903594971,12.2183532714844,12.2254247665405,12.2325048446655,12.2395935058594,12.2466897964478,12.2537937164307,12.2609062194824,12.268027305603,12.2751569747925,12.2822942733765,12.2894401550293,12.296594619751,12.3037567138672,12.3109283447266,12.3181076049805,12.3252944946289,12.3324909210205,12.3396949768066,12.3469085693359,12.3541297912598,12.3613595962524,12.368597984314,12.37584400177,12.3830995559692,12.390362739563,12.3976354598999,12.4049158096313,12.412205696106,12.4195032119751,12.4268102645874,12.4341249465942,12.4414482116699,12.4487810134888,12.4561223983765,12.4634714126587,12.4719839096069,12.4814519882202,12.4909353256226,12.5004329681396,12.5099449157715,12.5194711685181,12.5290126800537,12.5385675430298,12.5481376647949,12.5577230453491,12.5673217773438,12.5769367218018,12.5865650177002,12.5962085723877,12.6058673858643,12.6155405044556,12.6252279281616,12.6349315643311,12.6446485519409,12.6543817520142,12.6641292572021,12.6738920211792,12.6836700439453,12.6934633255005,12.7032718658447,12.7130947113037,13.123254776001,13.1312503814697,13.1392555236816,13.1472702026367,13.1552953720093,13.163330078125,13.1713743209839,13.1794290542603,13.1874933242798,13.1955671310425,13.2036514282227,13.211745262146,13.2198486328125,13.2279624938965,13.2360858917236,13.2442197799683,13.2523632049561,13.2605171203613,13.2686815261841,13.2768545150757,13.2850389480591,13.2932329177856,13.3014373779297,13.3096513748169,13.3178758621216,13.3261098861694,13.3343553543091,13.3426103591919,13.3508749008179,13.3591508865356,13.3674364089966,13.375732421875,13.3840389251709,13.39235496521,13.4006824493408,13.4227857589722,13.452805519104,13.4829607009888,13.5132503509521,13.5436763763428,13.5742406845093,13.6049423217773,13.6357831954956,13.6667642593384,13.6978874206543,13.729151725769,13.7605590820312,13.7921104431152,13.8238067626953,13.8556499481201,13.8876390457153,13.9197769165039,13.9520635604858,13.9845008850098,14.0170888900757,14.0498294830322,14.0827226638794,14.1157703399658,14.1489744186401,14.182333946228,14.2158517837524,14.2495279312134,14.2833652496338,14.317361831665,14.3515224456787,14.3858451843262,14.418306350708,14.4380712509155,14.4578895568848,14.4777631759644,14.49769115448,14.517674446106,14.5377130508423,14.5578060150146,14.5779552459717,14.5981607437134,14.6184215545654,14.6387386322021,14.6591129302979,14.6795434951782,14.7000312805176,14.7205762863159,14.7411794662476,14.7618398666382,14.7825574874878,14.803334236145,14.8241691589355,14.8450632095337,14.8660163879395,14.8870277404785,14.9080991744995,14.9292306900024,14.950421333313,14.9716730117798,14.9929847717285,15.0143575668335,15.0357913970947,15.0572862625122,15.0788431167603,15.1004619598389,15.1221418380737,15.1438846588135,15.1656904220581,15.1875581741333,15.2094898223877,15.2390489578247,15.2711763381958,15.3034400939941,15.3358402252197,15.3683786392212,15.4010543823242,15.4338693618774,15.4668254852295,15.4999217987061,15.5331602096558,15.5665416717529,15.6000671386719,15.6337366104126,0,0,0,0,0,0,0,0,0,0,0,0,0,0,0,0,0,0,0,0,0,0,0,0,0,0
11.7264375686646,11.7262887954712,11.7261400222778,11.7259912490845,11.7258424758911,11.7256937026978,11.7255458831787,11.7253971099854,11.725248336792,11.7250995635986,11.7249507904053,11.7248020172119,11.7246532440186,11.7245044708252,11.7243556976318,11.7242069244385,11.7240581512451,11.7239103317261,11.7237615585327,11.7236127853394,11.723464012146,11.7233152389526,11.7231664657593,11.7230176925659,11.7228698730469,11.7227210998535,11.7225723266602,11.7224235534668,11.7222747802734,11.7221260070801,11.721978187561,11.7218294143677,11.7216806411743,11.721531867981,11.7213830947876,11.7212352752686,11.7210865020752,11.7209377288818,11.7207889556885,11.7206401824951,11.7204923629761,11.7203435897827,11.7201948165894,11.720046043396,11.719898223877,11.7197494506836,11.7196006774902,11.7194519042969,11.7193031311035,11.7191553115845,11.7190065383911,11.7188577651978,11.7187099456787,11.7185611724854,11.718412399292,11.7182636260986,11.7181158065796,11.7179670333862,11.7178182601929,11.7176694869995,11.7175216674805,11.7173728942871,11.7172250747681,11.7338228225708,11.7922611236572,11.8512840270996,11.9109010696411,11.9464063644409,11.9490213394165,11.9516382217407,11.9542560577393,11.9568758010864,11.9594955444336,11.9621171951294,11.9647397994995,11.9673633575439,11.9699878692627,11.9726142883301,11.9752407073975,11.9778690338135,11.9804983139038,11.9831295013428,11.9857606887817,11.9883937835693,11.9910278320312,11.9936628341675,11.9962997436523,11.9989366531372,12.0015754699707,12.0042152404785,12.006856918335,12.0094985961914,12.0121421813965,12.0147867202759,12.0174322128296,12.0200786590576,12.02272605896,12.0253744125366,12.0280246734619,12.0306758880615,12.0333280563354,12.0359811782837,12.0386362075806,12.0412921905518,12.0439491271973,12.0466070175171,12.0492658615112,12.051926612854,12.0545883178711,12.0572509765625,12.0599155426025,12.0625801086426,12.0652465820312,12.0679140090942,12.0705833435059,12.0732526779175,12.0759239196777,12.0785961151123,12.0812692642212,12.0839443206787,12.0866203308105,12.0892972946167,12.0919752120972,12.0946550369263,12.0973348617554,12.1000165939331,12.1027002334595,12.1053838729858,12.1080694198608,12.1107559204102,12.1134433746338,12.1163930892944,12.1233472824097,12.1303091049194,12.137279510498,12.1442575454712,12.1512441635132,12.1582384109497,12.1652402877808,12.1722507476807,12.1792688369751,12.1862955093384,12.1933298110962,12.2003726959229,12.207423210144,12.2144823074341,12.221549987793,12.2286252975464,12.2357082366943,12.2428007125854,12.2499008178711,12.2570085525513,12.2641248703003,12.2712497711182,12.2783832550049,12.2855243682861,12.2926740646362,12.2998323440552,12.3069982528687,12.314172744751,12.3213558197021,12.3285474777222,12.335747718811,12.3429555892944,12.3501720428467,12.3573970794678,12.3646306991577,12.3718729019165,12.3791236877441,12.3863821029663,12.3936500549316,12.4009265899658,12.4082107543945,12.4155044555664,12.4228057861328,12.4301156997681,12.4374351501465,12.4447631835938,12.4520988464355,12.4594440460205,12.4667978286743,12.474160194397,12.4815311431885,12.4889106750488,12.496298789978,12.5036954879761,12.5111017227173,12.5185165405273,12.5259399414062,12.533371925354,12.5408134460449,12.5482635498047,12.5557222366333,12.5631895065308,12.5706663131714,12.5781517028809,12.5856466293335,12.593150138855,12.6006622314453,12.6081829071045,12.6157131195068,12.6232528686523,12.6308012008667,12.6383581161499,12.6459293365479,12.6556634902954,12.6654138565063,12.675178527832,12.6849584579468,12.6947536468506,13.1195812225342,13.1275720596313,13.135573387146,13.1435842514038,13.1516046524048,13.1596345901489,13.1676750183105,13.175724029541,13.1837844848633,13.1918535232544,13.199933052063,13.2080221176147,13.216121673584,13.2242307662964,13.2323503494263,13.2404794692993,13.2486181259155,13.2567672729492,13.2649259567261,13.2730951309204,13.2812747955322,13.2894639968872,13.2976636886597,13.3058729171753,13.3140926361084,13.322322845459,13.3305625915527,13.338812828064,13.3470735549927,13.3553447723389,13.3636255264282,13.3719167709351,13.3802185058594,13.3912782669067,13.4211568832397,13.4511699676514,13.4813165664673,13.5115995407104,13.5420188903809,13.5725746154785,13.6032686233521,13.6341028213501,13.6650762557983,13.6961908340454,13.7274475097656,13.7588472366333,13.7903909683228,13.8220796585083,13.8539142608643,13.8858957290649,13.918025970459,13.9503040313721,13.9827327728271,14.0153121948242,14.0480442047119,14.0809297561646,14.1139698028564,14.1471643447876,14.180516242981,14.2140245437622,14.2476930618286,14.2815208435059,14.3155097961426,14.341404914856,14.3609590530396,14.3805665969849,14.4002275466919,14.419942855835,14.4397115707397,14.4595346450806,14.4794130325317,14.4993457794189,14.5193328857422,14.5393753051758,14.559473991394,14.5796279907227,14.5998373031616,14.6201028823853,14.6404247283936,14.6608037948608,14.6812391281128,14.7017316818237,14.7222814559937,14.7428894042969,14.7635545730591,14.7842769622803,14.8050584793091,14.8258991241455,14.8467969894409,14.8677549362183,14.8887720108032,14.9098482131958,14.9309844970703,14.9521808624268,14.9734373092651,14.9947538375854,15.016131401062,15.0375709533691,15.0590705871582,15.0806322097778,15.102255821228,15.1239414215088,15.1456890106201,15.1675004959106,15.1941156387329,15.2260541915894,15.2581272125244,15.2903356552124,15.3226804733276,15.3551616668701,15.3877820968628,15.4205408096313,15.4534387588501,15.4864778518677,15.5196590423584,0,0,0,0,0,0,0,0,0,0,0,0,0,0,0,0,0,0,0,0,0,0,0,0,0,0,0
11.7266778945923,11.7265291213989,11.7263803482056,11.7262325286865,11.7260837554932,11.7259349822998,11.7257862091064,11.7256374359131,11.7254886627197,11.7253398895264,11.725191116333,11.7250423431396,11.7248935699463,11.7247447967529,11.7245960235596,11.7244482040405,11.7242994308472,11.7241506576538,11.7240018844604,11.7238531112671,11.7237043380737,11.7235555648804,11.723406791687,11.723258972168,11.7231101989746,11.7229614257812,11.7228126525879,11.7226638793945,11.7225151062012,11.7223663330078,11.7222185134888,11.7220697402954,11.7219209671021,11.7217721939087,11.7216234207153,11.7214756011963,11.7213268280029,11.7211780548096,11.7210292816162,11.7208805084229,11.7207326889038,11.7205839157104,11.7204351425171,11.7202863693237,11.7201375961304,11.7199897766113,11.719841003418,11.7196922302246,11.7195434570312,11.7193956375122,11.7192468643188,11.7190980911255,11.7189493179321,11.7188014984131,11.7186527252197,11.7185039520264,11.7183561325073,11.718207359314,11.7180585861206,11.7179098129272,11.7177619934082,11.7176132202148,11.7174644470215,11.7338199615479,11.7922582626343,11.8512811660767,11.9108982086182,11.9566192626953,11.9592399597168,11.9618606567383,11.9644832611084,11.9671068191528,11.9697313308716,11.972357749939,11.9749841690063,11.9776124954224,11.9802417755127,11.9828720092773,11.9855041503906,11.9881362915039,11.9907703399658,11.9934053421021,11.9960422515869,11.9986791610718,12.0013179779053,12.0039577484131,12.0065984725952,12.0092401504517,12.0118837356567,12.0145282745361,12.0171737670898,12.0198202133179,12.0224685668945,12.0251169204712,12.0277671813965,12.0304193496704,12.0330715179443,12.0357246398926,12.0383787155151,12.0410346984863,12.0436916351318,12.0463495254517,12.0490093231201,12.0516691207886,12.0543308258057,12.0569934844971,12.0596570968628,12.0623226165771,12.0649890899658,12.0676565170288,12.0703248977661,12.0729942321777,12.075665473938,12.0783376693726,12.0810108184814,12.083685874939,12.0863609313965,12.0890378952026,12.0917158126831,12.0943956375122,12.0970754623413,12.099757194519,12.1024398803711,12.1051244735718,12.1078090667725,12.1104955673218,12.1131830215454,12.1158723831177,12.1185617446899,12.1212530136108,12.1239452362061,12.1266393661499,12.1334600448608,12.1404333114624,12.1474151611328,12.1544046401978,12.1614027023315,12.1684083938599,12.175422668457,12.1824445724487,12.1894750595093,12.1965131759644,12.2035598754883,12.2106142044067,12.217677116394,12.2247476577759,12.2318267822266,12.2389144897461,12.2460098266602,12.2531137466431,12.2602252960205,12.2673454284668,12.2744741439819,12.2816104888916,12.2887554168701,12.2959089279175,12.3030710220337,12.3102407455444,12.3174200057983,12.3246059417725,12.3318014144897,12.3390054702759,12.3462171554565,12.3534374237061,12.3606662750244,12.3679037094116,12.3751497268677,12.3824043273926,12.3896675109863,12.3969383239746,12.4042186737061,12.4115076065063,12.4188041687012,12.4261102676392,12.4334239959717,12.4407472610474,12.4480791091919,12.455418586731,12.4627676010132,12.4701251983643,12.4774913787842,12.4848661422729,12.4922494888306,12.4996423721313,12.5070428848267,12.5144529342651,12.5218715667725,12.5292997360229,12.536735534668,12.5441808700562,12.5516347885132,12.5590972900391,12.5665693283081,12.574049949646,12.5815391540527,12.5890378952026,12.5965452194214,12.604061126709,12.6115865707397,12.6191215515137,12.6266641616821,12.6342172622681,12.6417779922485,12.6493482589722,12.656928062439,12.6645164489746,12.6721143722534,12.6797208786011,12.6873369216919,12.6949625015259,13.0999660491943,13.1079339981079,13.1159105300903,13.1238975524902,13.131893157959,13.1398992538452,13.1479158401489,13.1559410095215,13.1639766693115,13.1720218658447,13.1800775527954,13.1881418228149,13.196216583252,13.2043018341064,13.2123966217041,13.2205009460449,13.2286157608032,13.2367401123047,13.2448749542236,13.2530193328857,13.261173248291,13.2693386077881,13.277512550354,13.2856979370117,13.2938928604126,13.3020973205566,13.3103122711182,13.3185377120972,13.3267726898193,13.3350191116333,13.3432741165161,13.3515405654907,13.3598165512085,13.3681030273438,13.3896570205688,13.4195289611816,13.4495344161987,13.4796743392944,13.5099496841431,13.5403604507446,13.5709095001221,13.6015958786011,13.6324224472046,13.6633882522583,13.6944952011108,13.7257442474365,13.7571363449097,13.7886714935303,13.8203525543213,13.8521795272827,13.8841533660889,13.9162740707397,13.9485445022583,13.9809656143188,14.0135374069214,14.0462608337402,14.079137802124,14.1121683120728,14.1453552246094,14.1786985397339,14.2121982574463,14.2458581924438,14.2653188705444,14.2846651077271,14.3040647506714,14.3235177993774,14.3430233001709,14.3625822067261,14.3821935653687,14.4018592834473,14.4215784072876,14.441351890564,14.4611797332764,14.4810628890991,14.5009994506836,14.5209922790527,14.5410394668579,14.5611419677734,14.5813007354736,14.6015148162842,14.6217851638794,14.6421117782593,14.6624956130981,14.6829357147217,14.7034330368042,14.7239875793457,14.7445993423462,14.76526927948,14.7859973907471,14.8067836761475,14.8276281356812,14.8485317230225,14.8694944381714,14.8905162811279,14.9115972518921,14.9327383041382,14.9539394378662,14.9752016067505,14.9965229034424,15.0179061889648,15.0393505096436,15.0608549118042,15.0824222564697,15.1040506362915,15.1257410049438,15.1494455337524,15.1811971664429,15.213080406189,15.245099067688,15.2772521972656,15.3095417022705,15.341968536377,15.3745317459106,15.4072341918945,15.4400758743286,0,0,0,0,0,0,0,0,0,0,0,0,0,0,0,0,0,0,0,0,0,0,0,0,0,0,0
11.7269191741943,11.726770401001,11.7266216278076,11.7264728546143,11.7263240814209,11.7261753082275,11.7260265350342,11.7258777618408,11.7257289886475,11.7255802154541,11.7254314422607,11.7252826690674,11.725133895874,11.7249851226807,11.7248373031616,11.7246885299683,11.7245397567749,11.7243909835815,11.7242422103882,11.7240934371948,11.7239446640015,11.7237958908081,11.7236480712891,11.7234992980957,11.7233505249023,11.723201751709,11.7230529785156,11.7229042053223,11.7227554321289,11.7226076126099,11.7224588394165,11.7223100662231,11.7221612930298,11.7220125198364,11.7218637466431,11.721715927124,11.7215671539307,11.7214183807373,11.7212696075439,11.7211208343506,11.7209730148315,11.7208242416382,11.7206754684448,11.7205266952515,11.7203779220581,11.7202301025391,11.7200813293457,11.7199325561523,11.719783782959,11.7196359634399,11.7194871902466,11.7193384170532,11.7191896438599,11.7190418243408,11.7188930511475,11.7187442779541,11.7185955047607,11.7184476852417,11.7182989120483,11.718150138855,11.7180023193359,11.7178535461426,11.7177047729492,11.7338171005249,11.7922554016113,11.8512783050537,11.9108953475952,11.9668502807617,11.9694747924805,11.9721002578735,11.9747276306152,11.9773559570312,11.9799852371216,11.9826154708862,11.9852466583252,11.9878797531128,11.9905128479004,11.9931478500366,11.9957847595215,11.9984216690063,12.0010604858398,12.0036993026733,12.0063400268555,12.0089826583862,12.011625289917,12.0142698287964,12.0169153213501,12.0195617675781,12.0222091674805,12.0248584747314,12.0275087356567,12.0301599502563,12.0328121185303,12.0354661941528,12.0381202697754,12.0407762527466,12.0434341430664,12.0460920333862,12.0487518310547,12.0514116287231,12.0540733337402,12.0567359924316,12.0593996047974,12.0620641708374,12.0647306442261,12.0673980712891,12.0700664520264,12.072735786438,12.0754070281982,12.0780792236328,12.0807523727417,12.0834264755249,12.0861024856567,12.0887784957886,12.091456413269,12.0941362380981,12.0968160629272,12.099497795105,12.102180480957,12.1048641204834,12.1075496673584,12.1102361679077,12.1129236221313,12.1156120300293,12.1183013916016,12.1209926605225,12.1236848831177,12.1263780593872,12.1290731430054,12.1317691802979,12.1344661712646,12.1371641159058,12.1435890197754,12.1505746841431,12.1575679779053,12.1645698547363,12.1715793609619,12.178596496582,12.185622215271,12.1926565170288,12.1996984481812,12.206748008728,12.2138061523438,12.2208728790283,12.2279472351074,12.2350301742554,12.2421207427979,12.2492198944092,12.2563276290894,12.2634429931641,12.2705678939819,12.27769947052,12.2848405838013,12.2919893264771,12.2991466522217,12.3063116073608,12.3134860992432,12.32066822052,12.3278589248657,12.335057258606,12.3422651290894,12.3494806289673,12.3567047119141,12.363938331604,12.3711795806885,12.3784284591675,12.3856868743896,12.3929538726807,12.4002294540405,12.4075126647949,12.4148054122925,12.4221067428589,12.4294157028198,12.4367341995239,12.4440612792969,12.4513959884644,12.458740234375,12.4660930633545,12.4734544754028,12.48082447052,12.4882030487061,12.4955911636353,12.502986907959,12.5103921890259,12.5178060531616,12.5252285003662,12.532660484314,12.5401010513306,12.547550201416,12.5550079345703,12.5624742507935,12.5699501037598,12.5774345397949,12.5849285125732,12.5924310684204,12.5999422073364,12.6074628829956,12.6149921417236,12.6225309371948,12.6300783157349,12.6376342773438,12.6451997756958,12.652774810791,12.6603584289551,12.667950630188,12.6755523681641,12.6831636428833,12.6907835006714,12.6984128952026,12.7060518264771,12.7136993408203,13.0883531570435,13.0963068008423,13.10426902771,13.1122417449951,13.1202239990234,13.1282157897949,13.1362171173096,13.1442289352417,13.152250289917,13.1602811813354,13.1683216094971,13.1763725280762,13.1844329833984,13.1925029754639,13.2005834579468,13.2086734771729,13.2167739868164,13.2248830795288,13.233003616333,13.2411336898804,13.2492733001709,13.2574234008789,13.2655830383301,13.2737531661987,13.2819328308105,13.2901229858398,13.2983236312866,13.3065338134766,13.314754486084,13.3229856491089,13.331226348877,13.3394775390625,13.3477382659912,13.358304977417,13.3880367279053,13.4179010391235,13.4478988647461,13.4780311584473,13.5082988739014,13.5387029647827,13.5692443847656,13.5999240875244,13.6307420730591,13.6617002487183,13.6927995681763,13.7240409851074,13.755425453186,13.7869529724121,13.8186264038086,13.8504447937012,13.8824100494385,13.9145240783691,13.9467859268188,13.9791984558105,14.0117616653442,14.0444774627686,14.0773458480835,14.1103687286377,14.1435461044312,14.1709432601929,14.190034866333,14.2091789245605,14.2283735275269,14.2476205825806,14.2669200897217,14.2862710952759,14.3056755065918,14.3251323699951,14.3446416854858,14.3642044067383,14.3838214874268,14.4034910202026,14.4232149124146,14.4429931640625,14.4628257751465,14.4827127456665,14.5026540756226,14.522650718689,14.5427026748657,14.5628099441528,14.5829734802246,14.6031923294067,14.6234674453735,14.643798828125,14.6641864776611,14.6846323013306,14.7051334381104,14.7256937026978,14.7463102340698,14.7669849395752,14.7877178192139,14.8085088729858,14.8293581008911,14.850266456604,14.8712339401245,14.8922605514526,14.9133472442627,14.9344930648804,14.9556999206543,14.9769659042358,14.9982929229736,15.0196809768677,15.041130065918,15.0626401901245,15.0842123031616,15.105845451355,15.1366033554077,15.1682996749878,15.2001304626465,15.2320938110352,15.2641925811768,15.2964267730713,15.3287973403931,0,0,0,0,0,0,0,0,0,0,0,0,0,0,0,0,0,0,0,0,0,0,0,0,0,0,0,0
11.7271595001221,11.7270107269287,11.7268619537354,11.726713180542,11.7265644073486,11.7264156341553,11.7262668609619,11.7261180877686,11.7259693145752,11.7258205413818,11.7256717681885,11.7255229949951,11.7253751754761,11.7252264022827,11.7250776290894,11.724928855896,11.7247800827026,11.7246313095093,11.7244825363159,11.7243337631226,11.7241849899292,11.7240371704102,11.7238883972168,11.7237396240234,11.7235908508301,11.7234420776367,11.7232933044434,11.72314453125,11.7229957580566,11.7228479385376,11.7226991653442,11.7225503921509,11.7224016189575,11.7222528457642,11.7221040725708,11.7219562530518,11.7218074798584,11.721658706665,11.7215099334717,11.7213611602783,11.7212133407593,11.7210645675659,11.7209157943726,11.7207670211792,11.7206182479858,11.7204704284668,11.7203216552734,11.7201728820801,11.7200241088867,11.7198762893677,11.7197275161743,11.719578742981,11.7194299697876,11.7192821502686,11.7191333770752,11.7189846038818,11.7188358306885,11.7186880111694,11.7185392379761,11.7183904647827,11.7182416915894,11.7180938720703,11.717945098877,11.733814239502,11.7922515869141,11.8512754440308,11.9108915328979,11.9711112976074,11.9797277450562,11.9823579788208,11.9849891662598,11.9876222610474,11.990255355835,11.9928903579712,11.9955263137817,11.9981641769409,12.0008020401001,12.0034418106079,12.00608253479,12.0087242126465,12.0113668441772,12.0140113830566,12.0166568756104,12.0193033218384,12.0219507217407,12.0246000289917,12.0272493362427,12.0299005508423,12.0325527191162,12.0352067947388,12.0378608703613,12.0405168533325,12.043173789978,12.0458326339722,12.0484914779663,12.0511522293091,12.0538139343262,12.0564765930176,12.0591411590576,12.0618057250977,12.0644721984863,12.0671396255493,12.0698080062866,12.0724773406982,12.0751485824585,12.0778198242188,12.0804929733276,12.0831680297852,12.0858430862427,12.0885200500488,12.0911979675293,12.0938768386841,12.0965566635132,12.0992383956909,12.101921081543,12.1046047210693,12.10728931427,12.1099758148193,12.112663269043,12.1153516769409,12.1180410385132,12.1207323074341,12.1234245300293,12.1261177062988,12.1288118362427,12.1315078735352,12.134204864502,12.1369028091431,12.1396026611328,12.1423025131226,12.1450042724609,12.1477069854736,12.1537351608276,12.1607322692871,12.1677379608154,12.1747512817383,12.1817722320557,12.1888017654419,12.1958389282227,12.2028846740723,12.2099380493164,12.2170000076294,12.2240705490112,12.2311487197876,12.2382354736328,12.2453298568726,12.2524328231812,12.2595443725586,12.2666635513306,12.2737913131714,12.2809267044067,12.2880716323853,12.2952241897583,12.3023853302002,12.3095541000366,12.3167314529419,12.3239183425903,12.331111907959,12.3383150100708,12.3455266952515,12.3527460098267,12.3599739074707,12.3672103881836,12.3744554519653,12.3817090988159,12.3889713287354,12.3962421417236,12.4035215377808,12.4108085632324,12.4181051254272,12.4254102706909,12.4327230453491,12.4400453567505,12.4473762512207,12.4547157287598,12.4620637893677,12.4694204330444,12.47678565979,12.4841594696045,12.4915428161621,12.4989337921143,12.5063343048096,12.5137434005737,12.5211610794067,12.5285873413086,12.5360231399536,12.5434675216675,12.5509204864502,12.5583829879761,12.5658531188965,12.5733327865601,12.5808219909668,12.5883197784424,12.5958261489868,12.6033411026001,12.6108655929565,12.6183996200562,12.6259422302246,12.6334934234619,12.6410541534424,12.6486234664917,12.6562023162842,12.6637897491455,12.67138671875,12.6789932250977,12.6866083145142,12.6942319869995,12.701865196228,12.7095079421997,12.7171602249146,12.7248210906982,13.0688314437866,13.0767612457275,13.0846996307373,13.0926485061646,13.100606918335,13.1085748672485,13.1165523529053,13.1245403289795,13.1325368881226,13.1405439376831,13.1485605239868,13.156587600708,13.164623260498,13.1726694107056,13.1807250976562,13.1887912750244,13.1968669891357,13.2049522399902,13.2130479812622,13.2211532592773,13.22926902771,13.2373943328857,13.2455291748047,13.2536745071411,13.261830329895,13.2699956893921,13.2781705856323,13.2863569259644,13.2945518493652,13.3027582168579,13.3109741210938,13.3191995620728,13.3274354934692,13.3356828689575,13.3566913604736,13.3864164352417,13.4162731170654,13.4462642669678,13.4763889312744,13.5066499710083,13.5370464324951,13.5675802230835,13.5982522964478,13.6290626525879,13.6600131988525,13.691104888916,13.7223386764526,13.7537145614624,13.7852354049683,13.8169002532959,13.8487100601196,13.8806676864624,13.9127731323242,13.9450273513794,13.9774322509766,14.0099868774414,14.0426940917969,14.075553894043,14.0966501235962,14.1155424118042,14.134485244751,14.1534786224365,14.1725234985352,14.1916198730469,14.2107667922974,14.2299671173096,14.2492179870605,14.2685213088989,14.2878770828247,14.3072853088379,14.3267469406128,14.3462610244751,14.3658285140991,14.3854494094849,14.4051237106323,14.4248523712158,14.444634437561,14.4644718170166,14.4843635559082,14.5043096542358,14.5243110656738,14.5443668365479,14.5644788742065,14.5846471786499,14.6048707962036,14.6251497268677,14.6454858779907,14.6658792495728,14.6863288879395,14.7068357467651,14.7273998260498,14.7480211257935,14.7687005996704,14.7894382476807,14.8102340698242,14.8310890197754,14.8520021438599,14.872974395752,14.8940057754517,14.9150972366333,14.9362487792969,14.9574594497681,14.9787311553955,15.0000629425049,15.0214557647705,15.0429105758667,15.0644254684448,15.0922708511353,15.1237821578979,15.1554250717163,15.187201499939,15.2191104888916,15.2511548995972,0,0,0,0,0,0,0,0,0,0,0,0,0,0,0,0,0,0,0,0,0,0,0,0,0,0,0,0
11.7273998260498,11.7272510528564,11.7271022796631,11.7269535064697,11.7268047332764,11.726655960083,11.7265071868896,11.7263584136963,11.7262096405029,11.7260618209839,11.7259130477905,11.7257642745972,11.7256155014038,11.7254667282104,11.7253179550171,11.7251691818237,11.7250204086304,11.724871635437,11.7247228622437,11.7245740890503,11.7244262695312,11.7242774963379,11.7241287231445,11.7239799499512,11.7238311767578,11.7236824035645,11.7235336303711,11.7233848571777,11.7232370376587,11.7230882644653,11.722939491272,11.7227907180786,11.7226419448853,11.7224931716919,11.7223453521729,11.7221965789795,11.7220478057861,11.7218990325928,11.7217502593994,11.7216014862061,11.721453666687,11.7213048934937,11.7211561203003,11.7210073471069,11.7208585739136,11.7207107543945,11.7205619812012,11.7204132080078,11.7202644348145,11.7201166152954,11.7199678421021,11.7198190689087,11.7196702957153,11.719521522522,11.7193737030029,11.7192249298096,11.7190761566162,11.7189273834229,11.7187795639038,11.7186307907104,11.7184820175171,11.718334197998,11.7181854248047,11.733811378479,11.7922487258911,11.8512716293335,11.910888671875,11.9711084365845,11.9899978637695,11.9926328659058,11.9952688217163,11.9979057312012,12.0005445480347,12.0031833648682,12.0058240890503,12.0084657669067,12.0111083984375,12.0137529373169,12.0163984298706,12.0190448760986,12.021692276001,12.0243406295776,12.0269908905029,12.0296411514282,12.0322942733765,12.0349473953247,12.0376014709473,12.0402574539185,12.042914390564,12.0455722808838,12.0482320785522,12.0508918762207,12.0535535812378,12.0562162399292,12.0588808059692,12.0615453720093,12.0642118453979,12.0668792724609,12.0695476531982,12.0722179412842,12.0748891830444,12.077561378479,12.0802345275879,12.0829086303711,12.0855836868286,12.0882606506348,12.0909385681152,12.09361743927,12.0962972640991,12.0989789962769,12.1016607284546,12.104344367981,12.107029914856,12.109715461731,12.1124029159546,12.1150913238525,12.1177806854248,12.1204719543457,12.1231641769409,12.1258573532104,12.1285514831543,12.1312465667725,12.1339435577393,12.1366415023804,12.1393413543701,12.1420412063599,12.1447429656982,12.1474456787109,12.1501502990723,12.1528549194336,12.1555614471436,12.1582689285278,12.1638984680176,12.1709079742432,12.177924156189,12.1849489212036,12.1919822692871,12.1990232467651,12.206072807312,12.2131299972534,12.2201957702637,12.2272691726685,12.2343511581421,12.2414417266846,12.2485399246216,12.2556467056274,12.2627620697021,12.2698850631714,12.2770166397095,12.2841558456421,12.2913045883179,12.2984609603882,12.305624961853,12.312798500061,12.3199796676636,12.327169418335,12.3343677520752,12.3415746688843,12.3487892150879,12.3560132980347,12.363245010376,12.3704853057861,12.3777341842651,12.384991645813,12.3922576904297,12.3995323181152,12.4068155288696,12.4141063690186,12.4214067459106,12.4287157058716,12.4360332489014,12.443359375,12.4506931304932,12.4580364227295,12.4653882980347,12.472749710083,12.4801187515259,12.4874963760376,12.4948835372925,12.5022783279419,12.5096826553345,12.5170955657959,12.5245180130005,12.5319480895996,12.5393877029419,12.546835899353,12.5542936325073,12.5617589950562,12.5692338943481,12.5767183303833,12.584210395813,12.5917119979858,12.5992231369019,12.6067428588867,12.6142711639404,12.621808052063,12.629355430603,12.6369104385376,12.6444749832153,12.6520490646362,12.659631729126,12.6672239303589,12.6748247146606,12.6824350357056,12.6900539398193,12.6976823806763,12.7053203582764,12.7129669189453,12.7206230163574,12.7282876968384,12.7359628677368,13.0493679046631,13.0572738647461,13.0651893615723,13.0731134414673,13.0810489654541,13.0889930725098,13.0969467163086,13.1049098968506,13.1128835678101,13.1208667755127,13.1288585662842,13.1368618011475,13.1448736190796,13.1528959274292,13.160927772522,13.1689691543579,13.177020072937,13.1850814819336,13.1931524276733,13.2012338638306,13.209324836731,13.2174253463745,13.2255363464355,13.2336568832397,13.2417879104614,13.2499284744263,13.2580795288086,13.2662401199341,13.2744102478027,13.2825918197632,13.2907829284668,13.2989835739136,13.3071947097778,13.3154163360596,13.3254928588867,13.3550786972046,13.3847961425781,13.4146461486816,13.4446296691895,13.4747476577759,13.5050010681152,13.5353899002075,13.5659160614014,13.5965805053711,13.6273832321167,13.6583261489868,13.6894102096558,13.7206363677979,13.7520046234131,13.7835168838501,13.8151741027832,13.8469772338867,13.8789262771606,13.9110240936279,13.9432697296143,13.9756660461426,14.0044870376587,14.0231323242188,14.0418281555176,14.0605735778809,14.0793685913086,14.0982141494751,14.1171102523804,14.1360578536987,14.1550550460815,14.1741046905518,14.1932048797607,14.2123565673828,14.231559753418,14.2508153915405,14.2701234817505,14.2894840240479,14.3088960647583,14.3283615112305,14.3478803634644,14.36745262146,14.387077331543,14.406756401062,14.4264898300171,14.4462766647339,14.4661178588867,14.4860143661499,14.5059652328491,14.5259704589844,14.5460319519043,14.5661487579346,14.5863208770752,14.6065492630005,14.6268329620361,14.6471738815308,14.6675720214844,14.6880254745483,14.7085371017456,14.7291059494019,14.7497329711914,14.7704172134399,14.7911596298218,14.8119602203369,14.8328199386597,14.8537378311157,14.8747148513794,14.895751953125,14.9168481826782,14.9380035400391,14.9592199325562,14.9804964065552,15.0018339157104,15.0232315063477,15.0481977462769,15.0795249938965,15.1109828948975,15.1425724029541,15.1742944717407,15.2061500549316,15.2381391525269,15.2702627182007,0,0,0,0,0,0,0,0,0,0,0,0,0,0,0,0,0,0,0,0,0,0,0,0,0
