12.1079120635986,12.1097097396851,12.1115074157715,12.1133060455322,12.115104675293,12.116904258728,12.1187047958374,12.1205053329468,12.1223058700562,12.1241073608398,12.1259098052979,12.1277132034302,12.1295156478882,12.1313199996948,12.1331243515015,12.1349287033081,12.1367340087891,12.1385402679443,12.1403465270996,12.1421537399292,12.1439619064331,12.145770072937,12.1475782394409,12.1493873596191,12.1511974334717,12.1530075073242,12.1548185348511,12.1566295623779,12.1584415435791,12.1602535247803,12.1620664596558,12.1638803482056,12.1656942367554,12.1675090789795,12.1693239212036,12.1711397171021,12.1729555130005,12.1747722625732,12.1765899658203,12.1784076690674,12.1802263259888,12.1820449829102,12.1838645935059,12.1856842041016,12.1875047683716,12.1893262863159,12.1911478042603,12.1929702758789,12.1947927474976,12.1966161727905,12.1984395980835,12.2002639770508,12.2020893096924,12.203914642334,12.2057409286499,12.2075672149658,12.2093944549561,12.2112216949463,12.2130498886108,12.2148790359497,12.2167081832886,12.2185382843018,12.2203683853149,12.2221994400024,12.2240304946899,12.2258625030518,12.2276954650879,12.229528427124,12.2313623428345,12.2331962585449,12.2350311279297,12.2368669509888,12.2387027740479,12.2405385971069,12.2423763275146,12.244213104248,12.2460517883301,12.2478904724121,12.2497291564941,12.2515687942505,12.2534093856812,12.2552499771118,12.2570915222168,12.2589340209961,12.2607765197754,12.2626190185547,12.2644624710083,12.2663068771362,12.2681512832642,12.2699966430664,12.271842956543,12.2736892700195,12.2755365371704,12.2773838043213,12.2792320251465,12.2810802459717,12.2829294204712,12.284779548645,12.2866296768188,12.2884798049927,12.2903318405151,12.2921838760376,12.2940359115601,12.2958889007568,12.2977428436279,12.299596786499,12.3014516830444,12.3033075332642,12.3051633834839,12.3106708526611,12.3202543258667,12.329852104187,12.3394651412964,12.3490934371948,12.358736038208,12.3683938980103,12.3780679702759,12.3877553939819,12.3974590301514,12.4071779251099,12.4169120788574,12.426661491394,12.4364261627197,12.4462060928345,12.4560012817383,12.4658117294312,12.4756383895874,12.4854803085327,12.4953374862671,12.5052099227905,12.5150985717773,12.5250024795532,12.5349225997925,12.5448579788208,12.5548095703125,12.5647764205933,12.5747594833374,12.5847587585449,12.5947732925415,12.6048040390015,12.6148509979248,12.6249132156372,12.634991645813,12.6450872421265,12.655198097229,12.6653251647949,12.6754684448242,12.6856279373169,12.6958045959473,12.7059965133667,12.7162055969238,12.7264308929443,12.7366724014282,12.7469301223755,12.7572050094604,12.7674961090088,12.7778034210205,12.7881278991699,12.798469543457,12.8088274002075,12.8192024230957,12.8295936584473,12.8400020599365,12.8504266738892,12.8608694076538,12.8713283538818,12.8818044662476,12.892297744751,12.9028081893921,12.9133358001709,12.9238805770874,12.9344425201416,12.9450216293335,12.9556188583374,12.9662322998047,12.976863861084,12.987512588501,12.9981784820557,13.0088624954224,13.0195636749268,13.0285730361938,13.0347623825073,13.0409574508667,13.0471591949463,13.0533657073975,13.0595788955688,13.0657978057861,13.0720224380493,13.0782527923584,13.0844898223877,13.0907325744629,13.1348791122437,13.2223529815674,13.2392225265503,13.2561349868774,13.2730903625488,13.2900886535645,13.3071308135986,13.3242177963257,13.341347694397,13.3585224151611,13.3757410049438,13.3930034637451,13.4103116989136,13.4276638031006,13.4450616836548,13.4625034332275,13.4799919128418,13.4975252151489,13.5151033401489,13.5327291488647,13.5503997802734,13.5681171417236,13.585880279541,13.6036901473999,13.6215476989746,13.6394510269165,13.6574020385742,13.6753997802734,13.6934461593628,13.7115392684937,13.7296810150146,13.7478704452515,13.7661075592041,13.7843933105469,13.8027286529541,13.8211116790771,13.8395442962646,13.8580265045166,13.8765573501587,13.8951377868652,13.9137687683105,13.9324493408203,13.9511804580688,13.9699621200562,13.9887943267822,14.0076770782471,14.0266103744507,14.0455961227417,14.0646324157715,14.0837211608887,14.1028614044189,14.1220531463623,14.1412982940674,14.1605949401855,14.1799449920654,14.1993474960327,14.2188034057617,14.2383127212524,14.2578754425049,14.2774925231934,14.2971630096436,14.3168888092041,14.3366680145264,14.356502532959,14.376392364502,14.396336555481,14.4163360595703,14.4432830810547,14.4724960327148,14.5018272399902,14.5312776565552,14.5608472824097,14.5905380249023,14.6203508377075,14.6502847671509,14.6803417205811,14.7105226516724,14.7408275604248,14.771258354187,14.8018140792847,14.8324966430664,14.8633069992065,14.8942451477051,14.9253129959106,14.9565105438232,14.9878387451172,15.0192985534668,15.0508899688721,15.082615852356,15.1144742965698,15.1464052200317,15.1725769042969,15.1988391876221,15.2251920700073,15.2516374588013,15.2781744003296,15.3048038482666,15.3315258026123,15.3583421707153,15.3852519989014,15.4122562408447,15.4393558502197,15.4665498733521,15.4938411712646,15.5212278366089,15.5487127304077,15.5762939453125,15.5937986373901,15.6059875488281,15.6181955337524,15.6304225921631,15.6426696777344,15.6549348831177,15.6672201156616,15.6795244216919,15.6918478012085,15.7041912078857,15.7165536880493,15.7289352416992,15.7413368225098,15.7537574768066,15.7661981582642,15.778657913208,15.7911386489868,15.803638458252,15.8161573410034,15.8286972045898,15.8412561416626,15.853835105896,15.8664350509644,15.879054069519,15.8916931152344,15.9043531417847,15.9170322418213,15.9652376174927,16.0263957977295,16.0880260467529,16.1501293182373,16.2127170562744,16.2757892608643,16.33935546875,16.4034194946289,16.4679889678955,16.7050342559814,16.7056083679199,16.7061901092529,16.7067718505859
12.1036262512207,12.1054220199585,12.1072187423706,12.1090154647827,12.1108131408691,12.1126117706299,12.1144104003906,12.1162099838257,12.1180095672607,12.1198101043701,12.1216106414795,12.1234121322632,12.1252145767212,12.1270170211792,12.1288204193115,12.1306238174438,12.1324281692505,12.1342325210571,12.1360378265381,12.137843132019,12.1396493911743,12.1414566040039,12.1432638168335,12.1450719833374,12.1468801498413,12.1486892700195,12.1504983901978,12.1523084640503,12.1541194915771,12.155930519104,12.1577425003052,12.1595544815063,12.1613674163818,12.1631803512573,12.1649942398071,12.1668090820312,12.1686239242554,12.1704387664795,12.1722545623779,12.1740713119507,12.1758890151978,12.1777067184448,12.1795244216919,12.1813430786133,12.183162689209,12.1849822998047,12.1868028640747,12.1886234283447,12.1904449462891,12.1922664642334,12.1940889358521,12.195912361145,12.197735786438,12.1995601654053,12.2013845443726,12.2032098770142,12.2050361633301,12.206862449646,12.2086887359619,12.2105169296265,12.2123441696167,12.2141733169556,12.2160024642944,12.2178316116333,12.2196617126465,12.221492767334,12.2233238220215,12.2251558303833,12.2269878387451,12.2288208007812,12.2306547164917,12.2324886322021,12.2343235015869,12.2361583709717,12.2379941940308,12.2398300170898,12.2416667938232,12.243504524231,12.2453422546387,12.2471809387207,12.2490196228027,12.2508592605591,12.2526988983154,12.2545394897461,12.2563810348511,12.2582225799561,12.2600650787354,12.2619075775146,12.2637510299683,12.2655954360962,12.2674398422241,12.2692852020264,12.2711305618286,12.2729768753052,12.2748231887817,12.2766704559326,12.2785186767578,12.280366897583,12.2822160720825,12.284065246582,12.2859153747559,12.2877655029297,12.2896175384521,12.2914686203003,12.2933216094971,12.2951736450195,12.2970275878906,12.2988815307617,12.3007364273071,12.3025913238525,12.3044471740723,12.306303024292,12.308159828186,12.3174715042114,12.3270654678345,12.3366737365723,12.3462982177734,12.355936050415,12.36559009552,12.3752593994141,12.3849430084229,12.3946418762207,12.4043560028076,12.4140863418579,12.4238309860229,12.4335908889771,12.4433660507202,12.4531574249268,12.4629640579224,12.4727849960327,12.4826221466064,12.4924755096436,12.5023441314697,12.512228012085,12.5221271514893,12.5320425033569,12.5419731140137,12.5519199371338,12.5618829727173,12.5718612670898,12.5818557739258,12.5918655395508,12.6018915176392,12.6119337081909,12.6219921112061,12.6320657730103,12.6421556472778,12.6522626876831,12.6623849868774,12.6725234985352,12.6826782226562,12.692850112915,12.7030372619629,12.7132415771484,12.723461151123,12.7336988449097,12.7439517974854,12.7542219161987,12.7645082473755,12.7748107910156,12.7851305007935,12.7954664230347,12.8058195114136,12.8161897659302,12.8265762329102,12.8369798660278,12.8473997116089,12.857837677002,12.8682918548584,12.8787631988525,12.8892517089844,12.8997564315796,12.9102792739868,12.9208192825317,12.93137550354,12.9419498443604,12.9525413513184,12.9631509780884,12.9737768173218,12.9844207763672,12.9950819015503,13.0057601928711,13.0141048431396,13.0202798843384,13.0264616012573,13.0326490402222,13.0388422012329,13.0450410842896,13.0512456893921,13.0574569702148,13.0636739730835,13.069896697998,13.0761251449585,13.0823602676392,13.0886001586914,13.2166118621826,13.2413740158081,13.2582921981812,13.2752532958984,13.29225730896,13.30930519104,13.3263969421387,13.3435335159302,13.3607130050659,13.3779373168945,13.395206451416,13.4125194549561,13.429877281189,13.4472808837891,13.464729309082,13.4822225570679,13.4997615814209,13.5173463821411,13.5349779129028,13.5526542663574,13.5703773498535,13.5881462097168,13.6059627532959,13.6238250732422,13.6417350769043,13.6596918106079,13.6776962280273,13.6957483291626,13.7138481140137,13.7319946289062,13.7501907348633,13.7684345245361,13.7867259979248,13.8050670623779,13.8234567642212,13.8418960571289,13.8603839874268,13.8789215087891,13.8975086212158,13.9161462783813,13.9348335266113,13.9535703659058,13.972357749939,13.9911966323853,14.0100860595703,14.0290260314941,14.0480184555054,14.0670614242554,14.0861568450928,14.1053028106689,14.1245021820068,14.1437530517578,14.1630573272705,14.1824140548706,14.2018232345581,14.2212858200073,14.2408018112183,14.2603721618652,14.2799959182739,14.2996730804443,14.3194055557251,14.3391923904419,14.3590335845947,14.3789300918579,14.4033174514771,14.4323692321777,14.461537361145,14.4908246994019,14.5202302932739,14.5497560501099,14.5794010162354,14.6091680526733,14.6390562057495,14.6690673828125,14.6992015838623,14.7294597625732,14.7598428726196,14.7903518676758,14.8209867477417,14.851749420166,14.8826398849487,14.9136590957642,14.9448080062866,14.9760866165161,15.0074968338013,15.0390396118164,15.0707149505615,15.0993375778198,15.1253471374512,15.1514453887939,15.1776351928711,15.203914642334,15.2302856445312,15.2567481994629,15.2833032608032,15.3099498748779,15.33669090271,15.3635244369507,15.3904523849487,15.4174757003784,15.4445934295654,15.4718065261841,15.4991159439087,15.5265216827393,15.5540246963501,15.5766859054565,15.5888481140137,15.6010303497314,15.6132307052612,15.6254501342773,15.6376886367798,15.6499462127686,15.662223815918,15.6745195388794,15.6868352890015,15.6991710662842,15.7115249633789,15.7238988876343,15.7362928390503,15.7487058639526,15.7611379623413,15.7735900878906,15.7860622406006,15.7985544204712,15.8110656738281,15.8235969543457,15.8361482620239,15.8487195968628,15.861310005188,15.8739213943481,15.8865528106689,15.8992042541504,15.9118747711182,15.9245672225952,15.9372787475586,15.9659690856934,16.0271339416504,16.0887680053711,16.15087890625,16.2134704589844,16.2765502929688,16.3401222229004,16.4041919708252
12.0993423461914,12.1011371612549,12.1029329299927,12.1047286987305,12.1065254211426,12.1083221435547,12.1101198196411,12.1119174957275,12.1137161254883,12.1155157089233,12.1173152923584,12.1191148757935,12.1209163665771,12.1227169036865,12.1245193481445,12.1263217926025,12.1281242370605,12.1299276351929,12.1317319869995,12.1335363388062,12.1353406906128,12.1371469497681,12.138952255249,12.1407594680786,12.1425666809082,12.1443738937378,12.1461820602417,12.1479911804199,12.1498003005981,12.1516103744507,12.1534204483032,12.1552314758301,12.1570434570312,12.1588554382324,12.1606674194336,12.1624803543091,12.1642942428589,12.1661081314087,12.1679229736328,12.1697387695312,12.1715545654297,12.1733703613281,12.1751871109009,12.1770048141479,12.178822517395,12.1806411743164,12.1824598312378,12.1842794418335,12.1861000061035,12.1879205703735,12.1897420883179,12.1915636062622,12.1933860778809,12.1952085494995,12.1970319747925,12.1988563537598,12.2006807327271,12.2025060653687,12.2043313980103,12.2061576843262,12.2079839706421,12.2098112106323,12.2116394042969,12.2134675979614,12.2152967453003,12.2171258926392,12.2189559936523,12.2207860946655,12.222617149353,12.2244491577148,12.2262811660767,12.2281141281128,12.2299470901489,12.2317810058594,12.2336149215698,12.2354497909546,12.2372856140137,12.2391214370728,12.2409582138062,12.2427949905396,12.2446327209473,12.2464714050293,12.2483100891113,12.2501487731934,12.251989364624,12.2538290023804,12.2556705474854,12.2575120925903,12.2593536376953,12.2611961364746,12.2630395889282,12.2648830413818,12.2667274475098,12.268572807312,12.2704181671143,12.2722644805908,12.2741107940674,12.2759580612183,12.2778053283691,12.2796535491943,12.2815017700195,12.2833518981934,12.2852010726929,12.287052154541,12.2889022827148,12.2907543182373,12.2926063537598,12.2944593429565,12.2963123321533,12.2981662750244,12.3000202178955,12.3018751144409,12.3037309646606,12.3055868148804,12.3074426651001,12.3093004226685,12.3146905899048,12.3242797851562,12.3338842391968,12.3435039520264,12.3531379699707,12.3627872467041,12.3724517822266,12.3821315765381,12.3918256759644,12.401535987854,12.4112606048584,12.4210014343262,12.430757522583,12.4405279159546,12.4503145217896,12.4601163864136,12.4699335098267,12.4797668457031,12.4896144866943,12.4994783401489,12.5093584060669,12.5192527770996,12.5291633605957,12.5390901565552,12.5490322113037,12.5589904785156,12.5689640045166,12.578953742981,12.5889587402344,12.5989809036255,12.6090183258057,12.6190710067749,12.6291408538818,12.6392259597778,12.6493282318115,12.6594457626343,12.6695795059204,12.6797304153442,12.6898965835571,12.7000789642334,12.7102785110474,12.7204942703247,12.7307262420654,12.7409744262695,12.7512397766113,12.7615213394165,12.7718191146851,12.7821340560913,12.7924661636353,12.8028135299683,12.8131790161133,12.8235607147217,12.8339595794678,12.8443746566772,12.8548069000244,12.8652563095093,12.8757228851318,12.8862056732178,12.8967065811157,12.9072237014771,12.9177589416504,12.9283103942871,12.9388799667358,12.9494667053223,12.9600706100464,12.9706916809082,12.9813299179077,12.9919862747192,12.9996681213379,13.0058298110962,13.0119972229004,13.0181713104248,13.0243501663208,13.030535697937,13.0367269515991,13.0429239273071,13.049126625061,13.0553359985352,13.0615510940552,13.0677709579468,13.0739974975586,13.0802307128906,13.1619520187378,13.2435274124146,13.2604503631592,13.277416229248,13.2944269180298,13.3114805221558,13.3285779953003,13.3457193374634,13.362904548645,13.3801345825195,13.3974094390869,13.4147281646729,13.4320917129517,13.4495010375977,13.4669551849365,13.4844541549683,13.5019998550415,13.5195903778076,13.5372266769409,13.5549097061157,13.5726385116577,13.5904140472412,13.6082353591919,13.6261043548584,13.6440200805664,13.6619834899902,13.6799936294556,13.6980514526367,13.7161569595337,13.7343101501465,13.7525119781494,13.7707624435425,13.7890605926514,13.8074073791504,13.8258037567139,13.8442487716675,13.8627424240112,13.8812866210938,13.8998804092407,13.9185237884521,13.9372177124023,13.955961227417,13.9747552871704,13.9935998916626,14.0124959945679,14.0314426422119,14.050440788269,14.0694904327393,14.0885925292969,14.1077461242676,14.1269512176514,14.1462097167969,14.1655197143555,14.1848831176758,14.2042999267578,14.2237691879272,14.2432918548584,14.2628688812256,14.2824993133545,14.3021841049194,14.3219232559204,14.3417167663574,14.3635730743408,14.3924646377563,14.4214715957642,14.4505968093872,14.4798383712769,14.5092000961304,14.5386800765991,14.5682811737061,14.5980024337769,14.6278448104858,14.6578102111816,14.6878976821899,14.7181100845337,14.7484464645386,14.7789077758789,14.8094959259033,14.8402099609375,14.8710527420044,14.9020233154297,14.933123588562,14.9643535614014,14.9957141876221,15.0268020629883,15.0525617599487,15.0784101486206,15.1043472290039,15.1303739547729,15.1564893722534,15.1826963424683,15.2089939117432,15.2353820800781,15.2618627548218,15.2884349822998,15.3151006698608,15.3418588638306,15.3687105178833,15.3956575393677,15.4226980209351,15.4498338699341,15.4770660400391,15.5043935775757,15.5318183898926,15.5593395233154,15.5717468261719,15.5839014053345,15.5960750579834,15.6082677841187,15.6204795837402,15.6327104568481,15.6449613571167,15.6572303771973,15.6695184707642,15.6818265914917,15.6941537857056,15.7065000534058,15.7188663482666,15.7312517166138,15.7436571121216,15.7560815811157,15.7685260772705,15.7809896469116,15.7934732437134,15.8059768676758,15.8185005187988,15.8310432434082,15.8436059951782,15.8561887741089,15.8687925338745,15.8814153671265,15.8940582275391,15.9067211151123,15.9194049835205,15.9321088790894,15.9448328018188,15.957576751709,15.9703416824341,16.0278701782227,16.0895118713379
12.0950622558594,12.0968561172485,12.0986499786377,12.1004447937012,12.1022396087646,12.1040353775024,12.1058320999146,12.1076288223267,12.1094255447388,12.1112241744995,12.1130218505859,12.114821434021,12.1166210174561,12.1184206008911,12.1202211380005,12.1220216751099,12.1238241195679,12.1256256103516,12.1274280548096,12.1292314529419,12.1310348510742,12.1328392028809,12.1346445083618,12.1364498138428,12.1382551193237,12.1400623321533,12.1418685913086,12.1436767578125,12.1454839706421,12.1472930908203,12.1491022109985,12.1509113311768,12.1527223587036,12.1545324325562,12.156343460083,12.1581554412842,12.1599683761597,12.1617813110352,12.1635942459106,12.1654081344604,12.1672229766846,12.1690378189087,12.1708536148071,12.1726694107056,12.1744861602783,12.1763029098511,12.1781215667725,12.1799392700195,12.1817579269409,12.1835775375366,12.1853971481323,12.1872177124023,12.1890392303467,12.190860748291,12.1926822662354,12.1945056915283,12.196328163147,12.1981525421143,12.1999769210815,12.2018013000488,12.2036266326904,12.2054529190063,12.2072792053223,12.2091064453125,12.2109336853027,12.2127618789673,12.2145900726318,12.2164192199707,12.2182493209839,12.2200794219971,12.2219104766846,12.2237415313721,12.2255735397339,12.22740650177,12.2292394638062,12.2310733795166,12.2329072952271,12.2347421646118,12.2365770339966,12.2384128570557,12.2402496337891,12.2420864105225,12.2439231872559,12.2457618713379,12.2476005554199,12.249439239502,12.2512788772583,12.253119468689,12.2549600601196,12.2568016052246,12.2586431503296,12.2604856491089,12.2623281478882,12.2641716003418,12.2660160064697,12.2678604125977,12.2697057723999,12.2715511322021,12.2733974456787,12.2752447128296,12.2770919799805,12.2789402008057,12.2807884216309,12.2826375961304,12.2844877243042,12.286337852478,12.2881879806519,12.2900400161743,12.2918910980225,12.2937440872192,12.295597076416,12.2974500656128,12.2993049621582,12.3011589050293,12.303014755249,12.3048706054688,12.3067264556885,12.3085832595825,12.3104410171509,12.3122987747192,12.3214960098267,12.3310956954956,12.3407106399536,12.3503408432007,12.3599853515625,12.3696460723877,12.3793210983276,12.3890113830566,12.3987169265747,12.4084377288818,12.418173789978,12.427924156189,12.4376907348633,12.447473526001,12.4572706222534,12.4670829772949,12.4769115447998,12.4867553710938,12.4966144561768,12.5064897537231,12.5163803100586,12.5262861251831,12.536208152771,12.5461454391479,12.5560989379883,12.5660676956177,12.5760526657104,12.5860538482666,12.5960712432861,12.6061038970947,12.6161527633667,12.6262168884277,12.6362981796265,12.6463947296143,12.6565084457397,12.6666374206543,12.6767826080322,12.6869449615479,12.6971225738525,12.7073173522949,12.7175283432007,12.7277555465698,12.7379989624023,12.7482595443726,12.7585363388062,12.7688293457031,12.7791395187378,12.7894659042358,12.7998094558716,12.8101692199707,12.8205461502075,12.830940246582,12.8413505554199,12.8517780303955,12.8622226715088,12.8726835250854,12.8831624984741,12.8936576843262,12.9041700363159,12.9146995544434,12.9252471923828,12.9358110427856,12.9463930130005,12.9569911956787,12.9676074981689,12.9782409667969,12.9852628707886,12.9914112091064,12.9975652694702,13.0037250518799,13.0098905563354,13.0160627365112,13.0222396850586,13.0284233093262,13.0346126556396,13.040807723999,13.0470085144043,13.0532150268555,13.0594282150269,13.0656471252441,13.0718717575073,13.107741355896,13.2440233230591,13.2626094818115,13.2795810699463,13.2965965270996,13.3136558532715,13.3307590484619,13.3479061126709,13.3650970458984,13.3823328018188,13.3996124267578,13.416937828064,13.4343070983887,13.4517221450806,13.4691820144653,13.486686706543,13.5042381286621,13.5218343734741,13.5394763946533,13.557165145874,13.5748996734619,13.5926809310913,13.6105098724365,13.6283836364746,13.6463060379028,13.6642751693726,13.6822910308838,13.7003545761108,13.718466758728,13.736626625061,13.7548341751099,13.7730903625488,13.7913951873779,13.8097486495972,13.8281507492065,13.8466014862061,13.8651027679443,13.8836526870728,13.9022521972656,13.9209022521973,13.9396018981934,13.9583520889282,13.9771528244019,13.9960041046143,14.0149068832397,14.033860206604,14.0528650283813,14.0719213485718,14.0910291671753,14.1101894378662,14.1294021606445,14.1486663818359,14.1679840087891,14.1873540878296,14.2067766189575,14.2262535095215,14.2457828521729,14.2653665542603,14.2850036621094,14.3046951293945,14.3244409561157,14.3527793884277,14.3816270828247,14.4105911254883,14.4396715164185,14.4688701629639,14.4981870651245,14.5276222229004,14.5571775436401,14.5868530273438,14.6166505813599,14.6465702056885,14.6766119003296,14.7067766189575,14.7370662689209,14.7674808502197,14.7980213165283,14.828688621521,14.8594827651978,14.8904056549072,14.9214572906494,14.9526386260986,14.9804744720459,15.0060749053955,15.0317640304565,15.0575399398804,15.0834054946899,15.1093597412109,15.1354036331177,15.1615371704102,15.1877613067627,15.2140760421753,15.2404823303223,15.2669801712036,15.2935705184937,15.3202543258667,15.3470306396484,15.3739004135132,15.4008646011353,15.427924156189,15.4550790786743,15.482328414917,15.5096750259399,15.5371189117432,15.5546836853027,15.5668115615845,15.5789585113525,15.5911245346069,15.6033096313477,15.6155128479004,15.6277360916138,15.6399784088135,15.6522397994995,15.6645212173462,15.6768207550049,15.6891403198242,15.7014789581299,15.7138366699219,15.7262144088745,15.7386112213135,15.7510280609131,15.7634649276733,15.7759208679199,15.7883958816528,15.8008918762207,15.8134069442749,15.8259420394897,15.8384962081909,15.8510713577271,15.8636665344238,15.8762807846069,15.888916015625,15.9015712738037,15.9142465591431,15.9269418716431,15.9396572113037,15.9523935317993
12.0907850265503,12.0925779342651,12.09437084198,12.0961637496948,12.097957611084,12.0997524261475,12.1015472412109,12.1033430099487,12.1051387786865,12.1069355010986,12.1087322235107,12.1105298995972,12.1123285293579,12.1141271591187,12.1159257888794,12.1177253723145,12.1195259094238,12.1213274002075,12.1231279373169,12.1249303817749,12.1267328262329,12.1285352706909,12.1303396224976,12.1321430206299,12.1339473724365,12.1357526779175,12.1375589370728,12.139365196228,12.1411714553833,12.1429786682129,12.1447868347168,12.1465950012207,12.1484041213989,12.1502132415771,12.1520233154297,12.1538333892822,12.1556444168091,12.1574563980103,12.1592683792114,12.1610813140869,12.1628942489624,12.1647081375122,12.166522026062,12.1683368682861,12.1701526641846,12.171968460083,12.1737852096558,12.1756019592285,12.1774196624756,12.1792373657227,12.181056022644,12.1828756332397,12.1846952438354,12.1865158081055,12.1883363723755,12.1901578903198,12.1919794082642,12.1938018798828,12.1956253051758,12.1974487304688,12.1992721557617,12.2010974884033,12.2029218673706,12.2047481536865,12.2065744400024,12.2084007263184,12.2102279663086,12.2120561599731,12.2138843536377,12.2157135009766,12.2175436019897,12.2193737030029,12.2212038040161,12.2230348587036,12.2248668670654,12.2266988754272,12.2285318374634,12.2303657531738,12.2321996688843,12.2340335845947,12.2358684539795,12.2377042770386,12.2395401000977,12.2413768768311,12.2432146072388,12.2450523376465,12.2468900680542,12.2487297058105,12.2505693435669,12.2524089813232,12.2542495727539,12.2560901641846,12.2579317092896,12.2597742080688,12.2616167068481,12.2634601593018,12.2653045654297,12.2671489715576,12.2689933776855,12.2708396911621,12.2726850509644,12.2745323181152,12.2763795852661,12.278226852417,12.2800750732422,12.2819242477417,12.2837734222412,12.285623550415,12.2874736785889,12.289324760437,12.2911767959595,12.2930288314819,12.2948818206787,12.2967348098755,12.2985887527466,12.300443649292,12.3022985458374,12.3041543960571,12.3060102462769,12.3078670501709,12.3097238540649,12.3115816116333,12.313440322876,12.3187131881714,12.3283081054688,12.3379192352295,12.347544670105,12.3571853637695,12.3668413162231,12.3765115737915,12.3861980438232,12.3958988189697,12.4056148529053,12.4153461456299,12.4250936508179,12.4348554611206,12.4446325302124,12.4544258117676,12.4642343521118,12.4740581512451,12.4838972091675,12.4937515258789,12.5036220550537,12.5135078430176,12.5234098434448,12.5333271026611,12.5432605743408,12.5532093048096,12.5631732940674,12.5731544494629,12.5831499099731,12.5931625366211,12.6031904220581,12.6132345199585,12.6232948303223,12.6333713531494,12.6434631347656,12.6535720825195,12.6636962890625,12.6738367080688,12.6839942932129,12.694167137146,12.7043571472168,12.714563369751,12.7247858047485,12.7350244522095,12.7452802658081,12.7555522918701,12.7658405303955,12.7761459350586,12.7864675521851,12.7968063354492,12.8071613311768,12.817533493042,12.8279218673706,12.8383274078369,12.8487501144409,12.8591899871826,12.8696460723877,12.8801193237305,12.8906106948853,12.9011182785034,12.9116430282593,12.9221849441528,12.9327440261841,12.943320274353,12.9539136886597,12.9645252227783,12.970890045166,12.9770250320435,12.9831647872925,12.9893112182617,12.9954633712769,13.0016212463379,13.0077848434448,13.013955116272,13.0201301574707,13.0263118743896,13.0324983596802,13.0386915206909,13.0448904037476,13.0510959625244,13.0573062896729,13.0635232925415,13.0697460174561,13.189136505127,13.2647686004639,13.2817468643188,13.2987670898438,13.3158321380615,13.3329410552979,13.3500938415527,13.3672904968262,13.3845319747925,13.4018173217773,13.4191474914551,13.4365234375,13.4539432525635,13.4714088439941,13.488920211792,13.506477355957,13.5240793228149,13.5417280197144,13.5594215393066,13.5771627426147,13.59494972229,13.6127834320068,13.6306648254395,13.6485919952393,13.6665668487549,13.6845893859863,13.7026596069336,13.7207775115967,13.7389430999756,13.7571573257446,13.7754192352295,13.7937297821045,13.8120899200439,13.8304977416992,13.8489561080933,13.8674631118774,13.8860197067261,13.9046258926392,13.9232816696167,13.941987991333,13.9607448577881,13.9795522689819,13.9984092712402,14.0173187255859,14.0362787246704,14.055290222168,14.0743532180786,14.0934677124023,14.1126346588135,14.1318531036377,14.1511240005493,14.1704483032227,14.1898250579834,14.2092552185059,14.2287378311157,14.2482748031616,14.2678651809692,14.2875089645386,14.3133134841919,14.342001914978,14.3708066940308,14.3997268676758,14.4287633895874,14.4579172134399,14.487190246582,14.516580581665,14.5460910797119,14.5757217407227,14.6054735183716,14.6353464126587,14.6653423309326,14.6954612731934,14.7257041931152,14.7560720443726,14.7865657806396,14.8171844482422,14.8479318618774,14.8788061141968,14.9090738296509,14.9344310760498,14.9598741531372,14.9854049682617,15.011022567749,15.0367279052734,15.0625219345093,15.0884046554565,15.1143760681152,15.1404371261597,15.1665878295898,15.1928291320801,15.2191619873047,15.2455854415894,15.2721014022827,15.2987098693848,15.3254108428955,15.3522052764893,15.3790941238403,15.4060764312744,15.4331541061401,15.4603271484375,15.4875955581665,15.5149602890015,15.5376567840576,15.5497579574585,15.5618782043457,15.5740175247192,15.5861759185791,15.5983533859253,15.6105499267578,15.6227645874023,15.6349992752075,15.647253036499,15.6595258712769,15.671817779541,15.6841297149658,15.696460723877,15.7088108062744,15.7211799621582,15.7335691452026,15.7459783554077,15.7584066390991,15.7708539962769,15.7833223342896,15.7958097457886,15.8083162307739,15.8208436965942,15.8333902359009,15.8459568023682,15.8585433959961,15.8711500167847,15.8837766647339,15.8964242935181,15.9090909957886
12.0865116119385,12.0883026123047,12.0900936126709,12.0918855667114,12.0936784744263,12.0954713821411,12.0972652435303,12.0990600585938,12.1008548736572,12.1026496887207,12.1044454574585,12.1062421798706,12.1080389022827,12.1098365783691,12.1116342544556,12.1134328842163,12.1152315139771,12.1170310974121,12.1188316345215,12.1206321716309,12.1224327087402,12.1242351531982,12.1260366439819,12.1278400421143,12.1296434402466,12.1314468383789,12.1332511901855,12.1350564956665,12.1368618011475,12.1386680603027,12.140474319458,12.1422815322876,12.1440887451172,12.1458969116211,12.1477060317993,12.1495151519775,12.1513252258301,12.1531352996826,12.1549463272095,12.1567573547363,12.1585693359375,12.1603813171387,12.1621942520142,12.164008140564,12.1658220291138,12.1676368713379,12.169451713562,12.1712675094604,12.1730842590332,12.174901008606,12.1767177581787,12.1785364151001,12.1803541183472,12.1821737289429,12.1839933395386,12.1858129501343,12.1876335144043,12.1894550323486,12.191276550293,12.1930990219116,12.1949214935303,12.1967449188232,12.1985683441162,12.2003927230835,12.2022180557251,12.2040433883667,12.2058696746826,12.2076959609985,12.2095232009888,12.211350440979,12.2131786346436,12.2150077819824,12.2168369293213,12.2186670303345,12.2204971313477,12.2223281860352,12.224160194397,12.2259922027588,12.2278242111206,12.2296581268311,12.2314910888672,12.233325958252,12.2351608276367,12.2369956970215,12.2388315200806,12.240668296814,12.2425050735474,12.2443428039551,12.2461814880371,12.2480201721191,12.2498588562012,12.2516984939575,12.2535390853882,12.2553796768188,12.2572212219238,12.2590637207031,12.2609062194824,12.2627487182617,12.2645931243896,12.2664365768433,12.2682819366455,12.2701272964478,12.27197265625,12.2738189697266,12.2756662368774,12.2775135040283,12.2793617248535,12.281210899353,12.2830600738525,12.2849092483521,12.2867603302002,12.288610458374,12.2904624938965,12.2923145294189,12.2941665649414,12.2960195541382,12.2978734970093,12.2997274398804,12.3015823364258,12.3034381866455,12.3052940368652,12.307149887085,12.3090076446533,12.3108644485474,12.31272315979,12.3145818710327,12.3164415359497,12.3255224227905,12.3351287841797,12.3447494506836,12.3543863296509,12.3640375137329,12.373703956604,12.3833856582642,12.3930816650391,12.4027938842773,12.4125213623047,12.4222631454468,12.4320211410522,12.4417943954468,12.4515829086304,12.461386680603,12.4712057113647,12.4810400009155,12.4908905029297,12.5007562637329,12.5106382369995,12.5205354690552,12.5304479598999,12.540376663208,12.5503206253052,12.5602807998657,12.5702562332153,12.5802478790283,12.5902557373047,12.6002788543701,12.6103181838989,12.6203737258911,12.6304454803467,12.6405334472656,12.6506366729736,12.6607570648193,12.6708927154541,12.6810455322266,12.6912136077881,12.7013988494873,12.7116003036499,12.7218179702759,12.7320518493652,12.7423028945923,12.7525701522827,12.7628536224365,12.7731533050537,12.7834711074829,12.7938041687012,12.8041543960571,12.8145217895508,12.8249053955078,12.8353061676025,12.845724105835,12.8561582565308,12.8666105270386,12.8770790100098,12.8875646591187,12.8980674743652,12.9085865020752,12.9191236495972,12.9296779632568,12.9402494430542,12.9504337310791,12.9565486907959,12.9626703262329,12.9687967300415,12.9749298095703,12.9810676574707,12.9872121810913,12.9933624267578,12.9995183944702,13.0056800842285,13.0118474960327,13.0180215835571,13.0242004394531,13.0303859710693,13.0365762710571,13.0427732467651,13.0489768981934,13.0551853179932,13.0613994598389,13.1347026824951,13.2669286727905,13.2839126586914,13.3009386062622,13.3180093765259,13.3351240158081,13.3522825241089,13.3694849014282,13.3867311477661,13.4040231704712,13.4213590621948,13.4387397766113,13.456166267395,13.4736375808716,13.4911546707153,13.508716583252,13.5263252258301,13.5439786911011,13.5616798400879,13.5794258117676,13.5972194671631,13.6150588989258,13.6329460144043,13.65087890625,13.6688604354858,13.6868886947632,13.7049646377563,13.7230892181396,13.7412605285645,13.7594814300537,13.7777490615845,13.7960662841797,13.814432144165,13.8328466415405,13.8513107299805,13.8698244094849,13.8883867263794,13.9069995880127,13.9256620407104,13.944375038147,13.9631376266479,13.981951713562,14.0008153915405,14.0197305679321,14.0386972427368,14.0577154159546,14.0767850875854,14.0959062576294,14.1150798797607,14.1343050003052,14.1535835266113,14.1729135513306,14.1922969818115,14.2117338180542,14.2312240600586,14.2507677078247,14.2740631103516,14.3025951385498,14.331241607666,14.3600025177002,14.3888788223267,14.4178714752197,14.4469814300537,14.4762096405029,14.5055561065674,14.5350217819214,14.5646076202393,14.594313621521,14.6241407394409,14.6540908813477,14.6841640472412,14.7143602371216,14.7446813583374,14.7751274108887,14.8056993484497,14.8363981246948,14.8634672164917,14.8886699676514,14.9139575958252,14.9393310546875,14.9647912979126,14.9903392791748,15.0159730911255,15.0416965484619,15.0675067901611,15.0934066772461,15.1193952560425,15.1454734802246,15.1716413497925,15.1979007720947,15.224250793457,15.2506923675537,15.2772264480591,15.3038520812988,15.3305711746216,15.3573837280273,15.3842906951904,15.4112911224365,15.4383869171143,15.4655780792236,15.492865562439,15.5202493667603,15.5327425003052,15.5448360443115,15.5569486618042,15.5690803527832,15.5812311172485,15.5934009552002,15.6055889129639,15.6177968978882,15.6300230026245,15.6422691345215,15.6545343399048,15.6668186187744,15.6791219711304,15.691445350647,15.7037878036499,15.7161493301392,15.7285308837891,15.7409315109253,15.7533512115479,15.7657918930054,15.7782506942749,15.7907304763794,15.8032293319702,15.8157482147217,15.8282871246338,15.8408460617065,15.8534240722656,15.8660230636597
12.0822401046753,12.0840301513672,12.0858201980591,12.0876111984253,12.0894021987915,12.091194152832,12.0929870605469,12.0947799682617,12.0965728759766,12.0983667373657,12.1001615524292,12.1019563674927,12.1037521362305,12.1055488586426,12.1073455810547,12.1091423034668,12.1109399795532,12.112738609314,12.1145372390747,12.1163368225098,12.1181364059448,12.1199369430542,12.1217384338379,12.1235399246216,12.1253414154053,12.1271438598633,12.1289472579956,12.1307506561279,12.1325550079346,12.1343593597412,12.1361646652222,12.1379709243774,12.1397771835327,12.1415843963623,12.1433916091919,12.1451988220215,12.1470079421997,12.1488170623779,12.1506261825562,12.1524362564087,12.1542472839355,12.1560583114624,12.1578702926636,12.1596822738647,12.1614952087402,12.1633081436157,12.1651220321655,12.1669368743896,12.1687517166138,12.1705665588379,12.1723833084106,12.1742000579834,12.1760168075562,12.1778345108032,12.1796522140503,12.181471824646,12.1832904815674,12.1851100921631,12.1869306564331,12.1887521743774,12.1905736923218,12.1923952102661,12.1942176818848,12.1960411071777,12.1978645324707,12.199688911438,12.2015132904053,12.2033386230469,12.2051649093628,12.2069911956787,12.2088184356689,12.2106456756592,12.2124738693237,12.2143020629883,12.2161312103271,12.217960357666,12.2197914123535,12.2216215133667,12.2234535217285,12.225284576416,12.2271175384521,12.2289505004883,12.2307834625244,12.2326183319092,12.2344522476196,12.2362880706787,12.2381229400635,12.2399597167969,12.2417964935303,12.243634223938,12.2454719543457,12.2473096847534,12.2491493225098,12.2509889602661,12.2528285980225,12.2546691894531,12.2565107345581,12.2583522796631,12.2601947784424,12.2620372772217,12.2638807296753,12.2657251358032,12.2675695419312,12.2694149017334,12.2712602615356,12.2731065750122,12.2749538421631,12.276801109314,12.2786483764648,12.2804975509644,12.2823457717896,12.2841958999634,12.2860460281372,12.287896156311,12.2897472381592,12.2915992736816,12.2934513092041,12.2953042984009,12.297158241272,12.2990121841431,12.3008670806885,12.3027219772339,12.3045778274536,12.3064336776733,12.3082904815674,12.3101482391357,12.3120059967041,12.3138647079468,12.3157234191895,12.3175830841064,12.3227376937866,12.3323392868042,12.3419561386108,12.3515882492065,12.3612356185913,12.3708972930908,12.3805742263794,12.390266418457,12.3999738693237,12.4096965789795,12.4194345474243,12.4291877746582,12.4389562606812,12.4487409591675,12.4585399627686,12.4683542251587,12.4781847000122,12.4880304336548,12.4978923797607,12.5077686309814,12.5176610946655,12.527569770813,12.5374937057495,12.5474328994751,12.5573883056641,12.5673599243164,12.5773468017578,12.5873498916626,12.5973682403564,12.607403755188,12.6174545288086,12.6275215148926,12.6376037597656,12.6477031707764,12.6578187942505,12.6679496765137,12.6780977249146,12.6882610321045,12.6984415054321,12.7086381912231,12.7188510894775,12.7290802001953,12.7393264770508,12.7495889663696,12.7598676681519,12.7701625823975,12.7804756164551,12.7908039093018,12.8011493682861,12.8115119934082,12.8218908309937,12.8322868347168,12.8426990509033,12.8531293869019,12.8635759353638,12.8740386962891,12.8845195770264,12.8950176239014,12.9055318832397,12.9160642623901,12.9266138076782,12.9361381530762,12.9422397613525,12.9483470916748,12.954460144043,12.9605798721313,12.9667043685913,12.9728355407715,12.9789714813232,12.9851140975952,12.9912624359131,12.9974155426025,13.0035753250122,13.0097417831421,13.0159130096436,13.0220899581909,13.0282735824585,13.0344619750977,13.040657043457,13.0468578338623,13.0530643463135,13.0807161331177,13.2164344787598,13.2860794067383,13.303111076355,13.3201875686646,13.3373069763184,13.354471206665,13.3716793060303,13.3889312744141,13.406229019165,13.4235706329346,13.440957069397,13.4583892822266,13.475866317749,13.4933891296387,13.5109577178955,13.5285711288452,13.5462312698364,13.5639371871948,13.5816898345947,13.5994892120361,13.617335319519,13.6352281570435,13.6531677246094,13.6711549758911,13.6891889572144,13.7072715759277,13.7254009246826,13.743579864502,13.7618055343628,13.7800798416138,13.7984037399292,13.8167753219604,13.8351964950562,13.853666305542,13.8721857070923,13.890754699707,13.9093742370605,13.9280433654785,13.9467620849609,13.9655313491821,13.9843511581421,14.0032224655151,14.022144317627,14.0411176681519,14.0601425170898,14.0792179107666,14.0983457565308,14.1175260543823,14.136757850647,14.1560430526733,14.1753807067871,14.1947708129883,14.2142133712769,14.2350282669067,14.2634038925171,14.2918930053711,14.3204956054688,14.3492136001587,14.3780469894409,14.4069967269897,14.4360628128052,14.4652462005615,14.4945478439331,14.5239686965942,14.5535097122192,14.5831699371338,14.6129522323608,14.6428565979004,14.6728830337524,14.7030334472656,14.7333068847656,14.7637062072754,14.7931747436523,14.8181390762329,14.8431882858276,14.8683214187622,14.8935403823853,14.9188442230225,14.9442348480225,14.9697122573853,14.9952764511108,15.0209274291992,15.046667098999,15.0724954605103,15.0984115600586,15.1244173049927,15.1505136489868,15.1766986846924,15.2029752731323,15.2293434143066,15.2558031082153,15.2823543548584,15.3089981079102,15.3357353210449,15.3625659942627,15.3894901275635,15.4165096282959,15.4436235427856,15.4708337783813,15.4981393814087,15.5157642364502,15.5278310775757,15.5399179458618,15.55202293396,15.5641460418701,15.5762891769409,15.588451385498,15.6006317138672,15.612832069397,15.6250505447388,15.6372890472412,15.6495456695557,15.6618223190308,15.6741180419922,15.6864328384399,15.6987676620483,15.7111215591431,15.7234945297241,15.7358875274658,15.7482995986938,15.7607316970825,15.7731838226318,15.7856550216675,15.7981462478638,15.8106565475464,15.823187828064
12.0779724121094,12.0797605514526,12.0815496444702,12.0833387374878,12.085129737854,12.0869197845459,12.0887107849121,12.0905027389526,12.0922946929932,12.094087600708,12.0958814620972,12.097674369812,12.0994691848755,12.101263999939,12.1030597686768,12.1048555374146,12.1066522598267,12.1084489822388,12.1102466583252,12.1120443344116,12.1138429641724,12.1156425476074,12.1174421310425,12.1192417144775,12.1210432052612,12.1228446960449,12.1246461868286,12.1264486312866,12.1282510757446,12.130054473877,12.1318588256836,12.1336631774902,12.1354684829712,12.1372737884521,12.1390800476074,12.1408863067627,12.1426935195923,12.1445016860962,12.1463098526001,12.1481189727783,12.1499280929565,12.1517381668091,12.1535482406616,12.1553592681885,12.1571702957153,12.1589822769165,12.160795211792,12.1626081466675,12.1644220352173,12.1662359237671,12.1680507659912,12.1698665618896,12.1716823577881,12.1734981536865,12.1753158569336,12.1771326065063,12.1789512634277,12.1807699203491,12.1825885772705,12.1844081878662,12.1862287521362,12.1880493164062,12.1898698806763,12.1916923522949,12.1935148239136,12.1953372955322,12.1971607208252,12.1989850997925,12.2008094787598,12.2026348114014,12.204460144043,12.2062864303589,12.2081127166748,12.209939956665,12.2117681503296,12.2135963439941,12.215425491333,12.2172546386719,12.2190847396851,12.2209148406982,12.2227458953857,12.2245779037476,12.2264099121094,12.2282428741455,12.2300758361816,12.2319097518921,12.2337446212769,12.2355794906616,12.2374153137207,12.2392511367798,12.2410879135132,12.2429246902466,12.2447624206543,12.246600151062,12.2484397888184,12.2502784729004,12.2521190643311,12.2539587020874,12.2558002471924,12.2576417922974,12.2594833374023,12.261326789856,12.2631692886353,12.2650136947632,12.2668581008911,12.268702507019,12.2705478668213,12.2723941802979,12.2742404937744,12.2760877609253,12.2779350280762,12.2797832489014,12.2816324234009,12.2834815979004,12.2853317260742,12.287181854248,12.2890329360962,12.2908849716187,12.2927370071411,12.2945899963379,12.2964429855347,12.2982969284058,12.3001508712769,12.3020057678223,12.303861618042,12.3057174682617,12.3075742721558,12.3094310760498,12.3112888336182,12.3131475448608,12.3150062561035,12.3168649673462,12.3187255859375,12.3205862045288,12.3295516967773,12.3391637802124,12.3487920761108,12.358434677124,12.368091583252,12.3777647018433,12.3874521255493,12.3971557617188,12.4068737030029,12.4166078567505,12.4263563156128,12.4361200332642,12.4458999633789,12.4556951522827,12.4655046463013,12.4753303527832,12.4851722717285,12.4950284957886,12.504900932312,12.5147895812988,12.5246925354004,12.5346117019653,12.5445470809937,12.554497718811,12.5644645690918,12.5744466781616,12.5844449996948,12.5944595336914,12.6044902801514,12.6145362854004,12.6245985031128,12.6346769332886,12.6447706222534,12.654881477356,12.6650085449219,12.6751508712769,12.6853103637695,12.6954860687256,12.705677986145,12.7158861160278,12.726110458374,12.7363510131836,12.7466087341309,12.7568826675415,12.7671737670898,12.7774810791016,12.7878046035767,12.7981452941895,12.8085031509399,12.8188772201538,12.8292684555054,12.8396759033203,12.8501005172729,12.8605422973633,12.8710012435913,12.8814764022827,12.8919696807861,12.9024791717529,12.9130067825317,12.9218730926514,12.9279623031616,12.9340562820435,12.9401559829712,12.9462614059448,12.9523725509644,12.9584894180298,12.9646129608154,12.9707412719727,12.9768762588501,12.9830160140991,12.9891624450684,12.9953145980835,13.0014724731445,13.0076360702515,13.0138053894043,13.019980430603,13.0261611938477,13.0323486328125,13.0385417938232,13.0447406768799,13.0509452819824,13.1617755889893,13.2882461547852,13.3052845001221,13.3223657608032,13.3394908905029,13.3566608428955,13.3738737106323,13.3911323547363,13.4084358215332,13.4257831573486,13.4431753158569,13.4606132507324,13.4780960083008,13.4956245422363,13.5131988525391,13.530818939209,13.5484848022461,13.5661964416504,13.5839548110962,13.6017599105835,13.6196117401123,13.6375102996826,13.6554565429688,13.6734495162964,13.6914901733398,13.7095785140991,13.7277145385742,13.7458982467651,13.7641305923462,13.7824115753174,13.8007411956787,13.8191194534302,13.8375463485718,13.8560228347778,13.8745489120483,13.8931245803833,13.9117498397827,13.9304246902466,13.9491500854492,13.9679260253906,13.9867525100708,14.0056304931641,14.0245580673218,14.0435380935669,14.0625686645508,14.0816516876221,14.1007862091064,14.1199731826782,14.1392116546631,14.1585035324097,14.1778478622437,14.197244644165,14.2244272232056,14.2527599334717,14.2812070846558,14.3097667694092,14.3384418487549,14.3672313690186,14.3961372375488,14.4251594543457,14.4542989730835,14.4835567474365,14.5129327774048,14.5424289703369,14.5720443725586,14.6017808914185,14.6316394805908,14.6616201400757,14.6917238235474,14.7219514846802,14.7482738494873,14.7730865478516,14.7979831695557,14.8229637145996,14.8480291366577,14.8731784820557,14.8984136581421,14.923734664917,14.9491415023804,14.9746360778809,15.0002164840698,15.0258846282959,15.0516414642334,15.0774869918823,15.1034202575684,15.1294431686401,15.155556678772,15.1817598342896,15.2080535888672,15.2344388961792,15.2609167098999,15.287486076355,15.3141479492188,15.3409023284912,15.367751121521,15.3946943283081,15.4217319488525,15.4488639831543,15.476092338562,15.4988222122192,15.5108633041382,15.5229234695435,15.5350017547607,15.5470991134644,15.5592155456543,15.5713510513306,15.5835046768188,15.5956773757935,15.6078701019287,15.620080947876,15.6323108673096,15.6445608139038,15.6568288803101,15.669116973877,15.6814241409302,15.693751335144,15.7060966491699,15.7184619903564,15.7308473587036,15.7432518005371,15.7556753158569,15.7681188583374,15.7715253829956
12.0737066268921,12.075493812561,12.0772819519043,12.0790700912476,12.0808591842651,12.0826482772827,12.0844383239746,12.0862283706665,12.0880193710327,12.0898113250732,12.0916032791138,12.0933961868286,12.0951890945435,12.0969829559326,12.0987768173218,12.1005716323853,12.1023664474487,12.1041622161865,12.1059589385986,12.1077556610107,12.1095523834229,12.1113510131836,12.11314868927,12.1149482727051,12.1167478561401,12.1185474395752,12.1203479766846,12.1221494674683,12.123950958252,12.1257524490356,12.127555847168,12.129358291626,12.1311626434326,12.1329669952393,12.1347713470459,12.1365766525269,12.1383829116821,12.1401891708374,12.141996383667,12.1438035964966,12.1456117630005,12.1474208831787,12.1492300033569,12.1510391235352,12.1528491973877,12.1546602249146,12.1564712524414,12.1582832336426,12.1600961685181,12.1619091033936,12.163722038269,12.1655359268188,12.167350769043,12.1691656112671,12.1709814071655,12.172797203064,12.1746139526367,12.1764316558838,12.1782493591309,12.1800680160522,12.1818866729736,12.1837062835693,12.185525894165,12.1873464584351,12.1891670227051,12.1909894943237,12.1928110122681,12.1946334838867,12.1964569091797,12.198281288147,12.2001047134399,12.2019300460815,12.2037553787231,12.2055816650391,12.207407951355,12.2092351913452,12.2110624313354,12.212890625,12.2147197723389,12.2165489196777,12.2183780670166,12.2202091217041,12.2220392227173,12.2238712310791,12.2257032394409,12.2275352478027,12.2293682098389,12.2312021255493,12.2330360412598,12.2348709106445,12.2367067337036,12.2385425567627,12.2403783798218,12.2422151565552,12.2440528869629,12.2458915710449,12.2477293014526,12.249568939209,12.2514085769653,12.253249168396,12.2550897598267,12.2569313049316,12.2587728500366,12.2606153488159,12.2624588012695,12.2643022537231,12.2661457061768,12.267991065979,12.2698354721069,12.2716817855835,12.2735280990601,12.2753753662109,12.2772226333618,12.279070854187,12.2809190750122,12.2827682495117,12.2846174240112,12.2864675521851,12.2883186340332,12.2901697158813,12.2920217514038,12.2938747406006,12.2957277297974,12.2975807189941,12.2994356155396,12.3012895584106,12.3031454086304,12.3050012588501,12.3068571090698,12.3087148666382,12.3105716705322,12.3124303817749,12.3142881393433,12.3161478042603,12.3180074691772,12.3198680877686,12.3217287063599,12.3267650604248,12.3363733291626,12.3459968566895,12.3556346893311,12.3652877807617,12.3749561309814,12.3846397399902,12.3943386077881,12.404052734375,12.4137811660767,12.4235258102417,12.4332857131958,12.443060874939,12.4528503417969,12.4626569747925,12.4724779129028,12.4823150634766,12.492166519165,12.5020351409912,12.5119180679321,12.5218172073364,12.5317325592041,12.5416622161865,12.5516090393066,12.5615711212158,12.5715484619141,12.5815420150757,12.5915517807007,12.6015777587891,12.6116189956665,12.6216764450073,12.6317501068115,12.6418399810791,12.6519460678101,12.6620683670044,12.6722059249878,12.6823606491089,12.6925315856934,12.7027187347412,12.7129220962524,12.7231416702271,12.7333784103394,12.7436304092407,12.7538995742798,12.7641859054565,12.7744884490967,12.7848072052002,12.7951431274414,12.805495262146,12.8158655166626,12.8262510299683,12.8366537094116,12.8470735549927,12.8575105667114,12.8679647445679,12.8784351348877,12.8889226913452,12.8994274139404,12.9076404571533,12.9137153625488,12.9197959899902,12.9258823394775,12.9319744110107,12.9380722045898,12.9441757202148,12.9502859115601,12.9564008712769,12.9625215530396,12.9686479568481,12.974781036377,12.9809188842773,12.9870634078979,12.9932136535645,12.9993686676025,13.0055303573608,13.011697769165,13.0178709030151,13.0240507125854,13.0302352905273,13.0364265441895,13.0426235198975,13.1075668334961,13.2438449859619,13.3074579238892,13.3245449066162,13.3416757583618,13.358850479126,13.3760709762573,13.3933343887329,13.4106426239014,13.427996635437,13.4453945159912,13.4628381729126,13.4803266525269,13.4978609085083,13.5154409408569,13.5330667495728,13.5507383346558,13.5684566497803,13.586220741272,13.6040315628052,13.6218891143799,13.6397943496704,13.6577453613281,13.675745010376,13.6937913894653,13.7118854522705,13.7300281524658,13.748218536377,13.7664566040039,13.784743309021,13.8030796051025,13.8214645385742,13.8398971557617,13.858380317688,13.8769121170044,13.8954944610596,13.9141254425049,13.9328079223633,13.9515390396118,13.9703216552734,13.9891548156738,14.008038520813,14.0269737243652,14.0459594726562,14.0649967193604,14.0840864181519,14.1032276153564,14.1224212646484,14.1416664123535,14.1609649658203,14.1856622695923,14.2138414382935,14.2421321868896,14.2705364227295,14.299054145813,14.3276863098145,14.3564329147339,14.3852949142456,14.4142732620239,14.4433689117432,14.4725818634033,14.501914024353,14.531364440918,14.5609350204468,14.5906267166138,14.6204385757446,14.6503734588623,14.6790647506714,14.7036447525024,14.728307723999,14.7530536651611,14.7778825759888,14.8027944564819,14.8277912139893,14.8528728485107,14.8780393600464,14.9032907485962,14.9286279678345,14.9540519714355,14.9795627593994,15.0051603317261,15.0308456420898,15.056619644165,15.0824813842773,15.1084327697754,15.1344728469849,15.1606035232544,15.1868238449097,15.2131357192993,15.2395391464233,15.2660331726074,15.2926206588745,15.3193006515503,15.3460731506348,15.3729400634766,15.3999013900757,15.4269571304321,15.4541082382202,15.4813547134399,15.493932723999,15.5059661865234,15.5180187225342,15.5300893783569,15.542179107666,15.5542879104614,15.5664148330688,15.5785617828369,15.590726852417,15.6029109954834,15.6151142120361,15.6273365020752,15.6395788192749,15.6428422927856,15.6433486938477,15.6438579559326,15.6443681716919,15.6448755264282,15.6453819274902,15.6458911895752,15.6464014053345
12.0694446563721,12.0712308883667,12.0730171203613,12.0748043060303,12.0765924453735,12.0783805847168,12.0801687240601,12.0819578170776,12.0837478637695,12.0855379104614,12.0873289108276,12.0891199111938,12.0909118652344,12.0927038192749,12.0944967269897,12.0962905883789,12.0980844497681,12.0998783111572,12.101674079895,12.1034688949585,12.1052656173706,12.1070623397827,12.1088590621948,12.1106567382812,12.112455368042,12.1142539978027,12.1160526275635,12.1178531646729,12.1196527481079,12.1214542388916,12.1232557296753,12.125057220459,12.126859664917,12.1286630630493,12.1304664611816,12.1322708129883,12.1340751647949,12.1358804702759,12.1376857757568,12.1394920349121,12.1412992477417,12.1431064605713,12.1449136734009,12.1467227935791,12.148530960083,12.1503410339355,12.1521511077881,12.1539611816406,12.1557722091675,12.1575841903687,12.1593961715698,12.1612091064453,12.1630220413208,12.1648359298706,12.1666507720947,12.1684656143188,12.170280456543,12.1720962524414,12.1739130020142,12.1757297515869,12.177547454834,12.1793661117554,12.1811847686768,12.1830034255981,12.1848230361938,12.1866436004639,12.1884641647339,12.1902856826782,12.1921081542969,12.1939306259155,12.1957530975342,12.1975765228271,12.1994009017944,12.2012252807617,12.2030506134033,12.2048768997192,12.2067031860352,12.2085294723511,12.2103576660156,12.2121849060059,12.2140140533447,12.2158422470093,12.2176723480225,12.2195024490356,12.2213325500488,12.2231645584106,12.2249956130981,12.2268285751343,12.2286615371704,12.2304944992065,12.232328414917,12.2341632843018,12.2359981536865,12.2378339767456,12.2396697998047,12.2415065765381,12.2433443069458,12.2451820373535,12.2470197677612,12.2488594055176,12.2506980895996,12.2525386810303,12.2543792724609,12.2562198638916,12.2580623626709,12.2599039077759,12.2617473602295,12.2635908126831,12.2654342651367,12.2672786712646,12.2691240310669,12.2709693908691,12.2728157043457,12.2746620178223,12.2765092849731,12.2783575057983,12.2802057266235,12.282054901123,12.2839040756226,12.2857542037964,12.2876043319702,12.2894554138184,12.2913074493408,12.2931594848633,12.2950124740601,12.2968654632568,12.2987194061279,12.3005743026733,12.3024291992188,12.3042850494385,12.3061408996582,12.3079977035522,12.3098554611206,12.311713218689,12.3135709762573,12.3154306411743,12.317289352417,12.3191499710083,12.3210105895996,12.3228721618652,12.3247337341309,12.3335838317871,12.3432025909424,12.3528366088867,12.3624849319458,12.3721494674683,12.3818283081055,12.3915224075317,12.4012317657471,12.4109563827515,12.4206962585449,12.4304513931274,12.440221786499,12.450008392334,12.4598093032837,12.4696264266968,12.4794588088989,12.4893064498901,12.4991693496704,12.5090484619141,12.5189428329468,12.5288534164429,12.538779258728,12.5487213134766,12.5586786270142,12.5686521530151,12.5786409378052,12.5886459350586,12.5986671447754,12.6087036132812,12.6187562942505,12.6288251876831,12.6389102935791,12.6490116119385,12.6591291427612,12.6692628860474,12.6794118881226,12.6895780563354,12.6997604370117,12.7099590301514,12.7201747894287,12.7304058074951,12.7406539916992,12.7509183883667,12.7611989974976,12.7714967727661,12.7818117141724,12.7921419143677,12.802490234375,12.8128547668457,12.8232355117798,12.8336334228516,12.844048500061,12.8544807434082,12.8649291992188,12.875394821167,12.8858776092529,12.8934392929077,12.8995008468628,12.9055681228638,12.9116411209106,12.9177198410034,12.9238042831421,12.9298944473267,12.9359903335571,12.9420919418335,12.9481992721558,12.9543123245239,12.960431098938,12.9665555953979,12.9726867675781,12.9788227081299,12.9849653244019,12.9911127090454,12.9972667694092,13.0034265518188,13.0095920562744,13.0157632827759,13.0219402313232,13.0281229019165,13.03431224823,13.0538024902344,13.1889591217041,13.3096323013306,13.3267250061035,13.343861579895,13.3610420227051,13.378267288208,13.3955364227295,13.4128513336182,13.4302101135254,13.4476137161255,13.4650630950928,13.4825582504272,13.5000982284546,13.5176839828491,13.5353145599365,13.5529928207397,13.5707168579102,13.5884866714478,13.6063041687012,13.6241674423218,13.6420783996582,13.6600360870361,13.6780414581299,13.6960935592651,13.7141942977905,13.7323427200317,13.7505388259888,13.7687835693359,13.7870769500732,13.8054189682007,13.8238096237183,13.842248916626,13.8607378005981,13.8792772293091,13.8978652954102,13.9165029525757,13.93519115448,13.9539289474487,13.9727182388306,13.9915571212769,14.0104475021362,14.0293893814087,14.0483818054199,14.0674257278442,14.086522102356,14.1056699752808,14.124870300293,14.1471080780029,14.1751337051392,14.2032718658447,14.231520652771,14.2598819732666,14.2883567810059,14.3169460296631,14.3456497192383,14.3744688034058,14.4034032821655,14.4324550628662,14.4616241455078,14.4909114837646,14.5203170776367,14.5498428344727,14.5794887542725,14.6092557907104,14.6348524093628,14.6592855453491,14.683798789978,14.7083950042725,14.7330741882324,14.7578353881836,14.7826805114746,14.8076095581055,14.8326225280762,14.8577194213867,14.8829021453857,14.9081707000732,14.9335250854492,14.9589653015137,14.9844923019409,15.0101070404053,15.0358095169067,15.0616006851196,15.0874795913696,15.1134481430054,15.1395053863525,15.1656532287598,15.1918916702271,15.2182207107544,15.2446413040161,15.2711544036865,15.2977590560913,15.3244571685791,15.3512477874756,15.3781328201294,15.4051122665405,15.432186126709,15.4593563079834,15.4770393371582,15.4890460968018,15.5010719299316,15.5131168365479,15.5162401199341,15.5167427062988,15.517240524292,15.5177392959595,15.5182390213013,15.5187397003174,15.5192403793335,15.519739151001,15.5202407836914,15.5207414627075,15.521240234375,15.5217447280884,15.5222425460815,15.522741317749,15.5232439041138
12.065185546875,12.0669708251953,12.0687561035156,12.0705413818359,12.0723276138306,12.0741147994995,12.0759019851685,12.0776901245117,12.079478263855,12.0812673568726,12.0830564498901,12.084846496582,12.0866374969482,12.0884284973145,12.090220451355,12.0920124053955,12.0938053131104,12.0955982208252,12.0973920822144,12.0991859436035,12.100980758667,12.1027765274048,12.1045722961426,12.1063680648804,12.1081657409668,12.1099624633789,12.1117610931396,12.1135597229004,12.1153583526611,12.1171579360962,12.1189584732056,12.1207590103149,12.1225605010986,12.1243619918823,12.1261644363403,12.1279668807983,12.1297702789307,12.1315746307373,12.1333789825439,12.1351833343506,12.1369886398315,12.1387948989868,12.1406011581421,12.1424083709717,12.1442165374756,12.1460247039795,12.1478328704834,12.1496429443359,12.1514520645142,12.153263092041,12.1550731658936,12.1568851470947,12.1586971282959,12.1605091094971,12.1623220443726,12.1641359329224,12.1659498214722,12.1677646636963,12.1695804595947,12.1713962554932,12.1732120513916,12.1750288009644,12.1768465042114,12.1786642074585,12.1804828643799,12.1823015213013,12.184121131897,12.185941696167,12.187762260437,12.189582824707,12.1914043426514,12.19322681427,12.195050239563,12.196873664856,12.1986970901489,12.2005214691162,12.2023468017578,12.2041721343994,12.2059984207153,12.2078247070312,12.2096519470215,12.211480140686,12.2133083343506,12.2151365280151,12.216965675354,12.2187957763672,12.2206268310547,12.2224578857422,12.2242889404297,12.2261209487915,12.2279539108276,12.2297868728638,12.2316207885742,12.2334547042847,12.2352895736694,12.2371253967285,12.2389612197876,12.240797996521,12.2426347732544,12.2444725036621,12.2463102340698,12.2481489181519,12.2499885559082,12.2518281936646,12.2536687850952,12.2555093765259,12.2573509216309,12.2591934204102,12.2610359191895,12.2628793716431,12.2647228240967,12.2665672302246,12.2684116363525,12.2702569961548,12.2721033096313,12.2739496231079,12.2757968902588,12.2776441574097,12.2794923782349,12.2813405990601,12.2831897735596,12.2850399017334,12.2868900299072,12.2887411117554,12.2905931472778,12.2924451828003,12.2942972183228,12.2961502075195,12.2980041503906,12.2998580932617,12.3017129898071,12.3035688400269,12.3054246902466,12.3072814941406,12.3091382980347,12.310996055603,12.3128538131714,12.3147125244141,12.3165721893311,12.318431854248,12.3202924728394,12.3221530914307,12.3240146636963,12.3258771896362,12.3307952880859,12.3404092788696,12.3500394821167,12.3596839904785,12.3693428039551,12.379017829895,12.388708114624,12.3984127044678,12.4081335067749,12.4178686141968,12.4276189804077,12.437385559082,12.4471664428711,12.4569635391235,12.466775894165,12.4766035079956,12.4864473342896,12.4963054656982,12.5061807632446,12.5160703659058,12.5259761810303,12.5358972549438,12.5458345413208,12.5557870864868,12.5657558441162,12.575740814209,12.5857410430908,12.595757484436,12.6057891845703,12.6158380508423,12.6259021759033,12.6359825134277,12.6460790634155,12.6561918258667,12.6663198471069,12.6764650344849,12.6866264343262,12.6968040466309,12.7069978713989,12.7172088623047,12.7274351119995,12.737678527832,12.7479381561279,12.7582139968872,12.7685070037842,12.7788162231445,12.7891426086426,12.799485206604,12.8098449707031,12.8202209472656,12.8306140899658,12.8410243988037,12.8514518737793,12.8618955612183,12.8723564147949,12.8792686462402,12.8853168487549,12.8913707733154,12.8974304199219,12.9034957885742,12.9095668792725,12.9156436920166,12.9217262268066,12.9278144836426,12.9339084625244,12.9400081634521,12.9461135864258,12.9522247314453,12.9583415985107,12.9644641876221,12.9705924987793,12.9767274856567,12.9828672409058,12.989013671875,12.9951648712158,13.0013227462769,13.0074863433838,13.0136556625366,13.0198307037354,13.02601146698,13.0321989059448,13.1345272064209,13.271369934082,13.3289051055908,13.3460474014282,13.3632335662842,13.380464553833,13.3977403640747,13.415060043335,13.4324245452881,13.4498338699341,13.4672889709473,13.4847898483276,13.5023355484009,13.5199270248413,13.5375642776489,13.555248260498,13.5729780197144,13.5907545089722,13.6085767745972,13.626446723938,13.6443634033203,13.6623277664185,13.6803379058838,13.6983966827393,13.7165040969849,13.734658241272,13.7528600692749,13.7711114883423,13.7894105911255,13.8077583312988,13.8261556625366,13.8446016311646,13.8630971908569,13.8816423416138,13.9002361297607,13.9188804626465,13.937575340271,13.95631980896,13.975115776062,13.9939613342285,14.0128583908081,14.0318059921265,14.0508050918579,14.0698556900024,14.0889587402344,14.1087636947632,14.1366376876831,14.1646223068237,14.1927175521851,14.2209243774414,14.2492437362671,14.2776765823364,14.3062219619751,14.3348827362061,14.3636589050293,14.3925495147705,14.4215574264526,14.4506826400757,14.479926109314,14.5092868804932,14.5387678146362,14.5667018890381,14.5909061431885,14.6151924133301,14.6395587921143,14.6640071868896,14.6885366439819,14.7131481170654,14.7378435134888,14.7626209259033,14.7874813079834,14.8124265670776,14.8374557495117,14.86256980896,14.8877687454224,14.9130535125732,14.9384250640869,14.9638814926147,14.989426612854,15.0150575637817,15.0407772064209,15.0665845870972,15.0924806594849,15.1184663772583,15.1445417404175,15.1707067489624,15.1969623565674,15.2233095169067,15.2497472763062,15.2762775421143,15.3029012680054,15.3296165466309,15.3564252853394,15.3833293914795,15.3931503295898,15.3936414718628,15.3941335678101,15.3946256637573,15.3951196670532,15.3956098556519,15.3961019515991,15.396595954895,15.3970861434937,15.3975763320923,15.3980703353882,15.3985624313354,15.3990535736084,15.3995485305786,15.4000406265259,15.4005327224731,15.401026725769,15.4015188217163,15.4020109176636
12.0609302520752,12.0627136230469,12.0644969940186,12.0662822723389,12.0680665969849,12.0698528289795,12.0716381072998,12.0734252929688,12.0752124786377,12.0769996643066,12.0787878036499,12.0805768966675,12.0823659896851,12.084156036377,12.0859460830688,12.0877370834351,12.0895290374756,12.0913209915161,12.0931129455566,12.0949058532715,12.0966997146606,12.0984935760498,12.1002883911133,12.1020832061768,12.1038789749146,12.1056756973267,12.1074724197388,12.1092691421509,12.1110668182373,12.112865447998,12.1146640777588,12.1164636611938,12.1182632446289,12.1200637817383,12.121865272522,12.1236667633057,12.1254682540894,12.1272706985474,12.1290740966797,12.1308784484863,12.1326818466187,12.1344871520996,12.1362924575806,12.1380977630615,12.1399040222168,12.1417112350464,12.143518447876,12.1453266143799,12.1471347808838,12.148943901062,12.1507539749146,12.1525640487671,12.1543750762939,12.1561861038208,12.157998085022,12.1598100662231,12.1616230010986,12.1634359359741,12.1652498245239,12.167064666748,12.1688795089722,12.1706953048706,12.172511100769,12.1743278503418,12.1761445999146,12.1779623031616,12.179780960083,12.1815996170044,12.1834192276001,12.1852388381958,12.1870594024658,12.1888799667358,12.1907014846802,12.1925239562988,12.1943464279175,12.1961698532104,12.1979932785034,12.1998176574707,12.201642036438,12.2034673690796,12.2052936553955,12.2071199417114,12.2089471817017,12.2107744216919,12.2126026153564,12.214430809021,12.2162599563599,12.218090057373,12.2199201583862,12.2217512130737,12.2235822677612,12.225414276123,12.2272462844849,12.229079246521,12.2309131622314,12.2327470779419,12.2345819473267,12.2364168167114,12.2382526397705,12.2400894165039,12.2419261932373,12.2437629699707,12.2456016540527,12.2474393844604,12.2492790222168,12.2511186599731,12.2529582977295,12.2547988891602,12.2566404342651,12.2584819793701,12.2603244781494,12.262167930603,12.2640113830566,12.2658548355103,12.2677001953125,12.2695446014404,12.271390914917,12.2732372283936,12.2750835418701,12.276930809021,12.2787790298462,12.2806272506714,12.2824764251709,12.2843255996704,12.2861757278442,12.2880268096924,12.2898778915405,12.291729927063,12.2935819625854,12.2954349517822,12.2972888946533,12.2991428375244,12.3009977340698,12.3028526306152,12.304708480835,12.3065643310547,12.3084211349487,12.3102788925171,12.3121366500854,12.3139953613281,12.3158550262451,12.3177137374878,12.3195743560791,12.3214349746704,12.323296546936,12.3251581192017,12.3270206451416,12.3288841247559,12.3376178741455,12.347243309021,12.3568830490112,12.3665390014648,12.3762092590332,12.3858947753906,12.3955945968628,12.4053106307983,12.4150419235229,12.4247884750366,12.4345502853394,12.4443273544312,12.454119682312,12.4639272689819,12.4737501144409,12.4835891723633,12.4934434890747,12.5033130645752,12.5131988525391,12.523099899292,12.5330171585083,12.5429496765137,12.5528974533081,12.5628614425659,12.5728416442871,12.5828371047974,12.592848777771,12.602876663208,12.6129198074341,12.6229801177979,12.6330556869507,12.6431474685669,12.6532554626465,12.6633796691895,12.6735200881958,12.6836767196655,12.6938495635986,12.7040386199951,12.714243888855,12.7244663238525,12.7347040176392,12.7449588775635,12.7552309036255,12.7655181884766,12.7758235931396,12.7861442565918,12.7964820861816,12.8068370819092,12.8172082901001,12.8275966644287,12.838002204895,12.8484239578247,12.8588628768921,12.8651294708252,12.8711643218994,12.8772048950195,12.8832511901855,12.8893032073975,12.8953609466553,12.901424407959,12.9074935913086,12.9135684967041,12.9196491241455,12.9257345199585,12.9318265914917,12.9379243850708,12.9440279006958,12.9501371383667,12.9562520980835,12.9623727798462,12.9685001373291,12.9746322631836,12.980770111084,12.9869146347046,12.9930639266968,12.9992198944092,13.0053815841675,13.0115480422974,13.0177211761475,13.0239009857178,13.0805425643921,13.2162561416626,13.3310861587524,13.3482341766357,13.3654260635376,13.3826627731323,13.3999443054199,13.4172697067261,13.4346399307251,13.4520559310913,13.4695158004761,13.4870223999023,13.5045738220215,13.5221710205078,13.5398149490356,13.5575037002563,13.5752401351929,13.5930223464966,13.6108503341675,13.6287260055542,13.6466493606567,13.6646194458008,13.6826362609863,13.7007007598877,13.7188138961792,13.7369737625122,13.7551832199097,13.7734394073486,13.7917451858521,13.8100996017456,13.8285026550293,13.8469552993774,13.8654565811157,13.8840084075928,13.90260887146,13.9212598800659,13.9399604797363,13.9587116241455,13.9775133132935,13.9963655471802,14.01526927948,14.0342235565186,14.0532293319702,14.072286605835,14.098349571228,14.1261825561523,14.154125213623,14.1821784973145,14.2103443145752,14.238621711731,14.2670116424561,14.2955150604248,14.3241319656372,14.3528652191162,14.3817129135132,14.4106769561768,14.4397573471069,14.4689569473267,14.4982738494873,14.5231628417969,14.5472230911255,14.5713634490967,14.5955839157104,14.6198854446411,14.6442670822144,14.6687316894531,14.6932764053345,14.7179050445557,14.7426156997681,14.767409324646,14.7922859191895,14.8172473907471,14.8422927856445,14.8674230575562,14.8926391601562,14.9179401397705,14.9433279037476,14.9688014984131,14.9943628311157,15.0200109481812,15.045747756958,15.071572303772,15.0974855422974,15.1234884262085,15.1495809555054,15.175763130188,15.202036857605,15.228401184082,15.2548570632935,15.2729616165161,15.2734479904175,15.2739286422729,15.2744150161743,15.2749004364014,15.2753839492798,15.2758684158325,15.2763538360596,15.276837348938,15.2773237228394,15.2778091430664,15.2782907485962,15.2787771224976,15.2792625427246,15.279746055603,15.2802324295044,15.2807178497314,15.2812004089355,15.2816877365112,15.282172203064,15.2826557159424
12.056676864624,12.0584592819214,12.0602416992188,12.0620250701904,12.0638084411621,12.0655927658081,12.0673780441284,12.0691633224487,12.0709495544434,12.072735786438,12.0745229721069,12.0763101577759,12.0780982971191,12.0798864364624,12.08167552948,12.0834655761719,12.0852556228638,12.0870456695557,12.0888376235962,12.0906286239624,12.0924215316772,12.0942144393921,12.0960073471069,12.0978012084961,12.0995960235596,12.101390838623,12.1031856536865,12.1049823760986,12.1067781448364,12.1085758209229,12.1103734970093,12.1121711730957,12.1139698028564,12.1157693862915,12.1175689697266,12.1193695068359,12.1211700439453,12.122971534729,12.1247730255127,12.1265754699707,12.128378868103,12.1301822662354,12.1319856643677,12.1337900161743,12.1355953216553,12.1374015808105,12.1392068862915,12.1410140991211,12.1428213119507,12.1446285247803,12.1464376449585,12.1482458114624,12.1500558853149,12.1518650054932,12.15367603302,12.1554870605469,12.1572980880737,12.1591100692749,12.1609230041504,12.1627359390259,12.1645498275757,12.1663646697998,12.1681785583496,12.169994354248,12.1718101501465,12.1736268997192,12.175443649292,12.1772613525391,12.1790790557861,12.1808977127075,12.1827163696289,12.1845369338989,12.1863565444946,12.1881771087646,12.189998626709,12.1918201446533,12.193642616272,12.1954660415649,12.1972894668579,12.1991138458252,12.2009382247925,12.2027626037598,12.2045888900757,12.2064151763916,12.2082414627075,12.2100687026978,12.2118968963623,12.2137250900269,12.2155542373657,12.2173833847046,12.2192134857178,12.2210445404053,12.2228755950928,12.2247066497803,12.2265396118164,12.2283725738525,12.2302055358887,12.2320394515991,12.2338733673096,12.2357091903687,12.2375440597534,12.2393798828125,12.2412166595459,12.2430543899536,12.2448921203613,12.246729850769,12.2485694885254,12.2504081726074,12.2522487640381,12.2540884017944,12.2559299468994,12.2577714920044,12.2596139907837,12.261456489563,12.2632999420166,12.2651433944702,12.2669878005981,12.2688331604004,12.2706785202026,12.2725238800049,12.2743711471558,12.2762184143066,12.2780656814575,12.2799139022827,12.2817630767822,12.2836122512817,12.2854623794556,12.2873125076294,12.2891635894775,12.291015625,12.2928676605225,12.2947206497192,12.296573638916,12.2984275817871,12.3002815246582,12.3021364212036,12.3039922714233,12.3058481216431,12.3077049255371,12.3095617294312,12.3114194869995,12.3132781982422,12.3151369094849,12.3169965744019,12.3188562393188,12.3207168579102,12.3225784301758,12.3244400024414,12.3263025283813,12.3281650543213,12.3300285339355,12.33482837677,12.3444490432739,12.3540840148926,12.3637351989746,12.3734016418457,12.3830823898315,12.3927783966064,12.4024896621704,12.4122161865234,12.4219589233398,12.431715965271,12.4414882659912,12.4512758255005,12.4610795974731,12.4708986282349,12.4807329177856,12.4905824661255,12.5004472732544,12.5103282928467,12.5202255249023,12.5301370620728,12.5400657653809,12.5500087738037,12.5599689483643,12.5699443817139,12.5799350738525,12.5899419784546,12.59996509552,12.6100044250488,12.6200590133667,12.6301298141479,12.6402168273926,12.6503200531006,12.660439491272,12.6705751419067,12.6807270050049,12.6908950805664,12.7010803222656,12.7112808227539,12.7214975357056,12.7317314147949,12.7419815063477,12.7522487640381,12.7625312805176,12.7728309631348,12.7831478118896,12.7934808731079,12.8038311004639,12.8141975402832,12.8245801925659,12.8349809646606,12.8450050354004,12.8510208129883,12.8570423126221,12.8630704879761,12.8691034317017,12.8751420974731,12.8811864852905,12.8872365951538,12.893292427063,12.8993530273438,12.9054203033447,12.9114933013916,12.9175720214844,12.923656463623,12.9297466278076,12.9358425140381,12.9419431686401,12.9480504989624,12.9541635513306,12.9602823257446,12.9664077758789,12.9725379943848,12.9786739349365,12.9848155975342,12.9909639358521,12.9971170425415,13.0032768249512,13.0094423294067,13.0156135559082,13.0269994735718,13.1615982055664,13.2990083694458,13.3504219055176,13.3676195144653,13.384861946106,13.4021482467651,13.4194803237915,13.4368562698364,13.4542770385742,13.4717435836792,13.4892559051514,13.5068130493164,13.5244159698486,13.5420656204224,13.5597610473633,13.5775022506714,13.595290184021,13.6131248474121,13.631007194519,13.6489362716675,13.6669120788574,13.6849346160889,13.7030057907104,13.7211246490479,13.7392911911011,13.7575063705444,13.7757692337036,13.7940807342529,13.8124418258667,13.8308506011963,13.8493099212646,13.8678169250488,13.8863744735718,13.9049816131592,13.9236392974854,13.942346572876,13.9611034393311,13.9799118041992,13.9987707138062,14.0176801681519,14.036642074585,14.0602674484253,14.0879507064819,14.1157426834106,14.1436443328857,14.1716566085815,14.199779510498,14.2280149459839,14.2563629150391,14.2848234176636,14.3133983612061,14.3420877456665,14.3708915710449,14.3998126983643,14.4288492202759,14.4560451507568,14.4798831939697,14.5038003921509,14.5277967453003,14.5518732070923,14.5760288238525,14.6002645492554,14.6245813369751,14.6489791870117,14.6734590530396,14.6980199813843,14.7226638793945,14.7473907470703,14.7722005844116,14.7970943450928,14.8220710754395,14.8471336364746,14.8722801208496,14.8975124359131,14.9228296279907,14.9482345581055,14.9737243652344,14.9993028640747,15.0249681472778,15.0507211685181,15.0765628814697,15.1024932861328,15.1285133361816,15.1546239852905,15.1551160812378,15.1555919647217,15.1560707092285,15.156548500061,15.1570243835449,15.1575021743774,15.1579809188843,15.1584548950195,15.1589298248291,15.1594114303589,15.1598854064941,15.1603622436523,15.1608428955078,15.1613178253174,15.1617937088013,15.1622753143311,15.1627511978149,15.1632261276245,15.16370677948,15.1641836166382,15.1646595001221,15.1651372909546
12.0524263381958,12.0542078018188,12.0559892654419,12.0577707290649,12.0595541000366,12.061336517334,12.06312084198,12.0649042129517,12.066689491272,12.068473815918,12.0702600479126,12.0720462799072,12.0738325119019,12.0756206512451,12.0774078369141,12.0791959762573,12.0809850692749,12.0827751159668,12.0845642089844,12.0863552093506,12.0881462097168,12.089937210083,12.0917291641235,12.0935220718384,12.0953149795532,12.0971088409424,12.0989027023315,12.100697517395,12.1024932861328,12.1042890548706,12.1060848236084,12.1078824996948,12.1096792221069,12.1114768981934,12.1132755279541,12.1150751113892,12.1168746948242,12.1186742782593,12.1204748153687,12.1222763061523,12.124077796936,12.125880241394,12.1276826858521,12.1294860839844,12.1312894821167,12.1330938339233,12.1348991394043,12.1367044448853,12.1385097503662,12.1403169631958,12.1421241760254,12.143931388855,12.1457395553589,12.1475477218628,12.149356842041,12.1511669158936,12.1529769897461,12.1547880172729,12.1565990447998,12.158411026001,12.1602239608765,12.162036895752,12.1638498306274,12.1656637191772,12.1674785614014,12.1692934036255,12.1711091995239,12.1729259490967,12.1747426986694,12.1765594482422,12.1783771514893,12.1801958084106,12.182014465332,12.1838340759277,12.1856546401978,12.1874742507935,12.1892957687378,12.1911172866821,12.1929397583008,12.1947622299194,12.1965856552124,12.1984090805054,12.2002334594727,12.2020587921143,12.2038841247559,12.2057104110718,12.2075366973877,12.2093639373779,12.2111911773682,12.2130193710327,12.2148485183716,12.2166776657104,12.2185077667236,12.2203378677368,12.2221689224243,12.2239999771118,12.2258319854736,12.2276649475098,12.2294979095459,12.2313318252563,12.2331657409668,12.2350006103516,12.2368354797363,12.2386713027954,12.2405080795288,12.2423448562622,12.2441825866699,12.2460203170776,12.2478590011597,12.249698638916,12.2515382766724,12.253378868103,12.2552194595337,12.2570610046387,12.2589025497437,12.2607450485229,12.2625885009766,12.2644319534302,12.2662763595581,12.268120765686,12.2699661254883,12.2718114852905,12.2736577987671,12.275505065918,12.2773523330688,12.279200553894,12.2810497283936,12.2828989028931,12.2847480773926,12.2865982055664,12.2884492874146,12.2903003692627,12.2921524047852,12.2940053939819,12.2958583831787,12.2977113723755,12.2995662689209,12.3014211654663,12.3032760620117,12.3051319122314,12.3069887161255,12.3088455200195,12.3107032775879,12.3125610351562,12.3144197463989,12.3162784576416,12.3181390762329,12.3199987411499,12.3218603134155,12.3237209320068,12.3255834579468,12.3274459838867,12.329309463501,12.3311729431152,12.3330373764038,12.3416557312012,12.3512868881226,12.360933303833,12.3705949783325,12.3802719116211,12.3899631500244,12.3996706008911,12.4093923568726,12.4191303253174,12.428882598877,12.4386510848999,12.4484338760376,12.4582328796387,12.4680471420288,12.4778776168823,12.4877223968506,12.4975833892822,12.5074596405029,12.517352104187,12.5272598266602,12.5371828079224,12.5471220016479,12.5570764541626,12.5670480728149,12.577033996582,12.5870370864868,12.5970554351807,12.6070890426636,12.6171398162842,12.6272058486938,12.6372880935669,12.6473865509033,12.6575021743774,12.6676330566406,12.6777801513672,12.6879434585571,12.6981229782104,12.7083187103271,12.7185316085815,12.728759765625,12.7390060424805,12.749267578125,12.7595453262329,12.7698411941528,12.7801523208618,12.7904806137085,12.8008251190186,12.8111877441406,12.8215656280518,12.830940246582,12.8369436264038,12.8429517745972,12.8489665985107,12.8549861907959,12.861011505127,12.8670425415039,12.8730792999268,12.8791217803955,12.8851699829102,12.8912239074707,12.8972835540771,12.9033489227295,12.9094190597534,12.9154958724976,12.9215784072876,12.9276666641235,12.9337606430054,12.9398593902588,12.9459648132324,12.952075958252,12.9581928253174,12.9643154144287,12.9704437255859,12.9765787124634,12.9827184677124,12.9888639450073,12.9950160980225,13.0011730194092,13.0073366165161,13.0135059356689,13.1073913574219,13.2436656951904,13.3526105880737,13.3698139190674,13.3870620727539,13.404354095459,13.4216909408569,13.4390726089478,13.4565000534058,13.4739723205566,13.4914894104004,13.5090532302856,13.5266628265381,13.5443172454834,13.5620183944702,13.5797662734985,13.597559928894,13.6154003143311,13.6332883834839,13.6512231826782,13.6692047119141,13.6872339248657,13.7053117752075,13.7234363555908,13.7416086196899,13.7598295211792,13.7780990600586,13.7964172363281,13.8147840499878,13.8331995010376,13.8516645431519,13.8701782226562,13.8887424468994,13.907356262207,13.9260196685791,13.9447336196899,13.9634971618652,13.9823122024536,14.0011768341064,14.0223913192749,14.0499248504639,14.0775671005249,14.105318069458,14.1331777572632,14.1611490249634,14.1892309188843,14.2174234390259,14.2457294464111,14.2741479873657,14.302680015564,14.3313255310059,14.3600873947144,14.3889646530151,14.4131641387939,14.436861038208,14.4606370925903,14.4844903945923,14.5084228515625,14.532434463501,14.5565252304077,14.5806970596313,14.6049480438232,14.6292810440063,14.653694152832,14.6781892776489,14.702766418457,14.7274265289307,14.7521696090698,14.7769947052002,14.8019046783447,14.8268985748291,14.8519763946533,14.877140045166,14.9023885726929,14.9277229309082,14.953143119812,14.9786510467529,15.0042457580566,15.0299282073975,15.0386028289795,15.0390739440918,15.0395450592041,15.0400123596191,15.0404834747314,15.0409526824951,15.0414218902588,15.0418920516968,15.0423603057861,15.0428304672241,15.0433015823364,15.0437707901001,15.0442428588867,15.0447120666504,15.0451812744141,15.0456533432007,15.04612159729,15.0465898513794,15.047064781189,15.0475330352783,15.0480003356934,15.0484733581543,15.0489435195923,15.0494108200073
12.0481796264648,12.0499591827393,12.051739692688,12.0535202026367,12.0553016662598,12.0570831298828,12.0588655471802,12.0606489181519,12.0624322891235,12.0642156600952,12.0659999847412,12.0677852630615,12.0695705413818,12.0713567733765,12.0731430053711,12.07493019104,12.0767183303833,12.0785064697266,12.0802946090698,12.0820837020874,12.0838737487793,12.0856637954712,12.0874547958374,12.0892457962036,12.0910377502441,12.092830657959,12.0946235656738,12.0964164733887,12.0982103347778,12.1000051498413,12.1017999649048,12.1035957336426,12.1053915023804,12.1071882247925,12.1089859008789,12.1107835769653,12.1125812530518,12.1143808364868,12.1161794662476,12.1179800033569,12.119779586792,12.1215810775757,12.1233825683594,12.1251840591431,12.1269865036011,12.1287899017334,12.1305932998657,12.1323976516724,12.134202003479,12.13600730896,12.1378135681152,12.1396198272705,12.1414260864258,12.1432332992554,12.1450414657593,12.1468496322632,12.1486587524414,12.1504688262939,12.1522789001465,12.154088973999,12.1559000015259,12.1577119827271,12.1595239639282,12.1613368988037,12.1631498336792,12.164963722229,12.1667785644531,12.1685934066772,12.1704082489014,12.1722249984741,12.1740407943726,12.1758584976196,12.1776762008667,12.1794939041138,12.1813125610352,12.1831321716309,12.1849517822266,12.1867723464966,12.1885929107666,12.1904144287109,12.1922359466553,12.1940584182739,12.1958818435669,12.1977052688599,12.1995296478271,12.2013540267944,12.203179359436,12.205005645752,12.2068319320679,12.2086582183838,12.2104864120483,12.2123136520386,12.2141427993774,12.2159719467163,12.2178010940552,12.2196311950684,12.2214622497559,12.2232933044434,12.2251253128052,12.226957321167,12.2287902832031,12.2306241989136,12.232458114624,12.2342920303345,12.2361278533936,12.2379636764526,12.2397994995117,12.2416362762451,12.2434730529785,12.2453117370605,12.2471494674683,12.2489891052246,12.2508277893066,12.2526683807373,12.254508972168,12.2563505172729,12.2581920623779,12.2600345611572,12.2618770599365,12.2637205123901,12.2655639648438,12.2674083709717,12.2692537307739,12.2710990905762,12.2729454040527,12.2747926712036,12.2766399383545,12.2784872055054,12.2803354263306,12.2821846008301,12.2840347290039,12.2858839035034,12.2877349853516,12.2895860671997,12.2914381027222,12.2932901382446,12.2951431274414,12.2969961166382,12.2988500595093,12.3007049560547,12.3025598526001,12.3044157028198,12.3062715530396,12.3081283569336,12.309986114502,12.3118438720703,12.313702583313,12.3155612945557,12.3174209594727,12.3192806243896,12.321141242981,12.3230028152466,12.3248643875122,12.3267269134521,12.3285903930664,12.3304538726807,12.3323173522949,12.3341827392578,12.3388633728027,12.3484907150269,12.3581323623657,12.3677892684937,12.3774614334106,12.3871488571167,12.3968515396118,12.406569480896,12.4163026809692,12.4260511398315,12.4358148574829,12.4455938339233,12.4553880691528,12.4651975631714,12.4750232696533,12.4848642349243,12.4947204589844,12.5045919418335,12.514479637146,12.5243825912476,12.5343017578125,12.5442361831665,12.5541868209839,12.5641527175903,12.5741348266602,12.584132194519,12.5941457748413,12.604175567627,12.614221572876,12.6242828369141,12.6343612670898,12.6444549560547,12.6545648574829,12.6646909713745,12.6748332977295,12.6849918365479,12.6951675415039,12.705358505249,12.7155666351318,12.7257900238037,12.7360305786133,12.7462882995605,12.7565612792969,12.7668514251709,12.7771587371826,12.7874822616577,12.7978219985962,12.8081789016724,12.8169069290161,12.8228969573975,12.8288927078247,12.8348932266235,12.8409004211426,12.8469123840332,12.8529300689697,12.8589534759521,12.8649826049805,12.8710174560547,12.8770580291748,12.8831043243408,12.8891563415527,12.8952140808105,12.9012775421143,12.9073457717896,12.9134206771851,12.9195013046265,12.9255876541138,12.9316787719727,12.9377765655518,12.9438800811768,12.9499893188477,12.9561042785645,12.9622249603271,12.9683513641357,12.9744834899902,12.9806213378906,12.9867649078369,12.9929151535034,12.9990701675415,13.0052318572998,13.0536289215088,13.1887817382812,13.3267631530762,13.3720083236694,13.3892621994019,13.4065599441528,13.4239025115967,13.4412908554077,13.4587230682373,13.4762010574341,13.493724822998,13.5112934112549,13.5289087295532,13.5465698242188,13.5642766952515,13.5820302963257,13.5998296737671,13.6176767349243,13.635570526123,13.6535110473633,13.6714992523193,13.6895341873169,13.7076177597046,13.7257480621338,13.7439270019531,13.7621545791626,13.7804298400879,13.7987546920776,13.8171272277832,13.8355493545532,13.8540201187134,13.872540473938,13.8911104202271,13.9097309112549,13.9284009933472,13.9471206665039,13.9658908843994,13.9847192764282,14.0121040344238,14.0395975112915,14.0671987533569,14.0949087142944,14.1227283477783,14.1506576538086,14.1786975860596,14.2068490982056,14.2351121902466,14.2634878158569,14.2919778823853,14.3205804824829,14.3470573425293,14.3705377578735,14.3940944671631,14.4177284240723,14.4414405822754,14.4652309417725,14.4890995025635,14.5130472183228,14.5370740890503,14.5611810684204,14.5853672027588,14.6096343994141,14.6339826583862,14.6584119796753,14.6829233169556,14.7075166702271,14.7321920394897,14.756950378418,14.781792640686,14.8067188262939,14.8317289352417,14.8568229675293,14.8820028305054,14.9072675704956,14.9238700866699,14.9243335723877,14.9247970581055,14.9252557754517,14.9257211685181,14.9261856079102,14.9266443252563,14.9271078109741,14.9275693893433,14.928032875061,14.9284973144531,14.9289569854736,14.9294214248657,14.9298849105835,14.9303464889526,14.9308099746704,14.9312734603882,14.931734085083,14.9321994781494,14.9326629638672,14.933123588562,14.9335851669312,14.9340534210205,14.9345140457153,14.9349737167358,14.9354429244995
12.0439357757568,12.0457143783569,12.047492980957,12.0492725372314,12.0510530471802,12.0528335571289,12.0546140670776,12.0563955307007,12.058177947998,12.0599603652954,12.0617437362671,12.0635271072388,12.0653114318848,12.0670967102051,12.0688819885254,12.0706672668457,12.0724534988403,12.0742406845093,12.0760278701782,12.0778160095215,12.0796041488647,12.0813932418823,12.0831832885742,12.0849733352661,12.086763381958,12.0885543823242,12.0903463363647,12.0921382904053,12.0939311981201,12.095724105835,12.0975179672241,12.0993127822876,12.1011075973511,12.1029024124146,12.1046991348267,12.1064949035645,12.1082925796509,12.110089302063,12.1118879318237,12.1136865615845,12.1154851913452,12.1172847747803,12.1190853118896,12.120885848999,12.1226873397827,12.1244888305664,12.1262912750244,12.1280937194824,12.1298971176147,12.1317014694214,12.133505821228,12.135311126709,12.1371164321899,12.1389226913452,12.1407289505005,12.1425361633301,12.1443433761597,12.1461524963379,12.1479606628418,12.14976978302,12.1515798568726,12.1533899307251,12.155200958252,12.1570129394531,12.1588249206543,12.1606369018555,12.162449836731,12.1642637252808,12.1660776138306,12.1678924560547,12.1697082519531,12.1715240478516,12.17333984375,12.1751565933228,12.1769742965698,12.1787919998169,12.1806106567383,12.182430267334,12.1842498779297,12.1860694885254,12.1878900527954,12.1897115707397,12.1915330886841,12.1933555603027,12.1951780319214,12.1970014572144,12.1988258361816,12.2006502151489,12.2024755477905,12.2043008804321,12.206127166748,12.207953453064,12.2097806930542,12.2116088867188,12.2134370803833,12.2152652740479,12.217095375061,12.2189254760742,12.2207555770874,12.2225866317749,12.2244186401367,12.2262506484985,12.2280826568604,12.2299165725708,12.2317504882812,12.2335844039917,12.2354192733765,12.2372550964355,12.2390909194946,12.240927696228,12.2427644729614,12.2446022033691,12.2464399337769,12.2482786178589,12.2501182556152,12.2519578933716,12.2537984848022,12.2556390762329,12.2574806213379,12.2593231201172,12.2611656188965,12.2630090713501,12.2648525238037,12.2666969299316,12.2685413360596,12.2703876495361,12.2722330093384,12.2740793228149,12.2759265899658,12.2777738571167,12.2796220779419,12.2814712524414,12.2833204269409,12.2851705551147,12.2870206832886,12.2888717651367,12.2907228469849,12.2925748825073,12.2944278717041,12.2962808609009,12.298134803772,12.2999887466431,12.3018436431885,12.3036994934082,12.3055553436279,12.307412147522,12.309268951416,12.3111267089844,12.3129854202271,12.3148441314697,12.3167028427124,12.3185634613037,12.3204231262207,12.3222846984863,12.324146270752,12.3260087966919,12.3278713226318,12.3297348022461,12.3315982818604,12.3334627151489,12.3353281021118,12.3371934890747,12.3456954956055,12.3553333282471,12.3649854660034,12.3746538162231,12.3843364715576,12.3940343856812,12.4037485122681,12.4134769439697,12.4232206344604,12.4329795837402,12.4427547454834,12.4525442123413,12.4623498916626,12.4721708297729,12.4820070266724,12.4918584823608,12.5017261505127,12.5116090774536,12.5215072631836,12.531421661377,12.5413513183594,12.5512971878052,12.5612592697144,12.5712366104126,12.5812292098999,12.5912389755249,12.601263999939,12.6113052368164,12.6213617324829,12.6314353942871,12.6415243148804,12.651629447937,12.661750793457,12.6718883514404,12.6820430755615,12.6922130584717,12.7023992538452,12.7126026153564,12.7228221893311,12.7330570220947,12.7433099746704,12.7535781860352,12.7638635635376,12.7741661071777,12.7844839096069,12.7948198318481,12.8029041290283,12.8088808059692,12.8148632049561,12.8208513259888,12.8268451690674,12.8328437805176,12.838849067688,12.84485912323,12.8508749008179,12.8568964004517,12.8629236221313,12.8689565658569,12.8749952316284,12.8810396194458,12.8870897293091,12.8931455612183,12.899206161499,12.9052734375,12.9113464355469,12.9174242019653,12.923508644104,12.9295988082886,12.9356937408447,12.9417953491211,12.9479026794434,12.9540157318115,12.9601345062256,12.9662590026855,12.9723892211914,12.9785251617432,12.9846668243408,12.9908142089844,12.9969682693481,13.0031270980835,13.1343507766724,13.2711896896362,13.3742046356201,13.3914632797241,13.408766746521,13.4261150360107,13.4435091018677,13.4609470367432,13.4784307479858,13.4959602355957,13.5135354995728,13.5311555862427,13.5488224029541,13.566535949707,13.5842952728271,13.6021013259888,13.6199531555176,13.6378536224365,13.6557998657227,13.6737937927246,13.6918354034424,13.709924697876,13.7280616760254,13.7462463378906,13.764479637146,13.7827615737915,13.8010921478271,13.8194713592529,13.8378992080688,13.8563766479492,13.874903678894,13.8934803009033,13.9121065139771,13.9307823181152,13.9495086669922,13.9744873046875,14.0018320083618,14.0292854309082,14.056845664978,14.0845146179199,14.1122932434082,14.1401805877686,14.1681795120239,14.1962890625,14.2245101928711,14.2528438568115,14.2812910079956,14.30482006073,14.328161239624,14.3515796661377,14.3750743865967,14.3986463546753,14.4222955703735,14.4460229873657,14.4698286056519,14.4937124252319,14.5176753997803,14.5417175292969,14.5658397674561,14.5900421142578,14.6143245697021,14.6386880874634,14.6631336212158,14.6876602172852,14.7122688293457,14.7369604110718,14.7617349624634,14.7865934371948,14.8108720779419,14.8113269805908,14.8117866516113,14.8122406005859,14.8126935958862,14.8131532669067,14.813606262207,14.8140602111816,14.8145208358765,14.8149747848511,14.8154277801514,14.8158845901489,14.8163404464722,14.8167953491211,14.8172521591187,14.8177099227905,14.8181667327881,14.8186197280884,14.8190755844116,14.8195343017578,14.8199892044067,14.82044506073,14.8209018707275,14.8213567733765,14.8218107223511,14.8222703933716,14.8227252960205,14.8231801986694
