13.9267292022705,13.9593057632446,13.9920339584351,14.0249166488647,14.0579538345337,14.0911474227905,14.1244974136353,14.1580066680908,14.1916742324829,14.2255029678345,14.2594938278198,14.293646812439,14.3279638290405,14.3624458312988,14.3970947265625,14.4319114685059,14.4668960571289,14.5020513534546,14.5373773574829,14.5728759765625,14.608549118042,14.6443967819214,14.6804208755493,14.7166223526001,14.7530040740967,14.7895650863647,14.8263072967529,14.8632335662842,14.9003429412842,14.9376392364502,14.9751224517822,15.0127944946289,15.0506553649902,15.0887088775635,15.1269550323486,15.1653957366943,15.2040319442749,15.242865562439,15.2818984985352,15.3211307525635,15.3605661392212,15.4002046585083,15.4400482177734,15.4800987243652,15.520357131958,15.5608253479004,15.6015062332153,15.6622323989868,15.7352752685547,0,0,0,0,0,0,0,0,0,0,0,0,0,0,0,0,0,0,0,0,0,0,0,0,0,0,0,0,0,0,0,0,0,0,0,0,0,0,0,0,0,0,0,0,0,0,0,0,0,0,0,0,0,0,0,0,0,0,0,0,0,0,0,0,0,0,0,0,0,0,0,0,0,0,0,0,0,0,0,0,0,0,0,0,0,0,0,0,0,0,0,0,0,0,0,0,0,0,0,0,0,0,0,0,0,0,0,0,0,0,0,0,0,0,0,0,0,0,0,0,0,0,0,0,0,0,0,0,0,0,0,0,0,0,0,0,0,0,0,0,0,0,0,0,0,0,0,0,0,0,0,0,0,0,0,0,0,0,0,0,0,0,0,0,0,0,0,0,0,0,0,0,0,0,0,0,0,0,0,0,0,0,0,0,0,0,0,0,0,0,0,0,0,0,0,0,0,0,0,0,0,0,0,0,0,0,0,0,0,0,0,0,17.2322235107422,17.1591796875,17.0867519378662,17.0149326324463,16.9437141418457,16.8730888366699,16.803050994873,16.7335929870605,16.6647052764893,16.5963840484619,16.5286197662354,16.461404800415,16.3947372436523,16.3286056518555,16.2630062103271,16.1979312896729,16.1333751678467,16.0693321228027,16.0057945251465,15.9427585601807,15.8802165985107,15.8181638717651,15.7565937042236,15.6955032348633,15.6348848342896,15.5747318267822,15.5150451660156,15.4558210372925,15.3970460891724,15.3387155532837,15.2808284759521,15.2233810424805,15.1663646697998,15.1097726821899,15.0536022186279,14.9978475570679,14.9424924850464,14.8875436782837,14.8329982757568,14.7788496017456,14.7250957489014,14.6717319488525,14.6187524795532,14.5661554336548,14.513934135437,14.4620876312256,14.4106092453003,14.3594961166382,14.308744430542,14.2583494186401,14.208309173584,14.1586179733276,14.1092739105225,14.0602722167969,14.0116100311279,13.9632835388184,13.9152889251709,13.8676233291626,13.8202829360962,13.7732648849487,13.7265653610229,13.6801815032959,13.6341104507446,13.5883483886719,13.5428924560547,13.4977397918701,13.4528875350952,13.4083318710327,13.3640699386597,13.3200998306274,13.2764177322388,13.233021736145,13.1899089813232,13.1470756530762,13.1045188903809,13.062237739563,13.0202283859253,12.9784879684448,12.9370145797729,12.8958053588867,12.8548574447632,12.814169883728,12.7737379074097,12.7335605621338
13.8928899765015,13.9253082275391,13.9578771591187,13.9905996322632,14.0234746932983,14.0565052032471,14.0896921157837,14.1230354309082,14.1565370559692,14.1901988983154,14.2240200042725,14.2580032348633,14.2921495437622,14.3264589309692,14.3609342575073,14.3955755233765,14.4303846359253,14.4653625488281,14.5005102157593,14.5358285903931,14.5713205337524,14.6069850921631,14.6428251266479,14.6788415908813,14.7150354385376,14.7514085769653,14.7879619598389,14.8246965408325,14.8616142272949,14.8987159729004,14.9360036849976,14.9734792709351,15.0111427307129,15.0489959716797,15.0870409011841,15.1252784729004,15.1637096405029,15.2023372650146,15.2411623001099,15.2801866531372,15.319411277771,15.3588371276855,15.3984661102295,15.4383010864258,15.4783420562744,15.5185918807983,15.5590515136719,15.5997219085693,15.6406059265137,15.6962337493896,16.9722366333008,0,0,0,0,0,0,0,0,0,0,0,0,0,0,0,0,0,0,0,0,0,0,0,0,0,0,0,0,0,0,0,0,0,0,0,0,0,0,0,0,0,0,0,0,0,0,0,0,0,0,0,0,0,0,0,0,0,0,0,0,0,0,0,0,0,0,0,0,0,0,0,0,0,0,0,0,0,0,0,0,0,0,0,0,0,0,0,0,0,0,0,0,0,0,0,0,0,0,0,0,0,0,0,0,0,0,0,0,0,0,0,0,0,0,0,0,0,0,0,0,0,0,0,0,0,0,0,0,0,0,0,0,0,0,0,0,0,0,0,0,0,0,0,0,0,0,0,0,0,0,0,0,0,0,0,0,0,0,0,0,0,0,0,0,0,0,0,0,0,0,0,0,0,0,0,0,0,0,0,0,0,0,0,0,0,0,0,0,0,0,0,0,0,0,0,0,0,0,0,0,0,0,0,0,0,0,0,0,0,0,17.2319183349609,17.1588764190674,17.0864505767822,17.0146350860596,16.9434185028076,16.8727970123291,16.8027610778809,16.733304977417,16.6644191741943,16.5960998535156,16.5283374786377,16.4611263275146,16.3944606781006,16.3283309936523,16.2627334594727,16.1976623535156,16.1331081390381,16.0690670013428,16.0055313110352,15.9424982070923,15.8799600601196,15.8179111480713,15.7563447952271,15.6952562332153,15.6346397399902,15.5744886398315,15.5148000717163,15.455584526062,15.3968105316162,15.3384819030762,15.2805938720703,15.2231407165527,15.1661176681519,15.1095218658447,15.053352355957,14.9975996017456,14.9422588348389,14.8873119354248,14.8327674865723,14.778621673584,14.7248697280884,14.6715068817139,14.6185293197632,14.5659341812134,14.5137147903442,14.4618682861328,14.4103918075562,14.3592796325684,14.3085298538208,14.2581367492676,14.2080974578857,14.158408164978,14.1090660095215,14.0600652694702,14.0114049911499,13.9630794525146,13.9150857925415,13.8674221038818,13.8200826644897,13.7730665206909,13.7263679504395,13.679986000061,13.6339159011841,13.5881547927856,13.5427007675171,13.4975490570068,13.4526977539062,13.4081430435181,13.3638830184937,13.3199138641357,13.2762336730957,13.2328386306763,13.1897268295288,13.1468944549561,13.1043395996094,13.0620594024658,13.0200510025024,12.9783115386963,12.9368391036987,12.8956308364868,12.8546848297119,12.8139972686768,12.773567199707,12.7333908081055
13.8592157363892,13.8914756774902,13.9238872528076,13.956449508667,13.989164352417,14.0220336914062,14.0550575256348,14.0882368087769,14.1215734481812,14.155068397522,14.1887226104736,14.2225370407104,14.2565135955811,14.2906522750854,14.3249549865723,14.3594226837158,14.3940572738647,14.428858757019,14.4638290405273,14.498969078064,14.5342798233032,14.5697641372681,14.6054210662842,14.6412534713745,14.6772623062134,14.7134485244751,14.7498140335083,14.786358833313,14.8230857849121,14.85999584198,14.8970899581909,14.9343690872192,14.9718360900879,15.0094909667969,15.0473356246948,15.0853719711304,15.1236019134521,15.1620244979858,15.2006435394287,15.2394609451294,15.2784757614136,15.3176908493042,15.3571081161499,15.396728515625,15.4365539550781,15.4765863418579,15.5168266296387,15.557276725769,15.5979385375977,15.6388130187988,15.6799030303955,15.7303829193115,16.7275943756104,0,0,0,0,0,0,0,0,0,0,0,0,0,0,0,0,0,0,0,0,0,0,0,0,0,0,0,0,0,0,0,0,0,0,0,0,0,0,0,0,0,0,0,0,0,0,0,0,0,0,0,0,0,0,0,0,0,0,0,0,0,0,0,0,0,0,0,0,0,0,0,0,0,0,0,0,0,0,0,0,0,0,0,0,0,0,0,0,0,0,0,0,0,0,0,0,0,0,0,0,0,0,0,0,0,0,0,0,0,0,0,0,0,0,0,0,0,0,0,0,0,0,0,0,0,0,0,0,0,0,0,0,0,0,0,0,0,0,0,0,0,0,0,0,0,0,0,0,0,0,0,0,0,0,0,0,0,0,0,0,0,0,0,0,0,0,0,0,0,0,0,0,0,0,0,0,0,0,0,0,0,0,0,0,0,0,0,0,0,0,0,0,0,0,0,0,0,0,0,0,0,0,0,0,0,0,0,0,17.2316131591797,17.1585731506348,17.0861511230469,17.0143356323242,16.9431228637695,16.8725032806396,16.8024711608887,16.7330169677734,16.664134979248,16.595817565918,16.5280570983887,16.4608478546143,16.3941841125488,16.3280582427979,16.2624626159668,16.1973915100098,16.1328411102295,16.0688037872314,16.0052738189697,15.9422426223755,15.8797073364258,15.8176603317261,15.7560958862305,15.6950092315674,15.6343936920166,15.5742454528809,15.5145578384399,15.4553461074829,15.3965749740601,15.3382482528687,15.2803621292114,15.2229108810425,15.1658897399902,15.1092948913574,15.0531206130981,14.9973621368408,14.9420146942139,14.8870801925659,14.832537651062,14.778392791748,14.7246427536011,14.6712818145752,14.6183061599731,14.5657110214233,14.5134935379028,14.4616498947144,14.410174369812,14.3590641021729,14.3083152770996,14.257924079895,14.2078866958618,14.1581983566284,14.1088571548462,14.0598583221436,14.0111989974976,13.9628753662109,13.9148836135864,13.8672208786011,13.8198833465576,13.7728672027588,13.7261714935303,13.6797895431519,13.6337213516235,13.5879621505737,13.5425081253052,13.4973583221436,13.4525079727173,13.4079551696777,13.3636960983276,13.3197288513184,13.2760496139526,13.2326555252075,13.1895446777344,13.1467132568359,13.1041593551636,13.0618801116943,13.0198736190796,12.9781351089478,12.9366645812988,12.8954572677612,12.8545122146606,12.8138256072998,12.7733964920044,12.7332210540771
13.8257036209106,13.8578081130981,13.890061378479,13.9224662780762,13.9550218582153,13.9877309799194,14.0205926895142,14.0536098480225,14.0867824554443,14.1201124191284,14.153600692749,14.1872472763062,14.2210550308228,14.2550239562988,14.289155960083,14.3234510421753,14.3579120635986,14.392539024353,14.4273328781128,14.4622955322266,14.4974279403687,14.5327320098877,14.568208694458,14.6038579940796,14.6396827697754,14.6756839752197,14.7118616104126,14.7482194900513,14.7847566604614,14.821475982666,14.858377456665,14.8954629898071,14.9327344894409,14.9701929092407,15.0078401565552,15.0456762313843,15.0837049484253,15.1219253540039,15.1603403091431,15.1989507675171,15.2377586364746,15.2767648696899,15.3159713745117,15.3553800582886,15.3949918746948,15.4348077774048,15.4748315811157,15.5150623321533,15.5555028915405,15.596155166626,15.6370210647583,15.6749601364136,15.6987590789795,15.7491865158081,16.4899024963379,17.2935886383057,0,0,0,0,0,0,0,0,0,0,0,0,0,0,0,0,0,0,0,0,0,0,0,0,0,0,0,0,0,0,0,0,0,0,0,0,0,0,0,0,0,0,0,0,0,0,0,0,0,0,0,0,0,0,0,0,0,0,0,0,0,0,0,0,0,0,0,0,0,0,0,0,0,0,0,0,0,0,0,0,0,0,0,0,0,0,0,0,0,0,0,0,0,0,0,0,0,0,0,0,0,0,0,0,0,0,0,0,0,0,0,0,0,0,0,0,0,0,0,0,0,0,0,0,0,0,0,0,0,0,0,0,0,0,0,0,0,0,0,0,0,0,0,0,0,0,0,0,0,0,0,0,0,0,0,0,0,0,0,0,0,0,0,0,0,0,0,0,0,0,0,0,0,0,0,0,0,0,0,0,0,0,0,0,0,0,0,0,0,0,0,0,0,0,0,0,0,0,0,0,0,0,0,0,0,17.2313079833984,17.1582717895508,17.0858497619629,17.0140380859375,16.9428291320801,16.8722114562988,16.8021812438965,16.7327289581299,16.6638488769531,16.5955333709717,16.5277767181396,16.4605693817139,16.3939075469971,16.3277835845947,16.2621936798096,16.1971282958984,16.1325798034668,16.0685443878174,16.0050163269043,15.941987991333,15.8794546127319,15.8174085617065,15.7558469772339,15.6947622299194,15.6341485977173,15.5740022659302,15.5143165588379,15.4551019668579,15.3963403701782,15.3380155563354,15.2801303863525,15.2226810455322,15.1656618118286,15.1090679168701,15.0528955459595,14.9971389770508,14.9417934417725,14.8868455886841,14.8323068618774,14.7781639099121,14.7244157791138,14.6710567474365,14.6180820465088,14.5654897689819,14.5132741928101,14.4614305496216,14.4099569320679,14.3588485717773,14.3081007003784,14.2577114105225,14.2076749801636,14.1579885482788,14.1086492538452,14.0596513748169,14.0109939575195,13.9626712799072,13.914680480957,13.8670196533203,13.8196830749512,13.772668838501,13.7259740829468,13.679594039917,13.633526802063,13.5877685546875,13.5423164367676,13.4971675872803,13.4523191452026,13.4077672958374,13.3635091781616,13.3195428848267,13.2758646011353,13.2324724197388,13.1893625259399,13.1465320587158,13.1039800643921,13.0617017745972,13.0196962356567,12.9779586791992,12.9364891052246,12.8952827453613,12.8543386459351,12.8136539459229,12.7732257843018,12.7330513000488
13.7923526763916,13.8243026733398,13.8564004898071,13.8886480331421,13.9210453033447,13.953595161438,13.9862966537476,14.0191516876221,14.0521621704102,14.0853281021118,14.1186513900757,14.1521320343018,14.185772895813,14.2195730209351,14.2535352706909,14.2876596450806,14.3219480514526,14.3564014434814,14.3910207748413,14.4258069992065,14.4607629776001,14.4958877563477,14.5311841964722,14.5666532516479,14.602294921875,14.6381120681763,14.6741056442261,14.7102756500244,14.7466249465942,14.7831544876099,14.8198652267456,14.8567590713501,14.8938369750977,14.9311008453369,14.9685506820679,15.0061893463135,15.044017791748,15.0820369720459,15.12024974823,15.1586561203003,15.1972579956055,15.2360572814941,15.2750549316406,15.3142518997192,15.3536520004272,15.3932542800903,15.4330625534058,15.4730758666992,15.513298034668,15.5537300109863,15.5835809707642,15.607102394104,15.6306953430176,15.6543598175049,15.6819715499878,15.7165069580078,16.2588710784912,17.0396633148193,0,0,0,0,0,0,0,0,0,0,0,0,0,0,0,0,0,0,0,0,0,0,0,0,0,0,0,0,0,0,0,0,0,0,0,0,0,0,0,0,0,0,0,0,0,0,0,0,0,0,0,0,0,0,0,0,0,0,0,0,0,0,0,0,0,0,0,0,0,0,0,0,0,0,0,0,0,0,0,0,0,0,0,0,0,0,0,0,0,0,0,0,0,0,0,0,0,0,0,0,0,0,0,0,0,0,0,0,0,0,0,0,0,0,0,0,0,0,0,0,0,0,0,0,0,0,0,0,0,0,0,0,0,0,0,0,0,0,0,0,0,0,0,0,0,0,0,0,0,0,0,0,0,0,0,0,0,0,0,0,0,0,0,0,0,0,0,0,0,0,0,0,0,0,0,0,0,0,0,0,0,0,0,0,0,0,0,0,0,0,0,0,0,0,0,0,0,0,0,0,0,0,0,17.2310028076172,17.1579685211182,17.0855503082275,17.0137405395508,16.942533493042,16.8719177246094,16.8018894195557,16.7324409484863,16.6635627746582,16.595251083374,16.5274963378906,16.4602947235107,16.3936367034912,16.3275165557861,16.2619285583496,16.1968650817871,16.1323184967041,16.068286895752,16.0047588348389,15.9417333602905,15.8792009353638,15.8171577453613,15.7555980682373,15.6945152282715,15.633903503418,15.5737590789795,15.5140752792358,15.4548587799072,15.3961048126221,15.3377819061279,15.2798986434937,15.222451210022,15.165433883667,15.1088418960571,15.0526704788208,14.9969158172607,14.9415721893311,14.8866033554077,14.8320627212524,14.7779340744019,14.7241868972778,14.6708297729492,14.6178579330444,14.5652675628662,14.5130529403687,14.4612121582031,14.4097394943237,14.3586330413818,14.3078870773315,14.2574987411499,14.2074632644653,14.1577787399292,14.1084403991699,14.0594444274902,14.0107879638672,13.9624671936035,13.914478302002,13.8668184280396,13.8194828033447,13.7724704742432,13.7257766723633,13.6793975830078,13.6333322525024,13.5875749588013,13.54212474823,13.496976852417,13.4521293640137,13.4075784683228,13.3633222579956,13.319356918335,13.2756805419922,13.2322883605957,13.1891803741455,13.14635181427,13.1037998199463,13.0615234375,13.0195178985596,12.9777822494507,12.9363136291504,12.8951091766357,12.8541660308838,12.8134822845459,12.7730550765991,12.7328815460205
13.759162902832,13.790958404541,13.822901725769,13.8549928665161,13.8872337341309,13.9196252822876,13.9521675109863,13.98486328125,14.0177116394043,14.0507154464722,14.0838747024536,14.1171903610229,14.1506643295288,14.1842975616455,14.2180910110474,14.2520456314087,14.2861633300781,14.3204441070557,14.3548908233643,14.3895025253296,14.4242820739746,14.4592304229736,14.494348526001,14.529637336731,14.5650978088379,14.6007328033447,14.6365413665771,14.6725273132324,14.7086896896362,14.7450313568115,14.7815532684326,14.8182563781738,14.8551416397095,14.8922109603882,14.9294662475586,14.966908454895,15.0045385360718,15.0423593521118,15.0803699493408,15.1185741424561,15.1569719314575,15.1955652236938,15.2343559265137,15.2733449935913,15.3125333786011,15.3519239425659,15.3915176391602,15.4313163757324,15.4700813293457,15.4932613372803,15.5165109634399,15.5398302078247,15.5632200241089,15.5866804122925,15.6102113723755,15.6348142623901,15.6691417694092,15.7036209106445,16.0342254638672,16.7930850982666,19.9634819030762,0,0,0,0,0,0,0,0,0,0,0,0,0,0,0,0,0,0,0,0,0,0,0,0,0,0,0,0,0,0,0,0,0,0,0,0,0,0,0,0,0,0,0,0,0,0,0,0,0,0,0,0,0,0,0,0,0,0,0,0,0,0,0,0,0,0,0,0,0,0,0,0,0,0,0,0,0,0,0,0,0,0,0,0,0,0,0,0,0,0,0,0,0,0,0,0,0,0,0,0,0,0,0,0,0,0,0,0,0,0,0,0,0,0,0,0,0,0,0,0,0,0,0,0,0,0,0,0,0,0,0,0,0,0,0,0,0,0,0,0,0,0,0,0,0,0,0,0,0,0,0,0,0,0,0,0,0,0,0,0,0,0,0,0,0,0,0,0,0,0,0,0,0,0,0,0,0,0,0,0,0,0,0,0,0,0,0,0,0,0,0,0,0,0,0,0,0,0,0,0,17.2306976318359,17.1576652526855,17.0852508544922,17.0134429931641,16.9422378540039,16.8716259002686,16.8015995025635,16.7321548461914,16.6632823944092,16.5949726104736,16.5272216796875,16.4600219726562,16.393367767334,16.3272495269775,16.2616634368896,16.1966018676758,16.1320571899414,16.0680274963379,16.0045032501221,15.9414777755737,15.8789482116699,15.8169069290161,15.7553482055664,15.6942672729492,15.6336584091187,15.5735158920288,15.5138339996338,15.4546155929565,15.3958625793457,15.3375482559204,15.2796669006348,15.2222213745117,15.1652050018311,15.1086149215698,15.0524454116821,14.9966926574707,14.9413213729858,14.88636302948,14.8318185806274,14.7777042388916,14.7239589691162,14.6706027984619,14.6176328659058,14.5650434494019,14.5128316879272,14.460991859436,14.4095220565796,14.358416557312,14.3076725006104,14.2572860717773,14.2072525024414,14.1575689315796,14.1082324981689,14.0592374801636,14.0105829238892,13.9622631072998,13.9142751693726,13.8666162490845,13.8192834854126,13.7722721099854,13.7255792617798,13.6792020797729,13.6331377029419,13.5873823165894,13.5419321060181,13.4967861175537,13.4519395828247,13.4073905944824,13.3631353378296,13.3191709518433,13.2754955291748,13.232105255127,13.1889982223511,13.1461706161499,13.1036205291748,13.0613451004028,13.0193405151367,12.9776067733765,12.9361381530762,12.8949346542358,12.8539924621582,12.8133106231689,12.7728843688965,12.7327117919922
13.7261323928833,13.7577753067017,13.7895650863647,13.8215017318726,13.8535861968994,13.8858203887939,13.9182052612305,13.950740814209,13.9834299087524,14.0162715911865,14.0492687225342,14.0824203491211,14.1157302856445,14.1491966247559,14.1828231811523,14.216609954834,14.2505569458008,14.28466796875,14.3189420700073,14.3533802032471,14.3879852294922,14.4227571487427,14.4576978683472,14.49280834198,14.5280895233154,14.5635433197021,14.5991697311401,14.6349716186523,14.6709499359131,14.7071046829224,14.7434377670288,14.7799520492554,14.8166465759277,14.8535242080688,14.890585899353,14.9278335571289,14.9652671813965,15.0028886795044,15.0407009124756,15.0787038803101,15.1168985366821,15.1552877426147,15.1938734054565,15.2326545715332,15.271635055542,15.3108148574829,15.3501968383789,15.3810691833496,15.4039821624756,15.4269647598267,15.4500150680542,15.4731349945068,15.4963245391846,15.5195827484131,15.542911529541,15.5663108825684,15.5897798538208,15.6220626831055,15.6563339233398,15.6907567977905,15.7415113449097,16.5535430908203,17.3635959625244,19.8624362945557,19.9403438568115,0,0,0,0,0,0,0,0,0,0,0,0,0,0,0,0,0,0,0,0,0,0,0,0,0,0,0,0,0,0,0,0,0,0,0,0,0,0,0,0,0,0,0,0,0,0,0,0,0,0,0,0,0,0,0,0,0,0,0,0,0,0,0,0,0,0,0,0,0,0,0,0,0,0,0,0,0,0,0,0,0,0,0,0,0,0,0,0,0,0,0,0,0,0,0,0,0,0,0,0,0,0,0,0,0,0,0,0,0,0,0,0,0,0,0,0,0,0,0,0,0,0,0,0,0,0,0,0,0,0,0,0,0,0,0,0,0,0,0,0,0,0,0,0,0,0,0,0,0,0,0,0,0,0,0,0,0,0,0,0,0,0,0,0,0,0,0,0,0,0,0,0,0,0,0,0,0,0,0,0,0,0,0,0,0,0,0,0,0,0,0,0,0,0,0,0,17.2303924560547,17.1573619842529,17.0849494934082,17.0131454467773,16.9419441223145,16.871337890625,16.8013172149658,16.7318744659424,16.6630020141602,16.5946960449219,16.526948928833,16.4597511291504,16.3930969238281,16.3269824981689,16.2613983154297,16.1963386535645,16.1317958831787,16.0677680969238,16.0042457580566,15.9412231445312,15.8786954879761,15.8166561126709,15.7550992965698,15.6940202713013,15.6334133148193,15.5732717514038,15.5135917663574,15.4543714523315,15.3956212997437,15.3373146057129,15.2794351577759,15.2219915390015,15.1649770736694,15.1083889007568,15.0522212982178,14.9964532852173,14.941068649292,14.8861217498779,14.8315801620483,14.777455329895,14.7237300872803,14.6703767776489,14.6174077987671,14.5648202896118,14.5126094818115,14.4607715606689,14.4093036651611,14.3582000732422,14.3074569702148,14.2570724487305,14.2070407867432,14.15735912323,14.1080236434937,14.0590305328369,14.0103769302368,13.9620590209961,13.9140729904175,13.866415977478,13.8190832138062,13.7720737457275,13.7253818511963,13.6790065765381,13.6329431533813,13.5871887207031,13.5417404174805,13.4965953826904,13.4517507553101,13.4072027206421,13.3629484176636,13.3189859390259,13.2753114700317,13.2319221496582,13.1888160705566,13.1459894180298,13.103440284729,13.0611658096313,13.0191631317139,12.9774303436279,12.9359636306763,12.8947610855103,12.8538198471069,12.8131380081177,12.7727136611938,12.7325420379639
13.6932601928711,13.7247514724731,13.7563886642456,13.7881717681885,13.8201017379761,13.8521795272827,13.8844079971313,13.9167852401733,13.949315071106,13.9819965362549,14.0148315429688,14.0478219985962,14.0809669494629,14.1142692565918,14.1477298736572,14.1813488006592,14.2151279449463,14.2490692138672,14.2831726074219,14.3174390792847,14.3518705368042,14.3864679336548,14.4212331771851,14.456166267395,14.4912691116333,14.5265426635742,14.5619888305664,14.5976085662842,14.6334018707275,14.6693725585938,14.7055196762085,14.7418451309204,14.7783508300781,14.815037727356,14.8519077301025,14.8889608383179,14.9261999130249,14.9636259078979,15.0012397766113,15.0390434265137,15.077036857605,15.1152238845825,15.1536054611206,15.1921815872192,15.2309541702271,15.269926071167,15.2930746078491,15.3157262802124,15.3384456634521,15.3612327575684,15.384087562561,15.4070100784302,15.4300012588501,15.4530611038208,15.4761905670166,15.4993886947632,15.5226564407349,15.545994758606,15.5752649307251,15.6093311309814,15.6435470581055,15.6779136657715,15.7124309539795,16.3207378387451,17.1076259613037,19.6858825683594,19.7624073028564,19.8395309448242,19.9172592163086,19.9955978393555,0,0,0,0,0,0,0,0,0,0,0,0,0,0,0,0,0,0,0,0,0,0,0,0,0,0,0,0,0,0,0,0,0,0,0,0,0,0,0,0,0,0,0,0,0,0,0,0,0,0,0,0,0,0,0,0,0,0,0,0,0,0,0,0,0,0,0,0,0,0,0,0,0,0,0,0,0,0,0,0,0,0,0,0,0,0,0,0,0,0,0,0,0,0,0,0,0,0,0,0,0,0,0,0,0,0,0,0,0,0,0,0,0,0,0,0,0,0,0,0,0,0,0,0,0,0,0,0,0,0,0,0,0,0,0,0,0,0,0,0,0,0,0,0,0,0,0,0,0,0,0,0,0,0,0,0,0,0,0,0,0,0,0,0,0,0,0,0,0,0,0,0,0,0,0,0,0,0,0,0,0,0,0,0,0,0,0,0,0,0,0,17.2300872802734,17.1570625305176,17.0846538543701,17.0128555297852,16.9416561126709,16.8710517883301,16.8010330200195,16.7315921783447,16.6627235412598,16.5944213867188,16.5266742706299,16.4594783782959,16.3928279876709,16.3267154693604,16.2611331939697,16.1960754394531,16.1315364837646,16.0675086975098,16.0039882659912,15.9409685134888,15.8784427642822,15.8164052963257,15.7548503875732,15.6937732696533,15.63316822052,15.5730285644531,15.5133504867554,15.4541282653809,15.3953790664673,15.3370752334595,15.2792043685913,15.2217617034912,15.1647491455078,15.1081619262695,15.0519933700562,14.9961977005005,14.940824508667,14.8858814239502,14.8313407897949,14.7771987915039,14.7235021591187,14.6701498031616,14.6171827316284,14.5645961761475,14.5123872756958,14.4605512619019,14.4090843200684,14.357982635498,14.3072414398193,14.2568578720093,14.2068281173706,14.1571483612061,14.1078147888184,14.0588235855103,14.0101718902588,13.9618549346924,13.9138698577881,13.8662137985229,13.8188829421997,13.7718744277954,13.7251844406128,13.6788101196289,13.6327486038208,13.5869951248169,13.5415487289429,13.4964046478271,13.4515609741211,13.4070138931274,13.3627614974976,13.3187999725342,13.2751264572144,13.2317390441895,13.1886339187622,13.145809173584,13.1032609939575,13.0609874725342,13.018985748291,12.9772539138794,12.9357881546021,12.8945865631104,12.8536472320557,12.8129663467407,12.7725429534912,12.7323732376099
13.6605443954468,13.6918859481812,13.7233715057373,13.7550020217896,13.7867784500122,13.8187017440796,13.8507738113403,13.8829946517944,13.9153661727905,13.9478893280029,13.9805641174316,14.0133924484253,14.0463752746582,14.079514503479,14.1128091812134,14.1462631225586,14.1798753738403,14.2136478424072,14.2475814819336,14.2816772460938,14.3159370422363,14.3503608703613,14.3849515914917,14.4197092056274,14.4546346664429,14.4897298812866,14.5249967575073,14.560435295105,14.5960464477539,14.6318330764771,14.6677951812744,14.7039346694946,14.740252494812,14.7767505645752,14.8134298324585,14.8502912521362,14.887336730957,14.9245672225952,14.9619846343994,14.9995899200439,15.0373849868774,15.0753717422485,15.1135501861572,15.1519222259521,15.1837520599365,15.2060813903809,15.228476524353,15.250937461853,15.2734651565552,15.2960586547852,15.3187198638916,15.3414478302002,15.3642444610596,15.3871078491211,15.4100389480591,15.4330396652222,15.456109046936,15.4792470932007,15.5024538040161,15.5287466049194,15.5626096725464,15.5966205596924,15.6307811737061,15.6650915145874,15.6995525360107,16.0287799835205,16.8590927124023,19.5124378204346,19.5876197814941,19.6633815765381,19.7397327423096,19.8166790008545,19.8942260742188,19.9723834991455,0,0,0,0,0,0,0,0,0,0,0,0,0,0,0,0,0,0,0,0,0,0,0,0,0,0,0,0,0,0,0,0,0,0,0,0,0,0,0,0,0,0,0,0,0,0,0,0,0,0,0,0,0,0,0,0,0,0,0,0,0,0,0,0,0,0,0,0,0,0,0,0,0,0,0,0,0,0,0,0,0,0,0,0,0,0,0,0,0,0,0,0,0,0,0,0,0,0,0,0,0,0,0,0,0,0,0,0,0,0,0,0,0,0,0,0,0,0,0,0,0,0,0,0,0,0,0,0,0,0,0,0,0,0,0,0,0,0,0,0,0,0,0,0,0,0,0,0,0,0,0,0,0,0,0,0,0,0,0,0,0,0,0,0,0,0,0,0,0,0,0,0,0,0,0,0,0,0,0,0,0,0,0,0,0,0,0,17.2297687530518,17.1567497253418,17.0843563079834,17.012565612793,16.9413681030273,16.8707656860352,16.8007507324219,16.7313117980957,16.6624450683594,16.594144821167,16.5263996124268,16.45920753479,16.3925590515137,16.3264465332031,16.2608661651611,16.1958122253418,16.131275177002,16.0672492980957,16.0037307739258,15.940712928772,15.8781890869141,15.8161544799805,15.7546014785767,15.6935262680054,15.6329231262207,15.5727853775024,15.5131092071533,15.4538879394531,15.3951377868652,15.3368358612061,15.2789726257324,15.221531867981,15.1645212173462,15.1079359054565,15.0517358779907,14.995943069458,14.9405813217163,14.8856401443481,14.8311023712158,14.7769613265991,14.7232484817505,14.6699228286743,14.6169576644897,14.5643730163574,14.5121650695801,14.4603309631348,14.4088659286499,14.3577651977539,14.3070259094238,14.2566442489624,14.206615447998,14.1569375991821,14.1076049804688,14.0586156845093,14.0099649429321,13.9616498947144,13.913667678833,13.8660125732422,13.8186836242676,13.7716760635376,13.7249879837036,13.678614616394,13.6325540542603,13.586802482605,13.5413570404053,13.4962139129639,13.4513721466064,13.4068260192871,13.3625745773315,13.3186140060425,13.2749423980713,13.2315559387207,13.1884517669678,13.1456279754639,13.1030807495117,13.060809135437,13.0188083648682,12.9770774841309,12.9356126785278,12.8944129943848,12.8534746170044,12.8127946853638,12.7723722457886,12.7322034835815
13.6279850006104,13.6591768264771,13.6905117034912,13.7219905853271,13.7536153793335,13.7853851318359,13.8173027038574,13.8493680953979,13.8815822601318,13.9139471054077,13.9464635848999,13.9791316986084,14.0119533538818,14.0449295043945,14.0780611038208,14.1113500595093,14.14479637146,14.1784019470215,14.2121667861938,14.24609375,14.2801818847656,14.314435005188,14.3488521575928,14.3834352493286,14.4181852340698,14.4531030654907,14.4881916046143,14.5234498977661,14.5588808059692,14.5944852828979,14.6302642822266,14.6662187576294,14.7023506164551,14.7386598587036,14.7751502990723,14.8118209838867,14.8486747741699,14.8857126235962,14.9229345321655,14.9603443145752,14.9979419708252,15.0357284545898,15.0737056732178,15.0979948043823,15.1200723648071,15.1422147750854,15.1644220352173,15.1866941452026,15.2090320587158,15.2314357757568,15.2539052963257,15.2764415740967,15.2990446090698,15.3217144012451,15.3444519042969,15.3672561645508,15.3901290893555,15.4130697250366,15.4360790252686,15.4591569900513,15.4825048446655,15.5161666870117,15.5499753952026,15.5839309692383,15.6180353164673,15.652289390564,15.6866941452026,15.7338447570801,16.61767578125,17.4341735839844,19.4158954620361,19.4903335571289,19.5653438568115,19.6409339904785,19.7171096801758,19.7938785552979,19.8712482452393,19.9492244720459,0,0,0,0,0,0,0,0,0,0,0,0,0,0,0,0,0,0,0,0,0,0,0,0,0,0,0,0,0,0,0,0,0,0,0,0,0,0,0,0,0,0,0,0,0,0,0,0,0,0,0,0,0,0,0,0,0,0,0,0,0,0,0,0,0,0,0,0,0,0,0,0,0,0,0,0,0,0,0,0,0,0,0,0,0,0,0,0,0,0,0,0,0,0,0,0,0,0,0,0,0,0,0,0,0,0,0,0,0,0,0,0,0,0,0,0,0,0,0,0,0,0,0,0,0,0,0,0,0,0,0,0,0,0,0,0,0,0,0,0,0,0,0,0,0,0,0,0,0,0,0,0,0,0,0,0,0,0,0,0,0,0,0,0,0,0,0,0,0,0,0,0,0,0,0,0,0,0,0,0,0,0,0,17.2294445037842,17.1564292907715,17.0840301513672,17.0122413635254,16.9410591125488,16.8704700469971,16.8004665374756,16.7310314178467,16.662166595459,16.5938682556152,16.5261268615723,16.4589347839355,16.3922882080078,16.3261795043945,16.2606010437012,16.1955490112305,16.1310138702393,16.0669918060303,16.003475189209,15.9404582977295,15.8779363632202,15.8159027099609,15.7543525695801,15.6932792663574,15.6326780319214,15.5725421905518,15.5128679275513,15.4536485671997,15.3948955535889,15.3365955352783,15.2787351608276,15.2213020324707,15.1642932891846,15.10768699646,15.0514793395996,14.9956874847412,14.9403390884399,14.8853998184204,14.8308629989624,14.7767248153687,14.7229919433594,14.6696920394897,14.6167316436768,14.5641489028931,14.5119438171387,14.4601106643677,14.4086465835571,14.3575477600098,14.3068103790283,14.2564296722412,14.2064027786255,14.1567258834839,14.1073951721191,14.058406829834,14.0097579956055,13.9614448547363,13.913462638855,13.8658103942871,13.8184823989868,13.7714767456055,13.7247905731201,13.6784191131592,13.6323595046997,13.5866088867188,13.5411643981934,13.4960231781006,13.4511823654175,13.4066381454468,13.3623876571655,13.3184289932251,13.2747573852539,13.231372833252,13.1882696151733,13.1454467773438,13.1029014587402,13.0606307983398,13.0186309814453,12.9769010543823,12.9354381561279,12.8942384719849,12.8533010482788,12.8126230239868,12.7722005844116,12.7320337295532
13.5955810546875,13.6266241073608,13.6578102111816,13.6891384124756,13.7206106185913,13.7522287368774,13.783992767334,13.8159036636353,13.8479623794556,13.8801698684692,13.9125280380249,13.9450378417969,13.9776992797852,14.0105142593384,14.0434837341309,14.0766086578369,14.1098909378052,14.1433296203613,14.1769285202026,14.2106866836548,14.2446060180664,14.2786874771118,14.3129329681396,14.3473434448242,14.3819189071655,14.4166612625122,14.4515724182129,14.4866533279419,14.5219049453735,14.5573282241821,14.592924118042,14.6286954879761,14.6646423339844,14.7007656097412,14.7370681762695,14.7735500335693,14.8102130889893,14.8470592498779,14.8840885162354,14.9213027954102,14.958703994751,14.99143409729,15.0132007598877,15.0350303649902,15.0569248199463,15.0788822174072,15.1009035110474,15.122989654541,15.1451406478882,15.1673564910889,15.1896371841431,15.2119836807251,15.234395980835,15.2568740844727,15.2794198989868,15.3020315170288,15.3247098922729,15.3474559783936,15.3702697753906,15.3931512832642,15.4161014556885,15.4391193389893,15.4700002670288,15.503607749939,15.5373611450195,15.5712614059448,15.6053104400635,15.6395092010498,15.6738576889038,15.7083578109741,16.3267269134521,17.1761341094971,19.2471580505371,19.3203029632568,19.3940086364746,19.4682769775391,19.5431175231934,19.6185359954834,19.6945381164551,19.7711315155029,19.8483238220215,19.926118850708,0,0,0,0,0,0,0,0,0,0,0,0,0,0,0,0,0,0,0,0,0,0,0,0,0,0,0,0,0,0,0,0,0,0,0,0,0,0,0,0,0,0,0,0,0,0,0,0,0,0,0,0,0,0,0,0,0,0,0,0,0,0,0,0,0,0,0,0,0,0,0,0,0,0,0,0,0,0,0,0,0,0,0,0,0,0,0,0,0,0,0,0,0,0,0,0,0,0,0,0,0,0,0,0,0,0,0,0,0,0,0,0,0,0,0,0,0,0,0,0,0,0,0,0,0,0,0,0,0,0,0,0,0,0,0,0,0,0,0,0,0,0,0,0,0,0,0,0,0,0,0,0,0,0,0,0,0,0,0,0,0,0,0,0,0,0,0,0,0,0,0,0,0,0,0,0,0,0,0,17.2291202545166,17.1561088562012,17.0837135314941,17.0119247436523,16.9407386779785,16.8701477050781,16.8001480102539,16.7307243347168,16.6618747711182,16.5935878753662,16.5258522033691,16.4586639404297,16.3920192718506,16.3259124755859,16.2603359222412,16.1952857971191,16.1307525634766,16.0667324066162,16.0032176971436,15.940203666687,15.8776836395264,15.8156518936157,15.7541036605835,15.6930322647095,15.6324319839478,15.5722990036011,15.5126266479492,15.4534091949463,15.3946542739868,15.3363561630249,15.2784976959229,15.2210721969604,15.1640558242798,15.1074285507202,15.0512218475342,14.9954414367676,14.9400968551636,14.8851594924927,14.8306245803833,14.7764873504639,14.7227439880371,14.6694374084473,14.6165065765381,14.563925743103,14.5117216110229,14.4598903656006,14.4084281921387,14.3573303222656,14.3065948486328,14.25621509552,14.2061901092529,14.15651512146,14.1071853637695,14.058198928833,14.0095510482788,13.961238861084,13.9132595062256,13.8656072616577,13.8182821273804,13.7712774276733,13.7245922088623,13.6782217025757,13.6321640014648,13.5864152908325,13.5409727096558,13.4958324432373,13.4509925842285,13.4064502716064,13.3622007369995,13.3182430267334,13.2745733261108,13.2311887741089,13.1880874633789,13.1452665328979,13.1027221679688,13.0604515075684,13.0184535980225,12.9767246246338,12.9352626800537,12.8940649032593,12.8531284332275,12.8124513626099,12.772029876709,12.7318639755249
13.5633296966553,13.5942258834839,13.6252632141113,13.6564426422119,13.68776512146,13.7192316055298,13.7508430480957,13.782600402832,13.8145046234131,13.8465566635132,13.878758430481,13.9111099243164,13.9436130523682,13.9762678146362,14.0090761184692,14.0420389175415,14.0751571655273,14.1084318161011,14.141863822937,14.1754550933838,14.2092065811157,14.2431192398071,14.2771940231323,14.3114318847656,14.3458347320557,14.3804025650024,14.4151382446289,14.4500417709351,14.4851150512695,14.5203590393066,14.5557746887207,14.5913639068604,14.6271266937256,14.6630659103394,14.699182510376,14.7354764938354,14.7719507217407,14.8086061477661,14.8454437255859,14.8824644088745,14.907829284668,14.9293537139893,14.9509401321411,14.9725894927979,14.9943017959595,15.016077041626,15.0379152297974,15.0598173141479,15.0817832946777,15.1038131713867,15.1259078979492,15.1480674743652,15.1702919006348,15.1925811767578,15.2149362564087,15.2373571395874,15.2598447799683,15.282398223877,15.3050193786621,15.3277063369751,15.3504619598389,15.3732843399048,15.3961744308472,15.4241075515747,15.4575157165527,15.4910688400269,15.5247678756714,15.5586128234863,15.5926074981689,15.6267499923706,15.6610422134399,15.6954851150513,16.0208301544189,16.9256191253662,19.0813255310059,19.1532154083252,19.2256488800049,19.2986316680908,19.3721714019775,19.4462718963623,19.5209426879883,19.5961894989014,19.6720180511475,19.7484359741211,19.8254508972168,19.9030666351318,19.981294631958,0,0,0,0,0,0,0,0,0,0,0,0,0,0,0,0,0,0,0,0,0,0,0,0,0,0,0,0,0,0,0,0,0,0,0,0,0,0,0,0,0,0,0,0,0,0,0,0,0,0,0,0,0,0,0,0,0,0,0,0,0,0,0,0,0,0,0,0,0,0,0,0,0,0,0,0,0,0,0,0,0,0,0,0,0,0,0,0,0,0,0,0,0,0,0,0,0,0,0,0,0,0,0,0,0,0,0,0,0,0,0,0,0,0,0,0,0,0,0,0,0,0,0,0,0,0,0,0,0,0,0,0,0,0,0,0,0,0,0,0,0,0,0,0,0,0,0,0,0,0,0,0,0,0,0,0,0,0,0,0,0,0,0,0,0,0,0,0,0,0,0,0,0,0,17.2287979125977,17.1557884216309,17.0833950042725,17.0116100311279,16.9404258728027,16.8698348999023,16.7998294830322,16.7304077148438,16.6615600585938,16.5932750701904,16.5255489349365,16.4583740234375,16.3917407989502,16.3256454467773,16.2600708007812,16.1950225830078,16.1304912567139,16.0664730072021,16.0029602050781,15.9399480819702,15.8774309158325,15.8154010772705,15.7538547515869,15.6927852630615,15.6321868896484,15.5720558166504,15.5123844146729,15.4531698226929,15.3944120407104,15.3361158370972,15.2782592773438,15.2208375930786,15.2134666442871,15.2130613327026,15.2126569747925,15.2122526168823,15.2118482589722,14.8849182128906,14.8303852081299,14.7762498855591,14.722508430481,14.6691827774048,14.6162710189819,14.563702583313,14.5114994049072,14.4596700668335,14.4082088470459,14.3571138381958,14.306378364563,14.2560014724731,14.2059774398804,14.1563034057617,14.1069755554199,14.0579900741577,14.0093441009521,13.961033821106,13.9130554199219,13.8654050827026,13.8180799484253,13.7710771560669,13.7243938446045,13.6780242919922,13.63196849823,13.586220741272,13.5407800674438,13.495641708374,13.4508037567139,13.4062614440918,13.3620138168335,13.3180570602417,13.2743892669678,13.2310056686401,13.1879053115845,13.1450853347778,13.1025419235229,13.0602731704712,13.0182762145996,12.9765481948853,12.9350872039795,12.8938903808594,12.852954864502,12.8122787475586,12.7718591690063,12.7316942214966
13.531231880188,13.5619821548462,13.5928716659546,13.6239032745361,13.6550760269165,13.6863918304443,13.7178516387939,13.749457359314,13.7812080383301,13.8131055831909,13.8451519012451,13.8773469924927,13.9096918106079,13.9421873092651,13.9748363494873,14.0076379776001,14.0405931472778,14.0737047195435,14.106972694397,14.1403980255127,14.1739826202393,14.207727432251,14.2416324615479,14.2756996154785,14.3099308013916,14.3443260192871,14.3788871765137,14.4136152267456,14.4485120773315,14.4835777282715,14.5188140869141,14.5542221069336,14.5898036956787,14.6255588531494,14.6614904403687,14.6975984573364,14.7338857650757,14.7703514099121,14.8039264678955,14.8251523971558,14.8464384078979,14.8677854537964,14.8891944885254,14.910665512085,14.9321975708008,14.9537925720215,14.9754505157471,14.9971704483032,15.0189542770386,15.0408010482788,15.0627117156982,15.0846862792969,15.1067247390747,15.1288270950317,15.1509952545166,15.173228263855,15.1955261230469,15.2178907394409,15.2403202056885,15.2628164291382,15.2853784561157,15.3080081939697,15.3307046890259,15.3534688949585,15.3784866333008,15.4116973876953,15.4450511932373,15.4785499572754,15.5121946334839,15.5459852218628,15.5799236297607,15.6140108108521,15.648247718811,15.6826343536377,15.726185798645,16.6359615325928,17.5053272247314,18.98899269104,19.0601863861084,19.1319160461426,19.2041873931885,19.2770080566406,19.3503818511963,19.42431640625,19.4988193511963,19.5738945007324,19.6495494842529,19.725793838501,19.8026313781738,19.8800678253174,19.9581146240234,0,0,0,0,0,0,0,0,0,0,0,0,0,0,0,0,0,0,0,0,0,0,0,0,0,0,0,0,0,0,0,0,0,0,0,0,0,0,0,0,0,0,0,0,0,0,0,0,0,0,0,0,0,0,0,0,0,0,0,0,0,0,0,0,0,0,0,0,0,0,0,0,0,0,0,0,0,0,0,0,0,0,0,0,0,0,0,0,0,0,0,0,0,0,0,0,0,0,0,0,0,0,0,0,0,0,0,0,0,0,0,0,0,0,0,0,0,0,0,0,0,0,0,0,0,0,0,0,0,0,0,0,0,0,0,0,0,0,0,0,0,0,0,0,0,0,0,0,0,0,0,0,0,0,0,0,0,0,0,0,0,0,0,0,0,0,0,0,0,0,17.2284736633301,17.1554679870605,17.0830764770508,17.0112953186035,16.940113067627,16.8695240020752,16.7995223999023,16.7300987243652,16.6612453460693,16.5929641723633,16.525239944458,16.4580669403076,16.3914375305176,16.3253440856934,16.2597827911377,16.1947460174561,16.1302280426025,16.0662136077881,16.0027046203613,15.9396934509277,15.8771772384644,15.8151502609253,15.7536058425903,15.6925382614136,15.6319417953491,15.5718126296997,15.5121431350708,15.4529304504395,15.3941707611084,15.3358764648438,15.278021812439,15.247444152832,15.2470445632935,15.2466449737549,15.2462453842163,15.0663642883301,15.010721206665,14.9555082321167,14.9007196426392,14.8463306427002,14.7222728729248,14.6689281463623,14.6160182952881,14.5634784698486,14.5112771987915,14.4594497680664,14.4079904556274,14.3568964004517,14.3061628341675,14.255786895752,14.2057647705078,14.1560926437378,14.1067657470703,14.0577821731567,14.0091371536255,13.9608278274536,13.9128513336182,13.8652019500732,13.8178787231445,13.7708778381348,13.7241945266724,13.677827835083,13.6317729949951,13.5860261917114,13.5405864715576,13.4954500198364,13.4506130218506,13.4060726165771,13.3618259429932,13.31787109375,13.2742042541504,13.2308225631714,13.18772315979,13.1449041366577,13.1023626327515,13.060094833374,13.0180988311768,12.976372718811,12.9349126815796,12.8937168121338,12.8527822494507,12.8121070861816,12.7716884613037,12.7315244674683
13.499285697937,13.5298900604248,13.5606336593628,13.5915174484253,13.6225423812866,13.6537094116211,13.685019493103,13.7164726257324,13.7480716705322,13.7798156738281,13.8117074966431,13.8437471389771,13.8759355545044,13.9082736968994,13.9407634735107,13.9734048843384,14.006199836731,14.0391492843628,14.0722532272339,14.1055145263672,14.1389331817627,14.1725101470947,14.2062473297119,14.2401456832886,14.274206161499,14.3084297180176,14.3428182601929,14.3773717880249,14.4120931625366,14.446982383728,14.4820404052734,14.5172691345215,14.5526695251465,14.5882434844971,14.6239910125732,14.6599149703979,14.6960153579712,14.7223949432373,14.7433862686157,14.7644386291504,14.785551071167,14.8067235946655,14.827956199646,14.849250793457,14.8706064224243,14.8920230865479,14.9135026931763,14.9350433349609,14.9566459655762,14.9783124923706,15.0000410079956,15.0218324661255,15.0436878204346,15.0656070709229,15.087589263916,15.1096363067627,15.1317481994629,15.1539249420166,15.1761665344238,15.1984729766846,15.2208452224731,15.2432842254639,15.2657890319824,15.2883605957031,15.310998916626,15.333703994751,15.3661489486694,15.3993062973022,15.4326066970825,15.4660511016846,15.499641418457,15.5333776473999,15.5672607421875,15.6012926101685,15.6354732513428,15.6698045730591,15.7042865753174,16.3184795379639,17.2451915740967,18.8275623321533,18.8975486755371,18.9680557250977,19.0390930175781,19.1106643676758,19.1827754974365,19.2554321289062,19.3286418914795,19.4024105072021,19.4767436981201,19.5516490936279,19.6271324157715,19.7032012939453,19.7798633575439,19.8571224212646,19.9349880218506,0,0,0,0,0,0,0,0,0,0,0,0,0,0,0,0,0,0,0,0,0,0,0,0,0,0,0,0,0,0,0,0,0,0,0,0,0,0,0,0,0,0,0,0,0,0,0,0,0,0,0,0,0,0,0,0,0,0,0,0,0,0,0,0,0,0,0,0,0,0,0,0,0,0,0,0,0,0,0,0,0,0,0,0,0,0,0,0,0,0,0,0,0,0,0,0,0,0,0,0,0,0,0,0,0,0,0,0,0,0,0,0,0,0,0,0,0,0,0,0,0,0,0,0,0,0,0,0,0,0,0,0,0,0,0,0,0,0,0,0,0,0,0,0,0,0,0,0,0,0,0,0,0,0,0,0,0,0,0,0,0,0,0,0,0,0,17.2281513214111,17.1551456451416,17.0827579498291,17.0109786987305,16.9398002624512,16.8692150115967,16.7992153167725,16.729793548584,16.6609439849854,16.5926570892334,16.5249309539795,16.4577598571777,16.3911323547363,16.3250427246094,16.2594833374023,16.1944484710693,16.1299324035645,16.0659275054932,16.0024299621582,15.9394311904907,15.8769245147705,15.8148994445801,15.7533569335938,15.6922912597656,15.6316967010498,15.571569442749,15.5119018554688,15.4526901245117,15.3939294815063,15.335636138916,15.2815732955933,15.2811717987061,15.2807703018188,15.2803688049316,15.1220998764038,15.0660858154297,15.0104856491089,14.9552946090698,14.9005069732666,14.8461198806763,14.7921285629272,14.7385282516479,14.6157655715942,14.5632381439209,14.5110559463501,14.4592294692993,14.407772064209,14.3566789627075,14.305947303772,14.2555732727051,14.2055521011353,14.1558809280396,14.1065559387207,14.0575742721558,14.0089311599731,13.9606227874756,13.9126472473145,13.8649997711182,13.8176774978638,13.7706775665283,13.7239961624146,13.6776304244995,13.6315765380859,13.5858316421509,13.5403938293457,13.4952573776245,13.4504222869873,13.4058828353882,13.3616380691528,13.317684173584,13.274019241333,13.2306385040283,13.1875410079956,13.1447229385376,13.1021823883057,13.0599164962769,13.0179214477539,12.9761962890625,12.9347372055054,12.8935422897339,12.8526096343994,12.8119354248047,12.7715177536011,12.7313547134399
13.4674892425537,13.4979496002197,13.5285491943359,13.5592861175537,13.5901641845703,13.6211824417114,13.65234375,13.6836471557617,13.7150945663452,13.7466859817505,13.7784242630005,13.8103094100952,13.842342376709,13.8745241165161,13.9068555831909,13.939338684082,13.9719734191895,14.0047616958618,14.0377044677734,14.0708017349243,14.1040563583374,14.1374683380127,14.1710386276245,14.2047681808472,14.2386598587036,14.2727127075195,14.3069295883179,14.3413105010986,14.3758573532104,14.4105710983276,14.4454526901245,14.4805030822754,14.5157241821289,14.5511178970337,14.5866832733154,14.6210517883301,14.6417560577393,14.6625185012817,14.6833400726318,14.7042207717896,14.7251605987549,14.7461605072021,14.7672204971313,14.7883405685425,14.8095207214355,14.8307619094849,14.8520641326904,14.8734283447266,14.8948535919189,14.9163408279419,14.9378890991211,14.9595012664795,14.9811744689941,15.002911567688,15.0247116088867,15.0465755462646,15.0685033798218,15.0904941558838,15.1125497817993,15.1346702575684,15.1568546295166,15.1791048049927,15.2014207839966,15.223801612854,15.2462491989136,15.268762588501,15.2913427352905,15.3208694458008,15.3538312911987,15.3869352340698,15.4201822280884,15.4535732269287,15.4871091842651,15.520791053772,15.5546188354492,15.5885953903198,15.6227207183838,15.6569948196411,15.6914205551147,16.0128898620605,16.9571361541748,18.668851852417,18.7376613616943,18.8069801330566,18.8768119812012,18.9471664428711,19.0180473327637,19.0894584655762,19.1614093780518,19.2339038848877,19.3069496154785,19.3805522918701,19.454719543457,19.5294551849365,19.6047668457031,19.6806621551514,19.7571487426758,19.8342304229736,19.9119167327881,19.990213394165,0,0,0,0,0,0,0,0,0,0,0,0,0,0,0,0,0,0,0,0,0,0,0,0,0,0,0,0,0,0,0,0,0,0,0,0,0,0,0,0,0,0,0,0,0,0,0,0,0,0,0,0,0,0,0,0,0,0,0,0,0,0,0,0,0,0,0,0,0,0,0,0,0,0,0,0,0,0,0,0,0,0,0,0,0,0,0,0,0,0,0,0,0,0,0,0,0,0,0,0,0,0,0,0,0,0,0,0,0,0,0,0,0,0,0,0,0,0,0,0,0,0,0,0,0,0,0,0,0,0,0,0,0,0,0,0,0,0,0,0,0,0,0,0,0,0,0,0,0,0,0,0,0,0,0,0,0,0,0,0,0,17.2278270721436,17.1548252105713,17.0824413299561,17.0106639862061,16.9394874572754,16.8689041137695,16.7989063262939,16.7294883728027,16.6606407165527,16.592357635498,16.5246315002441,16.4574565887451,16.3908290863037,16.3247413635254,16.259183883667,16.1941528320312,16.129638671875,16.0656356811523,16.002140045166,15.9391441345215,15.8766412734985,15.8146276473999,15.7530965805054,15.692042350769,15.6314516067505,15.5713262557983,15.5116605758667,15.4524507522583,15.3936910629272,15.3353967666626,15.3154525756836,15.3150491714478,15.3146457672119,15.1782970428467,15.1218748092651,15.0658683776855,15.0102701187134,14.9550800323486,14.900294303894,14.8459091186523,14.7919187545776,14.7383193969727,14.6851081848145,14.6324691772461,14.5108337402344,14.4590091705322,14.4075527191162,14.3564615249634,14.3057317733765,14.2553586959839,14.2053394317627,14.1556701660156,14.1063470840454,14.0573654174805,14.0087242126465,13.9604177474976,13.9124431610107,13.8647975921631,13.817476272583,13.7704782485962,13.7237977981567,13.677433013916,13.6313810348511,13.5856370925903,13.5402002334595,13.4950656890869,13.450231552124,13.4056930541992,13.3614501953125,13.317497253418,13.2738332748413,13.2304544448853,13.1873579025269,13.1445417404175,13.1020021438599,13.0597372055054,13.0177440643311,12.976019859314,12.9345626831055,12.8933687210083,12.8524370193481,12.8117637634277,12.7713470458984,12.7311849594116
13.4358425140381,13.4661598205566,13.4966144561768,13.5272073745728,13.5579385757446,13.5888109207153,13.6198234558105,13.6509771347046,13.6822748184204,13.7137155532837,13.7453012466431,13.7770328521729,13.8089113235474,13.8409376144409,13.8731136322021,13.9054384231567,13.9379148483276,13.9705429077148,14.003324508667,14.0362606048584,14.0693511962891,14.1025981903076,14.1360034942627,14.1695671081543,14.2032899856567,14.2371740341187,14.2712202072144,14.3054294586182,14.3398036956787,14.374342918396,14.4090490341187,14.443922996521,14.4789667129517,14.5141801834106,14.5415163040161,14.5619955062866,14.5825319290161,14.6031274795532,14.6237802505493,14.6444911956787,14.66526222229,14.6860904693604,14.7069797515869,14.7279272079468,14.7489347457886,14.7700033187866,14.7911310195923,14.8123197555542,14.833568572998,14.8548793792725,14.8762512207031,14.89768409729,14.9191799163818,14.9407367706299,14.9623565673828,14.9840393066406,15.005784034729,15.0275926589966,15.049464225769,15.071400642395,15.0934000015259,15.1154642105103,15.1375932693481,15.1597862243652,15.1820449829102,15.2043695449829,15.2267589569092,15.2492151260376,15.2758560180664,15.3086242675781,15.3415336608887,15.374584197998,15.4077777862549,15.4411153793335,15.4745969772339,15.5082235336304,15.5419979095459,15.5759191513062,15.6099882125854,15.6442070007324,15.6785764694214,15.7185335159302,16.6273994445801,17.5770626068115,18.5804576873779,18.6486148834229,18.7172756195068,18.7864437103271,18.8561229705811,18.9263229370117,18.9970474243164,19.0683002471924,19.1400928497314,19.2124252319336,19.2853088378906,19.3587455749512,19.4327449798584,19.5073108673096,19.5824527740479,19.6581745147705,19.7344856262207,19.8113899230957,19.8888969421387,19.9670124053955,0,0,0,0,0,0,0,0,0,0,0,0,0,0,0,0,0,0,0,0,0,0,0,0,0,0,0,0,0,0,0,0,0,0,0,0,0,0,0,0,0,0,0,0,0,0,0,0,0,0,0,0,0,0,0,0,0,0,0,0,0,0,0,0,0,0,0,0,0,0,0,0,0,0,0,0,0,0,0,0,0,0,0,0,0,0,0,0,0,0,0,0,0,0,0,0,0,0,0,0,0,0,0,0,0,0,0,0,0,0,0,0,0,0,0,0,0,0,0,0,0,0,0,0,0,0,0,0,0,0,0,0,0,0,0,0,0,0,0,0,0,0,0,0,0,0,0,0,0,0,0,0,0,0,0,0,0,17.227502822876,17.154504776001,17.0821228027344,17.010347366333,16.9391746520996,16.8685932159424,16.7985992431641,16.7291831970215,16.6603374481201,16.5920581817627,16.5243339538574,16.457160949707,16.3905334472656,16.32444190979,16.2588844299316,16.1938552856445,16.1293430328369,16.0653438568115,16.0018501281738,15.9388561248779,15.8763561248779,15.8143444061279,15.752815246582,15.6917629241943,15.6311826705933,15.5710678100586,15.5114135742188,15.4522113800049,15.3934535980225,15.3498878479004,15.3494825363159,15.3490772247314,15.2349185943604,15.1780519485474,15.1216316223145,15.0656299591064,15.0100402832031,14.9548597335815,14.9000816345215,14.8456974029541,14.791708946228,14.7381114959717,14.6849012374878,14.6320753097534,14.5950870513916,14.4587888717651,14.4073343276978,14.3562440872192,14.305516242981,14.255145072937,14.2051267623901,14.1554584503174,14.1061372756958,14.0571575164795,14.0085172653198,13.9602117538452,13.912239074707,13.8645944595337,13.8172750473022,13.7702779769897,13.7235994338989,13.6772365570068,13.6311855316162,13.5854425430298,13.5400066375732,13.4948740005493,13.4500408172607,13.4055042266846,13.3612613677979,13.317310333252,13.2736473083496,13.2302694320679,13.1871747970581,13.144359588623,13.1018209457397,13.0595569610596,13.0175657272339,12.9758424758911,12.9343862533569,12.8931941986084,12.8522634506226,12.8115921020508,12.7711763381958,12.7310152053833
13.4043445587158,13.4345197677612,13.4648313522339,13.4952802658081,13.5258665084839,13.5565919876099,13.5874576568604,13.6184635162354,13.6496114730835,13.6809024810791,13.7123374938965,13.7439165115356,13.7756423950195,13.8075141906738,13.8395338058472,13.8717031478882,13.9040212631226,13.9364910125732,13.9691123962402,14.0018873214722,14.0348167419434,14.0679006576538,14.1011409759521,14.1345386505127,14.1680955886841,14.2018117904663,14.2356882095337,14.2697277069092,14.3039302825928,14.3382959365845,14.3728284835815,14.4075269699097,14.4423942565918,14.4628419876099,14.483099937439,14.5034141540527,14.5237855911255,14.5442152023315,14.5647010803223,14.5852460861206,14.6058483123779,14.6265087127686,14.6472282409668,14.6680059432983,14.6888427734375,14.7097396850586,14.7306957244873,14.7517108917236,14.7727861404419,14.7939224243164,14.8151197433472,14.8363761901855,14.8576955795288,14.879075050354,14.9005165100098,14.9220199584961,14.943585395813,14.9652128219604,14.9869041442871,15.0086574554443,15.0304746627808,15.0523548126221,15.0742988586426,15.0963068008423,15.1183795928955,15.1405172348022,15.1627187728882,15.184986114502,15.2073192596436,15.2311067581177,15.2636833190918,15.2963991165161,15.3292551040649,15.3622531890869,15.395393371582,15.4286766052246,15.4621047973633,15.495677947998,15.5293970108032,15.5632629394531,15.5972766876221,15.6314401626587,15.665753364563,15.7002172470093,16.3102416992188,17.2909564971924,18.4258708953857,18.4928970336914,18.5604133605957,18.6284236907959,18.6969337463379,18.7659511566162,18.8354797363281,18.9055252075195,18.9760932922363,19.0471897125244,19.1188220977783,19.1909942626953,19.2637138366699,19.336986541748,19.4108180999756,19.4852180480957,19.560188293457,19.6357383728027,19.7118740081787,19.7886028289795,19.865930557251,19.9438648223877,0,0,0,0,0,0,0,0,0,0,0,0,0,0,0,0,0,0,0,0,0,0,0,0,0,0,0,0,0,0,0,0,0,0,0,0,0,0,0,0,0,0,0,0,0,0,0,0,0,0,0,0,0,0,0,0,0,0,0,0,0,0,0,0,0,0,0,0,0,0,0,0,0,0,0,0,0,0,0,0,0,0,0,0,0,0,0,0,0,0,0,0,0,0,0,0,0,0,0,0,0,0,0,0,0,0,0,0,0,0,0,0,0,0,0,0,0,0,0,0,0,0,0,0,0,0,0,0,0,0,0,0,0,0,0,0,0,0,0,0,0,0,0,0,0,0,0,0,0,0,0,0,0,17.227180480957,17.1541843414307,17.0818042755127,17.0100326538086,16.9388618469238,16.8682842254639,16.7982921600342,16.7288780212402,16.6600360870361,16.5917568206787,16.5240364074707,16.4568672180176,16.3902397155762,16.3241500854492,16.2585926055908,16.1935596466064,16.1290493011475,16.0650520324707,16.0015602111816,15.9385681152344,15.8760709762573,15.814061164856,15.752534866333,15.6914844512939,15.6309061050415,15.5707931518555,15.5111408233643,15.4519443511963,15.3931980133057,15.3734369277954,15.3731517791748,15.3728675842285,15.2346382141113,15.1778078079224,15.1213893890381,15.0653886795044,15.009801864624,14.9546232223511,14.899847984314,14.8454732894897,14.7914943695068,14.7379035949707,14.6846952438354,14.6318683624268,14.5794239044189,14.4585733413696,14.4071187973022,14.356029510498,14.3053016662598,14.2549304962158,14.2049140930176,14.1552476882935,14.1059274673462,14.0569496154785,14.0083103179932,13.9600067138672,13.9120349884033,13.8643922805786,13.8170738220215,13.7700786590576,13.7234010696411,13.6770391464233,13.630989074707,13.5852489471436,13.5398139953613,13.4946823120117,13.4498500823975,13.4053144454956,13.3610734939575,13.3171234130859,13.2734613418579,13.2300853729248,13.186990737915,13.1441774368286,13.1016397476196,13.0593776702881,13.0173864364624,12.9756650924683,12.9342098236084,12.8930187225342,12.8520889282227,12.8114194869995,12.7710056304932,12.730845451355
13.3732738494873,13.4030275344849,13.4331970214844,13.4635028839111,13.4939451217651,13.524525642395,13.5552453994751,13.5861043930054,13.6171045303345,13.6482458114624,13.6795310974121,13.7109594345093,13.7425327301025,13.7742509841919,13.8061170578003,13.8381299972534,13.8702926635742,13.9026050567627,13.9350681304932,13.9676828384399,14.0004510879517,14.0333728790283,14.0664501190186,14.0996837615967,14.133074760437,14.1666240692139,14.2003335952759,14.234203338623,14.268235206604,14.3024301528931,14.3367900848389,14.365029335022,14.3850135803223,14.4050540924072,14.4251499176025,14.4453020095825,14.4655113220215,14.4857759475708,14.5060987472534,14.5264778137207,14.546914100647,14.5674085617065,14.5879602432251,14.608570098877,14.6292390823364,14.6499652862549,14.6707515716553,14.691596031189,14.7125005722046,14.7334642410278,14.754487991333,14.7755718231201,14.7967157363892,14.8179197311401,14.8391857147217,14.8605117797852,14.8818998336792,14.9033498764038,14.9248609542847,14.9464349746704,14.9680709838867,14.9897699356079,15.011531829834,15.0333566665649,15.0552463531494,15.0771989822388,15.0992155075073,15.1212959289551,15.1434421539307,15.1656532287598,15.1879291534424,15.2190046310425,15.2515287399292,15.2841930389404,15.3169965744019,15.3499422073364,15.3830289840698,15.4162588119507,15.4496326446533,15.4831514358521,15.5168161392212,15.5506267547607,15.5845861434937,15.6186933517456,15.6529502868652,15.6873579025269,16.004955291748,16.9482402801514,18.273832321167,18.3397560119629,18.406156539917,18.4730396270752,18.5404109954834,18.6082744598389,18.6766376495361,18.7455043792725,18.8148803710938,18.8847732543945,18.9551849365234,19.0261249542236,19.097599029541,19.1696109771729,19.2421684265137,19.3152770996094,19.3889427185059,19.4631729125977,19.5379753112793,19.6133518218994,19.6893138885498,19.7658672332764,19.843017578125,19.9207725524902,19.9991397857666,0,0,0,0,0,0,0,0,0,0,0,0,0,0,0,0,0,0,0,0,0,0,0,0,0,0,0,0,0,0,0,0,0,0,0,0,0,0,0,0,0,0,0,0,0,0,0,0,0,0,0,0,0,0,0,0,0,0,0,0,0,0,0,0,0,0,0,0,0,0,0,0,0,0,0,0,0,0,0,0,0,0,0,0,0,0,0,0,0,0,0,0,0,0,0,0,0,0,0,0,0,0,0,0,0,0,0,0,0,0,0,0,0,0,0,0,0,0,0,0,0,0,0,0,0,0,0,0,0,0,0,0,0,0,0,0,0,0,0,0,0,0,0,0,0,0,0,0,17.2268562316895,17.1538639068604,17.081485748291,17.0097179412842,16.938549041748,16.8679733276367,16.7979850769043,16.728572845459,16.6597328186035,16.5914573669434,16.523738861084,16.4565715789795,16.3899478912354,16.323860168457,16.2583045959473,16.1932735443115,16.1287593841553,16.0647602081299,16.0012702941895,15.9382810592651,15.8757858276367,15.8137788772583,15.7522535324097,15.6912059783936,15.6306295394897,15.5705184936523,15.5108690261841,15.4516735076904,15.3929290771484,15.3852157592773,15.3849296569824,15.2917222976685,15.2343969345093,15.1775636672974,15.1211471557617,15.0651483535767,15.0095624923706,14.9543857574463,14.8996133804321,14.8452396392822,14.7912626266479,14.7376756668091,14.6844758987427,14.6316595077515,14.5792179107666,14.5271492004395,14.4069089889526,14.3558206558228,14.3050928115845,14.2547225952148,14.2047071456909,14.1550407409668,14.1057214736938,14.0567436218262,14.0081052780151,13.9598026275635,13.9118318557739,13.8641891479492,13.8168725967407,13.7698783874512,13.7232027053833,13.6768417358398,13.6307935714722,13.585054397583,13.5396203994751,13.4944896697998,13.4496593475342,13.405125617981,13.3608856201172,13.3169364929199,13.2732763290405,13.2299003601074,13.1868076324463,13.1439952850342,13.1014595031738,13.0591974258423,13.0172080993652,12.9754877090454,12.9340333938599,12.8928442001343,12.8519153594971,12.8112459182739,12.7708339691162,12.7306747436523
13.3528633117676,13.3716831207275,13.4017114639282,13.4318742752075,13.4621744155884,13.4926109313965,13.5231847763062,13.5538988113403,13.5847511291504,13.6157455444336,13.6468811035156,13.6781597137451,13.7095813751221,13.7411479949951,13.7728605270386,13.8047199249268,13.836727142334,13.8688831329346,13.9011878967285,13.9336442947388,13.9662532806396,13.9990139007568,14.0319299697876,14.0649995803833,14.0982265472412,14.1316108703613,14.165153503418,14.1988554000854,14.2327184677124,14.2667436599731,14.2882471084595,14.3080186843872,14.327844619751,14.3477258682251,14.3676624298096,14.3876543045044,14.4077014923096,14.4278049468994,14.4479646682739,14.4681806564331,14.4884538650513,14.5087833404541,14.5291700363159,14.549614906311,14.5701160430908,14.5906763076782,14.6112937927246,14.6319694519043,14.6527042388916,14.6734981536865,14.6943502426147,14.7152624130249,14.7362337112427,14.7572660446167,14.7783575057983,14.7995090484619,14.8207216262817,14.8419952392578,14.8633298873901,14.884726524353,14.9061841964722,14.9277038574219,14.9492855072021,14.9709300994873,14.9926376342773,15.0144071578979,15.0362405776978,15.0581378936768,15.080099105835,15.1021242141724,15.1242141723633,15.1463680267334,15.1745872497559,15.2069215774536,15.2393941879272,15.2720060348511,15.3047580718994,15.3376502990723,15.3706836700439,15.4038610458374,15.437180519104,15.470645904541,15.5042552947998,15.5380115509033,15.5719156265259,15.6059675216675,15.6401691436768,15.6745204925537,15.7108888626099,16.6188449859619,17.63818359375,18.1891326904297,18.2544441223145,18.3202266693115,18.3864860534668,18.4532260894775,18.5204524993896,18.5881690979004,18.6563835144043,18.7251014709473,18.7943267822266,18.8640651702881,18.9343242645264,19.0051078796387,19.0764236450195,19.1482753753662,19.2206707000732,19.2936153411865,19.3671169281006,19.4411792755127,19.515811920166,19.5910186767578,19.6668071746826,19.743185043335,19.8201580047607,19.8977317810059,19.9759178161621,0,0,0,0,0,0,0,0,0,0,0,0,0,0,0,0,0,0,0,0,0,0,0,0,0,0,0,0,0,0,0,0,0,0,0,0,0,0,0,0,0,0,0,0,0,0,0,0,0,0,0,0,0,0,0,0,0,0,0,0,0,0,0,0,0,0,0,0,0,0,0,0,0,0,0,0,0,0,0,0,0,0,0,0,0,0,0,0,0,0,0,0,0,0,0,0,0,0,0,0,0,0,0,0,0,0,0,0,0,0,0,0,0,0,0,0,0,0,0,0,0,0,0,0,0,0,0,0,0,0,0,0,0,0,0,0,0,0,0,0,0,0,0,0,17.2265338897705,17.15354347229,17.081169128418,17.0094013214111,16.9382362365723,16.8676643371582,16.7976760864258,16.7282676696777,16.6594314575195,16.591157913208,16.5234413146973,16.4562759399414,16.3896541595459,16.3235702514648,16.2580165863037,16.1929874420166,16.1284770965576,16.0644779205322,16.0009841918945,15.9379930496216,15.8755006790161,15.8134956359863,15.7519721984863,15.6909265518188,15.630352973938,15.5702438354492,15.5105962753296,15.4514036178589,15.3972997665405,15.3970127105713,15.3967266082764,15.2913942337036,15.2341556549072,15.1773195266724,15.1209049224854,15.0649070739746,15.0093240737915,14.9541482925415,14.899377822876,14.8450059890747,14.7910308837891,14.7374458312988,14.6842479705811,14.6314325332642,14.5789957046509,14.5269336700439,14.4066982269287,14.3556118011475,14.3048858642578,14.2545175552368,14.2045021057129,14.1548366546631,14.1055173873901,14.0565414428711,14.0079040527344,13.959602355957,13.9116334915161,13.8639917373657,13.8166761398315,13.769681930542,13.7230072021484,13.6766471862793,13.6305990219116,13.5848598480225,13.5394277572632,13.4942979812622,13.4494686126709,13.404935836792,13.3606977462769,13.3167495727539,13.2730903625488,13.2297163009644,13.1866245269775,13.1438131332397,13.1012783050537,13.0590181350708,13.0170297622681,12.9753103256226,12.9338579177856,12.8926687240601,12.8517408370972,12.8110733032227,12.7706613540649,12.7305040359497
13.3325147628784,13.3409519195557,13.3703727722168,13.4003953933716,13.430552482605,13.4608459472656,13.4912767410278,13.5218448638916,13.5525522232056,13.5833988189697,13.6143865585327,13.6455163955688,13.6767883300781,13.7082042694092,13.739764213562,13.7714710235596,13.8033237457275,13.8353242874146,13.8674736022949,13.8997716903687,13.932222366333,13.9648237228394,13.9975776672363,14.0304870605469,14.0635499954224,14.0967702865601,14.1301469802856,14.1636829376221,14.1927738189697,14.2122821807861,14.2318429946899,14.2514591217041,14.27112865448,14.2908525466919,14.3106307983398,14.3304643630981,14.3503522872925,14.3702964782715,14.3902950286865,14.4103507995605,14.4304609298706,14.4506282806396,14.4708518981934,14.4911327362061,14.5114698410034,14.5318641662598,14.5523157119751,14.5728254318237,14.5933923721313,14.6140174865723,14.6347017288208,14.6554441452026,14.6762456893921,14.6971063613892,14.7180252075195,14.7390050888062,14.7600450515747,14.7811441421509,14.8023042678833,14.8235244750977,14.8448066711426,14.8661489486694,14.8875532150269,14.9090194702148,14.9305467605591,14.9521369934082,14.9737901687622,14.9955053329468,15.0172843933105,15.0391263961792,15.0610313415527,15.0830011367798,15.105034828186,15.130428314209,15.1625747680664,15.1948575973511,15.2272787094116,15.2598390579224,15.2925386428833,15.3253784179688,15.358359336853,15.3914823532104,15.4247493743896,15.4581594467163,15.4917154312134,15.5254173278809,15.5592660903931,15.5932626724243,15.6274080276489,15.6617031097412,15.6961498260498,16.3020114898682,17.2817058563232,18.0409603118896,18.1052112579346,18.169921875,18.2350959777832,18.3007392883301,18.3668556213379,18.4334526062012,18.5005359649658,18.5681076049805,18.6361751556396,18.7047424316406,18.7738170623779,18.8434047698975,18.9135074615479,18.9841365814209,19.0552940368652,19.1269855499268,19.1992206573486,19.2720031738281,19.3453388214111,19.4192352294922,19.4936981201172,19.5687351226807,19.6443500518799,19.720552444458,19.7973499298096,19.8747463226318,19.952751159668,0,0,0,0,0,0,0,0,0,0,0,0,0,0,0,0,0,0,0,0,0,0,0,0,0,0,0,0,0,0,0,0,0,0,0,0,0,0,0,0,0,0,0,0,0,0,0,0,0,0,0,0,0,0,0,0,0,0,0,0,0,0,0,0,0,0,0,0,0,0,0,0,0,0,0,0,0,0,0,0,0,0,0,0,0,0,0,0,0,0,0,0,0,0,0,0,0,0,0,0,0,0,0,0,0,0,0,0,0,0,0,0,0,0,0,0,0,0,0,0,0,0,0,0,0,0,0,0,0,0,0,0,0,0,0,0,0,0,0,0,17.2262096405029,17.1532211303711,17.0808506011963,17.0090866088867,16.9379234313965,16.8673534393311,16.7973690032959,16.7279624938965,16.6591281890869,16.590856552124,16.5231437683105,16.4559803009033,16.3893623352051,16.3232803344727,16.2577285766602,16.1927013397217,16.1281929016113,16.0641956329346,16.0007057189941,15.9377145767212,15.8752174377441,15.8132123947144,15.7516918182373,15.6906480789185,15.6300764083862,15.5699701309204,15.5103244781494,15.4511337280273,15.4091148376465,15.4088277816772,15.4085416793823,15.29114818573,15.2339105606079,15.1770753860474,15.1206617355347,15.0646667480469,15.0090847015381,14.953911781311,14.8991422653198,14.8447723388672,14.7907981872559,14.7372150421143,14.6840190887451,14.6312055587769,14.5787706375122,14.5267105102539,14.4750213623047,14.3554029464722,14.3046789169312,14.2543115615845,14.2042980194092,14.154634475708,14.1053161621094,14.0563411712646,14.0077047348022,13.9594030380249,13.9114351272583,13.8637952804565,13.8164806365967,13.7694883346558,13.7228136062622,13.6764554977417,13.6304082870483,13.5846710205078,13.5392398834229,13.4941110610962,13.4492816925049,13.4047498703003,13.3605117797852,13.3165645599365,13.2729053497314,13.2295322418213,13.1864414215088,13.1436309814453,13.1010971069336,13.058837890625,13.0168504714966,12.9751329421997,12.9336814880371,12.8924932479858,12.8515672683716,12.8108997344971,12.770489692688,12.7303333282471
13.3122282028198,13.3206396102905,13.3391799926758,13.3690624237061,13.3990793228149,13.4292306900024,13.4595184326172,13.4899425506592,13.5205049514771,13.5512056350708,13.5820465087891,13.6130285263062,13.6441516876221,13.6754179000854,13.7068271636963,13.7383813858032,13.7700805664062,13.8019275665283,13.8339214324951,13.8660640716553,13.8983564376831,13.9307994842529,13.9633941650391,13.9961423873901,14.0290441513062,14.0621004104614,14.0953140258789,14.1178178787231,14.1371202468872,14.1564750671387,14.1758832931519,14.1953449249268,14.2148590087891,14.2344274520874,14.2540502548218,14.2737274169922,14.2934579849243,14.3132438659668,14.3330850601196,14.3529806137085,14.3729314804077,14.3929376602173,14.4130001068115,14.4331188201904,14.4532928466797,14.4735240936279,14.4938116073608,14.5141563415527,14.5345582962036,14.5550174713135,14.5755348205566,14.5961103439331,14.6167430877686,14.6374349594116,14.658185005188,14.678994178772,14.6998624801636,14.7207899093628,14.7417774200439,14.762825012207,14.7839317321777,14.805100440979,14.8263282775879,14.8476181030273,14.868968963623,14.8903818130493,14.9118556976318,14.9333915710449,14.9549903869629,14.9766511917114,14.9983749389648,15.0201616287231,15.0420122146606,15.063925743103,15.0865249633789,15.1184854507446,15.1505813598633,15.1828136444092,15.2151832580566,15.24769115448,15.2803382873535,15.3131256103516,15.3460540771484,15.3791246414185,15.4123373031616,15.4456939697266,15.4791955947876,15.512843132019,15.5466365814209,15.5805788040161,15.6146678924561,15.648907661438,15.6832971572876,15.9970302581787,16.9393539428711,17.8676891326904,17.9693126678467,18.0312595367432,18.093635559082,18.1564445495605,18.219690322876,18.2833766937256,18.3475131988525,18.413724899292,18.4806613922119,18.5480880737305,18.6160087585449,18.6844291687012,18.7533531188965,18.8227882385254,18.8927383422852,18.9632110595703,19.0342121124268,19.1057453155518,19.1778182983398,19.2504386901855,19.3236103057861,19.3973407745361,19.4716358184814,19.546501159668,19.6219444274902,19.6979732513428,19.7745933532715,19.8518123626709,19.9296360015869,0,0,0,0,0,0,0,0,0,0,0,0,0,0,0,0,0,0,0,0,0,0,0,0,0,0,0,0,0,0,0,0,0,0,0,0,0,0,0,0,0,0,0,0,0,0,0,0,0,0,0,0,0,0,0,0,0,0,0,0,0,0,0,0,0,0,0,0,0,0,0,0,0,0,0,0,0,0,0,0,0,0,0,0,0,0,0,0,0,0,0,0,0,0,0,0,0,0,0,0,0,0,0,0,0,0,0,0,0,0,0,0,0,0,0,0,0,0,0,0,0,0,0,0,0,0,0,0,0,0,0,0,0,0,0,0,17.2258853912354,17.1529006958008,17.0805320739746,17.0087718963623,16.9376106262207,16.8670425415039,16.797061920166,16.7276573181152,16.6588249206543,16.5905570983887,16.5228462219238,16.4556865692139,16.3890686035156,16.3229885101318,16.2574405670166,16.1924152374268,16.127908706665,16.0639152526855,16.0004253387451,15.9374370574951,15.874942779541,15.8129358291626,15.7514114379883,15.6903696060181,15.6297988891602,15.5696954727173,15.5100517272949,15.4508628845215,15.4209489822388,15.4206619262695,15.3486213684082,15.2909049987793,15.2336645126343,15.1768312454224,15.1204195022583,15.0644264221191,15.008846282959,14.9536743164062,14.8989067077637,14.8445386886597,14.790566444397,14.736985206604,14.6837902069092,14.6309785842896,14.5785455703735,14.5264873504639,14.4748001098633,14.3551940917969,14.3044719696045,14.2541055679321,14.2040939331055,14.1544313430786,14.1051149368286,14.0561408996582,14.0075054168701,13.9592065811157,13.9112386703491,13.8635997772217,13.8162851333618,13.7692937850952,13.7226209640503,13.6762638092041,13.6302185058594,13.5844821929932,13.5390510559082,13.4939241409302,13.4490966796875,13.4045658111572,13.3603286743164,13.3163824081421,13.2727251052856,13.2293529510498,13.1862630844116,13.1434526443481,13.1009197235107,13.0586614608765,13.016674041748,12.9749565124512,12.9335050582886,12.8923177719116,12.851393699646,12.8107271194458,12.770318031311,12.7301626205444
13.2920026779175,13.300389289856,13.3087854385376,13.3378763198853,13.3677530288696,13.3977632522583,13.4279088973999,13.4581909179688,13.4886093139648,13.5191650390625,13.5498600006104,13.5806951522827,13.6116704940796,13.6427869796753,13.6740474700928,13.7054500579834,13.7369976043701,13.7686910629272,13.8005313873291,13.8325185775757,13.8646545410156,13.8969402313232,13.9293775558472,13.9619655609131,13.9947061538696,14.024600982666,14.0436487197876,14.0627489089966,14.0819005966187,14.1011047363281,14.120361328125,14.1396703720093,14.159031867981,14.1784477233887,14.1979160308838,14.2174377441406,14.2370128631592,14.2566432952881,14.2763271331787,14.2960653305054,14.3158578872681,14.3357057571411,14.3556089401245,14.3755674362183,14.3955812454224,14.4156513214111,14.4357767105103,14.455958366394,14.4761972427368,14.4964923858643,14.5168447494507,14.5372543334961,14.5577211380005,14.5782461166382,14.5988283157349,14.6194696426392,14.6401681900024,14.6609268188477,14.6817436218262,14.7026195526123,14.7235555648804,14.7445507049561,14.7656059265137,14.7867212295532,14.8078966140747,14.8291339874268,14.8504314422607,14.871789932251,14.8932104110718,14.9146928787231,14.9362373352051,14.9578437805176,14.979513168335,15.0012454986572,15.0230407714844,15.0448989868164,15.0746517181396,15.1065616607666,15.1386060714722,15.1707878112793,15.2031059265137,15.2355623245239,15.2681579589844,15.300892829895,15.3337688446045,15.3667860031128,15.3999452590942,15.4332485198975,15.4666967391968,15.5002889633179,15.5340280532837,15.5679149627686,15.6019487380981,15.6361331939697,15.6704664230347,15.7049512863159,16.6103000640869,17.6285591125488,17.7164764404297,17.7921810150146,17.9840145111084,18.0460624694824,18.1085414886475,18.1714534759521,18.2348041534424,18.2985973358154,18.3628387451172,18.4275341033936,18.4926853179932,18.5583000183105,18.624382019043,18.6909351348877,18.7579669952393,18.8254814147949,18.893482208252,18.9619770050049,19.030969619751,19.1004676818848,19.1704730987549,19.2409954071045,19.3120365142822,19.3836059570312,19.4557075500488,19.5283470153809,19.6015300750732,19.6754455566406,19.7518901824951,19.8289318084717,19.8841686248779,19.8850059509277,19.8858432769775,19.8866806030273,19.8875217437744,19.8883590698242,19.8891944885254,19.8900337219238,19.8908729553223,19.8917083740234,19.8925476074219,19.8933868408203,19.8942260742188,19.8950653076172,19.895902633667,19.8967418670654,19.8975811004639,19.8984184265137,19.8992595672607,19.9000968933105,19.9009342193604,19.9017753601074,19.9026145935059,19.9034538269043,19.9042930603027,19.9051322937012,19.9059715270996,19.9068088531494,19.9076519012451,19.9084911346436,19.9093265533447,19.9101715087891,19.9110088348389,19.9118499755859,19.912691116333,19.9135284423828,19.9143695831299,19.9152088165283,19.9160499572754,19.9168910980225,19.9177303314209,19.9185733795166,19.919412612915,19.9202537536621,19.9210948944092,19.921932220459,19.9227733612061,19.9236145019531,19.9244594573975,19.9252986907959,19.9261360168457,19.92698097229,19.9278221130371,19.9286613464355,19.9295063018799,19.9303455352783,19.931188583374,19.9320278167725,19.9328708648682,19.9337120056152,19.9345531463623,19.935396194458,19.9362392425537,19.9370803833008,19.9379234313965,19.9387645721436,19.9396057128906,19.940450668335,19.9412899017334,19.9421367645264,19.9429759979248,19.9438190460205,19.9446620941162,19.9455032348633,19.9463500976562,19.9471912384033,19.9480323791504,19.9488773345947,19.9497203826904,19.9505634307861,19.9514064788818,19.9522495269775,19.9530944824219,19.9539337158203,19.9547824859619,19.955623626709,19.9564666748047,19.9573135375977,19.9581546783447,19.9589977264404,19.9598426818848,19.9606876373291,19.9615325927734,19.9623737335205,19.9632205963135,19.9640636444092,19.9649066925049,19.9657554626465,19.9665985107422,19.9674434661865,19.9682865142822,19.9691295623779,19.9699764251709,19.9708213806152,19.9716682434082,19.9725112915039,19.9733562469482,19.9742031097412,19.9750480651855,19.9758930206299,19.9767379760742,19.9775829315186,19.9784297943115,19.9792747497559,19.9801197052002,19.9809665679932,19.9818115234375,19.9826602935791,19.9835033416748,19.9843482971191,19.9851970672607,19.9860439300537,19.9868907928467,19.987735748291,19.9885807037354,19.9894275665283,19.9902744293213,19.9911231994629,19.9919700622559,19.9928150177002,19.9936637878418,19.9945087432861,19.9953575134277,17.2255630493164,17.1525802612305,17.0802135467529,17.0084552764893,16.9372978210449,16.8667335510254,16.7967548370361,16.727352142334,16.6585235595703,16.5902576446533,16.5225486755371,16.4553909301758,16.3887767791748,16.3226985931396,16.257152557373,16.1921291351318,16.1276264190674,16.0636329650879,16.0001468658447,15.9371604919434,15.8746671676636,15.8126630783081,15.7511415481567,15.6900959014893,15.6295232772827,15.5694208145142,15.5097789764404,15.4505929946899,15.4328012466431,15.4325132369995,15.3483228683472,15.2906618118286,15.2334184646606,15.176586151123,15.1201772689819,15.0641851425171,15.0086069107056,14.9534368515015,14.8986711502075,14.8443050384521,14.7903347015381,14.7367544174194,14.6835613250732,14.6307516098022,14.5783214569092,14.5262651443481,14.4745788574219,14.425422668457,14.3042650222778,14.2539005279541,14.2038898468018,14.1542282104492,14.1049137115479,14.0559406280518,14.0073070526123,13.9590091705322,13.9110422134399,13.8634052276611,13.8160924911499,13.7691011428833,13.7224292755127,13.6760721206665,13.6300277709961,13.5842924118042,13.5388631820679,13.4937372207642,13.4489107131958,13.4043817520142,13.3601455688477,13.316201210022,13.2725439071655,13.2291736602783,13.1860847473145,13.1432752609253,13.1007432937622,13.0584859848022,13.0165004730225,12.9747838973999,12.9333333969116,12.8921480178833,12.8512229919434,12.8105573654175,12.7701482772827,12.7299938201904
13.2718391418457,13.2802000045776,13.2885713577271,13.3068351745605,13.3365726470947,13.3664426803589,13.396448135376,13.4265871047974,13.4568634033203,13.4872751235962,13.5178260803223,13.5485143661499,13.5793428421021,13.610312461853,13.6414232254028,13.6726770401001,13.7040739059448,13.7356147766113,13.7673015594482,13.7991352081299,13.8311166763306,13.8632459640503,13.8955249786377,13.9279556274414,13.9514064788818,13.9702558517456,13.9891557693481,14.0081081390381,14.0271110534668,14.0461654663086,14.0652723312378,14.0844306945801,14.1036415100098,14.1229057312012,14.1422214508057,14.1615905761719,14.1810121536255,14.2004880905151,14.2200174331665,14.2396001815796,14.2592363357544,14.2789278030396,14.2986726760864,14.318473815918,14.3383283615112,14.3582391738892,14.3782043457031,14.3982257843018,14.4183025360107,14.4384355545044,14.458625793457,14.47887134552,14.499174118042,14.5195341110229,14.5399513244629,14.5604257583618,14.5809574127197,14.6015481948853,14.6221961975098,14.6429033279419,14.6636695861816,14.6844940185547,14.7053775787354,14.7263212203979,14.7473249435425,14.7683877944946,14.7895107269287,14.810694694519,14.8319396972656,14.8532457351685,14.8746128082275,14.8960409164429,14.9175319671631,14.9390840530396,14.9606990814209,14.9823760986328,15.0041170120239,15.0310716629028,15.0627965927124,15.0946559906006,15.1266508102417,15.1587810516357,15.1910486221313,15.2234535217285,15.2559967041016,15.2886800765991,15.3215026855469,15.3544673919678,15.3875741958618,15.420823097229,15.4542169570923,15.4877557754517,15.5214405059814,15.5552711486816,15.5892505645752,15.6233787536621,15.6576566696167,15.692084312439,16.2937889099121,17.2724666595459,17.4939880371094,17.5678005218506,17.6422367095947,17.7173080444336,17.9987411499023,18.0608901977539,18.1234722137451,18.186487197876,18.249942779541,18.3138427734375,18.3781929016113,18.4429950714111,18.5082569122314,18.5739822387695,18.6401748657227,18.7068424224854,18.7739887237549,18.8416175842285,18.9097366333008,18.9783477783203,19.0474605560303,19.1170787811279,19.1872062683105,19.2578525543213,19.3290195465088,19.4007129669189,19.4729423522949,19.545711517334,19.619026184082,19.6859836578369,19.6868019104004,19.6876258850098,19.6884460449219,19.6892681121826,19.6900901794434,19.6909103393555,19.6917324066162,19.6925525665283,19.6933746337891,19.6941967010498,19.6950168609619,19.6958427429199,19.6966609954834,19.6974811553955,19.6983070373535,19.6991291046143,19.699951171875,19.7007732391357,19.7015953063965,19.7024173736572,19.7032375335693,19.7040634155273,19.7048854827881,19.7057056427002,19.7065296173096,19.7073535919189,19.7081756591797,19.7089996337891,19.7098197937012,19.7106456756592,19.7114677429199,19.7122917175293,19.71311378479,19.7139358520508,19.7147617340088,19.7155857086182,19.7164077758789,19.7172336578369,19.7180557250977,19.7188816070557,19.7196998596191,19.7205257415771,19.7213516235352,19.7221717834473,19.7229995727539,19.7238216400146,19.724645614624,19.7254734039307,19.7262954711914,19.7271213531494,19.7279453277588,19.7287673950195,19.7295932769775,19.7304172515869,19.7312431335449,19.7320690155029,19.7328929901123,19.7337188720703,19.7345409393311,19.7353668212891,19.7361946105957,19.7370166778564,19.7378425598145,19.7386684417725,19.7394962310791,19.7403202056885,19.7411441802979,19.7419719696045,19.7427978515625,19.7436237335205,19.7444496154785,19.7452754974365,19.7460994720459,19.7469253540039,19.7477531433105,19.7485809326172,19.7494049072266,19.7502346038818,19.7510585784912,19.7518844604492,19.7527122497559,19.7535362243652,19.7543659210205,19.7551898956299,19.7560176849365,19.7568454742432,19.7576713562012,19.7584991455078,19.7593269348145,19.7601528167725,19.7609844207764,19.7618103027344,19.762638092041,19.7634620666504,19.764289855957,19.7651195526123,19.7659473419189,19.766773223877,19.7676010131836,19.7684288024902,19.7692584991455,19.7700862884521,19.7709140777588,19.7717418670654,19.7725715637207,19.7733993530273,19.774227142334,19.7750568389893,19.7758827209473,19.7767105102539,19.7775440216064,19.7783699035645,19.7791957855225,19.780029296875,19.7808570861816,19.7816848754883,19.7825145721436,19.7833423614502,19.7841720581055,19.7849998474121,19.7858333587646,19.7866611480713,19.7874889373779,19.7883224487305,19.7891483306885,19.7899799346924,19.790807723999,19.7916374206543,19.7924690246582,19.7932987213135,19.7941284179688,17.2252388000488,17.1522598266602,17.0798969268799,17.0081405639648,16.9369850158691,16.8664226531982,16.7964458465576,16.7270488739014,16.6582202911377,16.5899562835693,16.5222511291504,16.4550952911377,16.3884830474854,16.3224086761475,16.2568645477295,16.1918449401855,16.1273422241211,16.0633525848389,15.99986743927,15.9368839263916,15.8743934631348,15.8123903274536,15.7508707046509,15.6898279190063,15.6292562484741,15.5691499710083,15.5095071792603,15.4503221511841,15.4446706771851,15.4443826675415,15.3480787277222,15.2904186248779,15.233172416687,15.176342010498,15.1199350357056,15.0639448165894,15.0083684921265,14.953200340271,14.8984355926514,14.8440713882446,14.7901020050049,14.7365245819092,14.6833333969116,14.6305255889893,14.5780963897705,14.5260419845581,14.4743576049805,14.4230327606201,14.3040571212769,14.2536945343018,14.203685760498,14.1540260314941,14.1047124862671,14.0557413101196,14.0071086883545,13.9588117599487,13.9108467102051,13.8632106781006,13.8158988952637,13.7689094543457,13.7222385406494,13.6758823394775,13.6298389434814,13.5841045379639,13.5386762619019,13.4935503005981,13.4487257003784,13.4041967391968,13.3599624633789,13.3160190582275,13.2723636627197,13.2289934158325,13.1859064102173,13.1430988311768,13.100567817688,13.0583114624023,13.0163269042969,12.9746112823486,12.9331617355347,12.8919773101807,12.8510541915894,12.8103895187378,12.7699813842773,12.7298269271851
13.2517366409302,13.2600717544556,13.2684173583984,13.2767744064331,13.3055372238159,13.3352689743042,13.3651332855225,13.3951330184937,13.4252662658691,13.4555358886719,13.4859428405762,13.5164861679077,13.5471696853638,13.5779914855957,13.6089553833008,13.6400594711304,13.6713066101074,13.7026968002319,13.7342319488525,13.7659130096436,13.797739982605,13.8297147750854,13.8603668212891,13.8789710998535,13.8976259231567,13.9163293838501,13.9350843429565,13.9538898468018,13.9727458953857,13.9916534423828,14.0106115341187,14.0296220779419,14.0486831665039,14.0677967071533,14.0869626998901,14.10618019104,14.1254501342773,14.1447734832764,14.1641492843628,14.1835784912109,14.2030611038208,14.2225971221924,14.2421875,14.2618312835693,14.2815294265747,14.3012819290161,14.3210897445679,14.3409519195557,14.3608694076538,14.3808422088623,14.4008712768555,14.420955657959,14.4410963058472,14.46129322052,14.4815464019775,14.501856803894,14.5222244262695,14.5426483154297,14.5631303787231,14.5836706161499,14.60426902771,14.624924659729,14.6456394195557,14.6664133071899,14.6872453689575,14.708137512207,14.7290887832642,14.7501001358032,14.7711706161499,14.7923021316528,14.8134937286377,14.8347463607788,14.8560609817505,14.8774356842041,14.8988723754883,14.920371055603,14.9419317245483,14.9635553359985,14.9877424240112,15.0192852020264,15.0509605407715,15.0827693939209,15.1147136688232,15.1467933654785,15.179009437561,15.2113628387451,15.2438545227051,15.2764854431152,15.3092565536499,15.3421678543091,15.3752222061157,15.4084177017212,15.4417581558228,15.4752426147461,15.5088720321655,15.542649269104,15.5765733718872,15.6106452941895,15.6448669433594,15.6792392730713,15.9891128540039,16.9304752349854,17.2770195007324,17.349006652832,17.4215984344482,17.4947986602783,17.5686168670654,17.6430606842041,18.0134906768799,18.0757427215576,18.1384258270264,18.201545715332,18.2651081085205,18.3291149139404,18.3935699462891,18.4584827423096,18.523853302002,18.5896892547607,18.6559963226318,18.7227764129639,18.7900371551514,18.8577823638916,18.9260177612305,18.9947490692139,19.0639801025391,19.1337184906006,19.2039699554443,19.2747383117676,19.3460292816162,19.4178524017334,19.4902076721191,19.4925136566162,19.4933185577393,19.4941234588623,19.4949283599854,19.4957313537598,19.4965419769287,19.4973449707031,19.4981479644775,19.4989566802979,19.4997596740723,19.5005664825439,19.5013732910156,19.50217628479,19.5029830932617,19.5037879943848,19.5045986175537,19.5054016113281,19.5062084197998,19.5070152282715,19.5078201293945,19.5086288452148,19.5094337463379,19.5102386474609,19.5110473632812,19.5118541717529,19.5126609802246,19.5134658813477,19.5142707824707,19.515079498291,19.5158863067627,19.5166931152344,19.5175018310547,19.5183067321777,19.519115447998,19.5199203491211,19.5207290649414,19.5215358734131,19.5223426818848,19.5231513977051,19.5239582061768,19.5247650146484,19.5255756378174,19.5263824462891,19.5271892547607,19.5279960632324,19.5288066864014,19.529613494873,19.5304203033447,19.5312328338623,19.5320377349854,19.532844543457,19.533655166626,19.5344619750977,19.535270690918,19.5360794067383,19.5368900299072,19.5376968383789,19.5385036468506,19.5393161773682,19.5401229858398,19.5409317016602,19.5417423248291,19.5425510406494,19.5433578491211,19.5441703796387,19.5449771881104,19.5457878112793,19.5465965270996,19.5474052429199,19.5482177734375,19.5490245819092,19.5498371124268,19.5506439208984,19.5514507293701,19.5522651672363,19.553071975708,19.553882598877,19.5546932220459,19.5555019378662,19.5563144683838,19.5571231842041,19.5579357147217,19.5587463378906,19.5595550537109,19.5603675842285,19.5611763000488,19.5619888305664,19.5627994537354,19.5636100769043,19.5644207000732,19.5652313232422,19.5660400390625,19.5668525695801,19.5676612854004,19.5684776306152,19.5692882537842,19.5700969696045,19.5709114074707,19.5717220306396,19.5725326538086,19.5733432769775,19.5741558074951,19.5749683380127,19.5757789611816,19.5765933990479,19.5774040222168,19.5782146453857,19.579029083252,19.5798397064209,19.5806522369385,19.5814628601074,19.5822772979736,19.5830898284912,19.5839004516602,19.5847148895264,19.5855274200439,19.5863380432129,19.5871543884277,19.5879650115967,19.5887756347656,19.5895900726318,19.590404510498,19.5912170410156,19.5920314788818,19.5928440093994,19.5936584472656,19.5944709777832,19.5952854156494,19.596097946167,19.5969104766846,17.2249164581299,17.1519393920898,17.0795783996582,17.0078258514404,16.9366722106934,16.8661136627197,16.7961387634277,16.7267436981201,16.6579189300537,16.589656829834,16.5219535827637,16.4547996520996,16.3881912231445,16.3221187591553,16.2565765380859,16.1915588378906,16.1270599365234,16.0630722045898,15.9995899200439,15.9366083145142,15.8741207122803,15.8121204376221,15.750602722168,15.6895627975464,15.6289930343628,15.5688896179199,15.5092468261719,15.4540815353394,15.4538583755493,15.4536361694336,15.3478336334229,15.2901754379272,15.2329263687134,15.176097869873,15.1196918487549,15.0637044906616,15.008129119873,14.9529628753662,14.8982000350952,14.8438377380371,14.789870262146,14.7362937927246,14.68310546875,14.6302995681763,14.5778722763062,14.5258197784424,14.4741363525391,14.4228191375732,14.3038387298584,14.2534828186035,14.2034797668457,14.1538228988647,14.1045112609863,14.0555410385132,14.0069103240967,13.9586143493652,13.9106512069702,13.86301612854,13.8157052993774,13.7687177658081,13.7220478057861,13.6756935119629,13.6296510696411,13.5839176177979,13.5384902954102,13.4933662414551,13.4485416412354,13.4040126800537,13.3597793579102,13.3158369064331,13.2721834182739,13.228814125061,13.1857280731201,13.1429214477539,13.1003913879395,13.0581369400024,13.0161533355713,12.9744386672974,12.932991027832,12.891806602478,12.850884437561,12.8102207183838,12.769814491272,12.729660987854
13.2316942214966,13.2400045394897,13.2483253479004,13.2566566467285,13.2746467590332,13.3042402267456,13.333966255188,13.3638248443604,13.3938179016113,13.4239454269409,13.4542093276978,13.4846096038818,13.5151481628418,13.5458240509033,13.5766410827637,13.6075973510742,13.6386957168579,13.6699371337891,13.7013216018677,13.7328500747681,13.7645244598389,13.7888717651367,13.8072843551636,13.8257465362549,13.8442573547363,13.8628187179565,13.8814296722412,13.9000902175903,13.9188013076782,13.9375619888306,13.956374168396,13.9752378463745,13.9941511154175,14.0131168365479,14.032133102417,14.0512018203735,14.0703220367432,14.0894947052002,14.1087188720703,14.1279964447021,14.1473264694214,14.1667098999023,14.1861457824707,14.2056350708008,14.2251787185669,14.2447757720947,14.2644262313843,14.2841320037842,14.3038921356201,14.3237066268921,14.3435764312744,14.3635005950928,14.3834810256958,14.4035167694092,14.4236087799072,14.4437570571899,14.4639616012573,14.4842224121094,14.5045404434204,14.5249147415161,14.5453472137451,14.5658369064331,14.5863847732544,14.6069898605347,14.6276540756226,14.6483764648438,14.6691579818726,14.689998626709,14.7108974456787,14.7318572998047,14.7528762817383,14.7739553451538,14.7950944900513,14.816294670105,14.8375549316406,14.8588771820068,14.8802604675293,14.901704788208,14.9232120513916,14.9447813034058,14.9760236740112,15.0075168609619,15.0391426086426,15.0709018707275,15.1027956008911,15.1348247528076,15.1669902801514,15.1992921829224,15.2317323684692,15.2643117904663,15.2970294952393,15.3298892974854,15.362889289856,15.396032333374,15.4293184280396,15.4627494812012,15.4963254928589,15.5300464630127,15.5639162063599,15.5979328155518,15.6320991516113,15.6664142608643,15.7008819580078,16.6017646789551,17.0653667449951,17.1355972290039,17.2064094543457,17.277811050415,17.3498058319092,17.4224033355713,17.4956092834473,17.5694351196289,18.0282649993896,18.0906181335449,18.1534061431885,18.2166309356689,18.2802982330322,18.344409942627,18.4089756011963,18.4739952087402,18.5394763946533,18.6054248809814,18.6718425750732,18.7387371063232,18.8061122894287,18.8739738464355,18.942325592041,19.0111770629883,19.0805282592773,19.1503887176514,19.2207622528076,19.291654586792,19.3020210266113,19.3028087615967,19.3036022186279,19.3043880462646,19.3051795959473,19.3059692382812,19.3067588806152,19.3075466156006,19.3083381652832,19.3091278076172,19.3099174499512,19.3107070922852,19.3114986419678,19.3122882843018,19.3130779266357,19.3138694763184,19.3146591186523,19.3154487609863,19.3162384033203,19.3170299530029,19.3178215026855,19.3186111450195,19.3194026947021,19.3201904296875,19.3209838867188,19.32177734375,19.322566986084,19.3233585357666,19.324146270752,19.3249378204346,19.3257293701172,19.3265209197998,19.3273143768311,19.328104019165,19.328893661499,19.3296890258789,19.3304786682129,19.3312702178955,19.3320617675781,19.3328533172607,19.3336448669434,19.334436416626,19.3352298736572,19.3360214233398,19.3368129730225,19.3376064300537,19.3383960723877,19.3391914367676,19.3399848937988,19.3407745361328,19.3415660858154,19.3423595428467,19.3431529998779,19.3439464569092,19.3447380065918,19.3455333709717,19.3463249206543,19.3471164703369,19.3479118347168,19.3487033843994,19.349494934082,19.3502883911133,19.3510818481445,19.3518772125244,19.352668762207,19.3534641265869,19.3542575836182,19.3550472259521,19.3558464050293,19.3566360473633,19.3574314117432,19.3582248687744,19.3590202331543,19.3598136901855,19.3606071472168,19.3614044189453,19.3621959686279,19.3629894256592,19.3637866973877,19.3645782470703,19.3653717041016,19.3661689758301,19.3669624328613,19.3677577972412,19.3685512542725,19.3693447113037,19.3701400756836,19.3709354400635,19.3717308044434,19.3725261688232,19.3733196258545,19.3741188049316,19.3749103546143,19.3757076263428,19.376501083374,19.3772964477539,19.3780937194824,19.3788890838623,19.3796844482422,19.3804798126221,19.3812732696533,19.3820743560791,19.3828678131104,19.3836669921875,19.3844585418701,19.3852558135986,19.3860530853271,19.386848449707,19.3876457214355,19.3884410858154,19.3892364501953,19.3900337219238,19.3908290863037,19.3916263580322,19.3924255371094,19.3932189941406,19.3940181732178,19.394811630249,19.3956108093262,19.3964080810547,19.3972053527832,19.3980026245117,19.3987998962402,19.3995952606201,19.4003944396973,19.4011917114258,19.4019908905029,19.4027862548828,19.40358543396,19.4043846130371,17.1640853881836,17.0792770385742,17.0075283050537,16.9363784790039,16.8658218383789,16.7958507537842,16.7264575958252,16.6576347351074,16.589376449585,16.5216751098633,16.4545249938965,16.38791847229,16.3218479156494,16.2563095092773,16.1912937164307,16.1267967224121,16.0628108978271,15.9993324279785,15.936351776123,15.8738660812378,15.8118686676025,15.7503528594971,15.6893138885498,15.6287469863892,15.5686454772949,15.5090045928955,15.4543476104736,15.4541244506836,15.4056816101074,15.3475885391235,15.2899322509766,15.2326803207397,15.175853729248,15.1194496154785,15.0634632110596,15.0078907012939,14.9527254104614,14.8979654312134,14.8436040878296,14.7896385192871,14.7360649108887,14.6828784942627,14.6300735473633,14.5776481628418,14.5255966186523,14.473916053772,14.4225997924805,14.3716096878052,14.2532558441162,14.203254699707,14.1536026000977,14.1042966842651,14.0553340911865,14.0067100524902,13.9584169387817,13.910454750061,13.8628215789795,13.8155126571655,13.7685251235962,13.7218570709229,13.6755037307739,13.6294631958008,13.5837306976318,13.5383052825928,13.4931812286377,13.4483585357666,13.4038314819336,13.35959815979,13.3156566619873,13.2720031738281,13.2286348342896,13.1855497360229,13.1427440643311,13.1002159118652,13.0579614639282,13.0159797668457,12.9742660522461,12.9328193664551,12.8916358947754,12.8507146835327,12.8100528717041,12.7696466445923,12.7294950485229
