11.6386861801147,11.6386804580688,11.6386747360229,11.6386690139771,11.6386642456055,11.6386585235596,11.6386528015137,11.6386470794678,11.6386413574219,11.638635635376,11.6386308670044,11.6386251449585,11.6386194229126,11.6386137008667,11.6386079788208,11.6386032104492,11.6385974884033,11.6385917663574,11.6385860443115,11.6385803222656,11.6385746002197,11.6385698318481,11.6385641098022,11.6385583877563,11.6385526657104,11.6385469436646,11.6385412216187,11.6385364532471,11.6385307312012,11.6385250091553,11.6385192871094,11.6385135650635,11.6385078430176,11.638503074646,11.6384973526001,11.6384916305542,11.6384859085083,11.6384801864624,11.6384744644165,11.6384696960449,11.638463973999,11.6384582519531,11.6384525299072,11.6384468078613,11.6835880279541,11.7410821914673,11.7991456985474,11.8577871322632,11.917013168335,11.9768352508545,12.037260055542,12.0982971191406,12.1599569320679,12.2222490310669,12.2851819992065,12.3487663269043,12.4130125045776,12.4779300689697,12.5435314178467,12.5611333847046,12.5550184249878,12.5489082336426,12.5428047180176,12.5367069244385,12.4865007400513,12.4964179992676,12.5063514709473,12.516300201416,12.5262641906738,12.536244392395,12.5462408065796,12.5562534332275,12.5662813186646,12.5763263702393,12.586386680603,12.5964632034302,12.6065559387207,12.6166639328003,12.6267890930176,12.6369304656982,12.6470880508423,12.6572618484497,12.6674518585205,12.6776580810547,12.6878814697266,12.6981201171875,12.7083768844604,12.7186489105225,12.7289381027222,12.7392444610596,12.7495670318604,12.7599058151245,12.7702627182007,12.7806348800659,12.7910251617432,12.8014316558838,12.8118553161621,12.8222961425781,12.8327541351318,12.8432283401489,12.853720664978,12.8642292022705,12.874755859375,12.8852987289429,12.8958597183228,12.9064378738403,12.9170331954956,12.9276466369629,12.9382762908936,12.9489240646362,12.9595899581909,12.9702730178833,12.9809732437134,12.9916915893555,13.0024271011353,13.0131807327271,13.0239524841309,13.0347423553467,13.0455627441406,13.0537700653076,13.0619878768921,13.070216178894,13.0784549713135,13.0867033004761,13.0949630737305,13.103232383728,13.1115131378174,13.1198034286499,13.1281051635742,13.1364164352417,13.144739151001,13.1530723571777,13.1614151000977,13.1697692871094,13.1781339645386,13.1865091323853,13.1948947906494,13.2032918930054,13.2116985321045,13.2201166152954,13.2285451889038,13.236985206604,13.2454357147217,13.2538957595825,13.2623682022095,13.2708511352539,13.2793445587158,13.2878484725952,13.2963638305664,13.3048906326294,13.3134279251099,13.3219757080078,13.3305349349976,13.3391046524048,13.3476858139038,13.3562784194946,13.3648815155029,13.373496055603,13.3821210861206,13.3907585144043,13.3994054794312,13.4080648422241,13.4167346954346,13.4254159927368,13.4341087341309,13.4428129196167,13.45152759552,13.4602546691895,13.4689922332764,13.4777412414551,13.4865016937256,13.4952735900879,13.504056930542,13.5128517150879,13.5216579437256,13.5304756164551,13.5393056869507,13.5481462478638,13.5569982528687,13.5658626556396,13.5747375488281,13.5836248397827,13.5925235748291,13.6014337539673,13.6103563308716,13.6192903518677,13.6282358169556,13.6371927261353,13.6461620330811,13.6551427841187,13.6641359329224,13.6731405258179,13.6821565628052,13.6911849975586,13.7002248764038,13.7092771530151,13.7183418273926,13.7274179458618,13.7365064620972,13.7456064224243,13.7547187805176,13.763843536377,13.7729797363281,13.7821283340454,13.7912893295288,13.800461769104,13.8096475601196,13.8188447952271,13.8280544281006,13.8372764587402,13.856273651123,13.8887348175049,13.921347618103,13.9541149139404,13.9870367050171,14.0201139450073,14.0533475875854,14.0867395401001,14.1202907562256,14.1540021896362,14.1878747940063,14.2219104766846,14.2561092376709,14.290472984314,14.3250026702881,14.3596992492676,14.3945646286011,14.4296007156372,14.4648065567017,14.5001850128174,14.5357370376587,14.5714635848999,14.6073665618896,14.6434459686279,14.679705619812,14.7161436080933,14.7527637481689,14.7895669937134,14.8265542984009,14.8637266159058,14.9010858535767,14.9386329650879,14.9763698577881,15.0142984390259,15.0749473571777,15.1431636810303,15.2120008468628,15.2814655303955,15.3515682220459,15.4223175048828,15.4937210083008,15.5657892227173,15.6385316848755,15.7119560241699,15.7860736846924,18.0233516693115,18.1809711456299,0,0,0,0,0,0,0,0,0,0,0,0,0,0,0,0,0,0,0,0,0,0,0,0,0,0,0,0,0,0,0,0,0,0,0,0,0,0,0,0,0,0,0,0,0,0,0,0,0,0,0,0,0,0,0,0,0,0,0,0,0,0,0,0,0,0,0,0,0,0,0,0,0,0,0
11.6389770507812,11.6389713287354,11.6389656066895,11.6389598846436,11.6389541625977,11.6389493942261,11.6389436721802,11.6389379501343,11.6389322280884,11.6389265060425,11.6389207839966,11.638916015625,11.6389102935791,11.6389045715332,11.6388988494873,11.6388931274414,11.6388883590698,11.6388826370239,11.638876914978,11.6388711929321,11.6388654708862,11.6388597488403,11.6388549804688,11.6388492584229,11.638843536377,11.6388378143311,11.6388320922852,11.6388263702393,11.6388216018677,11.6388158798218,11.6388101577759,11.63880443573,11.6387987136841,11.6387929916382,11.6387882232666,11.6387825012207,11.6387767791748,11.6387710571289,11.638765335083,11.6387596130371,11.6387548446655,11.6387491226196,11.6387434005737,11.6387376785278,11.6839904785156,11.7414884567261,11.7995557785034,11.8582010269165,11.9174318313599,11.9772567749023,12.0376863479614,12.0987281799316,12.1603918075562,12.2226886749268,12.2856254577637,12.349214553833,12.4134654998779,12.4783887863159,12.5439939498901,12.5788917541504,12.5727586746216,12.5666313171387,12.560510635376,12.4399404525757,12.4497842788696,12.4596433639526,12.4695177078247,12.4794073104858,12.4893131256104,12.4992351531982,12.5091724395752,12.5191259384155,12.5290946960449,12.5390796661377,12.5490808486938,12.5590972900391,12.5691299438477,12.5791788101196,12.589243888855,12.5993251800537,12.6094226837158,12.619535446167,12.6296653747559,12.6398115158081,12.6499738693237,12.6601524353027,12.6703472137451,12.6805591583252,12.6907863616943,12.7010307312012,12.7112922668457,12.7215700149536,12.7318639755249,12.7421741485596,12.7525014877319,12.762845993042,12.7732067108154,12.7835845947266,12.7939786911011,12.8043909072876,12.8148193359375,12.8252649307251,12.8357276916504,12.8462066650391,12.8567037582397,12.8672170639038,12.8777484893799,12.8882970809937,12.8988628387451,12.9094457626343,12.9200458526611,12.9306640625,12.9412994384766,12.9519519805908,12.9626216888428,12.9733104705811,12.9840154647827,12.9947385787964,13.0054798126221,13.0162382125854,13.0270156860352,13.0378093719482,13.0486221313477,13.0594520568848,13.0703001022339,13.0811672210693,13.0919437408447,13.1002101898193,13.1084861755371,13.1167736053467,13.1250705718994,13.1333789825439,13.1416969299316,13.1500263214111,13.1583652496338,13.1667156219482,13.1750764846802,13.1834478378296,13.1918296813965,13.2002229690552,13.208625793457,13.2170400619507,13.2254648208618,13.2339000701904,13.2423467636108,13.2508039474487,13.2592716217041,13.2677507400513,13.2762393951416,13.284740447998,13.293251991272,13.3017740249634,13.3103075027466,13.3188514709473,13.3274059295654,13.3359727859497,13.3445501327515,13.3531379699707,13.3617372512817,13.3703470230103,13.3789691925049,13.3876008987427,13.3962450027466,13.404899597168,13.4135656356812,13.4222431182861,13.4309320449829,13.4396314620972,13.4483423233032,13.4570646286011,13.4657983779907,13.4745435714722,13.4833002090454,13.4920673370361,13.500846862793,13.5096378326416,13.5184392929077,13.5272531509399,13.5360774993896,13.5449142456055,13.5537624359131,13.5626220703125,13.5714931488037,13.580376625061,13.5892705917358,13.5981769561768,13.6070947647095,13.616024017334,13.6249656677246,13.633918762207,13.6428833007812,13.6518602371216,13.6608486175537,13.6698484420776,13.6788606643677,13.6878852844238,13.6969213485718,13.7059688568115,13.7150287628174,13.724100112915,13.7331838607788,13.7422800064087,13.7513875961304,13.7605075836182,13.7696399688721,13.7787847518921,13.7879409790039,13.7971096038818,13.8062896728516,13.8154830932617,13.8246879577637,13.8551788330078,13.8876352310181,13.9202432632446,13.9530048370361,13.9859209060669,14.0189933776855,14.0522222518921,14.0856084823608,14.1191539764404,14.1528606414795,14.1867275238037,14.2207565307617,14.2549505233765,14.2893085479736,14.3238325119019,14.3585243225098,14.3933839797974,14.4284133911133,14.4636135101318,14.4989862442017,14.5345325469971,14.5702533721924,14.6061496734619,14.6422243118286,14.6784763336182,14.7149095535278,14.7515230178833,14.7883195877075,14.8253002166748,14.8624668121338,14.8998193740845,14.9373607635498,14.9750919342041,15.0130138397217,15.0511274337769,15.1074686050415,15.1759805679321,15.2451162338257,15.3148851394653,15.3852949142456,15.456356048584,15.528076171875,15.6004648208618,15.6735324859619,15.7472867965698,15.8217391967773,0,0,0,0,0,0,0,0,0,0,0,0,0,0,0,0,0,0,0,0,0,0,0,0,0,0,0,0,0,0,0,0,0,0,0,0,0,0,0,0,0,0,0,0,0,0,0,0,0,0,0,0,0,0,0,0,0,0,0,0,0,0,0,0,0,0,0,0,0,0,0,0,0,0,0
11.6392679214478,11.6392621994019,11.639256477356,11.6392507553101,11.6392450332642,11.6392393112183,11.6392345428467,11.6392288208008,11.6392230987549,11.639217376709,11.6392116546631,11.6392068862915,11.6392011642456,11.6391954421997,11.6391897201538,11.6391839981079,11.639178276062,11.6391735076904,11.6391677856445,11.6391620635986,11.6391563415527,11.6391506195068,11.6391448974609,11.6391401290894,11.6391344070435,11.6391286849976,11.6391229629517,11.6391172409058,11.6391115188599,11.6391067504883,11.6391010284424,11.6390953063965,11.6390895843506,11.6390838623047,11.6390781402588,11.6390733718872,11.6390676498413,11.6390619277954,11.6390562057495,11.6390504837036,11.6390447616577,11.6390399932861,11.6390342712402,11.6390285491943,11.6843929290771,11.7418947219849,11.7999658584595,11.8586149215698,11.9178495407104,11.9776792526245,12.0381126403809,12.0991592407227,12.1608276367188,12.2231283187866,12.2860698699951,12.349663734436,12.4139194488525,12.4788465499878,12.5444574356079,12.5592956542969,12.5640354156494,12.5687780380249,12.393726348877,12.4034967422485,12.4132823944092,12.4230833053589,12.432900428772,12.4427318572998,12.4525804519653,12.4624433517456,12.4723224639893,12.482216835022,12.4921274185181,12.5020532608032,12.5119953155518,12.5219526290894,12.5319261550903,12.5419158935547,12.5519208908081,12.5619430541992,12.5719804763794,12.5820331573486,12.5921030044556,12.6021890640259,12.6122903823853,12.6224088668823,12.6325426101685,12.6426935195923,12.6528606414795,12.6630439758301,12.673243522644,12.6834592819214,12.6936922073364,12.7039413452148,12.7142066955566,12.7244892120361,12.734787940979,12.7451038360596,12.7554359436035,12.7657852172852,12.7761507034302,12.7865333557129,12.7969331741333,12.8073501586914,12.8177833557129,12.8282337188721,12.8387012481689,12.8491859436035,12.8596878051758,12.8702068328857,12.8807430267334,12.8912963867188,12.9018669128418,12.9124546051025,12.923059463501,12.9336824417114,12.9443225860596,12.9549808502197,12.9656562805176,12.9763488769531,12.9870595932007,12.9977874755859,13.0085334777832,13.0192975997925,13.0300788879395,13.0408792495728,13.0516958236694,13.0625314712524,13.0733852386475,13.0842561721802,13.0951461791992,13.106053352356,13.116979598999,13.1279239654541,13.1386566162109,13.1469812393188,13.1553173065186,13.1636638641357,13.1720209121704,13.1803884506226,13.1887664794922,13.1971549987793,13.2055540084839,13.2139644622803,13.2223854064941,13.2308168411255,13.2392597198486,13.2477121353149,13.256175994873,13.2646512985229,13.2731370925903,13.2816333770752,13.2901411056519,13.298659324646,13.3071880340576,13.315728187561,13.3242797851562,13.3328418731689,13.3414144515991,13.3499984741211,13.3585939407349,13.3671998977661,13.3758172988892,13.384446144104,13.3930854797363,13.4017362594604,13.4103984832764,13.4190711975098,13.4277563095093,13.4364519119263,13.4451589584351,13.4538764953613,13.4626064300537,13.4713468551636,13.4800996780396,13.488862991333,13.4976377487183,13.5064239501953,13.5152225494385,13.5240316390991,13.5328521728516,13.5416851043701,13.5505285263062,13.5593843460083,13.5682506561279,13.5771293640137,13.5860195159912,13.5949220657349,13.603835105896,13.6127605438232,13.6216974258423,13.6306467056274,13.6396064758301,13.6485786437988,13.6575632095337,13.6665592193604,13.6755666732788,13.6845865249634,13.6936178207397,13.7026615142822,13.7117166519165,13.7207841873169,13.7298641204834,13.7389554977417,13.7480592727661,13.7571744918823,13.7663021087646,13.7754421234131,13.7845935821533,13.793758392334,13.8029346466064,13.8217849731445,13.8540849685669,13.8865356445312,13.9191379547119,13.9518947601318,13.984806060791,14.0178728103638,14.0510959625244,14.0844774246216,14.1180181503296,14.1517181396484,14.1855802536011,14.2196035385132,14.253791809082,14.2881441116333,14.3226623535156,14.3573484420776,14.3922023773193,14.4272260665894,14.4624214172363,14.4977874755859,14.5333280563354,14.5690431594849,14.6049337387085,14.641001701355,14.6772480010986,14.7136745452881,14.7502822875977,14.787073135376,14.824047088623,14.8612070083618,14.8985538482666,14.9360885620117,14.9738130569458,15.0117282867432,15.0498361587524,15.0881385803223,15.1401300430298,15.2089395523071,15.2783765792847,15.3484506607056,15.4191703796387,15.4905452728271,15.5625839233398,15.6352958679199,15.7086906433105,15.7827768325806,0,0,0,0,0,0,0,0,0,0,0,0,0,0,0,0,0,0,0,0,0,0,0,0,0,0,0,0,0,0,0,0,0,0,0,0,0,0,0,0,0,0,0,0,0,0,0,0,0,0,0,0,0,0,0,0,0,0,0,0,0,0,0,0,0,0,0,0,0,0,0,0,0,0
11.6395587921143,11.6395530700684,11.6395473480225,11.6395416259766,11.6395359039307,11.6395301818848,11.6395254135132,11.6395196914673,11.6395139694214,11.6395082473755,11.6395025253296,11.6394968032837,11.6394920349121,11.6394863128662,11.6394805908203,11.6394748687744,11.6394691467285,11.6394634246826,11.639458656311,11.6394529342651,11.6394472122192,11.6394414901733,11.6394357681274,11.6394300460815,11.63942527771,11.6394195556641,11.6394138336182,11.6394081115723,11.6394023895264,11.6393966674805,11.6393918991089,11.639386177063,11.6393804550171,11.6393747329712,11.6393690109253,11.6393642425537,11.6393585205078,11.6393527984619,11.639347076416,11.6393413543701,11.6393356323242,11.6393299102783,11.6393251419067,11.6393194198608,11.6847953796387,11.7423009872437,11.8003749847412,11.8590288162231,11.918267250061,11.9781017303467,12.0385389328003,12.0995893478394,12.161262512207,12.2235679626465,12.2865142822266,12.3501129150391,12.4143724441528,12.479305267334,12.5194435119629,12.5250492095947,12.5326147079468,12.5401887893677,12.3575525283813,12.3672657012939,12.3769941329956,12.3867378234863,12.3964967727661,12.4062719345093,12.4160623550415,12.4258670806885,12.4356880187988,12.4455251693726,12.4553775787354,12.4652452468872,12.4751281738281,12.4850273132324,12.4949417114258,12.5048723220825,12.5148191452026,12.5247812271118,12.5347595214844,12.544753074646,12.554762840271,12.5647888183594,12.5748310089111,12.5848894119263,12.5949630737305,12.605052947998,12.6151599884033,12.6252822875977,12.6354217529297,12.6455764770508,12.6557483673096,12.6659364700317,12.6761407852173,12.6863613128662,12.6965980529785,12.7068519592285,12.7171230316162,12.727409362793,12.7377128601074,12.7480335235596,12.7583703994751,12.7687244415283,12.7790956497192,12.7894830703735,12.7998876571655,12.8103084564209,12.8207473754883,12.831202507019,12.8416748046875,12.8521642684937,12.8626708984375,12.8731956481934,12.8837366104126,12.8942947387695,12.9048709869385,12.9154634475708,12.9260740280151,12.9367017745972,12.9473476409912,12.9580106735229,12.9686908721924,12.9793891906738,12.990104675293,13.0008382797241,13.011589050293,13.0223579406738,13.0331449508667,13.0439491271973,13.0547723770142,13.0656127929688,13.0764713287354,13.0873470306396,13.0982418060303,13.1091547012329,13.1200857162476,13.1310348510742,13.1420030593872,13.1529884338379,13.1639928817749,13.1750154495239,13.1857042312622,13.1940889358521,13.2024841308594,13.2108907699585,13.2193078994751,13.2277355194092,13.2361736297607,13.2446231842041,13.2530822753906,13.2615537643433,13.2700347900391,13.2785272598267,13.2870311737061,13.2955455780029,13.3040704727173,13.3126068115234,13.3211536407471,13.3297119140625,13.3382806777954,13.3468608856201,13.3554525375366,13.3640546798706,13.3726673126221,13.3812923431396,13.3899278640747,13.3985748291016,13.4072322845459,13.415901184082,13.42458152771,13.4332733154297,13.4419755935669,13.4506902694702,13.459415435791,13.4681520462036,13.476900100708,13.4856595993042,13.4944305419922,13.503212928772,13.5120067596436,13.5208110809326,13.5296277999878,13.5384559631348,13.5472955703735,13.5561475753784,13.5650100708008,13.5738840103149,13.5827703475952,13.5916681289673,13.6005773544312,13.6094980239868,13.6184310913086,13.6273756027222,13.6363315582275,13.645299911499,13.6542797088623,13.6632709503174,13.6722745895386,13.6812896728516,13.6903171539307,13.6993560791016,13.7084074020386,13.7174701690674,13.7265453338623,13.735631942749,13.7447319030762,13.7538423538208,13.7629661560059,13.7721014022827,13.7812490463257,13.7904081344604,13.8206958770752,13.8529901504517,13.8854360580444,13.9180335998535,13.9507846832275,13.9836912155151,14.016752243042,14.0499706268311,14.0833463668823,14.1168813705444,14.1505765914917,14.1844329833984,14.218451499939,14.2526330947876,14.2869806289673,14.3214931488037,14.3561735153198,14.3910217285156,14.4260396957397,14.4612283706665,14.4965896606445,14.5321235656738,14.5678329467773,14.6037178039551,14.6397790908813,14.6760196685791,14.7124404907227,14.7490425109863,14.7858266830444,14.8227949142456,14.8599481582642,14.8972883224487,14.9348163604736,14.9725351333618,15.010443687439,15.048544883728,15.0868406295776,15.1253309249878,15.1729335784912,15.2420415878296,15.3117818832397,15.3821640014648,15.4531955718994,15.5248861312866,15.5972452163696,15.6702823638916,15.7440061569214,15.8184270858765,0,0,0,0,0,0,0,0,0,0,0,0,0,0,0,0,0,0,0,0,0,0,0,0,0,0,0,0,0,0,0,0,0,0,0,0,0,0,0,0,0,0,0,0,0,0,0,0,0,0,0,0,0,0,0,0,0,0,0,0,0,0,0,0,0,0,0,0,0,0,0,0
11.6398487091064,11.6398439407349,11.639838218689,11.6398324966431,11.6398267745972,11.6398210525513,11.6398153305054,11.6398105621338,11.6398048400879,11.639799118042,11.6397933959961,11.6397876739502,11.6397819519043,11.6397771835327,11.6397714614868,11.6397657394409,11.639760017395,11.6397542953491,11.6397485733032,11.6397438049316,11.6397380828857,11.6397323608398,11.6397266387939,11.639720916748,11.6397151947021,11.6397104263306,11.6397047042847,11.6396989822388,11.6396932601929,11.639687538147,11.6396827697754,11.6396770477295,11.6396713256836,11.6396656036377,11.6396598815918,11.6396541595459,11.6396493911743,11.6396436691284,11.6396379470825,11.6396322250366,11.6396265029907,11.6396207809448,11.6396160125732,11.6396102905273,11.6851978302002,11.7427072525024,11.8007860183716,11.8594427108765,11.9186859130859,11.9785232543945,12.0389652252197,12.1000204086304,12.1616983413696,12.2240076065063,12.286958694458,12.3505611419678,12.4148263931274,12.4797630310059,12.4996557235718,12.5071907043457,12.5147342681885,12.3119468688965,12.3215885162354,12.3312454223633,12.3409175872803,12.350604057312,12.3603067398071,12.3700246810913,12.3797569274902,12.3895053863525,12.3992691040039,12.4090480804443,12.4188423156738,12.4286527633667,12.4384784698486,12.4483194351196,12.4581756591797,12.4680480957031,12.4779357910156,12.4878387451172,12.4977579116821,12.5076932907104,12.5176439285278,12.5276107788086,12.5375938415527,12.5475921630859,12.5576066970825,12.5676364898682,12.5776834487915,12.5877456665039,12.597825050354,12.6079196929932,12.6180305480957,12.6281576156616,12.6383008956909,12.6484613418579,12.658637046814,12.6688299179077,12.6790390014648,12.6892642974854,12.6995067596436,12.7097644805908,12.7200403213501,12.7303314208984,12.7406396865845,12.7509651184082,12.7613067626953,12.7716655731201,12.7820415496826,12.7924337387085,12.8028430938721,12.813268661499,12.823712348938,12.8341722488403,12.8446493148804,12.8551445007324,12.8656558990479,12.876184463501,12.8867301940918,12.8972940444946,12.9078750610352,12.9184722900391,12.9290885925293,12.9397211074829,12.9503717422485,12.9610395431519,12.9717254638672,12.9824285507202,12.9931488037109,13.003888130188,13.0146446228027,13.0254182815552,13.0362100601196,13.0470199584961,13.0578479766846,13.0686941146851,13.0795583724976,13.0904397964478,13.10133934021,13.1122579574585,13.1231937408447,13.1341485977173,13.1451215744019,13.1561126708984,13.167121887207,13.178150177002,13.1891965866089,13.2002611160278,13.2113447189331,13.2224473953247,13.2330894470215,13.2415342330933,13.2499904632568,13.2584571838379,13.2669353485107,13.2754240036011,13.2839231491089,13.2924337387085,13.3009548187256,13.3094863891602,13.3180294036865,13.3265838623047,13.3351488113403,13.3437252044678,13.3523120880127,13.3609104156494,13.3695192337036,13.3781394958496,13.3867712020874,13.395414352417,13.4040679931641,13.4127330780029,13.4214086532593,13.4300966262817,13.4387950897217,13.4475049972534,13.456226348877,13.4649591445923,13.4737024307251,13.482458114624,13.4912242889404,13.5000028610229,13.5087919235229,13.5175933837891,13.5264053344727,13.5352296829224,13.5440645217896,13.5529117584229,13.5617704391479,13.5706405639648,13.5795221328735,13.5884160995483,13.5973205566406,13.606237411499,13.6151657104492,13.6241064071655,13.6330575942993,13.6420211791992,13.6509971618652,13.659984588623,13.6689834594727,13.6779947280884,13.6870174407959,13.6960525512695,13.705099105835,13.7141571044922,13.7232284545898,13.7323112487793,13.7414054870605,13.7505121231079,13.7596311569214,13.768762588501,13.787467956543,13.8196067810059,13.8518962860107,13.8843364715576,13.9169292449951,13.9496755599976,13.9825763702393,14.0156326293945,14.0488452911377,14.0822153091431,14.1157455444336,14.149435043335,14.1832857131958,14.2172985076904,14.2514753341675,14.285816192627,14.3203239440918,14.354998588562,14.3898410797119,14.4248533248901,14.460036277771,14.4953908920288,14.5309200286865,14.5666227340698,14.6025018692017,14.638557434082,14.6747922897339,14.7112064361572,14.7478017807007,14.7845802307129,14.8215417861938,14.8586893081665,14.8960227966309,14.9335451126099,14.9712562561035,15.0091590881348,15.0472536087036,15.085542678833,15.1240262985229,15.1627073287964,15.2058792114258,15.2752885818481,15.3453340530396,15.4160251617432,15.4873714447021,15.559380531311,15.632061958313,15.7054262161255,15.7794818878174,0,0,0,0,0,0,0,0,0,0,0,0,0,0,0,0,0,0,0,0,0,0,0,0,0,0,0,0,0,0,0,0,0,0,0,0,0,0,0,0,0,0,0,0,0,0,0,0,0,0,0,0,0,0,0,0,0,0,0,0,0,0,0,0,0,0,0,0,0,0,0
11.6401395797729,11.6401338577271,11.6401290893555,11.6401233673096,11.6401176452637,11.6401119232178,11.6401062011719,11.640100479126,11.6400957107544,11.6400899887085,11.6400842666626,11.6400785446167,11.6400728225708,11.6400680541992,11.6400623321533,11.6400566101074,11.6400508880615,11.6400451660156,11.6400394439697,11.6400346755981,11.6400289535522,11.6400232315063,11.6400175094604,11.6400117874146,11.6400060653687,11.6400012969971,11.6399955749512,11.6399898529053,11.6399841308594,11.6399784088135,11.6399726867676,11.639967918396,11.6399621963501,11.6399564743042,11.6399507522583,11.6399450302124,11.6399393081665,11.6399345397949,11.639928817749,11.6399230957031,11.6399173736572,11.6399116516113,11.6399059295654,11.6399011611938,11.6856002807617,11.7431144714355,11.8011960983276,11.8598566055298,11.9191036224365,11.9789457321167,12.0393924713135,12.1004514694214,12.1621332168579,12.2244472503662,12.2874031066895,12.3510103225708,12.4152793884277,12.474365234375,12.4818696975708,12.4893827438354,12.266676902771,12.2762479782104,12.2858333587646,12.2954339981079,12.3050498962402,12.3146810531616,12.3243274688721,12.3339881896973,12.3436641693115,12.3533563613892,12.3630628585815,12.372784614563,12.3825216293335,12.3922748565674,12.402042388916,12.411826133728,12.4216251373291,12.4314393997192,12.4412689208984,12.451114654541,12.4609756469727,12.4708518981934,12.4807443618774,12.4906520843506,12.5005760192871,12.5105152130127,12.5204706192017,12.530442237854,12.5404291152954,12.5504322052002,12.560450553894,12.5704860687256,12.5805368423462,12.5906038284302,12.6006870269775,12.6107864379883,12.6209020614624,12.6310348510742,12.6411828994751,12.6513471603394,12.661527633667,12.6717252731323,12.681939125061,12.6921691894531,12.7024154663086,12.7126789093018,12.7229585647583,12.7332553863525,12.7435684204102,12.7538976669312,12.7642450332642,12.7746076583862,12.7849884033203,12.7953853607178,12.8057994842529,12.8162307739258,12.826678276062,12.8371438980103,12.8476257324219,12.8581247329712,12.8686418533325,12.8791751861572,12.8897266387939,12.900294303894,12.9108800888062,12.921483039856,12.9321031570435,12.942741394043,12.9533967971802,12.9640693664551,12.974760055542,12.9854688644409,12.9961948394775,13.0069379806519,13.0176992416382,13.0284786224365,13.0392761230469,13.0500907897949,13.060923576355,13.0717744827271,13.0826435089111,13.0935306549072,13.1044359207153,13.1153593063354,13.1263008117676,13.137261390686,13.1482391357422,13.1592359542847,13.1702508926392,13.18128490448,13.1923360824585,13.2034072875977,13.2144966125488,13.225604057312,13.2367296218872,13.247875213623,13.2590389251709,13.2702207565308,13.280816078186,13.2893228530884,13.2978401184082,13.3063678741455,13.3149070739746,13.3234567642212,13.3320178985596,13.3405904769897,13.3491735458374,13.3577671051025,13.3663730621338,13.3749885559082,13.3836164474487,13.3922548294067,13.4009046554565,13.4095659255981,13.4182376861572,13.4269208908081,13.4356155395508,13.4443216323853,13.4530382156372,13.4617671966553,13.4705066680908,13.4792575836182,13.4880199432373,13.4967937469482,13.5055799484253,13.5143766403198,13.5231847763062,13.5320043563843,13.5408353805542,13.5496778488159,13.5585327148438,13.5673980712891,13.5762758255005,13.5851650238037,13.5940656661987,13.6029787063599,13.6119022369385,13.6208381652832,13.6297855377197,13.6387453079224,13.6477165222168,13.656699180603,13.6656942367554,13.6747007369995,13.6837196350098,13.6927499771118,13.7017917633057,13.7108459472656,13.7199125289917,13.7289905548096,13.7380809783936,13.7471837997437,13.7562980651855,13.7863845825195,13.8185176849365,13.8508024215698,13.8832378387451,13.9158248901367,13.9485664367676,13.9814615249634,14.0145120620728,14.0477199554443,14.0810852050781,14.1146087646484,14.1482934951782,14.1821384429932,14.2161464691162,14.2503175735474,14.2846527099609,14.3191547393799,14.3538236618042,14.3886604309082,14.4236669540405,14.4588441848755,14.4941930770874,14.5297155380249,14.5654125213623,14.6012859344482,14.6373357772827,14.6735639572144,14.7099723815918,14.7465620040894,14.7833337783813,14.8202896118164,14.8574304580688,14.8947582244873,14.9322738647461,14.9699783325195,15.0078744888306,15.0459632873535,15.0842447280884,15.1227226257324,15.1613969802856,15.2002696990967,15.2393417358398,15.3086805343628,15.3790340423584,15.4500370025635,15.5216979980469,15.5940275192261,15.6670341491699,15.7407274246216,0,0,0,0,0,0,0,0,0,0,0,0,0,0,0,0,0,0,0,0,0,0,0,0,0,0,0,0,0,0,0,0,0,0,0,0,0,0,0,0,0,0,0,0,0,0,0,0,0,0,0,0,0,0,0,0,0,0,0,0,0,0,0,0,0,0,0,0,0,0
11.6404304504395,11.6404247283936,11.640419960022,11.6404142379761,11.6404085159302,11.6404027938843,11.6403970718384,11.6403913497925,11.6403865814209,11.640380859375,11.6403751373291,11.6403694152832,11.6403636932373,11.6403579711914,11.6403532028198,11.6403474807739,11.640341758728,11.6403360366821,11.6403303146362,11.6403245925903,11.6403198242188,11.6403141021729,11.640308380127,11.6403026580811,11.6402969360352,11.6402912139893,11.6402864456177,11.6402807235718,11.6402750015259,11.64026927948,11.6402635574341,11.6402587890625,11.6402530670166,11.6402473449707,11.6402416229248,11.6402359008789,11.640230178833,11.6402254104614,11.6402196884155,11.6402139663696,11.6402082443237,11.6402025222778,11.6401968002319,11.6401920318604,11.6860027313232,11.7435207366943,11.801607131958,11.8602714538574,11.9195213317871,11.9793682098389,12.0398187637329,12.1008825302124,12.1625680923462,12.2248868942261,12.2878475189209,12.3514595031738,12.4157333374023,12.4566507339478,12.4641332626343,12.471625328064,12.2312393188477,12.2407550811768,12.2502851486206,12.2598304748535,12.2693910598755,12.2789659500122,12.288556098938,12.2981615066528,12.3077812194824,12.3174171447754,12.3270673751831,12.3367328643799,12.3464126586914,12.3561086654663,12.3658199310303,12.3755464553833,12.3852872848511,12.3950443267822,12.4048166275024,12.414605140686,12.4244079589844,12.4342269897461,12.4440612792969,12.4539108276367,12.4637765884399,12.4736576080322,12.4835538864136,12.4934663772583,12.5033950805664,12.5133390426636,12.5232982635498,12.5332736968994,12.5432653427124,12.5532732009888,12.5632972717285,12.5733366012573,12.5833921432495,12.5934638977051,12.603551864624,12.6136560440063,12.6237754821777,12.6339120864868,12.6440649032593,12.6542339324951,12.6644201278687,12.6746215820312,12.6848402023315,12.6950750350952,12.7053260803223,12.715594291687,12.7258787155151,12.7361793518066,12.7464971542358,12.7568321228027,12.767183303833,12.777551651001,12.7879371643066,12.7983388900757,12.8087577819824,12.8191938400269,12.8296461105347,12.8401165008545,12.8506031036377,12.8611078262329,12.8716287612915,12.8821678161621,12.8927230834961,12.9032964706421,12.9138870239258,12.9244947433472,12.9351205825806,12.9457635879517,12.9564237594604,12.9671010971069,12.9777975082397,12.9885101318359,12.9992408752441,13.0099897384644,13.0207567214966,13.0315408706665,13.0423431396484,13.0531625747681,13.064001083374,13.0748567581177,13.0857315063477,13.0966234207153,13.1075344085693,13.118462562561,13.1294097900391,13.1403741836548,13.1513576507568,13.1623601913452,13.1733798980713,13.1844186782837,13.1954755783081,13.2065515518188,13.2176456451416,13.2287588119507,13.2398910522461,13.2510414123535,13.2622108459473,13.2733993530273,13.2846059799194,13.2958316802979,13.3070764541626,13.318341255188,13.3288888931274,13.337456703186,13.3460359573364,13.3546266555786,13.363226890564,13.3718395233154,13.3804626464844,13.3890972137451,13.3977432250977,13.4063997268677,13.4150676727295,13.4237470626831,13.4324378967285,13.4411392211914,13.4498519897461,13.4585762023926,13.4673118591309,13.4760589599609,13.4848175048828,13.4935874938965,13.5023679733276,13.5111608505249,13.519965171814,13.5287809371948,13.5376071929932,13.5464458465576,13.5552959442139,13.5641574859619,13.5730314254761,13.5819158554077,13.5908126831055,13.599720954895,13.6086406707764,13.6175718307495,13.6265153884888,13.6354703903198,13.6444368362427,13.6534156799316,13.6624059677124,13.6714086532593,13.6804227828979,13.6894493103027,13.6984872817993,13.7075366973877,13.7165985107422,13.7256727218628,13.7347583770752,13.7533206939697,13.7853002548218,13.8174295425415,13.8497085571289,13.8821382522583,13.9147214889526,13.9474563598633,13.9803466796875,14.0133924484253,14.046594619751,14.0799541473389,14.1134729385376,14.1471519470215,14.1809921264648,14.214994430542,14.2491598129272,14.2834892272949,14.317985534668,14.3526487350464,14.3874797821045,14.4224805831909,14.45765209198,14.492995262146,14.5285120010376,14.5642032623291,14.6000699996948,14.6361141204834,14.6723365783691,14.7087392807007,14.745322227478,14.7820882797241,14.819037437439,14.8561716079712,14.8934926986694,14.9310026168823,14.9687013626099,15.0065908432007,15.0446720123291,15.0829477310181,15.1214189529419,15.1600866317749,15.1989517211914,15.2380180358887,15.2772846221924,15.3422193527222,15.4128818511963,15.4841976165771,15.5561771392822,15.6288290023804,15.7021627426147,15.7761878967285,0,0,0,0,0,0,0,0,0,0,0,0,0,0,0,0,0,0,0,0,0,0,0,0,0,0,0,0,0,0,0,0,0,0,0,0,0,0,0,0,0,0,0,0,0,0,0,0,0,0,0,0,0,0,0,0,0,0,0,0,0,0,0,0,0,0,0,0
11.640721321106,11.6407155990601,11.6407098770142,11.6407051086426,11.6406993865967,11.6406936645508,11.6406879425049,11.640682220459,11.6406774520874,11.6406717300415,11.6406660079956,11.6406602859497,11.6406545639038,11.6406488418579,11.6406440734863,11.6406383514404,11.6406326293945,11.6406269073486,11.6406211853027,11.6406154632568,11.6406106948853,11.6406049728394,11.6405992507935,11.6405935287476,11.6405878067017,11.6405820846558,11.6405773162842,11.6405715942383,11.6405658721924,11.6405601501465,11.6405544281006,11.6405487060547,11.6405439376831,11.6405382156372,11.6405324935913,11.6405267715454,11.6405210494995,11.6405153274536,11.640510559082,11.6405048370361,11.6404991149902,11.6404933929443,11.6404876708984,11.6404819488525,11.6864061355591,11.7439270019531,11.8020181655884,11.8606853485107,11.919939994812,11.979790687561,12.0402450561523,12.1013135910034,12.1630039215088,12.2253265380859,12.2882919311523,12.3519086837769,12.416187286377,12.438985824585,12.4464473724365,12.1865653991699,12.1960115432739,12.205472946167,12.2149486541748,12.2244396209717,12.2339448928833,12.243465423584,12.2530002593994,12.2625503540039,12.2721147537231,12.2816944122314,12.2912883758545,12.3008975982666,12.3105211257935,12.3201608657837,12.3298149108887,12.3394842147827,12.3491687774658,12.358868598938,12.3685836791992,12.3783140182495,12.3880605697632,12.3978214263916,12.4075975418091,12.4173898696899,12.4271965026855,12.4370193481445,12.4468584060669,12.456711769104,12.4665813446045,12.4764671325684,12.4863681793213,12.4962844848633,12.5062170028687,12.5161657333374,12.5261297225952,12.5361089706421,12.5461053848267,12.5561170578003,12.5661449432373,12.5761890411377,12.5862483978271,12.5963249206543,12.6064167022705,12.6165256500244,12.6266508102417,12.636791229248,12.6469488143921,12.6571226119995,12.6673126220703,12.6775197982788,12.6877422332764,12.6979818344116,12.7082376480103,12.7185106277466,12.7287998199463,12.7391061782837,12.7494287490845,12.7597675323486,12.7701234817505,12.78049659729,12.7908868789673,12.8012933731079,12.8117170333862,12.8221578598022,12.832615852356,12.843090057373,12.8535823822021,12.8640909194946,12.8746175765991,12.8851613998413,12.8957214355469,12.9062995910645,12.9168949127197,12.927508354187,12.9381380081177,12.9487867355347,12.959451675415,12.9701347351074,12.9808349609375,12.9915533065796,13.0022897720337,13.0130434036255,13.023814201355,13.0346040725708,13.0454111099243,13.0562362670898,13.0670795440674,13.0779409408569,13.0888204574585,13.0997171401978,13.1106328964233,13.1215667724609,13.1325187683105,13.1434888839722,13.1544780731201,13.1654844284058,13.1765108108521,13.187554359436,13.1986169815063,13.2096977233887,13.2207975387573,13.231915473938,13.243052482605,13.2542085647583,13.2653837203979,13.2765769958496,13.2877893447876,13.2990207672119,13.3102712631226,13.3215408325195,13.3328294754028,13.3441362380981,13.3554639816284,13.3668098449707,13.3773107528687,13.3859415054321,13.3945827484131,13.4032354354858,13.4118995666504,13.4205751419067,13.4292612075806,13.4379587173462,13.4466676712036,13.4553880691528,13.4641189575195,13.4728622436523,13.4816160202026,13.4903812408447,13.4991588592529,13.5079469680786,13.5167465209961,13.5255584716797,13.5343809127808,13.5432157516479,13.5520610809326,13.5609188079834,13.569787979126,13.5786685943604,13.5875606536865,13.5964641571045,13.6053800582886,13.6143074035645,13.6232461929321,13.6321973800659,13.6411600112915,13.6501340866089,13.6591205596924,13.6681184768677,13.6771278381348,13.686149597168,13.6951837539673,13.7042293548584,13.7132863998413,13.7223558425903,13.7522420883179,13.7842168807983,13.8163404464722,13.848614692688,13.8810396194458,13.9136171340942,13.9463472366333,13.9792327880859,14.0122728347778,14.0454702377319,14.0788240432739,14.1123380661011,14.1460113525391,14.1798448562622,14.2138423919678,14.2480020523071,14.2823266983032,14.3168172836304,14.3514738082886,14.3863000869751,14.4212951660156,14.4564599990845,14.4917984008789,14.5273084640503,14.5629940032959,14.5988550186157,14.6348934173584,14.6711091995239,14.7075052261353,14.7440824508667,14.7808418273926,14.8177852630615,14.8549137115479,14.8922281265259,14.9297313690186,14.9674234390259,15.0053062438965,15.043381690979,15.0816507339478,15.1201152801514,15.1587762832642,15.1976346969604,15.2366933822632,15.275954246521,15.3154172897339,15.3759050369263,15.4468784332275,15.5185108184814,15.5908107757568,15.6637868881226,15.7374496459961,0,0,0,0,0,0,0,0,0,0,0,0,0,0,0,0,0,0,0,0,0,0,0,0,0,0,0,0,0,0,0,0,0,0,0,0,0,0,0,0,0,0,0,0,0,0,0,0,0,0,0,0,0,0,0,0,0,0,0,0,0,0,0,0,0,0,0
11.6410121917725,11.6410064697266,11.6410007476807,11.6409959793091,11.6409902572632,11.6409845352173,11.6409788131714,11.6409730911255,11.6409673690796,11.640962600708,11.6409568786621,11.6409511566162,11.6409454345703,11.6409397125244,11.6409339904785,11.6409292221069,11.640923500061,11.6409177780151,11.6409120559692,11.6409063339233,11.6409015655518,11.6408958435059,11.64089012146,11.6408843994141,11.6408786773682,11.6408729553223,11.6408681869507,11.6408624649048,11.6408567428589,11.640851020813,11.6408452987671,11.6408395767212,11.6408348083496,11.6408290863037,11.6408233642578,11.6408176422119,11.640811920166,11.6408061981201,11.6408014297485,11.6407957077026,11.6407899856567,11.6407842636108,11.6407785415649,11.640772819519,11.6868085861206,11.7443342208862,11.8024282455444,11.8611001968384,11.9203586578369,11.9802131652832,12.0406723022461,12.1017446517944,12.1634387969971,12.2257661819458,12.2887363433838,12.3523569107056,12.4139394760132,12.1328611373901,12.1422252655029,12.1516027450562,12.1609945297241,12.1704015731812,12.1798229217529,12.1892585754395,12.198709487915,12.2081747055054,12.2176542282104,12.2271490097046,12.2366580963135,12.2461824417114,12.2557220458984,12.2652759552002,12.274845123291,12.2844285964966,12.2940282821655,12.3036422729492,12.3132705688477,12.3229150772095,12.332573890686,12.342248916626,12.351939201355,12.3616437911987,12.3713645935059,12.3811006546021,12.3908519744873,12.4006185531616,12.410400390625,12.4201974868774,12.4300098419189,12.4398374557495,12.4496803283691,12.4595384597778,12.4694128036499,12.479302406311,12.4892082214355,12.4991292953491,12.5090656280518,12.5190191268921,12.5289869308472,12.5389719009399,12.5489721298218,12.558988571167,12.5690212249756,12.5790691375732,12.5891342163086,12.599214553833,12.6093111038208,12.6194248199463,12.6295537948608,12.6396989822388,12.6498613357544,12.6600389480591,12.6702337265015,12.6804447174072,12.6906719207764,12.7009162902832,12.7111768722534,12.721453666687,12.7317476272583,12.742057800293,12.7523851394653,12.7627286911011,12.7730894088745,12.7834672927856,12.7938613891602,12.8042726516724,12.8147010803223,12.8251466751099,12.8356084823608,12.8460884094238,12.8565845489502,12.8670978546143,12.8776292800903,12.8881769180298,12.8987426757812,12.9093255996704,12.9199256896973,12.9305429458618,12.9411783218384,12.9518308639526,12.9625005722046,12.9731884002686,12.9838943481445,12.9946165084839,13.0053577423096,13.0161161422729,13.0268926620483,13.0376863479614,13.0484991073608,13.0593290328979,13.0701770782471,13.0810432434082,13.0919275283813,13.1028289794922,13.1137495040894,13.1246881484985,13.135645866394,13.1466207504272,13.1576147079468,13.168625831604,13.1796569824219,13.1907062530518,13.2017736434937,13.2128591537476,13.2239637374878,13.2350873947144,13.2462291717529,13.2573900222778,13.2685699462891,13.2797689437866,13.2909860610962,13.3022232055664,13.3134784698486,13.3247528076172,13.3360462188721,13.3473596572876,13.3586912155151,13.3700428009033,13.3814134597778,13.3928031921387,13.4042129516602,13.415641784668,13.4260864257812,13.4347791671753,13.4434843063354,13.4521999359131,13.4609279632568,13.4696664810181,13.4784164428711,13.4871778488159,13.4959506988525,13.504734992981,13.5135307312012,13.5223379135132,13.531156539917,13.5399866104126,13.548828125,13.5576810836792,13.5665454864502,13.5754222869873,13.5843105316162,13.5932102203369,13.6021213531494,13.6110439300537,13.6199789047241,13.6289253234863,13.6378841400146,13.6468534469604,13.6558361053467,13.6648292541504,13.6738348007202,13.6828517913818,13.6918811798096,13.7009229660034,13.7193422317505,13.751163482666,13.7831335067749,13.8152523040771,13.8475217819214,13.8799409866333,13.9125137329102,13.9452390670776,13.9781179428101,14.0111532211304,14.0443449020386,14.077693939209,14.1112022399902,14.1448698043823,14.1786985397339,14.2126903533936,14.246844291687,14.2811632156372,14.3156480789185,14.3502998352051,14.3851194381714,14.420108795166,14.4552688598633,14.4906005859375,14.5261058807373,14.5617847442627,14.5976400375366,14.6336717605591,14.6698818206787,14.7062721252441,14.7428436279297,14.7795963287354,14.8165330886841,14.8536558151245,14.8909645080566,14.9284610748291,14.9661464691162,15.0040225982666,15.0420913696289,15.0803537368774,15.1188116073608,15.1574659347534,15.1963176727295,15.2353706359863,15.2746238708496,15.314079284668,15.3537397384644,15.4097385406494,15.4810256958008,15.5529756546021,15.6255979537964,15.6989011764526,15.772894859314,0,0,0,0,0,0,0,0,0,0,0,0,0,0,0,0,0,0,0,0,0,0,0,0,0,0,0,0,0,0,0,0,0,0,0,0,0,0,0,0,0,0,0,0,0,0,0,0,0,0,0,0,0,0,0,0,0,0,0,0,0,0,0,0,0
11.641303062439,11.6412973403931,11.6412916183472,11.6412868499756,11.6412811279297,11.6412754058838,11.6412696838379,11.641263961792,11.6412582397461,11.6412534713745,11.6412477493286,11.6412420272827,11.6412363052368,11.6412305831909,11.641224861145,11.6412200927734,11.6412143707275,11.6412086486816,11.6412029266357,11.6411972045898,11.6411914825439,11.6411867141724,11.6411809921265,11.6411752700806,11.6411695480347,11.6411638259888,11.6411581039429,11.6411533355713,11.6411476135254,11.6411418914795,11.6411361694336,11.6411304473877,11.6411256790161,11.6411199569702,11.6411142349243,11.6411085128784,11.6411027908325,11.6410970687866,11.641092300415,11.6410865783691,11.6410808563232,11.6410751342773,11.6410694122314,11.6410636901855,11.6872110366821,11.744740486145,11.8028392791748,11.861515045166,11.9207782745361,11.9806356430054,12.0410985946655,12.1021747589111,12.1638746261597,12.22620677948,12.2891807556152,12.3528060913086,12.0889101028442,12.0982055664062,12.107515335083,12.1168394088745,12.1261777877808,12.1355314254761,12.1448984146118,12.1542806625366,12.1636762619019,12.1730880737305,12.1825132369995,12.1919527053833,12.2014074325562,12.2108774185181,12.2203617095947,12.2298603057861,12.2393741607666,12.2489023208618,12.2584457397461,12.2680034637451,12.2775764465332,12.2871646881104,12.2967681884766,12.3063859939575,12.3160190582275,12.3256683349609,12.3353319168091,12.345009803772,12.3547039031982,12.3644132614136,12.374137878418,12.3838777542114,12.3936328887939,12.4034032821655,12.4131889343262,12.4229907989502,12.432806968689,12.4426393508911,12.4524879455566,12.4623517990112,12.4722309112549,12.4821262359619,12.4920377731323,12.5019645690918,12.5119075775146,12.5218658447266,12.5318393707275,12.5418300628662,12.5518360137939,12.5618581771851,12.5718965530396,12.5819501876831,12.5920209884644,12.6021060943604,12.6122074127197,12.6223249435425,12.6324586868286,12.6426095962524,12.6527757644653,12.6629581451416,12.6731576919556,12.6833734512329,12.6936054229736,12.7038545608521,12.7141199111938,12.724401473999,12.7347002029419,12.7450151443481,12.7553472518921,12.7656955718994,12.7760610580444,12.7864437103271,12.7968425750732,12.807258605957,12.8176918029785,12.8281421661377,12.8386096954346,12.8490934371948,12.8595952987671,12.8701143264771,12.8806495666504,12.8912029266357,12.9017734527588,12.9123611450195,12.922966003418,12.9335889816284,12.9442291259766,12.9548864364624,12.9655618667603,12.9762544631958,12.986964225769,12.9976930618286,13.0084381103516,13.0192022323608,13.0299835205078,13.0407829284668,13.0516004562378,13.0624351501465,13.0732889175415,13.0841598510742,13.0950489044189,13.1059560775757,13.1168823242188,13.1278266906738,13.1387882232666,13.1497688293457,13.1607675552368,13.1717853546143,13.1828212738037,13.1938753128052,13.2049474716187,13.2160387039185,13.2271490097046,13.2382783889771,13.2494258880615,13.260591506958,13.2717771530151,13.2829809188843,13.2942037582397,13.3054456710815,13.3167066574097,13.3279867172241,13.3392858505249,13.350604057312,13.3619422912598,13.3732986450195,13.3846750259399,13.3960704803467,13.4074850082397,13.4189195632935,13.4303731918335,13.4418468475342,13.4533405303955,13.4648532867432,13.4752178192139,13.4839754104614,13.4927434921265,13.5015239715576,13.5103158950806,13.519118309021,13.5279331207275,13.5367584228516,13.5455961227417,13.5544452667236,13.5633058547974,13.5721778869629,13.5810613632202,13.5899572372437,13.5988645553589,13.6077823638916,13.6167135238647,13.6256551742554,13.6346092224121,13.6435747146606,13.6525526046753,13.6615419387817,13.67054271698,13.6795558929443,13.6885814666748,13.7182693481445,13.7500858306885,13.7820510864258,13.8141641616821,13.8464279174805,13.8788433074951,13.9114103317261,13.9441299438477,13.9770040512085,14.0100345611572,14.0432205200195,14.0765647888184,14.1100673675537,14.1437292098999,14.1775531768799,14.2115383148193,14.2456874847412,14.2800006866455,14.3144798278809,14.3491258621216,14.383939743042,14.4189233779907,14.4540777206421,14.4894037246704,14.52490234375,14.5605754852295,14.5964250564575,14.6324510574341,14.6686553955078,14.705039024353,14.7416038513184,14.7783508300781,14.815281867981,14.8523979187012,14.8896999359131,14.9271898269653,14.9648694992065,15.0027389526367,15.0408020019531,15.0790576934814,15.1175079345703,15.1561555862427,15.1950016021729,15.2340469360352,15.2732934951782,15.3127422332764,15.3523960113525,15.3922557830811,15.4437217712402,15.5153245925903,15.5875949859619,15.6605405807495,15.7341728210449,0,0,0,0,0,0,0,0,0,0,0,0,0,0,0,0,0,0,0,0,0,0,0,0,0,0,0,0,0,0,0,0,0,0,0,0,0,0,0,0,0,0,0,0,0,0,0,0,0,0,0,0,0,0,0,0,0,0,0,0,0,0,0,0
11.6415939331055,11.6415882110596,11.6415824890137,11.6415777206421,11.6415719985962,11.6415662765503,11.6415605545044,11.6415548324585,11.6415491104126,11.641544342041,11.6415386199951,11.6415328979492,11.6415271759033,11.6415214538574,11.6415157318115,11.6415109634399,11.641505241394,11.6414995193481,11.6414937973022,11.6414880752563,11.6414823532104,11.6414775848389,11.641471862793,11.6414661407471,11.6414604187012,11.6414546966553,11.6414489746094,11.6414442062378,11.6414384841919,11.641432762146,11.6414270401001,11.6414213180542,11.6414165496826,11.6414108276367,11.6414051055908,11.6413993835449,11.641393661499,11.6413879394531,11.6413831710815,11.6413774490356,11.6413717269897,11.6413660049438,11.6413602828979,11.6413545608521,11.687614440918,11.7451477050781,11.8032503128052,11.861930847168,11.921196937561,11.9810590744019,12.041524887085,12.1026058197021,12.1643104553223,12.2266464233398,12.0360622406006,12.0452766418457,12.0545043945312,12.0637474060059,12.0730037689209,12.082275390625,12.0915603637695,12.1008596420288,12.1101741790771,12.1195020675659,12.1288452148438,12.138201713562,12.1475734710693,12.1569595336914,12.1663599014282,12.1757745742798,12.1852045059204,12.1946487426758,12.2041072845459,12.2135810852051,12.223069190979,12.232572555542,12.2420902252197,12.2516231536865,12.2611703872681,12.2707328796387,12.2803106307983,12.2899026870728,12.2995100021362,12.3091325759888,12.3187694549561,12.3284225463867,12.3380899429321,12.3477725982666,12.3574714660645,12.3671846389771,12.3769130706787,12.3866577148438,12.3964166641235,12.4061918258667,12.4159822463989,12.4257879257202,12.4356098175049,12.4454460144043,12.4552984237671,12.4651660919189,12.4750499725342,12.4849491119385,12.4948644638062,12.5047950744629,12.514741897583,12.5247049331665,12.5346832275391,12.5446767807007,12.5546875,12.5647134780884,12.5747566223145,12.5848150253296,12.5948896408081,12.60498046875,12.6150884628296,12.6252117156982,12.6353511810303,12.6455068588257,12.6556797027588,12.665867805481,12.6760730743408,12.6862945556641,12.696533203125,12.706787109375,12.717059135437,12.7273464202881,12.7376508712769,12.7479724884033,12.7583103179932,12.7686643600464,12.779034614563,12.7894220352173,12.799825668335,12.8102464675903,12.8206844329834,12.8311395645142,12.8416118621826,12.8521013259888,12.8626070022583,12.8731307983398,12.8836717605591,12.894229888916,12.9048051834106,12.915397644043,12.9260082244873,12.9366359710693,12.9472808837891,12.9579429626465,12.9686231613159,12.9793214797974,12.9900369644165,13.0007696151733,13.0115203857422,13.022289276123,13.0330762863159,13.0438804626465,13.0547027587891,13.0655431747437,13.0764017105103,13.0872783660889,13.0981721878052,13.1090850830078,13.1200160980225,13.1309652328491,13.1419324874878,13.1529188156128,13.1639223098755,13.1749448776245,13.1859865188599,13.1970453262329,13.2081241607666,13.2192211151123,13.23033618927,13.2414703369141,13.2526226043701,13.2637948989868,13.2749853134155,13.2861948013306,13.2974233627319,13.3086700439453,13.3199367523193,13.3312225341797,13.3425273895264,13.3538513183594,13.3651943206787,13.3765563964844,13.3879375457764,13.399338722229,13.4107599258423,13.4221992492676,13.4336585998535,13.4451379776001,13.456636428833,13.4681549072266,13.4796934127808,13.4912509918213,13.5028295516968,13.5144271850586,13.5247106552124,13.5335330963135,13.542366027832,13.5512104034424,13.5600671768188,13.5689353942871,13.5778141021729,13.5867052078247,13.5956087112427,13.6045227050781,13.6134490966797,13.622386932373,13.6313362121582,13.6402978897095,13.6492710113525,13.6582565307617,13.6672534942627,13.6855306625366,13.7171964645386,13.7490081787109,13.7809677124023,13.8130760192871,13.8453350067139,13.8777446746826,13.910306930542,13.943021774292,13.9758911132812,14.0089149475098,14.0420961380005,14.0754346847534,14.1089315414429,14.1425886154175,14.1764068603516,14.2103872299194,14.2445306777954,14.2788381576538,14.3133115768433,14.3479518890381,14.3827600479126,14.4177379608154,14.4528865814209,14.4882068634033,14.523699760437,14.5593671798706,14.5952100753784,14.6312303543091,14.6674289703369,14.7038059234619,14.7403650283813,14.7771062850952,14.8140306472778,14.8511400222778,14.8884363174438,14.9259195327759,14.9635925292969,15.0014562606812,15.039511680603,15.0777606964111,15.1162052154541,15.1548461914062,15.1936855316162,15.2327241897583,15.2719631195068,15.3114051818848,15.3510522842407,15.3909044265747,15.4309644699097,15.477855682373,15.5497760772705,15.6223678588867,15.6956405639648,0,0,0,0,0,0,0,0,0,0,0,0,0,0,0,0,0,0,0,0,0,0,0,0,0,0,0,0,0,0,0,0,0,0,0,0,0,0,0,0,0,0,0,0,0,0,0,0,0,0,0,0,0,0,0,0,0,0,0,0,0,0,0
11.641884803772,11.6418790817261,11.6418733596802,11.6418685913086,11.6418628692627,11.6418571472168,11.6418514251709,11.641845703125,11.6418399810791,11.6418352127075,11.6418294906616,11.6418237686157,11.6418180465698,11.6418123245239,11.641806602478,11.6418018341064,11.6417961120605,11.6417903900146,11.6417846679688,11.6417789459229,11.641773223877,11.6417684555054,11.6417627334595,11.6417570114136,11.6417512893677,11.6417455673218,11.6417398452759,11.6417350769043,11.6417293548584,11.6417236328125,11.6417179107666,11.6417121887207,11.6417064666748,11.6417016983032,11.6416959762573,11.6416902542114,11.6416845321655,11.6416788101196,11.641674041748,11.6416683197021,11.6416625976562,11.6416568756104,11.6416511535645,11.6416454315186,11.6880168914795,11.7455539703369,11.8036613464355,11.8623456954956,11.9216165542603,11.9814825057983,12.041953086853,12.1030368804932,11.9836730957031,11.9928073883057,12.0019559860229,12.0111179351807,12.0202941894531,12.0294847488403,12.038688659668,12.0479078292847,12.0571403503418,12.0663862228394,12.075647354126,12.0849227905273,12.0942115783691,12.103515625,12.1128339767456,12.1221656799316,12.1315126419067,12.1408739089966,12.1502494812012,12.1596393585205,12.1690444946289,12.1784629821777,12.1878967285156,12.1973457336426,12.2068090438843,12.2162866592407,12.2257785797119,12.2352857589722,12.2448081970215,12.2543449401855,12.2638969421387,12.2734632492065,12.2830448150635,12.2926416397095,12.3022537231445,12.3118801116943,12.3215217590332,12.3311786651611,12.3408508300781,12.3505373001099,12.360239982605,12.3699579238892,12.3796901702881,12.3894386291504,12.3992033004761,12.4089822769165,12.418776512146,12.4285869598389,12.4384126663208,12.4482536315918,12.4581108093262,12.4679832458496,12.4778709411621,12.487774848938,12.4976949691772,12.5076303482056,12.5175809860229,12.5275478363037,12.5375308990479,12.5475301742554,12.557544708252,12.5675754547119,12.5776224136353,12.5876846313477,12.5977640151978,12.6078586578369,12.6179704666138,12.6280975341797,12.6382417678833,12.6484022140503,12.6585779190063,12.6687707901001,12.6789808273315,12.6892070770264,12.6994495391846,12.7097091674805,12.7199850082397,12.7302780151367,12.7405872344971,12.7509126663208,12.7612552642822,12.7716150283813,12.7819910049438,12.792384147644,12.8027944564819,12.8132219314575,12.8236656188965,12.8341264724731,12.8446044921875,12.8550996780396,12.8656120300293,12.8761425018311,12.8866891860962,12.897253036499,12.9078350067139,12.9184331893921,12.9290504455566,12.9396839141846,12.9503345489502,12.9610013961792,12.9716863632202,12.9823894500732,12.993109703064,13.0038480758667,13.0146045684814,13.0253782272339,13.0361700057983,13.0469799041748,13.057806968689,13.0686531066895,13.0795164108276,13.0903978347778,13.10129737854,13.1122159957886,13.1231517791748,13.134105682373,13.1450786590576,13.1560697555542,13.1670789718628,13.1781072616577,13.1891536712646,13.2002182006836,13.2113018035889,13.2224035263062,13.2335243225098,13.2446641921997,13.2558221817017,13.2669992446899,13.2781953811646,13.2894096374512,13.3006439208984,13.3118963241577,13.3231687545776,13.3344593048096,13.3457698822021,13.3570985794067,13.368447303772,13.3798151016235,13.3912029266357,13.4026098251343,13.4140357971191,13.4254808425903,13.4369459152222,13.4484310150146,13.4599351882935,13.4714593887329,13.4830026626587,13.4945669174194,13.5061502456665,13.5177536010742,13.5293769836426,13.5410203933716,13.5526838302612,13.5643672943115,13.5745687484741,13.5834560394287,13.5923547744751,13.6012649536133,13.6101865768433,13.619119644165,13.6280651092529,13.6370220184326,13.6459913253784,13.654972076416,13.6844635009766,13.7161235809326,13.7479305267334,13.7798852920532,13.8119888305664,13.8442420959473,13.8766469955444,13.9092035293579,13.941912651062,13.9747772216797,14.0077962875366,14.0409717559814,14.0743055343628,14.1077966690063,14.1414489746094,14.1752614974976,14.2092351913452,14.2433738708496,14.2776756286621,14.3121433258057,14.3467779159546,14.3815813064575,14.4165534973145,14.4516954421997,14.4870100021362,14.522497177124,14.5581588745117,14.5939960479736,14.6300096511841,14.6662015914917,14.7025737762451,14.7391262054443,14.775860786438,14.8127794265747,14.8498821258545,14.8871717453003,14.9246492385864,14.9623165130615,15.0001735687256,15.0382223129272,15.0764646530151,15.1149024963379,15.1535367965698,15.1923694610596,15.2314004898071,15.2706336975098,15.3100690841675,15.3497085571289,15.3895540237427,15.4296073913574,15.4698686599731,15.5121402740479,15.5843801498413,15.6572961807251,15.7308979034424,0,0,0,0,0,0,0,0,0,0,0,0,0,0,0,0,0,0,0,0,0,0,0,0,0,0,0,0,0,0,0,0,0,0,0,0,0,0,0,0,0,0,0,0,0,0,0,0,0,0,0,0,0,0,0,0,0,0,0,0,0
11.6421756744385,11.6421699523926,11.6421642303467,11.6421594619751,11.6421537399292,11.6421480178833,11.6421422958374,11.6421365737915,11.6421308517456,11.642126083374,11.6421203613281,11.6421146392822,11.6421089172363,11.6421031951904,11.6420974731445,11.6420927047729,11.6420869827271,11.6420812606812,11.6420755386353,11.6420698165894,11.6420640945435,11.6420593261719,11.642053604126,11.6420478820801,11.6420421600342,11.6420364379883,11.6420307159424,11.6420259475708,11.6420202255249,11.642014503479,11.6420087814331,11.6420030593872,11.6419973373413,11.6419925689697,11.6419868469238,11.6419811248779,11.641975402832,11.6419696807861,11.6419649124146,11.6419591903687,11.6419534683228,11.6419477462769,11.641942024231,11.6419363021851,11.688419342041,11.74596118927,11.8040714263916,11.8627605438232,11.9220352172852,11.9819059371948,12.0423803329468,11.9407939910889,11.9498634338379,11.9589462280273,11.9680433273315,11.9771537780762,11.9862775802612,11.995415687561,12.0045680999756,12.0137348175049,12.0229148864746,12.0321092605591,12.041316986084,12.0505399703979,12.0597763061523,12.0690269470215,12.0782918930054,12.087571144104,12.0968647003174,12.1061725616455,12.1154947280884,12.124831199646,12.1341819763184,12.1435470581055,12.1529264450073,12.1623210906982,12.1717300415039,12.1811532974243,12.1905908584595,12.2000436782837,12.2095108032227,12.2189931869507,12.2284898757935,12.238000869751,12.2475271224976,12.2570686340332,12.2666244506836,12.276195526123,12.2857809066772,12.2953824996948,12.3049983978271,12.3146286010742,12.3242750167847,12.3339357376099,12.3436126708984,12.3533039093018,12.3630104064941,12.3727321624756,12.3824701309204,12.39222240448,12.4019899368286,12.4117736816406,12.4215726852417,12.4313869476318,12.4412174224854,12.4510631561279,12.4609241485596,12.4708013534546,12.4806938171387,12.4906024932861,12.5005264282227,12.5104656219482,12.5204219818115,12.5303936004639,12.5403804779053,12.5503835678101,12.5604028701782,12.5704383850098,12.5804901123047,12.5905570983887,12.6006412506104,12.6107406616211,12.6208562850952,12.630989074707,12.6411371231079,12.6513023376465,12.6614828109741,12.6716804504395,12.6818943023682,12.6921253204346,12.7023725509644,12.7126359939575,12.7229156494141,12.7332124710083,12.7435264587402,12.7538566589355,12.7642030715942,12.7745666503906,12.7849473953247,12.7953453063965,12.805760383606,12.8161926269531,12.8266410827637,12.8371067047119,12.8475904464722,12.8580904006958,12.8686075210571,12.8791418075562,12.8896942138672,12.9002628326416,12.910849571228,12.9214534759521,12.932074546814,12.9427137374878,12.9533700942993,12.9640436172485,12.9747352600098,12.9854440689087,12.9961709976196,13.0069160461426,13.0176782608032,13.0284576416016,13.0392560958862,13.0500717163086,13.060905456543,13.0717582702637,13.0826272964478,13.0935153961182,13.1044216156006,13.115345954895,13.1262884140015,13.1372480392456,13.1482257843018,13.1592226028442,13.1702365875244,13.1812696456909,13.1923217773438,13.2033920288086,13.2144804000854,13.2255878448486,13.2367143630981,13.2478590011597,13.2590227127075,13.2702054977417,13.2814064025879,13.2926273345947,13.3038663864136,13.3151245117188,13.3264017105103,13.3376979827881,13.3490142822266,13.3603487014771,13.3717031478882,13.3830757141113,13.3944692611694,13.4058809280396,13.4173126220703,13.4287643432617,13.4402351379395,13.4517250061035,13.4632349014282,13.4747648239136,13.4863147735596,13.4978837966919,13.5094728469849,13.5210819244385,13.5327110290527,13.5443601608276,13.5560293197632,13.5677185058594,13.5891017913818,13.5980081558228,13.6069250106812,13.6158542633057,13.6247959136963,13.6337480545044,13.6518859863281,13.6833953857422,13.7150506973267,13.7468528747559,13.7788019180298,13.8109006881714,13.8431491851807,13.8755493164062,13.9081001281738,13.9408044815063,13.9736633300781,14.0066776275635,14.0398483276367,14.0731754302979,14.1066617965698,14.140308380127,14.1741151809692,14.2080841064453,14.2422170639038,14.2765130996704,14.3109760284424,14.3456048965454,14.3804016113281,14.4153680801392,14.4505052566528,14.4858131408691,14.521294593811,14.5569505691528,14.5927810668945,14.6287899017334,14.6649751663208,14.7013416290283,14.7378873825073,14.7746162414551,14.8115282058716,14.8486251831055,14.8859081268311,14.9233798980713,14.9610395431519,14.9988899230957,15.0369329452515,15.0751686096191,15.1135997772217,15.1522274017334,15.1910533905029,15.2300777435303,15.2693042755127,15.3087329864502,15.3483657836914,15.3882036209106,15.4282493591309,15.4685049057007,15.5089702606201,15.5496473312378,15.6191387176514,15.6923818588257,0,0,0,0,0,0,0,0,0,0,0,0,0,0,0,0,0,0,0,0,0,0,0,0,0,0,0,0,0,0,0,0,0,0,0,0,0,0,0,0,0,0,0,0,0,0,0,0,0,0,0,0,0,0,0,0,0,0,0,0
11.642466545105,11.6424608230591,11.6424551010132,11.6424503326416,11.6424446105957,11.6424388885498,11.6424331665039,11.642427444458,11.6424217224121,11.6424169540405,11.6424112319946,11.6424055099487,11.6423997879028,11.6423940658569,11.642388343811,11.6423835754395,11.6423778533936,11.6423721313477,11.6423664093018,11.6423606872559,11.64235496521,11.6423501968384,11.6423444747925,11.6423387527466,11.6423330307007,11.6423273086548,11.6423215866089,11.6423168182373,11.6423110961914,11.6423053741455,11.6422996520996,11.6422939300537,11.6422891616821,11.6422834396362,11.6422777175903,11.6422719955444,11.6422662734985,11.6422605514526,11.6422557830811,11.6422500610352,11.6422443389893,11.6422386169434,11.6422328948975,11.6422271728516,11.6888227462769,11.7463674545288,11.804482460022,11.8631753921509,11.9224548339844,11.8892307281494,11.8982210159302,11.9072256088257,11.9162435531616,11.9252758026123,11.9343204498291,11.943380355835,11.9524526596069,11.961540222168,11.9706401824951,11.979754447937,11.9888830184937,11.998025894165,12.0071821212769,12.0163516998291,12.0255365371704,12.0347347259521,12.0439462661743,12.0531730651855,12.0624141693115,12.0716686248779,12.0809373855591,12.090220451355,12.0995178222656,12.1088304519653,12.1181564331055,12.1274967193604,12.13685131073,12.1462211608887,12.1556053161621,12.1650037765503,12.1744165420532,12.1838436126709,12.1932859420776,12.2027425765991,12.2122144699097,12.221700668335,12.231201171875,12.2407169342041,12.2502479553223,12.2597932815552,12.2693529129028,12.2789287567139,12.2885189056396,12.2981233596802,12.3077440261841,12.3173789978027,12.3270292282104,12.3366947174072,12.3463754653931,12.356071472168,12.3657827377319,12.3755083084106,12.3852500915527,12.3950071334839,12.4047794342041,12.4145669937134,12.424370765686,12.4341897964478,12.4440240859985,12.4538736343384,12.4637393951416,12.4736204147339,12.4835176467896,12.4934301376343,12.5033588409424,12.5133028030396,12.5232629776001,12.533239364624,12.543231010437,12.5532388687134,12.5632629394531,12.5733032226562,12.5833587646484,12.5934314727783,12.6035194396973,12.6136236190796,12.6237440109253,12.6338806152344,12.6440343856812,12.654203414917,12.6643896102905,12.6745910644531,12.6848106384277,12.6950454711914,12.7052974700928,12.7155656814575,12.7258501052856,12.7361516952515,12.746470451355,12.7568044662476,12.7671566009521,12.7775249481201,12.7879104614258,12.7983131408691,12.8087320327759,12.8191680908203,12.8296213150024,12.8400917053223,12.8505792617798,12.861083984375,12.8716058731079,12.8821449279785,12.8927011489868,12.9032745361328,12.9138660430908,12.9244747161865,12.9351005554199,12.9457445144653,12.9564056396484,12.9670848846436,12.9777812957764,12.9884958267212,12.9992275238037,13.0099773406982,13.0207443237305,13.0315294265747,13.042332649231,13.0531539916992,13.0639925003052,13.0748500823975,13.0857248306274,13.0966176986694,13.1075296401978,13.1184587478638,13.1294069290161,13.1403722763062,13.1513566970825,13.1623601913452,13.1733808517456,13.1844205856323,13.1954784393311,13.2065553665161,13.2176513671875,13.2287645339966,13.2398977279663,13.251049041748,13.2622194290161,13.2734088897705,13.2846164703369,13.295844078064,13.307089805603,13.3183536529541,13.3296365737915,13.3409385681152,13.3522596359253,13.3635997772217,13.3749599456787,13.3863382339478,13.3977365493774,13.4091548919678,13.4205923080444,13.4320487976074,13.4435253143311,13.455020904541,13.4665365219116,13.4780721664429,13.4896278381348,13.501202583313,13.5127973556519,13.5244121551514,13.5360469818115,13.5477018356323,13.5593767166138,13.5947523117065,13.6036653518677,13.6125907897949,13.621527671814,13.6508235931396,13.6823282241821,13.713978767395,13.7457752227783,13.7777194976807,13.8098134994507,13.8420572280884,13.8744516372681,13.9069976806641,13.939697265625,13.9725503921509,14.0055589675903,14.0387239456177,14.0720462799072,14.1055278778076,14.1391687393188,14.1729698181152,14.2069339752197,14.241060256958,14.275351524353,14.3098077774048,14.3444318771362,14.379222869873,14.4141836166382,14.4493141174316,14.4846172332764,14.520092010498,14.5557422637939,14.5915670394897,14.6275691986084,14.6637496948242,14.7001094818115,14.7366495132446,14.7733716964722,14.8102779388428,14.8473682403564,14.8846454620361,14.9221096038818,14.9597635269165,14.9976072311401,15.0356435775757,15.0738735198975,15.1122980117798,15.1509189605713,15.1897373199463,15.2287559509277,15.2679748535156,15.3073968887329,15.3470220565796,15.3868541717529,15.4268922805786,15.4671401977539,15.5075988769531,15.5482692718506,15.5891532897949,15.6540536880493,15.7276239395142,0,0,0,0,0,0,0,0,0,0,0,0,0,0,0,0,0,0,0,0,0,0,0,0,0,0,0,0,0,0,0,0,0,0,0,0,0,0,0,0,0,0,0,0,0,0,0,0,0,0,0,0,0,0,0,0,0,0
11.6427574157715,11.6427516937256,11.6427459716797,11.6427412033081,11.6427354812622,11.6427297592163,11.6427240371704,11.6427183151245,11.6427125930786,11.642707824707,11.6427021026611,11.6426963806152,11.6426906585693,11.6426849365234,11.6426792144775,11.642674446106,11.6426687240601,11.6426630020142,11.6426572799683,11.6426515579224,11.6426467895508,11.6426410675049,11.642635345459,11.6426296234131,11.6426239013672,11.6426181793213,11.6426134109497,11.6426076889038,11.6426019668579,11.642596244812,11.6425905227661,11.6425848007202,11.6425800323486,11.6425743103027,11.6425685882568,11.6425628662109,11.642557144165,11.6425514221191,11.6425466537476,11.6425409317017,11.6425352096558,11.6425294876099,11.642523765564,11.6425180435181,11.6892251968384,11.7467746734619,11.8048934936523,11.8635902404785,11.8470230102539,11.8559503555298,11.8648910522461,11.8738451004028,11.8828125,11.8917932510376,11.9007883071899,11.9097967147827,11.9188184738159,11.9278545379639,11.9369039535522,11.9459667205811,11.9550437927246,11.9641342163086,11.9732389450073,11.9823570251465,11.9914894104004,12.000636100769,12.0097961425781,12.018970489502,12.0281581878662,12.0373611450195,12.0465774536133,12.0558080673218,12.0650520324707,12.0743112564087,12.0835838317871,12.0928716659546,12.1021728515625,12.1114892959595,12.1208190917969,12.1301641464233,12.1395235061646,12.1488962173462,12.1582841873169,12.1676874160767,12.1771039962769,12.1865358352661,12.1959819793701,12.2054433822632,12.214919090271,12.2244091033936,12.2339143753052,12.2434339523315,12.252968788147,12.2625188827515,12.2720832824707,12.281662940979,12.2912569046021,12.3008661270142,12.3104906082153,12.3201303482056,12.3297853469849,12.3394546508789,12.3491401672363,12.3588399887085,12.3685550689697,12.3782863616943,12.3880319595337,12.3977937698364,12.4075698852539,12.4173622131348,12.4271697998047,12.436993598938,12.446831703186,12.4566860198975,12.4665565490723,12.4764413833618,12.4863433837891,12.4962596893311,12.5061931610107,12.5161418914795,12.5261068344116,12.5360870361328,12.5460834503174,12.5560960769653,12.5661239624023,12.5761690139771,12.5862293243408,12.596305847168,12.6063985824585,12.6165075302124,12.6266326904297,12.6367740631104,12.6469326019287,12.6571063995361,12.6672964096069,12.6775035858154,12.6877269744873,12.6979665756226,12.7082233428955,12.7184963226318,12.7287855148315,12.7390918731689,12.749415397644,12.7597551345825,12.7701120376587,12.7804851531982,12.7908754348755,12.8012819290161,12.8117065429688,12.8221473693848,12.8326053619385,12.8430805206299,12.853572845459,12.8640823364258,12.8746089935303,12.8851528167725,12.8957138061523,12.9062929153442,12.9168882369995,12.9275016784668,12.9381322860718,12.9487810134888,12.9594459533691,12.9701299667358,12.9808301925659,12.9915494918823,13.0022859573364,13.0130395889282,13.0238122940063,13.0346021652222,13.04541015625,13.0562362670898,13.0670804977417,13.0779428482056,13.0888233184814,13.0997219085693,13.1106376647949,13.1215724945068,13.1325254440308,13.143497467041,13.154486656189,13.1654949188232,13.1765213012695,13.1875658035278,13.1986293792725,13.2097120285034,13.2208118438721,13.2319316864014,13.2430696487427,13.2542266845703,13.26540184021,13.2765970230103,13.2878103256226,13.2990427017212,13.3102941513062,13.3215646743774,13.3328542709351,13.344162940979,13.3554906845093,13.3668375015259,13.3782043457031,13.3895902633667,13.4009952545166,13.4124193191528,13.4238634109497,13.4353275299072,13.4468107223511,13.4583139419556,13.4698362350464,13.4813785552979,13.49294090271,13.5045223236084,13.5161228179932,13.5277433395386,13.5393838882446,13.5510444641113,13.6004076004028,13.6184062957764,13.6497611999512,13.6812610626221,13.7129058837891,13.7446975708008,13.7766380310059,13.80872631073,13.8409643173218,13.8733539581299,13.9058952331543,13.9385890960693,13.9714374542236,14.0044403076172,14.0376005172729,14.0709180831909,14.1043930053711,14.1380281448364,14.1718244552612,14.2057828903198,14.2399044036865,14.2741899490356,14.3086404800415,14.3432588577271,14.378044128418,14.4129991531372,14.4481239318848,14.4834203720093,14.5188903808594,14.5545339584351,14.5903539657593,14.6263494491577,14.6625232696533,14.6988773345947,14.7354106903076,14.7721271514893,14.8090267181396,14.8461112976074,14.8833818435669,14.9208402633667,14.9584875106812,14.9963254928589,15.0343551635742,15.0725774765015,15.1109962463379,15.1496095657349,15.188422203064,15.2274332046509,15.2666463851929,15.3060607910156,15.3456792831421,15.3855037689209,15.4255361557007,15.4657764434814,15.5062274932861,15.5468912124634,15.5877676010132,15.6288604736328,15.6891241073608,17.1121768951416,0,0,0,0,0,0,0,0,0,0,0,0,0,0,0,0,0,0,0,0,0,0,0,0,0,0,0,0,0,0,0,0,0,0,0,0,0,0,0,0,0,0,0,0,0,0,0,0,0,0,0,0,0,0,0,0
11.643048286438,11.6430425643921,11.6430377960205,11.6430320739746,11.6430263519287,11.6430206298828,11.6430149078369,11.643009185791,11.6430044174194,11.6429986953735,11.6429929733276,11.6429872512817,11.6429815292358,11.6429758071899,11.6429710388184,11.6429653167725,11.6429595947266,11.6429538726807,11.6429481506348,11.6429424285889,11.6429376602173,11.6429319381714,11.6429262161255,11.6429204940796,11.6429147720337,11.6429090499878,11.6429042816162,11.6428985595703,11.6428928375244,11.6428871154785,11.6428813934326,11.6428756713867,11.6428709030151,11.6428651809692,11.6428594589233,11.6428537368774,11.6428480148315,11.6428422927856,11.6428375244141,11.6428318023682,11.6428260803223,11.6428203582764,11.6428146362305,11.6428089141846,11.6896286010742,11.747181892395,11.7962636947632,11.8051147460938,11.8139791488647,11.8228559494019,11.8317470550537,11.8406505584717,11.8495683670044,11.8584995269775,11.8674440383911,11.8764019012451,11.8853731155396,11.8943586349487,11.903356552124,11.9123687744141,11.9213953018188,11.9304342269897,11.9394874572754,11.9485549926758,11.9576358795166,11.9667301177979,11.9758386611938,11.9849615097046,11.9940977096558,12.0032472610474,12.012412071228,12.0215902328491,12.030782699585,12.0399885177612,12.0492086410522,12.058443069458,12.0676918029785,12.0769548416138,12.0862321853638,12.0955238342285,12.1048288345337,12.1141490936279,12.1234836578369,12.1328325271606,12.1421957015991,12.1515731811523,12.1609649658203,12.1703720092773,12.1797933578491,12.1892290115356,12.1986799240112,12.2081451416016,12.2176246643066,12.2271194458008,12.2366285324097,12.2461528778076,12.2556915283203,12.2652454376221,12.2748146057129,12.2843980789185,12.2939968109131,12.3036108016968,12.3132390975952,12.3228826522827,12.3325424194336,12.3422164916992,12.3519048690796,12.3616094589233,12.3713293075562,12.381064414978,12.390814781189,12.400580406189,12.4103622436523,12.4201583862305,12.429970741272,12.4397983551025,12.4496412277222,12.4595003128052,12.4693746566772,12.4792652130127,12.4891700744629,12.4990921020508,12.5090293884277,12.5189819335938,12.5289516448975,12.5389356613159,12.5489368438721,12.5589542388916,12.5689868927002,12.5790357589722,12.5891008377075,12.5991821289062,12.6092796325684,12.6193933486938,12.6295232772827,12.639669418335,12.6498317718506,12.6600103378296,12.670205116272,12.6804170608521,12.6906452178955,12.7008895874023,12.7111511230469,12.7214288711548,12.7317228317261,12.7420339584351,12.7523622512817,12.7627067565918,12.7730674743652,12.7834463119507,12.7938413619995,12.8042526245117,12.8146820068359,12.8251276016235,12.8355903625488,12.8460702896118,12.8565673828125,12.8670825958252,12.8776140213013,12.888162612915,12.8987283706665,12.90931224823,12.9199132919312,12.93053150177,12.9411668777466,12.9518203735352,12.9624910354614,12.9731788635254,12.9838857650757,12.9946088790894,13.005350112915,13.0161094665527,13.0268869400024,13.0376815795898,13.0484943389893,13.0593252182007,13.0701742172241,13.0810403823853,13.0919256210327,13.1028280258179,13.1137495040894,13.1246891021729,13.1356468200684,13.1466226577759,13.1576175689697,13.1686305999756,13.1796627044678,13.190712928772,13.2017822265625,13.2128686904907,13.2239751815796,13.2350997924805,13.2462434768677,13.2574052810669,13.2685861587524,13.2797861099243,13.2910051345825,13.3022432327271,13.3134994506836,13.3247756958008,13.33607006073,13.3473844528198,13.358717918396,13.3700704574585,13.3814430236816,13.3928337097168,13.4042444229126,13.415675163269,13.4271249771118,13.4385938644409,13.4500827789307,13.4615907669067,13.4731197357178,13.4846668243408,13.4962348937988,13.5078229904175,13.5194301605225,13.58824634552,13.6173486709595,13.6486988067627,13.680193901062,13.7118339538574,13.7436208724976,13.7755556106567,13.8076391220093,13.8398723602295,13.8722562789917,13.9047927856445,13.9374809265137,13.9703245162964,14.0033226013184,14.0364770889282,14.0697889328003,14.1032590866089,14.1368894577026,14.1706800460815,14.2046327590942,14.2387475967407,14.2730283737183,14.3074731826782,14.3420858383179,14.3768653869629,14.4118146896362,14.4469337463379,14.4822244644165,14.5176887512207,14.5533266067505,14.5891399383545,14.625129699707,14.6612977981567,14.6976451873779,14.7341737747192,14.7708835601807,14.8077764511108,14.8448543548584,14.882119178772,14.9195709228516,14.9572114944458,14.9950428009033,15.0330667495728,15.0712823867798,15.1096935272217,15.1483011245728,15.1871070861816,15.2261114120483,15.2653169631958,15.3047246932983,15.3443365097046,15.3841543197632,15.4241790771484,15.464412689209,15.5048570632935,15.5455131530762,15.5863828659058,15.6274681091309,15.6687698364258,16.0685119628906,16.8655338287354,0,0,0,0,0,0,0,0,0,0,0,0,0,0,0,0,0,0,0,0,0,0,0,0,0,0,0,0,0,0,0,0,0,0,0,0,0,0,0,0,0,0,0,0,0,0,0,0,0,0,0,0,0,0
11.6433391571045,11.6433334350586,11.643328666687,11.6433229446411,11.6433172225952,11.6433115005493,11.6433057785034,11.6433000564575,11.6432952880859,11.64328956604,11.6432838439941,11.6432781219482,11.6432723999023,11.6432666778564,11.6432619094849,11.643256187439,11.6432504653931,11.6432447433472,11.6432390213013,11.6432332992554,11.6432285308838,11.6432228088379,11.643217086792,11.6432113647461,11.6432056427002,11.6431999206543,11.6431951522827,11.6431894302368,11.6431837081909,11.643177986145,11.6431722640991,11.6431665420532,11.6431617736816,11.6431560516357,11.6431503295898,11.6431446075439,11.643138885498,11.6431341171265,11.6431283950806,11.6431226730347,11.6431169509888,11.6431112289429,11.643105506897,11.6430997848511,11.6900310516357,11.7475881576538,11.7635021209717,11.7723035812378,11.7811183929443,11.7899465560913,11.7987871170044,11.8076419830322,11.8165102005005,11.8253908157349,11.834285736084,11.8431930541992,11.8521146774292,11.8610496520996,11.8699979782104,11.8789596557617,11.8879346847534,11.8969240188599,11.9059267044067,11.914942741394,11.9239721298218,11.9330158233643,11.9420728683472,11.9511442184448,11.9602289199829,11.9693269729614,11.9784393310547,11.9875659942627,11.9967060089111,12.0058603286743,12.0150289535522,12.0242109298706,12.0334072113037,12.0426177978516,12.0518417358398,12.0610799789429,12.070333480835,12.0796003341675,12.0888814926147,12.0981769561768,12.1074867248535,12.116810798645,12.1261491775513,12.1355018615723,12.144868850708,12.1542510986328,12.1636476516724,12.1730585098267,12.1824836730957,12.1919231414795,12.2013778686523,12.2108478546143,12.2203311920166,12.2298307418823,12.2393436431885,12.248872756958,12.258415222168,12.2679738998413,12.2775468826294,12.2871351242065,12.2967376708984,12.3063554763794,12.3159885406494,12.3256368637085,12.3353004455566,12.3449783325195,12.3546724319458,12.3643808364868,12.3741054534912,12.3838443756104,12.3935995101929,12.4033699035645,12.4131555557251,12.4229564666748,12.4327726364136,12.4426050186157,12.4524526596069,12.4623155593872,12.4721946716309,12.4820890426636,12.4919996261597,12.5019254684448,12.511866569519,12.521824836731,12.5317983627319,12.541787147522,12.5517930984497,12.5618143081665,12.5718507766724,12.5819044113159,12.5919742584229,12.6020593643188,12.6121616363525,12.6222801208496,12.6324148178101,12.6425657272339,12.6527328491211,12.6629161834717,12.6731157302856,12.6833324432373,12.693564414978,12.7038145065308,12.7140798568726,12.7243623733521,12.7346611022949,12.7449769973755,12.7553100585938,12.7656593322754,12.7760257720947,12.7864084243774,12.7968082427979,12.807225227356,12.8176584243774,12.8281097412109,12.8385772705078,12.8490619659424,12.8595638275146,12.8700838088989,12.8806200027466,12.8911733627319,12.9017448425293,12.9123334884644,12.9229393005371,12.9335622787476,12.94420337677,12.9548606872559,12.965537071228,12.9762306213379,12.9869413375854,12.997670173645,13.0084161758423,13.0191812515259,13.0299625396729,13.0407629013062,13.0515804290771,13.0624170303345,13.0732707977295,13.0841426849365,13.0950326919556,13.1059408187866,13.1168670654297,13.1278114318848,13.1387748718262,13.1497554779053,13.1607551574707,13.1717729568481,13.1828098297119,13.1938648223877,13.2049379348755,13.2160301208496,13.2271413803101,13.2382707595825,13.249418258667,13.2605857849121,13.2717723846436,13.282977104187,13.2942018508911,13.3054447174072,13.3167066574097,13.3279886245728,13.3392887115479,13.3506078720093,13.3619470596313,13.3733053207397,13.3846826553345,13.3960790634155,13.4074954986572,13.4189319610596,13.4303865432739,13.4418611526489,13.4533557891846,13.4648704528809,13.4764041900635,13.5672302246094,13.585090637207,13.6162919998169,13.6476373672485,13.679126739502,13.7107620239258,13.7425441741943,13.7744741439819,13.8065519332886,13.8387804031372,13.8711595535278,13.9036903381348,13.9363737106323,13.9692115783691,14.0022048950195,14.0353536605835,14.0686597824097,14.1021251678467,14.1357498168945,14.1695346832275,14.2034816741943,14.2375917434692,14.2718667984009,14.3063058853149,14.3409128189087,14.3756866455078,14.4106302261353,14.445743560791,14.481029510498,14.516487121582,14.5521192550659,14.5879259109497,14.6239099502563,14.6600723266602,14.6964139938354,14.7329359054565,14.7696390151978,14.806526184082,14.8435983657837,14.8808565139771,14.9183015823364,14.9559364318848,14.9937610626221,15.031777381897,15.0699872970581,15.1083927154541,15.146993637085,15.1857919692993,15.2247896194458,15.263988494873,15.3033895492554,15.3429946899414,15.3828048706055,15.4228229522705,15.4630489349365,15.5034856796265,15.544135093689,15.584997177124,15.6260757446289,15.6564836502075,15.6805553436279,15.8508443832397,16.6259002685547,17.4806461334229,0,0,0,0,0,0,0,0,0,0,0,0,0,0,0,0,0,0,0,0,0,0,0,0,0,0,0,0,0,0,0,0,0,0,0,0,0,0,0,0,0,0,0,0,0,0,0,0,0,0,0
11.643630027771,11.6436252593994,11.6436195373535,11.6436138153076,11.6436080932617,11.6436023712158,11.6435966491699,11.6435918807983,11.6435861587524,11.6435804367065,11.6435747146606,11.6435689926147,11.6435632705688,11.6435585021973,11.6435527801514,11.6435470581055,11.6435413360596,11.6435356140137,11.6435298919678,11.6435251235962,11.6435194015503,11.6435136795044,11.6435079574585,11.6435022354126,11.6434965133667,11.6434917449951,11.6434860229492,11.6434803009033,11.6434745788574,11.6434688568115,11.6434631347656,11.643458366394,11.6434526443481,11.6434469223022,11.6434412002563,11.6434354782104,11.6434297561646,11.643424987793,11.6434192657471,11.6434135437012,11.6434078216553,11.6434020996094,11.6433963775635,11.6433916091919,11.6904344558716,11.7479953765869,11.7526912689209,11.7553043365479,11.7579193115234,11.760534286499,11.7660179138184,11.7748231887817,11.7836408615112,11.7924728393555,11.8013172149658,11.8101749420166,11.8190460205078,11.8279304504395,11.8368282318115,11.845739364624,11.8546648025513,11.8636026382446,11.8725538253784,11.881519317627,11.8904981613159,11.8994903564453,11.9084968566895,11.917516708374,11.9265508651733,11.9355983734131,11.9446592330933,11.9537343978882,11.9628229141235,11.9719257354736,11.9810419082642,11.9901723861694,11.9993162155151,12.0084743499756,12.0176467895508,12.0268325805664,12.0360326766968,12.0452470779419,12.0544757843018,12.0637187957764,12.0729751586914,12.0822458267212,12.09153175354,12.1008310317993,12.1101446151733,12.1194734573364,12.1288156509399,12.1381731033325,12.1475439071655,12.1569299697876,12.1663303375244,12.175745010376,12.1851749420166,12.194619178772,12.2040777206421,12.2135515213013,12.2230396270752,12.2325429916382,12.2420606613159,12.2515935897827,12.2611408233643,12.2707033157349,12.2802801132202,12.2898721694946,12.2994794845581,12.3091020584106,12.3187398910522,12.3283920288086,12.338059425354,12.3477420806885,12.357439994812,12.3671531677246,12.3768815994263,12.386625289917,12.3963851928711,12.4061594009399,12.4159498214722,12.4257545471191,12.4355754852295,12.4454126358032,12.4552640914917,12.4651317596436,12.4750156402588,12.4849147796631,12.4948291778564,12.5047597885132,12.514705657959,12.5246677398682,12.5346460342407,12.5446395874023,12.5546493530273,12.5646753311157,12.5747175216675,12.5847749710083,12.5948495864868,12.6049394607544,12.6150455474854,12.625168800354,12.6353073120117,12.6454629898071,12.6556348800659,12.6658229827881,12.6760272979736,12.6862478256226,12.6964855194092,12.7067394256592,12.7170104980469,12.7272977828979,12.7376012802124,12.7479219436646,12.7582597732544,12.7686138153076,12.7789840698242,12.7893724441528,12.7997770309448,12.8101978302002,12.8206367492676,12.8310928344727,12.8415651321411,12.8520545959473,12.8625621795654,12.873085975647,12.8836278915405,12.8941860198975,12.9047622680664,12.915355682373,12.9259662628174,12.9365949630737,12.9472398757935,12.9579038619995,12.9685840606689,12.9792823791504,12.9899988174438,13.000732421875,13.0114841461182,13.022253036499,13.0330410003662,13.0438461303711,13.054669380188,13.0655097961426,13.0763692855835,13.0872459411621,13.0981407165527,13.1090545654297,13.1199855804443,13.1309356689453,13.1419038772583,13.1528902053833,13.1638946533203,13.1749181747437,13.185959815979,13.1970205307007,13.2080993652344,13.2191963195801,13.2303123474121,13.2414474487305,13.2526006698608,13.2637739181519,13.2749643325806,13.2861747741699,13.2974033355713,13.3086519241333,13.3199186325073,13.331205368042,13.3425102233887,13.353835105896,13.3651790618896,13.3765420913696,13.3879241943359,13.3993263244629,13.4107484817505,13.4221897125244,13.433650970459,13.5462779998779,13.5551280975342,13.584038734436,13.6152353286743,13.6465749740601,13.6780595779419,13.7096900939941,13.7414674758911,13.7733917236328,13.8054656982422,13.8376884460449,13.8700618743896,13.902587890625,13.935266494751,13.9680986404419,14.0010871887207,14.0342302322388,14.0675315856934,14.1009912490845,14.1346101760864,14.1683902740479,14.2023315429688,14.2364368438721,14.2707052230835,14.305139541626,14.3397397994995,14.3745088577271,14.4094467163086,14.4445543289185,14.4798336029053,14.5152854919434,14.5509119033813,14.5867128372192,14.62269115448,14.6588468551636,14.6951818466187,14.7316980361938,14.7683954238892,14.8052768707275,14.842342376709,14.8795938491821,14.9170331954956,14.9546613693237,14.9924793243408,15.0304899215698,15.0686931610107,15.1070909500122,15.1456851959229,15.184476852417,15.2234687805176,15.2626600265503,15.3020544052124,15.3416528701782,15.3814563751221,15.4214668273926,15.4616861343384,15.5021162033081,15.5411958694458,15.5649137496948,15.5887041091919,15.6125679016113,15.6365041732788,15.6669387817383,15.7018280029297,16.3929805755615,17.2233486175537,0,0,0,0,0,0,0,0,0,0,0,0,0,0,0,0,0,0,0,0,0,0,0,0,0,0,0,0,0,0,0,0,0,0,0,0,0,0,0,0,0,0,0,0,0,0,0,0,0
11.6439208984375,11.6439161300659,11.64391040802,11.6439046859741,11.6438989639282,11.6438932418823,11.6438875198364,11.6438827514648,11.6438770294189,11.643871307373,11.6438655853271,11.6438598632812,11.6438541412354,11.6438493728638,11.6438436508179,11.643837928772,11.6438322067261,11.6438264846802,11.6438207626343,11.6438159942627,11.6438102722168,11.6438045501709,11.643798828125,11.6437931060791,11.6437873840332,11.6437826156616,11.6437768936157,11.6437711715698,11.6437654495239,11.643759727478,11.6437549591064,11.6437492370605,11.6437435150146,11.6437377929688,11.6437320709229,11.643726348877,11.6437215805054,11.6437158584595,11.6437101364136,11.6437044143677,11.6436986923218,11.6436929702759,11.64368724823,11.6436824798584,11.6908369064331,11.74840259552,11.7626695632935,11.7652883529663,11.7679071426392,11.7705278396606,11.7731485366821,11.7757711410522,11.7783946990967,11.7810192108154,11.7836456298828,11.7862720489502,11.7889003753662,11.7950038909912,11.8038520812988,11.8127145767212,11.8215894699097,11.8304777145386,11.8393793106079,11.8482942581177,11.8572225570679,11.8661651611328,11.8751201629639,11.8840894699097,11.8930721282959,11.9020681381226,11.911078453064,11.9201011657715,11.9291391372681,11.9381895065308,11.9472541809082,11.9563322067261,11.9654245376587,11.9745311737061,11.9836502075195,11.9927845001221,12.001932144165,12.0110940933228,12.0202693939209,12.0294589996338,12.0386629104614,12.0478811264038,12.0571126937866,12.0663595199585,12.0756196975708,12.0848941802979,12.0941829681396,12.1034860610962,12.1128044128418,12.1221370697021,12.1314830780029,12.1408443450928,12.1502199172974,12.1596097946167,12.1690149307251,12.1784343719482,12.1878681182861,12.1973161697388,12.2067794799805,12.2162570953369,12.2257490158081,12.2352561950684,12.2447786331177,12.2543153762817,12.2638673782349,12.2734336853027,12.2830152511597,12.2926120758057,12.3022232055664,12.3118495941162,12.3214912414551,12.331148147583,12.3408203125,12.3505067825317,12.3602094650269,12.369927406311,12.37965965271,12.3894081115723,12.3991718292236,12.4089508056641,12.4187450408936,12.4285545349121,12.438380241394,12.448221206665,12.4580774307251,12.4679498672485,12.477837562561,12.4877414703369,12.4976606369019,12.5075950622559,12.5175457000732,12.527512550354,12.5374956130981,12.5474939346313,12.5575084686279,12.5675382614136,12.5775852203369,12.5876474380493,12.5977258682251,12.6078205108643,12.6179323196411,12.628059387207,12.6382026672363,12.648362159729,12.6585388183594,12.6687307357788,12.6789398193359,12.6891660690308,12.6994075775146,12.7096662521362,12.7199420928955,12.7302341461182,12.7405424118042,12.7508678436279,12.7612104415894,12.7715692520142,12.7819442749023,12.7923374176025,12.8027467727661,12.8131732940674,12.8236169815063,12.8340768814087,12.844554901123,12.8550491333008,12.8655614852905,12.8760900497437,12.8866367340088,12.8972005844116,12.9077816009521,12.9183797836304,12.9289951324463,12.9396286010742,12.9502792358398,12.9609470367432,12.9716329574585,12.9823369979858,12.9930572509766,13.0037965774536,13.0145530700684,13.0253276824951,13.0361204147339,13.0469303131104,13.0577583312988,13.0686044692993,13.0794687271118,13.0903511047363,13.1012516021729,13.1121702194214,13.1231060028076,13.1340618133545,13.1450347900391,13.15602684021,13.1670360565186,13.1780652999878,13.1891117095947,13.200177192688,13.2112617492676,13.2223644256592,13.2334861755371,13.2446260452271,13.2557849884033,13.2669630050659,13.2781591415405,13.2893743515015,13.300609588623,13.3118629455566,13.3231353759766,13.3359041213989,13.3543472290039,13.372841835022,13.3913869857788,13.409984588623,13.4286336898804,13.456639289856,13.5342130661011,13.5519371032715,13.5829858779907,13.6141777038574,13.6455135345459,13.6769933700562,13.7086181640625,13.7403907775879,13.772310256958,13.8043785095215,13.8365964889526,13.8689651489258,13.9014854431152,13.9341592788696,13.966986656189,13.9999694824219,14.0331077575684,14.0664033889771,14.0998573303223,14.1334714889526,14.1672458648682,14.2011814117432,14.2352809906006,14.2695446014404,14.303973197937,14.3385677337646,14.3733310699463,14.4082622528076,14.4433650970459,14.4786386489868,14.5140838623047,14.5497045516968,14.5854997634888,14.6214723587036,14.6576223373413,14.6939506530762,14.7304611206055,14.7671518325806,14.8040266036987,14.8410863876343,14.8783311843872,14.9157648086548,14.9533863067627,14.9911985397339,15.0292015075684,15.0673980712891,15.1057901382446,15.1443777084351,15.183162689209,15.222146987915,15.2613325119019,15.3007192611694,15.340311050415,15.3801069259644,15.4201107025146,15.4509658813477,15.4744091033936,15.4979238510132,15.5215091705322,15.5451669692993,15.5688972473145,15.5927000045776,15.6201581954956,15.6548385620117,15.6896743774414,16.1664962768555,16.9735126495361,19.983304977417,0,0,0,0,0,0,0,0,0,0,0,0,0,0,0,0,0,0,0,0,0,0,0,0,0,0,0,0,0,0,0,0,0,0,0,0,0,0,0,0,0,0,0,0,0,0
11.6442127227783,11.6442070007324,11.6442012786865,11.6441955566406,11.6441898345947,11.6441841125488,11.6441793441772,11.6441736221313,11.6441679000854,11.6441621780396,11.6441564559937,11.6441507339478,11.6441459655762,11.6441402435303,11.6441345214844,11.6441287994385,11.6441230773926,11.6441173553467,11.6441125869751,11.6441068649292,11.6441011428833,11.6440954208374,11.6440896987915,11.6440839767456,11.644079208374,11.6440734863281,11.6440677642822,11.6440620422363,11.6440563201904,11.6440505981445,11.6440458297729,11.6440401077271,11.6440343856812,11.6440286636353,11.6440229415894,11.6440172195435,11.6440124511719,11.644006729126,11.6440010070801,11.6439952850342,11.6439895629883,11.6439838409424,11.6439790725708,11.6439733505249,11.6912403106689,11.7488098144531,11.7726650238037,11.7752876281738,11.7779111862183,11.7805366516113,11.7831630706787,11.7857904434204,11.7884187698364,11.7910470962524,11.7936782836914,11.7963094711304,11.7989416122437,11.8015756607056,11.8042106628418,11.8068475723267,11.8094844818115,11.812123298645,11.8147630691528,11.817403793335,11.8241338729858,11.833025932312,11.8419313430786,11.8508501052856,11.8597822189331,11.8687286376953,11.8776874542236,11.8866605758667,11.8956470489502,11.9046468734741,11.9136610031128,11.9226884841919,11.9317293167114,11.9407844543457,11.9498529434204,11.9589347839355,11.9680309295654,11.9771413803101,11.9862651824951,11.9954032897949,12.0045547485352,12.0137205123901,12.0228996276855,12.03209400177,12.0413017272949,12.0505237579346,12.0597591400146,12.0690097808838,12.0782737731934,12.087553024292,12.0968456268311,12.1061534881592,12.1154747009277,12.124810218811,12.1341609954834,12.1435260772705,12.152904510498,12.1622982025146,12.1717071533203,12.1811294555664,12.1905670166016,12.2000188827515,12.2094860076904,12.2189674377441,12.2284631729126,12.2379741668701,12.2475004196167,12.257040977478,12.2665958404541,12.2761669158936,12.2857522964478,12.2953519821167,12.304967880249,12.3145990371704,12.3242444992065,12.3339061737061,12.3435821533203,12.3532733917236,12.362979888916,12.3727016448975,12.3824396133423,12.3921918869019,12.4019594192505,12.4117431640625,12.4215421676636,12.4313564300537,12.4411859512329,12.4510316848755,12.4608926773071,12.4707689285278,12.4806613922119,12.4905691146851,12.5004930496216,12.5104322433472,12.5203876495361,12.5303592681885,12.5403461456299,12.5503492355347,12.5603675842285,12.5704030990601,12.5804538726807,12.5905208587646,12.600604057312,12.6107034683228,12.6208190917969,12.6309509277344,12.6410989761353,12.6512632369995,12.6614446640015,12.6716413497925,12.6818552017212,12.6920852661133,12.7023324966431,12.7125949859619,12.7228746414185,12.7331714630127,12.7434854507446,12.7538156509399,12.7641620635986,12.774525642395,12.7849063873291,12.7953033447266,12.805718421936,12.8161497116089,12.8265981674194,12.8370628356934,12.8475456237793,12.8580455780029,12.8685617446899,12.879096031189,12.8896474838257,12.9002151489258,12.9108018875122,12.921404838562,12.9320259094238,12.942663192749,12.9533195495605,12.9639921188354,12.9746837615967,12.9853916168213,12.9961185455322,13.0068616867065,13.0176239013672,13.0284032821655,13.0392007827759,13.0500164031982,13.0608491897583,13.0717000961304,13.0825700759888,13.0934572219849,13.104362487793,13.1152868270874,13.1262283325195,13.137188911438,13.1481676101685,13.1591644287109,13.1701793670654,13.1812133789062,13.1978721618652,13.215934753418,13.2340478897095,13.2522106170654,13.2704229354858,13.2886848449707,13.3069982528687,13.3253612518311,13.3437757492065,13.3622407913208,13.3807563781738,13.3993244171143,13.4179439544678,13.4366149902344,13.4553346633911,13.4741067886353,13.5133628845215,13.5221700668335,13.5508899688721,13.5819339752197,13.6131210327148,13.6444520950317,13.6759271621704,13.7075471878052,13.7393140792847,13.7712287902832,13.8032922744751,13.8355054855347,13.8678684234619,13.9003839492798,13.9330520629883,13.965874671936,13.998851776123,14.0319852828979,14.0652751922607,14.0987243652344,14.1323328018188,14.1661014556885,14.2000322341919,14.2341251373291,14.268383026123,14.3028059005737,14.3373956680298,14.3721532821655,14.407078742981,14.442174911499,14.477442741394,14.5128831863403,14.5484972000122,14.5842866897583,14.6202535629272,14.6563968658447,14.692720413208,14.7292232513428,14.7659091949463,14.8027772903442,14.8398303985596,14.8770694732666,14.914496421814,14.9521112442017,14.9899168014526,15.0279140472412,15.0661039352417,15.1044893264771,15.1430702209473,15.181848526001,15.2208261489868,15.2600040435791,15.2993850708008,15.3386745452881,15.3617782592773,15.3849506378174,15.4081935882568,15.4315071105957,15.454891204834,15.4783458709717,15.5018730163574,15.5254707336426,15.5491399765015,15.573655128479,15.6081295013428,15.6427574157715,15.6775388717651,15.9038677215576,16.7308235168457,17.5966739654541,19.884334564209,19.9639072418213,0,0,0,0,0,0,0,0,0,0,0,0,0,0,0,0,0,0,0,0,0,0,0,0,0,0,0,0,0,0,0,0,0,0,0,0,0,0,0,0,0,0
