12.576753616333,12.6027927398682,12.6289386749268,12.6551942825317,12.6815586090088,12.7080335617065,12.734619140625,12.7613162994385,12.788125038147,12.8347311019897,12.9038801193237,12.9737787246704,13.0444355010986,13.1158599853516,13.1880712509155,14.2629022598267,14.2769041061401,14.2909336090088,14.3049917221069,14.3190765380859,14.3331890106201,14.3473300933838,14.3614978790283,14.3756952285767,14.3899192810059,14.4041719436646,14.4184532165527,14.4327630996704,14.4471006393433,14.4614677429199,14.4758625030518,14.4902858734131,14.5047378540039,14.5192193984985,14.5337295532227,14.5482692718506,14.562837600708,14.5774354934692,14.59206199646,14.6067180633545,14.6214036941528,14.6361198425293,14.6508646011353,14.665638923645,14.6804437637329,14.6952781677246,14.7101421356201,14.7250366210938,14.7399616241455,14.7549171447754,14.7699022293091,14.7849178314209,14.7999649047852,14.8150415420532,14.8301496505737,14.8452882766724,14.8604583740234,14.8687887191772,14.8753147125244,14.8818473815918,14.8883848190308,14.8949289321899,14.9014778137207,14.9080333709717,14.9145946502686,14.921160697937,14.9277334213257,14.9343118667603,14.9408960342407,14.9474859237671,14.9540815353394,14.9606828689575,14.9672899246216,14.9739036560059,14.980523109436,14.9871473312378,14.9937782287598,15.0004148483276,15.0070571899414,15.0137062072754,15.020359992981,15.0270204544067,15.0336866378784,15.040358543396,15.0470361709595,15.0537204742432,15.0604095458984,15.0671062469482,15.0738077163696,15.0805149078369,15.0872287750244,15.0939483642578,15.1006746292114,15.1074056625366,15.114143371582,15.1208868026733,15.1276369094849,15.1343927383423,15.1411542892456,15.1479215621948,15.1546955108643,15.1614751815796,15.2037506103516,15.2621755599976,15.3210515975952,15.3803834915161,15.4401760101318,15.5004358291626,15.56116771698,15.6223783493042,15.6840715408325,15.7462539672852,15.808931350708,15.8725938796997,15.9619512557983,16.0523223876953,16.1437206268311,16.2361660003662,16.3296775817871,16.4242706298828,16.5199661254883,15.1607637405396,15.1687202453613,15.176685333252,15.1846590042114,15.1926403045654,15.2006311416626,15.2086296081543,15.2166366577148,15.2246522903442,15.2326755523682,15.2407083511353,15.2487487792969,15.2567987442017,15.264856338501,15.2729225158691,15.2809972763062,15.2890815734863,15.297173500061,15.3052740097046,15.313383102417,15.3215007781982,15.3296270370483,15.3377618789673,15.3547677993774,15.5063238143921,15.6608715057373,16.285701751709,16.2909030914307,16.2961082458496,16.3110122680664,16.4741363525391,16.6405544281006,16.8115577697754,16.9861946105957,17.1644992828369,17.3789978027344,17.5905818939209,17.7895698547363,0,0,0,0,0,0,0,0,0,0,0,0,0,0,0,0,0,0,0,0,0,0,0,0,0,0,0,0,0,0,0,0,0,0,0,0,0,0,0,0,0,0,0,0,0,0,0,0,0,0,0,0,0,0,0,0,0,0,0,0,0,0,0,0,0,0,0,0,0,0,0,0,0,0,0,0,0,0,0,0,0,0,0,0,0,0,0,0,0,0,0,0,0,0,0,0,0,0,0,0,0,0,0,0,0,0,0,0,0,0,0,0,0,0,0,0,0,0,0,0,0,0,0,0,0,0,0,0,0,0,0,0,0,0,0,0,0,0,0,0,0,0,0,0,0,0,0,0,0,0,0,0,0,0,0,0,0,0,0,0,0,0,0,0,0,0,0,0,0,0,0,0,0,0,0,0,0,0,0,0,0,0
12.5721206665039,12.5981397628784,12.6242666244507,12.6505031585693,12.6768474578857,12.7033033370972,12.729868888855,12.7565460205078,12.7833347320557,12.8350410461426,12.9041938781738,12.9740953445435,13.044750213623,13.1161794662476,13.1883945465088,14.2295274734497,14.2434635162354,14.2574281692505,14.2714195251465,14.2854385375977,14.2994842529297,14.3135585784912,14.3276605606079,14.3417901992798,14.3559484481812,14.3701333999634,14.3843469619751,14.3985891342163,14.4128589630127,14.4271574020386,14.4414844512939,14.4558391571045,14.4702234268188,14.4846353530884,14.4990768432617,14.5135469436646,14.5280456542969,14.542573928833,14.5571308135986,14.5717172622681,14.586332321167,14.6009769439697,14.6156511306763,14.6303548812866,14.6450881958008,14.6598510742188,14.6746444702148,14.6894664764404,14.7043199539185,14.719202041626,14.7341156005859,14.7490587234497,14.7640314102173,14.7790355682373,14.7940702438354,14.8061895370483,14.8126611709595,14.8191385269165,14.8256216049194,14.8321104049683,14.8386039733887,14.8451042175293,14.8516101837158,14.8581209182739,14.8646383285522,14.8711605072021,14.8776893615723,14.8842239379883,14.8907632827759,14.8973093032837,14.9038610458374,14.910418510437,14.9169807434082,14.9235496520996,14.9301242828369,14.9367046356201,14.9432907104492,14.9498834609985,14.9564809799194,14.9630842208862,14.9696941375732,14.9763097763062,14.982931137085,14.9895572662354,14.9961910247803,15.0028295516968,15.0094738006592,15.0161247253418,15.0227813720703,15.0294437408447,15.036111831665,15.0427856445312,15.0494661331177,15.05615234375,15.0628442764282,15.0695419311523,15.0762453079224,15.0829553604126,15.0896711349487,15.0963935852051,15.103120803833,15.1098546981812,15.1165943145752,15.1268901824951,15.1847248077393,15.2430028915405,15.3017311096191,15.360912322998,15.4205541610718,15.4806604385376,15.5412378311157,15.6022901535034,15.6638240814209,15.7258462905884,15.7883605957031,15.8513746261597,15.9296054840088,16.0196075439453,16.1106338500977,16.2026996612549,16.2958240509033,16.3900260925293,15.1950569152832,15.2030506134033,15.2110509872437,15.2190608978271,15.2270793914795,15.2351055145264,15.2431402206421,15.2511835098267,15.2592363357544,15.2672967910767,15.2753648757935,15.2834424972534,15.2915287017822,15.2996234893799,15.3077268600464,15.3158388137817,15.3239583969116,15.3320875167847,15.3402252197266,15.3483715057373,15.3565263748169,15.3646898269653,15.3728628158569,15.3810434341431,15.5214233398438,15.6762733459473,15.8342428207397,16.2631092071533,16.2682952880859,16.3255214691162,16.4889354705811,16.6556549072266,16.8267860412598,17.0017414093018,17.1803722381592,17.3884372711182,17.6099910736084,17.8094501495361,0,0,0,0,0,0,0,0,0,0,0,0,0,0,0,0,0,0,0,0,0,0,0,0,0,0,0,0,0,0,0,0,0,0,0,0,0,0,0,0,0,0,0,0,0,0,0,0,0,0,0,0,0,0,0,0,0,0,0,0,0,0,0,0,0,0,0,0,0,0,0,0,0,0,0,0,0,0,0,0,0,0,0,0,0,0,0,0,0,0,0,0,0,0,0,0,0,0,0,0,0,0,0,0,0,0,0,0,0,0,0,0,0,0,0,0,0,0,0,0,0,0,0,0,0,0,0,0,0,0,0,0,0,0,0,0,0,0,0,0,0,0,0,0,0,0,0,0,0,0,0,0,0,0,0,0,0,0,0,0,0,0,0,0,0,0,0,0,0,0,0,0,0,0,0,0,0,0,0,0,0
12.5674905776978,12.5934906005859,12.6195983886719,12.6458148956299,12.67214012146,12.6985759735107,12.7251214981079,12.7517786026001,12.7785472869873,12.8353500366211,12.9045066833496,12.9744081497192,13.0450658798218,13.1164979934692,13.1887168884277,14.196307182312,14.2101793289185,14.2240781784058,14.2380046844482,14.2519578933716,14.2659387588501,14.2799463272095,14.2939825057983,14.3080453872681,14.3221368789673,14.3362550735474,14.3504018783569,14.3645763397217,14.3787794113159,14.3930101394653,14.4072685241699,14.4215564727783,14.4358720779419,14.450216293335,14.4645881652832,14.4789896011353,14.4934196472168,14.5078783035278,14.5223655700684,14.5368824005127,14.5514278411865,14.5660028457642,14.5806064605713,14.5952396392822,14.609902381897,14.6245946884155,14.6393165588379,14.6540679931641,14.668848991394,14.6836605072021,14.6985006332397,14.7133722305298,14.7282733917236,14.7432050704956,14.7505331039429,14.7569561004639,14.7633848190308,14.7698183059692,14.7762584686279,14.7827043533325,14.7891550064087,14.7956113815308,14.802074432373,14.8085422515869,14.8150157928467,14.8214950561523,14.8279800415039,14.8344707489014,14.8409671783447,14.847469329834,14.8539762496948,14.8604898452759,14.8670091629028,14.8735342025757,14.8800649642944,14.8866004943848,14.8931427001953,14.8996906280518,14.9062442779541,14.9128036499023,14.9193687438965,14.9259395599365,14.9325160980225,14.9390993118286,14.9456872940063,14.95228099823,14.9588813781738,14.9654874801636,14.9720983505249,14.9787158966064,14.9853391647339,14.9919691085815,14.9986038208008,15.0052442550659,15.0118913650513,15.0185441970825,15.0252027511597,15.0318670272827,15.038537979126,15.0452136993408,15.0518960952759,15.0585842132568,15.0652780532837,15.0719785690308,15.0786848068237,15.1080551147461,15.1657457351685,15.2238788604736,15.2824583053589,15.3414916992188,15.4009819030762,15.4609355926514,15.5213575363159,15.5822534561157,15.643630027771,15.705491065979,15.7678442001343,15.8306941986084,15.8973903656006,15.9870281219482,16.0776824951172,16.1693725585938,16.2621116638184,15.2295055389404,15.2375364303589,15.2455739974976,15.2536191940308,15.2616739273071,15.2697372436523,15.2778091430664,15.285888671875,15.2939777374268,15.302074432373,15.3101806640625,15.3182945251465,15.3264179229736,15.3345489501953,15.3426895141602,15.3508386611938,15.3589963912964,15.3671627044678,15.375337600708,15.3835210800171,15.391713142395,15.3999137878418,15.4081239700317,15.4163427352905,15.5365514755249,15.6917057037354,15.8499898910522,16.235408782959,16.2405776977539,16.3400535583496,16.5037612915039,16.670783996582,16.8420429229736,17.0173168182373,17.1962776184082,17.3978862762451,17.6294441223145,17.8293743133545,0,0,0,0,0,0,0,0,0,0,0,0,0,0,0,0,0,0,0,0,0,0,0,0,0,0,0,0,0,0,0,0,0,0,0,0,0,0,0,0,0,0,0,0,0,0,0,0,0,0,0,0,0,0,0,0,0,0,0,0,0,0,0,0,0,0,0,0,0,0,0,0,0,0,0,0,0,0,0,0,0,0,0,0,0,0,0,0,0,0,0,0,0,0,0,0,0,0,0,0,0,0,0,0,0,0,0,0,0,0,0,0,0,0,0,0,0,0,0,0,0,0,0,0,0,0,0,0,0,0,0,0,0,0,0,0,0,0,0,0,0,0,0,0,0,0,0,0,0,0,0,0,0,0,0,0,0,0,0,0,0,0,0,0,0,0,0,0,0,0,0,0,0,0,0,0,0,0,0,0
12.5628633499146,12.5888442993164,12.614933013916,12.6411304473877,12.6674356460571,12.6938514709473,12.7203779220581,12.7470149993896,12.7737646102905,12.8356599807739,12.9048194885254,12.9747200012207,13.0453815460205,13.1168174743652,13.1890392303467,14.1632432937622,14.1770505905151,14.1908845901489,14.2047452926636,14.2186336517334,14.2325487136841,14.2464914321899,14.260461807251,14.2744588851929,14.2884836196899,14.3025360107422,14.3166170120239,14.3307247161865,14.3448600769043,14.3590240478516,14.373215675354,14.3874349594116,14.4016828536987,14.4159593582153,14.4302635192871,14.4445972442627,14.4589586257935,14.4733486175537,14.4877672195435,14.5022144317627,14.5166902542114,14.531195640564,14.545729637146,14.5602931976318,14.5748863220215,14.5895080566406,14.6041584014893,14.618839263916,14.6335496902466,14.648289680481,14.6630592346191,14.6778583526611,14.6889238357544,14.6952934265137,14.7016677856445,14.7080488204956,14.7144346237183,14.7208261489868,14.7272233963013,14.7336263656616,14.7400341033936,14.7464485168457,14.7528676986694,14.7592926025391,14.7657232284546,14.772159576416,14.7786016464233,14.7850484848022,14.7915019989014,14.7979602813721,14.804425239563,14.8108949661255,14.8173704147339,14.8238525390625,14.8303394317627,14.8368320465088,14.8433303833008,14.8498344421387,14.8563442230225,14.8628597259521,14.8693809509277,14.8759078979492,14.8824405670166,14.8889789581299,14.8955230712891,14.9020729064941,14.9086284637451,14.9151906967163,14.9217576980591,14.9283304214478,14.9349088668823,14.9414939880371,14.9480838775635,14.9546804428101,14.9612827301025,14.9678907394409,14.9745044708252,14.9811239242554,14.9877490997314,14.9943809509277,15.0010175704956,15.0076608657837,15.0143098831177,15.0209646224976,15.0276250839233,15.0342922210693,15.0409641265869,15.0892677307129,15.1468143463135,15.2048015594482,15.2632350921631,15.3221187591553,15.381459236145,15.4412603378296,15.5015287399292,15.5622692108154,15.6234874725342,15.6851892471313,15.7473812103271,15.8100671768188,15.873254776001,15.9545812606812,16.0448665618896,16.1361808776855,15.2641105651855,15.272177696228,15.280252456665,15.2883358001709,15.2964267730713,15.3045263290405,15.3126344680786,15.3207521438599,15.3288774490356,15.3370113372803,15.3451547622681,15.3533058166504,15.3614664077759,15.3696346282959,15.3778123855591,15.3859987258911,15.394193649292,15.4023971557617,15.4106101989746,15.418830871582,15.4270610809326,15.4352998733521,15.4435472488403,15.4518041610718,15.5517091751099,15.7071685791016,15.8657665252686,16.0275993347168,16.2129554748535,16.3546142578125,16.5186138153076,16.6859378814697,16.8573246002197,17.0329189300537,17.2122097015381,17.4073467254639,17.6489391326904,17.84934425354,0,0,0,0,0,0,0,0,0,0,0,0,0,0,0,0,0,0,0,0,0,0,0,0,0,0,0,0,0,0,0,0,0,0,0,0,0,0,0,0,0,0,0,0,0,0,0,0,0,0,0,0,0,0,0,0,0,0,0,0,0,0,0,0,0,0,0,0,0,0,0,0,0,0,0,0,0,0,0,0,0,0,0,0,0,0,0,0,0,0,0,0,0,0,0,0,0,0,0,0,0,0,0,0,0,0,0,0,0,0,0,0,0,0,0,0,0,0,0,0,0,0,0,0,0,0,0,0,0,0,0,0,0,0,0,0,0,0,0,0,0,0,0,0,0,0,0,0,0,0,0,0,0,0,0,0,0,0,0,0,0,0,0,0,0,0,0,0,0,0,0,0,0,0,0,0,0,0,0
12.5582399368286,12.5842018127441,12.6102714538574,12.6364488601685,12.6627349853516,12.6891317367554,12.7156381607056,12.7422552108765,12.7689847946167,12.8359699249268,12.9051294326782,12.9750328063965,13.0456972122192,13.1171369552612,13.1893625259399,14.130331993103,14.1440753936768,14.157844543457,14.1716413497925,14.1854648590088,14.1993160247803,14.2131929397583,14.2270975112915,14.2410297393799,14.2549896240234,14.2689762115479,14.2829895019531,14.2970314025879,14.3111009597778,14.3251981735229,14.3393230438232,14.3534755706787,14.3676567077637,14.3818645477295,14.3961019515991,14.4103670120239,14.4246606826782,14.4389820098877,14.453332901001,14.4677114486694,14.4821186065674,14.4965543746948,14.5110197067261,14.5255136489868,14.5400362014771,14.5545883178711,14.5691690444946,14.583779335022,14.5984191894531,14.6130886077881,14.6277866363525,14.6341438293457,14.6404657363892,14.6467933654785,14.6531257629395,14.6594638824463,14.6658086776733,14.6721572875977,14.6785125732422,14.6848726272583,14.6912384033203,14.6976099014282,14.703987121582,14.7103700637817,14.716757774353,14.7231512069702,14.7295503616333,14.7359552383423,14.7423658370972,14.7487812042236,14.7552032470703,14.7616300582886,14.7680625915527,14.7745008468628,14.7809448242188,14.7873945236206,14.7938499450684,14.8003101348877,14.8067770004272,14.8132486343384,14.8197269439697,14.8262100219727,14.8326988220215,14.8391942977905,14.8456945419312,14.8522005081177,14.8587121963501,14.8652296066284,14.871753692627,14.8782825469971,14.8848171234131,14.891357421875,14.8979043960571,14.9044561386108,14.9110136032104,14.9175777435303,14.9241466522217,14.930721282959,14.9373025894165,14.9438896179199,14.9504814147949,14.9570798873901,14.9636840820312,14.9702939987183,14.9769105911255,14.9835319519043,14.9901599884033,14.9967927932739,15.013557434082,15.0705270767212,15.1279306411743,15.185772895813,15.2440595626831,15.3027954101562,15.361985206604,15.4216356277466,15.4817504882812,15.5423355102539,15.6033973693848,15.6649398803711,15.7269706726074,15.7894945144653,15.8525171279907,15.9222650527954,16.0121841430664,15.2988729476929,15.3069763183594,15.315089225769,15.3232097625732,15.331337928772,15.3394746780396,15.347620010376,15.3557748794556,15.3639373779297,15.3721084594727,15.3802890777588,15.3884773254395,15.3966751098633,15.404881477356,15.4130964279175,15.4213209152222,15.4295530319214,15.4377946853638,15.446044921875,15.4543037414551,15.4625720977783,15.4708490371704,15.4791345596313,15.4874286651611,15.5668821334839,15.7226610183716,15.881573677063,16.0437316894531,16.208137512207,16.3691997528076,16.5334949493408,16.7011203765869,16.8726367950439,17.0485515594482,17.2281742095947,17.4168167114258,17.668478012085,17.8693580627441,18.0747222900391,0,0,0,0,0,0,0,0,0,0,0,0,0,0,0,0,0,0,0,0,0,0,0,0,0,0,0,0,0,0,0,0,0,0,0,0,0,0,0,0,0,0,0,0,0,0,0,0,0,0,0,0,0,0,0,0,0,0,0,0,0,0,0,0,0,0,0,0,0,0,0,0,0,0,0,0,0,0,0,0,0,0,0,0,0,0,0,0,0,0,0,0,0,0,0,0,0,0,0,0,0,0,0,0,0,0,0,0,0,0,0,0,0,0,0,0,0,0,0,0,0,0,0,0,0,0,0,0,0,0,0,0,0,0,0,0,0,0,0,0,0,0,0,0,0,0,0,0,0,0,0,0,0,0,0,0,0,0,0,0,0,0,0,0,0,0,0,0,0,0,0,0,0,0,0,0,0
12.5536203384399,12.5795631408691,12.6056127548218,12.6317710876465,12.6580381393433,12.6844148635864,12.710901260376,12.7374992370605,12.7678508758545,12.8362789154053,12.9054384231567,12.9753446578979,13.046012878418,13.1174554824829,13.1896848678589,14.0975742340088,14.111252784729,14.1249589920044,14.1386919021606,14.1524505615234,14.1662368774414,14.1800498962402,14.1938896179199,14.2077569961548,14.2216510772705,14.2355718612671,14.2495203018188,14.2634963989258,14.2775001525879,14.2915306091309,14.3055896759033,14.3196754455566,14.3337898254395,14.3479318618774,14.3621006011963,14.3762989044189,14.3905248641968,14.4047784805298,14.4190607070923,14.4333715438843,14.4477109909058,14.4620780944824,14.4764747619629,14.4909000396729,14.505352973938,14.5198354721069,14.5343475341797,14.5488882064819,14.5634574890137,14.5735006332397,14.5797700881958,14.5860452651978,14.5923261642456,14.598611831665,14.6049032211304,14.6112003326416,14.6175022125244,14.6238098144531,14.6301231384277,14.6364412307739,14.642765045166,14.649094581604,14.6554298400879,14.6617698669434,14.668116569519,14.6744680404663,14.6808242797852,14.6871871948242,14.6935548782349,14.6999282836914,14.7063074111938,14.7126922607422,14.7190818786621,14.7254772186279,14.7318782806396,14.7382850646973,14.7446975708008,14.7511157989502,14.7575397491455,14.7639684677124,14.7704029083252,14.7768430709839,14.7832899093628,14.789740562439,14.7961978912354,14.8026609420776,14.8091297149658,14.8156032562256,14.8220834732056,14.8285684585571,14.8350601196289,14.8415565490723,14.8480596542358,14.854567527771,14.8610811233521,14.8676013946533,14.8741264343262,14.8806581497192,14.8871946334839,14.8937368392944,14.9002857208252,14.9068393707275,14.9133996963501,14.9199647903442,14.9265365600586,14.9331140518188,14.939697265625,14.9462862014771,14.9528799057007,14.9594812393188,14.9950037002563,15.0518321990967,15.1090936660767,15.1667919158936,15.2249326705933,15.2835206985474,15.3425617218018,15.402060508728,15.4620218276978,15.5224533081055,15.5833578109741,15.6447429656982,15.7066125869751,15.7689743041992,15.8318328857422,15.8951950073242,15.9796342849731,15.3419351577759,15.3500843048096,15.3582429885864,15.3664093017578,15.3745832443237,15.3827657699585,15.3909578323364,15.3991575241089,15.4073667526245,15.415584564209,15.4238109588623,15.4320459365845,15.4402904510498,15.448543548584,15.456805229187,15.4650754928589,15.4733552932739,15.4816436767578,15.4899406433105,15.4982461929321,15.5065612792969,15.5148859024048,15.5232181549072,15.5820798873901,15.738184928894,15.8974132537842,16.0598964691162,16.2224617004395,16.383810043335,16.5484008789062,16.7163314819336,16.887975692749,17.0642127990723,17.2441654205322,17.4279556274414,17.6880588531494,17.8894176483154,18.0952453613281,0,0,0,0,0,0,0,0,0,0,0,0,0,0,0,0,0,0,0,0,0,0,0,0,0,0,0,0,0,0,0,0,0,0,0,0,0,0,0,0,0,0,0,0,0,0,0,0,0,0,0,0,0,0,0,0,0,0,0,0,0,0,0,0,0,0,0,0,0,0,0,0,0,0,0,0,0,0,0,0,0,0,0,0,0,0,0,0,0,0,0,0,0,0,0,0,0,0,0,0,0,0,0,0,0,0,0,0,0,0,0,0,0,0,0,0,0,0,0,0,0,0,0,0,0,0,0,0,0,0,0,0,0,0,0,0,0,0,0,0,0,0,0,0,0,0,0,0,0,0,0,0,0,0,0,0,0,0,0,0,0,0,0,0,0,0,0,0,0,0,0,0,0,0,0,0
12.5490036010742,12.5749273300171,12.6009578704834,12.6270971298218,12.6533441543579,12.6797018051147,12.7061681747437,12.7327461242676,12.7681570053101,12.8365859985352,12.9057464599609,12.9756574630737,13.0463285446167,13.1177749633789,13.1900072097778,14.0649671554565,14.0785837173462,14.0922260284424,14.1058940887451,14.119589805603,14.1333122253418,14.1470613479614,14.1608362197876,14.1746387481689,14.1884679794312,14.2023248672485,14.2162084579468,14.2301187515259,14.2440567016602,14.2580223083496,14.2720146179199,14.2860345840454,14.3000822067261,14.3141574859619,14.3282604217529,14.3423919677734,14.3565502166748,14.3707370758057,14.3849515914917,14.3991947174072,14.4134664535522,14.4277658462524,14.4420938491821,14.4564504623413,14.4708347320557,14.4852485656738,14.4996910095215,14.5133581161499,14.5195760726929,14.5257997512817,14.5320281982422,14.5382623672485,14.5445022583008,14.5507469177246,14.55699634552,14.5632524490356,14.5695133209229,14.575779914856,14.5820512771606,14.5883283615112,14.5946111679077,14.6008987426758,14.6071920394897,14.6134910583496,14.6197948455811,14.6261043548584,14.6324195861816,14.6387405395508,14.6450662612915,14.6513977050781,14.6577348709106,14.6640768051147,14.6704244613647,14.6767778396606,14.6831369400024,14.6895017623901,14.6958713531494,14.7022466659546,14.7086277008057,14.7150144577026,14.7214069366455,14.72780418396,14.7342071533203,14.7406158447266,14.7470302581787,14.7534503936768,14.7598762512207,14.7663068771362,14.772744178772,14.7791862487793,14.7856349945068,14.7920875549316,14.798547744751,14.8050117492676,14.8114824295044,14.8179588317871,14.8244409561157,14.8309288024902,14.8374214172363,14.8439207077026,14.8504247665405,14.8569355010986,14.8634510040283,14.8699731826782,14.876501083374,14.8830337524414,14.889573097229,14.8961172103882,14.9026679992676,14.9092245101929,14.9157857894897,14.9223537445068,14.9764957427979,15.0331840515137,15.0903024673462,15.1478576660156,15.2058525085449,15.2642936706543,15.3231859207153,15.3825349807739,15.4423446655273,15.5026206970215,15.5633697509766,15.6245975494385,15.6863079071045,15.7485084533691,15.811203956604,15.874400138855,15.3770532608032,15.3852405548096,15.3934364318848,15.4016408920288,15.4098520278931,15.4180727005005,15.4263019561768,15.4345397949219,15.4427871704102,15.451042175293,15.4593067169189,15.4675798416138,15.4758625030518,15.4841527938843,15.49245262146,15.5007619857788,15.5090799331665,15.517406463623,15.5257415771484,15.534086227417,15.5424394607544,15.550802230835,15.5591735839844,15.5973072052002,15.7537393569946,15.9132833480835,16.0760936737061,16.2390747070312,16.3984489440918,16.5633335113525,16.7315692901611,16.9033432006836,17.0799026489258,17.2601890563965,17.4443225860596,17.7076835632324,17.9095134735107,18.115816116333,0,0,0,0,0,0,0,0,0,0,0,0,0,0,0,0,0,0,0,0,0,0,0,0,0,0,0,0,0,0,0,0,0,0,0,0,0,0,0,0,0,0,0,0,0,0,0,0,0,0,0,0,0,0,0,0,0,0,0,0,0,0,0,0,0,0,0,0,0,0,0,0,0,0,0,0,0,0,0,0,0,0,0,0,0,0,0,0,0,0,0,0,0,0,0,0,0,0,0,0,0,0,0,0,0,0,0,0,0,0,0,0,0,0,0,0,0,0,0,0,0,0,0,0,0,0,0,0,0,0,0,0,0,0,0,0,0,0,0,0,0,0,0,0,0,0,0,0,0,0,0,0,0,0,0,0,0,0,0,0,0,0,0,0,0,0,0,0,0,0,0,0,0,0,0
12.5257892608643,12.5608654022217,12.5961380004883,12.62242603302,12.6486539840698,12.674991607666,12.7014389038086,12.7279968261719,12.7684631347656,12.8368911743164,12.9060554504395,12.9759693145752,13.0466442108154,13.1180944442749,13.1903305053711,14.0325107574463,14.0460643768311,14.0596437454224,14.0732488632202,14.0868816375732,14.1005401611328,14.1142253875732,14.1279373168945,14.1416749954224,14.1554403305054,14.1692323684692,14.183051109314,14.1968965530396,14.2107696533203,14.2246694564819,14.2385969161987,14.2525510787964,14.2665328979492,14.2805423736572,14.2945795059204,14.3086433410645,14.322735786438,14.3368558883667,14.3510036468506,14.365180015564,14.3793830871582,14.3936157226562,14.4078760147095,14.4221639633179,14.4364814758301,14.4508256912231,14.4598770141602,14.4660491943359,14.4722270965576,14.4784097671509,14.48459815979,14.4907913208008,14.4969902038574,14.5031938552856,14.5094032287598,14.5156183242798,14.5218381881714,14.5280637741089,14.534294128418,14.5405302047729,14.5467720031738,14.5530185699463,14.5592708587646,14.5655279159546,14.5717906951904,14.5780591964722,14.5843324661255,14.5906114578247,14.5968961715698,14.6031866073608,14.6094818115234,14.6157827377319,14.622088432312,14.628399848938,14.6347169876099,14.6410398483276,14.647367477417,14.6537008285522,14.6600399017334,14.6663846969604,14.6727342605591,14.6790895462036,14.685450553894,14.6918172836304,14.6981887817383,14.7045660018921,14.7109498977661,14.7173385620117,14.7237319946289,14.7301321029663,14.7365369796753,14.7429475784302,14.749363899231,14.7557859420776,14.7622137069702,14.7686471939087,14.7750854492188,14.781530380249,14.7879800796509,14.7944355010986,14.8008975982666,14.8073644638062,14.8138370513916,14.8203153610229,14.8267993927002,14.833288192749,14.8397836685181,14.846284866333,14.8527917861938,14.8593034744263,14.8658218383789,14.8723459243774,14.8788757324219,14.901909828186,14.9580335617065,15.0145816802979,15.0715589523315,15.1289710998535,15.1868209838867,15.2451162338257,15.3038597106934,15.36305809021,15.4227161407471,15.4828395843506,15.5434341430664,15.6045036315918,15.6660556793213,15.7280950546265,15.7906274795532,15.41233253479,15.4205570220947,15.4287910461426,15.4370336532593,15.4452838897705,15.4535417556763,15.4618091583252,15.470085144043,15.4783697128296,15.4866638183594,15.494966506958,15.5032777786255,15.5115985870361,15.5199279785156,15.528265953064,15.5366134643555,15.5449695587158,15.553334236145,15.5617084503174,15.5700922012329,15.5784845352173,15.5868854522705,15.5952959060669,15.6125640869141,15.7693243026733,15.9291858673096,16.0923233032227,16.2588348388672,16.4131126403809,16.5782947540283,16.7468357086182,16.9188385009766,17.0956211090088,17.2762413024902,17.4607181549072,17.7273540496826,17.9296340942383,18.1364326477051,0,0,0,0,0,0,0,0,0,0,0,0,0,0,0,0,0,0,0,0,0,0,0,0,0,0,0,0,0,0,0,0,0,0,0,0,0,0,0,0,0,0,0,0,0,0,0,0,0,0,0,0,0,0,0,0,0,0,0,0,0,0,0,0,0,0,0,0,0,0,0,0,0,0,0,0,0,0,0,0,0,0,0,0,0,0,0,0,0,0,0,0,0,0,0,0,0,0,0,0,0,0,0,0,0,0,0,0,0,0,0,0,0,0,0,0,0,0,0,0,0,0,0,0,0,0,0,0,0,0,0,0,0,0,0,0,0,0,0,0,0,0,0,0,0,0,0,0,0,0,0,0,0,0,0,0,0,0,0,0,0,0,0,0,0,0,0,0,0,0,0,0,0,0
12.4837884902954,12.5186290740967,12.5536642074585,12.5888967514038,12.6243267059326,12.6599578857422,12.6957902908325,12.7232513427734,12.7687673568726,12.837197303772,12.906364440918,12.976282119751,13.0469608306885,13.1184129714966,13.19065284729,14.0002040863037,14.0136947631836,14.0272121429443,14.0407552719116,14.0543241500854,14.0679197311401,14.0815410614014,14.0951900482178,14.1088647842407,14.1225652694702,14.1362934112549,14.1500482559204,14.1638298034668,14.177638053894,14.1914730072021,14.2053356170654,14.2192249298096,14.2331409454346,14.2470846176147,14.2610559463501,14.2750549316406,14.289080619812,14.3031349182129,14.3172159194946,14.3313245773315,14.3454618453979,14.3596267700195,14.3738193511963,14.3880405426025,14.4006671905518,14.4067888259888,14.4129161834717,14.4190483093262,14.4251861572266,14.4313287734985,14.4374761581421,14.4436292648315,14.4497880935669,14.4559516906738,14.4621210098267,14.4682950973511,14.4744749069214,14.4806594848633,14.4868497848511,14.4930448532104,14.4992456436157,14.5054512023926,14.5116624832153,14.517879486084,14.5241012573242,14.5303287506104,14.5365610122681,14.5427989959717,14.5490427017212,14.5552911758423,14.5615453720093,14.5678043365479,14.5740690231323,14.5803394317627,14.586615562439,14.5928964614868,14.5991830825806,14.6054744720459,14.6117715835571,14.6180744171143,14.6243829727173,14.6306962966919,14.6370153427124,14.6433401107788,14.6496696472168,14.6560049057007,14.6623458862305,14.6686925888062,14.6750440597534,14.6814022064209,14.68776512146,14.6941328048706,14.7005071640015,14.7068862915039,14.7132720947266,14.7196626663208,14.7260580062866,14.7324600219727,14.7388677597046,14.7452802658081,14.7516984939575,14.7581224441528,14.764552116394,14.7709875106812,14.7774286270142,14.7838745117188,14.7903270721436,14.7967844009399,14.8032484054565,14.8097171783447,14.8161916732788,14.8226718902588,14.8291578292847,14.8356494903564,14.8421468734741,14.8836307525635,14.9396171569824,14.9960260391235,15.0528621673584,15.1101312637329,15.1678371429443,15.2259864807129,15.2845821380615,15.3436317443848,15.4031391143799,15.4631090164185,15.5235481262207,15.5844621658325,15.6458559036255,15.7077341079712,15.4477739334106,15.456036567688,15.4643077850342,15.4725885391235,15.4808778762817,15.4891748428345,15.4974803924561,15.5057945251465,15.5141181945801,15.5224494934082,15.5307903289795,15.5391407012939,15.5474996566772,15.5558681488037,15.5642442703247,15.5726308822632,15.5810260772705,15.5894298553467,15.597843170166,15.6062650680542,15.6146965026855,15.6231365203857,15.6315860748291,15.6400451660156,15.7849388122559,15.9451198577881,16.108585357666,16.2754364013672,16.4278030395508,16.593282699585,16.7621288299561,16.9344482421875,17.1113681793213,17.2923221588135,17.4771461486816,17.7470664978027,17.9497985839844,18.1570949554443,0,0,0,0,0,0,0,0,0,0,0,0,0,0,0,0,0,0,0,0,0,0,0,0,0,0,0,0,0,0,0,0,0,0,0,0,0,0,0,0,0,0,0,0,0,0,0,0,0,0,0,0,0,0,0,0,0,0,0,0,0,0,0,0,0,0,0,0,0,0,0,0,0,0,0,0,0,0,0,0,0,0,0,0,0,0,0,0,0,0,0,0,0,0,0,0,0,0,0,0,0,0,0,0,0,0,0,0,0,0,0,0,0,0,0,0,0,0,0,0,0,0,0,0,0,0,0,0,0,0,0,0,0,0,0,0,0,0,0,0,0,0,0,0,0,0,0,0,0,0,0,0,0,0,0,0,0,0,0,0,0,0,0,0,0,0,0,0,0,0,0,0,0
12.4420680999756,12.4766759872437,12.5114765167236,12.5464715957642,12.5816640853882,12.6170530319214,12.6526432037354,12.7013463973999,12.7690696716309,12.8375024795532,12.9066734313965,12.9765939712524,13.0472764968872,13.1187324523926,13.190975189209,13.9680452346802,13.9814748764038,13.9949293136597,14.0084095001221,14.0219173431396,14.0354499816895,14.0490083694458,14.062593460083,14.0762052536011,14.0898427963257,14.1035070419312,14.1171979904175,14.1309156417847,14.1446599960327,14.1584310531616,14.1722288131714,14.186053276062,14.1999044418335,14.2137832641602,14.227689743042,14.2416229248047,14.2555828094482,14.269570350647,14.2835865020752,14.2976293563843,14.3116998672485,14.325798034668,14.3399238586426,14.34801197052,14.3540887832642,14.3601713180542,14.3662586212158,14.3723516464233,14.3784494400024,14.3845520019531,14.3906602859497,14.3967733383179,14.4028921127319,14.4090156555176,14.4151449203491,14.4212789535522,14.4274187088013,14.4335632324219,14.4397134780884,14.4458684921265,14.4520282745361,14.458194732666,14.4643650054932,14.4705410003662,14.4767227172852,14.4829092025757,14.4891014099121,14.4952983856201,14.501501083374,14.5077095031738,14.5139226913452,14.5201406478882,14.5263643264771,14.5325937271118,14.5388288497925,14.5450687408447,14.5513134002686,14.5575647354126,14.5638208389282,14.5700817108154,14.5763483047485,14.5826206207275,14.5888986587524,14.5951814651489,14.6014699935913,14.6077632904053,14.6140632629395,14.6203670501709,14.6266775131226,14.6329927444458,14.6393136978149,14.64564037323,14.6519727706909,14.6583099365234,14.6646528244019,14.6710014343262,14.6773557662964,14.6837148666382,14.6900796890259,14.6964502334595,14.702826499939,14.70920753479,14.715594291687,14.7219877243042,14.7283849716187,14.7347888946533,14.7411985397339,14.747612953186,14.7540340423584,14.7604598999023,14.7668914794922,14.7733287811279,14.7797718048096,14.7862205505371,14.7926740646362,14.7991342544556,14.809965133667,14.8653974533081,14.9212455749512,14.9775152206421,15.0342111587524,15.0913381576538,15.1489009857178,15.2069044113159,15.2653532028198,15.3242540359497,15.3836107254028,15.4434280395508,15.5037136077881,15.564471244812,15.6257076263428,15.4833793640137,15.4916801452637,15.4999895095825,15.5083084106445,15.5166358947754,15.5249719619751,15.5333166122437,15.5416688919067,15.550030708313,15.5584020614624,15.5667810440063,15.5751705169678,15.5835676193237,15.5919742584229,15.6003904342651,15.6088151931763,15.6172494888306,15.6256923675537,15.63414478302,15.6426067352295,15.6510772705078,15.6595573425293,15.6680459976196,15.6765441894531,15.8005657196045,15.9610862731934,16.1248798370361,16.2920703887939,16.4425182342529,16.6082954406738,16.7774505615234,16.9500865936279,17.1271438598633,17.3084354400635,17.4936046600342,17.7622680664062,17.9700107574463,18.177806854248,0,0,0,0,0,0,0,0,0,0,0,0,0,0,0,0,0,0,0,0,0,0,0,0,0,0,0,0,0,0,0,0,0,0,0,0,0,0,0,0,0,0,0,0,0,0,0,0,0,0,0,0,0,0,0,0,0,0,0,0,0,0,0,0,0,0,0,0,0,0,0,0,0,0,0,0,0,0,0,0,0,0,0,0,0,0,0,0,0,0,0,0,0,0,0,0,0,0,0,0,0,0,0,0,0,0,0,0,0,0,0,0,0,0,0,0,0,0,0,0,0,0,0,0,0,0,0,0,0,0,0,0,0,0,0,0,0,0,0,0,0,0,0,0,0,0,0,0,0,0,0,0,0,0,0,0,0,0,0,0,0,0,0,0,0,0,0,0,0,0,0,0
12.4006252288818,12.4350023269653,12.4695711135864,12.5043325424194,12.5392875671387,12.5744390487671,12.6346225738525,12.7016410827637,12.7693719863892,12.8378086090088,12.906982421875,12.9769067764282,13.0475921630859,13.1190519332886,13.1912984848022,13.9360342025757,13.9494018554688,13.9627952575684,13.9762144088745,13.9896583557129,14.0031290054321,14.0166254043579,14.0301485061646,14.0436973571777,14.0572719573975,14.070873260498,14.0845012664795,14.0981550216675,14.1118354797363,14.125542640686,14.1392755508423,14.1530361175537,14.166823387146,14.1806373596191,14.1944789886475,14.2083463668823,14.2222423553467,14.2361640930176,14.250114440918,14.2640914916992,14.2780961990356,14.2897129058838,14.2957401275635,14.3017730712891,14.3078117370605,14.3138542175293,14.3199024200439,14.3259563446045,14.3320140838623,14.3380784988403,14.3441467285156,14.3502206802368,14.3563003540039,14.3623838424683,14.3684730529785,14.3745679855347,14.3806676864624,14.3867721557617,14.3928823471069,14.398998260498,14.4051179885864,14.411244392395,14.4173746109009,14.4235105514526,14.4296522140503,14.4357986450195,14.4419507980347,14.4481077194214,14.4542694091797,14.4604368209839,14.466609954834,14.4727878570557,14.4789714813232,14.4851598739624,14.4913539886475,14.4975528717041,14.5037574768066,14.5099678039551,14.5161828994751,14.522403717041,14.5286293029785,14.5348606109619,14.5410966873169,14.5473384857178,14.5535860061646,14.5598382949829,14.5660963058472,14.5723600387573,14.5786285400391,14.5849027633667,14.5911817550659,14.5974674224854,14.6037578582764,14.610053062439,14.6163549423218,14.6226615905762,14.6289730072021,14.6352910995483,14.6416139602661,14.6479425430298,14.654275894165,14.6606159210205,14.6669607162476,14.6733112335205,14.6796674728394,14.6860284805298,14.6923952102661,14.6987676620483,14.7051458358765,14.7115287780762,14.7179183959961,14.7243127822876,14.730712890625,14.7371187210083,14.7435302734375,14.7499475479126,14.7563695907593,14.7627973556519,14.7919111251831,14.8472080230713,14.9029197692871,14.9590511322021,15.015606880188,15.0725917816162,15.1300115585327,15.1878700256348,15.2461729049683,15.3049249649048,15.3641319274902,15.4237976074219,15.4839296340942,15.5445318222046,15.6056108474731,15.5274877548218,15.5358362197876,15.5441932678223,15.5525588989258,15.5609340667725,15.5693187713623,15.5777101516724,15.5861110687256,15.5945205688477,15.6029386520386,15.611367225647,15.6198034286499,15.628249168396,15.6367044448853,15.6451692581177,15.6536426544189,15.6621246337891,15.6706171035767,15.6791181564331,15.6876277923584,15.6961479187012,15.7046766281128,15.7132148742676,15.8162231445312,15.9770841598511,16.1412086486816,16.3087406158447,16.4587440490723,16.6233386993408,16.7928009033203,16.9657535552979,17.1429500579834,17.324577331543,17.5100936889648,17.7721271514893,17.9902667999268,18.1985645294189,0,0,0,0,0,0,0,0,0,0,0,0,0,0,0,0,0,0,0,0,0,0,0,0,0,0,0,0,0,0,0,0,0,0,0,0,0,0,0,0,0,0,0,0,0,0,0,0,0,0,0,0,0,0,0,0,0,0,0,0,0,0,0,0,0,0,0,0,0,0,0,0,0,0,0,0,0,0,0,0,0,0,0,0,0,0,0,0,0,0,0,0,0,0,0,0,0,0,0,0,0,0,0,0,0,0,0,0,0,0,0,0,0,0,0,0,0,0,0,0,0,0,0,0,0,0,0,0,0,0,0,0,0,0,0,0,0,0,0,0,0,0,0,0,0,0,0,0,0,0,0,0,0,0,0,0,0,0,0,0,0,0,0,0,0,0,0,0,0,0,0
12.3594579696655,12.3936071395874,12.4279451370239,12.4624738693237,12.5029735565186,12.5685958862305,12.6349096298218,12.7019376754761,12.7696743011475,12.83811378479,12.9072914123535,12.9772186279297,13.0479078292847,13.1193704605103,13.1916208267212,13.9041700363159,13.9174766540527,13.9308080673218,13.9441661834717,13.9575490951538,13.9709577560425,13.9843921661377,13.9978523254395,14.0113391876221,14.0248508453369,14.0383901596069,14.0519542694092,14.0655450820923,14.0791625976562,14.0928058624268,14.1064758300781,14.1201725006104,14.1338958740234,14.1476459503174,14.1614227294922,14.1752262115479,14.1890563964844,14.2029142379761,14.2167987823486,14.2307109832764,14.2378644943237,14.2438488006592,14.2498378753662,14.2558317184448,14.2618312835693,14.2678356170654,14.2738447189331,14.2798595428467,14.2858791351318,14.2919034957886,14.2979335784912,14.3039684295654,14.3100080490112,14.3160533905029,14.3221035003662,14.3281583786011,14.3342189788818,14.3402843475342,14.3463554382324,14.3524303436279,14.3585119247437,14.3645973205566,14.3706884384155,14.3767852783203,14.3828868865967,14.3889932632446,14.3951053619385,14.4012222290039,14.4073448181152,14.4134721755981,14.419605255127,14.4257431030273,14.4318866729736,14.4380350112915,14.444188117981,14.4503479003906,14.4565114974976,14.4626808166504,14.4688558578491,14.4750356674194,14.4812211990356,14.4874114990234,14.4936075210571,14.4998083114624,14.5060148239136,14.5122270584106,14.5184440612793,14.5246667861938,14.53089427948,14.537127494812,14.5433654785156,14.5496091842651,14.5558586120605,14.5621128082275,14.5683727264404,14.5746383666992,14.5809087753296,14.5871849060059,14.593466758728,14.5997533798218,14.6060457229614,14.612343788147,14.6186466217041,14.6249551773071,14.6312694549561,14.6375894546509,14.6439142227173,14.6502447128296,14.6565809249878,14.6629219055176,14.6692686080933,14.6756210327148,14.6819791793823,14.6883430480957,14.6947116851807,14.7010860443115,14.7074661254883,14.7138519287109,14.7202425003052,14.7266397476196,14.7739009857178,14.829062461853,14.8846378326416,14.9406318664551,14.9970483779907,15.0538921356201,15.1111688613892,15.1688833236694,15.2270402908325,15.28564453125,15.3447017669678,15.4042177200317,15.4641962051392,15.5246438980103,15.5634613037109,15.5718479156494,15.5802440643311,15.5886497497559,15.5970640182495,15.605486869812,15.6139192581177,15.6223583221436,15.6308069229126,15.6392650604248,15.6477317810059,15.6562080383301,15.6646938323975,15.6731882095337,15.6816921234131,15.6902055740356,15.6987276077271,15.7072591781616,15.7158002853394,15.7243499755859,15.7329092025757,15.7414779663086,15.7500562667847,15.8319120407104,15.9931144714355,16.1575698852539,16.3254432678223,16.480827331543,16.63840675354,16.808177947998,16.9814510345459,17.158784866333,17.3407497406006,17.5266151428223,17.7819995880127,18.0105686187744,18.2193698883057,18.4329071044922,0,0,0,0,0,0,0,0,0,0,0,0,0,0,0,0,0,0,0,0,0,0,0,0,0,0,0,0,0,0,0,0,0,0,0,0,0,0,0,0,0,0,0,0,0,0,0,0,0,0,0,0,0,0,0,0,0,0,0,0,0,0,0,0,0,0,0,0,0,0,0,0,0,0,0,0,0,0,0,0,0,0,0,0,0,0,0,0,0,0,0,0,0,0,0,0,0,0,0,0,0,0,0,0,0,0,0,0,0,0,0,0,0,0,0,0,0,0,0,0,0,0,0,0,0,0,0,0,0,0,0,0,0,0,0,0,0,0,0,0,0,0,0,0,0,0,0,0,0,0,0,0,0,0,0,0,0,0,0,0,0,0,0,0,0,0,0,0,0
12.3185634613037,12.3524856567383,12.3865966796875,12.4383125305176,12.5032548904419,12.5688800811768,12.6352014541626,12.7022342681885,12.7699766159058,12.8384199142456,12.907600402832,12.9775314331055,13.0482234954834,13.1196899414062,13.1919441223145,13.8724508285522,13.8856964111328,13.8989667892456,13.9122638702393,13.9255857467651,13.9389333724976,13.9523057937622,13.9657049179077,13.9791297912598,13.992579460144,14.0060558319092,14.0195579528809,14.0330867767334,14.0466403961182,14.0602216720581,14.0738286972046,14.0874614715576,14.1011209487915,14.1148071289062,14.1285200119019,14.1422595977783,14.1560258865356,14.1698188781738,14.1804542541504,14.18639087677,14.1923313140869,14.1982774734497,14.2042284011841,14.21018409729,14.2161455154419,14.2221117019653,14.2280826568604,14.234058380127,14.2400398254395,14.2460250854492,14.2520170211792,14.2580127716064,14.2640142440796,14.27001953125,14.2760314941406,14.2820472717285,14.2880687713623,14.2940950393677,14.3001270294189,14.3061637878418,14.3122053146362,14.3182525634766,14.3243045806885,14.330361366272,14.3364238739014,14.3424911499023,14.3485631942749,14.3546409606934,14.3607234954834,14.3668117523193,14.3729047775269,14.3790035247803,14.385106086731,14.3912153244019,14.3973293304443,14.4034481048584,14.4095726013184,14.4157018661499,14.421835899353,14.4279766082764,14.434121131897,14.4402713775635,14.4464273452759,14.4525880813599,14.4587545394897,14.4649257659912,14.4711017608643,14.4772844314575,14.483470916748,14.4896640777588,14.4958620071411,14.502064704895,14.5082731246948,14.5144863128662,14.5207052230835,14.5269298553467,14.5331602096558,14.5393943786621,14.5456352233887,14.5518808364868,14.5581321716309,14.5643882751465,14.5706510543823,14.5769176483154,14.5831909179688,14.5894680023193,14.5957517623901,14.6020402908325,14.6083354949951,14.614634513855,14.6209402084351,14.6272506713867,14.6335668563843,14.6398887634277,14.6462154388428,14.6525478363037,14.6588859558105,14.665228843689,14.6715784072876,14.6779327392578,14.6842927932739,14.7013139724731,14.755934715271,14.8109617233276,14.8664016723633,14.9222574234009,14.9785356521606,15.0352392196655,15.0923738479614,15.1499443054199,15.2079553604126,15.2664127349854,15.3253211975098,15.3846864700317,15.4445133209229,15.5048065185547,15.5655727386475,15.6164636611938,15.6249074935913,15.6333608627319,15.6418237686157,15.6502952575684,15.6587753295898,15.6672630310059,15.675760269165,15.6842670440674,15.6927833557129,15.7013082504272,15.7098426818848,15.7183866500854,15.726939201355,15.7355012893677,15.7440729141235,15.7526540756226,15.7612447738647,15.7698440551758,15.77845287323,15.7870712280273,15.8476324081421,16.0091781616211,16.1739654541016,16.3421802520752,16.5029697418213,16.6535034179688,16.8235855102539,16.9971752166748,17.1746482849121,17.3569507598877,17.5431652069092,17.7918815612793,18.0309162139893,18.2402229309082,18.4542503356934,0,0,0,0,0,0,0,0,0,0,0,0,0,0,0,0,0,0,0,0,0,0,0,0,0,0,0,0,0,0,0,0,0,0,0,0,0,0,0,0,0,0,0,0,0,0,0,0,0,0,0,0,0,0,0,0,0,0,0,0,0,0,0,0,0,0,0,0,0,0,0,0,0,0,0,0,0,0,0,0,0,0,0,0,0,0,0,0,0,0,0,0,0,0,0,0,0,0,0,0,0,0,0,0,0,0,0,0,0,0,0,0,0,0,0,0,0,0,0,0,0,0,0,0,0,0,0,0,0,0,0,0,0,0,0,0,0,0,0,0,0,0,0,0,0,0,0,0,0,0,0,0,0,0,0,0,0,0,0,0,0,0,0,0,0,0,0,0
12.2779378890991,12.3116369247437,12.3743162155151,12.438591003418,12.5035362243652,12.569164276123,12.6354951858521,12.7025308609009,12.7702789306641,12.8387260437012,12.9079093933105,12.9778432846069,13.0485391616821,13.1200094223022,13.1922664642334,13.8408756256104,13.854061126709,13.8672714233398,13.8805074691772,13.8937692642212,13.907054901123,13.9203672409058,13.9337043762207,13.9470672607422,13.9604558944702,13.9738702774048,13.9873104095459,14.0007772445679,14.0142688751221,14.0277872085571,14.0413312911987,14.0549011230469,14.0684976577759,14.0821208953857,14.0957708358765,14.1094455718994,14.1231489181519,14.12939453125,14.1352882385254,14.1411867141724,14.1470899581909,14.1529979705811,14.1589107513428,14.1648283004761,14.1707515716553,14.1766796112061,14.1826124191284,14.1885499954224,14.1944932937622,14.2004413604736,14.2063932418823,14.2123517990112,14.2183141708374,14.2242822647095,14.2302541732788,14.2362327575684,14.2422151565552,14.2482032775879,14.2541961669922,14.2601938247681,14.2661972045898,14.2722053527832,14.2782182693481,14.2842359542847,14.2902593612671,14.2962875366211,14.302321434021,14.3083600997925,14.3144035339355,14.3204517364502,14.3265056610107,14.3325653076172,14.3386287689209,14.3446979522705,14.350772857666,14.3568525314331,14.3629369735718,14.369026184082,14.3751211166382,14.3812217712402,14.3873271942139,14.3934373855591,14.3995532989502,14.4056739807129,14.4118003845215,14.4179315567017,14.4240684509277,14.4302101135254,14.4363565444946,14.4425086975098,14.4486665725708,14.4548292160034,14.4609975814819,14.467170715332,14.473349571228,14.4795331954956,14.4857225418091,14.4919166564941,14.4981164932251,14.5043210983276,14.5105314254761,14.5167474746704,14.5229682922363,14.5291948318481,14.5354261398315,14.5416631698608,14.547905921936,14.5541534423828,14.5604057312012,14.5666646957397,14.5729284286499,14.579197883606,14.5854721069336,14.5917520523071,14.5980377197266,14.6043291091919,14.6106252670288,14.6169271469116,14.623233795166,14.6295461654663,14.6358642578125,14.6421880722046,14.6485166549683,14.6835231781006,14.7380113601685,14.7929058074951,14.8482093811035,14.9039297103882,14.9600687026978,15.0166320800781,15.0736246109009,15.1310520172119,15.1889190673828,15.2472295761108,15.3059902191162,15.3652048110962,15.424880027771,15.4850196838379,15.5456304550171,15.6067180633545,15.6682872772217,15.6783294677734,15.6868410110474,15.6953611373901,15.7038898468018,15.7124271392822,15.7209730148315,15.7295293807983,15.738094329834,15.7466688156128,15.7552528381348,15.7638454437256,15.7724485397339,15.781060218811,15.7896814346313,15.7983121871948,15.8069524765015,15.8156023025513,15.8242607116699,15.8633832931519,16.0252666473389,16.190393447876,16.3589515686035,16.5251731872559,16.6686267852783,16.8390197753906,17.0129299163818,17.1905422210693,17.3731842041016,17.5597496032715,17.8017749786377,18.0513095855713,18.2610950469971,18.4756450653076,0,0,0,0,0,0,0,0,0,0,0,0,0,0,0,0,0,0,0,0,0,0,0,0,0,0,0,0,0,0,0,0,0,0,0,0,0,0,0,0,0,0,0,0,0,0,0,0,0,0,0,0,0,0,0,0,0,0,0,0,0,0,0,0,0,0,0,0,0,0,0,0,0,0,0,0,0,0,0,0,0,0,0,0,0,0,0,0,0,0,0,0,0,0,0,0,0,0,0,0,0,0,0,0,0,0,0,0,0,0,0,0,0,0,0,0,0,0,0,0,0,0,0,0,0,0,0,0,0,0,0,0,0,0,0,0,0,0,0,0,0,0,0,0,0,0,0,0,0,0,0,0,0,0,0,0,0,0,0,0,0,0,0,0,0,0,0
12.2480087280273,12.3109750747681,12.3745918273926,12.438868522644,12.5038175582886,12.5694522857666,12.6357879638672,12.7028284072876,12.7705812454224,12.8390312194824,12.9082183837891,12.9781560897827,13.0488548278809,13.1203289031982,13.1925897598267,13.8094444274902,13.8225698471069,13.8357210159302,13.8488960266113,13.862096786499,13.8753232955933,13.8885736465454,13.9018507003784,13.9151525497437,13.9284801483154,13.9418325424194,13.9552116394043,13.9686155319214,13.9820461273193,13.9955015182495,14.0089836120605,14.0224914550781,14.0360260009766,14.0495853424072,14.0631723403931,14.0728549957275,14.0787010192871,14.0845518112183,14.0904083251953,14.0962696075439,14.1021347045898,14.1080055236816,14.113881111145,14.11976146698,14.1256465911865,14.131537437439,14.1374320983887,14.1433324813843,14.1492376327515,14.1551465988159,14.1610622406006,14.1669816970825,14.1729068756104,14.1788358688354,14.1847705841064,14.190710067749,14.1966552734375,14.2026052474976,14.2085590362549,14.2145185470581,14.2204837799072,14.2264528274536,14.2324275970459,14.2384071350098,14.2443914413452,14.2503814697266,14.2563762664795,14.262375831604,14.2683811187744,14.2743911743164,14.28040599823,14.2864255905151,14.2924509048462,14.2984809875488,14.304515838623,14.3105564117432,14.3166017532349,14.3226528167725,14.3287086486816,14.3347692489624,14.3408346176147,14.3469066619873,14.3529825210571,14.3590641021729,14.3651504516602,14.3712425231934,14.3773393630981,14.3834409713745,14.3895483016968,14.3956604003906,14.4017782211304,14.4079008102417,14.4140291213989,14.4201622009277,14.4263010025024,14.4324445724487,14.4385929107666,14.4447469711304,14.45090675354,14.4570713043213,14.4632415771484,14.4694166183472,14.4755973815918,14.481782913208,14.4879741668701,14.4941701889038,14.5003719329834,14.5065784454346,14.5127906799316,14.5190086364746,14.5252313613892,14.5314598083496,14.5376930236816,14.5439319610596,14.5501766204834,14.5564260482788,14.5626811981201,14.5689420700073,14.5752077102661,14.5814790725708,14.5877552032471,14.5940370559692,14.6003246307373,14.6066179275513,14.6129159927368,14.6657762527466,14.7201328277588,14.7748928070068,14.8300628662109,14.885645866394,14.9416465759277,14.9980707168579,15.0549230575562,15.1122074127197,15.1699295043945,15.2280941009521,15.2867069244385,15.3457727432251,15.4052963256836,15.4652833938599,15.5257396697998,15.5866708755493,15.64808177948,15.7099781036377,15.7321176528931,15.7406873703003,15.7492656707764,15.757851600647,15.7664480209351,15.775053024292,15.7836675643921,15.7922916412354,15.8009252548218,15.8095684051514,15.8182210922241,15.82688331604,15.8355550765991,15.8442354202271,15.8529262542725,15.861626625061,15.8791656494141,16.0413722991943,16.2068538665771,16.3757572174072,16.547435760498,16.6844348907471,16.8544807434082,17.028715133667,17.2065868377686,17.3894462585449,17.5763626098633,17.8116779327393,18.0717506408691,18.2820129394531,18.4970893859863,0,0,0,0,0,0,0,0,0,0,0,0,0,0,0,0,0,0,0,0,0,0,0,0,0,0,0,0,0,0,0,0,0,0,0,0,0,0,0,0,0,0,0,0,0,0,0,0,0,0,0,0,0,0,0,0,0,0,0,0,0,0,0,0,0,0,0,0,0,0,0,0,0,0,0,0,0,0,0,0,0,0,0,0,0,0,0,0,0,0,0,0,0,0,0,0,0,0,0,0,0,0,0,0,0,0,0,0,0,0,0,0,0,0,0,0,0,0,0,0,0,0,0,0,0,0,0,0,0,0,0,0,0,0,0,0,0,0,0,0,0,0,0,0,0,0,0,0,0,0,0,0,0,0,0,0,0,0,0,0,0,0,0,0,0,0
12.2482786178589,12.3112478256226,12.37486743927,12.4391469955444,12.5040988922119,12.5697431564331,12.6360816955566,12.703125,12.7708826065063,12.839337348938,12.9085273742676,12.9784679412842,13.0491704940796,13.1206474304199,13.1929121017456,13.7781553268433,13.7912216186523,13.8043127059937,13.8174285888672,13.8305692672729,13.8437347412109,13.8569259643555,13.8701419830322,13.8833827972412,13.8966493606567,13.9099416732788,13.9232597351074,13.9366016387939,13.9499702453613,13.9633646011353,13.9767847061157,13.9902305603027,14.0037021636963,14.0167655944824,14.0225658416748,14.0283699035645,14.0341796875,14.0399932861328,14.0458126068115,14.0516366958618,14.0574655532837,14.0632982254028,14.0691366195679,14.0749797821045,14.0808277130127,14.0866813659668,14.0925388336182,14.0984010696411,14.10426902771,14.1101417541504,14.1160182952881,14.1219005584717,14.1277875900269,14.1336803436279,14.1395769119263,14.1454782485962,14.151385307312,14.1572971343994,14.1632137298584,14.169135093689,14.1750621795654,14.1809930801392,14.1869297027588,14.19287109375,14.1988172531128,14.2047691345215,14.2107257843018,14.2166872024536,14.2226533889771,14.2286243438721,14.234601020813,14.2405824661255,14.2465686798096,14.2525606155396,14.2585573196411,14.2645587921143,14.2705659866333,14.2765769958496,14.2825937271118,14.2886161804199,14.2946424484253,14.3006744384766,14.3067121505737,14.3127546310425,14.3188018798828,14.3248538970947,14.3309116363525,14.3369741439819,14.3430414199829,14.3491153717041,14.3551931381226,14.3612766265869,14.3673648834229,14.3734579086304,14.3795566558838,14.3856611251831,14.391770362854,14.3978843688965,14.4040040969849,14.4101285934448,14.4162588119507,14.4223937988281,14.4285335540771,14.4346790313721,14.4408302307129,14.4469861984253,14.4531478881836,14.4593143463135,14.4654865264893,14.4716634750366,14.4778451919556,14.4840335845947,14.4902257919312,14.4964246749878,14.502628326416,14.5088367462158,14.5150508880615,14.5212707519531,14.5274953842163,14.5337257385254,14.5399608612061,14.5462017059326,14.5524482727051,14.5586996078491,14.5649566650391,14.5712194442749,14.5942459106445,14.6480722427368,14.702296257019,14.7569246292114,14.8119592666626,14.8674068450928,14.9232702255249,14.9795551300049,15.0362672805786,15.093409538269,15.1509876251221,15.2090072631836,15.2674722671509,15.3263893127441,15.3857622146606,15.4455976486206,15.5058994293213,15.5666742324829,15.6279277801514,15.6896648406982,15.7518911361694,15.7862768173218,15.794903755188,15.8035402297974,15.8121862411499,15.8208417892456,15.8295059204102,15.8381805419922,15.8468647003174,15.8555574417114,15.8642606735229,15.8729734420776,15.8816957473755,15.8904266357422,15.8991680145264,15.9079189300537,16.0575103759766,16.2233486175537,16.392599105835,16.5654163360596,16.7071285247803,16.8699722290039,17.044527053833,17.2227325439453,17.405740737915,17.5930099487305,17.8215942382812,18.0922355651855,18.302978515625,18.5185832977295,0,0,0,0,0,0,0,0,0,0,0,0,0,0,0,0,0,0,0,0,0,0,0,0,0,0,0,0,0,0,0,0,0,0,0,0,0,0,0,0,0,0,0,0,0,0,0,0,0,0,0,0,0,0,0,0,0,0,0,0,0,0,0,0,0,0,0,0,0,0,0,0,0,0,0,0,0,0,0,0,0,0,0,0,0,0,0,0,0,0,0,0,0,0,0,0,0,0,0,0,0,0,0,0,0,0,0,0,0,0,0,0,0,0,0,0,0,0,0,0,0,0,0,0,0,0,0,0,0,0,0,0,0,0,0,0,0,0,0,0,0,0,0,0,0,0,0,0,0,0,0,0,0,0,0,0,0,0,0,0,0,0,0,0,0
12.2485485076904,12.3115205764771,12.3751430511475,12.4394254684448,12.5043849945068,12.5700340270996,12.6363754272461,12.7034215927124,12.771183013916,12.8396425247192,12.9088373184204,12.97878074646,13.0494861602783,13.1209669113159,13.1932353973389,13.7470073699951,13.7600145339966,13.7730464935303,13.7861032485962,13.7991847991943,13.8122901916504,13.825421333313,13.8385772705078,13.8517589569092,13.8649644851685,13.8781957626343,13.8914527893066,13.9047346115112,13.9180421829224,13.93137550354,13.9447336196899,13.9581184387207,13.9668760299683,13.9726343154907,13.9783973693848,13.9841651916504,13.9899387359619,13.9957160949707,14.0014982223511,14.007285118103,14.0130777359009,14.018874168396,14.0246753692627,14.0304822921753,14.0362930297852,14.0421085357666,14.0479297637939,14.0537548065186,14.0595855712891,14.0654211044312,14.0712604522705,14.0771055221558,14.0829553604126,14.088809967041,14.094669342041,14.1005344390869,14.1064033508301,14.1122779846191,14.1181564331055,14.1240406036377,14.1299295425415,14.1358232498169,14.1417217254639,14.1476259231567,14.1535339355469,14.1594476699829,14.1653661727905,14.1712894439697,14.1772174835205,14.1831512451172,14.1890897750854,14.1950330734253,14.2009811401367,14.2069339752197,14.2128925323486,14.2188558578491,14.2248239517212,14.2307968139648,14.2367753982544,14.2427587509155,14.2487468719482,14.2547407150269,14.2607383728027,14.2667417526245,14.2727508544922,14.2787637710571,14.2847833633423,14.2908067703247,14.2968349456787,14.3028688430786,14.3089084625244,14.3149528503418,14.3210010528564,14.3270559310913,14.3331155776978,14.3391799926758,14.3452491760254,14.3513240814209,14.357403755188,14.363489151001,14.3695793151855,14.375675201416,14.3817758560181,14.3878812789917,14.3939924240112,14.4001083374023,14.4062299728394,14.4123563766479,14.4184885025024,14.4246253967285,14.4307680130005,14.436915397644,14.4430675506592,14.4492263793945,14.4553890228271,14.4615573883057,14.4677314758301,14.4739103317261,14.480094909668,14.4862842559814,14.4924793243408,14.4986791610718,14.5048847198486,14.5110960006714,14.5173120498657,14.523533821106,14.5297603607178,14.5359926223755,14.5767135620117,14.630410194397,14.6845035552979,14.7389993667603,14.7939004898071,14.8492116928101,14.9049386978149,14.961085319519,15.0176572799683,15.0746583938599,15.1320934295654,15.1899671554565,15.2482862472534,15.3070545196533,15.3662776947021,15.4259614944458,15.4861097335815,15.5467290878296,15.6078252792358,15.6694040298462,15.7314691543579,15.7940292358398,15.8408069610596,15.8494939804077,15.858190536499,15.8668966293335,15.8756113052368,15.8843364715576,15.8930711746216,15.9018154144287,15.910569190979,15.9193325042725,15.9281053543091,15.9368886947632,15.9456806182861,16.0736827850342,16.2398777008057,16.4094734191895,16.582649230957,16.7298851013184,16.8854923248291,17.0603694915771,17.2389087677002,17.4220657348633,17.6096858978271,17.8315200805664,18.1127681732178,18.3239936828613,18.5401287078857,0,0,0,0,0,0,0,0,0,0,0,0,0,0,0,0,0,0,0,0,0,0,0,0,0,0,0,0,0,0,0,0,0,0,0,0,0,0,0,0,0,0,0,0,0,0,0,0,0,0,0,0,0,0,0,0,0,0,0,0,0,0,0,0,0,0,0,0,0,0,0,0,0,0,0,0,0,0,0,0,0,0,0,0,0,0,0,0,0,0,0,0,0,0,0,0,0,0,0,0,0,0,0,0,0,0,0,0,0,0,0,0,0,0,0,0,0,0,0,0,0,0,0,0,0,0,0,0,0,0,0,0,0,0,0,0,0,0,0,0,0,0,0,0,0,0,0,0,0,0,0,0,0,0,0,0,0,0,0,0,0,0,0,0
12.248818397522,12.3117933273315,12.3754186630249,12.4397039413452,12.5046720504761,12.5703239440918,12.6366691589355,12.7037181854248,12.7714824676514,12.8399486541748,12.9091463088989,12.9790935516357,13.0498027801514,13.1212863922119,13.1935577392578,13.7160005569458,13.728949546814,13.74192237854,13.754919052124,13.7679414749146,13.7809886932373,13.794059753418,13.8071565628052,13.8202772140503,13.833423614502,13.8465948104858,13.8597917556763,13.8730134963989,13.8862600326538,13.8995313644409,13.9116268157959,13.9173402786255,13.9230575561523,13.9287796020508,13.9345073699951,13.9402389526367,13.9459753036499,13.9517164230347,13.9574632644653,13.9632129669189,13.9689693450928,13.9747295379639,13.9804944992065,13.9862642288208,13.9920387268066,13.9978179931641,14.0036020278931,14.0093908309937,14.0151844024658,14.0209827423096,14.0267858505249,14.0325937271118,14.0384073257446,14.0442247390747,14.0500469207764,14.0558748245239,14.0617065429688,14.0675439834595,14.0733852386475,14.0792322158813,14.0850839614868,14.0909404754639,14.0968017578125,14.1026678085327,14.1085386276245,14.1144151687622,14.1202955245972,14.126181602478,14.1320714950562,14.1379671096802,14.1438674926758,14.1497735977173,14.1556835174561,14.1615991592407,14.167519569397,14.1734447479248,14.1793746948242,14.1853094100952,14.1912498474121,14.1971950531006,14.2031450271606,14.2090997695923,14.2150602340698,14.2210254669189,14.2269954681396,14.2329702377319,14.2389507293701,14.2449350357056,14.2509250640869,14.2569208145142,14.262921333313,14.2689266204834,14.2749366760254,14.280951499939,14.2869720458984,14.2929983139038,14.2990283966064,14.305064201355,14.3111047744751,14.3171510696411,14.3232021331787,14.3292579650879,14.335319519043,14.3413858413696,14.3474578857422,14.3535346984863,14.3596162796021,14.3657035827637,14.3717956542969,14.3778924942017,14.3839950561523,14.3901023864746,14.3962154388428,14.4023342132568,14.4084568023682,14.4145851135254,14.4207191467285,14.4268579483032,14.4330024719238,14.439151763916,14.4453058242798,14.4514665603638,14.457631111145,14.4638013839722,14.4699773788452,14.4761581420898,14.4823446273804,14.4885358810425,14.4947328567505,14.5060472488403,14.5592231750488,14.6127910614014,14.6667537689209,14.7211179733276,14.7758855819702,14.8310623168945,14.8866529464722,14.9426612854004,14.9990930557251,15.0559530258179,15.1132459640503,15.1709756851196,15.2291488647461,15.287769317627,15.3468427658081,15.4063749313354,15.4663705825806,15.5268354415894,15.5877752304077,15.6491947174072,15.7111005783081,15.7734975814819,15.8363924026489,15.895715713501,15.9044628143311,15.9132194519043,15.921986579895,15.9307622909546,15.9395484924316,15.9483432769775,15.9571485519409,15.9659633636475,15.9747877120972,15.9836225509644,16.0898857116699,16.2564392089844,16.426383972168,16.5999183654785,16.7527027130127,16.9010410308838,17.0762424468994,17.2551136016846,17.438419342041,17.6263961791992,17.8414573669434,18.1333484649658,18.3450565338135,18.5617218017578,0,0,0,0,0,0,0,0,0,0,0,0,0,0,0,0,0,0,0,0,0,0,0,0,0,0,0,0,0,0,0,0,0,0,0,0,0,0,0,0,0,0,0,0,0,0,0,0,0,0,0,0,0,0,0,0,0,0,0,0,0,0,0,0,0,0,0,0,0,0,0,0,0,0,0,0,0,0,0,0,0,0,0,0,0,0,0,0,0,0,0,0,0,0,0,0,0,0,0,0,0,0,0,0,0,0,0,0,0,0,0,0,0,0,0,0,0,0,0,0,0,0,0,0,0,0,0,0,0,0,0,0,0,0,0,0,0,0,0,0,0,0,0,0,0,0,0,0,0,0,0,0,0,0,0,0,0,0,0,0,0,0,0
12.2490892410278,12.312066078186,12.3756942749023,12.4399871826172,12.5049600601196,12.5706148147583,12.636962890625,12.7040147781372,12.771782875061,12.8402547836304,12.9094552993774,12.9794054031372,13.0501184463501,13.1216058731079,13.1938810348511,13.6851329803467,13.6980237960815,13.7109384536743,13.723876953125,13.7368402481079,13.749828338623,13.7628402709961,13.7758779525757,13.7889394760132,13.8020257949829,13.8151378631592,13.8282747268677,13.8414354324341,13.854621887207,13.8624811172485,13.8681535720825,13.8738307952881,13.8795127868652,13.885199546814,13.8908910751343,13.8965873718262,13.9022874832153,13.9079933166504,13.9137029647827,13.9194183349609,13.9251375198364,13.9308614730835,13.9365901947021,13.9423246383667,13.9480619430542,13.9538049697876,13.9595527648926,13.9653053283691,13.9710626602173,13.976824760437,13.9825916290283,13.9883632659912,13.9941396713257,13.9999198913574,14.0057058334351,14.0114965438843,14.0172920227051,14.0230922698975,14.0288972854614,14.034707069397,14.0405216217041,14.0463409423828,14.0521650314331,14.0579948425293,14.0638284683228,14.0696668624878,14.0755109786987,14.0813589096069,14.087212562561,14.0930709838867,14.098934173584,14.1048021316528,14.1106748580933,14.1165523529053,14.1224346160889,14.1283226013184,14.1342153549194,14.1401119232178,14.146014213562,14.1519222259521,14.1578340530396,14.1637506484985,14.1696729660034,14.1756000518799,14.1815319061279,14.1874685287476,14.1934108734131,14.1993579864502,14.2053098678589,14.2112665176392,14.217227935791,14.2231950759888,14.2291669845581,14.235143661499,14.2411260604858,14.2471132278442,14.2531051635742,14.2591018676758,14.2651042938232,14.271110534668,14.2771234512329,14.2831401824951,14.2891626358032,14.2951898574829,14.3012228012085,14.3072605133057,14.3133029937744,14.3193511962891,14.325403213501,14.3314619064331,14.3375244140625,14.3435926437378,14.349666595459,14.3557453155518,14.3618288040161,14.3679180145264,14.3740119934082,14.3801107406616,14.3862152099609,14.3923244476318,14.3984394073486,14.404559135437,14.4106845855713,14.4168148040771,14.4229507446289,14.4290914535522,14.4352378845215,14.4413890838623,14.4475450515747,14.4537076950073,14.4598741531372,14.4887256622314,14.5417747497559,14.5952138900757,14.6490478515625,14.7032794952393,14.7579145431519,14.8129568099976,14.8684110641479,14.9242830276489,14.9805755615234,15.0372943878174,15.0944452285767,15.1520309448242,15.2100591659546,15.2685317993164,15.3274574279785,15.3868389129639,15.4466819763184,15.5069923400879,15.5677757263184,15.6290378570557,15.6907835006714,15.7530193328857,15.8157510757446,15.8789844512939,15.9427242279053,15.9598150253296,15.9686326980591,15.9774599075317,15.9862976074219,15.9951448440552,16.0040016174316,16.0128688812256,16.0217437744141,16.1061229705811,16.2730236053467,16.4433288574219,16.617223739624,16.7755832672119,16.9166164398193,17.0921440124512,17.2713508605957,17.4548053741455,17.6431369781494,17.8514060974121,18.1539745330811,18.3661670684814,18.583366394043,0,0,0,0,0,0,0,0,0,0,0,0,0,0,0,0,0,0,0,0,0,0,0,0,0,0,0,0,0,0,0,0,0,0,0,0,0,0,0,0,0,0,0,0,0,0,0,0,0,0,0,0,0,0,0,0,0,0,0,0,0,0,0,0,0,0,0,0,0,0,0,0,0,0,0,0,0,0,0,0,0,0,0,0,0,0,0,0,0,0,0,0,0,0,0,0,0,0,0,0,0,0,0,0,0,0,0,0,0,0,0,0,0,0,0,0,0,0,0,0,0,0,0,0,0,0,0,0,0,0,0,0,0,0,0,0,0,0,0,0,0,0,0,0,0,0,0,0,0,0,0,0,0,0,0,0,0,0,0,0,0,0
12.2493591308594,12.3123388290405,12.3759689331055,12.4402713775635,12.5052471160889,12.5709056854248,12.6372566223145,12.7043123245239,12.7720823287964,12.8405599594116,12.909764289856,12.979718208313,13.0504341125488,13.1219253540039,13.19420337677,13.6544046401978,13.667236328125,13.6800928115845,13.6929740905762,13.7058792114258,13.7188081741333,13.731761932373,13.744740486145,13.7577438354492,13.7707710266113,13.7838230133057,13.7968997955322,13.8080530166626,13.813681602478,13.8193140029907,13.824951171875,13.8305940628052,13.8362398147583,13.8418912887573,13.8475475311279,13.8532075881958,13.8588733673096,13.8645429611206,13.8702173233032,13.8758964538574,13.8815803527832,13.8872680664062,13.8929615020752,13.8986597061157,13.9043617248535,13.9100685119629,13.9157800674438,13.9214973449707,13.9272184371948,13.9329442977905,13.9386749267578,13.9444103240967,13.9501495361328,13.9558944702148,13.9616441726685,13.9673986434937,13.9731578826904,13.9789209365845,13.9846897125244,13.9904623031616,13.9962406158447,14.0020236968994,14.0078115463257,14.0136032104492,14.0194005966187,14.0252027511597,14.0310087203979,14.0368204116821,14.0426368713379,14.0484580993652,14.0542840957642,14.0601148605347,14.0659503936768,14.0717916488647,14.07763671875,14.0834865570068,14.0893421173096,14.0952014923096,14.1010665893555,14.1069364547729,14.112811088562,14.1186904907227,14.1245746612549,14.130464553833,14.1363582611084,14.1422576904297,14.1481618881226,14.154070854187,14.159984588623,14.165904045105,14.1718273162842,14.1777563095093,14.183690071106,14.1896286010742,14.1955728530884,14.2015209197998,14.2074747085571,14.213433265686,14.2193975448608,14.2253656387329,14.2313394546509,14.2373180389404,14.2433023452759,14.2492904663086,14.2552843093872,14.2612838745117,14.2672872543335,14.2732963562012,14.2793102264404,14.2853298187256,14.291353225708,14.2973833084106,14.3034172058105,14.3094568252563,14.3155012130737,14.321551322937,14.3276052474976,14.3336658477783,14.3397302627563,14.3458003997803,14.3518762588501,14.3579568862915,14.3640422821045,14.3701324462891,14.3762283325195,14.3823299407959,14.3884363174438,14.3945474624634,14.4006643295288,14.4067859649658,14.4129133224487,14.4190454483032,14.4251832962036,14.4714460372925,14.5243682861328,14.5776796340942,14.6313829421997,14.6854839324951,14.7399864196777,14.7948951721191,14.8502149581909,14.905948638916,14.962103843689,15.0186824798584,15.0756912231445,15.1331338882446,15.1910161972046,15.2493438720703,15.3081197738647,15.3673515319824,15.4270429611206,15.4872007369995,15.5478286743164,15.6089334487915,15.6705198287964,15.7325944900513,15.7951631546021,15.8582315444946,15.9218053817749,15.9858903884888,16.015552520752,16.0244331359863,16.0333213806152,16.0422210693359,16.0511302947998,16.0600490570068,16.1223926544189,16.2896327972412,16.4603080749512,16.6345653533936,16.7985248565674,16.9397315979004,17.1080760955811,17.287618637085,17.4712219238281,17.6599102020264,17.8613662719727,18.1731338500977,18.3873271942139,18.6050415039062,0,0,0,0,0,0,0,0,0,0,0,0,0,0,0,0,0,0,0,0,0,0,0,0,0,0,0,0,0,0,0,0,0,0,0,0,0,0,0,0,0,0,0,0,0,0,0,0,0,0,0,0,0,0,0,0,0,0,0,0,0,0,0,0,0,0,0,0,0,0,0,0,0,0,0,0,0,0,0,0,0,0,0,0,0,0,0,0,0,0,0,0,0,0,0,0,0,0,0,0,0,0,0,0,0,0,0,0,0,0,0,0,0,0,0,0,0,0,0,0,0,0,0,0,0,0,0,0,0,0,0,0,0,0,0,0,0,0,0,0,0,0,0,0,0,0,0,0,0,0,0,0,0,0,0,0,0,0,0,0,0
12.2496290206909,12.312611579895,12.3762493133545,12.4405565261841,12.5055351257324,12.5711965560913,12.6375503540039,12.7046089172363,12.7723827362061,12.8408660888672,12.9100732803345,12.9800300598145,13.0507497787476,13.1222448348999,13.1945266723633,13.6238126754761,13.6365880966187,13.6493873596191,13.6622095108032,13.6750574111938,13.6879281997681,13.7008237838745,13.7137441635132,13.7266874313354,13.7396564483643,13.752649307251,13.7596349716187,13.7652235031128,13.7708177566528,13.7764148712158,13.7820177078247,13.7876253128052,13.7932367324829,13.7988529205322,13.8044729232788,13.8100986480713,13.8157291412354,13.8213634490967,13.8270025253296,13.8326463699341,13.8382940292358,13.8439474105835,13.8496046066284,13.8552675247192,13.8609342575073,13.866605758667,13.8722820281982,13.8779621124268,13.8836479187012,13.8893375396729,13.8950328826904,13.9007320404053,13.9064359664917,13.9121446609497,13.9178581237793,13.9235763549805,13.9292993545532,13.9350271224976,13.9407596588135,13.946496963501,13.9522380828857,13.9579849243164,13.9637355804443,13.9694919586182,13.9752521514893,13.9810180664062,13.9867877960205,13.9925632476807,13.9983425140381,14.0041275024414,14.009916305542,14.0157108306885,14.0215091705322,14.0273132324219,14.0331220626831,14.0389347076416,14.044753074646,14.050576210022,14.0564031600952,14.0622358322144,14.0680742263794,14.0739164352417,14.0797634124756,14.0856151580811,14.0914716720581,14.0973339080811,14.1032009124756,14.1090717315674,14.1149482727051,14.1208295822144,14.1267156600952,14.132607460022,14.138503074646,14.1444044113159,14.1503095626831,14.1562204360962,14.1621360778809,14.1680574417114,14.1739826202393,14.179913520813,14.1858491897583,14.1917896270752,14.1977348327637,14.2036848068237,14.2096405029297,14.2156009674072,14.2215671539307,14.2275371551514,14.233512878418,14.2394933700562,14.2454786300659,14.2514696121216,14.2574653625488,14.2634658813477,14.2694711685181,14.2754821777344,14.2814979553223,14.2875194549561,14.2935457229614,14.2995767593384,14.3056125640869,14.3116540908813,14.3177003860474,14.323751449585,14.3298082351685,14.3358707427979,14.3419370651245,14.3480091094971,14.3540859222412,14.3601684570312,14.3662557601929,14.3723487854004,14.3784465789795,14.3845491409302,14.4017934799194,14.4542074203491,14.5070037841797,14.5601873397827,14.6137619018555,14.6677322387695,14.7221031188965,14.7768783569336,14.8320627212524,14.8876600265503,14.9436769485474,15.0001163482666,15.0569839477539,15.1142845153809,15.1720218658447,15.2302026748657,15.2888317108154,15.3479137420654,15.4074544906616,15.4674587249756,15.5279321670532,15.5888795852661,15.6503086090088,15.7122230529785,15.7746286392212,15.8375329971313,15.9009408950806,15.9648580551147,16.0329189300537,16.0716819763184,16.080623626709,16.0895767211914,16.0985374450684,16.1386947631836,16.3062744140625,16.4773235321045,16.6519432067871,16.8215312957764,16.9631271362305,17.1240367889404,17.3039169311523,17.4876689910889,17.6767139434814,17.8713359832764,18.1834545135498,18.4085350036621,18.6267566680908,0,0,0,0,0,0,0,0,0,0,0,0,0,0,0,0,0,0,0,0,0,0,0,0,0,0,0,0,0,0,0,0,0,0,0,0,0,0,0,0,0,0,0,0,0,0,0,0,0,0,0,0,0,0,0,0,0,0,0,0,0,0,0,0,0,0,0,0,0,0,0,0,0,0,0,0,0,0,0,0,0,0,0,0,0,0,0,0,0,0,0,0,0,0,0,0,0,0,0,0,0,0,0,0,0,0,0,0,0,0,0,0,0,0,0,0,0,0,0,0,0,0,0,0,0,0,0,0,0,0,0,0,0,0,0,0,0,0,0,0,0,0,0,0,0,0,0,0,0,0,0,0,0,0,0,0,0,0,0,0
12.2498989105225,12.3128843307495,12.3765316009521,12.4408407211304,12.505823135376,12.5714864730835,12.6378440856934,12.7049055099487,12.7726821899414,12.8411722183228,12.910382270813,12.9803428649902,13.0510663986206,13.1225643157959,13.1948499679565,13.5933589935303,13.6060762405396,13.6188182830811,13.6315841674805,13.6443729400635,13.6571865081787,13.6700248718262,13.6828861236572,13.6957721710205,13.7060098648071,13.711555480957,13.7171058654785,13.7226591110229,13.7282180786133,13.7337818145752,13.7393503189087,13.7449226379395,13.7504987716675,13.7560806274414,13.7616662979126,13.7672567367554,13.7728519439697,13.7784519195557,13.7840557098389,13.7896642684937,13.7952785491943,13.800895690918,13.8065185546875,13.8121452331543,13.8177766799927,13.8234128952026,13.8290538787842,13.8346996307373,13.8403491973877,13.846004486084,13.8516635894775,13.8573274612427,13.8629951477051,13.8686685562134,13.8743467330933,13.8800287246704,13.8857164382935,13.8914079666138,13.8971042633057,13.9028053283691,13.9085111618042,13.9142217636108,13.9199371337891,13.9256572723389,13.9313812255859,13.9371109008789,13.9428443908691,13.9485836029053,13.9543266296387,13.960075378418,13.9658279418945,13.971586227417,13.9773483276367,13.983115196228,13.9888868331909,13.9946641921997,14.0004453659058,14.0062313079834,14.0120229721069,14.0178184509277,14.0236186981201,14.0294246673584,14.0352344512939,14.0410499572754,14.0468692779541,14.0526943206787,14.0585241317749,14.0643577575684,14.0701971054077,14.0760412216187,14.0818901062012,14.0877437591553,14.0936031341553,14.0994663238525,14.1053342819214,14.1112079620361,14.1170864105225,14.1229696273804,14.1288576126099,14.1347503662109,14.1406478881836,14.1465511322021,14.152458190918,14.1583709716797,14.164288520813,14.1702108383179,14.1761388778687,14.1820707321167,14.1880083084106,14.1939506530762,14.1998977661133,14.2058506011963,14.2118072509766,14.2177696228027,14.2237367630005,14.2297096252441,14.2356872558594,14.2416687011719,14.2476568222046,14.2536487579346,14.2596464157104,14.2656488418579,14.2716569900513,14.2776689529419,14.2836866378784,14.2897100448608,14.2957372665405,14.3017702102661,14.3078088760376,14.3138513565063,14.319899559021,14.3259534835815,14.3320121765137,14.3380756378174,14.3441438674927,14.3502178192139,14.3847208023071,14.4370098114014,14.4896802902222,14.5427360534668,14.5961828231812,14.6500234603882,14.7042617797852,14.7589044570923,14.8139543533325,14.8694162368774,14.9252958297729,14.981595993042,15.0383224487305,15.0954809188843,15.1530752182007,15.2111101150513,15.2695922851562,15.3285255432129,15.3879146575928,15.4477663040161,15.5080862045288,15.5688781738281,15.6301488876343,15.6919031143188,15.7541475296021,15.8168878555298,15.8801307678223,15.952486038208,16.1102256774902,16.1192111968994,16.1282062530518,16.1372108459473,16.155029296875,16.3229522705078,16.4943752288818,16.6693572998047,16.8446006774902,16.9865856170654,17.1400260925293,17.3202457427979,17.5042934417725,17.6935501098633,17.8870983123779,18.1937885284424,18.4297924041748,18.6485214233398,18.8723831176758,0,0,0,0,0,0,0,0,0,0,0,0,0,0,0,0,0,0,0,0,0,0,0,0,0,0,0,0,0,0,0,0,0,0,0,0,0,0,0,0,0,0,0,0,0,0,0,0,0,0,0,0,0,0,0,0,0,0,0,0,0,0,0,0,0,0,0,0,0,0,0,0,0,0,0,0,0,0,0,0,0,0,0,0,0,0,0,0,0,0,0,0,0,0,0,0,0,0,0,0,0,0,0,0,0,0,0,0,0,0,0,0,0,0,0,0,0,0,0,0,0,0,0,0,0,0,0,0,0,0,0,0,0,0,0,0,0,0,0,0,0,0,0,0,0,0,0,0,0,0,0,0,0,0,0,0,0,0
12.250168800354,12.3131618499756,12.3768129348755,12.441125869751,12.5061101913452,12.57177734375,12.6381378173828,12.7052021026611,12.7729825973511,12.841477394104,12.9106912612915,12.980655670166,13.0513820648193,13.1228837966919,13.1951723098755,13.5630397796631,13.575701713562,13.5883855819702,13.601095199585,13.613826751709,13.6265830993652,13.6393632888794,13.6521673202515,13.6583042144775,13.6638107299805,13.669322013855,13.6748380661011,13.6803579330444,13.6858825683594,13.6914119720459,13.6969451904297,13.7024831771851,13.708025932312,13.7135725021362,13.7191247940063,13.7246799468994,13.7302408218384,13.7358064651489,13.7413749694824,13.7469491958618,13.7525281906128,13.758111000061,13.7636985778809,13.7692909240723,13.7748870849609,13.7804889678955,13.7860946655273,13.7917051315308,13.7973203659058,13.802939414978,13.8085641860962,13.8141918182373,13.8198261260986,13.8254632949829,13.8311061859131,13.8367528915405,13.8424043655396,13.8480615615845,13.8537216186523,13.8593873977661,13.8650579452515,13.8707323074341,13.8764123916626,13.8820962905884,13.8877849578857,13.8934783935547,13.8991765975952,13.9048795700073,13.910587310791,13.916298866272,13.9220161437988,13.9277381896973,13.933464050293,13.9391946792603,13.9449310302734,13.9506711959839,13.9564161300659,13.9621658325195,13.967921257019,13.9736804962158,13.9794445037842,13.9852132797241,13.9909868240356,13.9967651367188,14.0025482177734,14.0083360671997,14.0141296386719,14.0199270248413,14.0257291793823,14.0315361022949,14.0373487472534,14.0431652069092,14.0489873886108,14.0548133850098,14.0606441497803,14.0664806365967,14.0723218917847,14.0781679153442,14.0840187072754,14.0898733139038,14.0957336425781,14.1015996932983,14.1074695587158,14.1133441925049,14.1192245483398,14.1251096725464,14.1309995651245,14.1368942260742,14.1427936553955,14.1486978530884,14.1546077728271,14.1605224609375,14.1664409637451,14.1723651885986,14.178295135498,14.1842288970947,14.1901683807373,14.1961126327515,14.2020616531372,14.2080154418945,14.2139749526978,14.2199392318726,14.2259082794189,14.2318820953369,14.2378616333008,14.2438459396362,14.2498350143433,14.2558288574219,14.2618284225464,14.2678327560425,14.2738418579102,14.2798566818237,14.2858762741089,14.2919006347656,14.2979307174683,14.3039655685425,14.3100051879883,14.31605052948,14.3676881790161,14.4198532104492,14.4723978042603,14.5253276824951,14.5786457061768,14.6323566436768,14.6864643096924,14.7409744262695,14.7958908081055,14.8512172698975,14.9069595336914,14.9631214141846,15.0197076797485,15.0767250061035,15.1341753005981,15.192066192627,15.2504005432129,15.3091859817505,15.3684253692627,15.4281253814697,15.4882907867432,15.5489273071289,15.6142177581787,15.6876287460327,15.7617330551147,15.836540222168,15.9120616912842,15.9883060455322,16.1579837799072,16.1670227050781,16.1760711669922,16.1851291656494,16.3396625518799,16.5114593505859,16.6868076324463,16.8659172058105,17.0101089477539,17.1560478210449,17.3366050720215,17.5210018157959,17.7104187011719,17.9043388366699,18.2041339874268,18.451099395752,18.6703357696533,18.8947582244873,0,0,0,0,0,0,0,0,0,0,0,0,0,0,0,0,0,0,0,0,0,0,0,0,0,0,0,0,0,0,0,0,0,0,0,0,0,0,0,0,0,0,0,0,0,0,0,0,0,0,0,0,0,0,0,0,0,0,0,0,0,0,0,0,0,0,0,0,0,0,0,0,0,0,0,0,0,0,0,0,0,0,0,0,0,0,0,0,0,0,0,0,0,0,0,0,0,0,0,0,0,0,0,0,0,0,0,0,0,0,0,0,0,0,0,0,0,0,0,0,0,0,0,0,0,0,0,0,0,0,0,0,0,0,0,0,0,0,0,0,0,0,0,0,0,0,0,0,0,0,0,0,0,0,0,0,0
12.2504386901855,12.313440322876,12.3770942687988,12.4414100646973,12.5063982009888,12.5720682144165,12.6384315490723,12.7054996490479,12.7732830047607,12.8417835235596,12.9110012054443,12.9809684753418,13.0516977310181,13.1232023239136,13.1954956054688,13.5328569412231,13.5454616546631,13.5580902099609,13.5707416534424,13.5834169387817,13.596116065979,13.6054649353027,13.6109285354614,13.616397857666,13.6218709945679,13.627347946167,13.6328296661377,13.63831615448,13.6438064575195,13.649302482605,13.6548013687134,13.6603059768677,13.6658143997192,13.6713266372681,13.6768445968628,13.6823663711548,13.6878929138184,13.6934232711792,13.6989583969116,13.7044982910156,13.7100419998169,13.7155904769897,13.7211437225342,13.7267017364502,13.7322635650635,13.7378301620483,13.7434015274048,13.7489767074585,13.7545576095581,13.760142326355,13.7657318115234,13.7713251113892,13.7769231796265,13.7825269699097,13.7881345748901,13.7937459945679,13.7993631362915,13.8049840927124,13.8106098175049,13.8162403106689,13.8218746185303,13.8275146484375,13.833158493042,13.8388071060181,13.8444604873657,13.850118637085,13.8557815551758,13.8614492416382,13.8671207427979,13.8727970123291,13.8784780502319,13.8841638565063,13.8898544311523,13.8955497741699,13.9012498855591,13.9069538116455,13.9126634597778,13.9183769226074,13.9240961074829,13.9298191070557,13.935546875,13.9412803649902,13.9470176696777,13.9527597427368,13.9585065841675,13.9642581939697,13.9700145721436,13.975775718689,13.981541633606,13.9873123168945,13.9930877685547,13.9988670349121,14.0046529769897,14.0104417800903,14.0162372589111,14.0220355987549,14.0278406143188,14.0336494445801,14.0394630432129,14.0452814102173,14.0511045455933,14.0569334030151,14.0627660751343,14.068603515625,14.0744466781616,14.0802946090698,14.0861463546753,14.0920038223267,14.0978660583496,14.1037330627441,14.1096048355103,14.1154823303223,14.1213636398315,14.1272506713867,14.1331415176392,14.1390390396118,14.1449394226074,14.1508464813232,14.1567573547363,14.1626739501953,14.1685943603516,14.1745204925537,14.1804523468018,14.1863880157471,14.1923294067383,14.1982746124268,14.2042255401611,14.2101812362671,14.2161426544189,14.2221088409424,14.2280797958374,14.234055519104,14.2400369644165,14.2460222244263,14.2520132064819,14.2580099105835,14.2640104293823,14.2700166702271,14.2760286331177,14.2990283966064,14.3506956100464,14.4027366638184,14.4551572799683,14.507960319519,14.5611505508423,14.6147327423096,14.6687107086182,14.7230882644653,14.777871131897,14.833062171936,14.8886680603027,14.94469165802,15.0011396408081,15.0580148696899,15.1153230667114,15.1730690002441,15.2312574386597,15.2899980545044,15.3603849411011,15.4314222335815,15.5031204223633,15.5754871368408,15.648533821106,15.7222681045532,15.7967004776001,15.8718414306641,15.9477005004883,16.1969432830811,16.2060260772705,16.2151184082031,16.2242202758789,16.3564071655273,16.5285625457764,16.7042942047119,16.8837814331055,17.0336990356445,17.1789035797119,17.3529949188232,17.5377426147461,17.7273197174072,17.9216117858887,18.2144908905029,18.4724559783936,18.6922035217285,18.9171867370605,0,0,0,0,0,0,0,0,0,0,0,0,0,0,0,0,0,0,0,0,0,0,0,0,0,0,0,0,0,0,0,0,0,0,0,0,0,0,0,0,0,0,0,0,0,0,0,0,0,0,0,0,0,0,0,0,0,0,0,0,0,0,0,0,0,0,0,0,0,0,0,0,0,0,0,0,0,0,0,0,0,0,0,0,0,0,0,0,0,0,0,0,0,0,0,0,0,0,0,0,0,0,0,0,0,0,0,0,0,0,0,0,0,0,0,0,0,0,0,0,0,0,0,0,0,0,0,0,0,0,0,0,0,0,0,0,0,0,0,0,0,0,0,0,0,0,0,0,0,0,0,0,0,0,0,0
12.2507133483887,12.3137187957764,12.3773765563965,12.4416952133179,12.506685256958,12.572359085083,12.6387252807617,12.7057962417603,12.7735824584961,12.8420896530151,12.9113101959229,12.9812803268433,13.0520133972168,13.1235218048096,13.1958179473877,13.5028066635132,13.5153551101685,13.527928352356,13.5405235290527,13.5530319213867,13.5584545135498,13.5638809204102,13.5693120956421,13.5747470855713,13.5801868438721,13.5856313705444,13.5910787582397,13.596531867981,13.6019897460938,13.6074504852295,13.6129169464111,13.61838722229,13.6238613128662,13.629340171814,13.6348237991333,13.6403121948242,13.6458044052124,13.6513013839722,13.6568021774292,13.6623077392578,13.667818069458,13.6733322143555,13.6788520812988,13.6843748092651,13.6899032592773,13.6954355239868,13.7009725570679,13.7065134048462,13.7120590209961,13.7176094055176,13.7231645584106,13.728723526001,13.7342872619629,13.7398557662964,13.7454280853271,13.7510061264038,13.7565870285034,13.7621736526489,13.767765045166,13.7733602523804,13.7789602279663,13.7845649719238,13.7901744842529,13.7957878112793,13.8014059066772,13.8070287704468,13.8126564025879,13.8182878494263,13.8239250183105,13.8295660018921,13.8352117538452,13.8408622741699,13.8465175628662,13.8521776199341,13.8578414916992,13.8635101318359,13.8691835403442,13.8748626708984,13.8805446624756,13.8862323760986,13.8919248580933,13.8976221084595,13.9033231735229,13.909029006958,13.914740562439,13.9204559326172,13.926176071167,13.9319019317627,13.9376316070557,13.9433660507202,13.949104309082,13.9548482894897,13.960597038269,13.9663505554199,13.9721088409424,13.9778718948364,13.9836387634277,13.9894113540649,13.9951887130737,14.0009708404541,14.0067567825317,14.0125484466553,14.0183448791504,14.0241460800171,14.0299520492554,14.0357627868652,14.0415782928467,14.0473985671997,14.0532236099243,14.0590534210205,14.0648880004883,14.0707273483276,14.0765724182129,14.0824213027954,14.0882759094238,14.0941352844238,14.0999984741211,14.1058673858643,14.111741065979,14.1176195144653,14.1235036849976,14.1293916702271,14.1352853775024,14.1411838531494,14.147087097168,14.1529951095581,14.1589078903198,14.1648254394531,14.1707487106323,14.1766767501831,14.1826095581055,14.1885471343994,14.1944904327393,14.2004375457764,14.2063903808594,14.2123489379883,14.2183113098145,14.2242784500122,14.2302522659302,14.2362298965454,14.2422122955322,14.2821979522705,14.3337430953979,14.3856611251831,14.4379577636719,14.4906349182129,14.5436983108521,14.5971508026123,14.6509990692139,14.7052450180054,14.759895324707,14.8149518966675,14.8704214096069,14.926308631897,14.9826164245605,15.0465135574341,15.1146717071533,15.1834497451782,15.252857208252,15.322901725769,15.3935918807983,15.4649381637573,15.5369491577148,15.6096324920654,15.6830005645752,15.7570610046387,15.8318243026733,15.9072999954224,15.9834985733032,16.2452182769775,16.2543544769287,16.263500213623,16.3731861114502,16.5456981658936,16.7218170166016,16.901683807373,17.0573539733887,17.2029647827148,17.3694171905518,17.554515838623,17.7442531585693,17.9389171600342,18.2248611450195,18.493860244751,18.7141208648682,18.9396686553955,0,0,0,0,0,0,0,0,0,0,0,0,0,0,0,0,0,0,0,0,0,0,0,0,0,0,0,0,0,0,0,0,0,0,0,0,0,0,0,0,0,0,0,0,0,0,0,0,0,0,0,0,0,0,0,0,0,0,0,0,0,0,0,0,0,0,0,0,0,0,0,0,0,0,0,0,0,0,0,0,0,0,0,0,0,0,0,0,0,0,0,0,0,0,0,0,0,0,0,0,0,0,0,0,0,0,0,0,0,0,0,0,0,0,0,0,0,0,0,0,0,0,0,0,0,0,0,0,0,0,0,0,0,0,0,0,0,0,0,0,0,0,0,0,0,0,0,0,0,0,0,0,0,0,0
12.2509899139404,12.3139982223511,12.3776578903198,12.4419794082642,12.5069732666016,12.5726490020752,12.6390190124512,12.7060928344727,12.7738828659058,12.8423957824707,12.9116191864014,12.981593132019,13.0523300170898,13.1238412857056,13.196141242981,13.4728908538818,13.4853839874268,13.4979009628296,13.5063829421997,13.5117683410645,13.5171575546265,13.5225505828857,13.5279493331909,13.533350944519,13.5387582778931,13.54416847229,13.5495834350586,13.5550031661987,13.5604267120361,13.5658550262451,13.5712871551514,13.5767250061035,13.5821657180786,13.5876111984253,13.5930614471436,13.5985155105591,13.6039743423462,13.6094379425049,13.6149053573608,13.6203765869141,13.6258535385132,13.6313333511353,13.6368188858032,13.6423091888428,13.6478023529053,13.6533012390137,13.6588039398193,13.6643114089966,13.6698226928711,13.6753387451172,13.6808595657349,13.6863842010498,13.6919136047363,13.6974477767944,13.7029867172241,13.7085294723511,13.7140769958496,13.7196283340454,13.7251853942871,13.7307453155518,13.7363109588623,13.7418813705444,13.7474555969238,13.7530345916748,13.7586183547974,13.7642059326172,13.7697982788086,13.7753963470459,13.7809972763062,13.7866039276123,13.7922143936157,13.7978296279907,13.8034496307373,13.8090744018555,13.8147039413452,13.8203372955322,13.8259754180908,13.831618309021,13.8372659683228,13.8429183959961,13.8485746383667,13.8542366027832,13.859902381897,13.8655729293823,13.8712482452393,13.8769283294678,13.8826122283936,13.8883018493652,13.8939962387085,13.899694442749,13.9053974151611,13.9111051559448,13.9168176651001,13.922534942627,13.9282569885254,13.9339838027954,13.939715385437,13.9454517364502,13.951192855835,13.956937789917,13.9626884460449,13.9684438705444,13.9742031097412,13.9799680709839,13.9857368469238,13.9915113449097,13.9972906112671,14.0030736923218,14.0088624954224,14.0146551132202,14.020453453064,14.0262565612793,14.0320644378662,14.0378761291504,14.0436935424805,14.0495157241821,14.0553426742554,14.0611743927002,14.0670108795166,14.0728521347046,14.0786981582642,14.0845499038696,14.0904054641724,14.096266746521,14.1021318435669,14.1080026626587,14.1138782501221,14.119758605957,14.1256437301636,14.131534576416,14.1374292373657,14.1433296203613,14.1492347717285,14.1551446914673,14.1610593795776,14.1669788360596,14.1729030609131,14.1788330078125,14.1847677230835,14.1907072067261,14.1966524124146,14.2026014328003,14.2143516540527,14.2654075622559,14.3168306350708,14.3686265945435,14.4207983016968,14.4733505249023,14.5262870788574,14.5796117782593,14.6333303451538,14.687445640564,14.7452144622803,14.8106632232666,14.8766965866089,14.9433212280273,15.0105457305908,15.0783767700195,15.146824836731,15.2158966064453,15.2856006622314,15.3559474945068,15.4269437789917,15.4986000061035,15.5709247589111,15.643928527832,15.7176189422607,15.7920074462891,15.8671035766602,15.9429168701172,16.2845993041992,16.2937793731689,16.3029708862305,16.3899993896484,16.5628681182861,16.7393779754639,16.9196243286133,17.0810737609863,17.2270908355713,17.3858699798584,17.5713214874268,17.7612190246582,17.9562587738037,18.2352409362793,18.5153160095215,18.7360916137695,18.962194442749,0,0,0,0,0,0,0,0,0,0,0,0,0,0,0,0,0,0,0,0,0,0,0,0,0,0,0,0,0,0,0,0,0,0,0,0,0,0,0,0,0,0,0,0,0,0,0,0,0,0,0,0,0,0,0,0,0,0,0,0,0,0,0,0,0,0,0,0,0,0,0,0,0,0,0,0,0,0,0,0,0,0,0,0,0,0,0,0,0,0,0,0,0,0,0,0,0,0,0,0,0,0,0,0,0,0,0,0,0,0,0,0,0,0,0,0,0,0,0,0,0,0,0,0,0,0,0,0,0,0,0,0,0,0,0,0,0,0,0,0,0,0,0,0,0,0,0,0,0,0,0,0,0,0
12.2512655258179,12.3142766952515,12.3779401779175,12.4422645568848,12.5072612762451,12.5729398727417,12.6393127441406,12.7063894271851,12.7741823196411,12.842700958252,12.9119281768799,12.9819059371948,13.0526456832886,13.1241607666016,13.1964645385742,13.4431066513062,13.4547100067139,13.460054397583,13.4654026031494,13.4707546234131,13.4761114120483,13.4814720153809,13.486837387085,13.4922065734863,13.4975805282593,13.5029582977295,13.5083408355713,13.5137271881104,13.519118309021,13.5245132446289,13.5299129486084,13.5353164672852,13.5407247543335,13.5461368560791,13.5515537261963,13.5569753646851,13.5623998641968,13.5678300857544,13.5732641220093,13.5787029266357,13.5841455459595,13.5895929336548,13.5950441360474,13.6005001068115,13.6059608459473,13.6114253997803,13.6168937683105,13.6223678588867,13.6278457641602,13.6333274841309,13.6388149261475,13.644305229187,13.6498012542725,13.6553010940552,13.6608057022095,13.666314125061,13.6718273162842,13.6773452758789,13.6828670501709,13.6883945465088,13.6939258575439,13.6994609832764,13.7050008773804,13.710545539856,13.7160949707031,13.7216482162476,13.7272062301636,13.7327690124512,13.738335609436,13.7439079284668,13.7494831085205,13.7550640106201,13.7606496810913,13.7662391662598,13.7718334197998,13.7774324417114,13.7830352783203,13.7886438369751,13.7942562103271,13.7998733520508,13.8054943084717,13.8111209869385,13.8167514801025,13.8223867416382,13.8280267715454,13.8336715698242,13.8393201828003,13.8449745178223,13.8506326675415,13.8562955856323,13.8619632720947,13.8676357269287,13.8733129501343,13.8789939880371,13.8846807479858,13.8903713226318,13.8960676193237,13.9017677307129,13.9074726104736,13.913182258606,13.9188966751099,13.924614906311,13.9303388595581,13.9360675811768,13.941801071167,13.9475383758545,13.9532814025879,13.9590282440186,13.9647808074951,13.9705371856689,13.9762983322144,13.9820652008057,13.9878358840942,13.9936122894287,13.9993925094604,14.0051774978638,14.010968208313,14.0167627334595,14.0225629806519,14.0283670425415,14.0341768264771,14.0399913787842,14.0458097457886,14.0516338348389,14.0574617385864,14.0632953643799,14.0691337585449,14.0749769210815,14.0808248519897,14.0866785049438,14.0925359725952,14.0983982086182,14.104266166687,14.1101379394531,14.1160154342651,14.1218976974487,14.1277847290039,14.1336765289307,14.1395740509033,14.1454763412476,14.1513824462891,14.1572942733765,14.1632108688354,14.169132232666,14.1977195739746,14.2486562728882,14.2999582290649,14.3516321182251,14.4036798477173,14.4561071395874,14.5186433792114,14.5820922851562,14.6460990905762,14.7106695175171,14.7758121490479,14.841534614563,14.9078435897827,14.9747486114502,15.0422563552856,15.1103754043579,15.1791143417358,15.2484817504883,15.3184862136841,15.3891353607178,15.4604406356812,15.5324087142944,15.6050500869751,15.6783742904663,15.7523908615112,15.8271102905273,15.9025411605835,16.3241729736328,16.3333988189697,16.3426342010498,16.4068489074707,16.5800743103027,16.7569751739502,16.9376029968262,17.1048603057861,17.2512874603271,17.4023532867432,17.5881595611572,17.7782173156738,17.9736309051514,18.2456340789795,18.5368213653564,18.7581119537354,18.9847507476807,0,0,0,0,0,0,0,0,0,0,0,0,0,0,0,0,0,0,0,0,0,0,0,0,0,0,0,0,0,0,0,0,0,0,0,0,0,0,0,0,0,0,0,0,0,0,0,0,0,0,0,0,0,0,0,0,0,0,0,0,0,0,0,0,0,0,0,0,0,0,0,0,0,0,0,0,0,0,0,0,0,0,0,0,0,0,0,0,0,0,0,0,0,0,0,0,0,0,0,0,0,0,0,0,0,0,0,0,0,0,0,0,0,0,0,0,0,0,0,0,0,0,0,0,0,0,0,0,0,0,0,0,0,0,0,0,0,0,0,0,0,0,0,0,0,0,0,0,0,0,0,0,0
12.2515411376953,12.3145561218262,12.3782215118408,12.4425487518311,12.5075483322144,12.5732307434082,12.6396064758301,12.7066869735718,12.7744827270508,12.8430061340332,12.9122371673584,12.9822187423706,13.0529623031616,13.1244802474976,13.1967868804932,13.4087343215942,13.414041519165,13.4193534851074,13.4246692657471,13.4299898147583,13.4353141784668,13.4406423568726,13.4459743499756,13.4513120651245,13.4566526412964,13.4619979858398,13.4673480987549,13.4727020263672,13.4780597686768,13.4834222793579,13.4887895584106,13.4941596984863,13.4995355606079,13.5049142837524,13.5102987289429,13.5156869888306,13.5210790634155,13.5264759063721,13.5318765640259,13.5372819900513,13.5426921844482,13.5481061935425,13.553524017334,13.5589466094971,13.5643739700317,13.5698051452637,13.5752410888672,13.580680847168,13.5861253738403,13.59157371521,13.5970268249512,13.602484703064,13.607946395874,13.6134128570557,13.6188840866089,13.6243591308594,13.6298379898071,13.6353216171265,13.6408100128174,13.6463031768799,13.6518001556396,13.657301902771,13.6628084182739,13.6683187484741,13.6738338470459,13.6793527603149,13.6848764419556,13.6904048919678,13.6959371566772,13.7014751434326,13.7070169448853,13.7125625610352,13.7181129455566,13.7236680984497,13.7292280197144,13.7347927093506,13.7403612136841,13.7459344863892,13.7515115737915,13.7570943832397,13.7626810073853,13.7682723999023,13.773868560791,13.779468536377,13.7850742340088,13.7906837463379,13.7962980270386,13.8019161224365,13.8075399398804,13.8131675720215,13.8187999725342,13.8244371414185,13.8300790786743,13.8357248306274,13.8413753509521,13.8470315933228,13.8526906967163,13.8583555221558,13.8640251159668,13.8696994781494,13.8753776550293,13.8810615539551,13.8867492675781,13.8924417495728,13.898138999939,13.9038410186768,13.9095478057861,13.9152593612671,13.9209747314453,13.9266958236694,13.9324216842651,13.9381513595581,13.943886756897,13.9496259689331,13.9553699493408,13.9611196517944,13.9668731689453,13.9726314544678,13.9783945083618,13.9841632843018,13.989935874939,13.9957132339478,14.0014953613281,14.0072822570801,14.0130748748779,14.018871307373,14.0246725082397,14.0304794311523,14.0362901687622,14.0421056747437,14.047926902771,14.0537528991699,14.0595827102661,14.0654182434082,14.0712575912476,14.0771026611328,14.0829524993896,14.0888071060181,14.0946664810181,14.100531578064,14.1064004898071,14.1122751235962,14.1181535720825,14.1240377426147,14.1299266815186,14.1358203887939,14.1811265945435,14.2379159927368,14.2989301681519,14.3604698181152,14.4225406646729,14.4851512908936,14.5483074188232,14.6120166778564,14.6762866973877,14.7411251068115,14.8065376281738,14.8725347518921,14.9391212463379,15.0063076019287,15.0741014480591,15.1425094604492,15.2115421295166,15.2812070846558,15.3515129089355,15.4224681854248,15.4940824508667,15.5663652420044,15.6393260955811,15.7129735946655,15.787317276001,15.8623685836792,15.9381370544434,16.3732089996338,16.3824901580811,16.4237308502197,16.5973148345947,16.7746067047119,16.9556198120117,17.1287136077881,17.2755508422852,17.4249267578125,17.6050300598145,17.7952480316162,17.991039276123,18.2560386657715,18.5583763122559,18.7801856994629,19.007360458374,0,0,0,0,0,0,0,0,0,0,0,0,0,0,0,0,0,0,0,0,0,0,0,0,0,0,0,0,0,0,0,0,0,0,0,0,0,0,0,0,0,0,0,0,0,0,0,0,0,0,0,0,0,0,0,0,0,0,0,0,0,0,0,0,0,0,0,0,0,0,0,0,0,0,0,0,0,0,0,0,0,0,0,0,0,0,0,0,0,0,0,0,0,0,0,0,0,0,0,0,0,0,0,0,0,0,0,0,0,0,0,0,0,0,0,0,0,0,0,0,0,0,0,0,0,0,0,0,0,0,0,0,0,0,0,0,0,0,0,0,0,0,0,0,0,0,0,0,0,0,0,0
12.2518177032471,12.3148345947266,12.3785028457642,12.4428339004517,12.5078363418579,12.5735216140747,12.6399002075195,12.7069835662842,12.7747831344604,12.8433094024658,12.9125471115112,12.9825305938721,13.0532779693604,13.1247997283936,13.1971101760864,13.3683433532715,13.3736190795898,13.3788986206055,13.3841819763184,13.3894701004028,13.3947620391846,13.4000587463379,13.4053592681885,13.4106636047363,13.4159727096558,13.4212856292725,13.4266033172607,13.4319248199463,13.4372510910034,13.4425802230835,13.4479150772095,13.4532527923584,13.4585962295532,13.463942527771,13.4692935943604,13.4746494293213,13.4800090789795,13.4853734970093,13.4907417297363,13.4961137771606,13.5014905929565,13.506872177124,13.5122575759888,13.5176467895508,13.5230407714844,13.5284395217896,13.533842086792,13.5392484664917,13.544659614563,13.5500755310059,13.555495262146,13.5609197616577,13.5663480758667,13.5717811584473,13.5772180557251,13.5826597213745,13.5881061553955,13.5935564041138,13.5990104675293,13.6044702529907,13.6099338531494,13.6154012680054,13.6208734512329,13.626350402832,13.6318321228027,13.6373167037964,13.6428070068359,13.6483011245728,13.6538000106812,13.6593036651611,13.6648111343384,13.6703233718872,13.6758394241333,13.681360244751,13.6868858337402,13.6924161911011,13.6979503631592,13.7034893035889,13.7090330123901,13.7145805358887,13.7201328277588,13.7256898880005,13.7312507629395,13.73681640625,13.7423868179321,13.7479619979858,13.7535409927368,13.7591247558594,13.7647132873535,13.7703065872192,13.7759037017822,13.7815065383911,13.7871131896973,13.792724609375,13.79833984375,13.8039608001709,13.8095855712891,13.8152151107788,13.8208484649658,13.8264875411987,13.8321313858032,13.837779045105,13.8434314727783,13.8490886688232,13.8547506332397,13.8604164123535,13.8660879135132,13.8717632293701,13.8774433135986,13.883129119873,13.8888187408447,13.894513130188,13.9002122879028,13.9059152603149,13.9116239547729,13.9173364639282,13.9230546951294,13.9287767410278,13.9345045089722,13.9402360916138,13.945972442627,13.951714515686,13.9574604034424,13.9632110595703,13.9689664840698,13.9747266769409,13.9804916381836,13.9862613677979,13.9920358657837,13.9978151321411,14.0035991668701,14.0093879699707,14.0151815414429,14.0209798812866,14.026782989502,14.0325908660889,14.0384044647217,14.0442218780518,14.0500440597534,14.055871963501,14.0617036819458,14.0675411224365,14.0755729675293,14.0850925445557,14.0946235656738,14.1041688919067,14.1148891448975,14.1486387252808,14.2057046890259,14.2664432525635,14.3277025222778,14.3894901275635,14.4518136978149,14.5146789550781,14.5780935287476,14.6420650482178,14.7065992355347,14.7717065811157,14.8373918533325,14.9036645889282,14.970531463623,15.0380010604858,15.1060810089111,15.1747808456421,15.2441091537476,15.3140726089478,15.3846817016602,15.4559450149536,15.527871131897,15.6004705429077,15.6737518310547,15.7477245330811,15.8223991394043,15.8977851867676,16.413215637207,16.4225406646729,16.4406490325928,16.6145915985107,16.7922554016113,16.9736747741699,17.1526336669922,17.2998828887939,17.4496803283691,17.6219310760498,17.8124828338623,18.0084800720215,18.2664546966553,18.5799808502197,18.8023109436035,19.0300235748291,0,0,0,0,0,0,0,0,0,0,0,0,0,0,0,0,0,0,0,0,0,0,0,0,0,0,0,0,0,0,0,0,0,0,0,0,0,0,0,0,0,0,0,0,0,0,0,0,0,0,0,0,0,0,0,0,0,0,0,0,0,0,0,0,0,0,0,0,0,0,0,0,0,0,0,0,0,0,0,0,0,0,0,0,0,0,0,0,0,0,0,0,0,0,0,0,0,0,0,0,0,0,0,0,0,0,0,0,0,0,0,0,0,0,0,0,0,0,0,0,0,0,0,0,0,0,0,0,0,0,0,0,0,0,0,0,0,0,0,0,0,0,0,0,0,0,0,0,0,0,0
