11.480320930481,11.4802579879761,11.4801950454712,11.480131149292,11.4800682067871,11.4800052642822,11.479941368103,11.4798784255981,11.4798154830933,11.4797515869141,11.4796886444092,11.4796257019043,11.4795618057251,11.4794988632202,11.4794359207153,11.4793720245361,11.4793090820312,11.4792461395264,11.4791822433472,11.4791193008423,11.4790563583374,11.4789934158325,11.4789295196533,11.4788665771484,11.4788036346436,11.4379014968872,11.4786767959595,11.4786138534546,11.4785499572754,11.4784870147705,11.4784240722656,11.4783601760864,11.4782972335815,11.4782342910767,11.4781703948975,11.4899168014526,11.5451602935791,11.6009368896484,11.6572561264038,11.7141246795654,11.7533626556396,11.755126953125,11.7568922042847,11.7586584091187,11.7604246139526,11.7621917724609,11.7639589309692,11.7657270431519,11.7674951553345,11.7692642211914,11.7710332870483,11.7728042602539,11.7745742797852,11.7763452529907,11.7781171798706,11.7798891067505,11.7816619873047,11.7834358215332,11.7852096557617,11.7869834899902,11.7887582778931,11.7905340194702,11.7923097610474,11.7940864562988,11.7958631515503,11.7976408004761,11.7994194030762,11.801197052002,11.8029766082764,11.8047561645508,11.8065366744995,11.8083171844482,11.8100986480713,11.8118801116943,11.8136625289917,11.8154458999634,11.8172292709351,11.8190135955811,11.8207979202271,11.8225831985474,11.8243684768677,11.8261547088623,11.8279409408569,11.8297281265259,11.8315162658691,11.8333044052124,11.83509349823,11.8368825912476,11.8386726379395,11.8404636383057,11.8422546386719,11.8440456390381,11.8458375930786,11.8476305007935,11.8494234085083,11.8512172698975,11.8530120849609,11.8548069000244,11.8566017150879,11.8583974838257,11.8601942062378,11.8619909286499,11.8637886047363,11.8655872344971,11.8673858642578,11.8691844940186,11.8709840774536,11.872784614563,11.8745851516724,11.8763866424561,11.8781890869141,11.8799915313721,11.8817939758301,11.8835973739624,11.885401725769,11.8872060775757,11.8890113830566,11.8908176422119,11.8926239013672,11.8944301605225,11.8962373733521,11.898045539856,11.8998537063599,11.9016628265381,11.9034729003906,11.9052829742432,11.90709400177,11.9089050292969,11.910717010498,11.9125289916992,11.9143419265747,11.9161548614502,11.91796875,11.9197835922241,11.9215984344482,11.9234142303467,11.9252309799194,11.9270477294922,11.9288644790649,11.930682182312,11.9325008392334,11.9343194961548,11.9361391067505,11.9379596710205,11.9397802352905,11.9416017532349,11.9434232711792,11.9452457427979,11.9470682144165,11.9488916397095,11.9507160186768,11.952540397644,11.9543657302856,11.9561910629272,11.9580173492432,11.9598436355591,11.9616708755493,11.9634990692139,11.9653272628784,11.9671564102173,11.9689855575562,11.9708156585693,11.9726467132568,11.9744777679443,11.9763097763062,11.978141784668,11.9799747467041,11.9818086624146,11.983642578125,11.9854774475098,11.9873123168945,11.9891481399536,11.9909839630127,11.9928207397461,11.9946584701538,11.9964962005615,11.9983348846436,12.0001745223999,12.0020141601562,12.0038537979126,12.0056943893433,12.0075359344482,12.0093784332275,12.0112209320068,12.0130634307861,12.0149068832397,12.0167512893677,12.0185966491699,12.0204410552979,12.0222873687744,12.024133682251,12.0259809494019,12.0278282165527,12.0296764373779,12.0315256118774,12.033374786377,12.0352239608765,12.0370750427246,12.0389261245728,12.0407772064209,12.0426292419434,12.0444822311401,12.0463352203369,12.048189163208,12.0500440597534,12.0518989562988,12.0537538528442,12.0556106567383,12.0574674606323,12.0593242645264,12.0611820220947,12.0630407333374,12.0648994445801,12.0667591094971,12.0686197280884,12.0704803466797,12.072340965271,12.0742034912109,12.0760660171509,12.0779285430908,12.0797920227051,12.0816564559937,12.0835208892822,12.0853862762451,12.0872526168823,12.0891189575195,12.0909852981567,12.0928535461426,12.0947217941284,12.0965900421143,12.0984592437744,12.1003293991089,12.1022005081177,12.1040706634521,12.1059427261353,12.1078147888184,12.1096878051758,12.1115608215332,12.1134347915649,12.115309715271,12.1171846389771,12.1194610595703,12.1289091110229,12.1383724212646,12.1478509902954,12.1573438644409,12.1668519973755,12.1763744354248,12.1859121322632,12.1954650878906,12.2050323486328,12.2146148681641,12.2242126464844,12.2338256835938,12.2434530258179,12.2530965805054,12.2627544403076,12.2724275588989,12.2821168899536,12.291820526123,12.3015403747559,12.3112754821777,12.3210248947144,12.3307905197144,12.3405723571777,12.3503684997559,12.3601808547974,12.3700084686279,12.3798522949219,12.3897113800049,12.3995866775513,12.4094772338867,12.4193840026855,12.4293060302734,12.4392442703247,12.449197769165,12.4591684341431,12.4691543579102,12.4791564941406,12.4891738891602,12.4969882965088,12.5027885437012,12.5085935592651,12.5144052505493,12.5202217102051,12.5260438919067,12.53187084198,12.5377035140991,12.5435419082642,12.5493850708008,12.5552349090576,12.561089515686,12.566948890686,12.5728149414062,12.578685760498,12.5845623016357,12.590443611145,12.5963315963745,12.6022243499756,12.6081228256226,12.6140270233154,12.6199369430542,12.6258516311646,12.6317720413208,12.6376981735229,12.643630027771,12.6495676040649,12.6555099487305,12.6614589691162,12.6674127578735,12.6733722686768,12.6793375015259,12.6853084564209,12.6912851333618,12.6972675323486,12.703254699707,12.7092485427856,12.7152481079102,12.7212524414062,12.7272624969482,12.7332792282104,12.7393007278442,12.7453279495239,12.8758983612061,13.0114507675171,13.1498880386353,13.2113494873047,13.2284698486328,13.2456340789795,13.2628421783447,13.2800960540771,13.2973937988281,13.3147382736206,13.3321266174316,13.3495616912842,13.3670415878296,13.3845672607422,13.402138710022,13.4197568893433,13.4374217987061,13.455132484436,13.4728908538818,13.4906949996948,13.5085468292236,13.5264463424683,13.5443925857544,13.5623874664307,13.5849628448486,13.6112384796143,13.6376171112061,13.6640968322754,13.6906805038452,13.7173671722412,13.744158744812,13.7710542678833,13.79323387146
11.4805774688721,11.4805145263672,11.4804515838623,11.4803876876831,11.4803247451782,11.4802618026733,11.4801979064941,11.4801349639893,11.4800720214844,11.4800081253052,11.4799451828003,11.4798822402954,11.4798183441162,11.4797554016113,11.4796924591064,11.4796285629272,11.4795656204224,11.4795026779175,11.4794387817383,11.4793758392334,11.4793128967285,11.4792490005493,11.4791860580444,11.4791231155396,11.4784297943115,11.4765214920044,11.4498424530029,11.4763269424438,11.4777946472168,11.4787435531616,11.4786796569824,11.4786167144775,11.4785537719727,11.4784898757935,11.4784269332886,11.4900560379028,11.5453004837036,11.6010789871216,11.6573991775513,11.7142696380615,11.7492551803589,11.7510185241699,11.752781867981,11.7545471191406,11.7563123703003,11.75807762146,11.7598438262939,11.7616109848022,11.7633781433105,11.7651453018188,11.7669134140015,11.7686824798584,11.7704515457153,11.7722215652466,11.7739925384521,11.7757635116577,11.7775344848633,11.7793064117432,11.7810792922974,11.7828521728516,11.7846260070801,11.7863998413086,11.7881746292114,11.7899503707886,11.7917261123657,11.7935018539429,11.7952795028687,11.7970561981201,11.7988348007202,11.800612449646,11.8023920059204,11.8041715621948,11.8059511184692,11.807731628418,11.809513092041,11.8112945556641,11.8130769729614,11.8148593902588,11.8166427612305,11.8184270858765,11.8202114105225,11.8219957351685,11.8237810134888,11.8255672454834,11.827353477478,11.829140663147,11.8309288024902,11.8327169418335,11.8345050811768,11.8362941741943,11.8380842208862,11.8398742675781,11.8416652679443,11.8434572219849,11.8452491760254,11.8470411300659,11.8488340377808,11.8506278991699,11.8524217605591,11.8542165756226,11.856011390686,11.8578071594238,11.8596038818359,11.861400604248,11.8631973266602,11.8649959564209,11.8667945861816,11.8685932159424,11.8703927993774,11.8721923828125,11.8739929199219,11.8757944107056,11.8775959014893,11.8793983459473,11.8812017440796,11.8830051422119,11.8848085403442,11.8866128921509,11.8884181976318,11.8902235031128,11.8920297622681,11.8938360214233,11.8956432342529,11.8974514007568,11.8992595672607,11.901068687439,11.9028778076172,11.9046878814697,11.9064979553223,11.9083089828491,11.9101209640503,11.9119329452515,11.913745880127,11.9155588150024,11.9173727035522,11.9191875457764,11.9210023880005,11.9228172302246,11.9246339797974,11.9264497756958,11.9282674789429,11.9300851821899,11.931902885437,11.9337215423584,11.9355411529541,11.9373607635498,11.9391813278198,11.9410028457642,11.9428243637085,11.9446458816528,11.9464693069458,11.9482917785645,11.9501161575317,11.951940536499,11.9537649154663,11.9555902481079,11.9574165344238,11.9592428207397,11.96107006073,11.9628982543945,11.9647264480591,11.9665555953979,11.9683847427368,11.97021484375,11.9720449447632,11.9738759994507,11.9757080078125,11.9775400161743,11.9793720245361,11.9812059402466,11.983039855957,11.9848737716675,11.9867086410522,11.9885444641113,11.9903802871704,11.9922170639038,11.9940547943115,11.9958925247192,11.997730255127,11.9995698928833,12.0014085769653,12.003249168396,12.0050897598267,12.0069313049316,12.0087728500366,12.0106143951416,12.0124578475952,12.0143013000488,12.0161447525024,12.0179901123047,12.0198345184326,12.0216808319092,12.0235271453857,12.0253734588623,12.0272207260132,12.0290689468384,12.0309171676636,12.0327663421631,12.0346164703369,12.0364665985107,12.0383176803589,12.040168762207,12.0420207977295,12.043872833252,12.0457258224487,12.0475797653198,12.0494337081909,12.0512886047363,12.0531444549561,12.0550003051758,12.0568571090698,12.0587139129639,12.0605716705322,12.0624294281006,12.0642881393433,12.0661478042603,12.0680074691772,12.0698680877686,12.0717296600342,12.0735912322998,12.0754537582397,12.0773162841797,12.0791797637939,12.0810432434082,12.0829076766968,12.0847730636597,12.0866384506226,12.0885047912598,12.0903720855713,12.0922393798828,12.0941076278687,12.0959758758545,12.0978450775146,12.0997152328491,12.1015853881836,12.1034555435181,12.1053276062012,12.1071996688843,12.1090717315674,12.1109457015991,12.1128187179565,12.1146936416626,12.1165685653687,12.1184434890747,12.1203203201294,12.1260929107666,12.1355514526367,12.1450252532959,12.1545143127441,12.1640176773071,12.1735353469849,12.183069229126,12.1926174163818,12.2021799087524,12.2117586135864,12.2213516235352,12.2309598922729,12.2405834197998,12.2502212524414,12.2598752975464,12.2695446014404,12.2792282104492,12.2889280319214,12.2986431121826,12.3083724975586,12.3181190490723,12.3278799057007,12.3376560211182,12.347448348999,12.3572559356689,12.3670787811279,12.3769178390503,12.3867721557617,12.3966426849365,12.4065284729004,12.4164304733276,12.4263477325439,12.4362812042236,12.4462308883667,12.4561958312988,12.4661769866943,12.4761743545532,12.4834079742432,12.4891958236694,12.4949893951416,12.5007877349854,12.506591796875,12.5124006271362,12.5182151794434,12.5240354537964,12.529860496521,12.5356922149658,12.5415277481079,12.5473699569702,12.5532169342041,12.5590696334839,12.5649280548096,12.5707912445068,12.57666015625,12.5825347900391,12.588415145874,12.5943012237549,12.6001920700073,12.6060886383057,12.6119909286499,12.6178979873657,12.6238117218018,12.6297302246094,12.6356544494629,12.6415843963623,12.6475191116333,12.6534605026245,12.6594066619873,12.6653594970703,12.6713171005249,12.6772804260254,12.6832494735718,12.6892232894897,12.6952037811279,12.701189994812,12.7071809768677,12.7131786346436,12.719181060791,12.7251892089844,12.7312040328979,12.7372236251831,12.8189163208008,12.9532661437988,13.090461730957,13.2133560180664,13.2304811477661,13.2476501464844,13.2648639678955,13.2821226119995,13.2994270324707,13.3167753219604,13.3341693878174,13.3516092300415,13.3690948486328,13.3866262435913,13.404203414917,13.4218273162842,13.4394969940186,13.4572134017944,13.4749765396118,13.492787361145,13.5106449127197,13.5285491943359,13.5487833023071,13.5749197006226,13.6011571884155,13.627495765686,13.6539363861084,13.6804800033569,13.707127571106,13.7314481735229
11.4808340072632,11.4807710647583,11.4807071685791,11.4806442260742,11.4805812835693,11.4805173873901,11.4804544448853,11.4803915023804,11.4803276062012,11.4802646636963,11.4802017211914,11.4801378250122,11.4800748825073,11.4800119400024,11.4799480438232,11.4798851013184,11.4798221588135,11.4797582626343,11.4796953201294,11.4796323776245,11.4795684814453,11.4795055389404,11.4794425964355,11.4789924621582,11.4759893417358,11.4732475280762,11.4572763442993,11.4732065200806,11.4755964279175,11.4780225753784,11.4789361953735,11.4788732528687,11.4788093566895,11.4787464141846,11.4786834716797,11.490195274353,11.5454406738281,11.6012210845947,11.657543182373,11.7144136428833,11.7451496124268,11.7469120025635,11.7486753463745,11.7504386901855,11.7522020339966,11.7539663314819,11.7557315826416,11.7574968338013,11.7592630386353,11.7610301971436,11.7627964019775,11.7645645141602,11.7663326263428,11.7681007385254,11.7698707580566,11.7716398239136,11.7734098434448,11.7751808166504,11.7769527435303,11.7787246704102,11.78049659729,11.7822694778442,11.7840433120728,11.7858171463013,11.7875919342041,11.7893667221069,11.7911424636841,11.7929182052612,11.7946949005127,11.7964725494385,11.7982501983643,11.80002784729,11.8018064498901,11.8035860061646,11.8053665161133,11.8071460723877,11.8089275360107,11.8107089996338,11.8124914169312,11.8142738342285,11.8160562515259,11.8178405761719,11.8196249008179,11.8214092254639,11.8231945037842,11.8249797821045,11.8267669677734,11.8285531997681,11.830340385437,11.8321285247803,11.8339176177979,11.8357067108154,11.837495803833,11.8392858505249,11.8410768508911,11.8428678512573,11.8446598052979,11.8464517593384,11.8482446670532,11.8500385284424,11.8518323898315,11.8536262512207,11.8554210662842,11.857216835022,11.8590135574341,11.8608093261719,11.8626070022583,11.8644046783447,11.8662033081055,11.8680019378662,11.869800567627,11.8716011047363,11.8734016418457,11.8752021789551,11.8770036697388,11.8788061141968,11.8806085586548,11.8824119567871,11.8842153549194,11.8860197067261,11.887825012207,11.889630317688,11.8914356231689,11.8932428359985,11.8950490951538,11.8968572616577,11.8986654281616,11.9004735946655,11.9022827148438,11.9040927886963,11.9059028625488,11.9077138900757,11.9095249176025,11.9113368988037,11.9131498336792,11.9149627685547,11.9167766571045,11.9185905456543,11.9204053878784,11.9222211837769,11.9240369796753,11.9258527755737,11.9276695251465,11.9294872283936,11.9313058853149,11.933123588562,11.9349431991577,11.9367628097534,11.9385833740234,11.9404039382935,11.9422254562378,11.9440469741821,11.9458694458008,11.9476928710938,11.9495162963867,11.951340675354,11.9531650543213,11.9549903869629,11.9568166732788,11.9586429595947,11.960470199585,11.9622974395752,11.9641256332397,11.9659538269043,11.9677829742432,11.9696130752563,11.9714431762695,11.973274230957,11.9751052856445,11.9769372940063,11.9787702560425,11.9806032180786,11.9824371337891,11.9842710494995,11.9861059188843,11.987940788269,11.9897766113281,11.9916133880615,11.9934501647949,11.9952878952026,11.9971265792847,11.9989652633667,12.0008039474487,12.0026445388794,12.0044841766357,12.0063257217407,12.0081672668457,12.0100088119507,12.0118522644043,12.0136947631836,12.0155391693115,12.0173835754395,12.0192279815674,12.0210733413696,12.0229196548462,12.0247669219971,12.0266132354736,12.0284614562988,12.030309677124,12.0321588516235,12.034008026123,12.0358581542969,12.037709236145,12.0395603179932,12.0414113998413,12.0432643890381,12.0451173782349,12.0469703674316,12.0488243103027,12.0506792068481,12.0525341033936,12.0543899536133,12.0562467575073,12.0581035614014,12.0599603652954,12.0618190765381,12.0636777877808,12.0655364990234,12.0673961639404,12.0692567825317,12.071117401123,12.0729789733887,12.0748414993286,12.0767040252686,12.0785665512085,12.0804309844971,12.0822954177856,12.0841598510742,12.0860252380371,12.0878915786743,12.0897579193115,12.091625213623,12.0934934616089,12.0953617095947,12.0972309112549,12.099100112915,12.1009702682495,12.1028413772583,12.1047124862671,12.1065835952759,12.1084566116333,12.1103296279907,12.1122026443481,12.1140775680542,12.1159515380859,12.1178274154663,12.1197032928467,12.1215801239014,12.1234569549561,12.1327314376831,12.142201423645,12.1516857147217,12.1611843109131,12.1706981658936,12.1802272796631,12.1897706985474,12.1993293762207,12.2089033126831,12.2184915542603,12.2280950546265,12.2377138137817,12.2473478317261,12.2569971084595,12.2666616439819,12.2763414382935,12.286036491394,12.2957468032837,12.3054723739624,12.3152132034302,12.3249702453613,12.3347415924072,12.3445291519165,12.3543319702148,12.3641510009766,12.3739852905273,12.3838348388672,12.3937005996704,12.4035816192627,12.4134788513184,12.4233913421631,12.4333200454712,12.4432649612427,12.4532251358032,12.4632015228271,12.4698581695557,12.4756326675415,12.4814138412476,12.4871997833252,12.4929904937744,12.4987878799438,12.5045890808105,12.5103969573975,12.516209602356,12.5220279693604,12.5278511047363,12.5336809158325,12.539514541626,12.5453548431396,12.5511999130249,12.5570507049561,12.5629072189331,12.5687694549561,12.5746364593506,12.580509185791,12.586386680603,12.5922708511353,12.5981597900391,12.6040544509888,12.6099548339844,12.6158599853516,12.621771812439,12.6276884078979,12.6336107254028,12.6395387649536,12.6454725265503,12.6514110565186,12.6573553085327,12.6633062362671,12.669261932373,12.6752233505249,12.6811904907227,12.687162399292,12.6931409835815,12.699125289917,12.705114364624,12.7111101150513,12.7171106338501,12.7231168746948,12.7291297912598,12.7624368667603,12.8955993652344,13.031569480896,13.1704368591309,13.2324924468994,13.2496671676636,13.2668867111206,13.2841501235962,13.301459312439,13.3188142776489,13.3362131118774,13.3536586761475,13.3711490631104,13.3886861801147,13.4062690734863,13.4238977432251,13.4415731430054,13.4592952728271,13.4770641326904,13.4948797225952,13.5127964019775,13.5387935638428,13.5648918151855,13.5910902023315,13.6173896789551,13.6437911987305,13.6702146530151
11.4810905456543,11.4810276031494,11.4809637069702,11.4809007644653,11.4808378219604,11.4807739257812,11.4807109832764,11.4806470870972,11.4805841445923,11.4805212020874,11.4804573059082,11.4803943634033,11.4803314208984,11.4802675247192,11.4802045822144,11.4801416397095,11.4800777435303,11.4800148010254,11.4799518585205,11.4798879623413,11.4798250198364,11.4797620773315,11.4796981811523,11.478232383728,11.4743318557739,11.4708003997803,11.4647073745728,11.4710092544556,11.474084854126,11.4773721694946,11.4791927337646,11.4791297912598,11.4790658950806,11.4790029525757,11.4789400100708,11.4903345108032,11.545581817627,11.6013631820679,11.6576862335205,11.7145586013794,11.7410478591919,11.7428092956543,11.7445707321167,11.7463331222534,11.7480955123901,11.7498588562012,11.7516222000122,11.7533864974976,11.7551517486572,11.7569169998169,11.7586822509766,11.7604494094849,11.7622156143188,11.7639837265015,11.7657508850098,11.7675199508667,11.7692890167236,11.7710580825806,11.7728281021118,11.7745990753174,11.7763700485229,11.7781419754028,11.7799139022827,11.7816867828369,11.7834596633911,11.7852334976196,11.7870082855225,11.7887830734253,11.7905588150024,11.7923345565796,11.7941112518311,11.7958879470825,11.7976655960083,11.7994432449341,11.8012218475342,11.8030014038086,11.804780960083,11.8065614700317,11.8083419799805,11.8101234436035,11.8119049072266,11.8136873245239,11.8154706954956,11.8172540664673,11.819037437439,11.8208227157593,11.8226079940796,11.8243932723999,11.8261795043945,11.8279657363892,11.8297529220581,11.8315410614014,11.8333292007446,11.8351182937622,11.8369073867798,11.8386974334717,11.8404884338379,11.8422794342041,11.8440704345703,11.8458623886108,11.8476552963257,11.8494482040405,11.8512420654297,11.8530368804932,11.8548316955566,11.8566265106201,11.8584222793579,11.86021900177,11.8620157241821,11.8638134002686,11.8656120300293,11.86741065979,11.8692092895508,11.8710088729858,11.8728094100952,11.8746099472046,11.8764114379883,11.8782138824463,11.8800163269043,11.8818187713623,11.8836221694946,11.8854265213013,11.8872308731079,11.8890361785889,11.8908424377441,11.8926486968994,11.8944549560547,11.8962631225586,11.8980703353882,11.8998794555664,11.9016885757446,11.9034976959229,11.9053077697754,11.9071187973022,11.9089298248291,11.9107418060303,11.9125537872314,11.9143667221069,11.9161806106567,11.9179944992065,11.9198083877563,11.9216241836548,11.9234399795532,11.9252557754517,11.9270725250244,11.9288902282715,11.9307079315186,11.9325265884399,11.9343452453613,11.936164855957,11.9379844665527,11.9398050308228,11.9416265487671,11.9434480667114,11.9452705383301,11.947093963623,11.9489164352417,11.950740814209,11.9525651931763,11.9543905258179,11.9562158584595,11.9580421447754,11.9598693847656,11.9616966247559,11.9635238647461,11.965353012085,11.9671821594238,11.9690113067627,11.9708414077759,11.9726724624634,11.9745035171509,11.9763355255127,11.9781675338745,11.9800004959106,11.9818334579468,11.9836683273315,11.985502243042,11.9873380661011,11.9891738891602,11.9910097122192,11.9928464889526,11.9946842193604,11.9965219497681,11.9983606338501,12.0001993179321,12.0020389556885,12.0038795471191,12.0057201385498,12.0075616836548,12.0094032287598,12.0112457275391,12.0130891799927,12.0149326324463,12.0167770385742,12.0186214447021,12.0204668045044,12.022313117981,12.0241594314575,12.0260066986084,12.0278539657593,12.0297021865845,12.0315504074097,12.0334005355835,12.035249710083,12.0371007919312,12.0389518737793,12.0408029556274,12.0426549911499,12.0445079803467,12.0463609695435,12.0482149124146,12.05006980896,12.0519247055054,12.0537796020508,12.0556364059448,12.0574932098389,12.0593500137329,12.0612077713013,12.0630664825439,12.0649251937866,12.0667848587036,12.0686454772949,12.0705060958862,12.0723667144775,12.0742292404175,12.0760917663574,12.0779542922974,12.0798177719116,12.0816822052002,12.0835466384888,12.0854120254517,12.0872783660889,12.0891447067261,12.0910120010376,12.0928792953491,12.094747543335,12.0966157913208,12.0984859466553,12.1003551483154,12.1022262573242,12.104097366333,12.1059684753418,12.1078405380249,12.1097135543823,12.1115875244141,12.1134614944458,12.1153354644775,12.1172103881836,12.119086265564,12.1209630966187,12.1228399276733,12.124716758728,12.1299133300781,12.1393785476685,12.1488580703735,12.1583528518677,12.1678619384766,12.1773862838745,12.1869258880615,12.1964797973633,12.2060489654541,12.215633392334,12.2252321243286,12.2348470687866,12.2444763183594,12.2541208267212,12.2637805938721,12.273455619812,12.283145904541,12.2928524017334,12.3025732040405,12.3123092651367,12.3220615386963,12.3318290710449,12.3416118621826,12.3514099121094,12.3612232208252,12.3710527420044,12.380898475647,12.3907594680786,12.4006357192993,12.4105281829834,12.4204359054565,12.4303598403931,12.440299987793,12.4502553939819,12.4563369750977,12.4621000289917,12.4678678512573,12.4736413955688,12.479419708252,12.485203742981,12.4909934997559,12.4967880249023,12.5025882720947,12.5083932876587,12.5142049789429,12.5200214385986,12.525842666626,12.5316696166992,12.5375022888184,12.5433406829834,12.54918384552,12.5550327301025,12.560887336731,12.566746711731,12.5726127624512,12.578483581543,12.5843591690063,12.5902414321899,12.5961284637451,12.6020212173462,12.6079196929932,12.6138229370117,12.6197328567505,12.6256475448608,12.6315679550171,12.6374940872192,12.6434259414673,12.6493625640869,12.6553049087524,12.6612539291382,12.6672077178955,12.6731672286987,12.6791324615479,12.6851024627686,12.6910791397095,12.697060585022,12.7030487060547,12.709041595459,12.7150411605835,12.7210454940796,12.7270555496216,12.8384428024292,12.9732046127319,13.1108245849609,13.2345056533813,13.2516851425171,13.2689094543457,13.2861785888672,13.3034934997559,13.3208522796631,13.3382577896118,13.3557081222534,13.3732042312622,13.3907461166382,13.4083347320557,13.4259691238403,13.4436492919922,13.4613771438599,13.479151725769,13.5028600692749,13.5288190841675,13.5548782348633,13.5810375213623,13.6072988510132
11.4813470840454,11.4812831878662,11.4812202453613,11.4811573028564,11.4810934066772,11.4810304641724,11.4809675216675,11.4809036254883,11.4808406829834,11.4807777404785,11.4807138442993,11.4806509017944,11.4805879592896,11.4805240631104,11.4804611206055,11.4803981781006,11.4803342819214,11.4802713394165,11.4802083969116,11.4801445007324,11.4800815582275,11.4800186157227,11.4799547195435,11.4781904220581,11.4741840362549,11.4701795578003,11.4674520492554,11.4705924987793,11.4739475250244,11.4773044586182,11.4794492721558,11.4793853759766,11.4793224334717,11.4792594909668,11.4791955947876,11.4904737472534,11.5457220077515,11.601505279541,11.657829284668,11.7147035598755,11.73694896698,11.7387094497681,11.7404689788818,11.7422304153442,11.7439918518066,11.745753288269,11.7475156784058,11.7492790222168,11.7510423660278,11.7528066635132,11.7545709609985,11.7563362121582,11.7581024169922,11.7598686218262,11.7616348266602,11.7634019851685,11.7651700973511,11.7669382095337,11.7687072753906,11.7704763412476,11.7722463607788,11.7740163803101,11.7757873535156,11.7775592803955,11.7793312072754,11.7811040878296,11.7828769683838,11.7846508026123,11.7864246368408,11.7881994247437,11.7899751663208,11.7917509078979,11.7935266494751,11.7953033447266,11.7970809936523,11.7988586425781,11.8006372451782,11.8024168014526,11.8041963577271,11.8059759140015,11.8077564239502,11.8095378875732,11.8113193511963,11.8131017684937,11.814884185791,11.8166675567627,11.8184509277344,11.8202362060547,11.8220205307007,11.823805809021,11.8255920410156,11.8273782730103,11.8291654586792,11.8309535980225,11.8327417373657,11.834529876709,11.8363189697266,11.8381090164185,11.8398990631104,11.8416900634766,11.8434820175171,11.8452739715576,11.8470659255981,11.848858833313,11.8506526947021,11.8524465560913,11.8542413711548,11.8560361862183,11.8578319549561,11.8596286773682,11.8614253997803,11.8632230758667,11.8650207519531,11.8668193817139,11.8686180114746,11.8704175949097,11.8722171783447,11.8740186691284,11.8758192062378,11.8776206970215,11.8794231414795,11.8812265396118,11.8830299377441,11.8848333358765,11.8866376876831,11.8884429931641,11.890248298645,11.8920545578003,11.8938617706299,11.8956689834595,11.8974761962891,11.899284362793,11.9010934829712,11.9029026031494,11.904712677002,11.9065237045288,11.9083347320557,11.9101457595825,11.9119577407837,11.9137706756592,11.915584564209,11.9173974990845,11.9192123413086,11.9210271835327,11.9228429794312,11.9246587753296,11.9264755249023,11.9282922744751,11.9301099777222,11.9319286346436,11.9337472915649,11.9355669021606,11.9373865127563,11.9392070770264,11.9410276412964,11.9428491592407,11.9446716308594,11.946494102478,11.948317527771,11.950140953064,11.9519653320312,11.9537906646729,11.9556159973145,11.9574422836304,11.9592685699463,11.9610958099365,11.9629230499268,11.9647512435913,11.9665803909302,11.968409538269,11.9702396392822,11.9720706939697,11.9739017486572,11.9757328033447,11.9775648117065,11.9793977737427,11.9812307357788,11.9830646514893,11.984899520874,11.9867343902588,11.9885702133179,11.990406036377,11.9922428131104,11.9940795898438,11.9959173202515,11.9977560043335,11.9995946884155,12.0014343261719,12.0032749176025,12.0051155090332,12.0069561004639,12.0087976455688,12.0106401443481,12.0124835968018,12.0143270492554,12.016170501709,12.0180149078369,12.0198602676392,12.0217056274414,12.023551940918,12.0253992080688,12.0272464752197,12.0290946960449,12.0309429168701,12.0327920913696,12.0346422195435,12.0364923477173,12.0383424758911,12.0401945114136,12.042046546936,12.0438985824585,12.0457515716553,12.0476055145264,12.0494594573975,12.0513143539429,12.0531702041626,12.0550260543823,12.0568819046021,12.0587396621704,12.0605974197388,12.0624551773071,12.0643138885498,12.0661735534668,12.0680332183838,12.0698938369751,12.0717554092407,12.0736169815063,12.0754795074463,12.0773420333862,12.0792055130005,12.0810689926147,12.0829334259033,12.0847988128662,12.0866641998291,12.0885305404663,12.0903978347778,12.0922651290894,12.0941333770752,12.096001625061,12.0978708267212,12.0997409820557,12.1016111373901,12.1034822463989,12.1053533554077,12.1072254180908,12.1090984344482,12.1109714508057,12.1128454208374,12.1147193908691,12.1165943145752,12.1184701919556,12.1203460693359,12.1222229003906,12.1240997314453,12.1259775161743,12.1278562545776,12.1365566253662,12.146032333374,12.1555223464966,12.1650276184082,12.1745471954346,12.18408203125,12.1936311721802,12.2031965255737,12.212776184082,12.2223711013794,12.2319803237915,12.241605758667,12.2512454986572,12.2609014511108,12.2705717086792,12.2802572250366,12.2899589538574,12.299674987793,12.3094072341919,12.3191537857056,12.3289165496826,12.338695526123,12.3484888076782,12.3582983016968,12.3681230545044,12.3779630661011,12.3878192901611,12.3976917266846,12.4075794219971,12.4174823760986,12.4274015426636,12.4371004104614,12.4428453445435,12.4485960006714,12.4543514251709,12.460111618042,12.4658784866333,12.4716501235962,12.4774265289307,12.483208656311,12.4889965057373,12.4947891235352,12.5005874633789,12.5063915252686,12.5122003555298,12.5180149078369,12.5238342285156,12.5296602249146,12.5354909896851,12.5413265228271,12.5471687316895,12.5530157089233,12.5588684082031,12.5647258758545,12.5705890655518,12.5764579772949,12.582332611084,12.5882120132446,12.5940980911255,12.5999889373779,12.6058855056763,12.6117868423462,12.617693901062,12.623607635498,12.6295261383057,12.6354503631592,12.6413793563843,12.6473150253296,12.6532554626465,12.6592016220093,12.665153503418,12.6711111068726,12.677074432373,12.6830434799194,12.6890172958374,12.6949977874756,12.7009830474854,12.7069749832153,12.7129716873169,12.7189741134644,12.7817916870117,12.9153594970703,13.0517492294312,13.1910495758057,13.2537040710449,13.2709331512451,13.2882080078125,13.3055276870728,13.3228921890259,13.3403024673462,13.3577585220337,13.3752603530884,13.3928070068359,13.410400390625,13.4280405044556,13.4457273483276,13.467116355896,13.492938041687,13.5188589096069,13.5448789596558
11.4816036224365,11.4815397262573,11.4814767837524,11.4814138412476,11.4813499450684,11.4812870025635,11.4812231063843,11.4811601638794,11.4810972213745,11.4810333251953,11.4809703826904,11.4809074401855,11.4808435440063,11.4807806015015,11.4807176589966,11.4806537628174,11.4805908203125,11.4805278778076,11.4804639816284,11.4804010391235,11.4803380966187,11.4802742004395,11.4802112579346,11.4795141220093,11.475775718689,11.4728126525879,11.4714078903198,11.4728345870972,11.4753684997559,11.4784746170044,11.4797048568726,11.4796419143677,11.4795789718628,11.4795150756836,11.4794521331787,11.4906129837036,11.5458631515503,11.6016473770142,11.6579732894897,11.7148485183716,11.732852935791,11.7346115112305,11.7363710403442,11.738130569458,11.7398910522461,11.7416515350342,11.7434129714966,11.745174407959,11.7469367980957,11.7486991882324,11.7504625320435,11.7522268295288,11.7539911270142,11.7557563781738,11.7575216293335,11.7592878341675,11.7610540390015,11.7628211975098,11.7645883560181,11.766357421875,11.7681255340576,11.7698945999146,11.7716646194458,11.7734346389771,11.7752056121826,11.7769765853882,11.7787485122681,11.7805213928223,11.7822942733765,11.7840671539307,11.7858419418335,11.787615776062,11.7893915176392,11.791166305542,11.7929430007935,11.7947196960449,11.7964963912964,11.7982740402222,11.8000526428223,11.8018312454224,11.8036108016968,11.8053903579712,11.8071708679199,11.808952331543,11.810733795166,11.8125152587891,11.8142986297607,11.8160810470581,11.8178653717041,11.8196487426758,11.8214340209961,11.8232192993164,11.8250045776367,11.8267908096313,11.8285779953003,11.8303651809692,11.8321533203125,11.8339424133301,11.8357315063477,11.8375205993652,11.8393106460571,11.8411016464233,11.8428926467896,11.8446846008301,11.8464765548706,11.8482694625854,11.8500633239746,11.8518571853638,11.8536510467529,11.8554458618164,11.8572416305542,11.8590383529663,11.8608341217041,11.8626317977905,11.864429473877,11.8662281036377,11.8680267333984,11.8698263168335,11.8716259002686,11.8734264373779,11.8752269744873,11.877028465271,11.878830909729,11.880633354187,11.8824367523193,11.8842401504517,11.8860445022583,11.8878498077393,11.8896551132202,11.8914613723755,11.8932676315308,11.8950748443604,11.8968820571899,11.8986902236938,11.9004983901978,11.9023084640503,11.9041175842285,11.9059276580811,11.9077386856079,11.9095506668091,11.9113626480103,11.9131746292114,11.9149875640869,11.9168014526367,11.9186153411865,11.9204301834106,11.9222459793091,11.9240617752075,11.9258785247803,11.927695274353,11.9295129776001,11.9313306808472,11.9331493377686,11.9349679946899,11.9367876052856,11.9386081695557,11.9404287338257,11.94225025177,11.9440727233887,11.9458951950073,11.947717666626,11.9495420455933,11.9513654708862,11.9531908035278,11.9550161361694,11.956841468811,11.958667755127,11.9604949951172,11.9623222351074,11.964150428772,11.9659795761108,11.9678087234497,11.9696378707886,11.9714689254761,11.9732990264893,11.9751310348511,11.9769630432129,11.9787950515747,11.9806280136108,11.9824619293213,11.9842958450317,11.9861307144165,11.9879665374756,11.9898023605347,11.9916391372681,11.9934759140015,11.9953136444092,11.9971513748169,11.9989900588989,12.0008296966553,12.0026693344116,12.0045099258423,12.0063505172729,12.0081930160522,12.0100345611572,12.0118770599365,12.0137205123901,12.0155639648438,12.0174083709717,12.0192537307739,12.0210990905762,12.0229454040527,12.0247917175293,12.0266389846802,12.0284872055054,12.0303354263306,12.0321846008301,12.0340337753296,12.0358839035034,12.0377340316772,12.0395860671997,12.0414371490479,12.0432901382446,12.0451421737671,12.0469961166382,12.0488500595093,12.0507049560547,12.0525598526001,12.0544157028198,12.0562715530396,12.0581293106079,12.059986114502,12.0618448257446,12.0637035369873,12.06556224823,12.067421913147,12.0692825317383,12.0711431503296,12.0730047225952,12.0748672485352,12.0767297744751,12.078592300415,12.0804567337036,12.0823211669922,12.0841856002808,12.0860509872437,12.0879173278809,12.0897836685181,12.0916509628296,12.0935192108154,12.0953874588013,12.0972566604614,12.0991258621216,12.1009960174561,12.1028671264648,12.1047382354736,12.1066102981567,12.1084823608398,12.1103553771973,12.112229347229,12.1141033172607,12.1159782409668,12.1178531646729,12.1197290420532,12.1216058731079,12.1234827041626,12.1253604888916,12.1272382736206,12.1291179656982,12.1337366104126,12.1432075500488,12.1526927947998,12.1621932983398,12.1717090606689,12.1812391281128,12.1907844543457,12.2003450393677,12.2099199295044,12.2195100784302,12.229115486145,12.2387361526489,12.2483720779419,12.2580223083496,12.2676887512207,12.2773704528809,12.2870664596558,12.296778678894,12.3065061569214,12.3162479400635,12.3260068893433,12.3357801437378,12.3455696105957,12.3553733825684,12.3651943206787,12.3750295639038,12.3848810195923,12.3947486877441,12.4046316146851,12.414529800415,12.4236507415771,12.4293832778931,12.4351205825806,12.440863609314,12.4466123580933,12.4523658752441,12.4581251144409,12.4638891220093,12.4696588516235,12.4754343032837,12.4812145233154,12.4870004653931,12.4927911758423,12.4985876083374,12.5043897628784,12.510196685791,12.5160093307495,12.5218267440796,12.5276508331299,12.5334796905518,12.5393133163452,12.5451536178589,12.5509986877441,12.5568494796753,12.562705039978,12.568567276001,12.5744342803955,12.5803060531616,12.5861845016479,12.5920677185059,12.5979566574097,12.6038513183594,12.6097507476807,12.6156568527222,12.6215677261353,12.6274843215942,12.6334066390991,12.6393346786499,12.6452674865723,12.6512060165405,12.657151222229,12.6631011962891,12.6690559387207,12.6750173568726,12.6809844970703,12.6869564056396,12.6929349899292,12.6989183425903,12.7049083709717,12.7109031677246,12.7256374359131,12.8580293655396,12.9932041168213,13.131251335144,13.2557220458984,13.2729568481445,13.2902374267578,13.3075618743896,13.3249320983887,13.3423480987549,13.359808921814,13.3773155212402,13.394868850708,13.412467956543,13.4315614700317,13.4572467803955,13.4830303192139
11.4818601608276,11.4817962646484,11.4817333221436,11.4816694259644,11.4816064834595,11.4815435409546,11.4814796447754,11.4814167022705,11.4813537597656,11.4812898635864,11.4812269210815,11.4811639785767,11.4811000823975,11.4810371398926,11.4809741973877,11.4809103012085,11.4808473587036,11.4807834625244,11.4807205200195,11.4806575775146,11.4805936813354,11.4805307388306,11.4804677963257,11.4804039001465,11.4789342880249,11.476526260376,11.475417137146,11.4763021469116,11.4782218933105,11.4800243377686,11.4799613952637,11.4798984527588,11.4798345565796,11.4797716140747,11.4797086715698,11.4907522201538,11.5460033416748,11.6017894744873,11.6581163406372,11.7149934768677,11.728759765625,11.7305173873901,11.7322750091553,11.7340335845947,11.7357921600342,11.7375516891479,11.739312171936,11.7410726547241,11.7428331375122,11.7445955276489,11.7463569641113,11.7481203079224,11.7498826980591,11.7516469955444,11.7534112930298,11.7551755905151,11.7569408416748,11.7587070465088,11.7604732513428,11.7622404098511,11.7640075683594,11.765775680542,11.7675437927246,11.7693128585815,11.7710828781128,11.772852897644,11.7746238708496,11.7763948440552,11.7781658172607,11.7799386978149,11.7817115783691,11.7834844589233,11.7852582931519,11.7870330810547,11.7888078689575,11.7905826568604,11.7923593521118,11.794135093689,11.7959127426147,11.7976903915405,11.7994680404663,11.8012466430664,11.8030261993408,11.8048057556152,11.806586265564,11.8083667755127,11.8101482391357,11.8119297027588,11.8137121200562,11.8154954910278,11.8172788619995,11.8190622329712,11.8208475112915,11.8226318359375,11.8244180679321,11.8262042999268,11.8279905319214,11.8297777175903,11.8315658569336,11.8333539962769,11.8351430892944,11.836932182312,11.8387222290039,11.8405122756958,11.8423042297363,11.8440952301025,11.8458871841431,11.8476800918579,11.8494729995728,11.8512668609619,11.8530616760254,11.8548564910889,11.8566513061523,11.8584470748901,11.8602437973022,11.8620405197144,11.8638381958008,11.8656368255615,11.8674354553223,11.869234085083,11.8710336685181,11.8728342056274,11.8746347427368,11.8764362335205,11.8782386779785,11.8800411224365,11.8818435668945,11.8836479187012,11.8854513168335,11.8872566223145,11.8890609741211,11.8908672332764,11.8926734924316,11.8944807052612,11.8962879180908,11.8980960845947,11.8999042510986,11.9017133712769,11.9035224914551,11.9053325653076,11.9071435928345,11.9089546203613,11.9107666015625,11.9125785827637,11.9143915176392,11.916205406189,11.9180192947388,11.9198341369629,11.921648979187,11.9234647750854,11.9252805709839,11.9270973205566,11.9289150238037,11.9307327270508,11.9325513839722,11.9343700408936,11.9361896514893,11.9380102157593,11.9398307800293,11.9416513442993,11.943473815918,11.9452953338623,11.9471187591553,11.9489421844482,11.9507665634155,11.9525909423828,11.9544153213501,11.956241607666,11.9580678939819,11.9598941802979,11.9617214202881,11.9635496139526,11.9653778076172,11.9672069549561,11.9690370559692,11.9708671569824,11.9726972579956,11.9745283126831,11.9763603210449,11.9781932830811,11.9800262451172,11.9818592071533,11.9836931228638,11.9855279922485,11.9873628616333,11.9891986846924,11.9910354614258,11.9928722381592,11.9947090148926,11.9965476989746,11.9983863830566,12.0002250671387,12.002064704895,12.0039052963257,12.0057458877563,12.0075874328613,12.0094289779663,12.0112714767456,12.0131149291992,12.0149583816528,12.0168027877808,12.0186471939087,12.0204925537109,12.0223388671875,12.0241851806641,12.0260314941406,12.0278797149658,12.029727935791,12.0315761566162,12.0334253311157,12.0352754592896,12.0371255874634,12.0389766693115,12.040828704834,12.0426807403564,12.0445337295532,12.04638671875,12.0482406616211,12.0500946044922,12.0519504547119,12.0538053512573,12.0556621551514,12.0575180053711,12.0593757629395,12.0612335205078,12.0630922317505,12.0649509429932,12.0668106079102,12.0686712265015,12.0705318450928,12.0723924636841,12.074254989624,12.076117515564,12.0779800415039,12.0798435211182,12.0817079544067,12.0835723876953,12.0854377746582,12.0873041152954,12.0891704559326,12.0910377502441,12.0929050445557,12.0947732925415,12.0966415405273,12.0985116958618,12.100380897522,12.1022520065308,12.1041231155396,12.1059942245483,12.1078672409058,12.1097393035889,12.1116132736206,12.1134872436523,12.1153612136841,12.1172370910645,12.1191120147705,12.1209888458252,12.1228656768799,12.1247434616089,12.1266212463379,12.1284999847412,12.1303787231445,12.1322584152222,12.1403837203979,12.1498651504517,12.1593618392944,12.168872833252,12.1783981323242,12.1879396438599,12.1974954605103,12.2070655822754,12.2166519165039,12.2262525558472,12.2358684539795,12.2454996109009,12.2551460266113,12.2648067474365,12.2744836807251,12.2841758728027,12.2938833236694,12.3036060333252,12.31334400177,12.3230972290039,12.3328666687012,12.3426513671875,12.3524513244629,12.3622665405273,12.3720979690552,12.3819446563721,12.391806602478,12.4016857147217,12.4102296829224,12.4159498214722,12.4216756820679,12.4274063110352,12.433141708374,12.4388828277588,12.4446296691895,12.4503812789917,12.4561386108398,12.4619007110596,12.4676685333252,12.4734420776367,12.4792203903198,12.4850044250488,12.4907932281494,12.4965877532959,12.5023880004883,12.5081939697266,12.5140047073364,12.5198202133179,12.5256423950195,12.5314693450928,12.5373010635376,12.5431394577026,12.5489826202393,12.5548315048218,12.5606851577759,12.5665445327759,12.5724105834961,12.5782804489136,12.5841569900513,12.5900382995605,12.5959253311157,12.6018180847168,12.6077165603638,12.6136198043823,12.6195287704468,12.6254434585571,12.6313638687134,12.6372900009155,12.6432209014893,12.6491575241089,12.6551008224487,12.6610488891602,12.6670017242432,12.6729612350464,12.6789264678955,12.6848964691162,12.6908731460571,12.6968545913696,12.702841758728,12.7088356018066,12.8012046813965,12.9351816177368,13.0719919204712,13.211727142334,13.2749824523926,13.2922677993774,13.3095979690552,13.3269729614258,13.3443937301636,13.3618602752686,13.3793725967407,13.3969306945801,13.4191646575928
11.4821166992188,11.4820528030396,11.4819898605347,11.4819259643555,11.4818630218506,11.4818000793457,11.4817361831665,11.4816732406616,11.4816093444824,11.4815464019775,11.4814834594727,11.4814195632935,11.4813566207886,11.4812936782837,11.4812297821045,11.4811668395996,11.4811038970947,11.4810400009155,11.4809770584106,11.4809141159058,11.4808502197266,11.4807872772217,11.4807243347168,11.4806604385376,11.4805974960327,11.4805345535278,11.4795475006104,11.4802799224854,11.4803447723389,11.4802808761597,11.4802179336548,11.4801549911499,11.4800910949707,11.4800281524658,11.4799652099609,11.490891456604,11.5461444854736,11.6019306182861,11.6582593917847,11.7151374816895,11.7246694564819,11.7264251708984,11.7281818389893,11.7299394607544,11.7316970825195,11.733455657959,11.7352142333984,11.7369737625122,11.738733291626,11.7404937744141,11.7422542572021,11.7440156936646,11.7457780838013,11.747540473938,11.749303817749,11.7510671615601,11.7528314590454,11.7545957565308,11.7563610076904,11.7581262588501,11.7598924636841,11.7616596221924,11.7634267807007,11.7651948928833,11.7669630050659,11.7687311172485,11.7705011367798,11.772271156311,11.7740411758423,11.7758121490479,11.7775840759277,11.7793560028076,11.7811288833618,11.782901763916,11.7846755981445,11.786449432373,11.7882242202759,11.7899990081787,11.7917747497559,11.7935514450073,11.7953281402588,11.7971057891846,11.7988834381104,11.8006620407104,11.8024406433105,11.804220199585,11.8060007095337,11.8077812194824,11.8095626831055,11.8113441467285,11.8131265640259,11.8149089813232,11.8166923522949,11.8184757232666,11.8202600479126,11.8220453262329,11.8238306045532,11.8256168365479,11.8274030685425,11.8291902542114,11.8309783935547,11.8327665328979,11.8345546722412,11.8363437652588,11.8381338119507,11.8399238586426,11.8417148590088,11.8435068130493,11.8452978134155,11.8470907211304,11.8488836288452,11.8506774902344,11.8524713516235,11.854266166687,11.8560609817505,11.8578567504883,11.8596534729004,11.8614501953125,11.8632478713989,11.8650455474854,11.8668441772461,11.8686428070068,11.8704423904419,11.8722429275513,11.8740434646606,11.87584400177,11.877646446228,11.8794479370117,11.881251335144,11.8830547332764,11.8848581314087,11.8866624832153,11.8884677886963,11.8902730941772,11.8920793533325,11.8938865661621,11.8956937789917,11.8975009918213,11.8993091583252,11.9011182785034,11.9029273986816,11.9047374725342,11.906548500061,11.9083595275879,11.9101705551147,11.9119834899902,11.9137954711914,11.9156093597412,11.917423248291,11.9192371368408,11.9210519790649,11.9228677749634,11.9246835708618,11.9265003204346,11.9283170700073,11.9301347732544,11.9319534301758,11.9337720870972,11.9355916976929,11.9374113082886,11.9392318725586,11.9410533905029,11.9428749084473,11.9446964263916,11.9465198516846,11.9483423233032,11.9501667022705,11.9519910812378,11.9538154602051,11.9556407928467,11.9574670791626,11.9592933654785,11.9611206054688,11.9629487991333,11.9647769927979,11.9666061401367,11.9684352874756,11.9702653884888,11.972095489502,11.9739265441895,11.9757585525513,11.9775905609131,11.9794235229492,11.9812564849854,11.9830904006958,11.9849243164062,11.9867601394653,11.9885950088501,11.9904317855835,11.9922676086426,11.9941053390503,11.995943069458,11.99778175354,11.9996204376221,12.0014600753784,12.0032997131348,12.0051403045654,12.0069818496704,12.0088233947754,12.0106658935547,12.012508392334,12.0143518447876,12.0161962509155,12.0180406570435,12.0198860168457,12.0217313766479,12.0235776901245,12.0254249572754,12.0272722244263,12.0291204452515,12.0309686660767,12.0328178405762,12.0346670150757,12.0365180969238,12.0383682250977,12.0402202606201,12.0420722961426,12.043924331665,12.0457773208618,12.0476312637329,12.049485206604,12.0513401031494,12.0531959533691,12.0550518035889,12.0569076538086,12.058765411377,12.0606231689453,12.0624809265137,12.0643396377563,12.0661993026733,12.0680589675903,12.0699195861816,12.0717811584473,12.0736427307129,12.0755052566528,12.0773677825928,12.079231262207,12.0810947418213,12.0829591751099,12.0848245620728,12.0866899490356,12.0885562896729,12.0904235839844,12.0922908782959,12.0941591262817,12.0960273742676,12.0978965759277,12.0997667312622,12.1016368865967,12.1035079956055,12.1053791046143,12.1072511672974,12.1091241836548,12.1109972000122,12.1128711700439,12.1147451400757,12.1166200637817,12.1184959411621,12.1203718185425,12.1222486495972,12.1241254806519,12.1260042190552,12.1278820037842,12.1297616958618,12.1316404342651,12.1335210800171,12.1375617980957,12.1470394134521,12.156530380249,12.1660375595093,12.1755590438843,12.185094833374,12.1946458816528,12.2042121887207,12.2137937545776,12.2233905792236,12.2330017089844,12.2426280975342,12.252269744873,12.261926651001,12.271598815918,12.281286239624,12.2909898757935,12.3007078170776,12.3104410171509,12.3201894760132,12.3299541473389,12.3397340774536,12.3495292663574,12.3593406677246,12.3691673278809,12.3790092468262,12.3888673782349,12.3968381881714,12.4025459289551,12.4082584381104,12.4139766693115,12.4197006225586,12.4254293441772,12.4311628341675,12.4369029998779,12.4426469802856,12.4483976364136,12.4541530609131,12.4599132537842,12.4656791687012,12.4714508056641,12.4772272109985,12.4830093383789,12.4887962341309,12.494589805603,12.5003871917725,12.5061912536621,12.5120000839233,12.5178146362305,12.5236339569092,12.5294589996338,12.5352897644043,12.5411252975464,12.5469665527344,12.5528135299683,12.558666229248,12.5645236968994,12.5703868865967,12.5762557983398,12.5821304321289,12.5880098342896,12.5938949584961,12.5997858047485,12.6056814193726,12.6115837097168,12.6174907684326,12.6234035491943,12.629322052002,12.6352453231812,12.6411752700806,12.6471099853516,12.6530504226685,12.6589965820312,12.6649484634399,12.6709060668945,12.6768684387207,12.6828374862671,12.6888113021851,12.6947917938232,12.700777053833,12.7448806762695,12.8776750564575,13.0132656097412,13.151741027832,13.2770080566406,13.2942981719971,13.3116340637207,13.3260316848755,13.3262500762939,13.3264684677124
11.4823732376099,11.4823093414307,11.4822463989258,11.4821825027466,11.4821195602417,11.4820566177368,11.4819927215576,11.4819297790527,11.4818658828735,11.4818029403687,11.4817399978638,11.4816761016846,11.4816131591797,11.4815502166748,11.4814863204956,11.4814233779907,11.4813604354858,11.4812965393066,11.4812335968018,11.4811697006226,11.4811067581177,11.4810438156128,11.4809799194336,11.4809169769287,11.4808540344238,11.4807901382446,11.4807271957397,11.4806642532349,11.4806003570557,11.4805374145508,11.4804744720459,11.4804105758667,11.4803476333618,11.4802846908569,11.4802207946777,11.4910306930542,11.5462846755981,11.6020727157593,11.6584024429321,11.7152824401855,11.7205820083618,11.722336769104,11.7240924835205,11.725848197937,11.7276048660278,11.7293615341187,11.7311191558838,11.7328777313232,11.7346363067627,11.7363948822021,11.7381544113159,11.739914894104,11.7416753768921,11.7434368133545,11.7451992034912,11.7469606399536,11.7487239837646,11.7504873275757,11.7522506713867,11.7540159225464,11.7557802200317,11.7575464248657,11.7593116760254,11.7610788345337,11.762845993042,11.7646131515503,11.7663812637329,11.7681503295898,11.7699193954468,11.771689414978,11.7734594345093,11.7752304077148,11.7770013809204,11.7787733078003,11.7805452346802,11.7823190689087,11.7840919494629,11.7858657836914,11.7876405715942,11.7894153594971,11.7911911010742,11.7929677963257,11.7947444915771,11.7965211868286,11.7982988357544,11.8000774383545,11.8018560409546,11.803635597229,11.8054151535034,11.8071956634521,11.8089771270752,11.8107585906982,11.8125400543213,11.8143224716187,11.8161058425903,11.817889213562,11.819673538208,11.8214588165283,11.8232440948486,11.8250293731689,11.8268156051636,11.8286027908325,11.8303899765015,11.8321781158447,11.8339672088623,11.8357553482056,11.8375453948975,11.8393354415894,11.8411264419556,11.8429174423218,11.8447093963623,11.8465013504028,11.8482942581177,11.8500881195068,11.851881980896,11.8536758422852,11.8554706573486,11.8572664260864,11.8590631484985,11.8608589172363,11.8626565933228,11.8644542694092,11.8662528991699,11.8680515289307,11.8698511123657,11.8716506958008,11.8734512329102,11.8752517700195,11.8770532608032,11.8788557052612,11.8806581497192,11.8824615478516,11.8842658996582,11.8860692977905,11.8878746032715,11.8896799087524,11.8914861679077,11.893292427063,11.8950996398926,11.8969068527222,11.8987150192261,11.9005241394043,11.9023332595825,11.9041423797607,11.9059534072876,11.9077644348145,11.9095754623413,11.9113874435425,11.913200378418,11.9150133132935,11.9168262481689,11.9186410903931,11.9204559326172,11.9222707748413,11.9240865707397,11.9259033203125,11.9277200698853,11.9295377731323,11.9313554763794,11.9331741333008,11.9349937438965,11.9368133544922,11.9386339187622,11.9404544830322,11.9422760009766,11.9440975189209,11.9459199905396,11.9477434158325,11.9495668411255,11.9513912200928,11.9532155990601,11.9550409317017,11.9568672180176,11.9586935043335,11.9605207443237,11.962347984314,11.9641761779785,11.9660043716431,11.9678335189819,11.9696636199951,11.9714937210083,11.9733247756958,11.9751558303833,11.9769878387451,11.9788208007812,11.9806537628174,11.9824876785278,11.9843215942383,11.986156463623,11.9879922866821,11.9898281097412,11.9916639328003,11.993501663208,11.9953393936157,11.9971771240234,11.9990158081055,12.0008554458618,12.0026950836182,12.0045356750488,12.0063762664795,12.0082178115845,12.0100603103638,12.0119028091431,12.0137462615967,12.0155897140503,12.0174341201782,12.0192794799805,12.0211248397827,12.0229711532593,12.0248174667358,12.0266647338867,12.0285129547119,12.0303611755371,12.0322093963623,12.0340595245361,12.03590965271,12.0377597808838,12.0396108627319,12.0414628982544,12.0433149337769,12.0451679229736,12.0470218658447,12.0488758087158,12.0507307052612,12.0525856018066,12.0544414520264,12.0562973022461,12.0581550598145,12.0600118637085,12.0618705749512,12.0637283325195,12.0655879974365,12.0674476623535,12.0693082809448,12.0711688995361,12.0730304718018,12.0748929977417,12.0767555236816,12.0786180496216,12.0804824829102,12.0823469161987,12.0842113494873,12.0860767364502,12.0879430770874,12.0898094177246,12.0916767120361,12.093544960022,12.0954132080078,12.097282409668,12.0991516113281,12.1010217666626,12.1028928756714,12.1047639846802,12.1066360473633,12.1085081100464,12.1103811264038,12.1122550964355,12.1141290664673,12.1160039901733,12.1178789138794,12.1197547912598,12.1216316223145,12.1235084533691,12.1253862380981,12.1272649765015,12.1291437149048,12.1310224533081,12.1329030990601,12.134783744812,12.136664390564,12.1442136764526,12.1537008285522,12.1632032394409,12.1727199554443,12.1822519302368,12.1917991638184,12.2013607025146,12.2109375,12.2205295562744,12.2301368713379,12.2397584915161,12.2493953704834,12.2590484619141,12.2687158584595,12.2783985137939,12.2880973815918,12.2978105545044,12.3075389862061,12.3172836303711,12.3270435333252,12.3368186950684,12.3466091156006,12.3564157485962,12.3662376403809,12.3760747909546,12.3834743499756,12.3891706466675,12.3948707580566,12.4005765914917,12.4062881469727,12.4120044708252,12.4177265167236,12.4234533309937,12.4291858673096,12.4349231719971,12.4406661987305,12.4464139938354,12.4521675109863,12.4579267501831,12.4636907577515,12.4694595336914,12.4752349853516,12.4810152053833,12.4868001937866,12.4925909042358,12.498387336731,12.504189491272,12.5099964141846,12.5158090591431,12.5216264724731,12.5274496078491,12.533278465271,12.5391130447388,12.5449523925781,12.5507974624634,12.5566473007202,12.5625038146973,12.5683650970459,12.5742311477661,12.5801038742065,12.5859813690186,12.5918645858765,12.5977535247803,12.60364818573,12.6095476150513,12.6154527664185,12.6213636398315,12.6272802352905,12.6332025527954,12.6391296386719,12.6450624465942,12.6510019302368,12.656946182251,12.6628952026367,12.6688508987427,12.6748123168945,12.680778503418,12.6867513656616,12.6927289962769,12.698712348938,12.8206777572632,12.9550638198853,13.0922975540161,13.2324695587158,13.2348299026489,13.2350492477417
11.4111804962158,11.4113636016846,11.411545753479,11.4117279052734,11.4119110107422,11.4120931625366,11.4122753143311,11.4124584197998,11.4126405715942,11.4152450561523,11.4640312194824,11.4819326400757,11.4818696975708,11.4818058013916,11.4817428588867,11.4816799163818,11.4816160202026,11.4815530776978,11.4814901351929,11.4814262390137,11.4813632965088,11.4813003540039,11.4812364578247,11.4811735153198,11.4811105728149,11.4810466766357,11.4809837341309,11.480920791626,11.4808568954468,11.4807939529419,11.480731010437,11.4806671142578,11.4806041717529,11.480541229248,11.4804773330688,11.4911699295044,11.5464248657227,11.6022148132324,11.6585464477539,11.7147436141968,11.7164974212646,11.7182512283325,11.7200050354004,11.7217597961426,11.7235155105591,11.7252712249756,11.7270269393921,11.7287845611572,11.730541229248,11.7322998046875,11.7340574264526,11.7358169555664,11.7375764846802,11.7393360137939,11.741096496582,11.7428579330444,11.7446193695068,11.7463817596436,11.7481441497803,11.7499074935913,11.7516708374023,11.7534351348877,11.7552003860474,11.756965637207,11.758731842041,11.760498046875,11.762264251709,11.7640323638916,11.7658004760742,11.7675685882568,11.7693376541138,11.7711067199707,11.7728776931763,11.7746477127075,11.7764186859131,11.778190612793,11.7799625396729,11.7817354202271,11.7835092544556,11.7852830886841,11.7870569229126,11.7888317108154,11.7906074523926,11.7923831939697,11.7941598892212,11.7959365844727,11.7977142333984,11.7994928359985,11.8012714385986,11.8030500411987,11.8048305511475,11.8066101074219,11.8083915710449,11.8101720809937,11.811954498291,11.8137369155884,11.8155193328857,11.8173036575317,11.8190870285034,11.8208713531494,11.8226566314697,11.8244428634644,11.826229095459,11.8280153274536,11.8298025131226,11.8315906524658,11.8333787918091,11.8351678848267,11.8369569778442,11.8387470245361,11.840537071228,11.8423280715942,11.8441200256348,11.8459119796753,11.8477048873901,11.849497795105,11.8512916564941,11.8530864715576,11.8548812866211,11.8566761016846,11.8584718704224,11.8602685928345,11.8620653152466,11.863862991333,11.8656616210938,11.8674602508545,11.8692588806152,11.8710594177246,11.8728590011597,11.8746604919434,11.8764610290527,11.8782634735107,11.8800659179688,11.8818693161011,11.8836727142334,11.8854761123657,11.8872814178467,11.8890867233276,11.8908920288086,11.8926982879639,11.8945055007935,11.896312713623,11.898120880127,11.8999290466309,11.9017381668091,11.9035482406616,11.9053583145142,11.9071683883667,11.9089803695679,11.9107913970947,11.9126043319702,11.9144172668457,11.9162302017212,11.918044090271,11.9198589324951,11.9216737747192,11.9234895706177,11.9253063201904,11.9271230697632,11.9289398193359,11.9307584762573,11.9325761795044,11.9343957901001,11.9362154006958,11.9380350112915,11.9398555755615,11.9416770935059,11.9434986114502,11.9453210830688,11.9471435546875,11.9489669799805,11.9507913589478,11.952615737915,11.9544410705566,11.9562664031982,11.9580926895142,11.9599199295044,11.9617471694946,11.9635744094849,11.9654035568237,11.9672327041626,11.9690618515015,11.9708919525146,11.9727230072021,11.9745540618896,11.9763860702515,11.9782180786133,11.9800510406494,11.9818849563599,11.9837188720703,11.9855537414551,11.9873886108398,11.9892244338989,11.991060256958,11.9928970336914,11.9947347640991,11.9965724945068,11.9984111785889,12.0002508163452,12.0020904541016,12.0039300918579,12.0057716369629,12.0076122283936,12.0094547271729,12.0112972259521,12.0131397247314,12.0149841308594,12.016827583313,12.0186729431152,12.0205183029175,12.0223636627197,12.0242099761963,12.0260572433472,12.0279054641724,12.0297536849976,12.0316019058228,12.0334510803223,12.0353012084961,12.0371513366699,12.0390024185181,12.0408544540405,12.042706489563,12.0445594787598,12.0464124679565,12.0482664108276,12.0501203536987,12.0519752502441,12.0538311004639,12.0556869506836,12.0575437545776,12.059401512146,12.0612592697144,12.063117980957,12.0649766921997,12.0668363571167,12.0686960220337,12.0705575942993,12.0724182128906,12.0742807388306,12.0761432647705,12.0780057907104,12.0798692703247,12.0817337036133,12.0835981369019,12.0854635238647,12.087329864502,12.0891962051392,12.0910634994507,12.0929307937622,12.094799041748,12.0966682434082,12.0985374450684,12.1004066467285,12.1022777557373,12.1041488647461,12.1060199737549,12.1078929901123,12.1097660064697,12.1116390228271,12.1135129928589,12.1153879165649,12.117262840271,12.1191387176514,12.1210145950317,12.1228914260864,12.1247692108154,12.1266469955444,12.1285257339478,12.1304054260254,12.132285118103,12.1341648101807,12.1360464096069,12.1379280090332,12.1413898468018,12.1508731842041,12.1603708267212,12.169882774353,12.1794109344482,12.1889533996582,12.1985101699829,12.208083152771,12.2176704406738,12.2272729873657,12.2368898391724,12.2465229034424,12.2561702728271,12.2658338546753,12.2755117416382,12.2852058410645,12.2949151992798,12.3046388626099,12.3143787384033,12.3241338729858,12.3339042663574,12.3436908721924,12.3534927368164,12.3633098602295,12.3701410293579,12.3758239746094,12.3815116882324,12.3872060775757,12.3929042816162,12.3986082077026,12.404317855835,12.4100322723389,12.4157524108887,12.4214773178101,12.4272079467773,12.4329442977905,12.4386854171753,12.4444313049316,12.4501829147339,12.455940246582,12.4617023468018,12.4674701690674,12.4732427597046,12.4790210723877,12.4848051071167,12.4905939102173,12.4963884353638,12.5021877288818,12.5079936981201,12.5138034820557,12.5196199417114,12.5254411697388,12.531268119812,12.5370998382568,12.5429382324219,12.5487813949585,12.5546293258667,12.5604839324951,12.5663433074951,12.5722074508667,12.5780782699585,12.5839538574219,12.5898351669312,12.5957221984863,12.6016149520874,12.6075124740601,12.6134157180786,12.6193246841431,12.6252393722534,12.6311597824097,12.6370849609375,12.6430168151855,12.6489534378052,12.6548957824707,12.6608428955078,12.6667966842651,12.6727561950684,12.6787204742432,12.6846904754639,12.6906671524048,12.7641820907593,0,0
11.3344011306763,11.3345813751221,11.3347616195679,11.3349409103394,11.3351211547852,11.335301399231,11.3354816436768,11.3356618881226,11.3669929504395,11.4153661727905,11.4641571044922,11.4821891784668,11.4821262359619,11.4820623397827,11.4819993972778,11.4819364547729,11.4818725585938,11.4818096160889,11.481746673584,11.4816827774048,11.4816198348999,11.481556892395,11.4814929962158,11.4814300537109,11.4813661575317,11.4813032150269,11.481240272522,11.4811763763428,11.4811134338379,11.481050491333,11.4809865951538,11.4809236526489,11.480860710144,11.4807968139648,11.48073387146,11.4913091659546,11.5465660095215,11.6023569107056,11.6586894989014,11.7106637954712,11.7124156951904,11.7141675949097,11.7159204483032,11.7176742553711,11.719428062439,11.7211828231812,11.7229375839233,11.7246932983398,11.7264499664307,11.7282066345215,11.7299633026123,11.7317218780518,11.7334794998169,11.7352380752563,11.7369976043701,11.7387580871582,11.740517616272,11.7422790527344,11.7440404891968,11.7458019256592,11.7475652694702,11.7493276596069,11.751091003418,11.7528553009033,11.754620552063,11.7563848495483,11.7581510543823,11.7599172592163,11.7616834640503,11.7634506225586,11.7652187347412,11.7669868469238,11.7687559127808,11.7705249786377,11.7722949981689,11.7740659713745,11.7758369445801,11.7776079177856,11.7793807983398,11.7811527252197,11.7829256057739,11.7846994400024,11.7864742279053,11.7882490158081,11.7900238037109,11.7917995452881,11.7935762405396,11.795352935791,11.7971305847168,11.7989082336426,11.8006868362427,11.8024654388428,11.8042449951172,11.8060255050659,11.8078060150146,11.8095865249634,11.8113689422607,11.8131504058838,11.8149337768555,11.8167171478271,11.8185005187988,11.8202848434448,11.8220701217651,11.8238554000854,11.8256416320801,11.8274278640747,11.8292150497437,11.8310022354126,11.8327903747559,11.8345794677734,11.836368560791,11.8381586074829,11.8399486541748,11.841739654541,11.8435306549072,11.8453226089478,11.8471155166626,11.8489084243774,11.8507022857666,11.8524961471558,11.8542909622192,11.8560857772827,11.8578815460205,11.8596782684326,11.8614749908447,11.8632726669312,11.8650703430176,11.8668689727783,11.8686676025391,11.8704671859741,11.8722677230835,11.8740682601929,11.8758687973022,11.8776712417603,11.8794736862183,11.8812761306763,11.8830795288086,11.8848838806152,11.8866882324219,11.8884925842285,11.8902988433838,11.8921041488647,11.8939113616943,11.8957185745239,11.8975267410278,11.8993349075317,11.9011430740356,11.9029531478882,11.9047632217407,11.9065732955933,11.9083843231201,11.9101963043213,11.9120082855225,11.9138212203979,11.9156341552734,11.9174480438232,11.9192628860474,11.9210777282715,11.9228925704956,11.9247093200684,11.9265251159668,11.9283428192139,11.9301605224609,11.931978225708,11.9337978363037,11.9356164932251,11.9374370574951,11.9392576217651,11.9410781860352,11.9428997039795,11.9447221755981,11.9465446472168,11.9483680725098,11.9501914978027,11.95201587677,11.9538412094116,11.9556665420532,11.9574928283691,11.9593191146851,11.9611463546753,11.9629735946655,11.9648017883301,11.9666309356689,11.9684600830078,11.970290184021,11.9721212387085,11.973952293396,11.9757833480835,11.9776153564453,11.9794483184814,11.9812822341919,11.9831161499023,11.9849500656128,11.9867849349976,11.9886207580566,11.9904565811157,11.9922933578491,11.9941310882568,11.9959688186646,11.9978065490723,11.9996461868286,12.0014848709106,12.0033254623413,12.005166053772,12.007007598877,12.0088491439819,12.0106916427612,12.0125341415405,12.0143775939941,12.0162220001221,12.01806640625,12.0199117660522,12.0217571258545,12.0236034393311,12.0254497528076,12.0272979736328,12.0291452407837,12.0309944152832,12.0328435897827,12.0346927642822,12.0365428924561,12.0383939743042,12.0402450561523,12.0420970916748,12.0439500808716,12.0458030700684,12.0476570129395,12.0495109558105,12.051365852356,12.0532207489014,12.0550775527954,12.0569334030151,12.0587911605835,12.0606489181519,12.0625066757202,12.0643653869629,12.0662250518799,12.0680847167969,12.0699453353882,12.0718069076538,12.0736684799194,12.0755310058594,12.0773935317993,12.0792570114136,12.0811204910278,12.0829849243164,12.0848503112793,12.0867166519165,12.0885820388794,12.0904493331909,12.0923166275024,12.0941848754883,12.0960531234741,12.0979223251343,12.0997924804688,12.1016626358032,12.103533744812,12.1054048538208,12.1072769165039,12.1091499328613,12.1110229492188,12.1128969192505,12.1147708892822,12.1166458129883,12.1185216903687,12.120397567749,12.1222743988037,12.1241521835327,12.1260299682617,12.1279077529907,12.1297874450684,12.131667137146,12.1335468292236,12.1354274749756,12.1373090744019,12.1391906738281,12.1410732269287,12.148045539856,12.1575393676758,12.1670475006104,12.1765699386597,12.1861085891724,12.1956615447998,12.205228805542,12.2148122787476,12.2244100570679,12.2340230941772,12.2436513900757,12.2532949447632,12.2629528045654,12.2726268768311,12.2823162078857,12.2920207977295,12.301739692688,12.3114757537842,12.3212261199951,12.3309917449951,12.3407735824585,12.3505706787109,12.3568353652954,12.3625059127808,12.368182182312,12.3738632202148,12.3795499801636,12.3852415084839,12.3909387588501,12.3966407775879,12.4023485183716,12.4080619812012,12.413779258728,12.4195032119751,12.4252319335938,12.430965423584,12.4367046356201,12.4424495697021,12.4481992721558,12.4539546966553,12.4597148895264,12.4654808044434,12.4712514877319,12.4770278930664,12.4828100204468,12.4885969161987,12.4943895339966,12.5001878738403,12.5059909820557,12.5117998123169,12.5176134109497,12.5234336853027,12.529257774353,12.5350885391235,12.5409240722656,12.5467653274536,12.5526123046875,12.558464050293,12.5643215179443,12.5701847076416,12.5760536193848,12.5819272994995,12.5878067016602,12.5936918258667,12.5995826721191,12.6054782867432,12.6113796234131,0,0,0,0,0,0,0,0,0,0,0,0
11.2586479187012,11.258825302124,11.2590036392212,11.259181022644,11.2593584060669,11.2595357894897,11.2715892791748,11.3191471099854,11.3671131134033,11.4154920578003,11.4642839431763,11.4824457168579,11.4823818206787,11.4823188781738,11.4822559356689,11.4821920394897,11.4821290969849,11.48206615448,11.4820022583008,11.4819393157959,11.481876373291,11.4818124771118,11.4817495346069,11.4816865921021,11.4816226959229,11.481559753418,11.4814968109131,11.4814329147339,11.481369972229,11.4813070297241,11.4812431335449,11.48118019104,11.4811172485352,11.481053352356,11.4809904098511,11.4914484024048,11.546706199646,11.6024990081787,11.6588325500488,11.7065858840942,11.7083358764648,11.7100877761841,11.7118396759033,11.7135915756226,11.7153444290161,11.717098236084,11.7188520431519,11.7206058502197,11.7223606109619,11.7241163253784,11.7258720397949,11.7276287078857,11.7293863296509,11.731143951416,11.7329015731812,11.7346601486206,11.7364196777344,11.7381792068481,11.7399396896362,11.7417001724243,11.7434616088867,11.7452230453491,11.7469854354858,11.7487478256226,11.7505111694336,11.7522754669189,11.7540397644043,11.755805015564,11.7575702667236,11.7593364715576,11.7611026763916,11.7628698348999,11.7646379470825,11.7664060592651,11.7681741714478,11.769944190979,11.7717132568359,11.7734832763672,11.7752542495728,11.7770261764526,11.7787981033325,11.7805700302124,11.7823429107666,11.7841167449951,11.7858905792236,11.7876653671265,11.7894401550293,11.7912158966064,11.7929916381836,11.7947683334351,11.7965459823608,11.7983236312866,11.8001022338867,11.8018808364868,11.8036603927612,11.8054399490356,11.8072204589844,11.8090009689331,11.8107824325562,11.8125648498535,11.8143472671509,11.8161306381226,11.8179140090942,11.8196983337402,11.8214836120605,11.8232688903809,11.8250541687012,11.8268404006958,11.8286275863647,11.8304147720337,11.832202911377,11.8339910507202,11.8357801437378,11.8375701904297,11.8393602371216,11.8411512374878,11.842942237854,11.8447341918945,11.8465261459351,11.8483190536499,11.8501129150391,11.8519067764282,11.8537006378174,11.8554954528809,11.8572912216187,11.8590879440308,11.8608846664429,11.862681388855,11.8644790649414,11.8662776947021,11.8680763244629,11.8698759078979,11.871675491333,11.8734760284424,11.8752775192261,11.8770790100098,11.8788805007935,11.8806829452515,11.8824863433838,11.8842906951904,11.8860950469971,11.8878993988037,11.8897047042847,11.8915109634399,11.8933172225952,11.8951244354248,11.8969316482544,11.8987398147583,11.9005489349365,11.9023580551147,11.9041681289673,11.9059782028198,11.9077892303467,11.9096002578735,11.9114122390747,11.9132251739502,11.9150381088257,11.9168519973755,11.9186658859253,11.9204807281494,11.9222955703735,11.9241123199463,11.9259281158447,11.9277448654175,11.9295625686646,11.9313812255859,11.9331998825073,11.9350185394287,11.9368381500244,11.9386587142944,11.9404792785645,11.9423007965088,11.9441232681274,11.9459457397461,11.9477682113647,11.9495916366577,11.951416015625,11.9532413482666,11.9550666809082,11.9568920135498,11.9587182998657,11.960545539856,11.9623727798462,11.9642009735107,11.9660301208496,11.9678592681885,11.9696884155273,11.9715194702148,11.973349571228,11.9751815795898,11.9770135879517,11.9788455963135,11.9806795120239,11.9825124740601,11.9843473434448,11.9861822128296,11.9880170822144,11.9898529052734,11.9916896820068,11.9935264587402,11.9953641891479,11.99720287323,11.999041557312,12.000880241394,12.0027208328247,12.0045604705811,12.006402015686,12.008243560791,12.0100860595703,12.0119285583496,12.0137720108032,12.0156154632568,12.0174598693848,12.019305229187,12.0211505889893,12.0229959487915,12.0248432159424,12.0266904830933,12.0285377502441,12.0303869247437,12.0322351455688,12.0340852737427,12.0359354019165,12.0377855300903,12.0396366119385,12.0414886474609,12.0433406829834,12.0451936721802,12.0470476150513,12.0489015579224,12.0507564544678,12.0526113510132,12.0544672012329,12.0563230514526,12.0581798553467,12.060037612915,12.0618953704834,12.0637540817261,12.0656137466431,12.0674734115601,12.0693340301514,12.0711946487427,12.0730562210083,12.0749187469482,12.0767812728882,12.0786437988281,12.0805082321167,12.0823726654053,12.0842370986938,12.0861024856567,12.0879688262939,12.0898351669312,12.0917024612427,12.0935707092285,12.0954389572144,12.0973081588745,12.0991773605347,12.1010475158691,12.1029186248779,12.1047897338867,12.1066617965698,12.1085338592529,12.1104068756104,12.1122808456421,12.1141548156738,12.1160297393799,12.1179046630859,12.1197814941406,12.121657371521,12.12353515625,12.1254119873047,12.127290725708,12.1291694641113,12.131049156189,12.1329288482666,12.1348094940186,12.1366910934448,12.1385726928711,12.1404552459717,12.1423377990723,12.1452207565308,12.1547088623047,12.164213180542,12.173731803894,12.1832647323608,12.192813873291,12.2023773193359,12.2119550704956,12.2215490341187,12.2311573028564,12.2407808303833,12.2504196166992,12.2600736618042,12.2697429656982,12.2794275283813,12.2891273498535,12.2988424301147,12.308572769165,12.3183193206787,12.3280801773071,12.3378572463989,12.3435583114624,12.3492164611816,12.3548803329468,12.3605499267578,12.3662242889404,12.3719034194946,12.3775882720947,12.3832788467407,12.3889741897583,12.3946743011475,12.4003801345825,12.4060907363892,12.4118070602417,12.4175291061401,12.4232559204102,12.4289875030518,12.4347248077393,12.4404678344727,12.4462156295776,12.4519691467285,12.457727432251,12.4634914398193,12.4692611694336,12.4750356674194,12.4808158874512,12.4866008758545,12.4923915863037,12.4981880187988,12.5039892196655,12.5097961425781,12.5156078338623,12.5214262008667,12.5272493362427,12.5330772399902,0,0,0,0,0,0,0,0,0,0,0,0,0,0,0,0,0,0,0,0,0
11.1839008331299,11.1840753555298,11.184250831604,11.1844263076782,11.1846017837524,11.2245416641235,11.2717027664185,11.3192663192749,11.3672380447388,11.4156169891357,11.4644107818604,11.482702255249,11.4826383590698,11.4825754165649,11.4825124740601,11.4824485778809,11.482385635376,11.4823226928711,11.4822587966919,11.482195854187,11.4821329116821,11.4820690155029,11.482006072998,11.4819431304932,11.481879234314,11.4818162918091,11.4817523956299,11.481689453125,11.4816265106201,11.4815626144409,11.481499671936,11.4814367294312,11.481372833252,11.4813098907471,11.4812469482422,11.491587638855,11.5468473434448,11.6026411056519,11.6589765548706,11.7025108337402,11.7042598724365,11.7060098648071,11.7077608108521,11.709511756897,11.7112636566162,11.7130155563354,11.714768409729,11.7165212631226,11.7182750701904,11.7200288772583,11.7217836380005,11.723539352417,11.7252950668335,11.7270517349243,11.7288084030151,11.7305660247803,11.7323236465454,11.7340822219849,11.7358407974243,11.7376003265381,11.7393608093262,11.7411212921143,11.7428827285767,11.7446441650391,11.7464056015015,11.7481689453125,11.7499322891235,11.7516956329346,11.7534599304199,11.7552242279053,11.7569904327393,11.7587556838989,11.7605218887329,11.7622890472412,11.7640562057495,11.7658243179321,11.7675933837891,11.769362449646,11.7711315155029,11.7729015350342,11.7746725082397,11.7764434814453,11.7782154083252,11.7799873352051,11.7817602157593,11.7835330963135,11.785306930542,11.7870817184448,11.7888565063477,11.7906322479248,11.792407989502,11.7941846847534,11.7959613800049,11.7977390289307,11.7995176315308,11.8012962341309,11.803074836731,11.8048543930054,11.8066349029541,11.8084154129028,11.8101968765259,11.8119792938232,11.8137617111206,11.815544128418,11.8173274993896,11.8191118240356,11.8208961486816,11.822681427002,11.8244676589966,11.8262529373169,11.8280401229858,11.8298273086548,11.831615447998,11.8334035873413,11.8351926803589,11.8369817733765,11.8387718200684,11.8405618667603,11.8423528671265,11.844144821167,11.8459367752075,11.8477296829224,11.8495225906372,11.8513164520264,11.8531112670898,11.8549060821533,11.8567008972168,11.8584966659546,11.8602933883667,11.8620910644531,11.8638877868652,11.865686416626,11.8674850463867,11.8692836761475,11.8710842132568,11.8728837966919,11.8746852874756,11.8764867782593,11.878288269043,11.880090713501,11.8818941116333,11.8836975097656,11.8855018615723,11.8873062133789,11.8891115188599,11.8909168243408,11.8927230834961,11.8945302963257,11.8963375091553,11.8981456756592,11.8999538421631,11.9017629623413,11.9035730361938,11.9053831100464,11.9071941375732,11.9090051651001,11.9108171463013,11.9126291275024,11.9144420623779,11.9162559509277,11.9180698394775,11.9198837280273,11.9216995239258,11.9235153198242,11.9253311157227,11.9271478652954,11.9289655685425,11.9307832717896,11.9326019287109,11.9344205856323,11.936240196228,11.9380598068237,11.9398813247681,11.9417018890381,11.9435243606567,11.9453458786011,11.947169303894,11.948992729187,11.95081615448,11.9526414871216,11.9544658660889,11.9562921524048,11.9581184387207,11.9599447250366,11.9617719650269,11.9636001586914,11.965428352356,11.9672574996948,11.969087600708,11.9709177017212,11.9727478027344,11.9745788574219,11.9764108657837,11.9782438278198,11.980076789856,11.9819097518921,11.9837436676025,11.9855785369873,11.9874134063721,11.9892492294312,11.9910860061646,11.9929227828979,11.9947605133057,11.9965982437134,11.9984369277954,12.0002756118774,12.0021152496338,12.0039558410645,12.0057964324951,12.0076379776001,12.0094795227051,12.0113229751587,12.013165473938,12.0150089263916,12.0168533325195,12.0186986923218,12.0205430984497,12.0223894119263,12.0242357254028,12.0260829925537,12.0279302597046,12.0297784805298,12.0316276550293,12.0334768295288,12.0353269577026,12.0371770858765,12.0390281677246,12.0408802032471,12.0427322387695,12.044584274292,12.0464382171631,12.0482921600342,12.0501461029053,12.0520009994507,12.0538568496704,12.0557126998901,12.0575695037842,12.0594272613525,12.0612850189209,12.0631437301636,12.0650024414062,12.0668621063232,12.0687217712402,12.0705833435059,12.0724439620972,12.0743064880371,12.0761690139771,12.078031539917,12.0798950195312,12.0817594528198,12.0836238861084,12.0854892730713,12.0873556137085,12.0892219543457,12.0910892486572,12.0929565429688,12.0948247909546,12.0966939926147,12.0985631942749,12.1004333496094,12.1023035049438,12.1041746139526,12.1060466766357,12.1079187393188,12.1097917556763,12.1116647720337,12.1135387420654,12.1154136657715,12.1172885894775,12.1191644668579,12.1210403442383,12.122917175293,12.124794960022,12.126672744751,12.1285514831543,12.1304311752319,12.1323108673096,12.1341915130615,12.1360721588135,12.1379537582397,12.1398363113403,12.1417188644409,12.1436023712158,12.1454858779907,12.1518802642822,12.1613798141479,12.1708936691284,12.1804227828979,12.1899671554565,12.1995258331299,12.2090997695923,12.2186889648438,12.22829246521,12.2379121780396,12.2475461959839,12.2571954727173,12.2668609619141,12.2765407562256,12.2862358093262,12.2959461212158,12.3056726455688,12.3154134750366,12.324667930603,12.3303098678589,12.3359565734863,12.3416080474854,12.3472652435303,12.3529272079468,12.3585939407349,12.3642673492432,12.3699445724487,12.3756275177002,12.3813161849976,12.3870096206665,12.392707824707,12.3984117507935,12.4041213989258,12.4098358154297,12.4155550003052,12.4212799072266,12.4270105361938,12.4327459335327,12.4384870529175,12.4442329406738,12.4499845504761,12.4557409286499,0,0,0,0,0,0,0,0,0,0,0,0,0,0,0,0,0,0,0,0,0,0,0,0,0,0,0,0,0,0
11.1101388931274,11.110312461853,11.1104850769043,11.1315040588379,11.177885055542,11.2246532440186,11.2718210220337,11.319390296936,11.3673620223999,11.4157428741455,11.4645376205444,11.4829578399658,11.4828948974609,11.4828319549561,11.4827680587769,11.482705116272,11.4826421737671,11.4825782775879,11.482515335083,11.4824523925781,11.4823884963989,11.482325553894,11.4822626113892,11.48219871521,11.4821357727051,11.4820728302002,11.482008934021,11.4819459915161,11.4818830490112,11.481819152832,11.4817562103271,11.4816932678223,11.4816293716431,11.4815664291382,11.4815034866333,11.4917268753052,11.5469875335693,11.602783203125,11.6591196060181,11.6984386444092,11.7001867294312,11.7019357681274,11.7036848068237,11.7054347991943,11.7071847915649,11.7089357376099,11.7106876373291,11.7124395370483,11.7141923904419,11.7159452438354,11.717698097229,11.7194528579712,11.7212076187134,11.7229623794556,11.7247180938721,11.7264738082886,11.7282304763794,11.7299880981445,11.7317457199097,11.7335042953491,11.7352628707886,11.7370223999023,11.7387819290161,11.7405424118042,11.7423028945923,11.7440643310547,11.7458267211914,11.7475891113281,11.7493524551392,11.7511157989502,11.7528800964355,11.7546443939209,11.7564096450806,11.7581748962402,11.7599411010742,11.7617082595825,11.7634754180908,11.7652435302734,11.7670116424561,11.768780708313,11.7705497741699,11.7723197937012,11.7740898132324,11.775860786438,11.7776327133179,11.7794046401978,11.781177520752,11.7829504013062,11.7847242355347,11.7864980697632,11.788272857666,11.7900485992432,11.7918243408203,11.7936000823975,11.7953777313232,11.7971544265747,11.7989330291748,11.8007106781006,11.802490234375,11.8042697906494,11.8060493469238,11.8078308105469,11.8096113204956,11.8113927841187,11.813175201416,11.8149585723877,11.8167419433594,11.8185253143311,11.8203096389771,11.8220949172974,11.8238801956177,11.8256664276123,11.8274526596069,11.8292398452759,11.8310270309448,11.8328151702881,11.8346042633057,11.8363933563232,11.8381834030151,11.839973449707,11.8417644500732,11.8435554504395,11.84534740448,11.8471403121948,11.8489332199097,11.8507270812988,11.852520942688,11.8543157577515,11.8561105728149,11.8579063415527,11.8597030639648,11.861499786377,11.8632974624634,11.8650951385498,11.8668937683105,11.8686923980713,11.8704919815063,11.8722925186157,11.8740930557251,11.8758945465088,11.8776960372925,11.8794984817505,11.8813009262085,11.8831043243408,11.8849086761475,11.8867130279541,11.8885183334351,11.890323638916,11.8921298980713,11.8939361572266,11.8957433700562,11.8975515365601,11.899359703064,11.9011688232422,11.9029779434204,11.9047880172729,11.9065980911255,11.9084091186523,11.9102210998535,11.9120330810547,11.9138460159302,11.9156589508057,11.9174728393555,11.9192876815796,11.9211025238037,11.9229183197021,11.9247341156006,11.9265508651733,11.9283676147461,11.9301853179932,11.9320039749146,11.9338226318359,11.9356422424316,11.9374618530273,11.9392824172974,11.9411029815674,11.942925453186,11.9447469711304,11.946569442749,11.948392868042,11.9502172470093,11.9520416259766,11.9538660049438,11.9556913375854,11.9575176239014,11.9593439102173,11.9611711502075,11.9629993438721,11.9648275375366,11.9666566848755,11.9684858322144,11.9703159332275,11.9721460342407,11.9739770889282,11.97580909729,11.9776411056519,11.979474067688,11.9813070297241,11.9831409454346,11.9849758148193,11.9868106842041,11.9886465072632,11.9904823303223,11.9923191070557,11.9941558837891,11.9959936141968,11.9978322982788,11.9996709823608,12.0015106201172,12.0033512115479,12.0051918029785,12.0070323944092,12.0088748931885,12.0107164382935,12.0125598907471,12.0144033432007,12.0162467956543,12.0180921554565,12.0199365615845,12.021782875061,12.0236291885376,12.0254755020142,12.027322769165,12.0291709899902,12.0310201644897,12.0328693389893,12.0347185134888,12.0365686416626,12.0384197235107,12.0402708053589,12.0421228408813,12.0439758300781,12.0458288192749,12.047682762146,12.0495367050171,12.0513916015625,12.0532464981079,12.055103302002,12.0569591522217,12.05881690979,12.0606746673584,12.0625324249268,12.0643911361694,12.0662508010864,12.0681104660034,12.0699710845947,12.0718326568604,12.073694229126,12.0755567550659,12.0774192810059,12.0792827606201,12.0811462402344,12.0830106735229,12.0848760604858,12.086742401123,12.0886087417603,12.0904750823975,12.092342376709,12.0942106246948,12.0960788726807,12.0979480743408,12.0998182296753,12.1016883850098,12.1035594940186,12.1054306030273,12.1073026657104,12.1091756820679,12.1110486984253,12.112922668457,12.1147975921631,12.1166725158691,12.1185474395752,12.1204242706299,12.1223001480103,12.1241779327393,12.1260557174683,12.1279344558716,12.1298131942749,12.1316928863525,12.1335725784302,12.1354541778564,12.1373348236084,12.139217376709,12.1410999298096,12.1429824829102,12.1448669433594,12.1467504501343,12.1490535736084,12.1585483551025,12.1680574417114,12.1775827407837,12.1871213912964,12.1966762542725,12.2062454223633,12.2158298492432,12.2254295349121,12.2350444793701,12.2446746826172,12.254319190979,12.2639799118042,12.2736549377441,12.2833452224731,12.2930517196655,12.3027725219727,12.3114604949951,12.3170890808105,12.3227243423462,12.3283634185791,12.3340082168579,12.3396587371826,12.3453140258789,12.3509740829468,12.3566398620605,12.3623104095459,12.3679866790771,12.37366771698,12.3793535232544,0,0,0,0,0,0,0,0,0,0,0,0,0,0,0,0,0,0,0,0,0,0,0,0,0,0,0,0,0,0,0,0,0,0,0,0,0,0,0
11.0373439788818,11.0399961471558,11.0856161117554,11.1316146850586,11.1779956817627,11.2247714996338,11.2719430923462,11.3195133209229,11.3674869537354,11.4158687591553,11.4646635055542,11.4832143783569,11.4831514358521,11.4830884933472,11.483024597168,11.4829616546631,11.4828987121582,11.482834815979,11.4827718734741,11.4827089309692,11.48264503479,11.4825820922852,11.4825191497803,11.4824552536011,11.4823923110962,11.4823293685913,11.4822654724121,11.4822025299072,11.4821395874023,11.4820756912231,11.4820127487183,11.4819488525391,11.4818859100342,11.4818229675293,11.4817590713501,11.4918661117554,11.5471286773682,11.6029243469238,11.6592626571655,11.6943693161011,11.6961164474487,11.6978635787964,11.6996116638184,11.7013607025146,11.7031097412109,11.7048597335815,11.7066097259521,11.7083606719971,11.710111618042,11.7118635177612,11.7136154174805,11.715368270874,11.7171220779419,11.7188758850098,11.720630645752,11.7223854064941,11.7241411209106,11.7258968353271,11.727653503418,11.7294101715088,11.7311677932739,11.7329263687134,11.7346849441528,11.7364435195923,11.7382030487061,11.7399635314941,11.7417240142822,11.7434854507446,11.7452478408813,11.7470102310181,11.7487726211548,11.7505359649658,11.7523002624512,11.7540645599365,11.7558288574219,11.7575950622559,11.7593612670898,11.7611274719238,11.7628946304321,11.7646617889404,11.766429901123,11.76819896698,11.7699680328369,11.7717380523682,11.7735080718994,11.775279045105,11.7770500183105,11.7788219451904,11.7805948257446,11.7823677062988,11.7841415405273,11.7859153747559,11.7876892089844,11.7894649505615,11.7912406921387,11.7930164337158,11.7947931289673,11.7965707778931,11.7983484268188,11.8001260757446,11.801905632019,11.8036842346191,11.8054647445679,11.8072452545166,11.8090257644653,11.8108072280884,11.8125896453857,11.8143720626831,11.8161554336548,11.8179388046265,11.8197231292725,11.8215074539185,11.8232927322388,11.8250789642334,11.826865196228,11.828652381897,11.8304395675659,11.8322277069092,11.8340158462524,11.83580493927,11.8375949859619,11.8393850326538,11.84117603302,11.8429670333862,11.8447589874268,11.8465509414673,11.8483438491821,11.8501377105713,11.8519315719604,11.8537254333496,11.8555212020874,11.8573160171509,11.859112739563,11.8609094619751,11.8627061843872,11.8645038604736,11.8663024902344,11.8681011199951,11.8699007034302,11.8717002868652,11.8735008239746,11.8753023147583,11.877103805542,11.8789052963257,11.880708694458,11.882511138916,11.8843154907227,11.8861198425293,11.8879241943359,11.8897294998169,11.8915357589722,11.8933420181274,11.895149230957,11.8969573974609,11.8987655639648,11.9005737304688,11.902382850647,11.9041929244995,11.9060029983521,11.9078140258789,11.9096250534058,11.9114379882812,11.9132499694824,11.9150629043579,11.9168767929077,11.9186906814575,11.9205055236816,11.9223213195801,11.9241371154785,11.9259538650513,11.927770614624,11.9295883178711,11.9314060211182,11.9332246780396,11.9350433349609,11.936863899231,11.9386835098267,11.940505027771,11.9423265457153,11.9441480636597,11.9459705352783,11.9477939605713,11.9496173858643,11.9514417648315,11.9532661437988,11.9550914764404,11.9569177627563,11.9587440490723,11.9605703353882,11.9623985290527,11.9642267227173,11.9660549163818,11.9678840637207,11.9697141647339,11.9715442657471,11.9733753204346,11.9752063751221,11.9770383834839,11.97887134552,11.9807043075562,11.9825382232666,11.9843721389771,11.9862070083618,11.9880428314209,11.98987865448,11.9917154312134,11.9935522079468,11.9953899383545,11.9972276687622,11.9990663528442,12.0009059906006,12.0027456283569,12.0045862197876,12.0064277648926,12.0082693099976,12.0101108551025,12.0119533538818,12.0137968063354,12.0156412124634,12.0174856185913,12.0193300247192,12.0211753845215,12.023021697998,12.0248689651489,12.0267162322998,12.0285634994507,12.0304117202759,12.0322608947754,12.0341100692749,12.0359601974487,12.0378112792969,12.039662361145,12.0415143966675,12.0433664321899,12.0452194213867,12.0470733642578,12.0489273071289,12.05078125,12.0526371002197,12.0544929504395,12.0563488006592,12.0582056045532,12.0600633621216,12.0619211196899,12.0637798309326,12.0656394958496,12.0674991607666,12.0693597793579,12.0712203979492,12.0730819702148,12.0749444961548,12.0768070220947,12.0786695480347,12.0805339813232,12.0823984146118,12.0842628479004,12.0861282348633,12.0879945755005,12.089861869812,12.0917282104492,12.0935964584351,12.0954647064209,12.0973339080811,12.0992031097412,12.1010732650757,12.1029443740845,12.1048154830933,12.1066875457764,12.1085596084595,12.1104335784912,12.1123065948486,12.1141805648804,12.1160554885864,12.1179313659668,12.1198072433472,12.1216831207275,12.1235609054565,12.1254386901855,12.1273164749146,12.1291952133179,12.1310749053955,12.1329545974731,12.1348352432251,12.1367168426514,12.1385984420776,12.1404809951782,12.1423635482788,12.1442470550537,12.1461315155029,12.1480159759521,12.1499013900757,12.1557178497314,12.1652231216431,12.1747426986694,12.1842784881592,12.1938276290894,12.2033929824829,12.2129726409912,12.2225685119629,12.2321786880493,12.2418031692505,12.251443862915,12.2610998153687,12.2707710266113,12.2804565429688,12.2901582717896,12.2982807159424,12.303897857666,0,0,0,0,0,0,0,0,0,0,0,0,0,0,0,0,0,0,0,0,0,0,0,0,0,0,0,0,0,0,0,0,0,0,0,0,0,0,0,0,0,0,0,0,0,0,0,0
10.9948577880859,11.0401048660278,11.0857257843018,11.131724357605,11.1781129837036,11.224892616272,11.2720651626587,11.3196363449097,11.3676109313965,11.4159936904907,11.4647903442383,11.483470916748,11.4834079742432,11.4833450317383,11.4832811355591,11.4832181930542,11.4831552505493,11.4830913543701,11.4830284118652,11.4829654693604,11.4829015731812,11.4828386306763,11.4827756881714,11.4827117919922,11.4826488494873,11.4825859069824,11.4825220108032,11.4824590682983,11.4823951721191,11.4823322296143,11.4822692871094,11.4822053909302,11.4821424484253,11.4820795059204,11.4820156097412,11.4920053482056,11.5472688674927,11.603066444397,11.6594066619873,11.6903028488159,11.6920480728149,11.6937952041626,11.6955423355103,11.6972894668579,11.6990375518799,11.7007856369019,11.7025346755981,11.7042846679688,11.7060346603394,11.70778465271,11.7095355987549,11.7112874984741,11.7130393981934,11.7147922515869,11.7165460586548,11.7182989120483,11.7200536727905,11.7218084335327,11.7235631942749,11.7253198623657,11.7270755767822,11.728832244873,11.7305898666382,11.7323484420776,11.7341060638428,11.7358655929565,11.7376251220703,11.7393846511841,11.7411451339722,11.7429065704346,11.744668006897,11.7464303970337,11.7481927871704,11.7499561309814,11.7517204284668,11.7534847259521,11.7552490234375,11.7570142745972,11.7587804794312,11.7605466842651,11.7623138427734,11.7640810012817,11.7658491134644,11.767617225647,11.7693862915039,11.7711563110352,11.7729263305664,11.774697303772,11.7764682769775,11.7782402038574,11.7800121307373,11.7817850112915,11.7835578918457,11.7853317260742,11.7871065139771,11.7888813018799,11.790657043457,11.7924327850342,11.7942094802856,11.7959861755371,11.7977638244629,11.7995414733887,11.8013200759888,11.8030996322632,11.8048791885376,11.8066596984863,11.8084402084351,11.8102216720581,11.8120040893555,11.8137865066528,11.8155689239502,11.8173522949219,11.8191366195679,11.8209209442139,11.8227062225342,11.8244915008545,11.8262777328491,11.8280649185181,11.829852104187,11.8316402435303,11.8334283828735,11.8352174758911,11.8370065689087,11.8387966156006,11.8405866622925,11.8423776626587,11.8441696166992,11.8459615707397,11.8477544784546,11.8495473861694,11.8513412475586,11.8531360626221,11.8549308776855,11.856725692749,11.8585224151611,11.8603181838989,11.8621158599854,11.8639125823975,11.8657112121582,11.8675098419189,11.869309425354,11.8711090087891,11.8729085922241,11.8747100830078,11.8765115737915,11.8783130645752,11.8801155090332,11.8819189071655,11.8837223052979,11.8855266571045,11.8873310089111,11.8891363143921,11.890941619873,11.8927488327026,11.8945550918579,11.8963623046875,11.8981704711914,11.8999795913696,11.9017887115479,11.9035978317261,11.9054079055786,11.9072189331055,11.9090299606323,11.9108419418335,11.9126539230347,11.9144668579102,11.91628074646,11.9180946350098,11.9199094772339,11.921724319458,11.9235401153564,11.9253559112549,11.9271726608276,11.9289903640747,11.9308080673218,11.9326267242432,11.9344453811646,11.9362649917603,11.9380855560303,11.9399061203003,11.9417276382446,11.943549156189,11.9453716278076,11.9471940994263,11.9490175247192,11.9508419036865,11.9526662826538,11.9544916152954,11.956316947937,11.9581432342529,11.9599704742432,11.9617977142334,11.9636249542236,11.9654541015625,11.9672832489014,11.9691123962402,11.9709424972534,11.9727735519409,11.9746046066284,11.9764366149902,11.9782686233521,11.9801015853882,11.9819355010986,11.9837694168091,11.9856042861938,11.9874391555786,11.9892749786377,11.9911117553711,11.9929485321045,11.9947853088379,11.9966239929199,11.9984617233276,12.000301361084,12.0021409988403,12.003981590271,12.0058221817017,12.0076637268066,12.0095052719116,12.0113477706909,12.0131912231445,12.0150346755981,12.0168790817261,12.018723487854,12.0205688476562,12.0224151611328,12.0242614746094,12.0261087417603,12.0279560089111,12.0298042297363,12.0316534042358,12.0335025787354,12.0353527069092,12.037202835083,12.0390539169312,12.0409049987793,12.0427579879761,12.0446100234985,12.0464639663696,12.0483179092407,12.0501718521118,12.0520267486572,12.053882598877,12.0557384490967,12.0575952529907,12.0594530105591,12.0613107681274,12.0631694793701,12.0650281906128,12.0668878555298,12.0687475204468,12.0706090927124,12.0724697113037,12.0743322372437,12.0761947631836,12.0780572891235,12.0799207687378,12.0817852020264,12.0836496353149,12.0855150222778,12.087381362915,12.0892477035522,12.0911149978638,12.0929822921753,12.0948505401611,12.0967197418213,12.0985889434814,12.1004590988159,12.1023292541504,12.1042003631592,12.1060724258423,12.1079444885254,12.1098175048828,12.1116905212402,12.113564491272,12.115439414978,12.1173143386841,12.1191902160645,12.1210670471191,12.1229438781738,12.1248207092285,12.1266994476318,12.1285781860352,12.1304569244385,12.1323366165161,12.1342172622681,12.13609790802,12.1379795074463,12.1398620605469,12.1417446136475,12.1436281204224,12.1455116271973,12.1473960876465,12.14928150177,12.1511669158936,12.1530532836914,12.1623888015747,12.1719045639038,12.181435585022,12.1909809112549,12.2005414962769,0,0,0,0,0,0,0,0,0,0,0,0,0,0,0,0,0,0,0,0,0,0,0,0,0,0,0,0,0,0,0,0,0,0,0,0,0,0,0,0,0,0,0,0,0,0,0,0,0,0,0,0,0,0,0,0
