13.0878505706787,13.1176986694336,13.1476821899414,13.1778039932251,13.2080631256104,13.2384624481201,13.2690019607544,13.2996826171875,13.3305053710938,13.3614711761475,13.3925819396973,13.4238367080688,13.4552383422852,13.4867877960205,13.5184841156006,13.5503311157227,13.5823278427124,13.6144762039185,13.6467771530151,13.6792316436768,13.711841583252,13.7446060180664,13.7775287628174,13.8106088638306,13.8438482284546,13.8772478103638,13.9108095169067,13.9445333480835,13.9784212112427,14.0124740600586,14.0466938018799,14.0810804367065,14.1156368255615,14.1503620147705,14.1852598190308,14.220329284668,14.2555723190308,14.2909908294678,14.3265857696533,14.3543968200684,14.3752756118774,14.3962154388428,14.4172172546387,14.4382791519165,14.4594030380249,14.4805898666382,14.5018377304077,14.5231485366821,14.5445213317871,14.5659580230713,14.5874576568604,14.6090211868286,14.6306476593018,14.6523389816284,14.6740951538086,14.695915222168,14.7178001403809,14.7397508621216,14.7617673873901,14.7838487625122,14.8059968948364,14.829761505127,14.8621234893799,14.894627571106,14.9272747039795,14.9600648880005,14.9929990768433,15.0260782241821,15.0593042373657,15.0926780700684,15.6784963607788,16.5700740814209,18.6512546539307,18.7241897583008,18.7976951599121,18.8717823028564,18.9464530944824,19.0217189788818,19.0975856781006,19.1740589141846,19.251148223877,19.328857421875,19.4071998596191,19.486177444458,19.8508110046387,19.8942337036133,0,0,0,0,0,0,0,0,0,0,0,0,0,0,0,0,0,0,0,0,0,0,0,0,0,0,0,0,0,0,0,0,0,0,0,0,0,0,0,0,0,0,0,0,0,0,0,0,0,0,0,0,0,0,0,0,0,0,0,0,0,0,0,0,0,0,0,0,0,0,0,0,0,0,0,0,0,0,0,0,0,0,0,0,0,0,0,0,0,0,0,0,0,0,0,0,0,0,0,0,0,0,0,0,0,0,0,0,0,0,0,0,0,0,0,0,0,0,0,0,0,0,0,0,0,0,0,0,0,0,0,0,0,0,0,0,0,0,0,0,0,0,0,0,0,0,0,0,0,0,0,0,0,0,0,0,0,0,0,0,0,0,0,0,0,0,0,0,0,0,0,0,0,0,0,0,0,0,0,0,0,0,0,16.5384426116943,16.4704036712646,16.4029216766357,16.3359909057617,16.2695980072021,16.203742980957,16.1384181976318,16.0736198425293,16.0093402862549,15.945574760437,15.8823137283325,15.8195533752441,15.7572870254517,15.6955089569092,15.6342124938965,15.5733938217163,15.5130462646484,15.4531650543213,15.3937435150146,15.3347778320312,15.2762622833252,15.2181911468506,15.1605596542358,15.1033639907837,15.0465974807739,14.9902563095093,14.9343357086182,14.8788299560547,14.8237361907959,14.7690486907959,14.7147760391235,14.6609058380127,14.6074275970459,14.5543308258057,14.5016098022461,14.4492645263672,14.3972845077515,14.3456764221191,14.2944507598877,14.2436056137085,14.1931209564209,14.1429929733276,14.0932168960571,14.0437726974487,13.9946193695068,13.9458570480347,13.8974437713623,13.8493661880493,13.8016195297241,13.7542009353638,13.7071075439453,13.6603355407715,13.613881111145,13.567741394043
13.0570850372314,13.0867919921875,13.1166343688965,13.146614074707,13.1767301559448,13.2069854736328,13.2373790740967,13.2679138183594,13.2985897064209,13.3294067382812,13.3603677749634,13.3914728164673,13.4227228164673,13.454119682312,13.4856634140015,13.51735496521,13.5491962432861,13.5811882019043,13.6133308410645,13.6456260681152,13.678074836731,13.7106790542603,13.7434387207031,13.7763547897339,13.8094301223755,13.8426637649536,13.8760576248169,13.909613609314,13.9433317184448,13.9772138595581,14.0112609863281,14.0454740524292,14.07985496521,14.1144046783447,14.1491250991821,14.1840152740479,14.2190790176392,14.2539825439453,14.2745704650879,14.2952184677124,14.3159255981445,14.3366928100586,14.3575201034546,14.3784084320068,14.3993577957153,14.4203681945801,14.4414396286011,14.4625730514526,14.4837684631348,14.5050258636475,14.526346206665,14.5477285385132,14.5691747665405,14.5906839370728,14.6122560501099,14.6338930130005,14.6555938720703,14.6773595809937,14.6991891860962,14.7210845947266,14.7430448532104,14.7650709152222,14.7871627807617,14.8182907104492,14.8506031036377,14.883056640625,14.9156522750854,14.9483909606934,14.981273651123,15.0143022537231,15.0474758148193,15.0807962417603,15.3830871582031,16.3304557800293,18.4909152984619,18.5625991821289,18.6348400115967,18.7076454162598,18.7810211181641,18.8549766540527,18.929515838623,19.0046463012695,19.0803756713867,19.1567115783691,19.2336597442627,19.3112297058105,19.3894271850586,19.4682598114014,19.8776817321777,19.9212245941162,19.964958190918,0,0,0,0,0,0,0,0,0,0,0,0,0,0,0,0,0,0,0,0,0,0,0,0,0,0,0,0,0,0,0,0,0,0,0,0,0,0,0,0,0,0,0,0,0,0,0,0,0,0,0,0,0,0,0,0,0,0,0,0,0,0,0,0,0,0,0,0,0,0,0,0,0,0,0,0,0,0,0,0,0,0,0,0,0,0,0,0,0,0,0,0,0,0,0,0,0,0,0,0,0,0,0,0,0,0,0,0,0,0,0,0,0,0,0,0,0,0,0,0,0,0,0,0,0,0,0,0,0,0,0,0,0,0,0,0,0,0,0,0,0,0,0,0,0,0,0,0,0,0,0,0,0,0,0,0,0,0,0,0,0,0,0,0,0,0,0,0,0,0,0,0,0,0,0,0,0,0,16.5378971099854,16.4698619842529,16.4023857116699,16.3354587554932,16.2690753936768,16.2032279968262,16.1379089355469,16.073112487793,16.0088348388672,15.9450702667236,15.8818111419678,15.8190536499023,15.7567911148071,15.6950168609619,15.6337251663208,15.5729103088379,15.5125665664673,15.4526882171631,15.393271446228,15.3343086242676,15.2757968902588,15.2177286148071,15.160101890564,15.1029090881348,15.0461454391479,14.9898080825806,14.9338903427124,14.8783884048462,14.8232975006104,14.7686128616333,14.7143411636353,14.6604738235474,14.6069993972778,14.5539131164551,14.5011949539185,14.4488410949707,14.3968639373779,14.3452587127686,14.2940464019775,14.2432041168213,14.1927223205566,14.1425971984863,14.0928239822388,14.0434007644653,13.9942598342896,13.9454650878906,13.8970556259155,13.8489799499512,13.8012361526489,13.7538204193115,13.7067289352417,13.6599597930908,13.6135082244873,13.5673713684082
13.0264625549316,13.0560312271118,13.0857334136963,13.1155710220337,13.1455459594727,13.1756572723389,13.205906867981,13.2362966537476,13.2668256759644,13.2974967956543,13.3283090591431,13.3592643737793,13.3903646469116,13.42160987854,13.4530010223389,13.4845390319824,13.5162258148193,13.5480613708496,13.5800476074219,13.6121854782104,13.6444759368896,13.6769189834595,13.7095174789429,13.7422714233398,13.7751817703247,13.8082513809204,13.8414793014526,13.87486743927,13.9084177017212,13.9421300888062,13.9760065078735,14.0100479125977,14.0442552566528,14.0786304473877,14.1131734848022,14.1478872299194,14.1752662658691,14.1956272125244,14.2160472869873,14.2365255355835,14.2570629119873,14.2776594161987,14.2983160018921,14.3190326690674,14.3398084640503,14.3606452941895,14.3815431594849,14.4025011062622,14.4235210418701,14.44460105896,14.4657440185547,14.48694896698,14.5082159042358,14.5295448303223,14.5509376525879,14.5723924636841,14.5939111709595,14.6154937744141,14.6371393203735,14.6588497161865,14.680624961853,14.702465057373,14.7243700027466,14.7463397979736,14.7747144699097,14.8068370819092,14.8390989303589,14.8715028762817,14.9040479660034,14.9367361068726,14.9695672988892,15.0025434494019,15.035665512085,15.0689344406128,15.1023502349854,16.0549755096436,16.9579849243164,18.4037742614746,18.474781036377,18.5463390350342,18.6184520721436,18.6911296844482,18.7643775939941,18.8381996154785,18.9126052856445,18.9876022338867,19.063196182251,19.1393928527832,19.2162036895752,19.2936305999756,19.3716869354248,19.4503746032715,19.9046268463135,19.9482879638672,19.9921398162842,0,0,0,0,0,0,0,0,0,0,0,0,0,0,0,0,0,0,0,0,0,0,0,0,0,0,0,0,0,0,0,0,0,0,0,0,0,0,0,0,0,0,0,0,0,0,0,0,0,0,0,0,0,0,0,0,0,0,0,0,0,0,0,0,0,0,0,0,0,0,0,0,0,0,0,0,0,0,0,0,0,0,0,0,0,0,0,0,0,0,0,0,0,0,0,0,0,0,0,0,0,0,0,0,0,0,0,0,0,0,0,0,0,0,0,0,0,0,0,0,0,0,0,0,0,0,0,0,0,0,0,0,0,0,0,0,0,0,0,0,0,0,0,0,0,0,0,0,0,0,0,0,0,0,0,0,0,0,0,0,0,0,0,0,0,0,0,0,0,0,0,0,0,0,16.537353515625,16.4693222045898,16.4018497467041,16.3349266052246,16.2685470581055,16.2027072906494,16.1373958587646,16.0726070404053,16.0083351135254,15.9445724487305,15.8813171386719,15.8185615539551,15.7562999725342,15.6945266723633,15.6332368850708,15.5724258422852,15.5120859146118,15.4522123336792,15.3927984237671,15.3338394165039,15.2753305435181,15.217267036438,15.1596431732178,15.1024532318115,15.0456943511963,14.9893598556519,14.9334449768066,14.8779468536377,14.8228588104248,14.768177986145,14.713906288147,14.660041809082,14.6065702438354,14.55348777771,14.537691116333,14.53688621521,14.5360822677612,14.5352773666382,14.5344734191895,14.5336694717407,14.1923236846924,14.142201423645,14.0924310684204,14.0430107116699,13.9938993453979,13.9450941085815,13.8966665267944,13.848593711853,13.8008527755737,13.7534399032593,13.7063512802124,13.6595840454102,13.6131343841553,13.5670003890991
12.9959850311279,13.0254144668579,13.0549774169922,13.0846748352051,13.1145086288452,13.1444778442383,13.1745843887329,13.2048292160034,13.2352132797241,13.2657384872437,13.2964038848877,13.3272113800049,13.3581619262695,13.389256477356,13.4204959869385,13.4518823623657,13.4834156036377,13.5150966644287,13.5469274520874,13.5789079666138,13.6110401153564,13.6433248519897,13.675763130188,13.7083559036255,13.7411041259766,13.7740097045898,13.8070726394653,13.8402948379517,13.8736782073975,13.9072217941284,13.9409284591675,13.974799156189,14.0088348388672,14.0430364608765,14.0773344039917,14.0974149703979,14.1175527572632,14.1377487182617,14.1580018997192,14.1783132553101,14.1986827850342,14.2191104888916,14.239598274231,14.2601442337036,14.2807502746582,14.3014154434204,14.3221406936646,14.3429260253906,14.3637723922729,14.3846788406372,14.4056453704834,14.4266748428345,14.4477643966675,14.4689168930054,14.4901304244995,14.5114068984985,14.5327453613281,14.5541467666626,14.5756120681763,14.5971403121948,14.6187314987183,14.6403875350952,14.6621074676514,14.683892250061,14.7057418823242,14.7313938140869,14.7633285522461,14.7954015731812,14.8276138305664,14.8599672317505,14.8924617767334,14.9250984191895,14.9578790664673,14.9908037185669,15.0238742828369,15.057089805603,15.0904541015625,15.7453489303589,16.7071018218994,18.2476425170898,18.3174495697021,18.3877906799316,18.4586753845215,18.5301074981689,18.6020946502686,18.6746444702148,18.7477607727051,18.8214530944824,18.8957271575928,18.9705905914307,19.0460472106934,19.1221084594727,19.1987781524658,19.276065826416,19.3539791107178,19.432523727417,19.9316463470459,19.9754238128662,0,0,0,0,0,0,0,0,0,0,0,0,0,0,0,0,0,0,0,0,0,0,0,0,0,0,0,0,0,0,0,0,0,0,0,0,0,0,0,0,0,0,0,0,0,0,0,0,0,0,0,0,0,0,0,0,0,0,0,0,0,0,0,0,0,0,0,0,0,0,0,0,0,0,0,0,0,0,0,0,0,0,0,0,0,0,0,0,0,0,0,0,0,0,0,0,0,0,0,0,0,0,0,0,0,0,0,0,0,0,0,0,0,0,0,0,0,0,0,0,0,0,0,0,0,0,0,0,0,0,0,0,0,0,0,0,0,0,0,0,0,0,0,0,0,0,0,0,0,0,0,0,0,0,0,0,0,0,0,0,0,0,0,0,0,0,0,0,0,0,0,16.536808013916,16.4687824249268,16.4013137817383,16.3343944549561,16.2680206298828,16.2021827697754,16.1368770599365,16.0720958709717,16.0078315734863,15.9440755844116,15.8808240890503,15.8180723190308,15.7558145523071,15.6940450668335,15.632758140564,15.5719480514526,15.5116090774536,15.451735496521,15.3923254013062,15.3333702087402,15.2748651504517,15.2168045043945,15.1591844558716,15.1019983291626,15.0452423095703,14.9889106750488,14.9330005645752,14.8775053024292,14.8224210739136,14.7677431106567,14.7134714126587,14.659610748291,14.6061420440674,14.5707750320435,14.5699625015259,14.5691499710083,14.5683374404907,14.5675249099731,14.362003326416,14.3109283447266,14.2602033615112,14.2098321914673,14.1598167419434,14.0426206588745,13.9935398101807,13.9447364807129,13.8962774276733,13.8482074737549,13.8004693984985,13.7530584335327,13.7059726715088,13.6592082977295,13.6127614974976,13.5666303634644
12.965648651123,12.9949407577515,13.0243654251099,13.0539236068726,13.0836172103882,13.1134452819824,13.1434097290039,13.173511505127,13.2037515640259,13.234130859375,13.2646503448486,13.2953109741211,13.3261137008667,13.3570585250854,13.3881483078003,13.4193830490112,13.4507637023926,13.482292175293,13.5139675140381,13.5457925796509,13.5777683258057,13.6098947525024,13.6421747207642,13.6746072769165,13.7071943283081,13.7399368286133,13.7728366851807,13.8058948516846,13.839111328125,13.8724880218506,13.90602684021,13.9397277832031,13.9735918045044,14.0005521774292,14.020414352417,14.0403318405151,14.0603075027466,14.0803394317627,14.1004276275635,14.1205739974976,14.1407785415649,14.1610403060913,14.181360244751,14.2017393112183,14.2221765518188,14.2426719665527,14.2632274627686,14.283842086792,14.304515838623,14.3252506256104,14.3460445404053,14.3668994903564,14.3878154754639,14.4087915420532,14.4298295974731,14.4509296417236,14.4720907211304,14.4933137893677,14.5145988464355,14.5359477996826,14.5573587417603,14.5788326263428,14.6003704071045,14.6219720840454,14.6436376571655,14.6653671264648,14.6883268356323,14.7200746536255,14.7519598007202,14.7839832305908,14.8161458969116,14.8484497070312,14.8808937072754,14.9134798049927,14.9462089538574,14.9790821075439,15.0121011734009,15.0452651977539,15.0785760879517,15.4474391937256,16.4499778747559,18.0941390991211,18.1627731323242,18.2319297790527,18.3016147613525,18.3718357086182,18.4425964355469,18.5139045715332,18.585765838623,18.6581878662109,18.7311763763428,18.8047370910645,18.8788795471191,18.9536075592041,19.0289306640625,19.1048526763916,19.1813850402832,19.2585334777832,19.3363037109375,19.4147052764893,19.9587364196777,0,0,0,0,0,0,0,0,0,0,0,0,0,0,0,0,0,0,0,0,0,0,0,0,0,0,0,0,0,0,0,0,0,0,0,0,0,0,0,0,0,0,0,0,0,0,0,0,0,0,0,0,0,0,0,0,0,0,0,0,0,0,0,0,0,0,0,0,0,0,0,0,0,0,0,0,0,0,0,0,0,0,0,0,0,0,0,0,0,0,0,0,0,0,0,0,0,0,0,0,0,0,0,0,0,0,0,0,0,0,0,0,0,0,0,0,0,0,0,0,0,0,0,0,0,0,0,0,0,0,0,0,0,0,0,0,0,0,0,0,0,0,0,0,0,0,0,0,0,0,0,0,0,0,0,0,0,0,0,0,0,0,0,0,0,0,0,0,16.536262512207,16.468240737915,16.4007759094238,16.3338623046875,16.2674922943115,16.20166015625,16.1363582611084,16.0715808868408,16.0073204040527,15.9435720443726,15.8803300857544,15.8175830841064,15.7553291320801,15.6935634613037,15.6322803497314,15.5714740753174,15.5111379623413,15.4512691497803,15.3918600082397,15.3329057693481,15.2744016647339,15.2163429260254,15.1587257385254,15.1015434265137,15.0447902679443,14.9884624481201,14.9325551986694,14.8770627975464,14.821982383728,14.7673072814941,14.7130365371704,14.6591787338257,14.6057138442993,14.6031932830811,14.6023769378662,14.6015605926514,14.4648656845093,14.413046836853,14.3615922927856,14.3105039596558,14.2597780227661,14.2094106674194,14.1593971252441,14.1097354888916,14.0604200363159,13.9443798065186,13.8959178924561,13.8478212356567,13.8000860214233,13.7526779174805,13.7055940628052,13.6588325500488,13.6123886108398,13.5662593841553
12.935453414917,12.9646091461182,12.9938974380493,13.0233173370361,13.0528707504272,13.082558631897,13.1123819351196,13.1423425674438,13.1724395751953,13.2026739120483,13.2330484390259,13.2635631561279,13.2942180633545,13.3250160217285,13.3559560775757,13.3870410919189,13.418270111084,13.4496459960938,13.4811687469482,13.5128393173218,13.5446586608887,13.5766286849976,13.6087503433228,13.6410236358643,13.673451423645,13.7060327529907,13.7387704849243,13.7716646194458,13.8047161102295,13.8379278182983,13.871298789978,13.9048309326172,13.9246025085449,13.9442501068115,13.9639520645142,13.9837102890015,14.0035238265991,14.0233936309814,14.0433206558228,14.0633039474487,14.0833444595337,14.1034421920776,14.1235971450806,14.1438102722168,14.164080619812,14.1844091415405,14.2047967910767,14.2252426147461,14.2457475662231,14.2663116455078,14.2869348526001,14.3076181411743,14.3283615112305,14.3491649627686,14.3700284957886,14.3909540176392,14.4119396209717,14.4329862594604,14.4540948867798,14.4752655029297,14.4964981079102,14.5177927017212,14.5391502380371,14.5605716705322,14.5820550918579,14.6036024093628,14.6252126693726,14.6468877792358,14.6770734786987,14.7087726593018,14.7406091690063,14.7725830078125,14.8046960830688,14.8369493484497,14.8693428039551,14.9018793106079,14.9345569610596,14.9673795700073,15.0003461837769,15.0334587097168,15.0667171478271,15.1605930328369,16.1250839233398,17.1015300750732,18.0106887817383,18.0786895751953,18.1472053527832,18.2162437438965,18.2858085632324,18.3559074401855,18.4265460968018,18.497730255127,18.569465637207,18.6417598724365,18.7146186828613,18.788049697876,18.862060546875,18.9366550445557,19.0118427276611,19.0876293182373,19.1640243530273,19.2410316467285,19.318660736084,19.3969173431396,19.4758129119873,0,0,0,0,0,0,0,0,0,0,0,0,0,0,0,0,0,0,0,0,0,0,0,0,0,0,0,0,0,0,0,0,0,0,0,0,0,0,0,0,0,0,0,0,0,0,0,0,0,0,0,0,0,0,0,0,0,0,0,0,0,0,0,0,0,0,0,0,0,0,0,0,0,0,0,0,0,0,0,0,0,0,0,0,0,0,0,0,0,0,0,0,0,0,0,0,0,0,0,0,0,0,0,0,0,0,0,0,0,0,0,0,0,0,0,0,0,0,0,0,0,0,0,0,0,0,0,0,0,0,0,0,0,0,0,0,0,0,0,0,0,0,0,0,0,0,0,0,0,0,0,0,0,0,0,0,0,0,0,0,0,0,0,0,16.535717010498,16.467700958252,16.400239944458,16.3333301544189,16.2669658660889,16.2011375427246,16.1358394622803,16.07106590271,16.0068092346191,15.9430656433105,15.8798274993896,15.8170890808105,15.754843711853,15.6930818557739,15.6318025588989,15.5709991455078,15.5106678009033,15.4508018493652,15.391396522522,15.3324460983276,15.2739448547363,15.2158889770508,15.1582727432251,15.1010913848877,15.0443391799927,14.9880142211914,14.9321098327637,14.8766212463379,14.8215436935425,14.7668724060059,14.7126026153564,14.6587467193604,14.6365756988525,14.6357564926147,14.6349363327026,14.5166397094727,14.4644384384155,14.4126119613647,14.3611612319946,14.3100757598877,14.259352684021,14.2089881896973,14.1589784622192,14.1093187332153,14.0600070953369,14.0110387802124,13.8955640792847,13.8474397659302,13.7997016906738,13.7522964477539,13.7052164077759,13.6584568023682,13.6120157241821,13.5658884048462
12.9053993225098,12.934419631958,12.9635705947876,12.9928531646729,13.0222692489624,13.0518178939819,13.0815010070801,13.1113195419312,13.1412744522095,13.1713666915894,13.2015972137451,13.2319660186768,13.2624759674072,13.2931261062622,13.3239183425903,13.3548536300659,13.3859329223633,13.4171571731567,13.4485273361206,13.4800453186035,13.5117101669312,13.5435247421265,13.5754899978638,13.6076059341431,13.639874458313,13.6722955703735,13.7048721313477,13.7376041412354,13.7704925537109,13.8035383224487,13.8300924301147,13.8494729995728,13.8689079284668,13.8883981704712,13.9079427719116,13.9275426864624,13.9471969604492,13.9669075012207,13.9866743087769,14.0064964294434,14.0263757705688,14.0463104248047,14.0663022994995,14.0863513946533,14.1064577102661,14.1266212463379,14.146842956543,14.167121887207,14.1874599456787,14.2078552246094,14.228310585022,14.2488241195679,14.2693967819214,14.2900295257568,14.3107213973999,14.3314743041992,14.3522863388062,14.3731594085693,14.3940935134888,14.4150886535645,14.4361448287964,14.4572620391846,14.4784421920776,14.4996843338013,14.5209884643555,14.5423555374146,14.5637855529785,14.5852785110474,14.6068353652954,14.6343231201172,14.6658372879028,14.6974878311157,14.7292747497559,14.7611999511719,14.7932634353638,14.8254671096802,14.8578109741211,14.8902959823608,14.922924041748,14.9556941986084,14.9886093139648,15.0216703414917,15.0548763275146,15.0882301330566,15.8127737045288,16.8464126586914,17.8611297607422,17.9280033111572,17.9953804016113,18.0632667541504,18.1316661834717,18.2005844116211,18.2700309753418,18.3400077819824,18.4105224609375,18.4815826416016,18.5531940460205,18.6253604888916,18.698091506958,18.7713928222656,18.845272064209,18.9197330474854,18.9947872161865,19.0704383850098,19.1466941833496,19.2235622406006,19.3010501861572,19.3791637420654,19.457914352417,0,0,0,0,0,0,0,0,0,0,0,0,0,0,0,0,0,0,0,0,0,0,0,0,0,0,0,0,0,0,0,0,0,0,0,0,0,0,0,0,0,0,0,0,0,0,0,0,0,0,0,0,0,0,0,0,0,0,0,0,0,0,0,0,0,0,0,0,0,0,0,0,0,0,0,0,0,0,0,0,0,0,0,0,0,0,0,0,0,0,0,0,0,0,0,0,0,0,0,0,0,0,0,0,0,0,0,0,0,0,0,0,0,0,0,0,0,0,0,0,0,0,0,0,0,0,0,0,0,0,0,0,0,0,0,0,0,0,0,0,0,0,0,0,0,0,0,0,0,0,0,0,0,0,0,0,0,0,0,0,16.5351734161377,16.4671592712402,16.3997039794922,16.332799911499,16.2664375305176,16.2006130218506,16.1353206634521,16.0705509185791,16.0062980651855,15.9425592422485,15.8793249130249,15.8165903091431,15.7543497085571,15.6925964355469,15.6313247680664,15.5705251693726,15.5101976394653,15.4503355026245,15.3909330368042,15.3319864273071,15.2734889984131,15.2154359817505,15.1578235626221,15.1006450653076,15.0438966751099,14.9875736236572,14.9316701889038,14.8761825561523,14.8211050033569,14.7664375305176,14.7121706008911,14.670111656189,14.6692876815796,14.6684646606445,14.6676406860352,14.5162172317505,14.4640188217163,14.4121942520142,14.3607406616211,14.3096523284912,14.2589282989502,14.2085666656494,14.15855884552,14.1089029312134,14.0595932006836,14.010627746582,13.9620018005371,13.926607131958,13.7993183135986,13.7519159317017,13.7048377990723,13.6580810546875,13.6116428375244,13.5655183792114
12.8754844665527,12.904369354248,12.933385848999,12.962532043457,12.9918098449707,13.0212211608887,13.0507650375366,13.0804433822632,13.1102571487427,13.1402072906494,13.1702947616577,13.2005195617676,13.230884552002,13.2613887786865,13.2920341491699,13.3228206634521,13.3537511825562,13.3848257064819,13.4160451889038,13.4474096298218,13.4789218902588,13.5105819702148,13.5423917770386,13.5743503570557,13.6064615249634,13.6387243270874,13.6711406707764,13.7037115097046,13.7364368438721,13.7559757232666,13.7751493453979,13.794376373291,13.8136568069458,13.8329925537109,13.8523807525635,13.8718242645264,13.8913221359253,13.9108753204346,13.9304828643799,13.9501466751099,13.9698657989502,13.9896402359009,14.0094709396362,14.0293579101562,14.0493021011353,14.0693025588989,14.0893592834473,14.1094741821289,14.1296463012695,14.1498765945435,14.1701650619507,14.1905107498169,14.2109155654907,14.2313795089722,14.2519016265869,14.2724838256836,14.2931251525879,14.3138265609741,14.3345880508423,14.3554096221924,14.3762912750244,14.397234916687,14.4182386398315,14.4393043518066,14.460431098938,14.4816198348999,14.5028715133667,14.5241851806641,14.5455617904663,14.5670013427734,14.5918216705322,14.6231527328491,14.6546182632446,14.6862201690674,14.7179594039917,14.7498350143433,14.7818489074707,14.8140029907227,14.8462963104248,14.8787307739258,14.9113082885742,14.9440279006958,14.9768915176392,15.0099000930786,15.0430545806885,15.0763559341431,15.5123310089111,16.5235862731934,17.7140331268311,17.7798099517822,17.8460750579834,17.9128360748291,17.9800987243652,18.0478687286377,18.1161518096924,18.1849517822266,18.2542781829834,18.3241348266602,18.3945274353027,18.4654636383057,18.5369491577148,18.6089897155762,18.6815929412842,18.7547664642334,18.8285121917725,18.9028434753418,18.97776222229,19.0532760620117,19.12939453125,19.2061233520508,19.2834701538086,19.361442565918,19.4400482177734,0,0,0,0,0,0,0,0,0,0,0,0,0,0,0,0,0,0,0,0,0,0,0,0,0,0,0,0,0,0,0,0,0,0,0,0,0,0,0,0,0,0,0,0,0,0,0,0,0,0,0,0,0,0,0,0,0,0,0,0,0,0,0,0,0,0,0,0,0,0,0,0,0,0,0,0,0,0,0,0,0,0,0,0,0,0,0,0,0,0,0,0,0,0,0,0,0,0,0,0,0,0,0,0,0,0,0,0,0,0,0,0,0,0,0,0,0,0,0,0,0,0,0,0,0,0,0,0,0,0,0,0,0,0,0,0,0,0,0,0,0,0,0,0,0,0,0,0,0,0,0,0,0,0,0,0,16.5346279144287,16.4666194915771,16.3991680145264,16.3322677612305,16.2659111022949,16.2000904083252,16.134801864624,16.0700359344482,16.0057888031006,15.9420528411865,15.8788223266602,15.8160915374756,15.7538547515869,15.6921052932739,15.630838394165,15.5700483322144,15.509726524353,15.4498682022095,15.3904695510864,15.3315267562866,15.2730331420898,15.2149839401245,15.157374382019,15.1001996994019,15.0434541702271,14.9871339797974,14.9312334060669,14.8757495880127,14.8206748962402,14.7660074234009,14.711742401123,14.6970291137695,14.6964311599731,14.6958332061768,14.5683965682983,14.5157947540283,14.4635992050171,14.4117784500122,14.3603267669678,14.3092422485352,14.2585191726685,14.2081546783447,14.1581449508667,14.1084871292114,14.0591802597046,14.010217666626,13.961594581604,13.9133081436157,13.8913259506226,13.751537322998,13.704460144043,13.6577053070068,13.6112689971924,13.5651473999023
12.8457069396973,12.8744592666626,12.9033403396606,12.93235206604,12.9614934921265,12.9907665252686,13.0201730728149,13.0497121810913,13.0793857574463,13.1091947555542,13.1391401290894,13.1692228317261,13.1994428634644,13.2298021316528,13.2603015899658,13.2909421920776,13.3217239379883,13.3526496887207,13.3837184906006,13.4149322509766,13.4462919235229,13.4777994155884,13.5094537734985,13.5412578582764,13.5732116699219,13.6053171157837,13.6375741958618,13.6637334823608,13.6826505661011,13.7016191482544,13.7206420898438,13.7397165298462,13.7588443756104,13.7780265808105,13.7972612380981,13.8165502548218,13.8358926773071,13.8552904129028,13.8747415542603,13.894248008728,13.9138088226318,13.933424949646,13.9530963897705,13.9728240966797,13.9926071166992,14.0124464035034,14.0323419570923,14.0522937774658,14.0723028182983,14.0923690795898,14.1124925613403,14.1326732635498,14.1529121398926,14.1732091903687,14.1935634613037,14.2139778137207,14.234450340271,14.2549810409546,14.2755718231201,14.2962226867676,14.3169326782227,14.3377027511597,14.3585338592529,14.3794250488281,14.4003772735596,14.4213905334473,14.4424648284912,14.4636011123657,14.4847993850708,14.5060596466064,14.527382850647,14.5495653152466,14.5807151794434,14.6119985580444,14.6434173583984,14.6749706268311,14.7066602706909,14.7384872436523,14.7704524993896,14.8025560379028,14.8347997665405,14.8671846389771,14.8997106552124,14.9323797225952,14.9651918411255,14.9981489181519,15.0312519073486,15.0645008087158,15.2230930328369,16.1958065032959,17.2475261688232,17.6340446472168,17.6992263793945,17.7648906707764,17.8310451507568,17.8976936340332,17.96484375,18.0324974060059,18.1006641387939,18.1693477630615,18.2385540008545,18.3082904815674,18.3785610198975,18.4493732452393,18.5207347869873,18.5926494598389,18.6651248931885,18.738166809082,18.8117847442627,18.8859806060791,18.960765838623,19.0361461639404,19.1121273040771,19.1887168884277,19.2659244537354,19.3437538146973,19.4222164154053,19.9902191162109,19.9918231964111,19.99342918396,19.9950332641602,19.9966373443604,19.9982414245605,19.9998474121094,0,0,0,0,0,0,0,0,0,0,0,0,0,0,0,0,0,0,0,0,0,0,0,0,0,0,0,0,0,0,0,0,0,0,0,0,0,0,0,0,0,0,0,0,0,0,0,0,0,0,0,0,0,0,0,0,0,0,0,0,0,0,0,0,0,0,0,0,0,0,0,0,0,0,0,0,0,0,0,0,0,0,0,0,0,0,0,0,0,0,0,0,0,0,0,0,0,0,0,0,0,0,0,0,0,0,0,0,0,0,0,0,0,0,0,0,0,0,0,0,0,0,0,0,0,0,0,0,0,0,0,0,0,0,0,0,0,0,0,0,0,0,0,0,0,16.5340824127197,16.4660797119141,16.3986320495605,16.3317356109619,16.2653827667236,16.1995677947998,16.1342830657959,16.0695209503174,16.005277633667,15.9415454864502,15.8783197402954,15.8155927658081,15.7533597946167,15.6916151046753,15.6303520202637,15.5695648193359,15.5092496871948,15.4493999481201,15.3900060653687,15.3310670852661,15.2725763320923,15.2145309448242,15.156925201416,15.0997533798218,15.0430116653442,14.9866943359375,14.9307975769043,14.875316619873,14.8202457427979,14.7655811309814,14.7113189697266,14.7085628509521,14.7079658508301,14.6209087371826,14.5679626464844,14.5153722763062,14.4631795883179,14.4113616943359,14.3599138259888,14.3088312149048,14.2581119537354,14.2077503204346,14.1577425003052,14.1080865859985,14.0587778091431,14.0098114013672,13.9611873626709,13.9129028320312,13.8649520874023,13.7511796951294,13.7040987014771,13.6573400497437,13.6108980178833,13.5647764205933
12.8160676956177,12.844687461853,12.8734350204468,12.9023113250732,12.9313182830811,12.9604549407959,12.9897241592407,13.0191249847412,13.048659324646,13.0783290863037,13.1081323623657,13.1380729675293,13.1681509017944,13.1983661651611,13.228720664978,13.2592144012451,13.2898502349854,13.3206272125244,13.3515472412109,13.3826112747192,13.4138202667236,13.4451751708984,13.4766759872437,13.5083255767822,13.5401248931885,13.5720729827881,13.5913848876953,13.6101016998291,13.628870010376,13.6476907730103,13.6665630340576,13.6854887008667,13.7044658660889,13.7234954833984,13.7425785064697,13.7617149353027,13.7809038162231,13.8001470565796,13.8194437026978,13.838794708252,13.8582000732422,13.8776597976685,13.8971738815308,13.9167432785034,13.9363679885864,13.9560480117798,13.9757833480835,13.9955749511719,14.0154228210449,14.0353269577026,14.055287361145,14.0753049850464,14.0953798294067,14.1155118942261,14.1357011795044,14.155948638916,14.1762542724609,14.1966180801392,14.2170400619507,14.2375221252441,14.2580623626709,14.2786617279053,14.2993211746216,14.3200397491455,14.3408193588257,14.3616590499878,14.3825597763062,14.4035205841064,14.4245433807373,14.4456272125244,14.4667730331421,14.487979888916,14.5092506408691,14.5385236740112,14.5696258544922,14.6008625030518,14.6322326660156,14.6637372970581,14.6953783035278,14.7271566390991,14.759072303772,14.791127204895,14.8233213424683,14.855655670166,14.8881311416626,14.9207496643066,14.9535102844238,14.9864158630371,15.0194664001465,15.0526638031006,15.0860071182251,15.8807783126831,16.9422874450684,17.490650177002,17.5547733306885,17.6193695068359,17.6844425201416,17.7499980926514,17.8160419464111,17.8825778961182,17.949613571167,18.0171527862549,18.0852031707764,18.1537685394287,18.2228565216064,18.2924728393555,18.362621307373,18.4333114624023,18.5045471191406,18.5763359069824,18.6486854553223,18.7215976715088,18.7950839996338,18.8691501617432,18.9438018798828,19.0190467834473,19.0948905944824,19.1713428497314,19.2484092712402,19.3260974884033,19.4044151306152,19.4833717346191,19.7894458770752,19.7910175323486,19.7925891876221,19.7941589355469,19.7957324981689,19.797306060791,19.7988777160645,19.8004512786865,19.8020267486572,19.8035984039307,19.8051738739014,19.8067493438721,19.8083209991455,19.8098964691162,19.8114719390869,19.8130493164062,19.8146228790283,19.816198348999,19.817777633667,19.8193492889404,19.8209247589111,19.8225040435791,19.8240814208984,19.8256568908691,19.8272361755371,19.8288154602051,19.8303928375244,19.8319683074951,19.8335475921631,19.8351268768311,19.836706161499,19.838285446167,19.839864730835,19.8414421081543,19.8430233001709,19.8446044921875,19.8461856842041,19.8477649688721,19.84934425354,19.8509292602539,19.8525085449219,19.8540916442871,19.8556728363037,19.8572559356689,19.8588371276855,19.8604202270508,19.862003326416,19.8635845184326,19.8651695251465,19.866756439209,19.8683395385742,19.8699226379395,19.8715057373047,19.8730926513672,19.8746757507324,19.8762626647949,19.8778476715088,19.879430770874,19.8810195922852,19.882604598999,19.8841934204102,19.8857765197754,19.8873672485352,19.8889541625977,19.8905410766602,19.8921298980713,19.8937168121338,19.8953075408936,19.8968944549561,19.8984832763672,19.9000720977783,19.9016609191895,19.9032497406006,19.9048404693604,19.9064311981201,19.9080200195312,19.909610748291,19.9112033843994,19.9127941131592,19.9143848419189,19.9159755706787,19.9175701141357,19.9191589355469,19.9207534790039,19.9223480224609,19.9239368438721,19.9255294799805,19.9271259307861,19.9287223815918,19.9303112030029,19.9319076538086,19.9335021972656,19.9350967407227,19.9366893768311,19.9382858276367,19.9398822784424,19.9414768218994,19.9430732727051,19.9446697235107,19.9462661743164,19.9478645324707,19.9494590759277,19.9510555267334,19.9526538848877,19.954252243042,19.9558486938477,19.957447052002,19.9590473175049,19.9606456756592,19.9622459411621,19.9638423919678,19.9654445648193,19.9670448303223,19.9686450958252,19.9702434539795,19.9718456268311,19.973445892334,19.9750461578369,19.9766464233398,19.97825050354,19.9798488616943,19.9814548492432,19.9830551147461,19.9846572875977,19.9862613677979,19.9878673553467,19.9894676208496,19.9910717010498,19.99267578125,19.9942798614502,19.9958820343018,19.9974880218506,19.999095916748,0,0,0,0,0,0,0,0,0,0,0,0,0,0,16.5335369110107,16.4655380249023,16.3980960845947,16.3312034606934,16.264856338501,16.1990451812744,16.1337642669678,16.0690059661865,16.0047664642334,15.9410390853882,15.8778171539307,15.8150939941406,15.7528657913208,15.6911239624023,15.629864692688,15.5690822601318,15.5087699890137,15.4489240646362,15.3895378112793,15.3306064605713,15.272120475769,15.2140779495239,15.156476020813,15.099308013916,15.0425691604614,14.986255645752,14.9303617477417,14.8748836517334,14.8198165893555,14.765154838562,14.7207117080688,14.7201147079468,14.7195167541504,14.6205101013184,14.5675287246704,14.514949798584,14.462760925293,14.410945892334,14.3594999313354,14.3084211349487,14.2577037811279,14.2073450088501,14.157341003418,14.1076879501343,14.0583810806274,14.0094184875488,13.9607954025269,13.9125080108643,13.8645544052124,13.8213691711426,13.703742980957,13.6569862365723,13.6105470657349,13.5644235610962
12.7865648269653,12.815052986145,12.8436679840088,12.872410774231,12.9012823104858,12.9302845001221,12.9594173431396,12.9886808395386,13.0180778503418,13.047607421875,13.0772714614868,13.1070709228516,13.1370067596436,13.1670789718628,13.1972894668579,13.2276391983032,13.2581281661987,13.2887582778931,13.3195304870605,13.3504457473755,13.3815040588379,13.4127082824707,13.4440574645996,13.4755535125732,13.5013284683228,13.5197982788086,13.5383186340332,13.5568895339966,13.575511932373,13.5941848754883,13.6129093170166,13.6316862106323,13.6505146026611,13.6693954467773,13.6883277893066,13.7073125839233,13.7263507843018,13.7454414367676,13.7645854949951,13.7837829589844,13.8030347824097,13.8223390579224,13.8416986465454,13.8611116409302,13.8805799484253,13.9001026153564,13.9196796417236,13.9393129348755,13.9590005874634,13.9787454605103,13.9985446929932,14.0184011459351,14.0383138656616,14.0582828521729,14.0783090591431,14.0983915328979,14.1185321807861,14.1387310028076,14.1589870452881,14.1793012619019,14.1996736526489,14.2201042175293,14.2405948638916,14.2611436843872,14.2817525863647,14.3024206161499,14.323148727417,14.343936920166,14.3647861480713,14.3856954574585,14.406665802002,14.4276971817017,14.4487905502319,14.4699459075928,14.4965753555298,14.5274982452393,14.5585536956787,14.5897426605225,14.6210641860962,14.6525220870972,14.6841144561768,14.7158441543579,14.7477102279663,14.7797155380249,14.8118600845337,14.8441438674927,14.8765697479248,14.9091367721558,14.9418468475342,14.9747018814087,15.0076999664307,15.0408449172974,15.0741367340088,15.5777711868286,16.5978565216064,17.3495693206787,17.4126605987549,17.4762134552002,17.5402317047119,17.6047191619873,17.6696834564209,17.7351303100586,17.801061630249,17.8674869537354,17.9344081878662,18.0018348693848,18.0697689056396,18.1382160186768,18.2071857452393,18.2766819000244,18.3467102050781,18.4172763824463,18.4883899688721,18.5600528717041,18.6322727203369,18.7050590515137,18.7784156799316,18.8523483276367,18.9268665313721,19.0019760131836,19.0776844024658,19.1539993286133,19.2309265136719,19.3084735870361,19.3866481781006,19.4654598236084,19.5911235809326,19.5926609039307,19.5942039489746,19.5957450866699,19.5972862243652,19.5988254547119,19.6003665924072,19.6019096374512,19.6034507751465,19.6049957275391,19.6065368652344,19.6080780029297,19.6096248626709,19.6111660003662,19.6127090454102,19.6142539978027,19.6157970428467,19.6173419952393,19.6188850402832,19.6204319000244,19.621976852417,19.6235198974609,19.6250667572021,19.6266136169434,19.6281604766846,19.6297035217285,19.6312503814697,19.6327972412109,19.6343460083008,19.6358909606934,19.6374378204346,19.638988494873,19.6405353546143,19.6420841217041,19.6436309814453,19.6451816558838,19.646728515625,19.6482791900635,19.6498260498047,19.6513748168945,19.6529273986816,19.6544761657715,19.65602684021,19.6575775146484,19.6591281890869,19.6606788635254,19.6622295379639,19.6637840270996,19.6653366088867,19.6668872833252,19.6684379577637,19.6699924468994,19.6715450286865,19.673095703125,19.6746501922607,19.6762065887451,19.6777572631836,19.6793117523193,19.6808662414551,19.6824207305908,19.6839752197266,19.6855316162109,19.6870861053467,19.6886405944824,19.6901969909668,19.6917533874512,19.6933097839355,19.6948661804199,19.6964225769043,19.6979808807373,19.699535369873,19.7010955810547,19.7026519775391,19.7042121887207,19.7057666778564,19.7073268890381,19.7088851928711,19.7104434967041,19.7120018005371,19.7135639190674,19.715124130249,19.716682434082,19.7182426452637,19.7198047637939,19.721363067627,19.7229251861572,19.7244853973389,19.7260475158691,19.7276096343994,19.7291717529297,19.73073387146,19.7322940826416,19.7338562011719,19.7354221343994,19.7369861602783,19.73854637146,19.7401123046875,19.7416763305664,19.743236541748,19.7448024749756,19.7463684082031,19.7479362487793,19.7494983673096,19.7510623931885,19.7526302337646,19.7541942596436,19.7557601928711,19.7573280334473,19.7588939666748,19.760461807251,19.7620296478271,19.7635955810547,19.7651615142822,19.766731262207,19.7683029174805,19.7698669433594,19.7714366912842,19.773006439209,19.7745780944824,19.7761421203613,19.7777137756348,19.7792854309082,19.780855178833,19.7824249267578,19.7839946746826,19.7855663299561,19.7871360778809,19.7887058258057,19.7902793884277,19.7918510437012,19.7934246063232,19.7949962615967,19.7965698242188,19.7981414794922,19.7997150421143,19.8012886047363,19.8028602600098,19.8044357299805,19.8060111999512,19.8075847625732,19.8091583251953,19.810733795166,19.8123073577881,16.5329933166504,16.4649982452393,16.3975601196289,16.3306732177734,16.2643280029297,16.1985206604004,16.1332454681396,16.0684909820557,16.0042572021484,15.9405326843262,15.8773145675659,15.8145961761475,15.7523708343506,15.6906328201294,15.6293773651123,15.5685987472534,15.5082912445068,15.4484481811523,15.3890657424927,15.3301372528076,15.2716588973999,15.2136259078979,15.1560258865356,15.0988616943359,15.0421266555786,14.9858160018921,14.9299259185791,14.8744506835938,14.8193864822388,14.7647285461426,14.7322835922241,14.7316846847534,14.7310857772827,14.6200895309448,14.5670938491821,14.5145273208618,14.4623413085938,14.4105291366577,14.3590869903564,14.3080110549927,14.2572965621948,14.2069406509399,14.1569395065308,14.1072883605957,14.0579853057861,14.0090246200562,13.9604043960571,13.9121198654175,13.8641691207886,13.8165502548218,13.703387260437,13.6566324234009,13.6101961135864,13.5640745162964
12.7571973800659,12.7855548858643,12.814037322998,12.8426485061646,12.8713865280151,12.9002542495728,12.9292507171631,12.9583787918091,12.9876384735107,13.0170297622681,13.046555519104,13.0762147903442,13.1060094833374,13.1359395980835,13.1660070419312,13.1962127685547,13.2265577316284,13.2570419311523,13.2876672744751,13.3184337615967,13.34934425354,13.3803977966309,13.4115962982178,13.430685043335,13.4489622116089,13.4672889709473,13.4856653213501,13.5040922164917,13.5225696563721,13.5410976409912,13.5596761703491,13.5783052444458,13.5969867706299,13.6157197952271,13.634503364563,13.6533393859863,13.6722278594971,13.6911678314209,13.7101612091064,13.7292070388794,13.7483062744141,13.7674579620361,13.7866640090942,13.8059225082397,13.8252363204956,13.8446025848389,13.8640241622925,13.8835000991821,13.9030313491821,13.9226169586182,13.9422588348389,13.9619550704956,13.981707572937,14.0015153884888,14.0213804244995,14.0413007736206,14.061279296875,14.0813131332397,14.1014051437378,14.1215543746948,14.1417617797852,14.1620264053345,14.1823492050171,14.202730178833,14.2231702804565,14.2436695098877,14.2642269134521,14.2848443984985,14.3055219650269,14.3262596130371,14.347056388855,14.3679141998291,14.3888330459595,14.4098119735718,14.4308528900146,14.4548683166504,14.485613822937,14.516489982605,14.5474987030029,14.5786390304565,14.6099138259888,14.6413230895996,14.6728677749634,14.7045478820801,14.7363662719727,14.7683219909668,14.8004159927368,14.8326511383057,14.865026473999,14.8975429534912,14.9302024841309,14.963005065918,14.9959526062012,15.0290451049805,15.0622844696045,15.2861099243164,16.2671527862549,17.1392307281494,17.2150230407715,17.364185333252,17.4253349304199,17.4869174957275,17.5489368438721,17.6113986968994,17.6743049621582,17.737663269043,17.801477432251,17.8657531738281,17.9304943084717,17.9957046508789,18.061393737793,18.1275615692139,18.1942176818848,18.2613658905029,18.3308258056641,18.4012699127197,18.4722595214844,18.5437965393066,18.6158905029297,18.688549041748,18.7617740631104,18.8355770111084,18.9099636077881,18.9849376678467,19.060510635376,19.1366863250732,19.2134742736816,19.2908802032471,19.3689136505127,19.395227432251,19.3967361450195,19.3982448577881,19.3997554779053,19.4012641906738,19.4027767181396,19.4042873382568,19.4057998657227,19.4073104858398,19.408821105957,19.4103355407715,19.41184425354,19.4133586883545,19.4148712158203,19.4163856506348,19.4178943634033,19.4194107055664,19.4209232330322,19.4224376678467,19.4239501953125,19.425464630127,19.42698097229,19.4284934997559,19.4300098419189,19.4315242767334,19.4330387115479,19.4345569610596,19.4360694885254,19.4375896453857,19.4391040802002,19.4406204223633,19.4421367645264,19.4436531066895,19.4451732635498,19.4466896057129,19.4482078552246,19.4497222900391,19.4512424468994,19.4527606964111,19.4542789459229,19.4557971954346,19.4573192596436,19.4588394165039,19.4603538513184,19.4618759155273,19.4633979797363,19.4649181365967,19.466438293457,19.4679584503174,19.4694786071777,19.4710006713867,19.4725227355957,19.4740447998047,19.4755668640137,19.4770908355713,19.4786109924316,19.4801330566406,19.4816551208496,19.4831809997559,19.4847030639648,19.4862270355225,19.4877510070801,19.4892768859863,19.4907989501953,19.4923229217529,19.4938507080078,19.4953765869141,19.496898651123,19.4984264373779,19.4999504089355,19.5014762878418,19.5030040740967,19.5045299530029,19.5060577392578,19.5075836181641,19.5091133117676,19.5106410980225,19.5121669769287,19.5136947631836,19.5152244567871,19.516752243042,19.5182819366455,19.5198097229004,19.5213394165039,19.5228652954102,19.5243968963623,19.5259265899658,19.527458190918,19.5289859771729,19.530517578125,19.5320510864258,19.5335807800293,19.5351123809814,19.5366439819336,19.5381755828857,19.5397071838379,19.54123878479,19.5427742004395,19.544303894043,19.5458393096924,19.5473709106445,19.5489044189453,19.5504360198975,19.5519733428955,19.5535049438477,19.5550384521484,19.5565757751465,19.5581111907959,19.5596446990967,19.5611801147461,19.5627174377441,19.5642547607422,19.565788269043,19.5673236846924,19.5688610076904,19.5703964233398,19.5719375610352,19.5734710693359,19.5750122070312,19.5765476226807,19.578088760376,19.579626083374,19.5811614990234,19.5827026367188,19.5842437744141,19.5857810974121,19.5873184204102,19.5888595581055,19.5904006958008,19.5919380187988,19.5934791564941,19.5950222015381,19.5965633392334,19.5981006622314,19.5996437072754,19.6011867523193,19.6027278900146,19.6042709350586,19.6058120727539,19.6073570251465,16.5324478149414,16.4644584655762,16.3970241546631,16.3301410675049,16.263801574707,16.197998046875,16.1327266693115,16.0679779052734,16.0037460327148,15.9400262832642,15.8768119812012,15.81409740448,15.7518758773804,15.6901426315308,15.6288909912109,15.5681161880493,15.5078115463257,15.4479722976685,15.3885936737061,15.3296689987183,15.2711944580078,15.2131643295288,15.1555728912354,15.0984163284302,15.0416841506958,14.9853773117065,14.9294900894165,14.8740186691284,14.8189573287964,14.7643022537231,14.7438726425171,14.7432727813721,14.6729974746704,14.6196527481079,14.5666656494141,14.5141048431396,14.4619216918945,14.4101133346558,14.3586740493774,14.3076000213623,14.2568893432617,14.2065362930298,14.1565380096436,14.1068897247314,14.0575885772705,14.0086317062378,13.9600133895874,13.911732673645,13.8637866973877,13.8161697387695,13.703031539917,13.6562795639038,13.609845161438,13.5637264251709
12.7279644012451,12.7561912536621,12.7845439910889,12.8130226135254,12.8416290283203,12.8703622817993,12.8992252349854,12.9282178878784,12.9573411941528,12.9865961074829,13.0159826278687,13.045503616333,13.0751581192017,13.1049470901489,13.1348733901978,13.1649360656738,13.1951370239258,13.2254762649536,13.255955696106,13.2865762710571,13.3173379898071,13.3427391052246,13.3607769012451,13.3788642883301,13.3970003128052,13.4151849746704,13.4334201812744,13.4517040252686,13.4700384140015,13.4884223937988,13.506856918335,13.5253410339355,13.5438766479492,13.562463760376,13.5811004638672,13.5997896194458,13.6185302734375,13.637321472168,13.6561651229858,13.6750612258911,13.6940097808838,13.7130107879639,13.7320652008057,13.7511720657349,13.7703313827515,13.7895450592041,13.8088121414185,13.8281335830688,13.847508430481,13.8669385910034,13.8864231109619,13.9059619903564,13.9255561828613,13.9452056884766,13.9649105072021,13.9846706390381,14.004487991333,14.0243606567383,14.0442905426025,14.0642766952515,14.0843191146851,14.104419708252,14.1245775222778,14.144793510437,14.1650667190552,14.1853981018066,14.2057886123657,14.2262372970581,14.2467451095581,14.2673120498657,14.287938117981,14.3086242675781,14.3293704986572,14.3501768112183,14.3710441589355,14.3919715881348,14.4134006500244,14.4439697265625,14.4746685028076,14.5054979324341,14.5364599227905,14.5675535202026,14.598780632019,14.6301412582397,14.6616382598877,14.6932697296143,14.7250385284424,14.7569456100464,14.7889909744263,14.8211755752563,14.8535003662109,14.8859672546387,14.9185752868652,14.9513273239136,14.9842233657837,15.0172643661499,15.0504512786865,15.0837850570679,15.9493703842163,16.9239196777344,16.9978160858154,17.0723609924316,17.1475620269775,17.3819236755371,17.4431991577148,17.5049076080322,17.5670547485352,17.6296443939209,17.6926822662354,17.7561740875244,17.8201217651367,17.8845310211182,17.9494075775146,18.0147571563721,18.0805854797363,18.1468944549561,18.2136936187744,18.28098487854,18.3487758636475,18.4170703887939,18.485876083374,18.5551986694336,18.6250419616699,18.6954135894775,18.7663192749023,18.8377628326416,18.9097537994385,18.9822978973389,19.0554008483887,19.1290683746338,19.2002468109131,19.2017288208008,19.2032070159912,19.2046871185303,19.206169128418,19.2076511383057,19.2091274261475,19.2106094360352,19.2120914459229,19.2135753631592,19.215051651001,19.2165374755859,19.2180194854736,19.2194995880127,19.220983505249,19.2224655151367,19.2239513397217,19.2254314422607,19.2269172668457,19.2283992767334,19.2298831939697,19.2313690185547,19.232852935791,19.2343368530273,19.2358207702637,19.2373046875,19.2387943267822,19.2402744293213,19.2417602539062,19.2432498931885,19.2447357177734,19.2462215423584,19.2477054595947,19.249195098877,19.2506809234619,19.2521667480469,19.2536563873291,19.2551460266113,19.2566318511963,19.2581195831299,19.2596092224121,19.2610950469971,19.2625865936279,19.2640762329102,19.2655658721924,19.267053604126,19.2685432434082,19.2700328826904,19.2715225219727,19.2730140686035,19.2745056152344,19.2759952545166,19.2774868011475,19.2789783477783,19.2804718017578,19.2819595336914,19.2834548950195,19.284948348999,19.2864379882812,19.2879314422607,19.2894268035889,19.2909202575684,19.2924137115479,19.2939071655273,19.2953987121582,19.2968921661377,19.2983894348145,19.2998828887939,19.3013782501221,19.3028717041016,19.3043689727783,19.3058662414551,19.3073616027832,19.3088550567627,19.3103542327881,19.3118515014648,19.3133449554443,19.3148441314697,19.3163414001465,19.3178386688232,19.3193340301514,19.3208332061768,19.3223323822021,19.3238315582275,19.3253269195557,19.3268280029297,19.3283271789551,19.3298263549805,19.3313255310059,19.3328266143799,19.3343257904053,19.3358268737793,19.3373260498047,19.3388271331787,19.3403282165527,19.3418312072754,19.3433303833008,19.3448314666748,19.3463363647461,19.3478374481201,19.3493366241455,19.3508396148682,19.3523445129395,19.3538475036621,19.3553485870361,19.3568534851074,19.3583583831787,19.3598594665527,19.361364364624,19.3628711700439,19.364372253418,19.3658809661865,19.3673858642578,19.3688888549805,19.3703937530518,19.3719024658203,19.3734073638916,19.3749122619629,19.3764190673828,19.3779277801514,19.3794384002686,19.3809413909912,19.3824501037598,19.3839588165283,19.3854656219482,19.3869743347168,19.3884811401367,19.3899898529053,19.3915004730225,19.3930072784424,19.3945178985596,19.3960266113281,19.3975372314453,19.3990459442139,19.4005603790283,19.4020690917969,19.4035797119141,19.4050903320312,19.4066009521484,16.5319023132324,16.4639167785645,16.3964881896973,16.3296089172363,16.2632732391357,16.1974754333496,16.1322059631348,16.0674629211426,16.0032348632812,15.9395198822021,15.8763093948364,15.8135986328125,15.7513818740845,15.6896514892578,15.6284036636353,15.5676326751709,15.5073318481445,15.4474964141846,15.3881216049194,15.3292007446289,15.2707300186157,15.2127027511597,15.1551151275635,15.0979623794556,15.04123878479,14.9849376678467,14.9290542602539,14.8735857009888,14.8185272216797,14.7638759613037,14.7554798126221,14.7548789978027,14.6725912094116,14.6192150115967,14.5662403106689,14.5136823654175,14.4615030288696,14.4096965789795,14.3582601547241,14.3071899414062,14.2564821243286,14.2061319351196,14.156135559082,14.1064910888672,14.0571928024292,14.0082378387451,13.959623336792,13.9113464355469,13.8634033203125,13.8157901763916,13.7685289382935,13.6559257507324,13.6094942092896,13.5633773803711
12.6988658905029,12.7269630432129,12.7551860809326,12.7835340499878,12.8120079040527,12.8406095504761,12.8693389892578,12.8981971740723,12.9271850585938,12.9563035964966,12.9855537414551,13.0149354934692,13.044451713562,13.0741014480591,13.1038856506348,13.133807182312,13.1638650894165,13.1940603256226,13.2243947982788,13.2548694610596,13.2737417221069,13.2915935516357,13.3094930648804,13.3274421691895,13.34543800354,13.3634834289551,13.3815774917603,13.3997211456299,13.4179134368896,13.4361553192139,13.4544477462769,13.47278881073,13.4911804199219,13.5096225738525,13.528115272522,13.5466575622559,13.5652523040771,13.5838966369629,13.602593421936,13.6213417053223,13.6401414871216,13.658992767334,13.6778964996338,13.696852684021,13.7158622741699,13.7349233627319,13.7540378570557,13.7732067108154,13.7924280166626,13.8117027282715,13.8310327529907,13.8504161834717,13.8698539733887,13.8893461227417,13.9088935852051,13.9284954071045,13.9481534957886,13.967866897583,13.9876356124878,14.0074605941772,14.0273427963257,14.0472803115845,14.0672750473022,14.087327003479,14.1074361801147,14.1276025772095,14.1478261947632,14.1681089401245,14.1884489059448,14.2088479995728,14.229305267334,14.2498216629028,14.2703981399536,14.2910327911377,14.311728477478,14.332483291626,14.3532991409302,14.3741750717163,14.4025650024414,14.433087348938,14.4637403488159,14.4945230484009,14.5254373550415,14.5564842224121,14.5876636505127,14.6189775466919,14.6504249572754,14.6820087432861,14.7137289047241,14.7455863952637,14.7775821685791,14.8097171783447,14.8419923782349,14.8744087219238,14.9069662094116,14.9396677017212,14.9725122451782,15.005500793457,15.0386362075806,15.0719175338745,15.6437644958496,16.6727981567383,16.7860221862793,16.8587169647217,16.9320449829102,17.0060119628906,17.0806293487549,17.3996963500977,17.4610977172852,17.5229339599609,17.5852108001709,17.6479301452637,17.7110996246338,17.7747211456299,17.8388023376465,17.9033489227295,17.9683628082275,18.0338497161865,18.099817276001,18.1662693023682,18.2332096099854,18.3006458282471,18.3685836791992,18.4370250701904,18.5059814453125,18.5754547119141,18.645450592041,18.7159767150879,18.7870388031006,18.8586406707764,18.9307918548584,19.0034980773926,19.0106029510498,19.0120525360107,19.0135040283203,19.0149574279785,19.0164070129395,19.017858505249,19.0193099975586,19.0207614898682,19.0222148895264,19.0236663818359,19.0251178741455,19.0265693664551,19.0280246734619,19.0294780731201,19.0309276580811,19.0323829650879,19.0338382720947,19.0352935791016,19.0367431640625,19.038200378418,19.0396556854248,19.0411109924316,19.0425643920898,19.0440216064453,19.0454788208008,19.046932220459,19.0483875274658,19.0498428344727,19.0513000488281,19.0527572631836,19.0542125701904,19.0556697845459,19.0571269989014,19.0585861206055,19.0600433349609,19.0615005493164,19.0629596710205,19.0644187927246,19.0658760070801,19.0673332214355,19.0687923431396,19.0702571868896,19.0717124938965,19.0731735229492,19.0746326446533,19.0760955810547,19.0775527954102,19.0790138244629,19.0804748535156,19.0819339752197,19.0833969116211,19.0848598480225,19.0863189697266,19.0877819061279,19.0892448425293,19.090705871582,19.092170715332,19.0936336517334,19.0950946807861,19.0965576171875,19.0980243682861,19.0994892120361,19.1009502410889,19.1024150848389,19.1038780212402,19.1053447723389,19.1068096160889,19.1082744598389,19.1097412109375,19.1112079620361,19.1126708984375,19.1141376495361,19.1156044006348,19.1170692443848,19.1185359954834,19.1200046539307,19.1214694976807,19.1229381561279,19.1244068145752,19.1258754730225,19.1273403167725,19.1288108825684,19.1302795410156,19.1317481994629,19.1332149505615,19.1346855163574,19.1361560821533,19.137622833252,19.1390953063965,19.1405658721924,19.1420364379883,19.1435050964355,19.1449775695801,19.146448135376,19.1479187011719,19.1493873596191,19.1508617401123,19.1523342132568,19.1538066864014,19.1552772521973,19.1567516326904,19.1582221984863,19.1596965789795,19.161169052124,19.1626434326172,19.1641159057617,19.1655921936035,19.167064666748,19.1685409545898,19.170015335083,19.1714916229248,19.1729621887207,19.1744384765625,19.1759166717529,19.1773910522461,19.1788673400879,19.1803436279297,19.1818199157715,19.1832962036133,19.1847743988037,19.1862506866455,19.1877307891846,19.1892051696777,19.1906814575195,19.1921615600586,19.1936378479004,19.1951179504395,19.1965980529785,19.1980762481689,19.1995544433594,19.2010345458984,19.2025165557861,19.2039928436279,19.205472946167,19.2069549560547,19.2084350585938,19.2099151611328,16.5313587188721,16.4633769989014,16.3959522247314,16.3290786743164,16.2627468109131,16.1969528198242,16.1316890716553,16.0669479370117,16.0027256011963,15.9390134811401,15.875807762146,15.8131008148193,15.7508869171143,15.6891613006592,15.6279172897339,15.5671501159668,15.5068521499634,15.447021484375,15.3876495361328,15.3287324905396,15.2702646255493,15.2122421264648,15.1546573638916,15.097508430481,15.0407876968384,14.9844923019409,14.9286165237427,14.8731527328491,14.8180980682373,14.7677068710327,14.7671051025391,14.7665042877197,14.6721506118774,14.6187772750854,14.5658149719238,14.5132608413696,14.4610834121704,14.4092807769775,14.3578472137451,14.3067798614502,14.2560739517212,14.2057266235352,14.1557340621948,14.1060914993286,14.0567960739136,14.0078449249268,13.9592342376709,13.910961151123,13.8630208969116,13.8154096603394,13.7681522369385,13.6555728912354,13.6091442108154,13.5630292892456
12.6698989868164,12.6978693008423,12.725962638855,12.7541799545288,12.7825241088867,12.8109931945801,12.8395900726318,12.8683156967163,12.8971691131592,12.9261522293091,12.9552659988403,12.9845113754272,13.0138893127441,13.043399810791,13.0730447769165,13.1028251647949,13.1327409744263,13.1627941131592,13.1878328323364,13.2054538726807,13.2231225967407,13.2408380508423,13.2586011886597,13.2764129638672,13.2942714691162,13.3121786117554,13.3301343917847,13.3481388092041,13.3661909103394,13.3842926025391,13.4024429321289,13.4206428527832,13.438892364502,13.4571914672852,13.4755411148071,13.4939403533936,13.5123891830444,13.5308895111084,13.5494403839111,13.5680418014526,13.5866947174072,13.6053981781006,13.6241540908813,13.6429615020752,13.6618213653564,13.6807327270508,13.6996965408325,13.718713760376,13.7377834320068,13.7569065093994,13.7760820388794,13.7953119277954,13.8145952224731,13.8339328765869,13.8533239364624,13.8727703094482,13.8922710418701,13.911826133728,13.9314365386963,13.9511032104492,13.9708242416382,13.9906024932861,14.0104360580444,14.0303258895874,14.050271987915,14.0702753067017,14.0903358459473,14.1104526519775,14.1306276321411,14.150860786438,14.1711521148682,14.1915006637573,14.2119083404541,14.2323751449585,14.2529001235962,14.2734851837158,14.2941293716431,14.3148336410522,14.3355979919434,14.3613958358765,14.3917446136475,14.4222221374512,14.4528284072876,14.4835643768311,14.5144329071045,14.5454320907593,14.576563835144,14.6078300476074,14.6392297744751,14.6707649230957,14.7024374008179,14.734245300293,14.7661924362183,14.7982778549194,14.8305025100708,14.862868309021,14.8953762054443,14.9280252456665,14.9608192443848,14.9937562942505,15.0268402099609,15.0600690841675,15.3496513366699,16.3391304016113,16.5794410705566,16.650354385376,16.7218761444092,16.7940139770508,16.8667793273926,16.9401760101318,17.0142154693604,17.4175071716309,17.4790344238281,17.5409984588623,17.6034030914307,17.6662521362305,17.7295532226562,17.7933082580566,17.8575248718262,17.9222049713135,17.9873561859131,18.0529823303223,18.1190910339355,18.1856842041016,18.2527675628662,18.320348739624,18.3884334564209,18.4570236206055,18.5261287689209,18.5957546234131,18.6659049987793,18.7365856170654,18.807804107666,18.8232460021973,18.8246669769287,18.8260879516602,18.8275127410889,18.8289356231689,18.830358505249,18.8317794799805,18.8332061767578,18.8346271514893,18.8360481262207,18.837474822998,18.8389015197754,18.8403244018555,18.8417491912842,18.8431739807129,18.8445987701416,18.8460235595703,18.8474502563477,18.8488750457764,18.8502998352051,18.8517265319824,18.8531532287598,18.8545799255371,18.8560066223145,18.8574333190918,18.8588619232178,18.8602886199951,18.8617153167725,18.8631439208984,18.8645725250244,18.8659954071045,18.8674278259277,18.8688583374023,18.8702869415283,18.8717136383057,18.8731441497803,18.8745727539062,18.8760032653809,18.8774318695068,18.8788623809814,18.8802928924561,18.8817234039307,18.8831558227539,18.8845863342285,18.8860149383545,18.8874473571777,18.888879776001,18.8903102874756,18.8917446136475,18.8931789398193,18.8946094512939,18.8960399627686,18.8974742889404,18.8989105224609,18.9003410339355,18.9017734527588,18.9032096862793,18.9046440124512,18.9060764312744,18.9075126647949,18.9089488983154,18.9103813171387,18.9118137359619,18.9132537841797,18.9146900177002,18.9161243438721,18.9175605773926,18.9189987182617,18.9204330444336,18.9218711853027,18.9233074188232,18.9247436523438,18.9261817932129,18.9276180267334,18.9290580749512,18.930492401123,18.9319324493408,18.93337059021,18.9348106384277,18.9362468719482,18.9376888275146,18.9391269683838,18.9405651092529,18.9420070648193,18.9434471130371,18.9448890686035,18.9463272094727,18.9477672576904,18.9492092132568,18.950647354126,18.9520931243896,18.9535312652588,18.9549751281738,18.9564151763916,18.957857131958,18.9592990875244,18.9607410430908,18.9621868133545,18.9636306762695,18.9650707244873,18.966516494751,18.967960357666,18.9694042205811,18.9708461761475,18.9722919464111,18.9737377166748,18.9751815795898,18.9766273498535,18.9780712127686,18.9795169830322,18.9809646606445,18.9824066162109,18.9838562011719,18.9853000640869,18.9867496490479,18.9881954193115,18.9896411895752,18.9910888671875,18.9925384521484,18.9939861297607,18.9954299926758,18.9968795776367,18.9983291625977,18.9997806549072,19.0012264251709,19.0026741027832,19.0041236877441,19.0055751800537,19.0070209503174,19.0084743499756,19.0099239349365,19.0113754272461,19.012825012207,19.014274597168,19.0157260894775,19.0171775817871,16.5308132171631,16.4628372192383,16.3954162597656,16.3285465240479,16.2622203826904,16.1964302062988,16.1311702728271,16.0664329528809,16.0022144317627,15.9385070800781,15.8753051757812,15.8126020431519,15.7503929138184,15.6886701583862,15.6274299621582,15.5666666030884,15.5063734054565,15.4465456008911,15.3871774673462,15.3282642364502,15.2698001861572,15.2117805480957,15.1541996002197,15.097053527832,15.0403366088867,14.9840440750122,14.9281721115112,14.8727149963379,14.8176679611206,14.7793521881104,14.7787494659424,14.7781467437744,14.6717100143433,14.6183395385742,14.5653896331787,14.5128383636475,14.4606647491455,14.4088640213013,14.3574342727661,14.3063697814941,14.2556667327881,14.205322265625,14.1553325653076,14.1056928634644,14.0564002990723,14.0074529647827,13.9588460922241,13.9105758666992,13.8626384735107,13.8150300979614,13.767767906189,13.721604347229,13.608793258667,13.5626802444458
12.6467847824097,12.6689071655273,12.6968727111816,12.7249612808228,12.7531747817993,12.7815141677856,12.8099794387817,12.8385715484619,12.8672914505005,12.8961410522461,12.9251194000244,12.9542284011841,12.9834690093994,13.0128421783447,13.04234790802,13.0719881057739,13.1017637252808,13.1204233169556,13.1378650665283,13.1553535461426,13.172887802124,13.1904697418213,13.2080974578857,13.225772857666,13.2434959411621,13.261266708374,13.2790851593018,13.2969512939453,13.314866065979,13.3328285217285,13.3508396148682,13.3688993453979,13.3870086669922,13.4051666259766,13.4233732223511,13.4416303634644,13.4599370956421,13.4782934188843,13.4967002868652,13.515157699585,13.5336647033691,13.5522232055664,13.5708322525024,13.5894927978516,13.6082048416138,13.6269683837891,13.6457834243774,13.6646509170532,13.6835699081421,13.7025423049927,13.7215671539307,13.7406444549561,13.7597751617432,13.778959274292,13.7981967926025,13.8174886703491,13.8368339538574,13.8562335968018,13.8756875991821,13.8951969146729,13.9147605895996,13.9343795776367,13.9540538787842,13.973783493042,13.9935693740845,14.0134115219116,14.0333099365234,14.0532646179199,14.0732765197754,14.0933456420898,14.113471031189,14.1336555480957,14.1538963317871,14.1741962432861,14.1945543289185,14.2149705886841,14.2354459762573,14.2559804916382,14.2765741348267,14.2972269058228,14.3204622268677,14.3506383895874,14.3809413909912,14.4113721847534,14.4419326782227,14.4726228713989,14.5034437179565,14.5343961715698,14.5654811859131,14.5966997146606,14.6280517578125,14.6595392227173,14.691162109375,14.72292137146,14.7548189163208,14.7868547439575,14.8190307617188,14.8513460159302,14.8838033676147,14.9164018630981,14.9491443634033,14.9820308685303,15.0150623321533,15.0482387542725,15.0815629959106,16.0185565948486,16.3778820037842,16.447078704834,16.5168609619141,16.5872383117676,16.6582164764404,16.7298069000244,16.8020133972168,16.8748474121094,16.9483165740967,17.4353542327881,17.4970073699951,17.5590991973877,17.6216316223145,17.6846122741699,17.7480449676514,17.8119335174561,17.8762836456299,17.9411010742188,18.0063915252686,18.0721569061279,18.1384048461914,18.2051410675049,18.2723693847656,18.3400955200195,18.4083271026611,18.4770660400391,18.5463218688965,18.6160984039307,18.6395454406738,18.6409397125244,18.6423358917236,18.6437282562256,18.6451225280762,18.6465167999268,18.6479148864746,18.6493110656738,18.6507053375244,18.6521015167236,18.6534976959229,18.6548919677734,18.6562900543213,18.6576862335205,18.659086227417,18.6604824066162,18.6618804931641,18.6632785797119,18.6646747589111,18.666072845459,18.6674709320068,18.668872833252,18.6702690124512,18.671667098999,18.6730709075928,18.6744651794434,18.6758670806885,18.677267074585,18.6786670684814,18.6800670623779,18.6814651489258,18.6828670501709,18.6842670440674,18.6856708526611,18.687068939209,18.6884727478027,18.6898727416992,18.691276550293,18.6926784515381,18.6940765380859,18.6954822540283,18.6968860626221,18.6982879638672,18.6996898651123,18.7010955810547,18.7024993896484,18.7039012908936,18.7053070068359,18.7067127227783,18.7081165313721,18.7095203399658,18.7109241485596,18.7123317718506,18.7137336730957,18.7151412963867,18.7165470123291,18.7179508209229,18.7193584442139,18.7207641601562,18.7221717834473,18.7235774993896,18.7249851226807,18.726390838623,18.7277984619141,18.7292060852051,18.7306137084961,18.7320232391357,18.7334308624268,18.7348403930664,18.7362499237061,18.7376556396484,18.7390651702881,18.7404747009277,18.741886138916,18.743293762207,18.7447052001953,18.746114730835,18.747522354126,18.7489376068115,18.7503471374512,18.7517566680908,18.7531681060791,18.7545795440674,18.7559909820557,18.7574024200439,18.7588157653809,18.7602272033691,18.7616386413574,18.7630519866943,18.7644653320312,18.7658824920654,18.7672920227051,18.768705368042,18.7701206207275,18.7715339660645,18.7729473114014,18.7743625640869,18.7757778167725,18.7771892547607,18.7786045074463,18.7800216674805,18.7814388275146,18.7828521728516,18.7842674255371,18.7856864929199,18.7871017456055,18.788516998291,18.7899341583252,18.7913513183594,18.7927703857422,18.7941875457764,18.7956047058105,18.7970218658447,18.7984390258789,18.7998580932617,18.8012771606445,18.8026943206787,18.8041133880615,18.8055362701416,18.8069534301758,18.80837059021,18.80979347229,18.8112106323242,18.8126316070557,18.8140525817871,18.8154735565186,18.8168926239014,18.8183135986328,18.8197364807129,18.8211574554443,18.8225784301758,18.8240013122559,18.8254222869873,18.8268432617188,18.8282680511475,16.5318737030029,16.4622936248779,16.3948764801025,16.328010559082,16.2616882324219,16.1959018707275,16.1306457519531,16.0659141540527,16.0016994476318,15.9379959106445,15.8747968673706,15.8120985031128,15.7498922348022,15.6881742477417,15.6269378662109,15.5661773681641,15.5058879852295,15.446063041687,15.3866987228394,15.3277893066406,15.2693281173706,15.2113122940063,15.1537351608276,15.0965919494629,15.0398788452148,14.9835891723633,14.9277200698853,14.8722658157349,14.8172225952148,14.7829494476318,14.7824659347534,14.7250270843506,14.6712694168091,14.617901802063,14.5649642944336,14.5124158859253,14.4602451324463,14.4084482192993,14.3570203781128,14.3059587478638,14.255259513855,14.2049179077148,14.1549310684204,14.1052942276001,14.0560064315796,14.007061958313,13.9584589004517,13.9101905822754,13.8622560501099,13.8146495819092,13.7673835754395,13.7204656600952,13.6084136962891,13.5623149871826
12.6279211044312,12.6400766372681,12.6679153442383,12.695876121521,12.7239608764648,12.7521696090698,12.7805042266846,12.8089647293091,12.837553024292,12.866268157959,12.895112991333,12.9240865707397,12.9531917572021,12.9824275970459,13.0117959976196,13.0364818572998,13.0537004470825,13.0709648132324,13.0882749557495,13.1056308746338,13.1230335235596,13.1404819488525,13.157977104187,13.175518989563,13.1931066513062,13.2107419967651,13.2284250259399,13.2461547851562,13.2639322280884,13.2817583084106,13.2996311187744,13.3175535202026,13.3355236053467,13.3535413742065,13.3716087341309,13.3897247314453,13.4078903198242,13.4261054992676,13.4443693161011,13.4626836776733,13.4810476303101,13.4994621276855,13.5179262161255,13.5364418029785,13.5550079345703,13.5736246109009,13.5922927856445,13.6110124588013,13.6297836303711,13.648606300354,13.6674814224243,13.686408996582,13.7053890228271,13.7244215011597,13.7435073852539,13.7626457214355,13.7818374633789,13.8010835647583,13.8203830718994,13.8397359848022,13.8591442108154,13.8786067962646,13.8981237411499,13.9176959991455,13.9373226165771,13.9570055007935,13.9767436981201,13.9965381622314,14.0163888931274,14.0362949371338,14.0562591552734,14.0762786865234,14.0963563919067,14.116491317749,14.1366834640503,14.1569337844849,14.1772422790527,14.1976089477539,14.2180337905884,14.2385177612305,14.2590608596802,14.2797613143921,14.3097658157349,14.3398962020874,14.370153427124,14.4005393981934,14.4310531616211,14.4616975784302,14.4924716949463,14.5233774185181,14.5544157028198,14.5855855941772,14.6168899536133,14.6483297348022,14.6799039840698,14.711615562439,14.7434635162354,14.7754507064819,14.8075761795044,14.8398418426514,14.8722486495972,14.9047966003418,14.9374876022339,14.9703226089478,15.0033025741577,15.0364274978638,15.0696992874146,15.7103204727173,16.1811656951904,16.2487049102783,16.3168125152588,16.3854904174805,16.4547500610352,16.5245990753174,16.5950412750244,16.666088104248,16.7377452850342,16.810022354126,16.8829250335693,17.4532375335693,17.5150184631348,17.5772380828857,17.6399002075195,17.7030124664307,17.7665767669678,17.8305988311768,17.8950843811035,17.9600391387939,18.0254650115967,18.0913715362549,18.1577606201172,18.2246379852295,18.2920112609863,18.359884262085,18.4282627105713,18.4593963623047,18.4607620239258,18.4621295928955,18.4634971618652,18.4648666381836,18.4662342071533,18.4676036834717,18.4689712524414,18.4703426361084,18.4717082977295,18.4730796813965,18.4744491577148,18.4758205413818,18.4771862030029,18.4785594940186,18.4799289703369,18.4813022613525,18.4826698303223,18.4840412139893,18.4854125976562,18.4867839813232,18.4881572723389,18.4895286560059,18.4909000396729,18.4922714233398,18.4936447143555,18.4950180053711,18.4963874816895,18.4977626800537,18.499137878418,18.500509262085,18.501880645752,18.5032577514648,18.5046329498291,18.5060043334961,18.5073776245117,18.5087566375732,18.5101299285889,18.5115032196045,18.5128784179688,18.5142574310303,18.5156307220459,18.5170059204102,18.5183849334717,18.5197601318359,18.5211372375488,18.5225105285645,18.523889541626,18.5252666473389,18.5266437530518,18.5280208587646,18.5293979644775,18.5307769775391,18.532154083252,18.5335330963135,18.5349082946777,18.5362911224365,18.537670135498,18.5390472412109,18.5404262542725,18.5418071746826,18.5431880950928,18.5445671081543,18.5459461212158,18.5473289489746,18.5487079620361,18.5500888824463,18.5514698028564,18.5528526306152,18.5542316436768,18.5556163787842,18.5569972991943,18.5583763122559,18.5597610473633,18.5611438751221,18.5625267028809,18.563907623291,18.5652923583984,18.5666770935059,18.5680561065674,18.5694389343262,18.5708255767822,18.5722122192383,18.5735931396484,18.5749797821045,18.5763645172119,18.5777492523193,18.5791320800781,18.5805206298828,18.5819053649902,18.5832901000977,18.5846767425537,18.5860633850098,18.5874481201172,18.5888366699219,18.5902194976807,18.5916080474854,18.59299659729,18.5943851470947,18.5957717895508,18.5971584320068,18.5985469818115,18.5999355316162,18.6013240814209,18.6027126312256,18.6041011810303,18.6054916381836,18.6068782806396,18.608268737793,18.6096591949463,18.611047744751,18.6124401092529,18.6138305664062,18.6152210235596,18.6166114807129,18.6180000305176,18.6193923950195,18.6207847595215,18.6221752166748,18.6235694885254,18.6249580383301,18.6263523101807,18.6277446746826,18.6291370391846,18.6305274963379,18.6319236755371,18.6333160400391,18.6347103118896,18.636100769043,18.6374969482422,18.6388931274414,18.6402854919434,18.6416778564453,18.6430740356445,18.6444702148438,16.4963703155518,16.4044799804688,16.3274669647217,16.2611484527588,16.1953659057617,16.1301155090332,16.0653858184814,16.0011768341064,15.9374761581421,15.8742828369141,15.8115873336792,15.7493858337402,15.687671661377,15.6264390945435,15.5656824111938,15.5053968429565,15.4455757141113,15.3862152099609,15.3273086547852,15.2688522338867,15.2108392715454,15.153265953064,15.0961265563965,15.0394163131714,14.9831304550171,14.9272651672363,14.8718137741089,14.8167734146118,14.7835130691528,14.7830295562744,14.7245836257935,14.6708288192749,14.6174669265747,14.5645389556885,14.5119934082031,14.4598255157471,14.408031463623,14.3566074371338,14.3055486679077,14.2548522949219,14.2045135498047,14.1545295715332,14.1048965454102,14.0556125640869,14.0066719055176,13.9580707550049,13.9098052978516,13.861873626709,13.8142700195312,13.7669992446899,13.7200965881348,13.6080274581909,13.5619316101074
12.6091136932373,12.6168899536133,12.6390895843506,12.6669235229492,12.6948795318604,12.7229595184326,12.7511644363403,12.7794952392578,12.8079509735107,12.8365345001221,12.8652458190918,12.8940849304199,12.9230546951294,12.9521541595459,12.970606803894,12.9876518249512,13.0047426223755,13.0218772888184,13.0390577316284,13.0562839508057,13.0735549926758,13.0908718109131,13.1082344055176,13.1256446838379,13.1430997848511,13.1606016159058,13.178150177002,13.1957454681396,13.2133884429932,13.2310781478882,13.248815536499,13.2665996551514,13.2844324111938,13.3023128509521,13.3202419281006,13.3382186889648,13.3562450408936,13.3743200302124,13.3924427032471,13.4106159210205,13.4288377761841,13.4471101760864,13.4654312133789,13.4838027954102,13.5022249221802,13.5206966400146,13.5392198562622,13.5577936172485,13.5764179229736,13.5950937271118,13.6138210296631,13.6325998306274,13.6514301300049,13.670313835144,13.6892490386963,13.7082366943359,13.727276802063,13.7463703155518,13.7655172348022,13.7847175598145,13.8039712905884,13.823278427124,13.8426399230957,13.8620557785034,13.8815269470215,13.9010515213013,13.9206323623657,13.9402675628662,13.9599590301514,13.9797058105469,13.9995079040527,14.0193672180176,14.0392818450928,14.059253692627,14.0792827606201,14.0993690490723,14.1195125579834,14.1397132873535,14.1599721908569,14.1802892684937,14.2006645202637,14.2210988998413,14.2415914535522,14.2691249847412,14.2990846633911,14.3291702270508,14.3593826293945,14.3897218704224,14.4201908111572,14.4507884979248,14.4815168380737,14.512375831604,14.5433664321899,14.5744895935059,14.6057462692261,14.6371374130249,14.6686639785767,14.7003259658813,14.7321252822876,14.7640628814697,14.7961387634277,14.8283548355103,14.8607110977173,14.8932094573975,14.9258499145508,14.9586334228516,14.9915618896484,15.0246353149414,15.0578546524048,15.413722038269,15.9891185760498,16.055061340332,16.1215515136719,16.1885929107666,16.2561950683594,16.3243637084961,16.3931064605713,16.4624309539795,16.5323429107666,16.6028537750244,16.6739673614502,16.7456912994385,16.8180370330811,17.4711570739746,17.5330657958984,17.5954132080078,17.6582069396973,17.7214488983154,17.7851467132568,17.8493022918701,17.9139232635498,17.9790153503418,18.0445804595947,18.1106262207031,18.1771564483643,18.2441787719727,18.2826957702637,18.2840328216553,18.2853755950928,18.2867183685303,18.2880611419678,18.2894020080566,18.2907447814941,18.2920875549316,18.2934303283691,18.2947750091553,18.2961158752441,18.2974605560303,18.2988052368164,18.3001480102539,18.30149269104,18.3028354644775,18.3041801452637,18.3055267333984,18.3068714141846,18.3082160949707,18.3095626831055,18.310905456543,18.3122501373291,18.3135967254639,18.3149433135986,18.316291809082,18.3176345825195,18.3189830780029,18.3203296661377,18.3216743469238,18.3230247497559,18.324369430542,18.3257217407227,18.3270645141602,18.3284149169922,18.329761505127,18.331111907959,18.3324604034424,18.3338088989258,18.3351593017578,18.3365077972412,18.3378562927246,18.339204788208,18.34055519104,18.3419055938721,18.3432579040527,18.3446063995361,18.3459568023682,18.3473072052002,18.3486595153809,18.3500099182129,18.3513622283936,18.3527126312256,18.3540649414062,18.3554134368896,18.3567657470703,18.3581218719482,18.3594741821289,18.3608264923096,18.3621807098389,18.3635311126709,18.3648872375488,18.3662395477295,18.3675918579102,18.3689441680908,18.3703002929688,18.371654510498,18.3730087280273,18.3743648529053,18.3757209777832,18.3770751953125,18.3784294128418,18.3797874450684,18.3811416625977,18.3824977874756,18.3838539123535,18.3852119445801,18.3865699768066,18.3879261016846,18.3892822265625,18.3906383514404,18.3919944763184,18.3933525085449,18.3947105407715,18.3960704803467,18.3974266052246,18.3987865447998,18.4001426696777,18.4015026092529,18.4028625488281,18.4042205810547,18.4055805206299,18.4069385528564,18.4083003997803,18.4096603393555,18.4110164642334,18.4123783111572,18.4137420654297,18.4151039123535,18.4164619445801,18.4178237915039,18.4191875457764,18.4205474853516,18.4219074249268,18.4232692718506,18.4246311187744,18.4259948730469,18.4273567199707,18.4287204742432,18.4300842285156,18.4314460754395,18.4328098297119,18.4341735839844,18.4355373382568,18.4369029998779,18.4382648468018,18.4396286010742,18.4409942626953,18.4423580169678,18.4437255859375,18.44508934021,18.4464550018311,18.4478225708008,18.4491863250732,18.450553894043,18.4519214630127,18.4532871246338,18.4546527862549,18.4560203552246,18.4573879241943,18.4587535858154,18.4601211547852,18.4614906311035,18.4628562927246,18.4642238616943,16.4610195159912,16.3695220947266,16.2790355682373,16.1948299407959,16.1295833587646,16.0648593902588,16.0006523132324,15.936957359314,15.8737678527832,15.8110761642456,15.7488784790039,15.6871681213379,15.625940322876,15.5651874542236,15.5049057006836,15.4450883865356,15.3857316970825,15.326828956604,15.2683763504028,15.2103672027588,15.1527967453003,15.0956611633301,15.0389547348022,14.9826726913452,14.9268102645874,14.8713626861572,14.8163251876831,14.7840766906738,14.7835931777954,14.724139213562,14.6703882217407,14.6170387268066,14.5641145706177,14.5115718841553,14.4594068527222,14.4076156616211,14.3561944961548,14.3051385879517,14.2544450759888,14.2041091918945,14.1541290283203,14.1045007705688,14.0552196502686,14.0062808990479,13.9576826095581,13.9094200134277,13.8614902496338,13.8138904571533,13.7666149139404,13.7197141647339,13.6076412200928,13.5615472793579
12.5903625488281,12.5981149673462,12.6103944778442,12.6381025314331,12.6659317016602,12.693883895874,12.721960067749,12.7501602172852,12.7784852981567,12.8069372177124,12.8355159759521,12.8642225265503,12.8885650634766,12.9053945541382,12.9222688674927,12.9391870498657,12.9561500549316,12.9731578826904,12.9902095794678,13.007306098938,13.0244483947754,13.0416355133057,13.0588674545288,13.0761461257935,13.093469619751,13.11083984375,13.1282558441162,13.1457185745239,13.1632270812988,13.1807832717896,13.1983852386475,13.2160348892212,13.2337322235107,13.2514762878418,13.2692680358887,13.2871074676514,13.3049955368042,13.3229322433472,13.340916633606,13.3589496612549,13.3770313262939,13.3951625823975,13.4133424758911,13.4315719604492,13.4498510360718,13.4681806564331,13.4865589141846,13.5049886703491,13.5234680175781,13.5419988632202,13.5605792999268,13.5792121887207,13.5978956222534,13.6166305541992,13.6354169845581,13.6542558670044,13.6731462478638,13.6920900344849,13.711085319519,13.7301340103149,13.7492351531982,13.7683897018433,13.78759765625,13.8068599700928,13.8261756896973,13.8455448150635,13.86496925354,13.8844480514526,13.9039812088013,13.9235696792603,13.9432134628296,13.9629135131836,13.9826679229736,14.0024795532227,14.022346496582,14.0422706604004,14.0622510910034,14.0822877883911,14.1023826599121,14.1225347518921,14.1427440643311,14.1630115509033,14.1833372116089,14.2037220001221,14.2287149429321,14.2585048675537,14.2884197235107,14.3184595108032,14.3486270904541,14.3789215087891,14.4093446731567,14.4398956298828,14.4705772399902,14.501389503479,14.5323333740234,14.5634098052979,14.5946187973022,14.6259622573853,14.6574401855469,14.6890544891357,14.7208051681519,14.7526931762695,14.7847204208374,14.8168859481812,14.8491926193237,14.8816404342651,14.9142293930054,14.9469623565674,14.9798393249512,15.0128602981567,15.046028137207,15.1281156539917,15.8015766143799,15.8659791946411,15.930908203125,15.9963703155518,16.0623722076416,16.1289234161377,16.1960258483887,16.2636890411377,16.3319225311279,16.400728225708,16.4701175689697,16.540096282959,16.6106719970703,16.6818523406982,17.4275169372559,17.4891147613525,17.5511493682861,17.6136264801025,17.676549911499,17.7399234771729,17.8037548065186,17.8680458068848,17.932804107666,17.9980316162109,18.0637359619141,18.1093425750732,18.1106605529785,18.1119766235352,18.1132926940918,18.1146087646484,18.1159248352051,18.1172428131104,18.1185607910156,18.1198787689209,18.1211967468262,18.1225128173828,18.1238327026367,18.125150680542,18.1264686584473,18.1277866363525,18.1291065216064,18.1304264068604,18.131742477417,18.1330642700195,18.1343841552734,18.135705947876,18.1370220184326,18.1383438110352,18.1396617889404,18.140983581543,18.1423053741455,18.143627166748,18.144947052002,18.1462688446045,18.147590637207,18.1489124298096,18.1502342224121,18.1515579223633,18.1528797149658,18.1542015075684,18.1555233001709,18.1568470001221,18.1581687927246,18.1594905853271,18.160816192627,18.1621417999268,18.1634654998779,18.1647872924805,18.1661128997803,18.1674385070801,18.1687602996826,18.1700859069824,18.1714115142822,18.1727352142334,18.1740608215332,18.175386428833,18.1767139434814,18.1780376434326,18.1793651580811,18.1806907653809,18.1820182800293,18.1833438873291,18.1846733093262,18.185998916626,18.1873245239258,18.1886539459229,18.1899814605713,18.1913070678711,18.1926364898682,18.1939678192139,18.1952953338623,18.1966209411621,18.1979522705078,18.1992816925049,18.2006092071533,18.2019386291504,18.2032699584961,18.2046012878418,18.2059307098389,18.2072601318359,18.208589553833,18.2099189758301,18.2112503051758,18.2125835418701,18.2139129638672,18.2152442932129,18.2165756225586,18.2179088592529,18.21923828125,18.220573425293,18.2219066619873,18.223237991333,18.2245693206787,18.225902557373,18.2272357940674,18.2285671234131,18.2299022674561,18.231237411499,18.2325706481934,18.2339057922363,18.2352390289307,18.2365741729736,18.237907409668,18.2392444610596,18.2405796051025,18.2419166564941,18.2432498931885,18.2445831298828,18.245922088623,18.2472553253174,18.2485942840576,18.2499294281006,18.2512645721436,18.2526016235352,18.2539405822754,18.2552795410156,18.2566146850586,18.2579536437988,18.2592906951904,18.2606296539307,18.2619667053223,18.2633056640625,18.2646465301514,18.265983581543,18.2673206329346,18.2686595916748,18.2700004577637,18.2713413238525,18.2726821899414,18.2740211486816,18.2753601074219,18.2767028808594,18.2780437469482,18.2793807983398,18.2807235717773,18.2820663452148,18.2834072113037,18.2847480773926,18.2860889434814,18.2874336242676,16.4258193969727,16.3347129821777,16.2446098327637,16.1554946899414,16.0673522949219,16.000129699707,15.9364385604858,15.8732528686523,15.8105659484863,15.7483720779419,15.6866655349731,15.6254415512085,15.5646924972534,15.5044145584106,15.44460105896,15.3852481842041,15.3263492584229,15.2678995132446,15.2098941802979,15.1523275375366,15.0951957702637,15.0384922027588,14.982213973999,14.9263544082642,14.8709106445312,14.8158769607544,14.7846403121948,14.7841567993164,14.7236957550049,14.6699476242065,14.6166105270386,14.5636892318726,14.5111494064331,14.4589872360229,14.4071998596191,14.3557815551758,14.3047285079956,14.2540378570557,14.2037057876587,14.1537294387817,14.1041049957275,14.0548257827759,14.0058908462524,13.9572944641113,13.9090356826782,13.8611078262329,13.8135099411011,13.7662382125854,13.7193326950073,13.6072549819946,13.5611639022827
12.5716667175293,12.5793962478638,12.5871353149414,12.6094121932983,12.6371154785156,12.6649398803711,12.6928882598877,12.7209596633911,12.7491550445557,12.77747631073,12.8059234619141,12.8241729736328,12.8408355712891,12.8575410842896,12.8742904663086,12.8910827636719,12.907919883728,12.9248008728027,12.941725730896,12.9586944580078,12.9757089614868,12.9927673339844,13.0098714828491,13.0270195007324,13.0442142486572,13.0614528656006,13.0787382125854,13.0960693359375,13.1134452819824,13.1308689117432,13.1483383178711,13.1658544540405,13.1834163665771,13.2010259628296,13.2186832427979,13.2363872528076,13.2541379928589,13.2719373703003,13.2897844314575,13.3076791763306,13.3256225585938,13.3436145782471,13.3616552352905,13.3797435760498,13.3978824615479,13.416069984436,13.4343070983887,13.4525938034058,13.4709300994873,13.4893169403076,13.5077533721924,13.5262403488159,13.5447788238525,13.5633678436279,13.5820074081421,13.6006984710693,13.6194410324097,13.6382360458374,13.6570825576782,13.6759805679321,13.6949319839478,13.7139348983765,13.7329912185669,13.752100944519,13.7712640762329,13.7904796600342,13.8097496032715,13.8290739059448,13.8484516143799,13.867883682251,13.8873701095581,13.9069118499756,13.9265089035034,13.9461612701416,13.9658689498901,13.985631942749,14.0054521560669,14.0253276824951,14.045259475708,14.0652484893799,14.0852947235107,14.1053972244263,14.1255578994751,14.1457767486572,14.1660528182983,14.1885328292847,14.2181549072266,14.2479000091553,14.2777700424194,14.3077659606934,14.3378877639771,14.3681373596191,14.3985137939453,14.4290199279785,14.4596557617188,14.490421295166,14.5213174819946,14.5523471832275,14.5835084915161,14.6148042678833,14.6462345123291,14.6778001785278,14.7095022201538,14.7413415908813,14.7733182907104,14.8054351806641,14.8376913070679,14.8700885772705,14.9026279449463,14.9353094100952,14.9681348800659,15.0011043548584,15.0342197418213,15.0674819946289,15.6183834075928,15.6812982559204,15.7447204589844,15.8086595535278,15.8731184005737,15.9381065368652,16.0036277770996,16.0696907043457,16.1363010406494,16.2034664154053,16.2711925506592,16.3394870758057,16.4083576202393,16.4778118133545,16.5478553771973,16.6184978485107,17.445384979248,17.5071086883545,17.5692710876465,17.6318778991699,17.6949310302734,17.7584381103516,17.8224029541016,17.8868293762207,17.9392490386963,17.9405422210693,17.9418315887451,17.9431228637695,17.9444179534912,17.945707321167,17.9470024108887,17.9482955932617,17.9495868682861,17.9508781433105,17.9521732330322,17.9534664154053,17.9547595977783,17.9560527801514,17.9573497772217,17.9586448669434,17.9599361419678,17.9612312316895,17.9625263214111,17.9638214111328,17.9651165008545,17.9664096832275,17.9677066802979,17.9690017700195,17.9703006744385,17.9715957641602,17.9728889465332,17.9741878509521,17.9754848480225,17.9767799377441,17.9780769348145,17.9793758392334,17.9806728363037,17.981969833374,17.9832668304443,17.9845657348633,17.9858627319336,17.9871635437012,17.9884605407715,17.9897594451904,17.9910564422607,17.9923572540283,17.9936580657959,17.9949550628662,17.9962539672852,17.9975547790527,17.9988555908203,18.0001525878906,18.0014553070068,18.0027561187744,18.004056930542,18.0053577423096,18.0066585540771,18.0079612731934,18.0092601776123,18.0105628967285,18.0118656158447,18.0131683349609,18.0144691467285,18.0157718658447,18.0170745849609,18.0183753967285,18.0196800231934,18.0209846496582,18.0222854614258,18.0235900878906,18.0248928070068,18.0261993408203,18.0275001525879,18.0288066864014,18.0301094055176,18.0314140319824,18.0327186584473,18.0340251922607,18.0353317260742,18.0366344451904,18.0379428863525,18.0392475128174,18.0405540466309,18.0418567657471,18.0431671142578,18.0444736480713,18.0457801818848,18.0470867156982,18.0483932495117,18.0497016906738,18.0510082244873,18.0523147583008,18.0536251068115,18.054931640625,18.0562400817871,18.0575485229492,18.0588569641113,18.0601673126221,18.0614776611328,18.0627841949463,18.0640907287598,18.0654029846191,18.0667133331299,18.0680198669434,18.0693321228027,18.0706424713135,18.0719547271729,18.0732650756836,18.0745754241943,18.0758857727051,18.0771980285645,18.0785083770752,18.0798206329346,18.0811328887939,18.0824451446533,18.0837554931641,18.0850696563721,18.0863800048828,18.0876941680908,18.0890083312988,18.0903205871582,18.0916328430176,18.0929489135742,18.0942611694336,18.095573425293,18.0968894958496,18.0982055664062,18.0995178222656,18.1008319854736,18.1021499633789,18.1034660339355,18.1047782897949,18.1060943603516,18.1074104309082,18.1087265014648,18.1100425720215,18.1113567352295,18.1126747131348,18.11399269104,16.3907699584961,16.3000507354736,16.2103290557861,16.1215877532959,16.0338153839111,15.9469928741455,15.8727378845215,15.8100557327271,15.7478656768799,15.6861629486084,15.624942779541,15.5641975402832,15.5039234161377,15.4441137313843,15.3847646713257,15.3258695602417,15.2674236297607,15.2094211578369,15.1518583297729,15.0947303771973,15.0380306243896,14.9817552566528,14.9258995056152,14.8704586029053,14.8154287338257,14.7852039337158,14.7847204208374,14.7232513427734,14.6695070266724,14.6161823272705,14.5632638931274,14.5107269287109,14.458568572998,14.4067831039429,14.3553676605225,14.3043184280396,14.2536306381226,14.2033042907715,14.1533308029175,14.1037082672119,14.0544328689575,14.0054998397827,13.9569072723389,13.9086503982544,13.860725402832,13.8131303787231,13.7658605575562,13.7189502716064,13.6723747253418,13.5607805252075
12.5530261993408,12.5607328414917,12.5684499740601,12.5808515548706,12.6084289550781,12.6361284255981,12.6639490127563,12.6918916702271,12.7199592590332,12.7439670562744,12.7604217529297,12.7769184112549,12.7934579849243,12.810040473938,12.8266658782959,12.8433351516724,12.8600473403931,12.876802444458,12.8936023712158,12.9104452133179,12.9273328781128,12.9442644119263,12.9612407684326,12.9782619476318,12.9953269958496,13.0124368667603,13.0295925140381,13.0467929840088,13.0640392303467,13.0813312530518,13.098669052124,13.1160526275635,13.1334829330444,13.1509590148926,13.1684818267822,13.1860513687134,13.203667640686,13.2213315963745,13.2390432357788,13.2568016052246,13.2746076583862,13.2924613952637,13.3103647232056,13.328314781189,13.3463134765625,13.3643617630005,13.3824577331543,13.4006032943726,13.4187984466553,13.4370431900024,13.4553375244141,13.4736814498901,13.4920749664307,13.5105199813843,13.5290145874023,13.5475597381592,13.5661563873291,13.5848045349121,13.6035032272339,13.6222534179688,13.641056060791,13.6599102020264,13.6788158416748,13.697774887085,13.7167863845825,13.7358503341675,13.7549686431885,13.7741384506226,13.7933626174927,13.8126411437988,13.8319730758667,13.8513584136963,13.8707990646362,13.8902940750122,13.9098443984985,13.9294490814209,13.9491100311279,13.9688262939453,13.988597869873,14.0084257125854,14.0283098220825,14.0482501983643,14.068247795105,14.0883026123047,14.1084136962891,14.1285829544067,14.1488103866577,14.1780319213867,14.2076101303101,14.2373113632202,14.2671365737915,14.2970876693726,14.3271646499634,14.3573684692383,14.3877000808716,14.4181604385376,14.4487495422363,14.4794683456421,14.5103187561035,14.5413007736206,14.5724153518677,14.603663444519,14.6350450515747,14.6665630340576,14.6982164382935,14.7300062179565,14.7619342803955,14.7940015792847,14.826208114624,14.8585548400879,14.8910436630249,14.9236745834351,14.9564485549927,14.9893674850464,15.0224304199219,15.0556402206421,15.4393892288208,15.5008668899536,15.5628356933594,15.6253023147583,15.6882724761963,15.7517518997192,15.8157472610474,15.8802652359009,15.9453115463257,16.010892868042,16.0770149230957,16.1436862945557,16.2109127044678,16.2787017822266,16.3470592498779,16.415994644165,16.4855136871338,16.5556221008301,17.4632873535156,17.5251407623291,17.5874309539795,17.65016746521,17.7133522033691,17.7723217010498,17.773588180542,17.7748565673828,17.7761268615723,17.7773933410645,17.7786598205566,17.7799282073975,17.7811965942383,17.7824668884277,17.7837333679199,17.785005569458,17.7862758636475,17.7875442504883,17.7888145446777,17.7900829315186,17.7913551330566,17.7926273345947,17.7938957214355,17.795166015625,17.7964382171631,17.7977104187012,17.798978805542,17.8002490997314,17.8015232086182,17.8027954101562,17.8040657043457,17.8053379058838,17.8066120147705,17.80788230896,17.8091583251953,17.8104286193848,17.8117008209229,17.8129749298096,17.8142490386963,17.8155212402344,17.8167972564697,17.8180694580078,17.8193454742432,17.8206176757812,17.821891784668,17.8231678009033,17.8244438171387,17.8257160186768,17.8269939422607,17.8282680511475,17.8295440673828,17.8308200836182,17.8320960998535,17.8333721160889,17.8346481323242,17.8359241485596,17.8372001647949,17.8384780883789,17.8397579193115,17.8410339355469,17.8423118591309,17.8435878753662,17.8448657989502,17.8461437225342,17.8474216461182,17.8486995697021,17.8499813079834,17.8512592315674,17.8525352478027,17.8538150787354,17.855094909668,17.856372833252,17.8576545715332,17.8589344024658,17.8602161407471,17.8614921569824,17.8627758026123,17.8640575408936,17.8653354644775,17.8666152954102,17.86789894104,17.8691806793213,17.8704605102539,17.8717441558838,17.873025894165,17.8743057250977,17.8755893707275,17.8768730163574,17.8781547546387,17.8794345855713,17.8807201385498,17.8820037841797,17.8832855224609,17.8845691680908,17.8858528137207,17.8871383666992,17.8884201049805,17.8897037506104,17.8909912109375,17.8922748565674,17.8935585021973,17.8948440551758,17.8961296081543,17.8974151611328,17.8986988067627,17.8999862670898,17.9012699127197,17.9025573730469,17.9038429260254,17.9051303863525,17.9064178466797,17.9077053070068,17.908992767334,17.9102783203125,17.9115657806396,17.9128532409668,17.9141407012939,17.9154300689697,17.9167156219482,17.9180068969727,17.9192924499512,17.9205837249756,17.9218711853027,17.9231586456299,17.9244480133057,17.9257373809814,17.9270305633545,17.9283180236816,17.9296073913574,17.9308986663818,17.9321899414062,17.933479309082,17.9347724914551,17.9360618591309,17.9373531341553,17.9386444091797,17.9399375915527,17.9412250518799,17.9425182342529,17.9438133239746,16.3558712005615,16.2655353546143,16.1761913299561,16.0878238677979,16.0004177093506,15.9139547348022,15.8284215927124,15.7473583221436,15.6856603622437,15.6244440078735,15.563702583313,15.5034322738647,15.4436273574829,15.3842811584473,15.3253898620605,15.2669477462769,15.2089490890503,15.1513900756836,15.0942640304565,15.0375680923462,14.9812965393066,14.9254446029663,14.8700075149536,14.814980506897,14.7857685089111,14.7852849960327,14.7228078842163,14.6690664291382,14.6157541275024,14.5628385543823,14.5103054046631,14.4581499099731,14.4063673019409,14.3549547195435,14.3039083480835,14.2532262802124,14.20290184021,14.1529321670532,14.1033124923706,14.0540399551392,14.0051097869873,13.9565191268921,13.9082651138306,13.8603429794312,13.8127508163452,13.7654838562012,13.7185688018799,13.6719951629639,13.5603971481323
