11.6973781585693,11.7540407180786,11.8112554550171,11.869029045105,11.9273710250854,11.9862899780273,12.0457925796509,12.1058902740479,12.1665897369385,12.2279014587402,12.2898387908936,12.352409362793,12.415620803833,12.4794826507568,12.5440044403076,12.6091966629028,12.8676099777222,12.8793535232544,12.8911180496216,12.8964529037476,12.9014749526978,12.9064998626709,12.9115295410156,12.9165630340576,12.9216003417969,12.9266414642334,12.9316864013672,12.9367351531982,12.9417886734009,12.9468460083008,12.9519071578979,12.9569721221924,12.9620409011841,12.967113494873,12.9721908569336,12.9772710800171,12.9823560714722,12.9874448776245,12.9925374984741,12.997633934021,13.0027351379395,13.0078401565552,13.0129489898682,13.0180616378784,13.0231781005859,13.028299331665,13.0334243774414,13.038553237915,13.0436859130859,13.0488224029541,13.0539636611938,13.0591087341309,13.0642576217651,13.069411277771,13.0745687484741,13.0797300338745,13.0848951339722,13.0900650024414,13.0952386856079,13.1004161834717,13.105598449707,13.1107835769653,13.1159734725952,13.1211681365967,13.1263666152954,13.1315679550171,13.1367750167847,13.1419858932495,13.1472005844116,13.152419090271,13.157642364502,13.1628694534302,13.1681003570557,13.1733360290527,13.1785755157471,13.183819770813,13.1890678405762,13.1943197250366,13.1995763778687,13.2048368453979,13.2101011276245,13.2153701782227,13.2206430435181,13.2259206771851,13.2312021255493,13.2364883422852,13.2417783737183,13.2470722198486,13.2523708343506,13.2576732635498,13.2629804611206,13.2682914733887,13.2736072540283,13.2789268493652,13.2842512130737,13.2895793914795,13.2949113845825,13.3002481460571,13.3055896759033,13.3109350204468,13.3162841796875,13.3216390609741,13.3269968032837,13.3323593139648,13.3377265930176,13.3430976867676,13.3484735488892,13.353853225708,13.3592376708984,13.3646259307861,13.3700189590454,13.375415802002,13.3808174133301,13.3862237930298,13.3916339874268,13.3970489501953,13.4024686813354,13.4078912734985,13.4133195877075,13.4187517166138,13.4241886138916,13.4296293258667,13.4350757598877,13.4405250549316,13.4459800720215,13.4514389038086,13.456901550293,13.4623689651489,13.4678411483765,13.4733180999756,13.478798866272,13.4842844009399,13.4897747039795,13.4952688217163,13.5007677078247,13.5062713623047,13.5117797851562,13.5172920227051,13.5228090286255,13.5283298492432,13.5338554382324,13.5393857955933,13.5449209213257,13.5504608154297,13.556004524231,13.5615530014038,13.5671062469482,13.5726633071899,13.5782260894775,13.5876522064209,13.6365699768066,13.6858396530151,13.7354679107666,13.7854566574097,13.8358106613159,13.8865346908569,13.9376316070557,13.9891052246094,14.040961265564,14.0932025909424,14.1458835601807,14.2085294723511,14.2717342376709,14.3355026245117,14.3998441696167,14.4647655487061,14.5302753448486,14.596381187439,14.6630907058716,14.7304134368896,14.7983570098877,14.8669300079346,14.9361419677734,15.0060005187988,15.0765161514282,15.1476974487305,15.219554901123,15.2920961380005,15.6292772293091,15.6375684738159,15.6458692550659,15.6541786193848,15.8091726303101,15.9740676879883,16.1426181793213,16.3148059844971,16.4579048156738,16.5971565246582,16.7563667297363,16.9330348968506,17.1140956878662,17.2999439239502,17.5643901824951,17.8356380462646,18.0456161499023,18.2605972290039,0,0,0,0,0,0,0,0,0,0,0,0,0,0,0,0,0,0,0,0,0,0,0,0,0,0,0,0,0,0,0,0,0,0,0,0,0,0,0,0,0,0,0,0,0,0,0,0,0,0,0,0,0,0,0,0,0,0,0,0,0,0,0,0,0,0,0,0,0,0,0,0,0,0,0,0,0,0,0,0,0,0,0,0,0,0,0,0,0,0,0,0,0,0,0,0,0,0,0,0,0,0,0,0,0,0,0,0,0,0,0,0,0,0,0,0,0,0,0,0,0,0,0,0,0,0,0,0,0,0,0,0
11.6977968215942,11.7544631958008,11.8116817474365,11.869460105896,11.9278059005737,11.9867286682129,12.0462369918823,12.1063385009766,12.1670427322388,12.2283582687378,12.2903003692627,12.3528757095337,12.4160919189453,12.4799585342407,12.5444850921631,12.6096830368042,12.8393983840942,12.8473234176636,12.8523063659668,12.8572940826416,12.8622846603394,12.8672800064087,12.8722791671753,12.8772821426392,12.8822889328003,12.8872995376587,12.8923139572144,12.8973321914673,12.9023542404175,12.9073810577393,12.912410736084,12.9174451828003,12.9224834442139,12.9275245666504,12.9325704574585,12.9376211166382,12.9426746368408,12.9477319717407,12.9527940750122,12.957859992981,12.962929725647,12.9680032730103,12.9730806350708,12.9781618118286,12.983247756958,12.9883365631104,12.9934301376343,12.9985275268555,13.0036287307739,13.008734703064,13.0138444900513,13.0189580917358,13.0240755081177,13.0291967391968,13.0343217849731,13.0394515991211,13.0445852279663,13.0497236251831,13.0548648834229,13.0600109100342,13.0651607513428,13.0703144073486,13.0754728317261,13.0806350708008,13.0858011245728,13.090970993042,13.0961456298828,13.1013240814209,13.1065063476562,13.1116924285889,13.1168832778931,13.1220779418945,13.1272773742676,13.1324806213379,13.1376876831055,13.1428985595703,13.1481142044067,13.1533336639404,13.1585578918457,13.1637849807739,13.169017791748,13.1742534637451,13.1794939041138,13.1847381591797,13.1899871826172,13.195240020752,13.2004976272583,13.2057590484619,13.2110242843628,13.2162942886353,13.221568107605,13.226845741272,13.2321281433105,13.2374143600464,13.2427053451538,13.2480001449585,13.2532997131348,13.2586030960083,13.2639102935791,13.2692222595215,13.2745389938354,13.2798595428467,13.2851839065552,13.2905130386353,13.2958459854126,13.3011837005615,13.3065252304077,13.3118715286255,13.3172225952148,13.3225774765015,13.3279361724854,13.3332996368408,13.3386669158936,13.3440389633179,13.3494157791138,13.3547964096069,13.3601808547974,13.3655700683594,13.370964050293,13.3763618469238,13.3817644119263,13.3871717453003,13.3925828933716,13.3979978561401,13.4034185409546,13.408842086792,13.4142713546753,13.4197044372559,13.4251413345337,13.4305839538574,13.4360303878784,13.4414806365967,13.4469356536865,13.4523954391479,13.4578590393066,13.4633283615112,13.4688005447388,13.4742784500122,13.4797601699829,13.4852466583252,13.4907369613647,13.4962320327759,13.5017318725586,13.5072364807129,13.5127449035645,13.5182580947876,13.523775100708,13.5292978286743,13.5348243713379,13.540355682373,13.5458917617798,13.5722980499268,13.6211042404175,13.6702632904053,13.7197780609131,13.7696523666382,13.8198909759521,13.8704977035522,13.9293870925903,13.9901266098022,14.0513982772827,14.113208770752,14.1755657196045,14.2384767532349,14.301947593689,14.36598777771,14.4306039810181,14.4958038330078,14.5615949630737,14.627986907959,14.6949863433838,14.7626028060913,14.8308439254761,14.8997192382812,14.9692373275757,15.0394067764282,15.1102380752563,15.1817388534546,15.2539196014404,15.3267908096313,15.6751356124878,15.6834764480591,15.6918258666992,15.8260660171509,15.9913148880005,16.1601867675781,16.3327522277832,16.4811878204346,16.6208362579346,16.7729625701904,16.9499835968018,17.1312007904053,17.3174228668213,17.5758514404297,17.8571605682373,18.06764793396,18.2831573486328,0,0,0,0,0,0,0,0,0,0,0,0,0,0,0,0,0,0,0,0,0,0,0,0,0,0,0,0,0,0,0,0,0,0,0,0,0,0,0,0,0,0,0,0,0,0,0,0,0,0,0,0,0,0,0,0,0,0,0,0,0,0,0,0,0,0,0,0,0,0,0,0,0,0,0,0,0,0,0,0,0,0,0,0,0,0,0,0,0,0,0,0,0,0,0,0,0,0,0,0,0,0,0,0,0,0,0,0,0,0,0,0,0,0,0,0,0,0,0,0,0,0,0,0,0,0,0,0,0,0,0
11.6982154846191,11.7548856735229,11.8121089935303,11.869891166687,11.9282417297363,11.9871683120728,12.0466804504395,12.1067867279053,12.1674957275391,12.2288160324097,12.2907619476318,12.3533420562744,12.4165630340576,12.4804344177246,12.5449657440186,12.6101684570312,12.8035116195679,12.80846118927,12.8134145736694,12.8183727264404,12.8233327865601,12.8282976150513,12.8332662582397,12.8382396697998,12.8432159423828,12.8481960296631,12.8531799316406,12.8581676483154,12.8631601333618,12.8681554794312,12.8731555938721,12.8781585693359,12.8831663131714,12.8881778717041,12.8931922912598,12.898211479187,12.9032354354858,12.9082622528076,12.9132928848267,12.918327331543,12.9233665466309,12.9284086227417,12.9334554672241,12.9385061264038,12.9435606002808,12.948618888855,12.9536809921265,12.9587469100952,12.9638175964355,12.9688920974731,12.973970413208,12.9790525436401,12.9841384887695,12.9892292022705,12.9943227767944,12.9994211196899,13.0045232772827,13.0096292495728,13.0147399902344,13.0198545455933,13.0249719619751,13.0300941467285,13.0352210998535,13.0403509140015,13.045485496521,13.0506238937378,13.0557661056519,13.0609130859375,13.0660638809204,13.0712184906006,13.076376914978,13.0815391540527,13.086706161499,13.0918769836426,13.0970525741577,13.1022310256958,13.1074142456055,13.1126022338867,13.1177930831909,13.1229887008667,13.1281890869141,13.1333923339844,13.1386003494263,13.1438121795654,13.1490287780762,13.1542491912842,13.1594734191895,13.164701461792,13.1699342727661,13.1751718521118,13.1804122924805,13.1856575012207,13.1909074783325,13.1961612701416,13.2014188766479,13.2066812515259,13.2119474411011,13.2172174453735,13.2224922180176,13.2277708053589,13.2330541610718,13.2383413314819,13.2436323165894,13.2489280700684,13.2542285919189,13.2595329284668,13.2648410797119,13.2701539993286,13.2754707336426,13.2807922363281,13.2861175537109,13.291446685791,13.296781539917,13.3021192550659,13.3074617385864,13.3128089904785,13.3181600570679,13.3235158920288,13.328875541687,13.3342399597168,13.3396081924438,13.3449811935425,13.3503580093384,13.3557395935059,13.3611249923706,13.3665151596069,13.3719091415405,13.37730884552,13.3827114105225,13.3881196975708,13.3935308456421,13.3989477157593,13.4043684005737,13.4097929000854,13.4152231216431,13.4206562042236,13.4260950088501,13.4315376281738,13.4369840621948,13.4424362182617,13.4478921890259,13.4533519744873,13.4588174819946,13.4642868041992,13.4697599411011,13.4752378463745,13.4807205200195,13.4862079620361,13.49169921875,13.4971952438354,13.5026960372925,13.5082006454468,13.5137100219727,13.556978225708,13.6056747436523,13.66100025177,13.7194166183472,13.7783355712891,13.8377618789673,13.8977041244507,13.9581670761108,14.0191583633423,14.0806856155396,14.1427545547485,14.2053737640381,14.2685499191284,14.3322896957397,14.3966026306152,14.4614944458008,14.5269746780396,14.5930500030518,14.6597290039062,14.7270212173462,14.7949333190918,14.8634748458862,14.932653427124,15.002480506897,15.0729627609253,15.1441106796265,15.2159328460693,15.2884407043457,15.7128839492798,15.721263885498,15.7296543121338,15.8429956436157,16.0086002349854,16.1777935028076,16.350736618042,16.5045375823975,16.6445827484131,16.7895908355713,16.9669647216797,17.1483402252197,17.3349380493164,17.5873260498047,17.878734588623,18.0897350311279,18.3057746887207,0,0,0,0,0,0,0,0,0,0,0,0,0,0,0,0,0,0,0,0,0,0,0,0,0,0,0,0,0,0,0,0,0,0,0,0,0,0,0,0,0,0,0,0,0,0,0,0,0,0,0,0,0,0,0,0,0,0,0,0,0,0,0,0,0,0,0,0,0,0,0,0,0,0,0,0,0,0,0,0,0,0,0,0,0,0,0,0,0,0,0,0,0,0,0,0,0,0,0,0,0,0,0,0,0,0,0,0,0,0,0,0,0,0,0,0,0,0,0,0,0,0,0,0,0,0,0,0,0,0
11.698634147644,11.7553091049194,11.8125352859497,11.870322227478,11.9286766052246,11.9876079559326,12.0471248626709,12.107234954834,12.167947769165,12.2292728424072,12.2912225723267,12.3538084030151,12.4170331954956,12.4809093475342,12.545446395874,12.6106538772583,12.7649145126343,12.7698345184326,12.7747583389282,12.7796850204468,12.7846164703369,12.7895517349243,12.7944898605347,12.7994327545166,12.8043785095215,12.8093290328979,12.8142833709717,12.8192405700684,12.8242025375366,12.8291683197021,12.8341379165649,12.839111328125,12.844087600708,12.8490686416626,12.8540534973145,12.8590421676636,12.86403465271,12.8690319061279,12.8740320205688,12.879035949707,12.8840436935425,12.8890562057495,12.8940715789795,12.8990917205811,12.9041156768799,12.909143447876,12.914174079895,12.9192094802856,12.9242496490479,12.929292678833,12.9343404769897,12.9393911361694,12.9444465637207,12.9495058059692,12.954568862915,12.9596357345581,12.9647064208984,12.9697818756104,12.9748601913452,12.9799432754517,12.9850301742554,12.9901208877563,12.9952163696289,13.0003147125244,13.0054178237915,13.0105247497559,13.0156354904175,13.0207500457764,13.0258693695068,13.0309925079346,13.0361194610596,13.0412502288818,13.0463857650757,13.0515241622925,13.0566673278809,13.0618152618408,13.0669660568237,13.0721216201782,13.07728099823,13.082444190979,13.0876121520996,13.0927839279175,13.0979595184326,13.103138923645,13.108323097229,13.1135110855103,13.1187028884888,13.1238994598389,13.1290998458862,13.1343040466309,13.1395130157471,13.1447257995605,13.1499433517456,13.1551637649536,13.1603889465332,13.1656179428101,13.1708517074585,13.1760892868042,13.1813316345215,13.186577796936,13.1918277740479,13.1970815658569,13.2023401260376,13.2076034545898,13.2128705978394,13.2181415557861,13.2234163284302,13.2286958694458,13.233980178833,13.2392683029175,13.2445602416992,13.2498569488525,13.2551574707031,13.2604627609253,13.2657718658447,13.2710847854614,13.2764024734497,13.2817249298096,13.2870512008667,13.2923812866211,13.2977161407471,13.3030548095703,13.3083982467651,13.3137464523315,13.3190984725952,13.3244543075562,13.3298149108887,13.3351793289185,13.3405494689941,13.3459224700928,13.351300239563,13.3566827774048,13.3620691299438,13.3674602508545,13.3728551864624,13.3782548904419,13.3836584091187,13.389066696167,13.3944797515869,13.3998966217041,13.4053182601929,13.4107437133789,13.4161748886108,13.4216089248657,13.4270477294922,13.4324913024902,13.4379396438599,13.4433917999268,13.4488487243652,13.454309463501,13.4606781005859,13.4695682525635,13.4784717559814,13.4873857498169,13.5157146453857,13.5728607177734,13.6305246353149,13.6886806488037,13.74733543396,13.8064947128296,13.8661642074585,13.9263534545898,13.9870662689209,14.0483112335205,14.1100950241089,14.1724243164062,14.2353067398071,14.2987499237061,14.3627614974976,14.4273481369019,14.4925184249878,14.5582799911499,14.624641418457,14.6916103363037,14.7591953277588,14.8274049758911,14.8962488174438,14.9657344818115,15.0358715057373,15.10666847229,15.1781358718872,15.2502822875977,15.3231182098389,15.7592353820801,15.7676649093628,15.8599615097046,16.0259227752686,16.1954383850098,16.3687610626221,16.5279541015625,16.6683979034424,16.8112506866455,16.983980178833,17.1655139923096,17.3524875640869,17.5988178253174,17.9003620147705,18.1118755340576,18.3284473419189,0,0,0,0,0,0,0,0,0,0,0,0,0,0,0,0,0,0,0,0,0,0,0,0,0,0,0,0,0,0,0,0,0,0,0,0,0,0,0,0,0,0,0,0,0,0,0,0,0,0,0,0,0,0,0,0,0,0,0,0,0,0,0,0,0,0,0,0,0,0,0,0,0,0,0,0,0,0,0,0,0,0,0,0,0,0,0,0,0,0,0,0,0,0,0,0,0,0,0,0,0,0,0,0,0,0,0,0,0,0,0,0,0,0,0,0,0,0,0,0,0,0,0,0,0,0,0,0,0
11.6990528106689,11.7557315826416,11.8129625320435,11.870753288269,11.9291124343872,11.9880475997925,12.047568321228,12.1076831817627,12.1684007644653,12.2297306060791,12.2916841506958,12.3542737960815,12.4175043106079,12.4813852310181,12.5459270477295,12.6111392974854,12.7265491485596,12.7314395904541,12.7363338470459,12.7412309646606,12.746132850647,12.7510375976562,12.7559471130371,12.7608594894409,12.7657766342163,12.7706966400146,12.7756214141846,12.7805490493774,12.7854804992676,12.7904167175293,12.795355796814,12.8002986907959,12.8052463531494,12.8101968765259,12.8151512145996,12.8201093673706,12.8250722885132,12.830039024353,12.8350086212158,12.8399829864502,12.8449602127075,12.8499422073364,12.8549270629883,12.8599166870117,12.8649101257324,12.8699073791504,12.8749084472656,12.8799133300781,12.8849210739136,12.8899345397949,12.8949508666992,12.8999719619751,12.9049959182739,12.9100246429443,12.9150562286377,12.9200925827026,12.9251327514648,12.9301767349243,12.9352245330811,12.9402761459351,12.9453325271606,12.9503917694092,12.9554557800293,12.9605236053467,12.9655952453613,12.9706707000732,12.9757509231567,12.9808340072632,12.9859218597412,12.9910135269165,12.9961090087891,13.0012083053589,13.0063123703003,13.0114192962646,13.0165309906006,13.0216464996338,13.0267667770386,13.0318899154663,13.0370178222656,13.0421495437622,13.0472850799561,13.0524253845215,13.0575695037842,13.0627174377441,13.0678691864014,13.0730247497559,13.0781850814819,13.0833492279053,13.0885181427002,13.0936899185181,13.0988664627075,13.1040468215942,13.1092319488525,13.1144208908081,13.1196136474609,13.124810218811,13.1300115585327,13.1352167129517,13.1404256820679,13.1456394195557,13.1508569717407,13.1560792922974,13.161304473877,13.1665353775024,13.1717691421509,13.1770076751709,13.1822500228882,13.1874971389771,13.1927480697632,13.1980028152466,13.2032623291016,13.2085256576538,13.2137937545776,13.2190656661987,13.2243413925171,13.229621887207,13.2349061965942,13.2401943206787,13.2454881668091,13.2507848739624,13.2560863494873,13.2613916397095,13.2667016983032,13.2720165252686,13.2773342132568,13.282657623291,13.2879848480225,13.2933158874512,13.2986507415771,13.303991317749,13.3093347549438,13.3146839141846,13.3200359344482,13.3253936767578,13.3307542800903,13.3361206054688,13.3414897918701,13.3468647003174,13.3522434234619,13.3576259613037,13.3630132675171,13.3684043884277,13.3738012313843,13.3792009353638,13.386134147644,13.394926071167,13.4037303924561,13.4125471115112,13.4213743209839,13.4302129745483,13.4390640258789,13.4479265213013,13.4568004608154,13.4656867980957,13.4825801849365,13.5144691467285,13.5465087890625,13.6001853942871,13.6580820083618,13.7164745330811,13.7753677368164,13.8347682952881,13.8946838378906,13.9551210403442,14.0160856246948,14.0775852203369,14.139627456665,14.2022190093994,14.2653665542603,14.3290786743164,14.3933620452881,14.4582252502441,14.5236749649048,14.5897207260132,14.6563692092896,14.7236299514771,14.7915105819702,14.8600206375122,14.9291677474976,14.9989614486694,15.0694103240967,15.1405248641968,15.2123136520386,15.2847862243652,15.7973899841309,15.8058605194092,15.8769636154175,16.0432834625244,16.2131233215332,16.3868255615234,16.5514354705811,16.6922817230225,16.8355445861816,17.0010299682617,17.1829242706299,17.3700733184814,17.6103229522705,17.9213485717773,18.134069442749,18.3511772155762,18.5736408233643,0,0,0,0,0,0,0,0,0,0,0,0,0,0,0,0,0,0,0,0,0,0,0,0,0,0,0,0,0,0,0,0,0,0,0,0,0,0,0,0,0,0,0,0,0,0,0,0,0,0,0,0,0,0,0,0,0,0,0,0,0,0,0,0,0,0,0,0,0,0,0,0,0,0,0,0,0,0,0,0,0,0,0,0,0,0,0,0,0,0,0,0,0,0,0,0,0,0,0,0,0,0,0,0,0,0,0,0,0,0,0,0,0,0,0,0,0,0,0,0,0,0,0,0,0,0,0
11.6994714736938,11.7561540603638,11.8133888244629,11.8711843490601,11.9295473098755,11.9884872436523,12.0480127334595,12.1081314086914,12.1688537597656,12.230188369751,12.2921457290649,12.3547401428223,12.4179754257202,12.481861114502,12.546407699585,12.6116256713867,12.6884136199951,12.6932744979858,12.6981391906738,12.7030076980591,12.7078800201416,12.7127561569214,12.7176351547241,12.7225189208984,12.7274055480957,12.7322969436646,12.7371912002563,12.7420892715454,12.7469921112061,12.7518978118896,12.7568073272705,12.7617206573486,12.766637802124,12.7715587615967,12.7764835357666,12.7814121246338,12.7863454818726,12.7912817001343,12.7962217330933,12.8011655807495,12.806113243103,12.8110647201538,12.8160200119019,12.8209791183472,12.8259420394897,12.8309087753296,12.8358793258667,12.8408546447754,12.845832824707,12.8508148193359,12.8558015823364,12.8607912063599,12.8657855987549,12.8707828521729,12.8757848739624,12.8807907104492,12.885799407959,12.8908128738403,12.8958301544189,12.9008512496948,12.905876159668,12.9109058380127,12.9159383773804,12.9209756851196,12.9260158538818,12.9310607910156,12.9361095428467,12.941162109375,12.9462184906006,12.9512796401978,12.9563436508179,12.9614114761353,12.9664840698242,12.9715604782104,12.9766407012939,12.981725692749,12.9868135452271,12.9919061660767,12.9970026016235,13.0021028518677,13.0072069168091,13.0123147964478,13.017427444458,13.0225439071655,13.0276641845703,13.0327882766724,13.037917137146,13.0430488586426,13.0481853485107,13.0533256530762,13.0584707260132,13.0636196136475,13.068772315979,13.0739288330078,13.0790901184082,13.0842542648315,13.0894241333008,13.094596862793,13.0997743606567,13.1049547195435,13.1101408004761,13.1153297424316,13.1205234527588,13.1257209777832,13.1309232711792,13.1361293792725,13.141339302063,13.1465530395508,13.1517715454102,13.1569938659668,13.162220954895,13.1674518585205,13.1726865768433,13.1779260635376,13.1831693649292,13.1884164810181,13.1936683654785,13.1989240646362,13.2041845321655,13.2094478607178,13.2147169113159,13.2199897766113,13.225266456604,13.2305469512939,13.2358322143555,13.2411222457886,13.2464151382446,13.2517137527466,13.2570152282715,13.2623224258423,13.267632484436,13.2729473114014,13.2782669067383,13.2835903167725,13.2889175415039,13.2942504882812,13.2995862960815,13.3049268722534,13.3124113082886,13.3211069107056,13.3298149108887,13.3385334014893,13.347264289856,13.3560056686401,13.3647584915161,13.3735237121582,13.3822994232178,13.3910875320435,13.3998870849609,13.4086980819702,13.4175205230713,13.4263544082642,13.4351997375488,13.4440574645996,13.4529266357422,13.4813404083252,13.513222694397,13.5452566146851,13.5774431228638,13.6276206970215,13.6857509613037,13.7443799972534,13.8035135269165,13.8631582260132,13.9233207702637,13.9840078353882,14.0452260971069,14.1069822311401,14.1692838668823,14.232138633728,14.2955532073975,14.3595361709595,14.4240942001343,14.4892349243164,14.5549669265747,14.6212978363037,14.6882362365723,14.7557897567749,14.8239679336548,14.8927793502808,14.9622325897217,15.0323362350464,15.1031007766724,15.1745338439941,15.2466459274292,15.835729598999,15.8442420959473,15.8940029144287,16.0606803894043,16.2308902740479,16.4049282073975,16.5749855041504,16.7162342071533,16.8599109649658,17.0181140899658,17.2003765106201,17.3876934051514,17.6218452453613,17.9332790374756,18.1563186645508,18.3739624023438,18.5969181060791,0,0,0,0,0,0,0,0,0,0,0,0,0,0,0,0,0,0,0,0,0,0,0,0,0,0,0,0,0,0,0,0,0,0,0,0,0,0,0,0,0,0,0,0,0,0,0,0,0,0,0,0,0,0,0,0,0,0,0,0,0,0,0,0,0,0,0,0,0,0,0,0,0,0,0,0,0,0,0,0,0,0,0,0,0,0,0,0,0,0,0,0,0,0,0,0,0,0,0,0,0,0,0,0,0,0,0,0,0,0,0,0,0,0,0,0,0,0,0,0,0,0,0,0,0,0
11.6998901367188,11.7565765380859,11.8138160705566,11.8716154098511,11.9299821853638,11.9889268875122,12.0484561920166,12.1085796356201,12.1693067550659,12.2306461334229,12.2926073074341,12.355206489563,12.4184465408325,12.4823369979858,12.5468883514404,12.6121110916138,12.6505069732666,12.6553382873535,12.660174369812,12.6650133132935,12.6698560714722,12.6747026443481,12.6795539855957,12.6844072341919,12.6892652511597,12.6941270828247,12.6989917755127,12.7038612365723,12.7087335586548,12.7136106491089,12.7184906005859,12.7233743667603,12.7282619476318,12.733154296875,12.7380495071411,12.7429485321045,12.7478513717651,12.752758026123,12.7576675415039,12.7625818252563,12.7674999237061,12.772421836853,12.7773475646973,12.7822761535645,12.7872095108032,12.7921466827393,12.7970876693726,12.8020315170288,12.8069801330566,12.8119325637817,12.8168888092041,12.8218479156494,12.8268117904663,12.8317794799805,12.8367509841919,12.8417263031006,12.8467054367065,12.8516883850098,12.8566751480103,12.861665725708,12.866660118103,12.8716592788696,12.8766613006592,12.8816680908203,12.8866777420044,12.8916921615601,12.8967094421387,12.9017314910889,12.9067573547363,12.9117870330811,12.916820526123,12.9218578338623,12.9268999099731,12.9319448471069,12.9369945526123,12.9420480728149,12.9471054077148,12.952166557312,12.9572315216064,12.9623003005981,12.9673728942871,12.9724502563477,12.9775314331055,12.9826164245605,12.9877052307129,12.9927988052368,12.9978952407837,13.0029964447021,13.0081014633179,13.0132102966309,13.0183238983154,13.0234403610229,13.0285615921021,13.0336866378784,13.0388154983521,13.0439491271973,13.0490856170654,13.0542268753052,13.0593729019165,13.0645217895508,13.0696754455566,13.0748329162598,13.0799942016602,13.0851602554321,13.0903301239014,13.0955038070679,13.1006813049316,13.105863571167,13.1110496520996,13.1162395477295,13.121434211731,13.1266326904297,13.1318349838257,13.1370410919189,13.1422519683838,13.1474676132202,13.1526861190796,13.1579093933105,13.1631374359131,13.1683683395386,13.1736040115356,13.1788444519043,13.1840877532959,13.1893367767334,13.1945886611938,13.1998453140259,13.2051057815552,13.2103710174561,13.2156400680542,13.2209138870239,13.2261905670166,13.2314729690552,13.2394952774048,13.2480964660645,13.2567090988159,13.2653322219849,13.2739677429199,13.2826137542725,13.2912702560425,13.2999391555786,13.3086194992065,13.317310333252,13.3260126113892,13.3347263336182,13.3434524536133,13.3521890640259,13.3609371185303,13.3696966171265,13.3784685134888,13.3872509002686,13.3960447311401,13.4048509597778,13.4136686325073,13.4224967956543,13.4313383102417,13.4483737945557,13.4801006317139,13.5119771957397,13.5440053939819,13.5761852264404,13.6085186004639,13.6551656723022,13.7135324478149,13.7724008560181,13.8317756652832,13.8916654586792,13.952075958252,14.013014793396,14.0744876861572,14.1365022659302,14.1990652084351,14.2621850967407,14.3258686065674,14.3901233673096,14.4549570083618,14.5203771591187,14.5863924026489,14.6530113220215,14.7202405929565,14.7880907058716,14.8565683364868,14.9256830215454,14.9954442977905,15.065860748291,15.1369409561157,15.2086954116821,15.2811336517334,15.8828096389771,15.9110774993896,16.0781154632568,16.2486991882324,16.4230728149414,16.5986022949219,16.740255355835,16.8843460083008,17.0352325439453,17.2178649902344,17.4053497314453,17.6333808898926,17.9452266693115,18.1786231994629,18.3968048095703,18.6202869415283,0,0,0,0,0,0,0,0,0,0,0,0,0,0,0,0,0,0,0,0,0,0,0,0,0,0,0,0,0,0,0,0,0,0,0,0,0,0,0,0,0,0,0,0,0,0,0,0,0,0,0,0,0,0,0,0,0,0,0,0,0,0,0,0,0,0,0,0,0,0,0,0,0,0,0,0,0,0,0,0,0,0,0,0,0,0,0,0,0,0,0,0,0,0,0,0,0,0,0,0,0,0,0,0,0,0,0,0,0,0,0,0,0,0,0,0,0,0,0,0,0,0,0,0,0
11.7003087997437,11.7569999694824,11.8142433166504,11.8720464706421,11.9304180145264,11.9893665313721,12.048900604248,12.1090288162231,12.1697597503662,12.2311029434204,12.2930688858032,12.3556728363037,12.4189176559448,12.4828128814697,12.5473699569702,12.6080255508423,12.6128244400024,12.6176280975342,12.6224346160889,12.6272459030151,12.6320600509644,12.6368770599365,12.6416988372803,12.646523475647,12.6513528823853,12.6561851501465,12.661021232605,12.6658611297607,12.6707048416138,12.6755523681641,12.6804037094116,12.6852579116821,12.6901168823242,12.6949787139893,12.6998453140259,12.7047147750854,12.7095880508423,12.7144651412964,12.7193460464478,12.7242307662964,12.7291193008423,12.7340116500854,12.7389068603516,12.7438068389893,12.7487106323242,12.7536172866821,12.7585287094116,12.7634439468384,12.7683620452881,12.7732839584351,12.7782106399536,12.7831401824951,12.7880744934082,12.7930116653442,12.7979536056519,12.8028984069824,12.8078479766846,12.8128004074097,12.817756652832,12.822717666626,12.8276824951172,12.8326501846313,12.8376226425171,12.8425979614258,12.8475780487061,12.8525619506836,12.8575496673584,12.8625411987305,12.8675365447998,12.8725357055664,12.8775386810303,12.8825454711914,12.8875560760498,12.8925704956055,12.8975896835327,12.9026117324829,12.9076385498047,12.9126682281494,12.9177026748657,12.9227409362793,12.9277830123901,12.9328298568726,12.9378795623779,12.9429330825806,12.9479913711548,12.9530534744263,12.958119392395,12.963189125061,12.9682626724243,12.9733409881592,12.978422164917,12.9835081100464,12.9885969161987,12.993691444397,12.9987888336182,13.0038909912109,13.0089960098267,13.014105796814,13.0192193984985,13.0243377685547,13.0294589996338,13.0345849990845,13.0397148132324,13.0448484420776,13.0499858856201,13.0551280975342,13.0602741241455,13.0654249191284,13.0705785751343,13.0757369995117,13.0808992385864,13.0860652923584,13.091236114502,13.0964107513428,13.1015892028809,13.1067714691162,13.1119585037231,13.1171493530273,13.1223440170288,13.1275434494019,13.1327466964722,13.1379537582397,13.1431655883789,13.1483812332153,13.1536016464233,13.158878326416,13.1673746109009,13.1758823394775,13.1844005584717,13.1929302215576,13.2014713287354,13.2100229263306,13.2185859680176,13.2271604537964,13.2357454299927,13.2443418502808,13.2529487609863,13.2615671157837,13.2701969146729,13.2788381576538,13.2874908447266,13.2961540222168,13.3048295974731,13.313515663147,13.3222131729126,13.33092212677,13.3396425247192,13.3483743667603,13.3571176528931,13.3658723831177,13.3746385574341,13.3834161758423,13.3922052383423,13.4010057449341,13.409818649292,13.4186420440674,13.4471397399902,13.4788608551025,13.5107316970825,13.5427541732788,13.5749282836914,13.6072559356689,13.6397371292114,13.6828231811523,13.7414264678955,13.8005352020264,13.8601541519165,13.9202899932861,13.9809503555298,14.0421419143677,14.1038703918457,14.166145324707,14.2289714813232,14.2923583984375,14.3563117980957,14.420841217041,14.4859523773193,14.5516548156738,14.6179552078247,14.6848630905151,14.7523860931396,14.8205327987671,14.8893117904663,14.9587326049805,15.0288038253784,15.099534034729,15.1709337234497,15.2430114746094,15.9215650558472,15.9301700592041,16.095588684082,16.266544342041,16.4412574768066,16.619909286499,16.7643451690674,16.9088535308838,17.0558757781982,17.235387802124,17.4230442047119,17.6449317932129,17.9571914672852,18.2009811401367,18.4197025299072,18.6437454223633,0,0,0,0,0,0,0,0,0,0,0,0,0,0,0,0,0,0,0,0,0,0,0,0,0,0,0,0,0,0,0,0,0,0,0,0,0,0,0,0,0,0,0,0,0,0,0,0,0,0,0,0,0,0,0,0,0,0,0,0,0,0,0,0,0,0,0,0,0,0,0,0,0,0,0,0,0,0,0,0,0,0,0,0,0,0,0,0,0,0,0,0,0,0,0,0,0,0,0,0,0,0,0,0,0,0,0,0,0,0,0,0,0,0,0,0,0,0,0,0,0,0,0,0
11.7007274627686,11.7574224472046,11.8146696090698,11.8724775314331,11.9308528900146,11.9898061752319,12.0493440628052,12.1094770431519,12.1702127456665,12.2315607070923,12.2935304641724,12.3561391830444,12.4193887710571,12.4832887649536,12.5478506088257,12.570595741272,12.575366973877,12.5801410675049,12.5849199295044,12.5897016525269,12.5944871902466,12.5992765426636,12.6040697097778,12.608865737915,12.6136655807495,12.6184701919556,12.6232776641846,12.6280879974365,12.6329030990601,12.6377220153809,12.6425437927246,12.6473693847656,12.6521997451782,12.6570329666138,12.6618690490723,12.6667098999023,12.6715545654297,12.67640209198,12.6812534332275,12.6861095428467,12.6909685134888,12.6958312988281,12.7006978988647,12.7055683135986,12.7104415893555,12.7153196334839,12.7202014923096,12.7250871658325,12.7299766540527,12.7348690032959,12.7397651672363,12.7446660995483,12.7495698928833,12.7544775009155,12.7593898773193,12.7643051147461,12.7692241668701,12.7741470336914,12.77907371521,12.7840051651001,12.7889394760132,12.7938776016235,12.7988195419312,12.803765296936,12.8087148666382,12.8136682510376,12.8186264038086,12.8235874176025,12.8285522460938,12.8335208892822,12.8384943008423,12.8434705734253,12.8484506607056,12.8534355163574,12.8584232330322,12.8634157180786,12.8684110641479,12.8734111785889,12.8784151077271,12.8834228515625,12.8884344100952,12.8934497833252,12.8984689712524,12.903491973877,12.908519744873,12.9135503768921,12.9185857772827,12.9236240386963,12.9286670684814,12.9337139129639,12.9387645721436,12.9438190460205,12.948878288269,12.9539403915405,12.9590072631836,12.9640779495239,12.9691524505615,12.9742307662964,12.9793128967285,12.9843988418579,12.9894895553589,12.9945840835571,12.9996824264526,13.0047845840454,13.0098915100098,13.0150012969971,13.020115852356,13.0252342224121,13.0303573608398,13.0354833602905,13.0406141281128,13.0457487106323,13.0508871078491,13.0560293197632,13.0611763000488,13.0663270950317,13.0714817047119,13.0766410827637,13.0818042755127,13.0876302719116,13.0960350036621,13.1044511795044,13.1128778457642,13.1213150024414,13.1297626495361,13.1382217407227,13.146692276001,13.1551733016968,13.1636648178101,13.1721677780151,13.180682182312,13.1892070770264,13.1977424621582,13.2062892913818,13.2148475646973,13.2234163284302,13.2319965362549,13.2405881881714,13.2491912841797,13.2578048706055,13.266429901123,13.2750654220581,13.2837133407593,13.2923717498779,13.3010416030884,13.3097229003906,13.3184156417847,13.3271198272705,13.3358354568481,13.3445625305176,13.3533000946045,13.3620500564575,13.3708114624023,13.379584312439,13.3883676528931,13.3971633911133,13.4143400192261,13.4459066390991,13.4776220321655,13.5094871520996,13.5415029525757,13.5736713409424,13.6059923171997,13.6384687423706,13.6710996627808,13.7105922698975,13.769434928894,13.828784942627,13.8886489868164,13.9490327835083,14.0099439620972,14.0713901519775,14.1333770751953,14.1959133148193,14.2590045928955,14.3226594924927,14.3868856430054,14.4516906738281,14.5170812606812,14.5830669403076,14.6496543884277,14.7168531417847,14.7846717834473,14.8531179428101,14.9222002029419,14.9919290542603,15.0623121261597,15.1333589553833,15.2050790786743,15.9605112075806,15.9691581726074,16.1131000518799,16.2844295501709,16.4594821929932,16.6385326385498,16.7885055541992,16.9334316253662,17.080883026123,17.2529449462891,17.4407711029053,17.6564979553223,17.9691696166992,18.2233963012695,18.4426593780518,18.6672630310059,0,0,0,0,0,0,0,0,0,0,0,0,0,0,0,0,0,0,0,0,0,0,0,0,0,0,0,0,0,0,0,0,0,0,0,0,0,0,0,0,0,0,0,0,0,0,0,0,0,0,0,0,0,0,0,0,0,0,0,0,0,0,0,0,0,0,0,0,0,0,0,0,0,0,0,0,0,0,0,0,0,0,0,0,0,0,0,0,0,0,0,0,0,0,0,0,0,0,0,0,0,0,0,0,0,0,0,0,0,0,0,0,0,0,0,0,0,0,0,0,0,0,0
11.7011461257935,11.7578449249268,11.8150968551636,11.8729085922241,11.9312887191772,11.9902458190918,12.0497884750366,12.1099252700806,12.1706657409668,12.2320184707642,12.2939929962158,12.3566055297852,12.4198598861694,12.4837646484375,12.5286483764648,12.5333881378174,12.5381307601929,12.5428771972656,12.5476274490356,12.5523805618286,12.5571384429932,12.5618991851807,12.5666627883911,12.5714311599731,12.5762033462524,12.5809783935547,12.5857572555542,12.590539932251,12.595326423645,12.600115776062,12.6049089431763,12.6097068786621,12.6145076751709,12.619312286377,12.624119758606,12.6289319992065,12.6337471008301,12.6385660171509,12.6433887481689,12.6482152938843,12.6530456542969,12.6578798294067,12.6627168655396,12.6675577163696,12.6724033355713,12.6772518157959,12.6821041107178,12.6869602203369,12.6918201446533,12.696683883667,12.7015504837036,12.7064218521118,12.7112970352173,12.7161750793457,12.7210569381714,12.7259435653687,12.7308330535889,12.7357263565063,12.7406234741211,12.7455244064331,12.7504301071167,12.7553377151489,12.7602500915527,12.7651662826538,12.7700862884521,12.7750101089478,12.7799377441406,12.7848691940308,12.7898044586182,12.7947425842285,12.7996854782104,12.8046321868896,12.8095827102661,12.8145370483398,12.8194952011108,12.8244571685791,12.8294229507446,12.8343925476074,12.8393659591675,12.8443431854248,12.8493242263794,12.8543090820312,12.8592977523804,12.8642902374268,12.8692874908447,12.8742876052856,12.8792924880981,12.8843002319336,12.8893127441406,12.8943290710449,12.8993482589722,12.904372215271,12.9094009399414,12.9144325256348,12.9194679260254,12.9245071411133,12.9295511245728,12.9345979690552,12.9396495819092,12.9447050094604,12.949764251709,12.9548273086548,12.9598951339722,12.9649667739868,12.9700412750244,12.9751205444336,12.98020362854,12.9852905273438,12.990382194519,12.9954767227173,13.0005760192871,13.0056791305542,13.0107860565186,13.0171499252319,13.0254650115967,13.0337896347046,13.0421257019043,13.0504722595215,13.0588293075562,13.0671977996826,13.0755758285522,13.0839653015137,13.0923662185669,13.1007766723633,13.1091985702515,13.1176309585571,13.1260747909546,13.1345291137695,13.142993927002,13.1514701843262,13.1599578857422,13.1684551239014,13.1769647598267,13.1854848861694,13.1940155029297,13.2025575637817,13.2111110687256,13.2196750640869,13.22825050354,13.236837387085,13.2454347610474,13.2540435791016,13.2626638412476,13.2712955474854,13.2799377441406,13.2885913848877,13.2972564697266,13.3059329986572,13.3146209716797,13.3233194351196,13.3320302963257,13.3407516479492,13.3494853973389,13.358229637146,13.3669862747192,13.37575340271,13.3845329284668,13.4131126403809,13.444673538208,13.4763822555542,13.5082416534424,13.5402517318726,13.5724143981934,13.6047296524048,13.6371994018555,13.6698246002197,13.7026062011719,13.7384748458862,13.7975568771362,13.8571500778198,13.9172601699829,13.9778938293457,14.0390586853027,14.1007604598999,14.1630077362061,14.2258062362671,14.2891645431519,14.3530902862549,14.4175891876221,14.4826717376709,14.5483436584473,14.6146144866943,14.6814918518066,14.7489833831787,14.8170986175537,14.8858461380005,14.9552345275879,15.0252723693848,15.0959701538086,15.1673355102539,15.2393789291382,16.008337020874,16.1306495666504,16.3023548126221,16.4777545928955,16.6571979522705,16.8127346038818,16.9580821990967,17.1059646606445,17.2705402374268,17.4585361480713,17.6680793762207,17.981164932251,18.2458648681641,18.4656715393066,18.6908416748047,0,0,0,0,0,0,0,0,0,0,0,0,0,0,0,0,0,0,0,0,0,0,0,0,0,0,0,0,0,0,0,0,0,0,0,0,0,0,0,0,0,0,0,0,0,0,0,0,0,0,0,0,0,0,0,0,0,0,0,0,0,0,0,0,0,0,0,0,0,0,0,0,0,0,0,0,0,0,0,0,0,0,0,0,0,0,0,0,0,0,0,0,0,0,0,0,0,0,0,0,0,0,0,0,0,0,0,0,0,0,0,0,0,0,0,0,0,0,0,0,0,0
11.7015647888184,11.7582683563232,11.8155241012573,11.8733396530151,11.9317235946655,11.9906854629517,12.0502328872681,12.1103744506836,12.1711187362671,12.232476234436,12.2944555282593,12.3570718765259,12.4203310012817,12.4842405319214,12.4916887283325,12.4963998794556,12.5011148452759,12.5058336257935,12.510555267334,12.5152807235718,12.5200099945068,12.5247421264648,12.5294790267944,12.534218788147,12.5389623641968,12.5437088012695,12.5484600067139,12.5532140731812,12.5579719543457,12.5627336502075,12.5674982070923,12.5722675323486,12.5770397186279,12.5818157196045,12.586594581604,12.5913782119751,12.5961647033691,12.6009559631348,12.6057500839233,12.6105470657349,12.615348815918,12.620153427124,12.6249628067017,12.6297750473022,12.6345911026001,12.6394109725952,12.6442346572876,12.6490612030029,12.6538925170898,12.6587266921997,12.6635646820068,12.6684064865112,12.6732530593872,12.6781015396118,12.682954788208,12.6878118515015,12.6926717758179,12.6975364685059,12.7024040222168,12.707275390625,12.7121505737305,12.7170305252075,12.7219133377075,12.7267999649048,12.7316904067993,12.7365846633911,12.7414817810059,12.7463836669922,12.7512893676758,12.7561979293823,12.7611112594604,12.7660284042358,12.7709493637085,12.7758731842041,12.780800819397,12.7857332229614,12.7906694412231,12.7956085205078,12.8005523681641,12.8054990768433,12.810450553894,12.8154048919678,12.8203639984131,12.8253259658813,12.8302927017212,12.8352632522583,12.8402376174927,12.8452157974243,12.8501968383789,12.8551826477051,12.8601722717285,12.8651657104492,12.8701629638672,12.8751640319824,12.8801698684692,12.885178565979,12.890191078186,12.8952083587646,12.9002285003662,12.9052534103394,12.9102821350098,12.9153137207031,12.9203500747681,12.9253911972046,12.9304351806641,12.9354829788208,12.9405355453491,12.9474248886108,12.9556503295898,12.9638872146606,12.9721336364746,12.9803905487061,12.988657951355,12.9969367980957,13.0052251815796,13.0135250091553,13.0218343734741,13.0301551818848,13.0384864807129,13.0468282699585,13.0551805496216,13.0635442733765,13.0719184875488,13.0803031921387,13.088698387146,13.0971040725708,13.1055212020874,13.1139497756958,13.1223878860474,13.1308374404907,13.1392984390259,13.1477699279785,13.1562519073486,13.1647453308105,13.1732492446899,13.1817646026611,13.1902914047241,13.1988286972046,13.2073764801025,13.2159366607666,13.2245063781738,13.2330884933472,13.241681098938,13.2502851486206,13.258900642395,13.2675266265869,13.2761640548706,13.2848129272461,13.2934732437134,13.3021450042725,13.310827255249,13.3195219039917,13.3282270431519,13.3369436264038,13.3456726074219,13.3544120788574,13.3631629943848,13.3804788589478,13.4118852615356,13.4434404373169,13.4751434326172,13.5069971084595,13.5390014648438,13.5711574554443,13.6034669876099,13.6359310150146,13.6685495376587,13.7013254165649,13.7342586517334,13.7673501968384,13.825795173645,13.8856325149536,13.945990562439,14.0068759918213,14.0682945251465,14.1302547454834,14.1927623748779,14.2558259963989,14.3194532394409,14.3836498260498,14.4484252929688,14.513786315918,14.5797414779663,14.6462993621826,14.7134675979614,14.7812538146973,14.8496685028076,14.918719291687,14.9884147644043,15.058765411377,15.1297788619995,15.2014646530151,16.0477085113525,16.1482372283936,16.3203201293945,16.4961071014404,16.6759052276611,16.8370342254639,16.9828033447266,17.1311187744141,17.2881698608398,17.4763374328613,17.6796760559082,17.9931774139404,18.2683887481689,18.4887428283691,18.7144775390625,0,0,0,0,0,0,0,0,0,0,0,0,0,0,0,0,0,0,0,0,0,0,0,0,0,0,0,0,0,0,0,0,0,0,0,0,0,0,0,0,0,0,0,0,0,0,0,0,0,0,0,0,0,0,0,0,0,0,0,0,0,0,0,0,0,0,0,0,0,0,0,0,0,0,0,0,0,0,0,0,0,0,0,0,0,0,0,0,0,0,0,0,0,0,0,0,0,0,0,0,0,0,0,0,0,0,0,0,0,0,0,0,0,0,0,0,0,0,0,0,0
11.7019834518433,11.7586908340454,11.8159503936768,11.8737707138062,11.9321594238281,11.9911251068115,12.0506763458252,12.1108226776123,12.1715717315674,12.2329339981079,12.2949171066284,12.3575382232666,12.420802116394,12.4502649307251,12.45494556427,12.4596290588379,12.464316368103,12.4690065383911,12.4737014770508,12.4783992767334,12.483099937439,12.4878053665161,12.4925136566162,12.4972257614136,12.5019416809082,12.5066604614258,12.5113830566406,12.5161094665527,12.5208387374878,12.5255718231201,12.5303087234497,12.5350494384766,12.5397930145264,12.5445413589478,12.5492925643921,12.5540475845337,12.5588064193726,12.5635681152344,12.5683336257935,12.5731029510498,12.5778760910034,12.58265209198,12.5874328613281,12.5922164916992,12.5970039367676,12.6017951965332,12.6065902709961,12.6113882064819,12.6161909103394,12.6209955215454,12.6258058547974,12.6306190490723,12.6354351043701,12.6402559280396,12.6450796127319,12.6499071121216,12.6547384262085,12.659574508667,12.6644134521484,12.6692552566528,12.6741018295288,12.6789512634277,12.6838054656982,12.6886625289917,12.6935243606567,12.6983890533447,12.70325756073,12.7081298828125,12.713005065918,12.717885017395,12.7227687835693,12.7276563644409,12.7325477600098,12.7374420166016,12.7423400878906,12.7472429275513,12.7521495819092,12.75705909729,12.7619724273682,12.7668905258179,12.7718114852905,12.7767362594604,12.7816648483276,12.7865982055664,12.7915344238281,12.7964744567871,12.8014183044434,12.8063669204712,12.811318397522,12.81627368927,12.8212327957153,12.8261966705322,12.8311634063721,12.8361349105835,12.8411092758179,12.8460874557495,12.8510704040527,12.8560562133789,12.8610467910767,12.8660411834717,12.871039390564,12.8784427642822,12.8865814208984,12.8947296142578,12.9028882980347,12.911057472229,12.9192371368408,12.9274272918701,12.9356279373169,12.9438381195068,12.9520597457886,12.9602909088135,12.9685335159302,12.97678565979,12.9850482940674,12.9933223724365,13.0016069412231,13.0099010467529,13.0182065963745,13.0265226364136,13.0348491668701,13.0431861877441,13.0515336990356,13.0598926544189,13.0682621002197,13.076642036438,13.0850324630737,13.0934343338013,13.1018466949463,13.1102695465088,13.1187038421631,13.1271486282349,13.1356048583984,13.1440706253052,13.152548789978,13.1610374450684,13.1695365905762,13.1780471801758,13.1865682601929,13.1951007843018,13.2036447525024,13.2121992111206,13.2207651138306,13.229341506958,13.2379293441772,13.2465286254883,13.2551393508911,13.2637605667114,13.2723932266235,13.2810373306274,13.2896919250488,13.2983589172363,13.3070363998413,13.3157253265381,13.324426651001,13.3331384658813,13.3418617248535,13.3505964279175,13.3792572021484,13.4106588363647,13.4422073364258,13.4739055633545,13.5057525634766,13.5377511978149,13.5699014663696,13.6022052764893,13.6346626281738,13.667275428772,13.700044631958,13.7329711914062,13.7660570144653,13.7993021011353,13.8541488647461,13.9142322540283,13.9748401641846,14.0359773635864,14.0976524353027,14.1598720550537,14.2226428985596,14.2859725952148,14.3498697280884,14.4143400192261,14.4793920516968,14.5450353622437,14.6112747192383,14.6781215667725,14.7455825805664,14.813666343689,14.882381439209,14.9517374038696,15.0217428207397,15.0924072265625,15.1637392044067,15.2357482910156,16.165864944458,16.3383235931396,16.5145015716553,16.694652557373,16.8614025115967,17.0075969696045,17.1563472747803,17.3077239990234,17.494348526001,17.6912879943848,18.0052051544189,0,0,0,0,0,0,0,0,0,0,0,0,0,0,0,0,0,0,0,0,0,0,0,0,0,0,0,0,0,0,0,0,0,0,0,0,0,0,0,0,0,0,0,0,0,0,0,0,0,0,0,0,0,0,0,0,0,0,0,0,0,0,0,0,0,0,0,0,0,0,0,0,0,0,0,0,0,0,0,0,0,0,0,0,0,0,0,0,0,0,0,0,0,0,0,0,0,0,0,0,0,0,0,0,0,0,0,0,0,0,0,0,0,0,0,0,0,0,0,0,0,0,0
11.7024021148682,11.7591142654419,11.8163776397705,11.8742017745972,11.9325952529907,11.9915647506714,12.0511207580566,12.111270904541,12.1720247268677,12.2333917617798,12.2953796386719,12.3580045700073,12.4091157913208,12.4137649536133,12.418417930603,12.42307472229,12.427734375,12.4323968887329,12.4370641708374,12.4417343139648,12.4464082717896,12.4510850906372,12.4557657241821,12.4604501724243,12.4651374816895,12.4698295593262,12.4745244979858,12.4792222976685,12.4839248657227,12.4886302947998,12.4933385848999,12.4980516433716,12.5027675628662,12.5074872970581,12.5122108459473,12.5169372558594,12.5216674804688,12.5264015197754,12.5311393737793,12.5358800888062,12.5406246185303,12.5453729629517,12.5501251220703,12.5548810958862,12.5596399307251,12.5644025802612,12.5691690444946,12.573938369751,12.5787124633789,12.5834903717041,12.5882711410522,12.5930547714233,12.597843170166,12.6026344299316,12.6074304580688,12.612229347229,12.6170320510864,12.6218385696411,12.6266479492188,12.631462097168,12.6362791061401,12.6411008834839,12.6459255218506,12.6507539749146,12.6555862426758,12.6604223251343,12.6652612686157,12.6701040267944,12.6749515533447,12.679801940918,12.6846561431885,12.6895141601562,12.6943759918213,12.6992416381836,12.7041101455688,12.7089834213257,12.7138605117798,12.7187404632568,12.7236251831055,12.7285127639771,12.7334041595459,12.7383003234863,12.7431993484497,12.7481021881104,12.7530088424683,12.7579193115234,12.7628335952759,12.7677516937256,12.7726736068726,12.7775993347168,12.7825288772583,12.7874622344971,12.7923994064331,12.7973403930664,12.802285194397,12.8101921081543,12.8182439804077,12.8263063430786,12.834379196167,12.8424615859985,12.8505544662476,12.8586578369141,12.8667707443237,12.8748941421509,12.8830280303955,12.8911724090576,12.8993263244629,12.9074907302856,12.9156665802002,12.9238510131836,12.9320468902588,12.9402532577515,12.9484701156616,12.9566974639893,12.9649343490601,12.9731826782227,12.9814414978027,12.989709854126,12.997989654541,13.0062799453735,13.0145807266235,13.022891998291,13.031213760376,13.0395460128784,13.0478897094727,13.0562429428101,13.0646076202393,13.0729837417603,13.0813694000244,13.0897665023804,13.0981740951538,13.1065921783447,13.1150217056274,13.1234617233276,13.1319122314453,13.1403741836548,13.1488475799561,13.1573314666748,13.165825843811,13.1743316650391,13.1828479766846,13.1913757324219,13.1999139785767,13.2084646224976,13.2170248031616,13.2255973815918,13.2341804504395,13.2427740097046,13.2513799667358,13.2599964141846,13.2686243057251,13.2772626876831,13.2859134674072,13.2945747375488,13.3032474517822,13.3119316101074,13.3206272125244,13.3293342590332,13.3467874526978,13.3780364990234,13.4094314575195,13.440975189209,13.4726667404175,13.5045080184937,13.5365009307861,13.5686454772949,13.6009426116943,13.633394241333,13.6660013198853,13.6987648010254,13.7316846847534,13.7647647857666,13.7980031967163,13.8314037322998,13.8826179504395,13.9429502487183,14.0038080215454,14.0652008056641,14.1271333694458,14.1896133422852,14.252649307251,14.3162469863892,14.3804149627686,14.4451608657837,14.5104932785034,14.5764179229736,14.6429452896118,14.7100830078125,14.7778387069702,14.8462209701538,14.9152393341064,14.984902381897,15.0552196502686,15.12619972229,15.1978521347046,16.1835289001465,16.3563671112061,16.53293800354,16.7134437561035,16.8858432769775,17.0324630737305,17.1816520690918,17.3334770202637,17.5124378204346,17.7066917419434,18.0172481536865,0,0,0,0,0,0,0,0,0,0,0,0,0,0,0,0,0,0,0,0,0,0,0,0,0,0,0,0,0,0,0,0,0,0,0,0,0,0,0,0,0,0,0,0,0,0,0,0,0,0,0,0,0,0,0,0,0,0,0,0,0,0,0,0,0,0,0,0,0,0,0,0,0,0,0,0,0,0,0,0,0,0,0,0,0,0,0,0,0,0,0,0,0,0,0,0,0,0,0,0,0,0,0,0,0,0,0,0,0,0,0,0,0,0,0,0,0,0,0,0,0,0
11.7028217315674,11.7595367431641,11.8168048858643,11.8746328353882,11.933030128479,11.9920053482056,12.0515651702881,12.111720085144,12.1724786758423,12.2338495254517,12.2958421707153,12.358470916748,12.372857093811,12.3774785995483,12.3821039199829,12.3867330551147,12.3913660049438,12.3960018157959,12.4006414413452,12.4052839279175,12.4099311828613,12.4145803451538,12.4192342758179,12.4238901138306,12.4285507202148,12.4332141876221,12.4378814697266,12.4425525665283,12.4472274780273,12.4519052505493,12.4565858840942,12.4612712860107,12.4659595489502,12.4706516265869,12.4753475189209,12.4800462722778,12.484748840332,12.4894542694092,12.4941644668579,12.4988775253296,12.5035943984985,12.5083150863647,12.5130386352539,12.5177659988403,12.522497177124,12.5272312164307,12.5319700241089,12.5367116928101,12.5414571762085,12.5462055206299,12.5509576797485,12.5557146072388,12.560474395752,12.5652370452881,12.5700044631958,12.5747747421265,12.5795488357544,12.5843267440796,12.5891084671021,12.5938940048218,12.5986824035645,12.6034746170044,12.6082706451416,12.6130704879761,12.6178741455078,12.6226806640625,12.6274919509888,12.632306098938,12.6371240615845,12.6419458389282,12.6467714309692,12.6515998840332,12.6564331054688,12.6612691879272,12.666109085083,12.670952796936,12.6758012771606,12.6806516647339,12.6855068206787,12.6903657913208,12.6952276229858,12.7000942230225,12.7049646377563,12.7098379135132,12.7147150039673,12.7195959091187,12.7244806289673,12.7293691635132,12.7347030639648,12.7426605224609,12.7506275177002,12.7586050033569,12.7665929794312,12.7745904922485,12.7825975418091,12.7906150817871,12.7986431121826,12.8066806793213,12.8147287368774,12.8227863311768,12.8308544158936,12.8389329910278,12.8470211029053,12.8551197052002,12.8632287979126,12.8713474273682,12.8794765472412,12.8876161575317,12.8957662582397,12.9039268493652,12.9120969772339,12.92027759552,12.9284687042236,12.9366703033447,12.9448823928833,12.9531049728394,12.9613380432129,12.9695816040039,12.9778356552124,12.9861001968384,12.9943752288818,13.0026607513428,13.0109567642212,13.0192632675171,13.0275802612305,13.0359077453613,13.044246673584,13.0525960922241,13.0609560012817,13.0693264007568,13.0777082443237,13.0861005783081,13.09450340271,13.1029167175293,13.1113414764404,13.119776725769,13.1282234191895,13.136679649353,13.1451482772827,13.1536273956299,13.1621170043945,13.170618057251,13.1791296005249,13.1876525878906,13.1961860656738,13.2047309875488,13.2132873535156,13.2218542098999,13.230432510376,13.2390222549438,13.2476224899292,13.2562341690063,13.2648572921753,13.2734909057617,13.2821369171143,13.2907934188843,13.2994613647461,13.3081407546997,13.3168315887451,13.3455724716187,13.3768157958984,13.4082050323486,13.4397430419922,13.4714288711548,13.5032644271851,13.5352506637573,13.5673894882202,13.5996809005737,13.6321268081665,13.6647272109985,13.6974840164185,13.7303991317749,13.7634716033936,13.7967042922974,13.8300981521606,13.8636541366577,13.911205291748,13.9717864990234,14.0328969955444,14.0945453643799,14.1567373275757,14.2194805145264,14.2827816009521,14.3466501235962,14.4110918045044,14.4761152267456,14.54172706604,14.6079378128052,14.6747531890869,14.7421827316284,14.8102350234985,14.8789186477661,14.9482421875,15.0182151794434,15.088846206665,15.1601438522339,16.2012329101562,16.3744506835938,16.5514144897461,16.7322769165039,16.9103546142578,17.0574016571045,17.2070293426514,17.3593063354492,17.5305671691895,17.7250022888184,18.0293083190918,0,0,0,0,0,0,0,0,0,0,0,0,0,0,0,0,0,0,0,0,0,0,0,0,0,0,0,0,0,0,0,0,0,0,0,0,0,0,0,0,0,0,0,0,0,0,0,0,0,0,0,0,0,0,0,0,0,0,0,0,0,0,0,0,0,0,0,0,0,0,0,0,0,0,0,0,0,0,0,0,0,0,0,0,0,0,0,0,0,0,0,0,0,0,0,0,0,0,0,0,0,0,0,0,0,0,0,0,0,0,0,0,0,0,0,0,0,0,0,0,0
11.7032403945923,11.7599601745605,11.817232131958,11.8750648498535,11.9334659576416,11.9924449920654,12.0520095825195,12.1121683120728,12.1729316711426,12.2343072891235,12.2963047027588,12.3322162628174,12.3368091583252,12.3414039611816,12.3460025787354,12.350604057312,12.3552103042603,12.3598194122314,12.3644313812256,12.369047164917,12.3736658096313,12.3782892227173,12.3829154968262,12.387544631958,12.3921775817871,12.3968143463135,12.4014539718628,12.4060974121094,12.4107446670532,12.4153957366943,12.4200496673584,12.4247064590454,12.429368019104,12.4340324401855,12.43869972229,12.4433717727661,12.4480466842651,12.4527244567871,12.4574069976807,12.4620923995972,12.4667816162109,12.4714736938477,12.4761695861816,12.4808692932129,12.4855728149414,12.4902791976929,12.4949893951416,12.4997034072876,12.5044212341309,12.5091419219971,12.5138664245605,12.5185947418213,12.523325920105,12.5280609130859,12.5327997207642,12.5375423431396,12.5422887802124,12.5470380783081,12.5517911911011,12.5565481185913,12.5613088607788,12.5660724639893,12.570839881897,12.575611114502,12.5803861618042,12.5851650238037,12.5899467468262,12.5947322845459,12.5995216369629,12.6043148040771,12.6091117858887,12.6139116287231,12.6187162399292,12.6235227584839,12.6283349990845,12.633150100708,12.6379680633545,12.6427907943726,12.6476163864136,12.6524467468262,12.6572799682617,12.6621170043945,12.6679630279541,12.6758375167847,12.6837215423584,12.6916151046753,12.6995191574097,12.7074327468872,12.7153558731079,12.7232894897461,12.7312326431274,12.7391862869263,12.7471494674683,12.7551221847534,12.7631053924561,12.7710981369019,12.7791013717651,12.7871150970459,12.7951383590698,12.8031711578369,12.8112144470215,12.8192682266235,12.8273315429688,12.8354053497314,12.8434896469116,12.851583480835,12.8596878051758,12.8678026199341,12.8759279251099,12.8840627670288,12.8922080993652,12.9003639221191,12.9085292816162,12.9167060852051,12.9248924255371,12.9330902099609,12.9412975311279,12.9495153427124,12.9577436447144,12.9659824371338,12.9742317199707,12.9824914932251,12.990761756897,12.9990425109863,13.0073347091675,13.0156364440918,13.0239486694336,13.0322723388672,13.0406064987183,13.0489511489868,13.0573062896729,13.0656719207764,13.0740489959717,13.0824365615845,13.0908346176147,13.0992431640625,13.1076631546021,13.1160936355591,13.1245355606079,13.1329879760742,13.141450881958,13.1499252319336,13.1584100723267,13.1669063568115,13.1754131317139,13.183931350708,13.1924600601196,13.201000213623,13.2095518112183,13.218113899231,13.2266874313354,13.2352724075317,13.2438678741455,13.2524747848511,13.2610921859741,13.2697219848633,13.2783622741699,13.2870140075684,13.2956771850586,13.3132658004761,13.3443574905396,13.3755950927734,13.4069786071777,13.4385108947754,13.4701910018921,13.5020208358765,13.5340013504028,13.5661334991455,13.5984191894531,13.630859375,13.6634540557861,13.6962041854858,13.7291126251221,13.7621793746948,13.7954063415527,13.8287935256958,13.8623428344727,13.8960552215576,13.9399108886719,14.0007419586182,14.0621070861816,14.1240129470825,14.1864652633667,14.249472618103,14.313042640686,14.3771820068359,14.4418992996216,14.5072011947632,14.5730962753296,14.6395931243896,14.7066993713379,14.7744235992432,14.8427753448486,14.9117612838745,14.9813919067383,15.0516757965088,15.1226224899292,15.1942415237427,16.3925743103027,16.5699329376221,16.7511692047119,16.9349365234375,17.0824146270752,17.2324829101562,17.3852119445801,17.5487327575684,17.743350982666,18.0413837432861,0,0,0,0,0,0,0,0,0,0,0,0,0,0,0,0,0,0,0,0,0,0,0,0,0,0,0,0,0,0,0,0,0,0,0,0,0,0,0,0,0,0,0,0,0,0,0,0,0,0,0,0,0,0,0,0,0,0,0,0,0,0,0,0,0,0,0,0,0,0,0,0,0,0,0,0,0,0,0,0,0,0,0,0,0,0,0,0,0,0,0,0,0,0,0,0,0,0,0,0,0,0,0,0,0,0,0,0,0,0,0,0,0,0,0,0,0,0,0,0
11.7036590576172,11.7603826522827,11.8176593780518,11.8754959106445,11.9339017868042,11.9928846359253,12.052453994751,12.1045875549316,12.1141939163208,12.1238164901733,12.1334533691406,12.1431064605713,12.152774810791,12.3055381774902,12.3101100921631,12.3146858215332,12.3192644119263,12.3238458633423,12.3284320831299,12.3330211639404,12.3376131057739,12.3422088623047,12.3468084335327,12.3514108657837,12.3560171127319,12.3606271743774,12.3652400970459,12.3698558807373,12.374475479126,12.3790988922119,12.3837261199951,12.3883562088013,12.3929901123047,12.3976268768311,12.4022674560547,12.4069118499756,12.4115591049194,12.4162101745605,12.4208650588989,12.4255228042603,12.4301843643188,12.4348497390747,12.4395179748535,12.4441900253296,12.4488658905029,12.4535446166992,12.4582281112671,12.4629135131836,12.4676027297974,12.4722967147827,12.4769926071167,12.4816932678223,12.4863967895508,12.4911050796509,12.4958152770996,12.5005302429199,12.5052480697632,12.5099697113037,12.5146942138672,12.5194234848022,12.5241556167603,12.5288915634155,12.5336303710938,12.5383739471436,12.5431203842163,12.5478706359863,12.5526247024536,12.5573816299438,12.5621433258057,12.5669069290161,12.5716753005981,12.5764474868774,12.5812225341797,12.5860023498535,12.5907850265503,12.5955715179443,12.6019191741943,12.6097106933594,12.6175136566162,12.6253252029419,12.6331462860107,12.6409778594971,12.6488180160522,12.6566686630249,12.6645288467407,12.672399520874,12.6802787780762,12.6881685256958,12.6960687637329,12.7039775848389,12.7118968963623,12.7198257446289,12.727765083313,12.7357139587402,12.7436723709106,12.7516412734985,12.7596197128296,12.7676086425781,12.7756071090698,12.783616065979,12.7916355133057,12.7996644973755,12.8077030181885,12.8157520294189,12.8238115310669,12.831880569458,12.8399600982666,12.8480501174927,12.8561496734619,12.8642597198486,12.8723802566528,12.8805112838745,12.8886518478394,12.8968029022217,12.9049644470215,12.9131364822388,12.9213180541992,12.9295110702515,12.9377136230469,12.9459276199341,12.9541511535645,12.9623851776123,12.970630645752,12.9788856506348,12.9871511459351,12.9954271316528,13.0037145614624,13.0120115280151,13.0203199386597,13.0286378860474,13.0369672775269,13.0453071594238,13.0536584854126,13.0620193481445,13.0703916549683,13.0787744522095,13.0871677398682,13.0955724716187,13.1039867401123,13.1124134063721,13.120849609375,13.1292972564697,13.1377563476562,13.1462249755859,13.1547060012817,13.1631965637207,13.1716995239258,13.180212020874,13.1887369155884,13.1972723007202,13.2058181762695,13.2143754959106,13.2229442596436,13.2315235137939,13.2401151657104,13.2487163543701,13.2573299407959,13.2659540176392,13.2745895385742,13.2832365036011,13.3120565414429,13.3431434631348,13.3743743896484,13.4057531356812,13.4372787475586,13.4689531326294,13.5007772445679,13.5327520370483,13.5648784637451,13.5971584320068,13.6295919418335,13.6621799468994,13.6949253082275,13.7278270721436,13.7608880996704,13.7941083908081,13.827488899231,13.8610324859619,13.8947381973267,13.9286088943481,13.9687347412109,14.0298185348511,14.0914392471313,14.153603553772,14.2163190841675,14.2795925140381,14.3434314727783,14.407844543457,14.4728384017944,14.5384216308594,14.6046009063721,14.67138671875,14.7387857437134,14.8068065643311,14.8754577636719,14.944748878479,15.0146884918213,15.0852861404419,15.156551361084,16.410737991333,16.5884914398193,16.7701358795166,16.955982208252,17.1075000762939,17.2580127716064,17.4111957550049,17.5671215057373,17.7617378234863,18.0534763336182,0,0,0,0,0,0,0,0,0,0,0,0,0,0,0,0,0,0,0,0,0,0,0,0,0,0,0,0,0,0,0,0,0,0,0,0,0,0,0,0,0,0,0,0,0,0,0,0,0,0,0,0,0,0,0,0,0,0,0,0,0,0,0,0,0,0,0,0,0,0,0,0,0,0,0,0,0,0,0,0,0,0,0,0,0,0,0,0,0,0,0,0,0,0,0,0,0,0,0,0,0,0,0,0,0,0,0,0,0,0,0,0,0,0,0,0,0,0,0
11.7040786743164,11.7608060836792,11.8180866241455,11.8759269714355,11.9343376159668,11.9933242797852,12.0528984069824,12.0683441162109,12.0778970718384,12.0874652862549,12.0970468521118,12.1066417694092,12.1162519454956,12.1258773803711,12.1355180740356,12.1451740264893,12.1548461914062,12.164532661438,12.1742353439331,12.1839532852173,12.1936864852905,12.2034349441528,12.2131996154785,12.2229795455933,12.2327756881714,12.2425870895386,12.2524147033691,12.3338251113892,12.338418006897,12.3430147171021,12.3476142883301,12.3522176742554,12.3568248748779,12.3614349365234,12.3660478591919,12.3706655502319,12.3752861022949,12.3799095153809,12.3845367431641,12.3891677856445,12.3938016891479,12.3984394073486,12.4030809402466,12.4077262878418,12.4123735427856,12.4170255661011,12.4216814041138,12.4263391494751,12.431001663208,12.4356670379639,12.440336227417,12.4450092315674,12.4496850967407,12.4543647766113,12.4590482711792,12.46373462677,12.4684257507324,12.4731187820435,12.4778165817261,12.4825172424316,12.4872217178345,12.4919300079346,12.4966411590576,12.5013561248779,12.5060749053955,12.510796546936,12.5155229568481,12.5202522277832,12.5249853134155,12.5297212600708,12.5365600585938,12.5442714691162,12.5519924163818,12.5597238540649,12.5674638748169,12.575213432312,12.5829734802246,12.5907421112061,12.598521232605,12.6063089370728,12.614107131958,12.6219139099121,12.6297311782837,12.6375589370728,12.6453952789307,12.6532411575317,12.6610975265503,12.668963432312,12.6768388748169,12.6847238540649,12.6926193237305,12.7005243301392,12.708438873291,12.7163639068604,12.7242984771729,12.7322435379028,12.740198135376,12.7481622695923,12.7561368942261,12.764121055603,12.7721157073975,12.7801198959351,12.7881345748901,12.7961587905884,12.8041934967041,12.812237739563,12.8202924728394,12.8283576965332,12.8364324569702,12.8445177078247,12.8526134490967,12.8607187271118,12.8688344955444,12.8769607543945,12.8850975036621,12.8932437896729,12.9014015197754,12.9095687866211,12.9177465438843,12.9259338378906,12.9341325759888,12.9423418045044,12.9505605697632,12.9587907791138,12.9670305252075,12.9752807617188,12.9835424423218,12.991813659668,13.000096321106,13.0083894729614,13.0166921615601,13.0250062942505,13.0333309173584,13.0416660308838,13.050012588501,13.0583686828613,13.0667362213135,13.0751142501831,13.0835027694702,13.0919027328491,13.1003131866455,13.1087341308594,13.117166519165,13.1256093978882,13.1340627670288,13.1425275802612,13.1510028839111,13.1594896316528,13.167986869812,13.176495552063,13.1850147247314,13.1935453414917,13.2020874023438,13.2106399536133,13.2192029953003,13.2277784347534,13.236364364624,13.2449607849121,13.2535696029663,13.262188911438,13.2799119949341,13.310848236084,13.3419284820557,13.3731546401978,13.4045267105103,13.4360466003418,13.4677152633667,13.4995336532593,13.5315027236938,13.5636234283447,13.5958967208862,13.628324508667,13.660906791687,13.6936454772949,13.726541519165,13.7595958709717,13.7928104400635,13.8261852264404,13.8597211837769,13.8934211730957,13.927285194397,13.9613151550293,13.9976778030396,14.0590162277222,14.1208934783936,14.1833190917969,14.246298789978,14.3098402023315,14.3739500045776,14.4386377334595,14.5039110183716,14.5697765350342,14.6362428665161,14.7033176422119,14.7710113525391,14.8393306732178,14.9082851409912,14.9778833389282,15.0481338500977,15.119047164917,15.1906318664551,16.6070919036865,16.7891464233398,16.9753665924072,17.1326599121094,17.2836170196533,17.437255859375,17.5936527252197,17.7801628112793,18.0655841827393,0,0,0,0,0,0,0,0,0,0,0,0,0,0,0,0,0,0,0,0,0,0,0,0,0,0,0,0,0,0,0,0,0,0,0,0,0,0,0,0,0,0,0,0,0,0,0,0,0,0,0,0,0,0,0,0,0,0,0,0,0,0,0,0,0,0,0,0,0,0,0,0,0,0,0,0,0,0,0,0,0,0,0,0,0,0,0,0,0,0,0,0,0,0,0,0,0,0,0,0,0,0,0,0,0,0,0,0,0,0,0,0,0,0,0,0,0,0
11.7044973373413,11.7612295150757,11.8185138702393,11.8763589859009,11.9347724914551,11.9937648773193,12.0227909088135,12.0322713851929,12.0417671203613,12.0512781143188,12.0608043670654,12.0703449249268,12.0799007415771,12.0894718170166,12.0990581512451,12.1086597442627,12.1182765960693,12.1279077529907,12.1375551223755,12.1472177505493,12.1568965911865,12.1665897369385,12.1762990951538,12.1860237121582,12.1957635879517,12.2055187225342,12.2152900695801,12.2250747680664,12.2348737716675,12.2446889877319,12.2545194625854,12.2643661499023,12.2742290496826,12.284107208252,12.2940006256104,12.3039112091064,12.3138370513916,12.3237791061401,12.3337373733521,12.3437118530273,12.3537015914917,12.3622426986694,12.3668565750122,12.3714742660522,12.3760957717896,12.3807201385498,12.3853483200073,12.3899793624878,12.3946142196655,12.3992528915405,12.4038944244385,12.4085397720337,12.4131889343262,12.4178409576416,12.4224967956543,12.4271564483643,12.4318189620972,12.4364852905273,12.4411544799805,12.4458284378052,12.4505043029785,12.4551849365234,12.4598693847656,12.4645566940308,12.4718751907349,12.4795074462891,12.4871492385864,12.494800567627,12.5024604797363,12.5101308822632,12.5178098678589,12.5254983901978,12.5331974029541,12.5409049987793,12.5486221313477,12.5563488006592,12.5640850067139,12.5718297958374,12.5795850753784,12.5873498916626,12.5951251983643,12.6029090881348,12.6107025146484,12.6185054779053,12.6263189315796,12.6341409683228,12.6419734954834,12.6498155593872,12.6576671600342,12.6655292510986,12.6733999252319,12.6812810897827,12.689172744751,12.6970729827881,12.7049837112427,12.7129039764404,12.7208347320557,12.7287750244141,12.7367248535156,12.7446851730347,12.7526550292969,12.7606353759766,12.7686252593994,12.7766246795654,12.7846355438232,12.7926549911499,12.8006858825684,12.8087253570557,12.8167762756348,12.824836730957,12.8329067230225,12.8409881591797,12.8490791320801,12.8571805953979,12.865291595459,12.8734130859375,12.8815450668335,12.889687538147,12.8978395462036,12.9060029983521,12.9141759872437,12.9223594665527,12.9305534362793,12.9387578964233,12.9469718933105,12.9551973342896,12.963433265686,12.9716787338257,12.9799356460571,12.9882030487061,12.9964799880981,13.004768371582,13.0130672454834,13.0213766098022,13.0296964645386,13.0380268096924,13.046368598938,13.0547199249268,13.0630826950073,13.0714569091797,13.0798406600952,13.0882358551025,13.0966415405273,13.1050577163696,13.1134853363037,13.1219234466553,13.1303720474243,13.1388320922852,13.1473026275635,13.1557846069336,13.1642770767212,13.1727809906006,13.1812953948975,13.1898212432861,13.1983575820923,13.2069053649902,13.21546459198,13.2240343093872,13.2326154708862,13.2412071228027,13.2498111724854,13.2787094116211,13.3096399307251,13.3407144546509,13.3719348907471,13.4033012390137,13.4348154067993,13.4664783477783,13.498291015625,13.5302534103394,13.5623683929443,13.5946359634399,13.6270570755005,13.6596336364746,13.6923666000366,13.7252559661865,13.7583045959473,13.7915124893188,13.8248805999756,13.8584108352661,13.8921051025391,13.9259624481201,13.9599857330322,13.9941749572754,14.0285329818726,14.0883350372314,14.1504716873169,14.2131595611572,14.2764043807983,14.3402156829834,14.4045991897583,14.4695634841919,14.535117149353,14.6012668609619,14.6680212020874,14.7353887557983,14.8033781051636,14.8719987869263,14.9412574768066,15.0111646652222,15.0817289352417,15.1529598236084,16.6257343292236,16.8082008361816,16.9947948455811,17.1578941345215,17.3092975616455,17.4633960723877,17.6202640533447,17.7986259460449,18.077709197998,0,0,0,0,0,0,0,0,0,0,0,0,0,0,0,0,0,0,0,0,0,0,0,0,0,0,0,0,0,0,0,0,0,0,0,0,0,0,0,0,0,0,0,0,0,0,0,0,0,0,0,0,0,0,0,0,0,0,0,0,0,0,0,0,0,0,0,0,0,0,0,0,0,0,0,0,0,0,0,0,0,0,0,0,0,0,0,0,0,0,0,0,0,0,0,0,0,0,0,0,0,0,0,0,0,0,0,0,0,0,0,0,0,0,0,0,0
11.7049160003662,11.7616519927979,11.818941116333,11.8767900466919,11.9352083206177,11.9775800704956,11.9869899749756,11.9964141845703,12.0058536529541,12.0153074264526,12.0247764587402,12.0342607498169,12.0437593460083,12.0532732009888,12.0628023147583,12.0723457336426,12.0819053649902,12.0914793014526,12.1010684967041,12.1106729507446,12.1202936172485,12.1299285888672,12.1395788192749,12.149245262146,12.1589260101318,12.1686229705811,12.1783351898193,12.1880626678467,12.1978063583374,12.2075653076172,12.217339515686,12.2271299362183,12.2369356155396,12.2467575073242,12.2565946578979,12.2664480209351,12.2763166427612,12.2862024307251,12.2961025238037,12.30601978302,12.3159523010254,12.3259019851685,12.3308429718018,12.3354349136353,12.3400287628174,12.3446264266968,12.3492269515991,12.3538312911987,12.3584394454956,12.3630504608154,12.3676662445068,12.3722839355469,12.3769054412842,12.3815307617188,12.3861589431763,12.3907909393311,12.3954267501831,12.4003095626831,12.4078550338745,12.4154090881348,12.4229726791382,12.4305448532104,12.4381265640259,12.4457178115845,12.4533185958862,12.4609279632568,12.4685468673706,12.4761753082275,12.4838132858276,12.4914598464966,12.4991159439087,12.5067825317383,12.5144577026367,12.5221424102783,12.5298357009888,12.5375394821167,12.5452527999878,12.5529747009277,12.5607070922852,12.5684480667114,12.5761995315552,12.5839605331421,12.5917301177979,12.5995101928711,12.6072998046875,12.6150989532471,12.6229076385498,12.6307258605957,12.6385545730591,12.6463918685913,12.654239654541,12.6620969772339,12.6699638366699,12.6778402328491,12.6857271194458,12.6936235427856,12.701530456543,12.7094459533691,12.7173719406128,12.7253084182739,12.7332544326782,12.7412099838257,12.7491750717163,12.7571506500244,12.76513671875,12.7731323242188,12.781138420105,12.7891540527344,12.7971792221069,12.805214881897,12.8132610321045,12.8213176727295,12.8293838500977,12.837459564209,12.8455467224121,12.8536434173584,12.8617506027222,12.8698673248291,12.8779945373535,12.8861322402954,12.8942804336548,12.9024391174316,12.9106073379517,12.9187860488892,12.9269762039185,12.9351758956909,12.9433860778809,12.951605796814,12.9598369598389,12.9680786132812,12.9763307571411,12.9845933914185,12.9928665161133,13.0011501312256,13.0094442367554,13.0177488327026,13.0260639190674,13.0343904495239,13.0427265167236,13.0510740280151,13.0594320297241,13.0678005218506,13.0761804580688,13.0845699310303,13.0929708480835,13.1013832092285,13.1098051071167,13.1182384490967,13.1266832351685,13.1351385116577,13.1436042785645,13.152081489563,13.160569190979,13.1690683364868,13.1775779724121,13.1860990524292,13.1946306228638,13.2031736373901,13.211727142334,13.2202930450439,13.2288684844971,13.2467250823975,13.2775058746338,13.3084306716919,13.3395004272461,13.3707151412964,13.4020757675171,13.4335842132568,13.4652414321899,13.4970474243164,13.5290050506592,13.5611133575439,13.5933752059937,13.6257905960083,13.6583614349365,13.6910877227783,13.7239713668823,13.7570133209229,13.7902145385742,13.8235769271851,13.8571014404297,13.8907880783081,13.9246397018433,13.9586563110352,13.9928388595581,14.0271902084351,14.061710357666,14.1177768707275,14.1801738739014,14.243124961853,14.3066387176514,14.370719909668,14.4353790283203,14.5006217956543,14.5664577484131,14.6328935623169,14.6999378204346,14.7676000595093,14.8358879089355,14.9048099517822,14.9743757247925,15.0445938110352,15.1154737472534,16.6444206237793,16.827299118042,17.0142688751221,17.1832027435303,17.335054397583,17.4896144866943,17.6469554901123,17.817268371582,0,0,0,0,0,0,0,0,0,0,0,0,0,0,0,0,0,0,0,0,0,0,0,0,0,0,0,0,0,0,0,0,0,0,0,0,0,0,0,0,0,0,0,0,0,0,0,0,0,0,0,0,0,0,0,0,0,0,0,0,0,0,0,0,0,0,0,0,0,0,0,0,0,0,0,0,0,0,0,0,0,0,0,0,0,0,0,0,0,0,0,0,0,0,0,0,0,0,0,0,0,0,0,0,0,0,0,0,0,0,0,0,0,0,0,0,0
11.7053356170654,11.7620754241943,11.8193683624268,11.8772220611572,11.9327087402344,11.9420480728149,11.9514017105103,11.9607696533203,11.9701528549194,11.9795513153076,11.9889631271362,11.9983911514282,12.007833480835,12.0172901153564,12.026762008667,12.0362491607666,12.0457515716553,12.0552682876587,12.0648002624512,12.0743474960327,12.0839099884033,12.093487739563,12.1030797958374,12.1126880645752,12.1223106384277,12.1319494247437,12.1416034698486,12.1512718200684,12.1609563827515,12.1706571578979,12.1803722381592,12.1901035308838,12.1998500823975,12.2096118927002,12.2193899154663,12.2291831970215,12.23899269104,12.2488174438477,12.2586584091187,12.2685146331787,12.2783870697021,12.288275718689,12.2950401306152,12.2996034622192,12.3041715621948,12.3087425231934,12.3133163452148,12.3178939819336,12.3224754333496,12.3270597457886,12.3316478729248,12.3370199203491,12.3444881439209,12.3519659042358,12.3594512939453,12.3669471740723,12.3744516372681,12.381965637207,12.3894882202148,12.3970193862915,12.4045610427856,12.4121112823486,12.4196701049805,12.4272384643555,12.4348163604736,12.442403793335,12.4499998092651,12.4576053619385,12.465220451355,12.4728450775146,12.4804782867432,12.4881210327148,12.4957733154297,12.5034351348877,12.5111064910889,12.5187873840332,12.5264768600464,12.5341758728027,12.5418853759766,12.5496034622192,12.5573310852051,12.5650682449341,12.5728158950806,12.5805721282959,12.5883378982544,12.5961132049561,12.6038990020752,12.6116933822632,12.6194982528687,12.6273126602173,12.6351366043091,12.642970085144,12.6508131027222,12.6586666107178,12.6665287017822,12.6744012832642,12.6822843551636,12.6901760101318,12.6980781555176,12.7059898376465,12.7139120101929,12.7218437194824,12.7297849655151,12.7377367019653,12.7456979751587,12.7536687850952,12.7616500854492,12.7696418762207,12.7776432037354,12.7856540679932,12.7936754226685,12.8017072677612,12.8097486495972,12.8178005218506,12.8258619308472,12.8339338302612,12.8420162200928,12.8501081466675,12.8582105636597,12.8663234710693,12.8744468688965,12.8825798034668,12.8907232284546,12.8988771438599,12.9070405960083,12.9152154922485,12.9233999252319,12.9315958023071,12.9398012161255,12.9480171203613,12.9562435150146,12.9644804000854,12.9727277755737,12.9809856414795,12.9892539978027,12.9975328445435,13.005823135376,13.0141229629517,13.0224332809448,13.0307550430298,13.0390872955322,13.0474290847778,13.0557832717896,13.0641469955444,13.0725212097168,13.080906867981,13.0893030166626,13.097710609436,13.1061277389526,13.1145572662354,13.1229963302612,13.1314468383789,13.1399078369141,13.148380279541,13.1568632125854,13.1653575897217,13.1738624572754,13.1823787689209,13.1909055709839,13.1994438171387,13.2079925537109,13.216552734375,13.2455282211304,13.2763042449951,13.3072233200073,13.3382863998413,13.3694953918457,13.4008502960205,13.4323530197144,13.4640045166016,13.4958047866821,13.527756690979,13.5598592758179,13.5921144485474,13.6245241165161,13.6570882797241,13.68980884552,13.7226867675781,13.7557220458984,13.7889175415039,13.8222732543945,13.8557910919189,13.8894720077515,13.9233169555664,13.9573268890381,13.9915037155151,14.0258483886719,14.0603618621826,14.0950450897217,14.1473407745361,14.2100009918213,14.2732181549072,14.3370008468628,14.4013547897339,14.466290473938,14.531813621521,14.5979337692261,14.6646575927734,14.7319946289062,14.799952507019,14.868540763855,14.9377670288086,15.0076417922974,15.0781726837158,15.1493701934814,16.8464393615723,17.0338096618652,17.2085838317871,17.3608875274658,17.5159111022949,17.6737270355225,17.8360328674316,0,0,0,0,0,0,0,0,0,0,0,0,0,0,0,0,0,0,0,0,0,0,0,0,0,0,0,0,0,0,0,0,0,0,0,0,0,0,0,0,0,0,0,0,0,0,0,0,0,0,0,0,0,0,0,0,0,0,0,0,0,0,0,0,0,0,0,0,0,0,0,0,0,0,0,0,0,0,0,0,0,0,0,0,0,0,0,0,0,0,0,0,0,0,0,0,0,0,0,0,0,0,0,0,0,0,0,0,0,0,0,0,0,0,0,0
11.7057542800903,11.7624988555908,11.8197956085205,11.8776531219482,11.8974409103394,11.9067249298096,11.9160232543945,11.9253368377686,11.934663772583,11.9440059661865,11.9533634185791,11.9627351760864,11.9721212387085,11.9815216064453,11.9909372329712,12.0003681182861,12.0098133087158,12.0192737579346,12.0287494659424,12.0382394790649,12.0477447509766,12.0572643280029,12.0668001174927,12.0763502120972,12.0859155654907,12.0954961776733,12.105092048645,12.1147031784058,12.1243295669556,12.1339712142944,12.1436281204224,12.1533002853394,12.1629877090454,12.1726913452148,12.1824102401733,12.1921443939209,12.2018938064575,12.2116594314575,12.2214403152466,12.231237411499,12.2410497665405,12.2508783340454,12.2594423294067,12.2639808654785,12.2685213088989,12.2743730545044,12.2817659378052,12.2891674041748,12.2965774536133,12.3039960861206,12.3114252090454,12.3188619613647,12.3263082504272,12.3337631225586,12.3412275314331,12.3487005233765,12.356183052063,12.3636751174927,12.3711748123169,12.3786849975586,12.3862037658691,12.3937311172485,12.4012680053711,12.4088144302368,12.4163694381714,12.4239349365234,12.43150806427,12.4390916824341,12.446683883667,12.4542856216431,12.461895942688,12.4695158004761,12.4771461486816,12.4847841262817,12.4924325942993,12.5000905990601,12.5077571868896,12.5154333114624,12.5231199264526,12.5308151245117,12.538519859314,12.5462341308594,12.5539569854736,12.5616903305054,12.5694332122803,12.5771856307983,12.5849475860596,12.592719078064,12.6005001068115,12.6082906723022,12.6160907745361,12.6239013671875,12.6317205429077,12.6395502090454,12.647388458252,12.6552381515503,12.6630964279175,12.6709642410278,12.6788425445557,12.6867303848267,12.6946277618408,12.7025356292725,12.7104530334473,12.7183799743652,12.7263174057007,12.7342643737793,12.7422218322754,12.7501888275146,12.7581653594971,12.766152381897,12.7741498947144,12.7821559906006,12.7901735305786,12.7982006072998,12.8062372207642,12.8142852783203,12.8223419189453,12.8304100036621,12.8384876251221,12.8465747833252,12.8546733856201,12.8627815246582,12.8709001541138,12.8790283203125,12.887167930603,12.8953170776367,12.9034767150879,12.9116468429565,12.9198265075684,12.928017616272,12.9362182617188,12.9444303512573,12.9526519775391,12.9608840942383,12.9691276550293,12.9773807525635,12.9856443405151,12.9939184188843,13.0022039413452,13.0104990005493,13.0188055038452,13.0271215438843,13.0354490280151,13.0437870025635,13.0521354675293,13.0604953765869,13.0688648223877,13.0772457122803,13.0856370925903,13.0940399169922,13.1024532318115,13.1108770370483,13.1193113327026,13.1277570724487,13.1362142562866,13.1446809768677,13.1531600952148,13.1616487503052,13.1701488494873,13.1786603927612,13.1871824264526,13.1957159042358,13.2137031555176,13.2443313598633,13.2751016616821,13.3060150146484,13.3370733261108,13.368275642395,13.3996257781982,13.4311227798462,13.4627676010132,13.4945631027222,13.5265083312988,13.5586051940918,13.5908546447754,13.6232576370239,13.655816078186,13.688530921936,13.7214021682739,13.7544317245483,13.7876205444336,13.8209705352783,13.8544816970825,13.8881559371948,13.9219942092896,13.9559984207153,13.9901685714722,14.0245056152344,14.0590133666992,14.0936899185181,14.1285381317139,14.1770305633545,14.239953994751,14.3034381866455,14.3674917221069,14.4321212768555,14.4973344802856,14.5631399154663,14.6295461654663,14.6965599060059,14.7641906738281,14.832447052002,14.9013366699219,14.9708700180054,15.0410556793213,15.1119012832642,16.8656234741211,17.0534229278564,17.2340431213379,17.3867988586426,17.5422878265381,17.7005825042725,17.861759185791,0,0,0,0,0,0,0,0,0,0,0,0,0,0,0,0,0,0,0,0,0,0,0,0,0,0,0,0,0,0,0,0,0,0,0,0,0,0,0,0,0,0,0,0,0,0,0,0,0,0,0,0,0,0,0,0,0,0,0,0,0,0,0,0,0,0,0,0,0,0,0,0,0,0,0,0,0,0,0,0,0,0,0,0,0,0,0,0,0,0,0,0,0,0,0,0,0,0,0,0,0,0,0,0,0,0,0,0,0,0,0,0,0,0,0
11.7061738967896,11.762921333313,11.8202228546143,11.8701162338257,11.8639135360718,11.8716106414795,11.8808546066284,11.8901128768921,11.8993854522705,11.9086723327637,11.9179735183716,11.9272899627686,11.9366207122803,11.9459657669067,11.9553260803223,11.9647006988525,11.9740896224976,11.9834938049316,11.9929122924805,12.0023460388184,12.0117950439453,12.021258354187,12.0307369232178,12.0402297973633,12.0497379302979,12.0592613220215,12.0687999725342,12.0783529281616,12.0879220962524,12.097505569458,12.1071043014526,12.1167192459106,12.1263484954834,12.1359930038452,12.1456537246704,12.1553287506104,12.1650199890137,12.1747264862061,12.1844482421875,12.1941862106323,12.2039394378662,12.2137079238892,12.2234916687012,12.2332925796509,12.2431077957153,12.2529392242432,12.2627868652344,12.2711496353149,12.2785377502441,12.2859354019165,12.2933416366577,12.3007574081421,12.3081817626953,12.3156147003174,12.3230571746826,12.3305082321167,12.3379688262939,12.34543800354,12.3529167175293,12.3604040145874,12.3679008483887,12.3754062652588,12.3829212188721,12.3904447555542,12.3979778289795,12.4055194854736,12.4130716323853,12.4206314086914,12.428201675415,12.4357805252075,12.4433689117432,12.4509658813477,12.4585733413696,12.4661893844604,12.4738149642944,12.4814491271973,12.4890937805176,12.4967470169067,12.5044097900391,12.5120820999146,12.5197639465332,12.527455329895,12.5351552963257,12.5428657531738,12.5505857467651,12.5583143234253,12.5660524368286,12.5738010406494,12.5815582275391,12.5893259048462,12.5971031188965,12.6048889160156,12.6126852035522,12.620491027832,12.628306388855,12.6361312866211,12.6439666748047,12.6518106460571,12.6596651077271,12.6675291061401,12.6754035949707,12.6832866668701,12.691180229187,12.6990833282471,12.7069959640503,12.714919090271,12.7228527069092,12.7307949066162,12.7387475967407,12.7467107772827,12.7546825408936,12.7626657485962,12.7706575393677,12.778660774231,12.7866735458374,12.794695854187,12.8027286529541,12.8107709884644,12.8188247680664,12.8268871307373,12.8349609375,12.8430442810059,12.8511371612549,12.8592414855957,12.8673553466797,12.8754796981812,12.8836145401001,12.8917589187622,12.8999137878418,12.9080791473389,12.9162549972534,12.9244413375854,12.932638168335,12.9408445358276,12.9490623474121,12.9572896957397,12.9655284881592,12.9737768173218,12.9820365905762,12.9903059005737,12.9985866546631,13.0068769454956,13.0151786804199,13.0234909057617,13.031813621521,13.0401468276978,13.048490524292,13.056845664978,13.0652112960815,13.0735864639282,13.081974029541,13.090371131897,13.0987796783447,13.10719871521,13.115629196167,13.1240701675415,13.1325216293335,13.1409845352173,13.1494579315186,13.1579427719116,13.1664381027222,13.1749448776245,13.1834621429443,13.2125120162964,13.2431344985962,13.2738990783691,13.3048076629639,13.3358592987061,13.3670568466187,13.398401260376,13.4298915863037,13.4615316390991,13.4933204650879,13.5252599716187,13.5573511123657,13.5895948410034,13.6219921112061,13.6545438766479,13.6872529983521,13.7201175689697,13.7531414031982,13.7863245010376,13.8196678161621,13.8531723022461,13.8868408203125,13.920672416687,13.9546689987183,13.9888334274292,14.0231647491455,14.0576648712158,14.0923347473145,14.1271772384644,14.1621913909912,14.206844329834,14.2700328826904,14.3337869644165,14.3981122970581,14.4630184173584,14.5285120010376,14.5946016311646,14.6612949371338,14.7286014556885,14.7965278625488,14.865083694458,14.9342784881592,15.0041198730469,15.0746183395386,15.1457815170288,17.0730819702148,17.2595767974854,17.4127864837646,17.5687427520752,17.727518081665,17.8891887664795,0,0,0,0,0,0,0,0,0,0,0,0,0,0,0,0,0,0,0,0,0,0,0,0,0,0,0,0,0,0,0,0,0,0,0,0,0,0,0,0,0,0,0,0,0,0,0,0,0,0,0,0,0,0,0,0,0,0,0,0,0,0,0,0,0,0,0,0,0,0,0,0,0,0,0,0,0,0,0,0,0,0,0,0,0,0,0,0,0,0,0,0,0,0,0,0,0,0,0,0,0,0,0,0,0,0,0,0,0,0,0,0,0,0
11.7065925598145,11.7633447647095,11.820650100708,11.8785161972046,11.8809509277344,11.8747358322144,11.8685283660889,11.8623266220093,11.8643140792847,11.8735466003418,11.8827934265137,11.8920545578003,11.9013299942017,11.9106197357178,11.9199247360229,11.9292440414429,11.9385776519775,11.947925567627,11.9572887420654,11.9666662216187,11.9760589599609,11.985466003418,11.9948883056641,12.0043249130249,12.0137767791748,12.0232429504395,12.0327243804932,12.0422210693359,12.0517320632935,12.06125831604,12.0707998275757,12.0803565979004,12.0899286270142,12.099515914917,12.1091175079346,12.1187353134155,12.1283683776855,12.1380157470703,12.1476793289185,12.1573581695557,12.1670522689819,12.1767625808716,12.186487197876,12.1962280273438,12.2059850692749,12.2157564163208,12.2255439758301,12.2353477478027,12.2451667785645,12.2550020217896,12.2648525238037,12.2747182846069,12.2846012115479,12.2944993972778,12.3044137954712,12.3123693466187,12.3198080062866,12.3272552490234,12.3347120285034,12.3421773910522,12.3496513366699,12.3571348190308,12.3646278381348,12.3721294403076,12.3796396255493,12.3871603012085,12.3946886062622,12.4022274017334,12.4097747802734,12.4173307418823,12.4248962402344,12.4324712753296,12.440055847168,12.4476490020752,12.4552516937256,12.4628639221191,12.4704856872559,12.4781160354614,12.4857559204102,12.4934053421021,12.5010643005371,12.5087327957153,12.5164098739624,12.524097442627,12.5317935943604,12.5394992828369,12.5472145080566,12.5549402236938,12.5626745223999,12.5704183578491,12.5781717300415,12.5859346389771,12.5937070846558,12.601490020752,12.609281539917,12.6170835494995,12.6248941421509,12.6327152252197,12.6405458450317,12.6483860015869,12.6562356948853,12.6640958786011,12.6719655990601,12.6798448562622,12.6877336502075,12.6956329345703,12.7035417556763,12.7114601135254,12.719388961792,12.7273273468018,12.7352752685547,12.7432336807251,12.7512016296387,12.7591800689697,12.7671680450439,12.7751665115356,12.7831745147705,12.7911930084229,12.7992219924927,12.8072595596313,12.8153085708618,12.8233671188354,12.8314361572266,12.8395147323608,12.8476037979126,12.8557033538818,12.8638124465942,12.8719329833984,12.8800630569458,12.8882026672363,12.8963537216187,12.9045143127441,12.9126853942871,12.9208679199219,12.9290590286255,12.9372615814209,12.9454746246338,12.9536981582642,12.9619312286377,12.970175743103,12.9784307479858,12.9866952896118,12.9949712753296,13.0032577514648,13.0115547180176,13.0198621749878,13.0281801223755,13.0365085601807,13.0448474884033,13.0531978607178,13.0615587234497,13.0699300765991,13.078311920166,13.0867052078247,13.0951089859009,13.1035232543945,13.11194896698,13.1203851699829,13.1288318634033,13.1372900009155,13.1457586288452,13.1542377471924,13.1627292633057,13.1808462142944,13.2113218307495,13.2419385910034,13.2726974487305,13.303599357605,13.3346462249756,13.3658380508423,13.3971767425537,13.4286613464355,13.4602956771851,13.4920787811279,13.5240125656128,13.5560970306396,13.5883350372314,13.6207265853882,13.6532726287842,13.6859750747681,13.7188339233398,13.7518510818481,13.7850275039673,13.8183650970459,13.851863861084,13.8855247497559,13.9193506240845,13.9533414840698,13.9874982833862,14.0218229293823,14.0563163757324,14.0909805297852,14.1258153915405,14.1608238220215,14.1960048675537,14.2367839813232,14.3002395629883,14.3642644882202,14.4288644790649,14.4940490722656,14.5598239898682,14.62619972229,14.6931829452515,14.7607831954956,14.8290071487427,14.8978652954102,14.9673662185669,15.0375185012817,15.1083307266235,17.0927867889404,17.2851848602295,17.4388542175293,17.5952777862549,17.7545356750488,17.9167003631592,0,0,0,0,0,0,0,0,0,0,0,0,0,0,0,0,0,0,0,0,0,0,0,0,0,0,0,0,0,0,0,0,0,0,0,0,0,0,0,0,0,0,0,0,0,0,0,0,0,0,0,0,0,0,0,0,0,0,0,0,0,0,0,0,0,0,0,0,0,0,0,0,0,0,0,0,0,0,0,0,0,0,0,0,0,0,0,0,0,0,0,0,0,0,0,0,0,0,0,0,0,0,0,0,0,0,0,0,0,0,0,0,0
11.7070121765137,11.763768196106,11.8210773468018,11.8789472579956,11.8980369567871,11.8918046951294,11.8855781555176,11.8793592453003,11.8731460571289,11.8669404983521,11.8478202819824,11.857027053833,11.8662490844727,11.8754854202271,11.8847360610962,11.8940010070801,11.9032802581787,11.9125738143921,11.9218807220459,11.9312038421631,11.9405403137207,11.9498920440674,11.9592580795288,11.9686393737793,11.9780349731445,11.9874448776245,11.9968700408936,12.0063104629517,12.0157651901245,12.0252342224121,12.0347194671631,12.0442190170288,12.0537338256836,12.0632638931274,12.072808265686,12.0823678970337,12.0919437408447,12.1015338897705,12.1111392974854,12.1207599639893,12.1303958892822,12.1400470733643,12.1497135162354,12.1593961715698,12.1690940856934,12.1788063049316,12.1885356903076,12.1982793807983,12.2080392837524,12.2178144454956,12.2276058197021,12.2374124526978,12.2472352981567,12.2570734024048,12.2669277191162,12.2767972946167,12.2866830825806,12.2965850830078,12.3065023422241,12.3164367675781,12.3263864517212,12.3363523483276,12.3463344573975,12.3538675308228,12.3613567352295,12.3688545227051,12.3763608932495,12.3838768005371,12.3914012908936,12.3989362716675,12.4064788818359,12.4140319824219,12.4215936660767,12.4291648864746,12.4367446899414,12.4443340301514,12.4519329071045,12.4595403671265,12.4671583175659,12.4747848510742,12.4824209213257,12.490065574646,12.4977207183838,12.5053844451904,12.5130586624146,12.5207414627075,12.5284337997437,12.5361356735229,12.5438461303711,12.5515670776367,12.5592975616455,12.5670375823975,12.5747861862183,12.5825452804565,12.590313911438,12.5980920791626,12.6058797836304,12.6136770248413,12.6214838027954,12.629301071167,12.6371269226074,12.6449632644653,12.6528091430664,12.6606645584106,12.668529510498,12.6764049530029,12.684289932251,12.6921844482422,12.7000885009766,12.7080030441284,12.7159271240234,12.7238616943359,12.7318058013916,12.7397594451904,12.7477235794067,12.7556972503662,12.7636804580688,12.7716751098633,12.7796783447266,12.7876920700073,12.7957162857056,12.803750038147,12.8117942810059,12.8198490142822,12.8279132843018,12.8359880447388,12.8440723419189,12.8521671295166,12.8602724075317,12.86838722229,12.8765134811401,12.8846492767334,12.8927946090698,12.900951385498,12.9091186523438,12.9172954559326,12.925482749939,12.9336805343628,12.9418888092041,12.9501075744629,12.9583368301392,12.9665765762329,12.9748268127441,12.9830865859985,12.9913578033447,12.9996395111084,13.0079317092896,13.0162343978882,13.0245485305786,13.0328722000122,13.0412073135376,13.0495519638062,13.0579080581665,13.0662746429443,13.074652671814,13.0830402374268,13.0914392471313,13.0998497009277,13.1082696914673,13.1167011260986,13.1251440048218,13.1335964202881,13.1420612335205,13.1505355834961,13.1796607971191,13.2101306915283,13.2407426834106,13.2714958190918,13.3023929595947,13.3334331512451,13.3646192550659,13.3959522247314,13.4274320602417,13.459059715271,13.490837097168,13.5227642059326,13.5548439025879,13.5870752334595,13.6194610595703,13.6520013809204,13.6846971511841,13.71755027771,13.750560760498,13.7837314605713,13.8170623779297,13.8505544662476,13.8842096328735,13.9180288314819,13.9520130157471,13.9861640930176,14.0204820632935,14.0549688339233,14.0896263122559,14.124454498291,14.1594552993774,14.1946306228638,14.22998046875,14.2668495178223,14.3305749893188,14.394871711731,14.4597482681274,14.5252122879028,14.5912714004517,14.6579351425171,14.7252101898193,14.7931051254272,14.861629486084,14.9307918548584,15.0006008148193,15.0710649490356,17.149564743042,17.3059272766113,17.4649982452393,17.6218948364258,17.7816352844238,0,0,0,0,0,0,0,0,0,0,0,0,0,0,0,0,0,0,0,0,0,0,0,0,0,0,0,0,0,0,0,0,0,0,0,0,0,0,0,0,0,0,0,0,0,0,0,0,0,0,0,0,0,0,0,0,0,0,0,0,0,0,0,0,0,0,0,0,0,0,0,0,0,0,0,0,0,0,0,0,0,0,0,0,0,0,0,0,0,0,0,0,0,0,0,0,0,0,0,0,0,0,0,0,0,0,0,0,0,0,0,0,0
11.7074308395386,11.7641916275024,11.8215045928955,11.8793792724609,11.91517162323,11.9089221954346,11.9026775360107,11.8964405059814,11.8902101516724,11.8039121627808,11.8130512237549,11.8222045898438,11.8313722610474,11.8405542373657,11.8497505187988,11.8589611053467,11.8681859970093,11.8774251937866,11.8866786956787,11.8959465026855,11.9052286148071,11.9145259857178,11.9238376617432,11.9331636428833,11.9425039291382,11.9518594741821,11.9612293243408,11.9706144332886,11.9800138473511,11.9894275665283,11.9988565444946,12.0082998275757,12.0177583694458,12.0272312164307,12.0367183685303,12.0462217330933,12.055739402771,12.0652723312378,12.0748205184937,12.0843830108643,12.0939617156982,12.1035556793213,12.1131639480591,12.1227874755859,12.1324272155762,12.1420822143555,12.1517515182495,12.1614370346069,12.1711378097534,12.1808547973633,12.1905860900879,12.2003335952759,12.2100963592529,12.2198753356934,12.2296695709229,12.2394800186157,12.2493057250977,12.259147644043,12.2690048217773,12.2788782119751,12.2887668609619,12.2986726760864,12.30859375,12.3185300827026,12.328483581543,12.3384532928467,12.3484382629395,12.3584403991699,12.3684577941895,12.3784923553467,12.3881168365479,12.3956470489502,12.4031858444214,12.4107341766357,12.4182920455933,12.4258594512939,12.4334354400635,12.4410209655762,12.4486150741577,12.4562196731567,12.4638328552246,12.4714546203613,12.4790868759155,12.4867277145386,12.4943790435791,12.5020389556885,12.5097074508667,12.5173864364624,12.5250749588013,12.5327730178833,12.5404796600342,12.5481967926025,12.5559225082397,12.5636577606201,12.571403503418,12.5791578292847,12.5869226455688,12.5946960449219,12.6024799346924,12.6102724075317,12.6180753707886,12.6258878707886,12.6337099075317,12.6415424346924,12.6493835449219,12.6572351455688,12.6650953292847,12.6729669570923,12.6808471679688,12.6887378692627,12.6966381072998,12.7045478820801,12.7124671936035,12.7203969955444,12.7283372879028,12.7362871170044,12.7442464828491,12.752215385437,12.7601947784424,12.7681846618652,12.7761840820312,12.7841939926147,12.7922134399414,12.8002424240112,12.8082828521729,12.8163318634033,12.8243923187256,12.832462310791,12.8405427932739,12.8486328125,12.8567333221436,12.8648443222046,12.8729658126831,12.8810968399048,12.8892383575439,12.8973903656006,12.9055528640747,12.913724899292,12.9219083786011,12.9301013946533,12.938304901123,12.9465198516846,12.9547443389893,12.9629793167114,12.9712247848511,12.9794807434082,12.9877471923828,12.9960241317749,13.0043115615845,13.0126094818115,13.0209188461304,13.0292377471924,13.0375680923462,13.0459089279175,13.0542602539062,13.0626220703125,13.0709953308105,13.0793781280518,13.0877723693848,13.0961780548096,13.1045932769775,13.1130199432373,13.1214580535889,13.1299066543579,13.1481513977051,13.1784763336182,13.2089405059814,13.2395467758179,13.2702941894531,13.3011856079102,13.332221031189,13.3634014129639,13.3947277069092,13.4262018203735,13.4578237533569,13.489595413208,13.5215167999268,13.5535907745361,13.5858163833618,13.6181955337524,13.6507291793823,13.6834192276001,13.7162666320801,13.7492713928223,13.7824354171753,13.8157596588135,13.8492460250854,13.8828945159912,13.9167070388794,13.9506855010986,13.9848289489746,14.0191411972046,14.0536212921143,14.0882720947266,14.1230936050415,14.1580877304077,14.1932563781738,14.2285995483398,14.2641191482544,14.2998170852661,14.3610382080078,14.425609588623,14.4907646179199,14.5565099716187,14.6228551864624,14.6898078918457,14.7573766708374,14.825569152832,14.8943958282471,14.9638633728027,15.0339832305908,15.1047620773315,17.326150894165,17.4912204742432,17.6485900878906,0,0,0,0,0,0,0,0,0,0,0,0,0,0,0,0,0,0,0,0,0,0,0,0,0,0,0,0,0,0,0,0,0,0,0,0,0,0,0,0,0,0,0,0,0,0,0,0,0,0,0,0,0,0,0,0,0,0,0,0,0,0,0,0,0,0,0,0,0,0,0,0,0,0,0,0,0,0,0,0,0,0,0,0,0,0,0,0,0,0,0,0,0,0,0,0,0,0,0,0,0,0,0,0,0,0,0,0,0,0,0,0,0
