11.4264297485352,11.4280385971069,11.429648399353,11.4312591552734,11.4328699111938,11.4344806671143,11.436092376709,11.4377040863037,11.4393167495728,11.4409303665161,11.4425439834595,11.4441576004028,11.4457721710205,11.4473867416382,11.4490022659302,11.4506177902222,11.4522342681885,11.4538507461548,11.4554672241211,11.457085609436,11.4587030410767,11.4603214263916,11.4619407653809,11.4635601043701,11.4651794433594,11.4667997360229,11.4684209823608,11.4700422286987,11.4716634750366,11.4732856750488,11.4749088287354,11.4765319824219,11.480860710144,11.4897317886353,11.4986162185669,11.507513999939,11.5164260864258,11.525351524353,11.534291267395,11.5432443618774,11.5522117614746,11.5611934661865,11.5701885223389,11.579197883606,11.5882215499878,11.5972585678101,11.6063098907471,11.6153764724731,11.6244554519653,11.6335496902466,11.6426582336426,11.6517810821533,11.6609172821045,11.6700687408447,11.6792345046997,11.6884145736694,11.6976089477539,11.7068176269531,11.7160415649414,11.7252788543701,11.7345314025879,11.7437992095947,11.753080368042,11.7623767852783,11.7716884613037,11.7810144424438,11.7903547286987,11.799711227417,11.8090810775757,11.8184661865234,11.8278665542603,11.8372821807861,11.8467121124268,11.8561573028564,11.8656177520752,11.875093460083,11.8845834732056,11.8940896987915,11.9036102294922,11.9131469726562,11.9226980209351,11.9322652816772,11.9418478012085,11.9514455795288,11.9610586166382,11.9706869125366,11.9803304672241,11.989990234375,11.9996652603149,12.0091638565063,12.0147361755371,12.0203142166138,12.0258960723877,12.0314846038818,12.0370769500732,12.0426750183105,12.0482788085938,12.0538873672485,12.0595016479492,12.0651206970215,12.0707445144653,12.0763740539551,12.0820093154907,12.0876493453979,12.0932941436768,12.0989446640015,12.1046009063721,12.1102619171143,12.1159286499023,12.121600151062,12.1272773742676,12.1329593658447,12.1386470794678,12.1443405151367,12.1500387191772,12.1557426452637,12.161452293396,12.1671667098999,12.2064437866211,12.3233852386475,12.4425888061523,12.4787845611572,12.4947719573975,12.5108003616333,12.5268697738647,12.5429811477661,12.5591335296631,12.5753269195557,12.5915632247925,12.6078405380249,12.6241607666016,12.6405229568481,12.6569271087646,12.6733751296997,12.6898651123047,12.7063980102539,12.7229747772217,12.7395935058594,12.7562570571899,12.7729635238647,12.7897138595581,12.8065090179443,12.8233470916748,12.8402299880981,12.8571577072144,12.8741302490234,12.8911466598511,12.9082088470459,12.9253158569336,12.9424686431885,12.9596672058105,12.9769115447998,12.9942016601562,13.0115375518799,13.028920173645,13.0463495254517,13.0638246536255,13.0813474655151,13.0989170074463,13.1165342330933,13.1341981887817,13.1519107818604,13.1696701049805,13.1874780654907,13.2053337097168,13.2232389450073,13.2477216720581,13.2738761901855,13.3001356124878,13.3264980316162,13.3529653549194,13.3795375823975,13.4062166213989,13.4330024719238,13.4598941802979,13.4868955612183,13.5140047073364,13.5412225723267,13.5685501098633,13.5959892272949,13.6235389709473,13.6512002944946,13.675874710083,13.6985712051392,13.7213439941406,13.7441921234131,13.7671175003052,13.7901182174683,13.813196182251,13.8363523483276,13.8595857620239,13.8828973770142,13.9062871932983,13.9297561645508,13.9533042907715,13.9769325256348,14.0006408691406,14.0244293212891,14.0482997894287,14.0722503662109,14.0962839126587,14.1203994750977,14.1445970535278,14.1688776016235,14.1932420730591,14.2176904678345,14.242223739624,14.2668409347534,14.2915439605713,14.3163328170776,14.3412075042725,14.3661689758301,14.3912172317505,14.4163522720337,14.4415769577026,14.4538116455078,14.4545068740845,14.4551992416382,14.4558925628662,14.4565877914429,14.4572811126709,14.4579734802246,14.4586668014526,14.459358215332,14.4600524902344,14.4607467651367,14.4614400863647,14.4621334075928,14.4628305435181,14.4635200500488,14.4642171859741,14.4649085998535,14.4656028747559,14.4662981033325,14.4669933319092,14.4676856994629,14.4683809280396,14.4690732955933,14.4697685241699,14.4704647064209,14.4711580276489,14.4718523025513,14.4725503921509,14.473240852356,14.473934173584,14.4746322631836,14.4753265380859,14.4760208129883,14.4767179489136,14.4774131774902,14.4781074523926,14.4788017272949,14.4794960021973,14.4801912307739,14.4808893203735,14.4815835952759,14.4822788238525,14.4829778671265,14.4836683273315,14.4843626022339,14.4850616455078,14.4857578277588,14.4864530563354,14.4871501922607,14.487847328186,14.4885396957397,14.489236831665,14.4899320602417,14.490629196167,14.4913282394409,14.4920234680176,14.4927206039429,14.4934158325195,14.4941129684448,14.4948091506958,14.4955081939697,14.496205329895,14.4969005584717,14.4976005554199,14.4982938766479,14.4989900588989,14.4996891021729,14.5003852844238,14.5010824203491,14.5017833709717,14.502480506897,14.503173828125,14.5038747787476,14.5045700073242,14.5052680969238,14.5059680938721,14.5066661834717,14.5073642730713,14.5080614089966,14.5087585449219,14.5094556808472,14.5101556777954,14.510853767395,14.5115518569946,14.5122528076172,14.5129489898682,14.5136461257935,14.514347076416,14.5150451660156,14.5157442092896,14.5164451599121,14.5171451568604,14.5178394317627,14.5185403823853,14.5192394256592,14.5199384689331,14.5206394195557,14.5213384628296,14.5220355987549,14.5227365493774,14.5234336853027,14.5241346359253,14.5248365402222,14.5255355834961,14.52623462677,14.5269365310669,14.5276336669922,14.5283327102661,14.529034614563,14.5297346115112,14.5304336547852,14.5311374664307,14.5318355560303,14.5325365066528,14.5332365036011,14.5339365005493,14.5346355438232,14.5353403091431,14.5360383987427,14.5367403030396,14.5374441146851,14.5381422042847,14.5388422012329,14.5395450592041,14.5402450561523,14.5409450531006
11.4228219985962,11.4244298934937,11.4260387420654,11.4276485443115,11.4292583465576,11.4308681488037,11.4324789047241,11.4340896606445,11.4357013702393,11.437313079834,11.438925743103,11.4405384063721,11.4421520233154,11.4437656402588,11.4453802108765,11.4469947814941,11.4486103057861,11.4502258300781,11.4518413543701,11.4534578323364,11.4550752639771,11.4566926956177,11.4583101272583,11.4599285125732,11.4615478515625,11.4631671905518,11.464786529541,11.4664068222046,11.4680271148682,11.4696483612061,11.4712705612183,11.4728918075562,11.4745149612427,11.4761371612549,11.4777612686157,11.4793844223022,11.4874658584595,11.4963464736938,11.505241394043,11.5141496658325,11.5230722427368,11.5320081710815,11.540958404541,11.5499219894409,11.5588998794556,11.5678911209106,11.5768966674805,11.585916519165,11.5949506759644,11.6039981842041,11.6130609512329,11.6221370697021,11.6312274932861,11.6403322219849,11.6494512557983,11.6585836410522,11.6677312850952,11.6768932342529,11.6860694885254,11.6952610015869,11.7044658660889,11.7136850357056,11.7229194641113,11.7321681976318,11.7414321899414,11.7507104873657,11.7600030899048,11.7693099975586,11.7786321640015,11.7879695892334,11.7973213195801,11.8066873550415,11.8160696029663,11.8254661560059,11.8348770141602,11.8443031311035,11.8537454605103,11.8632011413574,11.872673034668,11.8821601867676,11.8916616439819,11.9011793136597,11.9107112884521,11.9202585220337,11.9298219680786,11.9393997192383,11.9489936828613,11.9586029052734,11.9682273864746,11.9778680801392,11.9875230789185,11.9963550567627,12.0019159317017,12.0074815750122,12.0130519866943,12.0186281204224,12.024209022522,12.0297946929932,12.0353860855103,12.0409832000732,12.0465850830078,12.052191734314,12.057804107666,12.0634212493896,12.0690441131592,12.0746726989746,12.0803050994873,12.0859441757202,12.0915880203247,12.0972366333008,12.1028909683228,12.1085510253906,12.1142158508301,12.1198854446411,12.125560760498,12.1312417984009,12.1369276046753,12.1426191329956,12.1483163833618,12.1540184020996,12.1597261428833,12.1654386520386,12.2794609069824,12.3978118896484,12.4812631607056,12.497257232666,12.5132913589478,12.5293674468994,12.5454845428467,12.5616436004639,12.5778436660767,12.5940866470337,12.6103706359863,12.6266965866089,12.6430654525757,12.6594772338867,12.6759309768677,12.6924276351929,12.7089672088623,12.7255506515503,12.7421770095825,12.7588472366333,12.7755603790283,12.7923173904419,12.8091192245483,12.825963973999,12.8428544998169,12.8597888946533,12.8767681121826,12.8937921524048,12.9108610153198,12.9279756546021,12.9451351165771,12.9623403549194,12.9795923233032,12.9968891143799,13.014232635498,13.0316219329834,13.0490579605103,13.0665416717529,13.0840711593628,13.1016483306885,13.1192722320557,13.1369438171387,13.1546630859375,13.1724309921265,13.1902456283569,13.2124872207642,13.2385034561157,13.2646226882935,13.290843963623,13.3171701431274,13.3436002731323,13.3701362609863,13.3967771530151,13.4235248565674,13.4503793716431,13.4773416519165,13.504412651062,13.5315914154053,13.5588808059692,13.5862808227539,13.6131410598755,13.6356296539307,13.6581935882568,13.6808319091797,13.7035455703735,13.7263345718384,13.7491998672485,13.772141456604,13.7951593399048,13.8182544708252,13.8414268493652,13.8646774291992,13.8880062103271,13.911413192749,13.9348993301392,13.9584655761719,13.9821109771729,14.0058364868164,14.0296430587769,14.0535306930542,14.0775003433228,14.1015510559082,14.1256837844849,14.1499004364014,14.1741991043091,14.198582649231,14.2230491638184,14.2476005554199,14.2722368240356,14.2969579696655,14.3217658996582,14.3425273895264,14.343204498291,14.3438873291016,14.3445701599121,14.3452529907227,14.3459339141846,14.3466205596924,14.3473014831543,14.3479824066162,14.3486661911011,14.3493490219116,14.3500318527222,14.3507175445557,14.3513994216919,14.3520803451538,14.352765083313,14.3534469604492,14.3541297912598,14.3548154830933,14.3554973602295,14.3561811447144,14.3568668365479,14.3575477600098,14.358229637146,14.3589162826538,14.3596000671387,14.3602828979492,14.360969543457,14.3616533279419,14.3623332977295,14.3630208969116,14.3637046813965,14.3643865585327,14.3650732040405,14.3657579421997,14.3664417266846,14.3671255111694,14.36780834198,14.3684949874878,14.3691816329956,14.3698654174805,14.370548248291,14.3712368011475,14.3719215393066,14.3726015090942,14.3732900619507,14.3739748001099,14.374659538269,14.3753480911255,14.376030921936,14.3767166137695,14.3774013519287,14.3780860900879,14.3787708282471,14.3794593811035,14.380145072937,14.3808317184448,14.381519317627,14.3822021484375,14.3828868865967,14.3835754394531,14.3842601776123,14.3849458694458,14.3856334686279,14.3863210678101,14.3870038986206,14.3876934051514,14.3883771896362,14.3890647888184,14.3897542953491,14.3904399871826,14.3911275863647,14.3918132781982,14.3924989700317,14.3931856155396,14.3938751220703,14.3945608139038,14.3952474594116,14.3959369659424,14.3966207504272,14.3973093032837,14.3979978561401,14.3986854553223,14.3993740081787,14.4000625610352,14.400749206543,14.4014329910278,14.4021253585815,14.4028120040894,14.4035005569458,14.4041891098022,14.4048776626587,14.4055662155151,14.4062509536743,14.4069414138794,14.4076280593872,14.4083194732666,14.409008026123,14.4096946716309,14.4103860855103,14.4110727310181,14.4117593765259,14.4124507904053,14.4131383895874,14.4138288497925,14.4145202636719,14.415207862854,14.4158926010132,14.4165859222412,14.4172735214233,14.4179611206055,14.4186563491821,14.4193439483643,14.420033454895,14.4207229614258,14.4214124679565,14.4221029281616,14.4227924346924,14.4234819412231,14.4241743087769,14.424861907959,14.4255495071411,14.4262437820435,14.4269313812256,14.427622795105,14.4283151626587,14.4290037155151,14.4296951293945
11.4192161560059,11.4208240509033,11.4224319458008,11.4240398406982,11.42564868927,11.4272575378418,11.4288673400879,11.430477142334,11.4320878982544,11.4336986541748,11.4353103637695,11.4369220733643,11.4385347366333,11.4401473999023,11.4417600631714,11.4433736801147,11.4449882507324,11.4466028213501,11.4482173919678,11.4498329162598,11.4514493942261,11.4530658721924,11.4546823501587,11.4562997817993,11.4579181671143,11.4595355987549,11.4611549377441,11.4627742767334,11.4643936157227,11.4660139083862,11.4676342010498,11.4692554473877,11.4708766937256,11.4724988937378,11.47412109375,11.4757432937622,11.477367401123,11.4789905548096,11.4806146621704,11.485200881958,11.4940786361694,11.5029697418213,11.5118741989136,11.5207929611206,11.5297260284424,11.5386724472046,11.5476322174072,11.5566062927246,11.5655946731567,11.5745964050293,11.5836133956909,11.592643737793,11.6016874313354,11.610746383667,11.619818687439,11.6289052963257,11.6380062103271,11.6471214294434,11.6562509536743,11.66539478302,11.6745529174805,11.68372631073,11.6929130554199,11.7021150588989,11.7113304138184,11.7205610275269,11.7298059463501,11.7390661239624,11.7483406066895,11.7576293945312,11.7669334411621,11.7762517929077,11.7855844497681,11.7949323654175,11.804295539856,11.8136730194092,11.8230657577515,11.8324737548828,11.8418960571289,11.8513336181641,11.8607864379883,11.8702535629272,11.8797369003296,11.8892345428467,11.8987483978271,11.9082765579224,11.9178199768066,11.9273796081543,11.9369535446167,11.9465436935425,11.9561491012573,11.9657697677612,11.9754056930542,11.9835739135742,11.9891223907471,11.9946756362915,12.0002346038818,12.0057983398438,12.0113677978516,12.016942024231,12.0225219726562,12.0281066894531,12.0336961746216,12.0392913818359,12.0448913574219,12.0504970550537,12.0561075210571,12.0617237091064,12.0673446655273,12.0729713439941,12.0786027908325,12.0842390060425,12.0898818969727,12.0955286026001,12.1011819839478,12.106840133667,12.1125030517578,12.1181716918945,12.1238451004028,12.129524230957,12.1352090835571,12.1408987045288,12.1465940475464,12.1522951126099,12.1580009460449,12.2358484268188,12.3533563613892,12.4731435775757,12.4997425079346,12.5157833099365,12.5318660736084,12.5479898452759,12.564154624939,12.5803623199463,12.5966110229492,12.6129016876221,12.6292343139648,12.6456098556519,12.6620283126831,12.6784887313843,12.6949920654297,12.7115383148193,12.7281284332275,12.74476146698,12.7614374160767,12.7781581878662,12.794921875,12.8117303848267,12.8285827636719,12.8454790115356,12.8624210357666,12.8794069290161,12.8964376449585,12.9135141372681,12.9306354522705,12.9478025436401,12.9650144577026,12.9822731018066,12.9995775222778,13.0169277191162,13.0343246459961,13.0517683029175,13.0692586898804,13.0867958068848,13.104380607605,13.1220111846924,13.1396903991699,13.1574172973633,13.1774406433105,13.2033185958862,13.2292985916138,13.2553806304932,13.281566619873,13.3078556060791,13.3342485427856,13.3607473373413,13.3873510360718,13.4140605926514,13.4408779144287,13.4678020477295,13.494833946228,13.5219745635986,13.5492248535156,13.5732641220093,13.5956220626831,13.6180534362793,13.6405582427979,13.6631383895874,13.6857929229736,13.7085237503052,13.7313289642334,13.7542104721069,13.7771692276001,13.8002033233643,13.8233156204224,13.8465051651001,13.8697729110718,13.8931188583374,13.916543006897,13.9400472640991,13.9636297225952,13.9872932434082,14.0110368728638,14.0348606109619,14.0587663650513,14.0827531814575,14.106822013855,14.130973815918,14.1552076339722,14.1795253753662,14.2039260864258,14.2284116744995,14.233606338501,14.2342748641968,14.2349481582642,14.2356195449829,14.236291885376,14.236967086792,14.2376384735107,14.2383089065552,14.2389822006226,14.2396535873413,14.2403259277344,14.2410001754761,14.2416734695435,14.2423448562622,14.2430181503296,14.243688583374,14.2443618774414,14.2450380325317,14.2457094192505,14.2463827133179,14.2470569610596,14.247730255127,14.2483997344971,14.2490758895874,14.2497472763062,14.2504205703735,14.2510967254639,14.2517709732056,14.2524433135986,14.253116607666,14.2537908554077,14.2544622421265,14.2551393508911,14.2558126449585,14.2564868927002,14.2571620941162,14.257833480835,14.258505821228,14.259183883667,14.2598562240601,14.2605304718018,14.2612075805664,14.2618818283081,14.2625522613525,14.2632293701172,14.2639055252075,14.2645788192749,14.2652559280396,14.2659301757812,14.2666044235229,14.267279624939,14.2679538726807,14.268627166748,14.2693042755127,14.2699813842773,14.2706565856934,14.2713317871094,14.2720069885254,14.2726812362671,14.2733573913574,14.2740325927734,14.2747097015381,14.2753868103027,14.2760629653931,14.2767372131348,14.2774133682251,14.2780885696411,14.2787637710571,14.2794418334961,14.2801179885864,14.2807950973511,14.28147315979,14.2821464538574,14.2828226089478,14.2834997177124,14.2841777801514,14.2848539352417,14.2855319976807,14.286208152771,14.2868824005127,14.2875604629517,14.288236618042,14.2889127731323,14.2895927429199,14.2902708053589,14.2909498214722,14.2916240692139,14.2923002243042,14.2929811477661,14.2936573028564,14.2943353652954,14.2950162887573,14.2956924438477,14.2963666915894,14.2970457077026,14.2977247238159,14.2984008789062,14.2990808486938,14.2997589111328,14.3004360198975,14.3011150360107,14.3017921447754,14.3024711608887,14.303150177002,14.3038291931152,14.3045082092285,14.3051872253418,14.3058624267578,14.3065414428711,14.3072233200073,14.3079023361206,14.3085803985596,14.3092613220215,14.3099393844604,14.3106164932251,14.3112964630127,14.3119773864746,14.3126535415649,14.3133354187012,14.3140163421631,14.3146944046021,14.3153743743896,14.3160524368286,14.3167324066162,14.3174142837524,14.3180923461914,14.3187742233276,14.3194561004639,14.3201303482056
11.4156131744385,11.4172191619873,11.4188261032104,11.4204339981079,11.4220409393311,11.4236497879028,11.4252576828003,11.4268674850464,11.4284763336182,11.4300861358643,11.4316968917847,11.4333076477051,11.4349193572998,11.4365310668945,11.4381427764893,11.4397554397583,11.4413690567017,11.442982673645,11.4445962905884,11.4462108612061,11.4478254318237,11.4494409561157,11.451057434082,11.452672958374,11.4542903900146,11.4559078216553,11.4575252532959,11.4591436386108,11.4607620239258,11.462381362915,11.4640007019043,11.4656200408936,11.4672403335571,11.468861579895,11.4704828262329,11.4721050262451,11.4737272262573,11.4753494262695,11.4769725799561,11.4785966873169,11.4802207946777,11.4818449020386,11.4834699630737,11.491810798645,11.5006990432739,11.5095996856689,11.518515586853,11.5274438858032,11.5363874435425,11.5453433990479,11.5543146133423,11.5632991790771,11.5722980499268,11.5813102722168,11.5903367996216,11.5993776321411,11.6084327697754,11.6175012588501,11.6265850067139,11.6356821060181,11.644793510437,11.6539192199707,11.6630592346191,11.6722145080566,11.6813831329346,11.6905670166016,11.699764251709,11.7089767456055,11.7182035446167,11.7274446487427,11.7367010116577,11.7459716796875,11.755256652832,11.7645568847656,11.773871421814,11.7832012176514,11.7925453186035,11.8019037246704,11.8112783432007,11.8206672668457,11.8300704956055,11.8394889831543,11.8489227294922,11.8583717346191,11.8678359985352,11.8773145675659,11.8868093490601,11.8963184356689,11.9058427810669,11.9153823852539,11.9249382019043,11.9345083236694,11.9440937042236,11.9536952972412,11.9633121490479,11.9708194732666,11.9763565063477,11.9818983078003,11.9874448776245,11.9929971694946,11.9985542297363,12.0041170120239,12.0096845626831,12.0152568817139,12.0208349227905,12.0264177322388,12.0320062637329,12.0375995635986,12.0431985855103,12.0488023757935,12.0544109344482,12.0600252151489,12.0656452178955,12.0712699890137,12.0769004821777,12.0825357437134,12.0881757736206,12.0938215255737,12.0994729995728,12.1051292419434,12.1107912063599,12.1164579391479,12.1221303939819,12.1278076171875,12.133490562439,12.1391792297363,12.1448726654053,12.1505718231201,12.1925449371338,12.3092184066772,12.428147315979,12.5022296905518,12.5182771682739,12.5343656539917,12.5504961013794,12.5666675567627,12.5828809738159,12.5991363525391,12.6154336929321,12.6317729949951,12.6481552124023,12.6645793914795,12.6810464859009,12.6975564956665,12.7141103744507,12.7307062149048,12.7473459243774,12.7640295028687,12.7807569503784,12.7975273132324,12.8143424987793,12.8312015533447,12.848105430603,12.8650541305542,12.8820466995239,12.8990850448608,12.9161682128906,12.9332962036133,12.9504709243774,12.9676904678345,12.9849557876587,13.0022668838501,13.019624710083,13.0370292663574,13.054479598999,13.0719766616821,13.0895214080811,13.1071128845215,13.1247520446777,13.1425790786743,13.1683206558228,13.1941623687744,13.2201061248779,13.2461528778076,13.2723016738892,13.2985534667969,13.3249101638794,13.3513717651367,13.3779373168945,13.4046096801758,13.4313888549805,13.4582748413086,13.4852695465088,13.5114669799805,13.5336208343506,13.5558481216431,13.5781478881836,13.6005210876465,13.6229686737061,13.6454906463623,13.6680870056152,13.6907577514648,13.7135047912598,13.7363271713257,13.7592258453369,13.7822008132935,13.8052520751953,13.8283805847168,13.8515872955322,13.8748722076416,13.8982353210449,13.9216766357422,13.945198059082,13.9687986373901,13.9924793243408,14.0162401199341,14.0400819778442,14.0640058517456,14.0880098342896,14.1120977401733,14.1256656646729,14.1263265609741,14.126989364624,14.1276502609253,14.1283111572266,14.1289758682251,14.1296377182007,14.130298614502,14.1309642791748,14.1316223144531,14.1322841644287,14.1329488754272,14.1336107254028,14.1342716217041,14.1349391937256,14.1355991363525,14.1362600326538,14.136923789978,14.1375865936279,14.1382484436035,14.1389141082764,14.139575958252,14.1402397155762,14.1409034729004,14.1415634155273,14.1422271728516,14.142894744873,14.1435565948486,14.1442203521729,14.1448850631714,14.1455450057983,14.1462068557739,14.1468753814697,14.1475372314453,14.1482009887695,14.1488676071167,14.1495304107666,14.1501903533936,14.1508569717407,14.1515207290649,14.1521854400635,14.152850151062,14.1535148620605,14.1541786193848,14.1548414230347,14.1555061340332,14.1561708450317,14.1568374633789,14.1575021743774,14.158166885376,14.1588325500488,14.1594944000244,14.1601619720459,14.1608266830444,14.1614904403687,14.1621589660645,14.1628227233887,14.1634874343872,14.1641521453857,14.16481590271,14.1654825210571,14.1661500930786,14.1668138504028,14.1674795150757,14.1681489944458,14.1688137054443,14.1694755554199,14.1701431274414,14.1708087921143,14.1714744567871,14.1721439361572,14.1728076934814,14.1734752655029,14.1741409301758,14.1748046875,14.1754713058472,14.1761407852173,14.1768074035645,14.1774730682373,14.1781415939331,14.178804397583,14.1794710159302,14.180139541626,14.1808052062988,14.181471824646,14.1821422576904,14.1828088760376,14.1834726333618,14.1841411590576,14.1848077774048,14.185474395752,14.1861448287964,14.1868114471436,14.1874780654907,14.1881465911865,14.1888132095337,14.1894798278809,14.190149307251,14.1908178329468,14.1914844512939,14.1921558380127,14.1928205490112,14.1934871673584,14.1941585540771,14.1948270797729,14.1954927444458,14.1961622238159,14.1968326568604,14.1974964141846,14.1981678009033,14.1988363265991,14.1995038986206,14.2001752853394,14.2008447647095,14.201512336731,14.2021799087524,14.2028493881226,14.203516960144,14.2041873931885,14.20485496521,14.2055263519287,14.2061967849731,14.2068634033203,14.2075319290161,14.2082042694092,14.2088737487793,14.2095432281494,14.2102136611938,14.2108840942383,14.2115497589111,14.2122220993042
11.4120121002197,11.4136180877686,11.4152231216431,11.4168300628662,11.418436050415,11.4200439453125,11.4216508865356,11.4232587814331,11.4248676300049,11.4264764785767,11.4280862808228,11.4296960830688,11.4313058853149,11.4329166412354,11.4345283508301,11.4361400604248,11.4377517700195,11.4393644332886,11.4409770965576,11.442590713501,11.4442043304443,11.445818901062,11.4474334716797,11.4490489959717,11.4506645202637,11.45228099823,11.4538974761963,11.4555149078369,11.4571323394775,11.4587507247925,11.4603691101074,11.4619874954224,11.4636077880859,11.4652271270752,11.4668474197388,11.4684686660767,11.4700899124146,11.4717111587524,11.4733333587646,11.4749555587769,11.4765787124634,11.4782028198242,11.4798269271851,11.4814510345459,11.4830760955811,11.4847011566162,11.4895448684692,11.4984283447266,11.5073270797729,11.5162382125854,11.5251636505127,11.5341033935547,11.5430564880371,11.55202293396,11.5610046386719,11.5699996948242,11.579008102417,11.5880317687988,11.5970687866211,11.6061201095581,11.6151847839355,11.6242647171021,11.633358001709,11.642466545105,11.6515884399414,11.6607255935669,11.6698760986328,11.6790418624878,11.6882209777832,11.6974153518677,11.7066240310669,11.7158470153809,11.7250843048096,11.7343368530273,11.7436037063599,11.7528848648071,11.7621812820435,11.7714920043945,11.7808179855347,11.7901582717896,11.7995138168335,11.8088836669922,11.8182687759399,11.8276691436768,11.8370838165283,11.8465137481689,11.8559589385986,11.8654184341431,11.8748941421509,11.8843841552734,11.8938894271851,11.9034099578857,11.9129457473755,11.9224967956543,11.9320640563965,11.9416456222534,11.9512434005737,11.9580917358398,11.9636173248291,11.9691476821899,11.9746828079224,11.9802227020264,11.9857683181763,11.9913187026978,11.9968738555908,12.0024347305298,12.0080013275146,12.0135726928711,12.0191488265991,12.0247297286987,12.0303173065186,12.0359086990356,12.0415058135986,12.0471076965332,12.0527153015137,12.05832862854,12.063946723938,12.0695695877075,12.0751981735229,12.08083152771,12.0864706039429,12.0921144485474,12.0977640151978,12.103419303894,12.1090793609619,12.1147451400757,12.120415687561,12.126091003418,12.1317729949951,12.1374588012695,12.1431512832642,12.14954662323,12.2653951644897,12.3834743499756,12.503849029541,12.5207710266113,12.5368661880493,12.5530023574829,12.5691804885864,12.5854005813599,12.6016626358032,12.6179666519165,12.6343126296997,12.6507015228271,12.6671323776245,12.6836061477661,12.700122833252,12.716682434082,12.7332859039307,12.7499322891235,12.766622543335,12.7833566665649,12.8001337051392,12.8169565200806,12.8338222503662,12.8507328033447,12.8676881790161,12.8846883773804,12.9017333984375,12.9188232421875,12.9359588623047,12.9531393051147,12.9703664779663,12.9876394271851,13.004958152771,13.0223226547241,13.0397338867188,13.0571918487549,13.0746965408325,13.0922479629517,13.1098470687866,13.1335067749023,13.1592130661011,13.185019493103,13.2109270095825,13.2369365692139,13.2630491256714,13.2892656326294,13.3155851364136,13.3420085906982,13.368537902832,13.3951730728149,13.421914100647,13.4487619400024,13.4721822738647,13.4942083358765,13.5163059234619,13.5384759902954,13.560718536377,13.5830345153809,13.6054248809814,13.6278886795044,13.6504259109497,13.6730394363403,13.6957263946533,13.7184896469116,13.7413291931152,13.7642440795898,13.7872352600098,13.8103036880493,13.8334493637085,13.8566732406616,13.8799753189087,13.9033555984497,13.926815032959,13.9503526687622,13.9739713668823,13.9976692199707,14.0193500518799,14.0200023651123,14.020655632019,14.0213031768799,14.0219573974609,14.0226106643677,14.0232639312744,14.0239133834839,14.0245685577393,14.0252199172974,14.0258693695068,14.0265245437622,14.0271759033203,14.0278291702271,14.0284833908081,14.0291366577148,14.0297889709473,14.0304403305054,14.0310916900635,14.0317468643188,14.0324010848999,14.0330533981323,14.0337085723877,14.0343608856201,14.0350103378296,14.0356664657593,14.0363187789917,14.0369720458984,14.0376281738281,14.0382804870605,14.0389347076416,14.039587020874,14.0402412414551,14.0408954620361,14.0415496826172,14.0422039031982,14.0428581237793,14.0435132980347,14.0441646575928,14.0448169708252,14.0454759597778,14.0461282730103,14.046781539917,14.047438621521,14.0480928421021,14.0487432479858,14.0494003295898,14.0500555038452,14.0507078170776,14.0513668060303,14.052020072937,14.0526752471924,14.0533294677734,14.0539827346802,14.0546379089355,14.0552968978882,14.0559501647949,14.0566053390503,14.05726146698,14.0579137802124,14.0585689544678,14.0592269897461,14.0598821640015,14.0605382919312,14.0611953735352,14.0618505477905,14.0625038146973,14.063159942627,14.0638160705566,14.064471244812,14.0651292800903,14.06578540802,14.066442489624,14.0671005249023,14.0677528381348,14.0684080123901,14.0690670013428,14.0697240829468,14.0703802108765,14.0710372924805,14.0716953277588,14.0723485946655,14.0730056762695,14.0736637115479,14.0743198394775,14.0749778747559,14.0756349563599,14.0762929916382,14.0769472122192,14.0776042938232,14.0782604217529,14.0789213180542,14.0795783996582,14.0802345275879,14.0808954238892,14.0815496444702,14.0822048187256,14.0828676223755,14.0835227966309,14.0841817855835,14.0848407745361,14.0854978561401,14.0861539840698,14.0868120193481,14.0874710083008,14.0881280899048,14.0887889862061,14.0894470214844,14.0901041030884,14.090763092041,14.0914220809937,14.0920791625977,14.0927410125732,14.0933990478516,14.0940561294556,14.0947160720825,14.0953731536865,14.0960311889648,14.0966930389404,14.0973510742188,14.0980100631714,14.098671913147,14.0993318557739,14.099986076355,14.1006479263306,14.1013059616089,14.1019659042358,14.1026277542114,14.1032857894897,14.1039457321167,14.1046047210693,14.1052646636963,14.1059226989746
11.4084138870239,11.4100179672241,11.4116230010986,11.4132280349731,11.414834022522,11.4164400100708,11.4180459976196,11.4196538925171,11.4212608337402,11.4228687286377,11.4244775772095,11.4260864257812,11.427695274353,11.4293050765991,11.4309148788452,11.4325256347656,11.4341373443604,11.4357481002808,11.4373607635498,11.4389724731445,11.4405860900879,11.4421987533569,11.4438133239746,11.445426940918,11.4470415115356,11.4486570358276,11.4502725601196,11.4518890380859,11.4535055160522,11.4551219940186,11.4567394256592,11.4583578109741,11.4599761962891,11.461594581604,11.4632139205933,11.4648342132568,11.4664545059204,11.468074798584,11.4696960449219,11.4713172912598,11.472939491272,11.4745616912842,11.4761848449707,11.4778089523315,11.4794321060181,11.4810562133789,11.4826812744141,11.4843063354492,11.4859323501587,11.4875583648682,11.4961595535278,11.505054473877,11.5139617919922,11.5228843688965,11.5318202972412,11.5407695770264,11.5497331619263,11.5587100982666,11.567702293396,11.5767068862915,11.5857267379761,11.5947599411011,11.6038074493408,11.6128692626953,11.6219453811646,11.6310358047485,11.6401405334473,11.6492586135864,11.6583919525146,11.6675386428833,11.676700592041,11.6858768463135,11.6950674057007,11.7042722702026,11.7134914398193,11.7227249145508,11.7319736480713,11.7412366867065,11.7505149841309,11.7598066329956,11.7691144943237,11.7784357070923,11.7877731323242,11.7971239089966,11.8064908981323,11.8158721923828,11.825267791748,11.8346786499023,11.8441047668457,11.8535461425781,11.8630027770996,11.8724737167358,11.8819599151611,11.8914613723755,11.9009780883789,11.9105100631714,11.9200572967529,11.9296207427979,11.9391984939575,11.9453916549683,11.9509048461914,11.9564237594604,11.9619464874268,11.9674758911133,11.9730091094971,11.9785480499268,11.984091758728,11.9896402359009,11.9951944351196,12.0007543563843,12.0063180923462,12.0118885040283,12.0174627304077,12.023042678833,12.0286283493042,12.0342178344727,12.0398139953613,12.0454149246216,12.0510206222534,12.0566320419312,12.0622482299805,12.0678691864014,12.0734968185425,12.0791282653809,12.0847663879395,12.0904083251953,12.0960569381714,12.1017093658447,12.1073684692383,12.1130323410034,12.1187009811401,12.1243753433228,12.1300554275513,12.1357402801514,12.1414308547974,12.2218828201294,12.3391218185425,12.4586305618286,12.523265838623,12.5393676757812,12.5555105209351,12.5716953277588,12.5879220962524,12.6041898727417,12.6205005645752,12.6368532180786,12.653247833252,12.6696863174438,12.6861667633057,12.7026901245117,12.719256401062,12.7358665466309,12.7525196075439,12.7692165374756,12.7859573364258,12.8027420043945,12.8195705413818,12.836443901062,12.8533611297607,12.8703231811523,12.8873300552368,12.9043827056885,12.9214792251587,12.9386224746704,12.955810546875,12.9730443954468,12.9903240203857,13.0076494216919,13.0250215530396,13.0424404144287,13.0599050521851,13.0774173736572,13.098876953125,13.1244468688965,13.1501178741455,13.1758880615234,13.2017602920532,13.2277336120605,13.253809928894,13.2799892425537,13.3062725067139,13.3326597213745,13.3591508865356,13.3857488632202,13.4112997055054,13.433126449585,13.455023765564,13.476993560791,13.4990348815918,13.5211486816406,13.5433340072632,13.5655937194824,13.5879259109497,13.6103315353394,13.6328115463257,13.6553659439087,13.6779947280884,13.7006988525391,13.7234783172607,13.7463340759277,13.76926612854,13.7922744750977,13.8153600692749,13.8385229110718,13.8617630004883,13.885082244873,13.9084796905518,13.9152688980103,13.9159116744995,13.9165515899658,13.9171943664551,13.9178352355957,13.9184789657593,13.9191226959229,13.9197645187378,13.9204072952271,13.9210510253906,13.9216909408569,13.9223337173462,13.9229774475098,13.9236211776733,13.9242630004883,13.9249086380005,13.9255514144897,13.9261903762817,13.9268360137939,13.9274787902832,13.9281215667725,13.928768157959,13.9294099807739,13.9300546646118,13.9306983947754,13.9313402175903,13.9319829940796,13.9326295852661,13.9332733154297,13.9339160919189,13.9345626831055,13.9352025985718,13.9358463287354,13.9364938735962,13.9371356964111,13.937780380249,13.9384269714355,13.9390697479248,13.9397115707397,13.9403591156006,13.9410018920898,13.9416465759277,13.9422950744629,13.9429378509521,13.94358253479,13.9442253112793,13.9448690414429,13.9455137252808,13.9461612701416,13.9468078613281,13.9474515914917,13.9480981826782,13.9487409591675,13.9493865966797,13.9500322341919,13.9506778717041,13.951322555542,13.9519701004028,13.9526176452637,13.9532585144043,13.9539051055908,13.9545516967773,13.9551973342896,13.9558439254761,13.9564895629883,13.9571352005005,13.9577808380127,13.9584283828735,13.9590721130371,13.9597206115723,13.9603662490845,13.9610137939453,13.9616622924805,13.9623041152954,13.9629507064819,13.9636001586914,13.9642448425293,13.9648923873901,13.9655408859253,13.9661874771118,13.9668340682983,13.9674797058105,13.9681262969971,13.9687728881836,13.9694213867188,13.9700698852539,13.9707145690918,13.9713659286499,13.9720115661621,13.97265625,13.9733057022095,13.973952293396,13.9746007919312,13.9752502441406,13.9758968353271,13.9765434265137,13.9771919250488,13.9778394699097,13.9784879684448,13.9791383743286,13.9797849655151,13.9804334640503,13.9810810089111,13.981728553772,13.9823751449585,13.9830274581909,13.9836759567261,13.9843235015869,13.9849739074707,13.9856185913086,13.9862661361694,13.9869174957275,13.987566947937,13.9882144927979,13.9888668060303,13.9895143508911,13.9901599884033,13.9908123016357,13.9914598464966,13.9921092987061,13.9927616119385,13.9934091567993,13.9940614700317,13.9947071075439,13.9953556060791,13.9960079193115,13.9966564178467,13.9973068237305,13.9979591369629,13.9986085891724,13.9992551803589,13.9999055862427,14.0005559921265,14.0012044906616
11.4048175811768,11.4064207077026,11.4080247879028,11.409628868103,11.4112329483032,11.4128389358521,11.4144439697266,11.4160499572754,11.4176568984985,11.4192638397217,11.4208707809448,11.4224786758423,11.4240865707397,11.4256954193115,11.4273042678833,11.4289140701294,11.4305238723755,11.4321346282959,11.4337453842163,11.435357093811,11.4369688034058,11.4385814666748,11.4401941299438,11.4418077468872,11.4434213638306,11.4450349807739,11.4466495513916,11.4482650756836,11.4498805999756,11.4514961242676,11.4531126022339,11.4547300338745,11.4563474655151,11.4579648971558,11.4595832824707,11.4612016677856,11.4628210067749,11.4644412994385,11.4660606384277,11.4676818847656,11.4693021774292,11.4709243774414,11.4725456237793,11.4741687774658,11.475790977478,11.4774141311646,11.4790382385254,11.4806623458862,11.4822874069214,11.4839124679565,11.4855375289917,11.4871635437012,11.488790512085,11.4938917160034,11.502781867981,11.5116872787476,11.5206050872803,11.5295372009277,11.5384836196899,11.5474433898926,11.55641746521,11.5654058456421,11.5744075775146,11.5834226608276,11.5924530029297,11.6014966964722,11.6105556488037,11.6196279525757,11.6287136077881,11.6378145217896,11.6469297409058,11.6560592651367,11.6652021408081,11.6743602752686,11.6835327148438,11.6927194595337,11.7019205093384,11.7111368179321,11.7203664779663,11.7296113967896,11.7388706207275,11.7481451034546,11.7574338912964,11.7667369842529,11.7760553359985,11.7853879928589,11.7947359085083,11.8040981292725,11.8134756088257,11.822868347168,11.832275390625,11.8416976928711,11.8511343002319,11.8605871200562,11.8700542449951,11.8795366287231,11.8890352249146,11.8985481262207,11.9080762863159,11.9176187515259,11.9271783828735,11.9327192306519,11.9382200241089,11.9437265396118,11.9492387771606,11.9547548294067,11.960277557373,11.9658041000366,11.9713363647461,11.9768733978271,11.9824151992798,11.9879627227783,11.9935159683228,11.9990730285645,12.0046367645264,12.0102043151855,12.0157775878906,12.0213556289673,12.0269393920898,12.032527923584,12.038122177124,12.0437211990356,12.0493259429932,12.0549354553223,12.0605497360229,12.0661697387695,12.071795463562,12.0774259567261,12.083062171936,12.0887031555176,12.0943489074707,12.1000003814697,12.1056575775146,12.1113195419312,12.1169872283936,12.1226596832275,12.1283378601074,12.1340217590332,12.1786775588989,12.2950849533081,12.4137392044067,12.5257616043091,12.5418701171875,12.5580196380615,12.5742101669312,12.590443611145,12.6067180633545,12.6230354309082,12.6393947601318,12.6557970046997,12.6722412109375,12.6887283325195,12.7052583694458,12.7218313217163,12.7384481430054,12.7551078796387,12.7718114852905,12.7885589599609,12.8053503036499,12.8221864700317,12.8390665054321,12.8559904098511,12.8729600906372,12.8899736404419,12.9070329666138,12.9241371154785,12.9412870407104,12.9584817886353,12.9757223129272,12.9930095672607,13.0103425979614,13.0277214050293,13.045147895813,13.0644292831421,13.0898656845093,13.1154003143311,13.1410350799561,13.1667699813843,13.19260597229,13.2185440063477,13.2445840835571,13.2707271575928,13.2969732284546,13.3233232498169,13.349778175354,13.372594833374,13.3942956924438,13.4160671234131,13.4379091262817,13.4598236083984,13.4818086624146,13.5038652420044,13.5259943008423,13.5481958389282,13.5704708099365,13.5928192138672,13.6152420043945,13.6377382278442,13.6603088378906,13.6829538345337,13.7056741714478,13.7284708023071,13.7513427734375,13.7742910385132,13.7973165512085,13.8120813369751,13.8127145767212,13.8133506774902,13.8139820098877,13.8146181106567,13.8152475357056,13.8158826828003,13.8165149688721,13.8171482086182,13.8177824020386,13.818416595459,13.8190450668335,13.8196811676025,13.8203134536743,13.8209466934204,13.8215837478638,13.8222160339355,13.8228511810303,13.8234834671021,13.8241176605225,13.8247480392456,13.8253860473633,13.8260183334351,13.8266544342041,13.8272895812988,13.827919960022,13.8285531997681,13.8291902542114,13.8298244476318,13.8304567337036,13.831093788147,13.8317270278931,13.8323574066162,13.8329954147339,13.8336305618286,13.8342657089233,13.8349008560181,13.8355369567871,13.8361701965332,13.8368043899536,13.8374395370483,13.8380708694458,13.8387079238892,13.8393449783325,13.8399801254272,13.8406171798706,13.8412485122681,13.8418836593628,13.8425207138062,13.8431558609009,13.8437919616699,13.8444290161133,13.845064163208,13.8456974029541,13.8463354110718,13.8469705581665,13.8476047515869,13.8482446670532,13.8488798141479,13.8495140075684,13.8501510620117,13.8507871627808,13.8514223098755,13.8520612716675,13.8526973724365,13.8533344268799,13.8539705276489,13.8546047210693,13.8552408218384,13.8558807373047,13.8565149307251,13.8571529388428,13.8577909469604,13.8584280014038,13.8590612411499,13.8597021102905,13.8603382110596,13.8609733581543,13.8616132736206,13.862250328064,13.8628883361816,13.8635234832764,13.864161491394,13.8647985458374,13.8654375076294,13.8660755157471,13.8667106628418,13.8673515319824,13.8679885864258,13.8686227798462,13.8692636489868,13.8699026107788,13.8705425262451,13.8711795806885,13.8718166351318,13.8724575042725,13.8730907440186,13.8737297058105,13.8743705749512,13.8750085830688,13.8756456375122,13.8762874603271,13.8769264221191,13.8775615692139,13.8782014846802,13.8788404464722,13.8794784545898,13.8801202774048,13.8807573318481,13.8813953399658,13.8820352554321,13.8826742172241,13.8833122253418,13.8839559555054,13.8845920562744,13.8852319717407,13.8858737945557,13.8865098953247,13.887149810791,13.887791633606,13.8884296417236,13.8890686035156,13.8897104263306,13.8903503417969,13.8909864425659,13.8916292190552,13.8922691345215,13.8929080963135,13.8935499191284,13.894190788269,13.894829750061,13.8954696655273,13.896110534668,13.8967504501343,13.8973922729492,13.8980340957642
11.4012231826782,11.4028253555298,11.4044284820557,11.4060316085815,11.4076356887817,11.4092397689819,11.4108438491821,11.4124488830566,11.4140539169312,11.41565990448,11.4172668457031,11.4188737869263,11.4204807281494,11.4220886230469,11.4236965179443,11.4253053665161,11.4269142150879,11.428524017334,11.4301338195801,11.4317436218262,11.4333543777466,11.4349660873413,11.436577796936,11.4381904602051,11.4398031234741,11.4414157867432,11.4430294036865,11.4446439743042,11.4462585449219,11.4478731155396,11.4494886398315,11.4511041641235,11.4527206420898,11.4543371200562,11.4559545516968,11.4575719833374,11.4591903686523,11.4608087539673,11.4624280929565,11.4640474319458,11.4656677246094,11.4672880172729,11.4689092636108,11.4705305099487,11.4721527099609,11.4737749099731,11.4753971099854,11.4770202636719,11.4786443710327,11.4802684783936,11.4818925857544,11.4835176467896,11.485143661499,11.4867696762085,11.488395690918,11.4900226593018,11.4916496276855,11.5005111694336,11.5094127655029,11.5183277130127,11.5272560119629,11.5361986160278,11.5451555252075,11.5541257858276,11.5631093978882,11.5721082687378,11.5811204910278,11.5901470184326,11.5991868972778,11.6082420349121,11.6173105239868,11.6263933181763,11.6354904174805,11.6446018218994,11.6537275314331,11.6628675460815,11.6720218658447,11.6811904907227,11.6903734207153,11.6995706558228,11.7087831497192,11.7180089950562,11.7272500991821,11.7365064620972,11.7457761764526,11.7550611495972,11.7643604278564,11.7736749649048,11.7830047607422,11.79234790802,11.8017072677612,11.8110809326172,11.8204689025879,11.8298721313477,11.8392906188965,11.8487243652344,11.858172416687,11.867636680603,11.8771152496338,11.8866090774536,11.8961181640625,11.9056425094604,11.9145879745483,11.920072555542,11.9255619049072,11.9310569763184,11.9365568161011,11.9420623779297,11.9475727081299,11.9530878067017,11.958607673645,11.9641332626343,11.9696636199951,11.9751996994019,11.9807405471802,11.9862861633301,11.9918375015259,11.9973936080933,12.0029544830322,12.0085210800171,12.0140924453735,12.0196695327759,12.0252513885498,12.0308389663696,12.036431312561,12.042028427124,12.0476312637329,12.0532398223877,12.0588531494141,12.064471244812,12.0700950622559,12.0757236480713,12.0813579559326,12.0869970321655,12.0926418304443,12.098292350769,12.1039476394653,12.1096076965332,12.115273475647,12.1209449768066,12.1266212463379,12.1357774734497,12.2513618469238,12.3691692352295,12.4892644882202,12.5443735122681,12.5605297088623,12.5767269134521,12.5929660797119,12.6092481613159,12.6255712509155,12.6419372558594,12.6583461761475,12.6747970581055,12.6912908554077,12.7078275680542,12.7244071960449,12.7410306930542,12.7576971054077,12.7744073867798,12.7911624908447,12.8079605102539,12.824803352356,12.8416900634766,12.85862159729,12.8755970001221,12.8926181793213,12.9096841812134,12.9267950057983,12.9439516067505,12.9611539840698,12.9784021377563,12.9956960678101,13.0130367279053,13.0304231643677,13.0554656982422,13.0808658599854,13.1063652038574,13.1319646835327,13.1576642990112,13.1834650039673,13.2093667984009,13.2353706359863,13.2614765167236,13.2876863479614,13.3126068115234,13.3341131210327,13.3556900024414,13.3773355484009,13.3990516662598,13.4208383560181,13.4426965713501,13.4646253585815,13.486626625061,13.5086984634399,13.5308437347412,13.5530614852905,13.5753526687622,13.5977172851562,13.6201553344727,13.6426677703857,13.6652545928955,13.6879167556763,13.7104206085205,13.7110443115234,13.7116661071777,13.7122898101807,13.7129144668579,13.7135400772095,13.7141628265381,13.714786529541,13.7154102325439,13.7160348892212,13.7166604995728,13.7172803878784,13.7179069519043,13.7185306549072,13.7191514968872,13.7197799682617,13.720401763916,13.7210264205933,13.7216529846191,13.7222747802734,13.7228994369507,13.7235260009766,13.7241506576538,13.7247734069824,13.7253999710083,13.7260246276855,13.7266473770142,13.72727394104,13.7279005050659,13.7285232543945,13.7291507720947,13.729775428772,13.7304010391235,13.7310256958008,13.7316484451294,13.7322750091553,13.7329025268555,13.7335262298584,13.7341527938843,13.7347803115845,13.7354011535645,13.7360286712646,13.7366561889648,13.7372817993164,13.7379064559937,13.7385339736938,13.7391595840454,13.7397813796997,13.7404108047485,13.7410383224487,13.7416620254517,13.7422924041748,13.7429161071777,13.7435436248779,13.7441673278809,13.7447967529297,13.7454204559326,13.7460489273071,13.7466745376587,13.7473030090332,13.7479305267334,13.7485542297363,13.7491846084595,13.7498092651367,13.7504367828369,13.7510662078857,13.7516918182373,13.7523183822632,13.7529458999634,13.7535724639893,13.7542009353638,13.7548294067383,13.7554559707642,13.75608253479,13.7567129135132,13.7573375701904,13.7579641342163,13.7585935592651,13.7592220306396,13.7598505020142,13.7604789733887,13.7611064910889,13.7617311477661,13.7623624801636,13.7629890441895,13.7636184692383,13.7642488479614,13.764874458313,13.7655048370361,13.7661304473877,13.7667589187622,13.767388343811,13.7680196762085,13.7686471939087,13.7692747116089,13.7699060440063,13.7705316543579,13.7711601257324,13.7717905044556,13.7724199295044,13.7730474472046,13.7736806869507,13.7743091583252,13.7749366760254,13.7755661010742,13.7761936187744,13.7768239974976,13.7774572372437,13.7780857086182,13.778715133667,13.7793455123901,13.7799711227417,13.7806015014648,13.7812337875366,13.7818632125854,13.78249168396,13.7831258773804,13.7837543487549,13.7843818664551,13.7850122451782,13.78564453125,13.7862730026245,13.7869052886963,13.7875347137451,13.7881641387939,13.7887954711914,13.7894258499146,13.7900562286377,13.7906894683838,13.7913179397583,13.7919483184814,13.7925815582275,13.7932100296021,13.7938413619995,13.7944736480713,13.7951030731201,13.7957353591919,13.796368598938
11.3976316452026,11.3992328643799,11.4008350372314,11.402437210083,11.4040393829346,11.4056425094604,11.4072456359863,11.4088497161865,11.410454750061,11.4120597839355,11.4136648178101,11.4152708053589,11.4168767929077,11.4184837341309,11.420090675354,11.4216976165771,11.4233064651489,11.4249143600464,11.4265232086182,11.4281330108643,11.4297428131104,11.4313535690308,11.4329643249512,11.4345750808716,11.4361867904663,11.437798500061,11.4394111633301,11.4410247802734,11.4426383972168,11.4442520141602,11.4458665847778,11.4474811553955,11.4490966796875,11.4507122039795,11.4523286819458,11.4539451599121,11.4555625915527,11.4571800231934,11.458797454834,11.4604158401489,11.4620351791382,11.4636545181274,11.465274810791,11.4668951034546,11.4685153961182,11.4701366424561,11.4717588424683,11.4733810424805,11.4750032424927,11.4766263961792,11.4782495498657,11.4798736572266,11.4814987182617,11.4831237792969,11.484748840332,11.4863748550415,11.488000869751,11.4896278381348,11.4912548065186,11.4928827285767,11.4982414245605,11.5071392059326,11.5160503387451,11.5249757766724,11.53391456604,11.5428676605225,11.5518341064453,11.5608148574829,11.5698099136353,11.578818321228,11.5878410339355,11.5968780517578,11.6059293746948,11.6149940490723,11.6240730285645,11.6331672668457,11.6422748565674,11.6513967514038,11.660532951355,11.6696834564209,11.6788482666016,11.688027381897,11.6972217559814,11.7064294815063,11.7156524658203,11.724889755249,11.7341423034668,11.743408203125,11.7526893615723,11.7619857788086,11.7712965011597,11.7806215286255,11.7899618148804,11.79931640625,11.8086862564087,11.8180713653564,11.8274707794189,11.8368854522705,11.8463153839111,11.8557596206665,11.8652191162109,11.8746938705444,11.884183883667,11.8936891555786,11.9019794464111,11.907452583313,11.9129314422607,11.9184141159058,11.9239025115967,11.9293956756592,11.9348945617676,11.9403982162476,11.9459066390991,11.9514198303223,11.9569387435913,11.9624624252319,11.9679918289185,11.9735260009766,11.9790649414062,11.9846096038818,11.990159034729,11.9957132339478,12.0012731552124,12.0068378448486,12.0124082565308,12.0179834365845,12.0235643386841,12.0291500091553,12.034740447998,12.0403366088867,12.045937538147,12.0515441894531,12.0571556091309,12.0627727508545,12.0683946609497,12.0740222930908,12.0796546936035,12.0852928161621,12.0909357070923,12.0965843200684,12.102237701416,12.1078968048096,12.1135606765747,12.1192302703857,12.1249055862427,12.2079486846924,12.3249187469482,12.4441528320312,12.5468778610229,12.5630407333374,12.5792446136475,12.5954904556274,12.6117782592773,12.6281080245972,12.6444807052612,12.6608963012695,12.6773538589478,12.6938543319702,12.7103977203369,12.7269840240479,12.7436141967773,12.7602882385254,12.7770051956177,12.7937660217285,12.8105716705322,12.8274211883545,12.8443145751953,12.861252784729,12.8782358169556,12.895263671875,12.9123363494873,12.9294548034668,12.9466180801392,12.963828086853,12.9810829162598,12.998384475708,13.0212450027466,13.0465126037598,13.0718784332275,13.0973434448242,13.1229076385498,13.1485719680786,13.1743364334106,13.2002019882202,13.2261695861816,13.2522401809692,13.2744693756104,13.2958526611328,13.3173046112061,13.3388261795044,13.3604173660278,13.3820791244507,13.4038105010986,13.4256134033203,13.4474859237671,13.4694309234619,13.4914474487305,13.5135364532471,13.5356969833374,13.5579309463501,13.5802383422852,13.6026182174683,13.6108551025391,13.6114692687988,13.6120834350586,13.6127004623413,13.6133117675781,13.6139287948608,13.6145448684692,13.6151609420776,13.6157760620117,13.6163902282715,13.6170043945312,13.6176176071167,13.618236541748,13.6188488006592,13.6194658279419,13.6200799942017,13.6206941604614,13.6213121414185,13.621922492981,13.6225385665894,13.6231565475464,13.6237726211548,13.6243858337402,13.6250047683716,13.6256198883057,13.6262350082397,13.6268501281738,13.6274671554565,13.6280841827393,13.6286993026733,13.6293134689331,13.6299343109131,13.6305494308472,13.631160736084,13.631778717041,13.6323957443237,13.6330118179321,13.6336307525635,13.6342468261719,13.634861946106,13.635479927063,13.6360950469971,13.6367111206055,13.6373291015625,13.6379470825195,13.6385622024536,13.639181137085,13.6397943496704,13.6404104232788,13.6410303115845,13.6416463851929,13.6422643661499,13.6428833007812,13.643500328064,13.6441164016724,13.6447334289551,13.6453514099121,13.6459693908691,13.6465883255005,13.6472063064575,13.6478223800659,13.6484394073486,13.6490573883057,13.6496744155884,13.650294303894,13.6509113311768,13.6515302658081,13.6521511077881,13.6527652740479,13.6533823013306,13.6540031433105,13.6546201705933,13.6552391052246,13.655858039856,13.6564769744873,13.6570930480957,13.65771484375,13.6583318710327,13.6589508056641,13.659571647644,13.6601886749268,13.6608085632324,13.6614255905151,13.6620445251465,13.6626644134521,13.6632852554321,13.6639022827148,13.6645221710205,13.6651439666748,13.6657609939575,13.6663780212402,13.6670007705688,13.6676177978516,13.6682376861572,13.6688594818115,13.6694793701172,13.6700963973999,13.6707181930542,13.6713361740112,13.6719579696655,13.6725788116455,13.6731986999512,13.6738185882568,13.6744365692139,13.6750564575195,13.6756763458252,13.6762990951538,13.6769180297852,13.6775388717651,13.6781616210938,13.6787815093994,13.6793975830078,13.6800222396851,13.6806421279907,13.6812610626221,13.6818838119507,13.6825065612793,13.683126449585,13.6837453842163,13.6843662261963,13.684986114502,13.6856098175049,13.6862316131592,13.6868524551392,13.6874742507935,13.6880941390991,13.6887149810791,13.689338684082,13.689959526062,13.690580368042,13.6912040710449,13.6918249130249,13.6924438476562,13.6930675506592,13.6936883926392,13.6943092346191,13.6949348449707,13.6955556869507,13.696177482605
11.3940420150757,11.3956422805786,11.3972434997559,11.3988447189331,11.4004459381104,11.4020481109619,11.4036502838135,11.4052534103394,11.4068565368652,11.4084606170654,11.4100646972656,11.4116697311401,11.4132747650146,11.4148807525635,11.4164867401123,11.4180936813354,11.4197006225586,11.4213075637817,11.4229154586792,11.424524307251,11.4261331558228,11.4277420043945,11.4293518066406,11.430962562561,11.4325733184814,11.4341840744019,11.4357957839966,11.4374074935913,11.4390201568604,11.4406328201294,11.4422464370728,11.4438600540161,11.4454746246338,11.4470891952515,11.4487047195435,11.4503202438354,11.4519357681274,11.4535522460938,11.4551696777344,11.456787109375,11.4584054946899,11.4600238800049,11.4616422653198,11.4632616043091,11.4648809432983,11.4665012359619,11.4681224822998,11.4697437286377,11.4713649749756,11.4729871749878,11.474609375,11.4762325286865,11.477855682373,11.4794797897339,11.4811038970947,11.4827289581299,11.484354019165,11.4859800338745,11.487606048584,11.4892330169678,11.4908599853516,11.4924879074097,11.4941158294678,11.4959726333618,11.5048666000366,11.5137748718262,11.5226964950562,11.5316314697266,11.5405807495117,11.5495443344116,11.558521270752,11.567512512207,11.5765180587769,11.5855369567871,11.5945701599121,11.6036176681519,11.612678527832,11.6217546463013,11.6308441162109,11.6399478912354,11.6490669250488,11.6581993103027,11.6673460006714,11.6765079498291,11.6856832504272,11.6948738098145,11.7040777206421,11.7132968902588,11.7225303649902,11.7317790985107,11.741042137146,11.750319480896,11.7596111297607,11.7689180374146,11.7782402038574,11.7875757217407,11.7969274520874,11.8062934875488,11.815673828125,11.8250703811646,11.8344812393188,11.8439064025879,11.8533477783203,11.8628034591675,11.8722743988037,11.881760597229,11.8893985748291,11.8948602676392,11.9003267288208,11.905797958374,11.9112749099731,11.9167566299438,11.9222431182861,11.9277353286743,11.9332323074341,11.9387340545654,11.9442415237427,11.9497537612915,11.9552707672119,11.9607925415039,11.9663200378418,11.9718532562256,11.9773902893066,11.9829330444336,11.9884815216064,11.9940347671509,11.9995927810669,12.0051555633545,12.010724067688,12.0162982940674,12.0218772888184,12.0274610519409,12.0330505371094,12.0386447906494,12.0442447662354,12.0498495101929,12.055459022522,12.061074256897,12.0666952133179,12.0723209381104,12.0779523849487,12.0835886001587,12.0892295837402,12.0948762893677,12.100528717041,12.1061859130859,12.1118488311768,12.1175165176392,12.1648426055908,12.2809839248657,12.3993644714355,12.5200500488281,12.5655527114868,12.5817632675171,12.5980157852173,12.6143102645874,12.6306467056274,12.6470260620117,12.6634473800659,12.6799116134644,12.696418762207,12.7129688262939,12.7295627593994,12.7461986541748,12.7628793716431,12.7796030044556,12.7963714599609,12.8131837844849,12.8300399780273,12.8469400405884,12.8638849258423,12.8808755874634,12.897910118103,12.9149904251099,12.9321155548096,12.9492864608765,12.9665031433105,12.9872045516968,13.01233959198,13.0375728607178,13.0629043579102,13.0883340835571,13.113862991333,13.1394910812378,13.1652202606201,13.19105052948,13.2153568267822,13.2365493774414,13.2578105926514,13.2791404724121,13.3005390167236,13.3220062255859,13.3435430526733,13.3651494979858,13.3868255615234,13.4085731506348,13.4303913116455,13.4522800445557,13.4742403030396,13.4962720870972,13.5121221542358,13.5127267837524,13.5133361816406,13.5139379501343,13.5145454406738,13.5151500701904,13.5157566070557,13.5163631439209,13.5169677734375,13.5175752639771,13.5181818008423,13.5187854766846,13.5193920135498,13.5199995040894,13.5206069946289,13.5212116241455,13.5218181610107,13.5224266052246,13.5230331420898,13.5236406326294,13.5242443084717,13.5248508453369,13.5254602432251,13.526065826416,13.5266733169556,13.5272817611694,13.5278844833374,13.528491973877,13.5290994644165,13.5297069549561,13.5303134918213,13.5309228897095,13.531530380249,13.5321340560913,13.5327425003052,13.5333499908447,13.5339555740356,13.5345678329468,13.535174369812,13.5357818603516,13.5363922119141,13.5369939804077,13.5376024246216,13.5382127761841,13.5388202667236,13.5394268035889,13.5400371551514,13.5406455993652,13.5412502288818,13.5418586730957,13.5424671173096,13.5430755615234,13.5436859130859,13.5442943572998,13.5449028015137,13.5455112457275,13.5461177825928,13.5467262268066,13.5473375320435,13.5479459762573,13.5485534667969,13.5491638183594,13.5497703552246,13.5503778457642,13.550989151001,13.5515995025635,13.552206993103,13.5528182983398,13.5534267425537,13.5540323257446,13.5546436309814,13.5552520751953,13.5558633804321,13.5564746856689,13.5570840835571,13.5576915740967,13.5583009719849,13.558910369873,13.5595197677612,13.5601320266724,13.5607395172119,13.5613489151001,13.5619630813599,13.5625696182251,13.5631790161133,13.5637893676758,13.5644006729126,13.5650091171265,13.5656213760376,13.5662307739258,13.5668382644653,13.5674505233765,13.568060874939,13.5686721801758,13.5692844390869,13.5698947906494,13.5705051422119,13.5711154937744,13.5717258453369,13.5723371505737,13.5729484558105,13.5735607147217,13.5741701126099,13.5747852325439,13.5753908157349,13.5760040283203,13.5766162872314,13.5772266387939,13.5778379440308,13.5784521102905,13.5790615081787,13.5796718597412,13.5802850723267,13.5808954238892,13.5815076828003,13.5821208953857,13.5827341079712,13.5833444595337,13.5839586257935,13.5845670700073,13.5851793289185,13.5857925415039,13.5864057540894,13.5870170593262,13.5876302719116,13.5882415771484,13.5888509750366,13.5894660949707,13.5900793075562,13.5906934738159,13.5913066864014,13.5919160842896,13.5925321578979,13.5931415557861,13.5937547683716,13.594367980957,13.5949821472168,13.5955934524536,13.596209526062,13.5968217849731,13.5974311828613
11.3904552459717,11.3920545578003,11.3936538696289,11.3952541351318,11.3968544006348,11.398455619812,11.4000568389893,11.4016590118408,11.4032611846924,11.4048643112183,11.4064674377441,11.4080715179443,11.4096755981445,11.411280632019,11.4128856658936,11.4144906997681,11.4160966873169,11.41770362854,11.4193105697632,11.4209175109863,11.4225254058838,11.4241342544556,11.425742149353,11.4273519515991,11.4289617538452,11.4305715560913,11.4321823120117,11.4337930679321,11.4354047775269,11.4370164871216,11.4386281967163,11.4402418136597,11.4418544769287,11.4434680938721,11.4450826644897,11.4466972351074,11.4483127593994,11.4499282836914,11.4515438079834,11.4531602859497,11.454776763916,11.4563941955566,11.4580125808716,11.4596309661865,11.4612493515015,11.4628686904907,11.46448802948,11.4661083221436,11.4677286148071,11.469349861145,11.4709711074829,11.4725933074951,11.4742155075073,11.4758386611938,11.4774618148804,11.4790859222412,11.4807100296021,11.4823350906372,11.4839601516724,11.4855852127075,11.487211227417,11.4888381958008,11.4904651641846,11.4920921325684,11.4937200546265,11.4953489303589,11.4969778060913,11.5025949478149,11.5114994049072,11.5204172134399,11.5293493270874,11.5382947921753,11.5472545623779,11.5562286376953,11.5652160644531,11.5742177963257,11.5832328796387,11.5922632217407,11.6013069152832,11.6103649139404,11.6194362640381,11.6285228729248,11.637622833252,11.6467380523682,11.6558666229248,11.6650104522705,11.6741676330566,11.6833400726318,11.6925258636475,11.7017269134521,11.7109422683716,11.7201719284058,11.729416847229,11.738676071167,11.7479496002197,11.7572383880615,11.7665414810181,11.7758588790894,11.7851915359497,11.7945384979248,11.803900718689,11.8132781982422,11.8226699829102,11.8320770263672,11.8414993286133,11.8509359359741,11.860387802124,11.869854927063,11.8768434524536,11.8822937011719,11.8877487182617,11.8932085037231,11.8986740112305,11.9041442871094,11.9096193313599,11.9150991439819,11.9205846786499,11.9260749816895,11.9315700531006,11.9370708465576,11.9425764083862,11.9480867385864,11.9536027908325,11.9591236114502,11.9646492004395,11.9701805114746,11.9757165908813,11.9812574386597,11.9868040084839,11.9923553466797,11.9979124069214,12.0034742355347,12.0090408325195,12.0146131515503,12.0201902389526,12.0257730484009,12.0313606262207,12.0369539260864,12.0425519943237,12.0481548309326,12.0537633895874,12.0593767166138,12.064995765686,12.0706205368042,12.0762500762939,12.0818843841553,12.0875244140625,12.0931692123413,12.098819732666,12.1044759750366,12.1101369857788,12.1220388412476,12.2373609542847,12.3548984527588,12.4747152328491,12.5680656433105,12.5842819213867,12.6005411148071,12.6168422698975,12.6331853866577,12.6495714187622,12.6659994125366,12.6824703216553,12.6989841461182,12.7155408859253,12.732141494751,12.7487850189209,12.7654724121094,12.7822027206421,12.7989778518677,12.8157958984375,12.8326597213745,12.8495674133301,12.8665189743042,12.8835163116455,12.9005575180054,12.9176454544067,12.9347772598267,12.9533405303955,12.9783449172974,13.0034465789795,13.0286455154419,13.0539417266846,13.0793361663818,13.104829788208,13.1304235458374,13.15611743927,13.177773475647,13.1988458633423,13.2199859619141,13.2411937713623,13.2624702453613,13.2838144302368,13.3052282333374,13.3267107009888,13.3482627868652,13.3698844909668,13.3915758132935,13.4133386611938,13.4154090881348,13.4160041809082,13.416600227356,13.4171991348267,13.4177923202515,13.4183931350708,13.4189891815186,13.4195880889893,13.4201831817627,13.4207811355591,13.4213790893555,13.4219799041748,13.4225759506226,13.4231729507446,13.4237689971924,13.424370765686,13.4249668121338,13.4255638122559,13.4261617660522,13.4267616271973,13.4273595809937,13.4279537200928,13.4285535812378,13.4291515350342,13.4297513961792,13.4303493499756,13.4309434890747,13.4315452575684,13.4321432113647,13.4327411651611,13.4333400726318,13.4339399337769,13.4345369338989,13.4351367950439,13.4357328414917,13.4363307952881,13.4369325637817,13.4375305175781,13.4381284713745,13.4387292861938,13.4393262863159,13.4399242401123,13.4405250549316,13.4411239624023,13.441722869873,13.442325592041,13.4429244995117,13.4435214996338,13.4441204071045,13.4447202682495,13.4453201293945,13.4459209442139,13.4465217590332,13.4471187591553,13.4477205276489,13.4483184814453,13.4489164352417,13.449517250061,13.4501190185547,13.4507179260254,13.4513216018677,13.4519186019897,13.4525175094604,13.4531192779541,13.4537191390991,13.4543180465698,13.4549217224121,13.4555196762085,13.4561204910278,13.4567203521729,13.4573221206665,13.4579219818115,13.4585237503052,13.4591236114502,13.4597253799438,13.4603290557861,13.4609231948853,13.4615268707275,13.4621295928955,13.4627285003662,13.4633293151855,13.4639329910278,13.4645347595215,13.4651327133179,13.4657373428345,13.4663372039795,13.4669380187988,13.4675407409668,13.4681425094604,13.4687433242798,13.4693450927734,13.4699459075928,13.4705486297607,13.4711513519287,13.4717531204224,13.4723558425903,13.4729585647583,13.4735565185547,13.4741621017456,13.4747629165649,13.4753637313843,13.4759683609009,13.4765710830688,13.4771718978882,13.4777746200562,13.4783763885498,13.4789772033691,13.4795846939087,13.480185508728,13.480788230896,13.4813919067383,13.4819927215576,13.4825954437256,13.4831991195679,13.4838018417358,13.4844055175781,13.485011100769,13.4856128692627,13.4862117767334,13.4868192672729,13.4874210357666,13.4880247116089,13.4886283874512,13.4892320632935,13.4898347854614,13.490439414978,13.4910411834717,13.491644859314,13.4922504425049,13.4928541183472,13.4934577941895,13.4940643310547,13.494668006897,13.4952659606934,13.4958724975586,13.4964780807495,13.4970798492432,13.4976863861084,13.498291015625,13.4988946914673,13.4994974136353,13.5001029968262
11.3868703842163,11.3884687423706,11.3900671005249,11.3916664123535,11.3932657241821,11.3948659896851,11.396466255188,11.3980674743652,11.3996686935425,11.4012699127197,11.4028730392456,11.4044752120972,11.406078338623,11.4076824188232,11.4092864990234,11.4108905792236,11.4124956130981,11.414101600647,11.4157075881958,11.4173135757446,11.4189205169678,11.4205274581909,11.4221353530884,11.4237432479858,11.4253520965576,11.4269609451294,11.4285707473755,11.4301805496216,11.431791305542,11.4334020614624,11.4350128173828,11.4366254806519,11.4382371902466,11.4398498535156,11.441463470459,11.4430770874023,11.4446907043457,11.4463052749634,11.4479198455811,11.449535369873,11.4511518478394,11.4527683258057,11.454384803772,11.4560022354126,11.4576196670532,11.4592380523682,11.4608564376831,11.4624757766724,11.4640951156616,11.4657154083252,11.4673357009888,11.4689569473267,11.4705781936646,11.4721994400024,11.4738216400146,11.4754447937012,11.4770679473877,11.4786920547485,11.4803161621094,11.4819402694702,11.4835653305054,11.4851903915405,11.48681640625,11.4884433746338,11.4900703430176,11.4916973114014,11.4933252334595,11.4949531555176,11.49658203125,11.4982118606567,11.5003242492676,11.5092248916626,11.5181398391724,11.5270681381226,11.5360107421875,11.5449666976929,11.553936958313,11.5629205703735,11.5719184875488,11.5809307098389,11.5899562835693,11.5989971160889,11.6080513000488,11.6171197891235,11.6262016296387,11.6352987289429,11.6444101333618,11.6535348892212,11.6626749038696,11.6718282699585,11.6809968948364,11.6901798248291,11.6993770599365,11.7085886001587,11.7178144454956,11.7270555496216,11.7363109588623,11.7455806732178,11.7548656463623,11.7641649246216,11.7734794616699,11.7828073501587,11.7921514511108,11.8015098571777,11.8108835220337,11.8202714920044,11.8296747207642,11.8390922546387,11.8485260009766,11.8579740524292,11.864315032959,11.8697538375854,11.8751974105835,11.8806457519531,11.8860998153687,11.8915576934814,11.8970212936401,11.9024906158447,11.9079637527466,11.9134426116943,11.9189262390137,11.9244155883789,11.9299087524414,11.9354076385498,11.9409122467041,11.94642162323,11.9519357681274,11.9574546813965,11.9629793167114,11.9685087203979,11.9740428924561,11.9795827865601,11.9851274490356,11.9906778335571,11.9962329864502,12.0017929077148,12.0073585510254,12.0129289627075,12.0185041427612,12.0240850448608,12.0296716690063,12.0352630615234,12.0408592224121,12.0464611053467,12.0520677566528,12.0576801300049,12.0632972717285,12.068920135498,12.0745477676392,12.0801811218262,12.0858192443848,12.0914630889893,12.0971117019653,12.1027660369873,12.1084251403809,12.1940469741821,12.3107490539551,12.4297075271606,12.5509872436523,12.586802482605,12.6030683517456,12.6193761825562,12.6357259750366,12.652117729187,12.6685523986816,12.6850299835205,12.7015514373779,12.7181148529053,12.7347211837769,12.751371383667,12.7680654525757,12.7848033905029,12.8015842437744,12.8184099197388,12.835280418396,12.8521947860718,12.8691539764404,12.886157989502,12.9032068252563,12.9203004837036,12.9445276260376,12.9694986343384,12.9945650100708,13.0197296142578,13.0449914932251,13.070351600647,13.0958099365234,13.1195163726807,13.1404027938843,13.16135597229,13.1823759078979,13.2034635543823,13.2246189117432,13.2458410263062,13.2671318054199,13.2884922027588,13.3099203109741,13.3194808959961,13.3200664520264,13.3206548690796,13.3212442398071,13.3218326568604,13.3224220275879,13.3230104446411,13.3235960006714,13.3241882324219,13.3247776031494,13.3253698348999,13.3259553909302,13.3265466690063,13.3271322250366,13.3277244567871,13.3283100128174,13.3288984298706,13.3294906616211,13.3300790786743,13.3306674957275,13.331259727478,13.3318481445312,13.3324394226074,13.3330316543579,13.3336162567139,13.3342084884644,13.3347969055176,13.3353881835938,13.335976600647,13.3365678787231,13.3371562957764,13.3377447128296,13.3383359909058,13.3389282226562,13.3395156860352,13.3401041030884,13.3406972885132,13.3412866592407,13.3418769836426,13.3424701690674,13.3430595397949,13.3436479568481,13.3442392349243,13.3448305130005,13.3454179763794,13.3460111618042,13.3466024398804,13.3471937179565,13.3477830886841,13.3483724594116,13.3489637374878,13.3495559692383,13.3501472473145,13.3507385253906,13.3513307571411,13.3519229888916,13.3525094985962,13.3531036376953,13.3536949157715,13.3542852401733,13.3548793792725,13.3554706573486,13.3560590744019,13.3566522598267,13.3572444915771,13.3578367233276,13.3584289550781,13.3590183258057,13.3596134185791,13.3602046966553,13.3607950210571,13.3613891601562,13.3619794845581,13.36256980896,13.363166809082,13.3637571334839,13.3643493652344,13.3649415969849,13.3655319213867,13.3661241531372,13.3667192459106,13.3673114776611,13.3679046630859,13.3684997558594,13.3690891265869,13.3696804046631,13.3702754974365,13.370867729187,13.3714609146118,13.3720560073853,13.3726491928101,13.3732376098633,13.3738346099854,13.3744258880615,13.3750190734863,13.3756141662598,13.3762073516846,13.3768005371094,13.3773927688599,13.3779859542847,13.3785791397095,13.3791751861572,13.379768371582,13.3803615570068,13.3809576034546,13.3815488815308,13.3821420669556,13.382737159729,13.3833312988281,13.3839244842529,13.3845205307007,13.3851137161255,13.3857049942017,13.3863039016724,13.3868970870972,13.3874893188477,13.3880853652954,13.3886804580688,13.389274597168,13.3898687362671,13.3904628753662,13.391058921814,13.3916549682617,13.3922491073608,13.39284324646,13.3934412002563,13.3940315246582,13.394627571106,13.3952226638794,13.3958187103271,13.3964128494263,13.3970098495483,13.3976039886475,13.3981981277466,13.3987951278687,13.3993911743164,13.3999834060669,13.4005823135376,13.401177406311,13.4017715454102,13.4023704528809,13.4029626846313,13.4035577774048,13.4041566848755
11.3832874298096,11.3848848342896,11.3864822387695,11.3880805969238,11.3896789550781,11.3912782669067,11.3928775787354,11.3944778442383,11.3960781097412,11.3976783752441,11.3992795944214,11.4008817672729,11.4024839401245,11.4040861129761,11.405689239502,11.4072933197021,11.4088973999023,11.4105014801025,11.4121065139771,11.4137115478516,11.4153175354004,11.4169235229492,11.4185304641724,11.4201374053955,11.421745300293,11.4233531951904,11.4249620437622,11.426570892334,11.4281797409058,11.4297895431519,11.4314002990723,11.4330110549927,11.4346218109131,11.4362335205078,11.4378461837769,11.4394588470459,11.4410715103149,11.4426851272583,11.4442987442017,11.4459133148193,11.447527885437,11.449143409729,11.4507598876953,11.4523754119873,11.4539918899536,11.4556093215942,11.4572267532349,11.4588451385498,11.4604635238647,11.462082862854,11.4637022018433,11.4653215408325,11.4669418334961,11.468563079834,11.4701843261719,11.4718055725098,11.473427772522,11.4750509262085,11.476674079895,11.4782972335815,11.4799213409424,11.4815464019775,11.4831705093384,11.4847965240479,11.4864225387573,11.4880485534668,11.4896755218506,11.4913024902344,11.4929304122925,11.4945583343506,11.496187210083,11.4978160858154,11.4994459152222,11.5010757446289,11.5069513320923,11.5158624649048,11.524787902832,11.5337266921997,11.5426788330078,11.5516452789307,11.5606260299683,11.5696201324463,11.5786285400391,11.5876512527466,11.5966882705688,11.6057386398315,11.614803314209,11.6238822937012,11.6329755783081,11.6420831680298,11.6512041091919,11.6603403091431,11.669490814209,11.6786556243896,11.6878347396851,11.6970281600952,11.7062358856201,11.7154588699341,11.7246952056885,11.7339468002319,11.7432136535645,11.7524938583374,11.7617902755737,11.7711000442505,11.7804250717163,11.7897653579712,11.7991199493408,11.8084888458252,11.8178730010986,11.8272724151611,11.8366870880127,11.846116065979,11.8518133163452,11.8572406768799,11.8626728057861,11.868109703064,11.8735513687134,11.8789987564087,11.8844509124756,11.8899078369141,11.8953704833984,11.9008369445801,11.9063091278076,11.9117860794067,11.9172687530518,11.9227561950684,11.9282484054565,11.9337453842163,11.939248085022,11.9447555541992,11.9502687454224,11.9557857513428,11.9613084793091,11.9668369293213,11.9723701477051,11.9779081344604,11.9834508895874,11.9889993667603,11.994553565979,12.000111579895,12.0056753158569,12.0112447738647,12.0168190002441,12.0223979949951,12.027982711792,12.0335721969604,12.0391674041748,12.0447673797607,12.0503730773926,12.055983543396,12.061598777771,12.0672206878662,12.0728464126587,12.0784778594971,12.0841150283813,12.0897569656372,12.0954036712646,12.1010570526123,12.1510381698608,12.2669153213501,12.3850231170654,12.505428314209,12.5893239974976,12.6055965423584,12.6219100952148,12.6382675170898,12.6546659469604,12.6711072921753,12.6875915527344,12.7041187286377,12.7206888198853,12.7373027801514,12.7539596557617,12.7706604003906,12.7874040603638,12.8041925430298,12.8210258483887,12.8379020690918,12.8548240661621,12.871789932251,12.8888006210327,12.9108867645264,12.9357271194458,12.9606637954712,12.9856967926025,13.0108261108398,13.0360536575317,13.0613784790039,13.0824756622314,13.1032438278198,13.1240787506104,13.144980430603,13.1659479141235,13.1869821548462,13.2080841064453,13.2249126434326,13.2254905700684,13.2260713577271,13.2266530990601,13.2272338867188,13.2278118133545,13.2283926010132,13.2289772033691,13.2295541763306,13.2301359176636,13.2307167053223,13.231297492981,13.2318782806396,13.2324552536011,13.233039855957,13.2336206436157,13.2342014312744,13.2347822189331,13.2353630065918,13.2359437942505,13.2365274429321,13.2371082305908,13.2376890182495,13.2382688522339,13.2388534545898,13.2394332885742,13.2400140762329,13.2405948638916,13.2411785125732,13.2417583465576,13.2423391342163,13.2429227828979,13.2435035705566,13.2440872192383,13.2446670532227,13.2452478408813,13.2458305358887,13.2464113235474,13.246994972229,13.2475786209106,13.248158454895,13.2487449645996,13.249321937561,13.2499055862427,13.25048828125,13.2510690689087,13.251651763916,13.2522354125977,13.2528190612793,13.2533988952637,13.253981590271,13.2545652389526,13.25514793396,13.2557315826416,13.2563142776489,13.2568941116333,13.2574768066406,13.2580604553223,13.2586431503296,13.2592267990112,13.2598094940186,13.2603921890259,13.2609786987305,13.2615613937378,13.2621412277222,13.2627267837524,13.2633094787598,13.2638931274414,13.2644786834717,13.265061378479,13.2656440734863,13.2662267684937,13.266809463501,13.2673921585083,13.2679786682129,13.2685642242432,13.2691469192505,13.2697324752808,13.2703151702881,13.2708978652954,13.2714834213257,13.272068977356,13.2726516723633,13.2732372283936,13.2738199234009,13.2744016647339,13.2749910354614,13.2755737304688,13.2761554718018,13.2767448425293,13.2773303985596,13.2779121398926,13.2784948348999,13.2790803909302,13.2796649932861,13.2802505493164,13.2808361053467,13.281421661377,13.2820072174072,13.2825918197632,13.2831745147705,13.2837629318237,13.2843446731567,13.28493309021,13.2855186462402,13.2861032485962,13.2866888046265,13.2872743606567,13.2878589630127,13.288444519043,13.2890319824219,13.2896175384521,13.2902021408081,13.2907876968384,13.2913761138916,13.2919569015503,13.2925453186035,13.2931337356567,13.2937183380127,13.2943067550659,13.2948884963989,13.2954759597778,13.2960643768311,13.296648979187,13.2972373962402,13.2978248596191,13.2984094619751,13.2989940643311,13.2995824813843,13.3001670837402,13.3007545471191,13.301342010498,13.3019304275513,13.3025150299072,13.3031024932861,13.303689956665,13.304274559021,13.3048658370972,13.3054494857788,13.306037902832,13.3066282272339,13.3072128295898,13.3077974319458,13.3083877563477,13.3089752197266,13.3095626831055
11.3797063827515,11.3813028335571,11.3828992843628,11.3844966888428,11.3860940933228,11.3876924514771,11.3892908096313,11.39089012146,11.3924894332886,11.3940887451172,11.3956890106201,11.3972902297974,11.3988914489746,11.4004926681519,11.4020948410034,11.403697013855,11.4053001403809,11.4069042205811,11.4085073471069,11.4101123809814,11.4117164611816,11.4133224487305,11.414927482605,11.4165334701538,11.418140411377,11.4197473526001,11.4213552474976,11.422963142395,11.4245710372925,11.4261798858643,11.4277896881104,11.4293994903564,11.4310092926025,11.4326200485229,11.4342308044434,11.4358425140381,11.4374542236328,11.4390668869019,11.4406805038452,11.4422931671143,11.4439077377319,11.4455213546753,11.447135925293,11.448751449585,11.450366973877,11.4519834518433,11.4535999298096,11.4552173614502,11.4568347930908,11.4584522247314,11.4600706100464,11.4616899490356,11.4633092880249,11.4649286270142,11.4665489196777,11.4681692123413,11.4697904586792,11.4714126586914,11.4730348587036,11.4746570587158,11.4762802124023,11.4779033660889,11.4795274734497,11.4811515808105,11.4827766418457,11.4844017028809,11.4860277175903,11.4876537322998,11.4892807006836,11.4909076690674,11.4925346374512,11.4941635131836,11.4957914352417,11.4974203109741,11.4990501403809,11.5006799697876,11.5023107528687,11.5046796798706,11.5135869979858,11.5225086212158,11.5314435958862,11.5403928756714,11.549355506897,11.5583324432373,11.5673227310181,11.5763282775879,11.5853471755981,11.5943794250488,11.6034269332886,11.6124877929688,11.6215629577637,11.6306524276733,11.6397562026978,11.6488742828369,11.6580066680908,11.6671533584595,11.6763143539429,11.685489654541,11.6946802139282,11.7038841247559,11.7131032943726,11.7223358154297,11.7315845489502,11.7408466339111,11.7501239776611,11.7594156265259,11.7687225341797,11.7780437469482,11.7873792648315,11.7967300415039,11.8060960769653,11.8154764175415,11.8248720169067,11.833927154541,11.839337348938,11.8447532653809,11.8501739501953,11.8555994033813,11.8610305786133,11.8664655685425,11.8719062805176,11.8773517608643,11.8828029632568,11.8882579803467,11.8937187194824,11.8991842269897,11.904655456543,11.9101305007935,11.9156112670898,11.9210968017578,11.9265880584717,11.9320840835571,11.9375848770142,11.9430904388428,11.9486017227173,11.9541177749634,11.9596395492554,11.9651660919189,11.9706974029541,11.9762334823608,11.9817752838135,11.987322807312,11.9928741455078,11.9984312057495,12.0039939880371,12.0095615386963,12.0151338577271,12.0207118988037,12.026294708252,12.0318822860718,12.0374755859375,12.0430746078491,12.0486783981323,12.0542869567871,12.0599012374878,12.0655212402344,12.0711460113525,12.0767755508423,12.0824108123779,12.0880508422852,12.0936965942383,12.1083316802979,12.2233915328979,12.3406591415405,12.4601993560791,12.5820770263672,12.6081256866455,12.6244459152222,12.6408090591431,12.6572151184082,12.6736631393433,12.6901531219482,12.7066869735718,12.7232637405396,12.7398843765259,12.7565488815308,12.7732563018799,12.7900075912476,12.8068027496338,12.8236417770386,12.8405256271362,12.8574533462524,12.8774194717407,12.9021310806274,12.9269380569458,12.9518404006958,12.9768400192261,13.001935005188,13.0250568389893,13.0456428527832,13.066294670105,13.0870122909546,13.1077947616577,13.128643989563,13.1322498321533,13.1328258514404,13.1333923339844,13.1339654922485,13.1345386505127,13.1351118087769,13.1356811523438,13.136251449585,13.1368274688721,13.1374006271362,13.1379737854004,13.1385431289673,13.1391191482544,13.1396923065186,13.1402654647827,13.1408348083496,13.1414108276367,13.1419839859009,13.142560005188,13.1431293487549,13.1437015533447,13.1442747116089,13.144850730896,13.1454229354858,13.14599609375,13.1465682983398,13.1471405029297,13.1477165222168,13.1482858657837,13.1488618850708,13.1494340896606,13.1500101089478,13.1505794525146,13.1511583328247,13.1517305374146,13.1523065567017,13.1528749465942,13.1534509658813,13.1540231704712,13.154598236084,13.1551742553711,13.1557493209839,13.1563186645508,13.1568937301636,13.1574697494507,13.1580419540405,13.1586170196533,13.1591920852661,13.1597681045532,13.1603393554688,13.1609115600586,13.1614866256714,13.1620655059814,13.1626405715942,13.1632127761841,13.1637907028198,13.1643590927124,13.1649351119995,13.1655130386353,13.1660852432251,13.1666631698608,13.1672382354736,13.1678133010864,13.168384552002,13.168963432312,13.1695346832275,13.1701097488403,13.1706876754761,13.1712627410889,13.1718378067017,13.1724119186401,13.1729869842529,13.1735649108887,13.1741399765015,13.1747179031372,13.17529296875,13.1758708953857,13.1764450073242,13.1770162582397,13.1775941848755,13.1781692504883,13.178747177124,13.1793251037598,13.1799020767212,13.180477142334,13.1810512542725,13.1816253662109,13.1822032928467,13.1827812194824,13.1833591461182,13.1839332580566,13.1845111846924,13.1850852966309,13.1856622695923,13.186240196228,13.1868181228638,13.1873922348022,13.1879730224609,13.1885471343994,13.1891212463379,13.1896982192993,13.1902751922607,13.1908531188965,13.1914339065552,13.1920108795166,13.192587852478,13.1931619644165,13.1937389373779,13.1943168640137,13.1948938369751,13.1954736709595,13.1960515975952,13.1966285705566,13.1972017288208,13.1977825164795,13.1983594894409,13.1989393234253,13.1995162963867,13.2000932693481,13.2006740570068,13.201247215271,13.2018280029297,13.2024040222168,13.2029809951782,13.2035617828369,13.2041416168213,13.2047185897827,13.2052984237671,13.2058744430542,13.2064514160156,13.2070350646973,13.2076110839844,13.2081880569458,13.2087678909302,13.2093448638916,13.2099275588989,13.2105045318604,13.2110843658447,13.2116632461548,13.2122430801392,13.2128200531006,13.213399887085,13.213978767395,13.2145586013794,13.2151384353638,13.2157182693481,13.2162942886353
11.3761281967163,11.3777236938477,11.379319190979,11.3809156417847,11.3825120925903,11.3841094970703,11.3857069015503,11.3873043060303,11.3889026641846,11.3905019760132,11.3921012878418,11.3937005996704,11.3953008651733,11.3969011306763,11.3985023498535,11.4001045227051,11.4017057418823,11.4033088684082,11.4049110412598,11.4065141677856,11.4081182479858,11.409722328186,11.4113273620605,11.4129323959351,11.4145383834839,11.4161443710327,11.4177503585815,11.4193572998047,11.4209651947021,11.4225721359253,11.4241809844971,11.4257898330688,11.4273986816406,11.4290084838867,11.4306182861328,11.4322290420532,11.4338397979736,11.4354515075684,11.4370632171631,11.4386758804321,11.4402885437012,11.4419021606445,11.4435157775879,11.4451293945312,11.4467449188232,11.4483594894409,11.4499750137329,11.4515914916992,11.4532079696655,11.4548244476318,11.4564418792725,11.4580593109131,11.459677696228,11.4612970352173,11.4629163742065,11.4645357131958,11.4661560058594,11.4677762985229,11.4693975448608,11.4710187911987,11.4726409912109,11.4742631912231,11.4758863449097,11.4775094985962,11.479133605957,11.4807577133179,11.4823818206787,11.4840068817139,11.4856328964233,11.4872589111328,11.4888858795166,11.4905128479004,11.4921398162842,11.4937677383423,11.4953966140747,11.4970254898071,11.4986543655396,11.5002841949463,11.5019149780273,11.5035457611084,11.5051765441895,11.5113115310669,11.5202293395996,11.5291614532471,11.538106918335,11.5470666885376,11.5560398101807,11.5650272369385,11.5740280151367,11.5830430984497,11.5920724868774,11.6011161804199,11.6101732254028,11.6192455291748,11.6283311843872,11.6374311447144,11.6465454101562,11.6556749343872,11.6648178100586,11.6739749908447,11.6831464767456,11.6923322677612,11.7015333175659,11.7107486724854,11.7199783325195,11.7292222976685,11.7384805679321,11.7477540969849,11.7570419311523,11.7663450241089,11.7756624221802,11.7849950790405,11.7943420410156,11.8037042617798,11.8130807876587,11.8214893341064,11.8268880844116,11.8322925567627,11.8377017974854,11.8431158065796,11.8485355377197,11.8539600372314,11.8593883514404,11.8648223876953,11.8702621459961,11.8757057189941,11.8811550140381,11.8866090774536,11.8920679092407,11.8975324630737,11.903000831604,11.9084749221802,11.9139547348022,11.9194383621216,11.9249277114868,11.9304227828979,11.9359216690063,11.9414262771606,11.9469356536865,11.9524507522583,11.9579706192017,11.9634952545166,11.9690246582031,11.9745597839355,11.9801006317139,11.9856452941895,11.9911956787109,11.9967517852783,12.0023126602173,12.0078783035278,12.01344871521,12.0190258026123,12.0246067047119,12.0301933288574,12.0357847213745,12.0413818359375,12.0469846725464,12.0525913238525,12.0582046508789,12.0638217926025,12.0694456100464,12.0750732421875,12.0807075500488,12.0863456726074,12.0919904708862,12.1801767349243,12.296612739563,12.4152956008911,12.5362930297852,12.6106557846069,12.6269826889038,12.6433525085449,12.659764289856,12.6762189865112,12.6927165985107,12.7092571258545,12.7258405685425,12.742467880249,12.7591381072998,12.7758522033691,12.7926111221313,12.8094129562378,12.8262586593628,12.8441247940063,12.868709564209,12.8933877944946,12.9181613922119,12.9430303573608,12.9679946899414,12.98854637146,13.0090169906616,13.0295534133911,13.0403165817261,13.0408782958984,13.0414400100708,13.0420083999634,13.042573928833,13.0431356430054,13.0436973571777,13.0442657470703,13.0448274612427,13.0453929901123,13.0459575653076,13.0465221405029,13.0470876693726,13.0476522445679,13.0482177734375,13.0487823486328,13.0493469238281,13.0499153137207,13.0504732131958,13.0510416030884,13.0516061782837,13.052170753479,13.0527362823486,13.0533008575439,13.0538682937622,13.0544328689575,13.0549974441528,13.0555620193481,13.0561304092407,13.0566911697388,13.0572595596313,13.0578241348267,13.0583915710449,13.0589561462402,13.0595235824585,13.0600881576538,13.0606555938721,13.0612201690674,13.0617876052856,13.062349319458,13.0629167556763,13.0634841918945,13.0640487670898,13.0646162033081,13.0651798248291,13.0657472610474,13.0663146972656,13.0668821334839,13.0674467086792,13.0680141448975,13.0685777664185,13.0691452026367,13.069712638855,13.0702800750732,13.0708436965942,13.0714149475098,13.0719785690308,13.0725421905518,13.073112487793,13.0736770629883,13.0742435455322,13.0748138427734,13.0753812789917,13.07594871521,13.076512336731,13.0770826339722,13.0776462554932,13.0782165527344,13.0787830352783,13.0793504714966,13.0799207687378,13.0804834365845,13.0810508728027,13.0816211700439,13.0821876525879,13.0827541351318,13.083324432373,13.083890914917,13.0844573974609,13.0850248336792,13.0855941772461,13.08616065979,13.0867309570312,13.0872974395752,13.0878639221191,13.0884370803833,13.0890007019043,13.0895671844482,13.0901403427124,13.0907068252563,13.0912761688232,13.0918455123901,13.0924119949341,13.092978477478,13.0935478210449,13.0941181182861,13.094687461853,13.0952568054199,13.0958261489868,13.0963926315308,13.0969619750977,13.0975284576416,13.0980978012085,13.0986671447754,13.0992393493652,13.0998086929321,13.100378036499,13.100944519043,13.1015167236328,13.1020832061768,13.1026515960693,13.1032247543335,13.1037940979004,13.104362487793,13.1049318313599,13.1055011749268,13.1060705184937,13.1066427230835,13.1072082519531,13.107780456543,13.1083526611328,13.1089181900024,13.1094875335693,13.1100597381592,13.1106281280518,13.1112003326416,13.1117696762085,13.1123418807983,13.112907409668,13.1134824752808,13.1140518188477,13.1146202087402,13.1151924133301,13.1157636642456,13.1163330078125,13.1169013977051,13.1174736022949,13.1180448532104,13.1186170578003,13.1191854476929,13.1197576522827,13.1203289031982,13.1208972930908,13.1214694976807,13.1220407485962,13.122612953186,13.1231813430786,13.1237564086914,13.1243238449097
11.3725528717041,11.3741464614868,11.3757419586182,11.3773365020752,11.3789319992065,11.3805284500122,11.3821249008179,11.3837213516235,11.3853187561035,11.3869171142578,11.3885154724121,11.3901138305664,11.391713142395,11.3933124542236,11.3949127197266,11.3965129852295,11.3981142044067,11.399715423584,11.4013175964355,11.4029197692871,11.4045219421387,11.4061250686646,11.4077291488647,11.4093332290649,11.4109382629395,11.4125423431396,11.4141483306885,11.4157543182373,11.4173603057861,11.4189672470093,11.4205741882324,11.4221820831299,11.4237909317017,11.4253988265991,11.4270086288452,11.428617477417,11.4302272796631,11.4318380355835,11.4334487915039,11.4350605010986,11.4366722106934,11.4382848739624,11.4398975372314,11.4415102005005,11.4431238174438,11.4447383880615,11.4463529586792,11.4479675292969,11.4495830535889,11.4511985778809,11.4528150558472,11.4544324874878,11.4560489654541,11.457667350769,11.4592847824097,11.4609041213989,11.4625225067139,11.4641427993774,11.4657621383667,11.4673833847046,11.4690036773682,11.4706249237061,11.4722471237183,11.4738693237305,11.475492477417,11.4771156311035,11.47873878479,11.4803628921509,11.481987953186,11.4836130142212,11.4852380752563,11.4868640899658,11.4884910583496,11.4901180267334,11.4917449951172,11.4933729171753,11.4950008392334,11.4966297149658,11.4982595443726,11.499888420105,11.501519203186,11.5031490325928,11.5047807693481,11.5064125061035,11.5090379714966,11.517951965332,11.5268802642822,11.5358219146729,11.5447778701782,11.5537481307983,11.5627317428589,11.5717287063599,11.5807409286499,11.5897665023804,11.5988063812256,11.6078605651855,11.6169281005859,11.6260108947754,11.6351070404053,11.6442174911499,11.6533432006836,11.6624822616577,11.6716356277466,11.6808042526245,11.6899862289429,11.6991834640503,11.7083950042725,11.7176208496094,11.726861000061,11.7361164093018,11.7453861236572,11.7546701431274,11.7639694213867,11.7732830047607,11.7826108932495,11.7919549942017,11.8013124465942,11.8090772628784,11.8144655227661,11.8198585510254,11.8252563476562,11.8306589126587,11.836067199707,11.8414793014526,11.8468971252441,11.8523197174072,11.8577470779419,11.8631801605225,11.8686180114746,11.874059677124,11.8795080184937,11.8849601745605,11.8904180526733,11.8958806991577,11.9013481140137,11.9068202972412,11.9122982025146,11.9177808761597,11.9232683181763,11.9287614822388,11.9342594146729,11.9397621154785,11.9452705383301,11.9507837295532,11.9563016891479,11.9618244171143,11.9673528671265,11.9728870391846,11.9784250259399,11.9839687347412,11.9895181655884,11.9950723648071,12.0006313323975,12.0061950683594,12.0117645263672,12.0173397064209,12.0229196548462,12.0285043716431,12.0340948104858,12.0396900177002,12.0452909469604,12.0508966445923,12.0565071105957,12.0621242523193,12.0677452087402,12.073371887207,12.0790042877197,12.084641456604,12.1372652053833,12.2528781890869,12.3707151412964,12.4908409118652,12.6131868362427,12.6295204162598,12.6458969116211,12.6623153686523,12.6787767410278,12.6952810287476,12.7118282318115,12.7284183502197,12.7450523376465,12.7617292404175,12.778450012207,12.7952156066895,12.8120241165161,12.8354606628418,12.860011100769,12.8846559524536,12.9093961715698,12.9319467544556,12.9496555328369,12.9502124786377,12.9507694244385,12.9513235092163,12.9518804550171,12.9524374008179,12.952995300293,12.9535484313965,12.9541091918945,12.9546661376953,12.9552230834961,12.9557800292969,12.9563369750977,12.9568910598755,12.9574508666992,12.9580078125,12.9585647583008,12.9591217041016,12.9596757888794,12.9602355957031,12.9607887268066,12.9613494873047,12.9619054794312,12.9624662399292,12.9630193710327,12.9635791778564,12.9641361236572,12.964695930481,12.9652528762817,12.9658088684082,12.966365814209,12.9669256210327,12.9674854278564,12.9680414199829,12.9685983657837,12.9691543579102,12.9697179794312,12.9702711105347,12.9708309173584,12.9713869094849,12.9719495773315,12.9725027084351,12.9730625152588,12.9736223220825,12.9741811752319,12.9747409820557,12.9752969741821,12.9758529663086,12.9764127731323,12.9769725799561,12.9775314331055,12.9780874252319,12.9786472320557,12.9792032241821,12.9797658920288,12.9803247451782,12.9808807373047,12.9814405441284,12.9819993972778,12.9825582504272,12.983118057251,12.9836769104004,12.9842357635498,12.9847955703735,12.9853572845459,12.9859132766724,12.9864721298218,12.9870347976685,12.9875898361206,12.9881525039673,12.9887113571167,12.9892740249634,12.9898328781128,12.9903879165649,12.9909467697144,12.991512298584,12.9920711517334,12.9926300048828,12.9931917190552,12.9937477111816,12.994309425354,12.9948711395264,12.9954299926758,12.9959888458252,12.9965505599976,12.997109413147,12.9976673126221,12.9982290267944,12.9987916946411,12.9993495941162,12.9999151229858,13.0004730224609,13.0010347366333,13.0015964508057,13.0021514892578,13.0027132034302,13.0032749176025,13.0038366317749,13.00439453125,13.0049600601196,13.0055179595947,13.0060758590698,13.0066413879395,13.0072021484375,13.0077638626099,13.0083255767822,13.0088863372803,13.0094480514526,13.010009765625,13.0105676651001,13.0111284255981,13.0116930007935,13.0122547149658,13.0128154754639,13.0133800506592,13.0139379501343,13.0144987106323,13.0150604248047,13.015625,13.016185760498,13.0167503356934,13.0173110961914,13.0178689956665,13.0184326171875,13.0189971923828,13.0195550918579,13.0201225280762,13.0206832885742,13.0212440490723,13.0218048095703,13.0223693847656,13.0229301452637,13.0234975814819,13.02405834198,13.024619102478,13.025182723999,13.0257434844971,13.0263042449951,13.0268716812134,13.0274314880371,13.0279960632324,13.0285596847534,13.0291233062744,13.0296840667725,13.0302476882935,13.0308113098145,13.0313749313354,13.0319395065308,13.0325031280518,13.0330629348755,13.0336265563965
