11.1199903488159,11.1223630905151,11.124737739563,11.1271133422852,11.129490852356,11.1318683624268,11.1342468261719,11.1366262435913,11.1390075683594,11.1413888931274,11.1437711715698,11.1461553573608,11.1485404968262,11.1509256362915,11.1533126831055,11.1557006835938,11.1580896377563,11.1604795455933,11.1628704071045,11.16526222229,11.1676549911499,11.1700487136841,11.1724443435669,11.1748399734497,11.1772375106812,11.1796350479126,11.1820344924927,11.1844348907471,11.1898469924927,11.1961727142334,11.2025060653687,11.2088460922241,11.2151927947998,11.22154712677,11.2279081344604,11.2342777252197,11.2406530380249,11.2470369338989,11.2534265518188,11.2598247528076,11.2662296295166,11.2726421356201,11.2790613174438,11.2854881286621,11.2919225692749,11.2983646392822,11.3048133850098,11.3112697601318,11.3177328109741,11.3242044448853,11.3306827545166,11.3371686935425,11.3436622619629,11.3501625061035,11.3566703796387,11.3631868362427,11.3697099685669,11.3762407302856,11.3827781677246,11.3893241882324,11.3958778381348,11.4024381637573,11.4090061187744,11.4155826568604,11.4221658706665,11.4287567138672,11.4353551864624,11.4419622421265,11.4485759735107,11.4551973342896,11.4618263244629,11.4684638977051,11.4751081466675,11.4817609786987,11.4884204864502,11.4950885772705,11.5017642974854,11.5084476470947,11.5151386260986,11.5218372344971,11.52854347229,11.5352582931519,11.5419807434082,11.5487108230591,11.5554485321045,11.5621948242188,11.5689477920532,11.5757093429565,11.5824794769287,11.5892562866211,11.5960416793823,11.6028356552124,11.6096363067627,11.6164455413818,11.6232633590698,11.6300888061523,11.6369218826294,11.6437635421753,11.6506128311157,11.6574697494507,11.6663103103638,11.6754283905029,11.6845607757568,11.6937065124512,11.7028675079346,11.7120428085327,11.7212324142456,11.7304363250732,11.7396545410156,11.7488870620728,11.7581348419189,11.7673969268799,12.1874837875366,12.1949949264526,12.2025146484375,12.2100448608398,12.217583656311,12.2251310348511,12.2326889038086,12.240255355835,12.2478322982788,12.2554178237915,12.263011932373,12.2706165313721,12.2782306671143,12.2858543395996,12.2934865951538,12.3011293411255,12.308780670166,12.3164415359497,12.3241128921509,12.3317928314209,12.3394832611084,12.3471822738647,12.3548917770386,12.3626108169556,12.3703393936157,12.378077507019,12.3858251571655,12.3935823440552,12.4013500213623,12.4091272354126,12.4169139862061,12.4247102737427,12.4325160980225,12.4403324127197,12.4481582641602,12.4559946060181,12.4638404846191,12.4741182327271,12.5019226074219,12.5298519134521,12.5579051971436,12.586085319519,12.6143913269043,12.6428251266479,12.6713876724243,12.7000799179077,12.7289018630981,12.7578554153442,12.786940574646,12.8161582946777,12.8455104827881,12.8749971389771,12.9046201705933,12.9343786239624,12.9642753601074,12.9943103790283,13.0244855880737,13.0548000335693,13.0852565765381,13.1158561706543,13.1465978622437,13.1774854660034,13.208517074585,13.2396965026855,13.2710227966309,13.3024978637695,13.3341226577759,13.3658981323242,13.3978252410889,13.4299049377441,13.4621391296387,13.4866256713867,13.5054311752319,13.5242891311646,13.5431995391846,13.5621633529663,13.5811805725098,13.6002502441406,13.6193742752075,13.6385526657104,13.6577835083008,13.6770706176758,13.6964111328125,13.7158060073853,13.7352571487427,13.7547626495361,13.7743234634399,13.7939405441284,13.8136129379272,13.8333425521851,13.8531274795532,13.8729696273804,13.8928689956665,13.9128255844116,13.9328393936157,13.9529104232788,13.9730396270752,13.9932270050049,14.0134725570679,14.0337772369385,14.0541410446167,14.0745630264282,14.0950450897217,14.1155872344971,14.1361885070801,14.1568508148193,14.1775732040405,14.1983556747437,14.2192001342773,14.2401056289673,14.2610731124878,14.2821016311646,14.3049736022949,14.3356676101685,14.3664932250977,14.3974514007568,14.4285440444946,14.4597702026367,14.4911327362061,14.5226316452026,14.5542669296265,14.5860414505005,14.6179542541504,14.6500072479248,14.682201385498,14.7145366668701,14.7470149993896,14.779637336731,14.8965673446655,15.7483425140381,16.6895427703857,17.4589786529541,17.5227699279785,17.5870304107666,17.6517639160156,17.7169742584229,17.7826690673828,17.8488521575928,17.9155311584473,17.9827098846436,18.0503940582275,18.1185894012451,18.1873016357422,18.2565383911133,18.326301574707,18.3966026306152,18.4674453735352,18.5388336181641,18.6107769012451,18.6832809448242,18.7563514709473,18.8299980163574,18.9042224884033,18.9790363311768,19.054443359375,19.1304531097412,19.2070713043213,19.8520164489746,19.8901882171631,19.8914031982422,19.8926181793213,19.8938312530518,19.8950462341309,19.89626121521,19.8974742889404,19.8986911773682,19.8999042510986,19.901123046875,19.9023342132568,19.9035530090332,19.9047660827637,19.9059810638428,19.9071960449219,19.9084129333496,19.9096279144287,19.9108448028564,19.9120616912842,19.9132785797119,19.9144954681396,19.9157104492188
11.1308507919312,11.133228302002,11.1356077194214,11.1379880905151,11.1403694152832,11.1427516937256,11.1451349258423,11.1475191116333,11.1499042510986,11.1522912979126,11.1546783447266,11.1570672988892,11.1594562530518,11.161847114563,11.1642379760742,11.1666307449341,11.1690244674683,11.1714191436768,11.1738147735596,11.1762113571167,11.1786088943481,11.1810073852539,11.183406829834,11.1858081817627,11.1882095336914,11.1906127929688,11.1930160522461,11.1954212188721,11.2003707885742,11.2067079544067,11.2130527496338,11.2194042205811,11.2257633209229,11.2321300506592,11.2385034561157,11.2448844909668,11.2512722015381,11.2576675415039,11.2640695571899,11.2704801559448,11.2768974304199,11.2833213806152,11.2897529602051,11.2961921691895,11.3026390075684,11.3090925216675,11.3155536651611,11.3220224380493,11.3284978866577,11.334981918335,11.3414726257324,11.3479709625244,11.3544759750366,11.3609895706177,11.3675098419189,11.3740386962891,11.3805742263794,11.3871173858643,11.3936681747437,11.4002256393433,11.4067916870117,11.4133653640747,11.4199457168579,11.42653465271,11.4331302642822,11.4397344589233,11.4463453292847,11.4529647827148,11.4595918655396,11.4662256240845,11.4728679656982,11.4795179367065,11.4861745834351,11.4928398132324,11.4995126724243,11.5061941146851,11.512882232666,11.5195779800415,11.5262823104858,11.5329942703247,11.5397138595581,11.546441078186,11.5531768798828,11.5599193572998,11.56667137146,11.5734300613403,11.5801963806152,11.586971282959,11.5937538146973,11.6005449295044,11.6073436737061,11.6141500473022,11.6209650039673,11.6277875900269,11.634617805481,11.6414566040039,11.6483030319214,11.6551580429077,11.6620206832886,11.668890953064,11.6757707595825,11.6826572418213,11.6895523071289,11.6964559555054,11.7033672332764,11.7102870941162,11.7172155380249,11.7241516113281,11.7310953140259,11.7380485534668,11.7450084686279,11.7519779205322,11.7589550018311,12.1778860092163,12.1853857040405,12.1928939819336,12.2004108428955,12.2079381942749,12.2154741287231,12.2230195999146,12.2305746078491,12.2381391525269,12.2457122802734,12.2532949447632,12.2608880996704,12.2684898376465,12.2761011123657,12.2837209701538,12.2913513183594,12.2989912033081,12.306640625,12.3142986297607,12.321967124939,12.329644203186,12.3373317718506,12.3450288772583,12.3527355194092,12.3604516983032,12.3681774139404,12.3759126663208,12.3836574554443,12.3914127349854,12.3991775512695,12.4069509506226,12.4147348403931,12.4225292205811,12.4303321838379,12.4381456375122,12.445969581604,12.4538021087646,12.4739713668823,12.5017757415771,12.5297031402588,12.5577564239502,12.5859355926514,12.6142416000366,12.642674446106,12.6712369918823,12.6999273300171,12.7287492752075,12.7577018737793,12.7867860794067,12.8160037994385,12.8453550338745,12.8748407363892,12.9044628143311,12.9342212677002,12.9641170501709,12.9941511154175,13.0243253707886,13.0546398162842,13.0850954055786,13.1156940460205,13.1464357376099,13.177321434021,13.2083530426025,13.2395315170288,13.2708568572998,13.3023309707642,13.3339548110962,13.3657293319702,13.3969135284424,13.415470123291,13.4340772628784,13.4527359008789,13.4714469909668,13.4902105331421,13.5090255737305,13.5278940200806,13.5468139648438,13.565788269043,13.5848150253296,13.6038961410522,13.6230297088623,13.6422176361084,13.6614599227905,13.6807565689087,13.7001075744629,13.7195138931274,13.738974571228,13.758490562439,13.7780628204346,13.7976903915405,13.8173732757568,13.8371133804321,13.8569097518921,13.8767623901367,13.8966722488403,13.9166402816772,13.9366645812988,13.9567470550537,13.9768867492676,13.9970855712891,14.0173425674438,14.0376586914062,14.058032989502,14.0784673690796,14.0989599227905,14.1195135116577,14.1401262283325,14.1607999801636,14.1815338134766,14.2023286819458,14.2231845855713,14.244101524353,14.2650804519653,14.2948608398438,14.3255109786987,14.3562927246094,14.38720703125,14.4182548522949,14.4494371414185,14.4807548522949,14.5122079849243,14.5437984466553,14.5755271911621,14.6073942184448,14.6394004821777,14.6715478897095,14.70383644104,14.7362670898438,14.7688417434692,14.8015604019165,15.4558477401733,16.374755859375,17.3166427612305,17.3793964385986,17.4426078796387,17.5062789916992,17.5704193115234,17.6350288391113,17.7001152038574,17.7656860351562,17.8317432403564,17.8982925415039,17.9653415679932,18.0328960418701,18.1009578704834,18.1695365905762,18.2386379241943,18.3082656860352,18.3784275054932,18.4491291046143,18.5203762054443,18.5921764373779,18.6645355224609,18.7374591827393,18.8109550476074,18.88503074646,18.9596920013428,19.0349445343018,19.1107978820801,19.1872596740723,19.6862640380859,19.6874542236328,19.6886444091797,19.6898326873779,19.6910228729248,19.692211151123,19.6934013366699,19.6945915222168,19.695779800415,19.6969718933105,19.6981639862061,19.6993541717529,19.7005443572998,19.701732635498,19.7029247283936,19.7041149139404,19.7053070068359,19.7064971923828,19.7076892852783
11.1417322158813,11.1441144943237,11.1464986801147,11.1488838195801,11.1512699127197,11.1536569595337,11.156044960022,11.1584339141846,11.1608238220215,11.1632146835327,11.1656064987183,11.1680002212524,11.1703939437866,11.1727895736694,11.1751852035522,11.1775827407837,11.1799812316895,11.1823797225952,11.1847801208496,11.1871814727783,11.1895837783813,11.1919870376587,11.1943922042847,11.1967973709106,11.1992034912109,11.2016115188599,11.2040195465088,11.2064294815063,11.2109136581421,11.2172632217407,11.2236194610596,11.2299833297729,11.2363548278809,11.242733001709,11.2491188049316,11.2555112838745,11.2619113922119,11.2683181762695,11.274733543396,11.2811555862427,11.2875843048096,11.2940216064453,11.3004655838013,11.3069162368774,11.3133754730225,11.3198413848877,11.3263149261475,11.3327960968018,11.3392839431763,11.3457794189453,11.3522825241089,11.358793258667,11.3653116226196,11.3718376159668,11.3783702850342,11.3849105834961,11.3914594650269,11.3980150222778,11.4045782089233,11.4111490249634,11.4177274703979,11.4243125915527,11.4309062957764,11.4375076293945,11.4441165924072,11.4507331848145,11.4573574066162,11.4639892578125,11.4706287384033,11.4772758483887,11.4839305877686,11.490592956543,11.4972629547119,11.5039415359497,11.5106267929077,11.5173206329346,11.524022102356,11.5307312011719,11.5374479293823,11.5441732406616,11.5509052276611,11.5576457977295,11.5643949508667,11.5711507797241,11.5779151916504,11.5846872329712,11.5914669036865,11.5982551574707,11.6050510406494,11.6118545532227,11.6186666488647,11.6254863739014,11.6323146820068,11.6391506195068,11.6459941864014,11.6528463363647,11.6597061157227,11.6665744781494,11.6734504699707,11.6803350448608,11.6872282028198,11.694128036499,11.7010374069214,11.7079544067383,11.7148790359497,11.72181224823,11.7287540435791,11.7357034683228,11.7426624298096,11.7496280670166,11.7566032409668,11.7635860443115,11.7705774307251,11.7775764465332,12.1683034896851,12.1757907867432,12.1832876205444,12.1907930374146,12.1983079910278,12.2058324813843,12.2133665084839,12.2209091186523,12.228461265564,12.2360229492188,12.2435941696167,12.2511739730835,12.2587642669678,12.2663631439209,12.2739715576172,12.2815895080566,12.2892169952393,12.296854019165,12.304500579834,12.3121566772461,12.3198223114014,12.3274965286255,12.3351812362671,12.3428754806519,12.3505792617798,12.3582925796509,12.3660163879395,12.3737487792969,12.3814907073975,12.3892431259155,12.3970050811768,12.4047765731812,12.4125576019287,12.4203491210938,12.4281492233276,12.4359607696533,12.4461450576782,12.4738254547119,12.5016279220581,12.5295553207397,12.5576076507568,12.585786819458,12.6140918731689,12.642523765564,12.671085357666,12.6997756958008,12.7285966873169,12.7575483322144,12.7866325378418,12.8158493041992,12.8451995849609,12.8746843338013,12.9043054580688,12.9340629577637,12.9639587402344,12.9939918518066,13.0241651535034,13.0544786453247,13.0849342346191,13.1155319213867,13.1462726593018,13.1771574020386,13.2081890106201,13.2393655776978,13.2706909179688,13.3021640777588,13.326699256897,13.3450603485107,13.3634729385376,13.3819360733032,13.4004507064819,13.4190158843994,13.4376335144043,13.4563026428223,13.4750232696533,13.4937963485718,13.5126218795776,13.5314998626709,13.5504312515259,13.5694150924683,13.5884523391724,13.6075429916382,13.6266870498657,13.6458854675293,13.6651382446289,13.6844444274902,13.7038059234619,13.7232227325439,13.742693901062,13.7622213363647,13.7818031311035,13.8014421463013,13.8211364746094,13.8408861160278,13.8606939315796,13.880558013916,13.9004783630371,13.9204568862915,13.9404916763306,13.9605855941772,13.9807367324829,14.0009469985962,14.0212144851685,14.0415420532227,14.0619277954102,14.0823726654053,14.1028776168823,14.1234426498413,14.1440668106079,14.1647520065308,14.1854972839355,14.2063035964966,14.2271709442139,14.2542848587036,14.284761428833,14.3153686523438,14.3461065292358,14.3769769668579,14.4079809188843,14.4391183853149,14.4703912734985,14.5017995834351,14.5333452224731,14.5650272369385,14.596848487854,14.6288089752197,14.66090965271,14.693151473999,14.7255353927612,14.7580623626709,14.7907333374023,15.1740198135376,16.0587615966797,17.0251922607422,17.2383499145508,17.300537109375,17.3631744384766,17.4262676239014,17.489818572998,17.5538368225098,17.6183261871338,17.6832904815674,17.7487354278564,17.8146648406982,17.8810882568359,17.9480075836182,18.0154304504395,18.0833606719971,18.1518058776855,18.2207717895508,18.2902641296387,18.3602867126465,18.4308490753174,18.5019550323486,18.5736122131348,18.6458263397217,18.7186031341553,18.7919521331787,18.8658771514893,18.9403858184814,19.0154876708984,19.0911846160889,19.1674880981445,19.4876441955566,19.4888076782227,19.4899730682373,19.4911403656006,19.4923038482666,19.4934711456299,19.4946365356445,19.4958019256592,19.4969692230225,19.4981346130371,19.499303817749,19.5004692077637,19.501636505127,19.5028018951416,19.5039691925049
11.1526346206665,11.1550226211548,11.1574106216431,11.15980052948,11.1621913909912,11.1645832061768,11.1669759750366,11.1693687438965,11.1717643737793,11.1741600036621,11.1765565872192,11.1789541244507,11.1813526153564,11.1837530136108,11.1861534118652,11.1885557174683,11.1909589767456,11.1933622360229,11.1957674026489,11.1981735229492,11.2005805969238,11.2029886245728,11.2053985595703,11.2078084945679,11.2102193832397,11.2126321792603,11.2150449752808,11.2174596786499,11.2214765548706,11.227837562561,11.234206199646,11.2405824661255,11.2469654083252,11.2533559799194,11.2597532272339,11.2661581039429,11.2725706100464,11.2789897918701,11.2854166030884,11.2918510437012,11.2982921600342,11.3047409057617,11.3111972808838,11.3176612854004,11.3241319656372,11.3306102752686,11.3370962142944,11.3435897827148,11.3500900268555,11.3565979003906,11.3631143569946,11.3696365356445,11.3761672973633,11.3827056884766,11.3892507553101,11.3958044052124,11.402364730835,11.4089336395264,11.415509223938,11.4220924377441,11.4286832809448,11.43528175354,11.4418878555298,11.4485025405884,11.4551239013672,11.4617528915405,11.4683895111084,11.4750337600708,11.4816865921021,11.4883460998535,11.4950141906738,11.5016899108887,11.5083723068237,11.5150632858276,11.5217628479004,11.5284690856934,11.5351829528809,11.5419054031372,11.5486354827881,11.5553731918335,11.5621194839478,11.5688724517822,11.5756340026855,11.5824041366577,11.5891809463501,11.5959663391113,11.6027593612671,11.6095609664917,11.6163702011108,11.6231870651245,11.630012512207,11.6368455886841,11.64368724823,11.6505365371704,11.6573934555054,11.6642589569092,11.6711320877075,11.6780138015747,11.6849040985107,11.6918020248413,11.6987075805664,11.7056217193604,11.7125444412231,11.7194747924805,11.7264137268066,11.7333612442017,11.7403163909912,11.7472801208496,11.7542514801025,11.7612323760986,11.7682199478149,11.7752170562744,11.7822217941284,11.7892360687256,12.1512699127197,12.1587362289429,12.1662111282349,12.1736965179443,12.1811904907227,12.1886930465698,12.1962060928345,12.203727722168,12.2112588882446,12.2187995910645,12.2263488769531,12.233907699585,12.24147605896,12.2490539550781,12.2566404342651,12.2642374038696,12.271842956543,12.2794580459595,12.2870836257935,12.2947177886963,12.3023614883423,12.3100147247314,12.3176774978638,12.3253498077393,12.3330316543579,12.3407230377197,12.3484239578247,12.3561353683472,12.3638553619385,12.3715858459473,12.3793249130249,12.38707447052,12.3948335647583,12.4026021957397,12.4103813171387,12.4181690216064,12.4259672164917,12.4459991455078,12.4736785888672,12.5014810562134,12.5294075012207,12.5574598312378,12.5856370925903,12.613941192627,12.642373085022,12.6709337234497,12.6996240615845,12.7284440994263,12.7573947906494,12.7864780426025,12.8156938552856,12.8450441360474,12.8745288848877,12.904149055481,12.9339056015015,12.9638004302979,12.9938325881958,13.0240058898926,13.0543184280396,13.0847730636597,13.1153697967529,13.1461095809937,13.1769943237305,13.2080240249634,13.2390947341919,13.2572154998779,13.2753868103027,13.2936067581177,13.3118772506714,13.3301982879639,13.3485698699951,13.3669919967651,13.3854656219482,13.4039897918701,13.4225654602051,13.4411916732788,13.4598712921143,13.4786014556885,13.4973850250244,13.5162200927734,13.5351085662842,13.5540494918823,13.5730438232422,13.5920906066895,13.6111917495728,13.6303462982178,13.6495552062988,13.6688175201416,13.6881351470947,13.7075071334839,13.7269344329834,13.7464160919189,13.7659540176392,13.7855463027954,13.8051958084106,13.8249006271362,13.8446617126465,13.8644800186157,13.8843545913696,13.9042863845825,13.9242753982544,13.9443216323853,13.9644260406494,13.9845886230469,14.0048093795776,14.025089263916,14.0454273223877,14.065824508667,14.0862808227539,14.1067972183228,14.1273727416992,14.1480093002319,14.1687059402466,14.1894626617432,14.213939666748,14.2442436218262,14.274676322937,14.3052406311035,14.3359355926514,14.3667621612549,14.3977212905884,14.4288148880005,14.4600429534912,14.4914064407349,14.5229063034058,14.5545434951782,14.5863189697266,14.6182327270508,14.6502866744995,14.6824817657471,14.7148189544678,14.7472982406616,14.7799215316772,14.902286529541,15.7547340393066,16.7106246948242,17.0995750427246,17.1607627868652,17.2223892211914,17.2844619750977,17.3469829559326,17.4099578857422,17.4733905792236,17.5372886657715,17.6016540527344,17.6664943695068,17.7318153381348,17.7976207733154,17.8639163970947,17.9307079315186,17.9979991912842,18.0657997131348,18.1341114044189,18.2029418945312,18.2722969055176,18.3421821594238,18.4126052856445,18.483570098877,18.5550842285156,18.6271553039551,18.6997871398926,18.7729873657227,18.8467636108398,18.92112159729,18.9960689544678,19.0716114044189,19.1477584838867,19.2245140075684,19.294132232666,19.2952747344971,19.2964172363281,19.2975578308105,19.2987003326416,19.2998428344727,19.3009872436523,19.302131652832,19.3032722473145,19.3044166564941
11.1635589599609,11.1659517288208,11.1683444976807,11.1707391738892,11.1731338500977,11.1755304336548,11.1779279708862,11.180326461792,11.1827259063721,11.1851263046265,11.1875276565552,11.1899299621582,11.1923341751099,11.1947383880615,11.1971435546875,11.1995506286621,11.201958656311,11.20436668396,11.2067766189575,11.2091875076294,11.2115993499756,11.2140121459961,11.2164258956909,11.2188405990601,11.2212572097778,11.2236738204956,11.226092338562,11.2285108566284,11.2320585250854,11.238431930542,11.2448129653931,11.2512006759644,11.2575960159302,11.2639989852905,11.2704086303711,11.2768259048462,11.2832498550415,11.2896814346313,11.2961206436157,11.3025665283203,11.3090209960938,11.3154821395874,11.3219499588013,11.328426361084,11.3349094390869,11.3414001464844,11.3478984832764,11.3544034957886,11.3609170913696,11.3674373626709,11.3739652633667,11.380500793457,11.3870439529419,11.3935947418213,11.4001531600952,11.4067182540894,11.4132919311523,11.4198722839355,11.4264612197876,11.4330568313599,11.439661026001,11.4462718963623,11.4528913497925,11.4595174789429,11.4661521911621,11.4727935791016,11.4794435501099,11.4861011505127,11.4927654266357,11.4994382858276,11.5061197280884,11.5128078460693,11.5195035934448,11.5262079238892,11.5329189300537,11.5396385192871,11.5463666915894,11.5531015396118,11.5598449707031,11.566596031189,11.5733547210693,11.5801210403442,11.586895942688,11.5936784744263,11.6004686355591,11.6072673797607,11.6140737533569,11.620888710022,11.6277112960815,11.6345415115356,11.6413803100586,11.6482267379761,11.6550817489624,11.6619443893433,11.6688146591187,11.6756935119629,11.682580947876,11.6894760131836,11.6963796615601,11.7032909393311,11.7102108001709,11.7171382904053,11.7240743637085,11.7310190200806,11.7379713058472,11.7449321746826,11.7519016265869,11.7588787078857,11.7658643722534,11.7728586196899,11.779860496521,11.7868709564209,11.7938899993896,11.8009176254272,12.1342830657959,12.1417284011841,12.1491832733154,12.1566467285156,12.1641206741333,12.1716022491455,12.1790943145752,12.1865949630737,12.1941041946411,12.201623916626,12.2091522216797,12.2166900634766,12.2242364883423,12.2317934036255,12.2393589019775,12.2469339370728,12.2545185089111,12.2621126174927,12.2697153091431,12.2773284912109,12.2849502563477,12.2925815582275,12.3002233505249,12.3078737258911,12.3155336380005,12.3232040405273,12.330883026123,12.3385715484619,12.3462705612183,12.3539781570435,12.3616962432861,12.3694229125977,12.3771600723267,12.3849067687988,12.3926630020142,12.4004287719727,12.4082050323486,12.4182968139648,12.4458532333374,12.4735317230225,12.5013332366943,12.5292596817017,12.5573110580444,12.5854873657227,12.6137914657593,12.64222240448,12.6707830429077,12.6994714736938,12.7282915115356,12.7572412490845,12.7863235473633,12.8155393600464,12.8448886871338,12.8743724822998,12.9039916992188,12.9337482452393,12.9636421203613,12.9936742782593,13.0238456726074,13.0541572570801,13.0846109390259,13.1152076721191,13.1459465026855,13.1705198287964,13.1884536743164,13.2064361572266,13.2244682312012,13.2425489425659,13.2606792449951,13.2788591384888,13.2970895767212,13.3153696060181,13.3337001800537,13.3520812988281,13.3705129623413,13.3889961242676,13.4075298309326,13.4261150360107,13.4447526931763,13.4634408950806,13.4821815490723,13.5009746551514,13.5198202133179,13.5387182235718,13.5576696395874,13.5766735076904,13.5957317352295,13.614842414856,13.6340074539185,13.653226852417,13.6724996566772,13.6918277740479,13.7112102508545,13.7306470870972,13.7501401901245,13.7696876525879,13.7892913818359,13.8089513778687,13.8286666870117,13.8484392166138,13.8682680130005,13.8881530761719,13.9080963134766,13.9280958175659,13.9481534957886,13.9682693481445,13.9884424209595,14.008674621582,14.0289649963379,14.0493144989014,14.0697231292725,14.0901908874512,14.1107187271118,14.1313066482544,14.1519536972046,14.1738214492798,14.2039546966553,14.2342157363892,14.2646064758301,14.295126914978,14.3257780075073,14.3565616607666,14.3874769210815,14.4185256958008,14.4497098922729,14.4810276031494,14.5124826431274,14.5440740585327,14.5758037567139,14.6076717376709,14.6396799087524,14.6718282699585,14.7041177749634,14.7365503311157,14.7691259384155,14.8018465042114,15.4620046615601,16.3816661834717,16.8959465026855,16.968822479248,17.112813949585,17.1723804473877,17.2323627471924,17.2927646636963,17.3535919189453,17.4148502349854,17.4765396118164,17.5386695861816,17.6012439727783,17.6642646789551,17.7277374267578,17.7916698455811,17.8560638427734,17.9209270477295,17.9862632751465,18.0520763397217,18.118371963501,18.1851577758789,18.2543659210205,18.3241138458252,18.3943977355957,18.4652233123779,18.5365943908691,18.6085205078125,18.6810073852539,18.7540607452393,18.8276863098145,18.9018936157227,18.9766883850098,19.0520782470703,19.1010704040527,19.1021862030029,19.103307723999,19.1044254302979,19.1055450439453,19.1066665649414,19.1077861785889,19.108907699585
11.1745052337646,11.1769018173218,11.1792993545532,11.1816987991333,11.1840982437134,11.1864995956421,11.1889019012451,11.1913051605225,11.1937093734741,11.1961145401001,11.1985206604004,11.200927734375,11.2033357620239,11.2057456970215,11.208155632019,11.2105665206909,11.2129793167114,11.2153930664062,11.2178077697754,11.2202224731445,11.2226390838623,11.2250566482544,11.2274761199951,11.2298955917358,11.2323160171509,11.2347383499146,11.2371606826782,11.2395849227905,11.2426614761353,11.2490472793579,11.2554397583008,11.2618398666382,11.2682476043701,11.2746620178223,11.2810840606689,11.2875127792358,11.2939491271973,11.3003931045532,11.3068447113037,11.3133029937744,11.3197689056396,11.3262424468994,11.3327236175537,11.3392114639282,11.3457069396973,11.3522100448608,11.3587207794189,11.3652391433716,11.3717641830444,11.3782978057861,11.384838104248,11.3913860321045,11.3979415893555,11.404504776001,11.411075592041,11.4176540374756,11.4242391586304,11.430832862854,11.4374341964722,11.4440431594849,11.4506587982178,11.4572830200195,11.4639148712158,11.4705543518066,11.477201461792,11.4838562011719,11.4905185699463,11.4971885681152,11.503867149353,11.510552406311,11.5172462463379,11.5239477157593,11.5306568145752,11.5373735427856,11.5440979003906,11.5508308410645,11.5575714111328,11.5643196105957,11.5710754394531,11.5778398513794,11.5846118927002,11.5913915634155,11.5981798171997,11.6049757003784,11.6117792129517,11.6185913085938,11.6254110336304,11.6322383880615,11.6390743255615,11.6459178924561,11.6527700424194,11.6596298217773,11.6664981842041,11.6733741760254,11.6802587509155,11.6871509552002,11.6940517425537,11.7009611129761,11.707878112793,11.7148027420044,11.7217359542847,11.7286777496338,11.7356281280518,11.7425861358643,11.7495517730713,11.7565269470215,11.7635097503662,11.7705001831055,11.7775001525879,11.7845077514648,11.7915239334106,11.7985486984253,11.8055810928345,11.8126230239868,11.8196725845337,12.1247692108154,12.1322031021118,12.1396455764771,12.1470985412598,12.154559135437,12.1620302200317,12.1695098876953,12.1769981384277,12.1844959259033,12.1920032501221,12.199520111084,12.2070455551147,12.214581489563,12.2221250534058,12.229679107666,12.2372426986694,12.2448148727417,12.2523965835571,12.2599878311157,12.2675886154175,12.2751989364624,12.2828178405762,12.2904472351074,12.2980852127075,12.3057336807251,12.3133907318115,12.3210582733154,12.3287343978882,12.3364210128784,12.3441162109375,12.3518218994141,12.3595371246338,12.3672618865967,12.3749961853027,12.382740020752,12.3904933929443,12.3982563018799,12.4181518554688,12.445707321167,12.4733848571777,12.5011863708496,12.5291118621826,12.5571622848511,12.5853385925293,12.6136417388916,12.6420726776123,12.6706314086914,12.6993198394775,12.7281379699707,12.7570877075195,12.7861700057983,12.8153848648071,12.8447332382202,12.8742160797119,12.9038352966309,12.9335899353027,12.9634828567505,12.9935150146484,13.0236854553223,13.0539970397949,13.0844497680664,13.1026525497437,13.1204013824463,13.1381988525391,13.1560440063477,13.1739387512207,13.1918811798096,13.2098731994629,13.2279138565063,13.2460050582886,13.2641448974609,13.2823343276978,13.3005743026733,13.3188638687134,13.3372039794922,13.3555946350098,13.3740358352661,13.3925285339355,13.4110727310181,13.4296674728394,13.448314666748,13.4670133590698,13.4857635498047,13.5045671463013,13.5234222412109,13.5423307418823,13.5612916946411,13.5803060531616,13.5993738174438,13.6184949874878,13.6376705169678,13.6569004058838,13.6761837005615,13.6955223083496,13.7149143218994,13.7343626022339,13.7538661956787,13.7734241485596,13.7930383682251,13.8127088546753,13.8324356079102,13.8522186279297,13.8720579147339,13.8919544219971,13.9119081497192,13.9319190979004,13.9519882202148,13.9721145629883,13.992299079895,14.0125417709351,14.0328435897827,14.053204536438,14.0736246109009,14.0941038131714,14.1146430969238,14.1352415084839,14.1638927459717,14.1939830780029,14.2242021560669,14.2545499801636,14.2850275039673,14.3156356811523,14.3463745117188,14.3772468566895,14.4082517623901,14.4393901824951,14.470664024353,14.5020742416382,14.5336198806763,14.5653038024902,14.5971260070801,14.6290874481201,14.661190032959,14.6934328079224,14.7258176803589,14.7583465576172,14.7910184860229,15.1799545288086,16.065408706665,16.6848812103271,16.7559432983398,16.8276138305664,16.8999004364014,17.1289825439453,17.1886615753174,17.24875831604,17.3092765808105,17.3702201843262,17.4315948486328,17.4934043884277,17.5556545257568,17.6183490753174,17.6814937591553,17.7450904846191,17.8091487884521,17.8736705780029,17.9386596679688,18.0041255950928,18.0700702667236,18.1364994049072,18.2034187316895,18.2708339691162,18.3387508392334,18.4071731567383,18.476110458374,18.5455646514893,18.6155414581299,18.6860504150391,18.7570953369141,18.8286819458008,18.9008178710938,18.911828994751,18.9129276275635,18.9140243530273,18.9151210784912,18.9162197113037,18.9173164367676
11.185471534729,11.187873840332,11.1902761459351,11.1926803588867,11.1950845718384,11.1974906921387,11.199896812439,11.2023048400879,11.2047138214111,11.2071237564087,11.2095346450806,11.2119464874268,11.2143602371216,11.2167739868164,11.2191886901855,11.2216053009033,11.2240219116211,11.2264404296875,11.2288599014282,11.2312803268433,11.2337017059326,11.2361240386963,11.2385473251343,11.2409715652466,11.2433967590332,11.2458238601685,11.2482509613037,11.2506799697876,11.2532844543457,11.2596817016602,11.2660865783691,11.2724990844727,11.2789182662964,11.2853450775146,11.2917795181274,11.2982206344604,11.304669380188,11.3111257553101,11.3175888061523,11.3240594863892,11.3305377960205,11.3370237350464,11.3435173034668,11.3500175476074,11.3565254211426,11.3630409240723,11.3695640563965,11.3760948181152,11.3826322555542,11.389178276062,11.39573097229,11.4022922515869,11.408860206604,11.4154357910156,11.4220190048218,11.4286098480225,11.4352083206177,11.4418144226074,11.4484281539917,11.4550495147705,11.4616785049438,11.468316078186,11.4749603271484,11.4816122055054,11.4882717132568,11.4949398040771,11.501615524292,11.5082979202271,11.514988899231,11.5216875076294,11.5283946990967,11.5351085662842,11.5418310165405,11.5485601425171,11.5552978515625,11.5620441436768,11.5687971115112,11.5755586624146,11.5823278427124,11.5891056060791,11.5958909988403,11.6026840209961,11.6094846725464,11.6162939071655,11.6231107711792,11.6299362182617,11.6367692947388,11.6436109542847,11.6504602432251,11.6573171615601,11.6641826629639,11.6710567474365,11.6779375076294,11.6848278045654,11.691725730896,11.6986312866211,11.7055463790894,11.7124681472778,11.7193984985352,11.7263374328613,11.7332849502563,11.7402400970459,11.7472038269043,11.7541751861572,11.761155128479,11.7681436538696,11.7751407623291,11.7821455001831,11.789158821106,11.7961807250977,11.8032102584839,11.810248374939,11.8172960281372,11.82435131073,11.8314142227173,12.1078567504883,12.1152696609497,12.1226921081543,12.1301231384277,12.1375637054443,12.1450138092041,12.1524724960327,12.1599397659302,12.1674175262451,12.1749029159546,12.1823987960815,12.1899032592773,12.1974172592163,12.2049407958984,12.2124729156494,12.2200155258179,12.2275657653809,12.2351264953613,12.242696762085,12.2502756118774,12.2578639984131,12.2654619216919,12.2730693817139,12.280686378479,12.2883129119873,12.2959489822388,12.3035945892334,12.3112487792969,12.3189134597778,12.3265867233276,12.3342704772949,12.3419637680054,12.349666595459,12.3573789596558,12.3651008605957,12.3728322982788,12.3805732727051,12.3905735015869,12.4180068969727,12.4455614089966,12.4732389450073,12.5010385513306,12.5289640426636,12.5570135116577,12.5851888656616,12.6134920120239,12.641921043396,12.6704797744751,12.6991682052612,12.7279853820801,12.7569351196289,12.7860155105591,12.8152294158936,12.8445777893066,12.874059677124,12.9036779403687,12.9334325790405,12.963324546814,12.9933557510376,13.0179595947266,13.0354795455933,13.0530471801758,13.0706624984741,13.088324546814,13.1060352325439,13.1237936019897,13.1416006088257,13.1594552993774,13.1773586273193,13.1953105926514,13.2133121490479,13.2313623428345,13.2494621276855,13.2676115036011,13.2858104705811,13.3040599822998,13.322359085083,13.3407096862793,13.35910987854,13.3775606155396,13.3960638046265,13.4146165847778,13.4332218170166,13.4518785476685,13.4705867767334,13.4893484115601,13.5081605911255,13.5270261764526,13.5459451675415,13.5649166107178,13.5839405059814,13.6030187606812,13.6221504211426,13.64133644104,13.6605758666992,13.6798696517944,13.6992177963257,13.7186212539673,13.7380800247192,13.7575941085815,13.7771635055542,13.7967882156372,13.8164691925049,13.8362064361572,13.8559999465942,13.8758497238159,13.8957576751709,13.9157218933105,13.9357442855835,13.9558238983154,13.9759616851807,13.9961576461792,14.016411781311,14.0367250442505,14.0570964813232,14.0775279998779,14.0980186462402,14.1240568161011,14.1539783477783,14.1840267181396,14.2142028808594,14.2445077896118,14.2749423980713,14.3055067062378,14.33620262146,14.3670310974121,14.3979921340942,14.4290866851807,14.4603157043457,14.4916801452637,14.5231809616089,14.5548191070557,14.5865955352783,14.6185111999512,14.6505670547485,14.6827630996704,14.7151012420654,14.7475824356079,14.7802066802979,14.9080095291138,15.7611312866211,16.4790229797363,16.54833984375,16.6182422637939,16.6887359619141,16.7598323822021,16.8315372467041,17.1451835632324,17.2049751281738,17.2651863098145,17.3258190155029,17.3868808746338,17.4483737945557,17.5103015899658,17.5726718902588,17.6354885101318,17.6987552642822,17.7624778747559,17.8266620635986,17.8913097381592,17.956428527832,18.0220241546631,18.0881004333496,18.1546630859375,18.221715927124,18.2892684936523,18.3573207855225,18.4258842468262,18.4949607849121,18.5645561218262,18.6346778869629,18.7053318023682,18.725227355957,18.7263050079346,18.7273788452148,18.7284564971924,18.7295322418213
11.1964597702026,11.1988668441772,11.2012739181519,11.2036828994751,11.2060918807983,11.2085027694702,11.2109146118164,11.2133274078369,11.2157402038574,11.2181549072266,11.22057056427,11.2229871749878,11.2254056930542,11.2278242111206,11.2302436828613,11.2326650619507,11.23508644104,11.237509727478,11.2399339675903,11.242359161377,11.2447853088379,11.2472124099731,11.2496404647827,11.2520694732666,11.2545003890991,11.2569313049316,11.2593641281128,11.2617969512939,11.2642316818237,11.2703371047974,11.2767534255981,11.2831783294678,11.2896099090576,11.296049118042,11.3024950027466,11.3089485168457,11.3154096603394,11.3218784332275,11.3283538818359,11.3348369598389,11.3413276672363,11.3478260040283,11.3543310165405,11.3608446121216,11.3673648834229,11.3738927841187,11.380428314209,11.3869714736938,11.3935213088989,11.4000797271729,11.4066457748413,11.41321849823,11.4197988510132,11.4263877868652,11.4329833984375,11.4395875930786,11.4461984634399,11.4528169631958,11.4594440460205,11.4660778045654,11.4727201461792,11.4793691635132,11.486026763916,11.4926919937134,11.499363899231,11.5060443878174,11.5127334594727,11.5194292068481,11.5261325836182,11.532844543457,11.5395641326904,11.5462913513184,11.5530261993408,11.5597696304321,11.566520690918,11.5732793807983,11.5800457000732,11.586820602417,11.5936031341553,11.6003932952881,11.6071920394897,11.6139984130859,11.6208124160767,11.6276350021362,11.6344661712646,11.6413040161133,11.6481504440308,11.6550054550171,11.6618680953979,11.6687393188477,11.6756181716919,11.6825046539307,11.6894006729126,11.6963033676147,11.7032146453857,11.7101345062256,11.7170629501343,11.7239980697632,11.7309427261353,11.7378950119019,11.7448558807373,11.7518253326416,11.7588024139404,11.7657880783081,11.7727813720703,11.7797842025757,11.7867946624756,11.79381275177,11.8008403778076,11.8078756332397,11.814920425415,11.8219728469849,11.8290328979492,11.8361024856567,11.8431806564331,12.090991973877,12.0983839035034,12.105785369873,12.1131963729858,12.1206159591675,12.128044128418,12.1354827880859,12.1429290771484,12.1503858566284,12.1578512191772,12.1653251647949,12.1728086471558,12.1803016662598,12.1878042221069,12.1953153610229,12.2028360366821,12.2103662490845,12.2179050445557,12.22545337677,12.2330121994019,12.2405786514282,12.2481555938721,12.2557411193848,12.2633371353149,12.270941734314,12.2785558700562,12.2861795425415,12.29381275177,12.3014554977417,12.3091077804565,12.3167695999146,12.3244400024414,12.3321208953857,12.3398113250732,12.3475112915039,12.3552207946777,12.362940788269,12.3706693649292,12.3904285430908,12.4178609848022,12.4454154968262,12.4730920791626,12.5008916854858,12.5288152694702,12.5568647384644,12.5850400924683,12.6133413314819,12.6417713165283,12.6703290939331,12.6990156173706,12.7278327941895,12.756781578064,12.7858619689941,12.8150749206543,12.8444223403931,12.8739032745361,12.9035205841064,12.9332752227783,12.9516506195068,12.9689931869507,12.9863815307617,13.0038175582886,13.0212993621826,13.0388288497925,13.0564050674438,13.074028968811,13.091700553894,13.1094198226929,13.1271877288818,13.1450033187866,13.1628675460815,13.1807804107666,13.1987419128418,13.2167530059814,13.2348127365112,13.2529220581055,13.2710809707642,13.2892894744873,13.3075485229492,13.3258571624756,13.3442163467407,13.3626270294189,13.3810873031616,13.3996000289917,13.4181632995605,13.4367780685425,13.4554443359375,13.4741630554199,13.4929332733154,13.5117568969727,13.5306329727173,13.549560546875,13.5685424804688,13.5875768661499,13.6066656112671,13.6258068084717,13.6450033187866,13.6642532348633,13.683557510376,13.7029161453247,13.7223300933838,13.7417993545532,13.761323928833,13.7809038162231,13.8005390167236,13.8202304840088,13.8399782180786,13.8597831726074,13.8796443939209,13.8995628356934,13.9195384979248,13.9395713806152,13.9596614837646,13.9798107147217,14.000018119812,14.0202827453613,14.0406074523926,14.0609903335571,14.0844440460205,14.1141977310181,14.1440773010254,14.1740837097168,14.2042179107666,14.2344799041748,14.26487159729,14.2953929901123,14.3260459899902,14.3568296432495,14.3877468109131,14.4187965393066,14.4499816894531,14.4813013076782,14.5127573013306,14.5443496704102,14.5760803222656,14.6079502105713,14.6399593353271,14.6721086502075,14.704400062561,14.7368335723877,14.7694101333618,14.802131652832,15.4681663513184,16.2781829833984,16.3458156585693,16.4140148162842,16.4827842712402,16.552131652832,16.6220664978027,16.6925945281982,16.7637233734131,17.1614151000977,17.2213191986084,17.281644821167,17.3423938751221,17.4035720825195,17.4651832580566,17.5272312164307,17.5897235870361,17.6526622772217,17.7160530090332,17.779899597168,17.8442096710205,17.9089851379395,17.9742336273193,18.0399589538574,18.1061668395996,18.1728630065918,18.2400512695312,18.3077373504639,18.3759288787842,18.4446315765381,18.5138492584229,18.5422744750977,18.5433254241943,18.5443840026855,18.5454368591309
11.2074699401855,11.2098817825317,11.2122936248779,11.2147073745728,11.2171211242676,11.219536781311,11.2219533920288,11.2243700027466,11.226788520813,11.2292079925537,11.2316284179688,11.2340497970581,11.2364730834961,11.2388963699341,11.2413206100464,11.2437467575073,11.2461729049683,11.2486009597778,11.2510299682617,11.2534599304199,11.2558908462524,11.2583227157593,11.2607555389404,11.2631893157959,11.265625,11.2680606842041,11.2704982757568,11.2729368209839,11.2753763198853,11.2810125350952,11.2874412536621,11.2938776016235,11.3003215789795,11.3067722320557,11.3132314682007,11.3196973800659,11.3261699676514,11.3326511383057,11.3391389846802,11.3456344604492,11.3521375656128,11.3586483001709,11.3651666641235,11.3716917037964,11.3782243728638,11.3847646713257,11.3913125991821,11.3978681564331,11.4044313430786,11.4110021591187,11.4175806045532,11.424165725708,11.4307594299316,11.4373607635498,11.4439687728882,11.4505853652954,11.4572095870972,11.4638404846191,11.47047996521,11.4771270751953,11.4837818145752,11.4904441833496,11.4971141815186,11.5037927627563,11.5104780197144,11.5171709060669,11.5238723754883,11.5305814743042,11.5372982025146,11.5440235137939,11.5507555007935,11.5574960708618,11.5642442703247,11.5710000991821,11.5777645111084,11.5845365524292,11.5913162231445,11.5981035232544,11.6048994064331,11.6117038726807,11.6185150146484,11.6253347396851,11.6321630477905,11.6389989852905,11.6458425521851,11.6526947021484,11.6595544815063,11.6664228439331,11.6732988357544,11.6801834106445,11.6870756149292,11.6939764022827,11.7008848190308,11.7078018188477,11.7147274017334,11.7216606140137,11.7286014556885,11.7355518341064,11.7425098419189,11.749475479126,11.7564496994019,11.7634325027466,11.7704238891602,11.7774229049683,11.7844305038452,11.791446685791,11.7984714508057,11.8055038452148,11.8125457763672,11.8195953369141,11.8266525268555,11.83371925354,11.8407945632935,11.8478775024414,11.8549690246582,11.8620700836182,12.0815448760986,12.0889263153076,12.0963163375854,12.1037149429321,12.111123085022,12.1185398101807,12.1259660720825,12.1334018707275,12.1408462524414,12.1483001708984,12.1557626724243,12.1632347106934,12.1707153320312,12.1782054901123,12.1857051849365,12.1932144165039,12.2007322311401,12.2082595825195,12.2157964706421,12.2233419418335,12.2308979034424,12.2384624481201,12.2460355758667,12.2536191940308,12.261212348938,12.2688140869141,12.2764253616333,12.28404712677,12.2916774749756,12.2993173599243,12.3069667816162,12.3146257400513,12.3222942352295,12.3299722671509,12.3376607894897,12.3453578948975,12.3530645370483,12.3629732131958,12.390284538269,12.4177160263062,12.4452695846558,12.4729452133179,12.5007448196411,12.5286674499512,12.556715965271,12.5848903656006,12.6131916046143,12.6416206359863,12.6701774597168,12.6988639831543,12.7276802062988,12.756628036499,12.7857074737549,12.814920425415,12.8442668914795,12.8688936233521,12.8860139846802,12.9031810760498,12.9203929901123,12.9376516342163,12.9549560546875,12.9723072052002,12.9897050857544,13.0071496963501,13.024640083313,13.042179107666,13.0597648620605,13.0773973464966,13.0950784683228,13.1128072738647,13.1305837631226,13.1484088897705,13.1662817001343,13.1842041015625,13.2021751403809,13.2201948165894,13.2382640838623,13.2563829421997,13.2745513916016,13.2927694320679,13.3110380172729,13.3293571472168,13.3477258682251,13.3661451339722,13.3846158981323,13.4031381607056,13.4217109680176,13.440336227417,13.4590120315552,13.4777412414551,13.4965209960938,13.5153551101685,13.5342397689819,13.5531787872314,13.5721702575684,13.591215133667,13.6103134155273,13.6294660568237,13.6486721038818,13.667932510376,13.6872472763062,13.7066164016724,13.7260408401489,13.7455205917358,13.7650556564331,13.7846460342407,13.804292678833,13.8239946365356,13.8437538146973,13.8635692596436,13.8834409713745,13.9033699035645,13.9233560562134,13.9434003829956,13.9635019302368,13.9836616516113,14.0038805007935,14.0241565704346,14.0450525283813,14.0746402740479,14.1043519973755,14.1341896057129,14.1641540527344,14.1942462921143,14.2244663238525,14.2548151016235,14.2852935791016,14.3159027099609,14.346643447876,14.3775157928467,14.408522605896,14.4396619796753,14.4709377288818,14.502347946167,14.5338954925537,14.565580368042,14.5974035263062,14.6293668746948,14.6614694595337,14.6937141418457,14.7261009216309,14.7586297988892,14.7913036346436,15.1858930587769,16.0720615386963,16.1481914520264,16.2147464752197,16.281852722168,16.3495178222656,16.41774559021,16.4865474700928,16.5559272766113,16.6258926391602,16.6964530944824,17.1776752471924,17.2376956939697,17.2981357574463,17.359001159668,17.420295715332,17.4820251464844,17.5441951751709,17.6068077087402,17.6698684692383,17.7333831787109,17.7973556518555,17.8617916107178,17.9266948699951,17.992073059082,18.0579280853271,18.1242694854736,18.1910972595215,18.2584209442139,18.3262462615967,18.3628559112549,18.3638916015625,18.3649272918701
11.2185020446777,11.2209177017212,11.2233352661133,11.2257528305054,11.2281723022461,11.2305917739868,11.2330131530762,11.2354354858398,11.2378587722778,11.2402830123901,11.2427082061768,11.2451343536377,11.2475624084473,11.2499904632568,11.2524194717407,11.2548503875732,11.2572813034058,11.2597141265869,11.2621479034424,11.2645826339722,11.2670183181763,11.2694549560547,11.2718925476074,11.2743320465088,11.2767715454102,11.2792129516602,11.2816543579102,11.2840976715088,11.2865419387817,11.2917070388794,11.2981491088867,11.3045978546143,11.311053276062,11.3175172805786,11.3239879608154,11.3304662704468,11.3369512557983,11.3434448242188,11.3499450683594,11.3564529418945,11.3629684448242,11.3694915771484,11.3760223388672,11.3825597763062,11.3891048431396,11.395658493042,11.4022188186646,11.4087867736816,11.4153623580933,11.4219455718994,11.4285364151001,11.4351348876953,11.4417409896851,11.4483547210693,11.4549760818481,11.4616050720215,11.4682416915894,11.4748859405518,11.4815378189087,11.4881982803345,11.4948654174805,11.501540184021,11.5082235336304,11.5149145126343,11.5216131210327,11.5283193588257,11.5350332260132,11.5417556762695,11.5484857559204,11.5552234649658,11.5619688034058,11.5687217712402,11.5754833221436,11.5822525024414,11.5890302658081,11.5958156585693,11.6026086807251,11.6094102859497,11.6162185668945,11.6230363845825,11.6298608779907,11.6366939544678,11.6435356140137,11.6503849029541,11.6572418212891,11.6641073226929,11.6709804534912,11.6778621673584,11.6847524642944,11.691650390625,11.6985559463501,11.705470085144,11.7123928070068,11.7193231582642,11.7262620925903,11.733208656311,11.7401638031006,11.747127532959,11.7540988922119,11.7610788345337,11.7680673599243,11.7750635147095,11.7820682525635,11.7890815734863,11.796103477478,11.8031330108643,11.8101720809937,11.8172187805176,11.824273109436,11.8313369750977,11.8384094238281,11.8454895019531,11.852578163147,11.859676361084,11.8667821884155,11.8738965988159,12.0647535324097,12.0721139907837,12.0794830322266,12.0868616104126,12.0942487716675,12.1016454696655,12.1090507507324,12.1164655685425,12.1238889694214,12.1313219070435,12.1387634277344,12.1462144851685,12.1536750793457,12.1611442565918,12.1686229705811,12.1761102676392,12.1836071014404,12.1911134719849,12.1986293792725,12.2061538696289,12.2136878967285,12.2212314605713,12.2287836074829,12.236346244812,12.24391746521,12.2514982223511,12.2590885162354,12.2666873931885,12.2742967605591,12.2819147109985,12.2895431518555,12.2971801757812,12.3048267364502,12.3124837875366,12.3201494216919,12.3278245925903,12.3355093002319,12.343204498291,12.362829208374,12.3901395797729,12.4175701141357,12.4451236724854,12.4727983474731,12.5005970001221,12.5285196304321,12.556568145752,12.5847415924072,12.6130418777466,12.6414699554443,12.6700258255005,12.6987113952637,12.7275276184082,12.7564744949341,12.7855539321899,12.8040904998779,12.8210391998291,12.8380336761475,12.8550720214844,12.8721561431885,12.8892860412598,12.9064617156982,12.9236831665039,12.9409503936768,12.9582643508911,12.9756240844727,12.9930305480957,13.0104827880859,13.0279836654663,13.0455312728882,13.0631256103516,13.0807676315308,13.0984573364258,13.1161956787109,13.1339807510376,13.1518154144287,13.16969871521,13.187629699707,13.2056102752686,13.2236394882202,13.2417182922363,13.2598457336426,13.2780237197876,13.2962512969971,13.3145294189453,13.3328580856323,13.3512363433838,13.3696660995483,13.3881464004517,13.4066781997681,13.4252614974976,13.4438953399658,13.4625825881958,13.4813203811646,13.500111579895,13.5189542770386,13.5378503799438,13.5567989349365,13.5757999420166,13.5948553085327,13.6139640808105,13.6331262588501,13.65234375,13.6716136932373,13.690938949585,13.710319519043,13.7297534942627,13.7492437362671,13.7687892913818,13.7883901596069,13.8080472946167,13.8277606964111,13.8475303649902,13.867356300354,13.8872394561768,13.9071798324585,13.9271764755249,13.9472322463989,13.9673442840576,13.9875154495239,14.0077447891235,14.0353031158447,14.0648498535156,14.0945205688477,14.1243171691895,14.154239654541,14.1842889785767,14.2144660949707,14.2447719573975,14.2752075195312,14.3057737350464,14.3364706039429,14.3673000335693,14.3982620239258,14.4293575286865,14.4605884552002,14.4919538497925,14.5234565734863,14.5550956726074,14.5868730545044,14.6187896728516,14.6508464813232,14.6830444335938,14.7153835296631,14.7478656768799,14.7804908752441,14.9137372970581,15.7675342559814,15.9552869796753,16.0202579498291,16.0857620239258,16.1518020629883,16.2183876037598,16.2855243682861,16.3532199859619,16.421480178833,16.4903125762939,16.5597229003906,16.6297225952148,17.1939678192139,17.2541027069092,17.3146572113037,17.375638961792,17.4370517730713,17.4989013671875,17.5611896514893,17.6239242553711,17.6871089935303,17.7507476806641,17.8148441314697,17.8794078826904,17.9444408416748,18.0099468231201,18.0759353637695,18.142406463623,18.1868801116943,18.187894821167
11.2295551300049,11.2319755554199,11.2343978881836,11.2368202209473,11.2392444610596,11.2416696548462,11.2440958023071,11.2465219497681,11.2489500045776,11.2513799667358,11.253809928894,11.2562408447266,11.2586727142334,11.2611064910889,11.2635402679443,11.2659759521484,11.2684116363525,11.2708492279053,11.2732877731323,11.2757272720337,11.2781677246094,11.2806091308594,11.283052444458,11.2854957580566,11.2879409790039,11.2903861999512,11.2928333282471,11.2952814102173,11.2977304458618,11.3024234771729,11.308876991272,11.3153371810913,11.3218059539795,11.3282814025879,11.3347644805908,11.3412551879883,11.3477535247803,11.3542585372925,11.3579225540161,11.3595857620239,11.3612489700317,11.3629121780396,11.3645763397217,11.3676681518555,11.376446723938,11.3852396011353,11.3940458297729,11.4028654098511,11.4116983413696,11.4205455780029,11.4294061660767,11.4382810592651,11.447169303894,11.4560708999634,11.4649868011475,11.4726457595825,11.4792947769165,11.4859523773193,11.4926176071167,11.4992895126343,11.5059700012207,11.5126581192017,11.5193548202515,11.5260581970215,11.5327701568604,11.5394887924194,11.5462160110474,11.5529518127441,11.5596942901611,11.566445350647,11.5732040405273,11.5799713134766,11.586745262146,11.5935277938843,11.6003189086914,11.6071166992188,11.6139230728149,11.62073802948,11.6275606155396,11.6343908309937,11.6412296295166,11.6480760574341,11.6549301147461,11.661792755127,11.6686639785767,11.6755428314209,11.6824293136597,11.6893243789673,11.6962280273438,11.7031393051147,11.7100591659546,11.716986656189,11.7239227294922,11.7308664321899,11.7378187179565,11.744779586792,11.751748085022,11.7587261199951,11.7657108306885,11.772705078125,11.7797069549561,11.786717414856,11.7937364578247,11.800763130188,11.8077983856201,11.8148431777954,11.8218946456909,11.8289556503296,11.8360252380371,11.8431024551392,11.8501882553101,11.8572835922241,11.8643865585327,11.8714981079102,11.8786182403564,11.8857469558716,12.046257019043,12.055347442627,12.0626964569092,12.0700550079346,12.0774211883545,12.0847978591919,12.0921821594238,12.0995759963989,12.1069793701172,12.1143913269043,12.1218128204346,12.1292428970337,12.1366815567017,12.1441307067871,12.1515884399414,12.1590547561646,12.1665306091309,12.1740159988403,12.1815099716187,12.1890144348145,12.1965265274048,12.2040491104126,12.2115802764893,12.2191209793091,12.2266712188721,12.2342309951782,12.2417993545532,12.2493772506714,12.2569646835327,12.2645616531372,12.2721681594849,12.2797842025757,12.2874088287354,12.2950439453125,12.3026876449585,12.310341835022,12.3180046081543,12.3256778717041,12.3354959487915,12.3626852035522,12.3899946212769,12.4174251556396,12.4449768066406,12.4726514816284,12.5004501342773,12.5283718109131,12.5564193725586,12.5845918655396,12.6128921508789,12.6413192749023,12.6698751449585,12.6985597610474,12.723201751709,12.7399368286133,12.7567167282104,12.7735404968262,12.7904081344604,12.8073205947876,12.8242788314819,12.8412809371948,12.8583288192749,12.8754215240479,12.892560005188,12.9097442626953,12.9269742965698,12.9442501068115,12.9615726470947,12.9789419174194,12.9963569641113,13.0138187408447,13.0313282012939,13.0488843917847,13.0664882659912,13.0841398239136,13.1018381118774,13.1195850372314,13.1373805999756,13.1552238464355,13.1731157302856,13.1910572052002,13.2090463638306,13.2270851135254,13.2451734542847,13.2633113861084,13.2814979553223,13.2997360229492,13.3180236816406,13.3363609313965,13.3547496795654,13.3731889724731,13.3916788101196,13.4102201461792,13.4288129806519,13.4474573135376,13.4661540985107,13.484902381897,13.5037031173706,13.5225563049316,13.5414619445801,13.5604200363159,13.5794324874878,13.5984973907471,13.6176166534424,13.6367893218994,13.6560163497925,13.6752977371216,13.6946334838867,13.7140235900879,13.7334690093994,13.7529697418213,13.7725257873535,13.7921371459961,13.8118047714233,13.8315286636353,13.8513088226318,13.8711462020874,13.8910398483276,13.9109907150269,13.9309988021851,13.9510650634766,13.9711894989014,13.9961862564087,14.0255680084229,14.0550727844238,14.0847024917603,14.1144571304321,14.1443376541138,14.1743450164795,14.2044801712036,14.2347440719604,14.26513671875,14.2956590652466,14.3263130187988,14.3570985794067,14.3880167007446,14.4190683364868,14.4502534866333,14.481575012207,14.5130319595337,14.5446252822876,14.5763578414917,14.6082277297974,14.6402387619019,14.6723890304565,14.7046813964844,14.7371168136597,14.7696943283081,14.802417755127,15.4743328094482,15.7669372558594,15.8303813934326,15.8943376541138,15.958812713623,16.0238132476807,16.0893459320068,16.1554164886475,16.2220306396484,16.2891979217529,16.3569240570068,16.4252147674561,16.4940776824951,16.5635223388672,17.2102928161621,17.2705402374268,17.3312110900879,17.3923091888428,17.4538402557373,17.5158081054688,17.578218460083,17.6410751342773,17.704381942749,17.7681446075439,17.832368850708,17.8970584869385,17.9622211456299,18.0142459869385
11.2406301498413,11.2430562973022,11.2454824447632,11.2479104995728,11.2503385543823,11.2527685165405,11.255199432373,11.2576313018799,11.260064125061,11.2624979019165,11.2649326324463,11.2673692703247,11.2698059082031,11.2722444534302,11.2746829986572,11.2771234512329,11.2795648574829,11.2820062637329,11.2844495773315,11.2868938446045,11.2893400192261,11.2917861938477,11.2942333221436,11.2966823577881,11.2991313934326,11.3015823364258,11.3040342330933,11.3064870834351,11.3089408874512,11.3131589889526,11.3196249008179,11.3260984420776,11.3325786590576,11.3390665054321,11.3455619812012,11.3499870300293,11.3516473770142,11.3533086776733,11.3549699783325,11.356632232666,11.3582944869995,11.359956741333,11.3616199493408,11.3632841110229,11.3649482727051,11.3666133880615,11.368278503418,11.3747730255127,11.3835620880127,11.3923664093018,11.4011831283569,11.4100141525269,11.4188585281372,11.427716255188,11.4365882873535,11.4454736709595,11.4543733596802,11.4632863998413,11.4722137451172,11.4811553955078,11.4901103973389,11.4990797042847,11.5080623626709,11.5170593261719,11.5260705947876,11.5350961685181,11.544135093689,11.5531892776489,11.5622568130493,11.5713396072388,11.5804357528687,11.5895462036133,11.5980291366577,11.6048250198364,11.6116285324097,11.6184406280518,11.6252603530884,11.6320877075195,11.6389236450195,11.6457681655884,11.6526193618774,11.6594791412354,11.6663475036621,11.6732234954834,11.6801080703735,11.6870002746582,11.6939010620117,11.7008094787598,11.7077264785767,11.7146511077881,11.7215843200684,11.7285251617432,11.7354755401611,11.7424325942993,11.7493991851807,11.7563734054565,11.7633562088013,11.7703475952148,11.7773466110229,11.7843542098999,11.7913703918457,11.798394203186,11.8054265975952,11.8124685287476,11.8195171356201,11.8265752792358,11.8336420059204,11.8407163619995,11.8478002548218,11.8548917770386,11.8619918823242,11.8691005706787,11.8762178421021,11.8833436965942,11.8904781341553,11.8976211547852,11.9047727584839,12.0247173309326,12.0345401763916,12.0443801879883,12.054235458374,12.0641069412231,12.07399559021,12.0827341079712,12.0901165008545,12.0975074768066,12.104907989502,12.1123180389404,12.1197366714478,12.1271638870239,12.1346006393433,12.1420469284058,12.1495018005371,12.1569662094116,12.164439201355,12.1719217300415,12.1794137954712,12.1869144439697,12.1944255828857,12.2019453048706,12.2094736099243,12.2170114517212,12.2245588302612,12.2321157455444,12.2396821975708,12.247257232666,12.2548427581787,12.2624368667603,12.270040512085,12.2776536941528,12.2852764129639,12.2929077148438,12.3005495071411,12.3082008361816,12.315860748291,12.335352897644,12.3625411987305,12.3898496627808,12.4172801971436,12.4448308944702,12.472505569458,12.5003023147583,12.528223991394,12.5562705993652,12.5844430923462,12.6127414703369,12.6411685943604,12.659854888916,12.6764230728149,12.6930360794067,12.7096920013428,12.7263917922974,12.7431354522705,12.7599239349365,12.7767553329468,12.7936325073242,12.8105535507202,12.8275194168091,12.8445310592651,12.8615865707397,12.8786888122559,12.8958358764648,12.913028717041,12.9302673339844,12.9475526809692,12.9648838043213,12.9822616577148,12.9996852874756,13.0171566009521,13.0346746444702,13.0522403717041,13.0698528289795,13.0875129699707,13.1052207946777,13.1229772567749,13.1407814025879,13.158634185791,13.1765356063843,13.1944856643677,13.2124843597412,13.2305326461792,13.2486305236816,13.2667779922485,13.2849740982056,13.3032217025757,13.3215188980103,13.3398656845093,13.3582639694214,13.3767127990723,13.3952131271362,13.413763999939,13.4323663711548,13.451021194458,13.4697275161743,13.4884853363037,13.5072965621948,13.526159286499,13.5450754165649,13.5640439987183,13.5830659866333,13.6021413803101,13.6212711334229,13.6404542922974,13.6596908569336,13.6789827346802,13.6983289718628,13.7177295684814,13.7371854782104,13.7566967010498,13.7762632369995,13.7958860397339,13.8155641555786,13.835298538208,13.8550901412964,13.8749380111694,13.8948421478271,13.9148044586182,13.9348239898682,13.9572868347168,13.9865045547485,14.0158452987671,14.0453100204468,14.0748977661133,14.1046113967896,14.1344499588013,14.1644163131714,14.1945085525513,14.2247295379639,14.2550792694092,14.2855596542358,14.3161697387695,14.3469114303589,14.3777856826782,14.4087924957275,14.4399337768555,14.4712104797363,14.5026226043701,14.5341711044312,14.5658569335938,14.5976819992065,14.6296453475952,14.6617498397827,14.693995475769,14.7263832092285,14.7589139938354,14.7915887832642,15.1918363571167,15.5829820632935,15.6449518203735,15.7074155807495,15.7703800201416,15.83385181427,15.8978366851807,15.9623403549194,16.0273704528809,16.0929317474365,16.1590309143066,16.2256755828857,16.2928733825684,16.3606300354004,16.4289512634277,16.4978466033936,17.2266464233398,17.2870082855225,17.3477954864502,17.4090118408203,17.4706611633301,17.5327491760254,17.5952796936035,17.6582584381104,17.7216892242432,17.7855777740479
11.251727104187,11.2541580200195,11.2565889358521,11.2590217590332,11.2614545822144,11.2638893127441,11.2663249969482,11.2687616348267,11.2711992263794,11.2736377716064,11.2760782241821,11.2785186767578,11.2809610366821,11.2834033966064,11.2858476638794,11.2882928848267,11.2907390594482,11.2931861877441,11.2956342697144,11.2980833053589,11.3005332946777,11.3029851913452,11.3054370880127,11.3078908920288,11.3103446960449,11.3128004074097,11.3152570724487,11.3177146911621,11.3201732635498,11.3239154815674,11.3303937911987,11.3368797302246,11.3420629501343,11.3437204360962,11.3453798294067,11.347038269043,11.3486976623535,11.3503580093384,11.3520183563232,11.3536796569824,11.3553409576416,11.3570032119751,11.3586654663086,11.3603286743164,11.3619918823242,11.3636560440063,11.3653202056885,11.3669853210449,11.3686513900757,11.3703165054321,11.3730983734131,11.3818864822388,11.3906869888306,11.3995018005371,11.4083290100098,11.4171714782715,11.4260263442993,11.4348964691162,11.4437789916992,11.452675819397,11.4615869522095,11.4705114364624,11.4794502258301,11.4884023666382,11.497368812561,11.5063486099243,11.5153436660767,11.5243520736694,11.533374786377,11.5424118041992,11.5514621734619,11.5605278015137,11.5696067810059,11.5787010192871,11.5878086090088,11.5969305038452,11.6060676574707,11.6152191162109,11.6243839263916,11.6335639953613,11.6427583694458,11.6519680023193,11.6611919403076,11.6704301834106,11.6796827316284,11.6889505386353,11.6982326507568,11.7075300216675,11.7168416976929,11.7261686325073,11.7331323623657,11.7400875091553,11.7470502853394,11.7540225982666,11.7610025405884,11.7679901123047,11.7749872207642,11.7819919586182,11.7890043258667,11.7960262298584,11.8030557632446,11.810094833374,11.8171405792236,11.8241958618164,11.831259727478,11.8383312225342,11.8454122543335,11.8525009155273,11.85959815979,11.8667039871216,11.873818397522,11.8809413909912,11.8880729675293,11.8952131271362,11.902361869812,11.9095182418823,11.9166841506958,11.993480682373,12.0032539367676,12.0130414962769,12.0228462219238,12.0326671600342,12.0425033569336,12.0523557662964,12.0622243881226,12.0721092224121,12.082010269165,12.0919275283813,12.1018619537354,12.1102447509766,12.1176614761353,12.1250858306885,12.1325206756592,12.1399641036987,12.1474161148071,12.1548776626587,12.1623487472534,12.1698293685913,12.177318572998,12.1848163604736,12.1923246383667,12.1998414993286,12.2073678970337,12.2149028778076,12.2224473953247,12.2300024032593,12.2375650405884,12.245138168335,12.2527208328247,12.2603120803833,12.2679128646851,12.2755241394043,12.2831439971924,12.2907733917236,12.298412322998,12.3081407546997,12.3352088928223,12.3623971939087,12.389705657959,12.4171342849731,12.4446849822998,12.4723587036133,12.5001554489136,12.528076171875,12.5561218261719,12.5807723999023,12.5971345901489,12.6135396957397,12.6299877166748,12.6464786529541,12.6630125045776,12.6795902252197,12.6962108612061,12.7128753662109,12.7295837402344,12.7463350296021,12.7631320953369,12.779972076416,12.7968578338623,12.8137874603271,12.8307619094849,12.8477821350098,12.8648471832275,12.8819570541382,12.899112701416,12.9163150787354,12.9335622787476,12.9508562088013,12.9681959152222,12.9855823516846,13.0030155181885,13.0204963684082,13.0380229949951,13.0555973052979,13.0732192993164,13.0908880233765,13.108606338501,13.126371383667,13.1441850662231,13.1620464324951,13.1799573898315,13.1979169845581,13.2159252166748,13.2339820861816,13.2520895004272,13.2702465057373,13.2884521484375,13.3067092895508,13.3250160217285,13.3433723449707,13.361780166626,13.3802394866943,13.3987493515015,13.4173097610474,13.4359226226807,13.4545869827271,13.4733028411865,13.4920711517334,13.5108919143677,13.5297651290894,13.5486907958984,13.5676698684692,13.5867023468018,13.605788230896,13.624927520752,13.6441211700439,13.6633682250977,13.6826705932617,13.7020263671875,13.7214384078979,13.7409048080444,13.7604265213013,13.7800035476685,13.7996368408203,13.8193254470825,13.8390712738037,13.8588733673096,13.8787317276001,13.8986473083496,13.9186201095581,13.9476585388184,13.9768371582031,14.0061368942261,14.0355606079102,14.0651073455811,14.0947790145874,14.1245765686035,14.1545000076294,14.1845512390137,14.214729309082,14.2450370788574,14.2754735946655,14.306040763855,14.3367385864258,14.3675689697266,14.3985319137573,14.4296293258667,14.4608602523804,14.4922275543213,14.5237312316895,14.5553712844849,14.5871505737305,14.619068145752,14.6511259078979,14.6833248138428,14.7156658172607,14.7481489181519,14.7807760238647,14.919469833374,15.4032707214355,15.4638156890869,15.5248394012451,15.5863456726074,15.6483421325684,15.7108325958252,15.7738246917725,15.8373241424561,15.9013366699219,15.9658689498901,16.0309276580811,16.0965175628662,16.1626472473145,16.2293224334717,16.2965507507324,16.3643360137939,17.182975769043,17.2430324554443,17.3035087585449,17.3644123077393,17.4257469177246,17.4875144958496,17.5497226715088
11.262845993042,11.2652816772461,11.2677173614502,11.2701549530029,11.27259349823,11.2750329971313,11.277473449707,11.279914855957,11.2823572158813,11.28480052948,11.2872447967529,11.2896909713745,11.2921380996704,11.2945852279663,11.2970342636108,11.2994842529297,11.3019351959229,11.3043870925903,11.3068399429321,11.3092947006226,11.311749458313,11.3142061233521,11.3166627883911,11.3191213607788,11.3215808868408,11.3240413665771,11.3265027999878,11.3289651870728,11.331428527832,11.3341493606567,11.33580493927,11.3374614715576,11.3391180038452,11.3407754898071,11.342432975769,11.3440914154053,11.3457498550415,11.3474092483521,11.3490686416626,11.3507289886475,11.3523902893066,11.3540506362915,11.355712890625,11.3573751449585,11.359037399292,11.3607006072998,11.3623638153076,11.3640279769897,11.3656930923462,11.3673572540283,11.3690233230591,11.3706893920898,11.3723554611206,11.3740224838257,11.3802099227905,11.3890085220337,11.3978204727173,11.4066457748413,11.4154844284058,11.424337387085,11.4332046508789,11.4420852661133,11.4509792327881,11.4598875045776,11.4688091278076,11.4777450561523,11.4866943359375,11.4956588745117,11.5046358108521,11.5136280059814,11.5226335525513,11.5316534042358,11.5406875610352,11.5497360229492,11.558798789978,11.5678749084473,11.5769662857056,11.5860710144043,11.5951910018921,11.6043252944946,11.6134729385376,11.6226358413696,11.6318130493164,11.6410055160522,11.6502113342285,11.6594324111938,11.6686677932739,11.6779174804688,11.6871824264526,11.6964626312256,11.705756187439,11.7150650024414,11.7243890762329,11.7337284088135,11.7430820465088,11.7524499893188,11.761833190918,11.7712316513062,11.7806453704834,11.7900743484497,11.7995176315308,11.8089771270752,11.8184509277344,11.8279399871826,11.8374443054199,11.8469638824463,11.8564987182617,11.8643083572388,11.8714199066162,11.8785400390625,11.8856687545776,11.8928060531616,11.8999519348145,11.9071054458618,11.9142684936523,11.9214401245117,11.9286203384399,11.9624071121216,11.972128868103,11.9818668365479,11.9916200637817,12.001389503479,12.0111751556396,12.0209760665894,12.0307941436768,12.0406274795532,12.0504770278931,12.060341835022,12.0702238082886,12.0801219940186,12.0900363922119,12.0999670028687,12.1099138259888,12.1198768615723,12.1298570632935,12.1378812789917,12.1453313827515,12.1527910232544,12.1602592468262,12.1677360534668,12.1752233505249,12.1827192306519,12.190224647522,12.1977386474609,12.2052621841431,12.2127952575684,12.2203369140625,12.2278890609741,12.2354497909546,12.2430200576782,12.250599861145,12.2581882476807,12.2657871246338,12.2733945846558,12.2810115814209,12.2886390686035,12.3079977035522,12.3350658416748,12.3622531890869,12.3895606994629,12.4169893264771,12.4445390701294,12.4722118377686,12.5000076293945,12.5188322067261,12.5350332260132,12.5512771606445,12.5675630569458,12.583890914917,12.6002616882324,12.6166753768921,12.6331310272217,12.6496305465698,12.6661729812622,12.6827583312988,12.699387550354,12.7160596847534,12.7327766418457,12.7495374679565,12.7663421630859,12.7831907272339,12.8000841140747,12.8170232772827,12.8340063095093,12.851035118103,12.8681087493896,12.8852272033691,12.9023914337158,12.919602394104,12.9368581771851,12.9541616439819,12.9715099334717,12.9889059066772,13.00634765625,13.0238361358643,13.0413732528687,13.0589561462402,13.0765867233276,13.0942659378052,13.1119918823242,13.1297664642334,13.1475896835327,13.1654605865479,13.1833801269531,13.2013492584229,13.2193670272827,13.237434387207,13.2555503845215,13.2737159729004,13.2919321060181,13.3101987838745,13.3285150527954,13.3468818664551,13.3652992248535,13.3837671279907,13.402286529541,13.4208574295044,13.4394798278809,13.4581537246704,13.4768800735474,13.4956579208374,13.5144891738892,13.533371925354,13.5523080825806,13.5712976455688,13.5903396606445,13.6094360351562,13.6285858154297,13.6477890014648,13.6670475006104,13.6863594055176,13.7057266235352,13.7251482009888,13.7446250915527,13.7641572952271,13.783745765686,13.8033895492554,13.8230895996094,13.8428449630737,13.8626585006714,13.8825273513794,13.9090280532837,13.9380445480347,13.9671821594238,13.9964418411255,14.025824546814,14.0553302764893,14.0849609375,14.1147165298462,14.1445989608765,14.1746072769165,14.2047433853149,14.2350082397461,14.26540184021,14.2959260940552,14.3265800476074,14.357367515564,14.3882865905762,14.4193391799927,14.4505262374878,14.4818477630615,14.5133066177368,14.5449018478394,14.5766344070435,14.6085062026978,14.6405181884766,14.6726694107056,14.704963684082,14.7373991012573,14.7699794769287,14.8027029037476,15.2276563644409,15.286826133728,15.3464584350586,15.4065570831299,15.4671277999878,15.5281772613525,15.5897102355957,15.6517333984375,15.7142515182495,15.777271270752,15.8407983779907,15.904839515686,15.9693994522095,16.0344867706299,16.1001071929932,16.1662654876709,16.2329711914062,16.3002281188965,17.1992778778076,17.259449005127,17.3200416564941
11.2834253311157,11.2850656509399,11.2867069244385,11.2813100814819,11.2837533950806,11.2861976623535,11.2886428833008,11.2910890579224,11.2935361862183,11.2959852218628,11.2984342575073,11.3008852005005,11.3031482696533,11.3047952651978,11.3064422607422,11.3080902099609,11.3097381591797,11.3113870620728,11.3130359649658,11.3146858215332,11.3163366317749,11.3179864883423,11.3196382522583,11.3212890625,11.3229417800903,11.3245944976807,11.326247215271,11.3279008865356,11.3295545578003,11.3312091827393,11.3328638076782,11.3345193862915,11.3361749649048,11.3378314971924,11.3394889831543,11.3411455154419,11.3428039550781,11.3444623947144,11.3461208343506,11.3477802276611,11.3494396209717,11.3510999679565,11.3527612686157,11.3544225692749,11.3560838699341,11.3577461242676,11.3594093322754,11.3610725402832,11.362735748291,11.3643999099731,11.3660650253296,11.367730140686,11.3693952560425,11.3710613250732,11.3727283477783,11.3743953704834,11.3760633468628,11.3785343170166,11.3873300552368,11.3961391448975,11.4049625396729,11.4137992858887,11.4226493835449,11.4315137863159,11.4403915405273,11.4492826461792,11.4581880569458,11.4671077728271,11.4760408401489,11.4849882125854,11.4939489364624,11.5029239654541,11.5119132995605,11.5209159851074,11.529932975769,11.5389652252197,11.5480108261108,11.5570697784424,11.566143989563,11.5752325057983,11.5843343734741,11.593451499939,11.6025829315186,11.6117286682129,11.620888710022,11.6300630569458,11.6392517089844,11.648455619812,11.6576738357544,11.6669063568115,11.6761531829834,11.6854152679443,11.6946926116943,11.7039833068848,11.7132902145386,11.7226104736328,11.7319469451904,11.7412977218628,11.7506628036499,11.7600440979004,11.7694396972656,11.7788505554199,11.788275718689,11.7977170944214,11.8071727752686,11.8166437149048,11.8261299133301,11.8356313705444,11.8451480865479,11.8546800613403,11.8642282485962,11.8737907409668,11.8833694458008,11.8929634094238,11.9025726318359,11.9121971130371,11.9218378067017,11.9314937591553,11.9411649703979,11.950852394104,11.9605560302734,11.9702749252319,11.9800090789795,11.9897603988647,11.9995260238647,12.0093088150024,12.0191068649292,12.0289211273193,12.0387516021729,12.0485982894897,12.0584602355957,12.0683393478394,12.0782337188721,12.0881452560425,12.0980730056763,12.1080169677734,12.1179761886597,12.1279525756836,12.1379461288452,12.1479558944702,12.1579809188843,12.1656446456909,12.1731290817261,12.1806221008301,12.1881246566772,12.1956367492676,12.2031574249268,12.2106876373291,12.2182273864746,12.2257766723633,12.2333345413208,12.2409019470215,12.2484788894653,12.2560653686523,12.2636613845825,12.2712669372559,12.2809066772461,12.3078546524048,12.3349227905273,12.3621091842651,12.3894157409668,12.416844367981,12.4414968490601,12.457498550415,12.4735412597656,12.4896259307861,12.5057525634766,12.5219202041626,12.5381298065186,12.5543813705444,12.5706748962402,12.5870113372803,12.6033906936646,12.6198120117188,12.6362762451172,12.6527833938599,12.6693344116211,12.6859283447266,12.7025651931763,12.7192468643188,12.7359714508057,12.7527408599854,12.7695531845093,12.7864112854004,12.8033132553101,12.8202610015869,12.8372526168823,12.8542890548706,12.8713712692261,12.8884992599487,12.9056720733643,12.9228916168213,12.9401569366455,12.9574680328369,12.9748258590698,12.9922304153442,13.0096807479858,13.0271787643433,13.0447244644165,13.0623168945312,13.0799570083618,13.0976448059082,13.1153802871704,13.1331634521484,13.1509952545166,13.1688766479492,13.1868057250977,13.2047834396362,13.2228107452393,13.2408866882324,13.2590131759644,13.2771883010864,13.2954139709473,13.3136892318726,13.3320159912109,13.3503923416138,13.3688192367554,13.3872966766357,13.4058265686035,13.4244070053101,13.4430389404297,13.4617233276367,13.4804592132568,13.4992475509644,13.5180883407593,13.5369815826416,13.5559272766113,13.5749273300171,13.5939798355103,13.6130857467651,13.6322460174561,13.6514596939087,13.6707286834717,13.6900510787964,13.7094287872314,13.7288608551025,13.748348236084,13.7678909301758,13.7874898910522,13.8071441650391,13.8268547058105,13.8466215133667,13.8706102371216,13.8994665145874,13.9284429550171,13.957540512085,13.9867601394653,14.0161018371582,14.0455675125122,14.075156211853,14.1048707962036,14.134711265564,14.1646776199341,14.1947717666626,14.2249937057495,14.2553443908691,14.2858257293701,14.3164367675781,14.3471794128418,14.3780546188354,14.4090633392334,14.4402055740356,14.4714832305908,14.5028963088989,14.5344457626343,14.5661334991455,14.5979595184326,14.6299247741699,14.6620302200317,14.6942768096924,14.7266654968262,14.7591981887817,14.7918739318848,15.056001663208,15.1138429641724,15.1721305847168,15.2308683395386,15.2900638580322,15.3497200012207,15.4098443984985,15.4704418182373,15.5315170288086,15.5930767059326,15.6551265716553,15.7176713943481,15.7807188034058,15.8442735671997,15.9083423614502,15.9729318618774,16.0380477905273,16.1036968231201,16.169885635376
11.2805109024048,11.282151222229,11.2837915420532,11.2854328155518,11.2870740890503,11.2887163162231,11.290358543396,11.2920017242432,11.2936458587646,11.2952899932861,11.2969341278076,11.2985792160034,11.3002243041992,11.3018703460693,11.3035163879395,11.3051633834839,11.3068113327026,11.3084583282471,11.3101072311401,11.3117561340332,11.3134050369263,11.3150548934937,11.316704750061,11.3183555603027,11.3200073242188,11.3216590881348,11.3233108520508,11.3249635696411,11.3266162872314,11.3282699584961,11.3299245834351,11.331579208374,11.333233833313,11.3348894119263,11.3365459442139,11.3382015228271,11.3398590087891,11.341516494751,11.3431739807129,11.3448324203491,11.3464918136597,11.3481512069702,11.3498115539551,11.3514719009399,11.3531322479248,11.354793548584,11.3564558029175,11.358118057251,11.3597803115845,11.3614444732666,11.3631076812744,11.3647718429565,11.366436958313,11.3681020736694,11.3697681427002,11.371434211731,11.373101234436,11.3747682571411,11.3764352798462,11.3781042098999,11.3797721862793,11.3856525421143,11.3944597244263,11.4032793045044,11.4121131896973,11.4209613800049,11.4298229217529,11.4386978149414,11.4475870132446,11.4564895629883,11.4654064178467,11.4743366241455,11.4832811355591,11.4922399520874,11.5012121200562,11.5101985931396,11.5191993713379,11.5282135009766,11.53724193573,11.5462846755981,11.5553417205811,11.5644130706787,11.5734987258911,11.5825986862183,11.5917129516602,11.6008415222168,11.6099843978882,11.6191415786743,11.6283130645752,11.6374998092651,11.6466999053955,11.6559152603149,11.6651449203491,11.6743898391724,11.6836490631104,11.6929225921631,11.7022113800049,11.7115144729614,11.720832824707,11.7301664352417,11.7395143508911,11.7488765716553,11.7582550048828,11.7676477432251,11.7770547866821,11.7864780426025,11.7959156036377,11.8053693771362,11.8148374557495,11.8243207931519,11.8338193893433,11.8433332443237,11.8528623580933,11.8624067306519,11.8719673156738,11.8815422058105,11.8911333084106,11.9007396697998,11.910361289978,11.9199991226196,11.9296522140503,11.93932056427,11.9490051269531,11.9587049484253,11.9684209823608,11.9781522750854,11.9878997802734,11.9976634979248,12.0074424743652,12.017237663269,12.0270490646362,12.0368766784668,12.0467195510864,12.0565795898438,12.0664548873901,12.0763473510742,12.0862550735474,12.0961790084839,12.1061201095581,12.1160764694214,12.1260499954224,12.1360397338867,12.1460466384888,12.1560688018799,12.1661081314087,12.1761646270752,12.1860256195068,12.1935348510742,12.2010536193848,12.2085809707642,12.2161178588867,12.2236642837524,12.2312202453613,12.2387847900391,12.2463598251343,12.2539434432983,12.2615365982056,12.2807636260986,12.3077125549316,12.3347787857056,12.3619651794434,12.380916595459,12.3967628479004,12.4126501083374,12.4285774230957,12.4445466995239,12.4605569839478,12.4766073226929,12.4927005767822,12.5088338851929,12.5250101089478,12.5412273406982,12.557487487793,12.5737895965576,12.5901336669922,12.606520652771,12.622950553894,12.6394233703613,12.6559381484985,12.6724977493286,12.6890993118286,12.7057447433472,12.7224349975586,12.7391681671143,12.7559452056885,12.7727670669556,12.7896327972412,12.806544303894,12.8234996795654,12.8404998779297,12.8575458526611,12.8746356964111,12.8917722702026,12.9089546203613,12.9261827468872,12.9434566497803,12.9607763290405,12.9781436920166,12.9955568313599,13.0130167007446,13.0305233001709,13.048077583313,13.0656795501709,13.0833282470703,13.1010255813599,13.1187696456909,13.1365623474121,13.1544036865234,13.1722936630249,13.1902322769165,13.2082195281982,13.2262563705444,13.2443418502808,13.2624769210815,13.2806625366211,13.2988977432251,13.3171825408936,13.3355178833008,13.3539047241211,13.3723411560059,13.3908290863037,13.4093685150146,13.4279584884644,13.4466009140015,13.4652948379517,13.4840402603149,13.5028390884399,13.521689414978,13.5405931472778,13.559549331665,13.578558921814,13.5976219177246,13.616738319397,13.6359081268311,13.6551322937012,13.6744108200073,13.6937446594238,13.7131319046021,13.7325754165649,13.7520732879639,13.7716264724731,13.7912359237671,13.8109006881714,13.832405090332,13.861102104187,13.8899183273315,13.9188547134399,13.9479122161865,13.9770917892456,14.0063924789429,14.0358171463013,14.0653657913208,14.0950384140015,14.1248369216919,14.1547613143921,14.1848134994507,14.2149925231934,14.2453012466431,14.2757387161255,14.3063068389893,14.3370065689087,14.3678379058838,14.3988027572632,14.4299001693726,14.4611330032349,14.4925012588501,14.5240058898926,14.5556478500366,14.5874280929565,14.6193466186523,14.651406288147,14.6836061477661,14.7159481048584,14.7484321594238,14.7810611724854,14.8881740570068,14.944730758667,15.0017175674438,15.0591421127319,15.1170072555542,15.1753177642822,15.2340812683105,15.2933015823364,15.3529834747314,15.4131336212158,15.4737558364868,15.534857749939,15.5964441299438,15.6585206985474,15.7210931777954,15.7841682434082,15.8477506637573
11.2775983810425,11.2792377471924,11.2808771133423,11.2825174331665,11.284158706665,11.2857999801636,11.2874412536621,11.289083480835,11.2907257080078,11.292368888855,11.2940130233765,11.2956571578979,11.2973012924194,11.2989463806152,11.3005924224854,11.3022384643555,11.3038845062256,11.30553150177,11.3071794509888,11.3088274002075,11.3104753494263,11.3121242523193,11.3137741088867,11.3154239654541,11.3170738220215,11.3187246322632,11.3203763961792,11.3220281600952,11.3236799240112,11.3253326416016,11.3269863128662,11.3286399841309,11.3302936553955,11.3319482803345,11.3336038589478,11.335259437561,11.3369159698486,11.3385725021362,11.3402290344238,11.3418865203857,11.343544960022,11.3452033996582,11.3468627929688,11.3485221862793,11.3501825332642,11.351842880249,11.3535032272339,11.3551654815674,11.3568267822266,11.3584899902344,11.3601522445679,11.3618154525757,11.3634796142578,11.3651437759399,11.3668088912964,11.3684740066528,11.3701400756836,11.3718061447144,11.3734731674194,11.3751411437988,11.3768081665039,11.3784770965576,11.3801460266113,11.381814956665,11.383975982666,11.3927793502808,11.4015970230103,11.4104290008545,11.4192733764648,11.4281330108643,11.4370050430298,11.4458913803101,11.4547920227051,11.4637060165405,11.4726333618164,11.481575012207,11.4905309677124,11.4995012283325,11.5084848403931,11.5174827575684,11.5264940261841,11.5355205535889,11.5445604324341,11.553614616394,11.5626831054688,11.5717658996582,11.5808629989624,11.5899744033813,11.599100112915,11.6082401275635,11.6173944473267,11.6265640258789,11.6357469558716,11.6449451446533,11.6541576385498,11.663384437561,11.6726264953613,11.6818828582764,11.6911544799805,11.700439453125,11.7097406387329,11.7190561294556,11.728385925293,11.7377309799194,11.747091293335,11.7564659118652,11.7658557891846,11.775260925293,11.7846803665161,11.7941160202026,11.8035659790039,11.8130311965942,11.8225116729736,11.8320074081421,11.8415184020996,11.8510446548462,11.8605861663818,11.8701438903809,11.8797159194946,11.8893041610718,11.898907661438,11.9085264205933,11.9181604385376,11.9278106689453,11.9374761581421,11.9471578598022,11.9568548202515,11.9665679931641,11.9762964248657,11.9860410690308,11.9958009719849,12.0055780410767,12.0153694152832,12.0251779556274,12.0350017547607,12.0448427200317,12.0546989440918,12.0645713806152,12.0744600296021,12.0843648910522,12.0942859649658,12.1042242050171,12.1141777038574,12.1241483688354,12.1341342926025,12.1441373825073,12.1541576385498,12.1641931533813,12.1742458343506,12.1843156814575,12.1944017410278,12.2045049667358,12.2140102386475,12.2215538024902,12.2291069030762,12.236668586731,12.2442407608032,12.253791809082,12.2806215286255,12.3052701950073,12.3209238052368,12.3366165161133,12.3523502349854,12.3681230545044,12.383936882019,12.399790763855,12.4156866073608,12.431622505188,12.4475984573364,12.4636163711548,12.4796752929688,12.4957761764526,12.5119180679321,12.5281019210815,12.5443267822266,12.5605945587158,12.5769052505493,12.5932579040527,12.6096525192261,12.626091003418,12.6425714492798,12.6590948104858,12.6756620407104,12.6922721862793,12.7089262008667,12.7256240844727,12.7423658370972,12.7591524124146,12.7759819030762,12.7928562164307,12.8097763061523,12.8267402648926,12.8437490463257,12.8608026504517,12.8779029846191,12.8950481414795,12.9122381210327,12.9294748306274,12.9467582702637,12.9640865325928,12.9814624786377,12.9988842010498,13.0163536071777,13.0338697433472,13.0514326095581,13.0690431594849,13.0867013931274,13.1044073104858,13.1221618652344,13.1399631500244,13.1578140258789,13.1757125854492,13.193660736084,13.2116575241089,13.2297029495239,13.2477989196777,13.2659435272217,13.2841377258301,13.3023824691772,13.3206777572632,13.3390226364136,13.3574190139771,13.375864982605,13.394362449646,13.4129114151001,13.4315118789673,13.4501638412476,13.4688673019409,13.4876232147217,13.5064315795898,13.5252923965454,13.5442056655884,13.5631723403931,13.5821924209595,13.6012649536133,13.6203918457031,13.6395721435547,13.6588068008423,13.6780958175659,13.6974401473999,13.7168378829956,13.736291885376,13.7558002471924,13.7753639221191,13.7949838638306,13.8229484558105,13.8516063690186,13.8803834915161,13.9092798233032,13.9382972717285,13.967435836792,13.9966974258423,14.0260810852051,14.0555877685547,14.0852193832397,14.1149768829346,14.1448593139648,14.1748695373535,14.2050065994263,14.2352724075317,14.2656669616699,14.2961921691895,14.3268480300903,14.3576354980469,14.3885564804077,14.4196100234985,14.450798034668,14.4821214675903,14.5135803222656,14.5451774597168,14.5769109725952,14.6087846755981,14.640796661377,14.6729507446289,14.7052450180054,14.7376823425293,14.770263671875,14.7982892990112,14.8128261566162,14.8350915908813,14.8912439346313,14.9478235244751,15.0048351287842,15.0622825622559,15.120171546936,15.1785078048706,15.2372961044312,15.2965402603149,15.3562479019165,15.4164237976074,15.4770727157593,15.538200378418
11.2746868133545,11.2763252258301,11.27796459198,11.2796039581299,11.2812442779541,11.2828845977783,11.2845249176025,11.2861661911011,11.2878084182739,11.2894506454468,11.2910938262939,11.2927370071411,11.2943801879883,11.2960243225098,11.2976694107056,11.2993144989014,11.3009595870972,11.3026065826416,11.3042526245117,11.3058996200562,11.3075475692749,11.3091955184937,11.3108444213867,11.3124933242798,11.3141422271729,11.3157920837402,11.3174428939819,11.3190937042236,11.3207454681396,11.3223972320557,11.324049949646,11.3257026672363,11.3273553848267,11.3290090560913,11.3306636810303,11.3323183059692,11.3339738845825,11.3356294631958,11.3372859954834,11.338942527771,11.3406000137329,11.3422574996948,11.3439159393311,11.3455743789673,11.3472337722778,11.3488931655884,11.3505535125732,11.3522138595581,11.3538751602173,11.3555364608765,11.35719871521,11.3588609695435,11.3605241775513,11.3621873855591,11.3638515472412,11.3655166625977,11.3671808242798,11.3688468933105,11.3705129623413,11.3721790313721,11.3738460540771,11.3755130767822,11.3771810531616,11.3788499832153,11.380518913269,11.3821878433228,11.3838577270508,11.3855285644531,11.3911008834839,11.3999156951904,11.4087448120117,11.4175872802734,11.4264430999756,11.4353132247925,11.4441967010498,11.4530944824219,11.4620056152344,11.4709310531616,11.4798698425293,11.4888229370117,11.4977903366089,11.5067710876465,11.5157661437988,11.5247755050659,11.5337991714478,11.54283618927,11.551887512207,11.5609531402588,11.5700340270996,11.5791282653809,11.5882368087769,11.5973596572876,11.6064968109131,11.6156492233276,11.6248149871826,11.6339960098267,11.6431903839111,11.652400970459,11.6616249084473,11.6708641052246,11.6801176071167,11.6893854141235,11.6986684799194,11.7079668045044,11.7172794342041,11.7266063690186,11.7359485626221,11.7453060150146,11.754677772522,11.7640647888184,11.7734670639038,11.7828845977783,11.7923164367676,11.8017635345459,11.8112258911133,11.8207035064697,11.8301963806152,11.8397045135498,11.8492279052734,11.8587665557861,11.8683204650879,11.877890586853,11.8874750137329,11.8970756530762,11.9066915512085,11.9163227081299,11.9259700775146,11.9356327056885,11.9453115463257,11.955005645752,11.9647150039673,11.974440574646,11.9841823577881,11.9939393997192,12.0037126541138,12.0135021209717,12.0233068466187,12.0331287384033,12.0429658889771,12.0528192520142,12.0626888275146,12.0725736618042,12.0824756622314,12.0923938751221,12.1023283004761,12.1122789382935,12.1222457885742,12.1322298049927,12.1422300338745,12.1522464752197,12.1622791290283,12.1723289489746,12.1823949813843,12.1924781799316,12.2025775909424,12.2126941680908,12.2228269577026,12.2329769134521,12.2460069656372,12.2615089416504,12.2770509719849,12.2926330566406,12.3082542419434,12.3239154815674,12.3396158218384,12.355357170105,12.3711376190186,12.3869590759277,12.4028215408325,12.4187240600586,12.4346675872803,12.4506521224976,12.4666776657104,12.4827442169189,12.4988527297974,12.5150022506714,12.5311946868896,12.5474281311035,12.5637035369873,12.5800218582153,12.5963830947876,12.6127862930298,12.6292324066162,12.6457204818726,12.6622533798218,12.6788282394409,12.6954469680786,12.7121095657349,12.7288150787354,12.7455654144287,12.7623605728149,12.7791986465454,12.7960815429688,12.813009262085,12.829981803894,12.8470001220703,12.8640623092651,12.8811702728271,12.8983249664307,12.9155244827271,12.9327697753906,12.9500608444214,12.967399597168,12.9847831726074,13.0022144317627,13.0196924209595,13.0372171401978,13.0547895431519,13.0724096298218,13.0900764465332,13.1077919006348,13.1255550384521,13.1433658599854,13.1612253189087,13.1791343688965,13.1970911026001,13.2150974273682,13.2331523895264,13.251256942749,13.2694120407104,13.287615776062,13.3058700561523,13.3241739273071,13.342529296875,13.3609342575073,13.3793907165527,13.3978986740112,13.4164571762085,13.4350671768188,13.4537286758423,13.4724426269531,13.4912080764771,13.5100269317627,13.5288972854614,13.5478210449219,13.5667972564697,13.5858278274536,13.6049108505249,13.6240472793579,13.6432390213013,13.662483215332,13.6817827224731,13.7011365890503,13.7205457687378,13.7400102615356,13.7595291137695,13.7850046157837,13.8135051727295,13.8421239852905,13.8708610534668,13.8997182846069,13.9286956787109,13.9577941894531,13.9870147705078,14.016357421875,14.0458240509033,14.0754146575928,14.1051301956177,14.1349716186523,14.1649389266968,14.1950340270996,14.2252569198608,14.2556095123291,14.2860908508301,14.3167037963867,14.347448348999,14.378324508667,14.4093341827393,14.4404773712158,14.4717559814453,14.5031700134277,14.5347213745117,14.5664100646973,14.5982370376587,14.6302032470703,14.6623106002808,14.6945581436157,14.7251434326172,14.7516193389893,14.778190612793,14.7976856231689,14.8094053268433,14.8211431503296,14.8328990936279,14.8446741104126,14.8943157196045,14.9509181976318,15.0079536437988,15.0654249191284,15.1233386993408,15.1816987991333,15.2405118942261
11.2717771530151,11.2734155654907,11.275053024292,11.2766914367676,11.2783308029175,11.2799701690674,11.2816104888916,11.2832508087158,11.2848920822144,11.2865333557129,11.2881755828857,11.2898178100586,11.2914609909058,11.2931041717529,11.2947473526001,11.2963924407959,11.2980365753174,11.2996826171875,11.3013277053833,11.3029737472534,11.3046207427979,11.3062677383423,11.307915687561,11.3095636367798,11.3112125396729,11.3128614425659,11.3145112991333,11.3161611557007,11.3178119659424,11.3194627761841,11.3211145401001,11.3227663040161,11.3244190216064,11.3260717391968,11.3277254104614,11.3293790817261,11.331033706665,11.332688331604,11.3343439102173,11.3359994888306,11.3376560211182,11.3393125534058,11.3409700393677,11.3426284790039,11.3442859649658,11.3459453582764,11.3476047515869,11.3492641448975,11.3509244918823,11.3525848388672,11.3542461395264,11.3559083938599,11.357569694519,11.3592329025269,11.3608961105347,11.3625593185425,11.3642234802246,11.3658885955811,11.3675537109375,11.3692188262939,11.3708848953247,11.3725519180298,11.3742189407349,11.3758859634399,11.3775539398193,11.379222869873,11.3808917999268,11.3825616836548,11.3842315673828,11.3859014511108,11.3875722885132,11.3894214630127,11.3982343673706,11.4070606231689,11.4159002304077,11.4247541427612,11.4336214065552,11.4425020217896,11.4513969421387,11.4603061676025,11.4692287445068,11.4781646728516,11.487114906311,11.4960794448853,11.5050582885742,11.5140504837036,11.5230569839478,11.5320777893066,11.5411128997803,11.5501613616943,11.5592241287231,11.568302154541,11.5773935317993,11.5864992141724,11.5956192016602,11.604754447937,11.6139030456543,11.6230669021606,11.6322450637817,11.6414375305176,11.6506443023682,11.6598653793335,11.6691017150879,11.678352355957,11.6876182556152,11.6968984603882,11.7061929702759,11.7155027389526,11.7248277664185,11.734167098999,11.7435216903687,11.752890586853,11.7622747421265,11.771674156189,11.7810878753662,11.7905168533325,11.7999620437622,11.8094215393066,11.8188962936401,11.8283863067627,11.837890625,11.8474111557007,11.8569469451904,11.8664979934692,11.8760652542114,11.8856468200684,11.8952445983887,11.904857635498,11.9144859313965,11.9241304397583,11.9337902069092,11.9434652328491,11.9531564712524,11.9628629684448,11.9725856781006,11.9823246002197,11.9920787811279,12.0018491744995,12.0116348266602,12.0214366912842,12.0312547683716,12.0410890579224,12.0509395599365,12.0608062744141,12.0706882476807,12.080587387085,12.0905017852783,12.1004333496094,12.1103811264038,12.1203451156616,12.1303253173828,12.1403226852417,12.1503353118896,12.1603660583496,12.1704120635986,12.1804752349854,12.1905546188354,12.2006511688232,12.2107639312744,12.2208938598633,12.2280645370483,12.2487754821777,12.2644720077515,12.2800216674805,12.2956113815308,12.3112392425537,12.3269081115723,12.3426160812378,12.3583650588989,12.3741540908813,12.3899831771851,12.4058532714844,12.4217624664307,12.4377145767212,12.453706741333,12.4697399139404,12.4858150482178,12.5019311904907,12.5180892944336,12.5342893600464,12.5505304336548,12.5668144226074,12.5831413269043,12.5995092391968,12.6159210205078,12.6323747634888,12.6488723754883,12.665412902832,12.68199634552,12.6986227035522,12.7152938842773,12.732008934021,12.7487668991089,12.7655696868896,12.782416343689,12.7993087768555,12.8162450790405,12.8332262039185,12.8502521514893,12.8673238754272,12.8844404220581,12.9016027450562,12.9188117980957,12.9360656738281,12.9533662796021,12.9707126617432,12.9881057739258,13.0055465698242,13.0230331420898,13.040566444397,13.0581483840942,13.075777053833,13.0934534072876,13.111177444458,13.1289501190186,13.1467704772949,13.1646394729614,13.1825571060181,13.2005233764648,13.2185382843018,13.2366037368774,13.2547178268433,13.2728815078735,13.2910947799683,13.3093585968018,13.327672958374,13.3460369110107,13.3644523620605,13.3829183578491,13.4014358520508,13.4200038909912,13.438624382019,13.4572954177856,13.476019859314,13.4947948455811,13.5136232376099,13.5325040817261,13.551438331604,13.5704250335693,13.5894651412964,13.6085586547852,13.6277055740356,13.6469068527222,13.6661624908447,13.685471534729,13.7048358917236,13.7242555618286,13.7472677230835,13.7756128311157,13.8040742874146,13.8326539993286,13.8613519668579,13.8901700973511,13.9191074371338,13.9481658935547,13.9773464202881,14.0066480636597,14.0360736846924,14.0656232833862,14.0952968597412,14.1250972747803,14.1550226211548,14.1850757598877,14.215256690979,14.2455654144287,14.2760047912598,14.3065738677979,14.3372745513916,14.368106842041,14.3990726470947,14.4301719665527,14.4614057540894,14.4927749633789,14.5242805480957,14.5559234619141,14.5877046585083,14.6196250915527,14.6516857147217,14.6789321899414,14.7052421569824,14.7316465377808,14.7581462860107,14.7825765609741,14.7942714691162,14.8059854507446,14.8177175521851,14.8294687271118,14.8412380218506,14.8530263900757,14.8648338317871,14.897388458252,14.9540147781372
