10.6890316009521,10.6953792572021,10.701735496521,10.7080984115601,10.7144689559937,10.7208471298218,10.7272338867188,10.7336273193359,10.7400283813477,10.7464370727539,10.7528533935547,10.75927734375,10.7657098770142,10.7721490859985,10.7785959243774,10.7850513458252,10.7915143966675,10.79798412323,10.8044624328613,10.8109483718872,10.8174428939819,10.8239440917969,10.8304538726807,10.836971282959,10.8434963226318,10.8500289916992,10.8565702438354,10.8631181716919,10.8696756362915,10.8762397766113,10.8828125,10.8893928527832,10.8959808349609,10.9025774002075,10.9091815948486,10.9157943725586,10.9224138259888,10.9290428161621,10.9356784820557,10.9423236846924,10.9489755630493,10.9556360244751,10.9623050689697,10.9689817428589,10.9756669998169,10.9823598861694,10.9890613555908,10.9957704544067,11.0024881362915,11.0092144012451,11.0159482955933,11.0226907730103,11.0294418334961,11.0362005233765,11.0429677963257,11.0497426986694,11.0565271377563,11.0633192062378,11.0701189041138,11.0769281387329,11.0837450027466,11.0905714035034,11.0974054336548,11.1042470932007,11.1110982894897,11.1179580688477,11.1248254776001,11.1317014694214,11.1385869979858,11.3751087188721,11.3820772171021,11.3890542984009,11.3960399627686,11.4030351638794,11.4100379943848,11.417049407959,11.4240694046021,11.431097984314,11.438136100769,11.4451818466187,11.4522371292114,11.4593000411987,11.4663724899292,11.4734535217285,11.4805431365967,11.487642288208,11.4947490692139,11.5018653869629,11.5089902877808,11.5161237716675,11.5232667922974,11.5304183959961,11.5375785827637,11.5447473526001,11.5519256591797,11.5591125488281,11.5663089752197,11.5735139846802,11.5807285308838,11.5879507064819,11.5951833724976,11.6024236679077,11.6096744537354,11.6169328689575,11.6242017745972,11.6314792633057,11.638765335083,11.6460609436035,11.6533660888672,11.6606798171997,11.6842985153198,11.7098608016968,11.7355346679688,11.7613220214844,11.7872219085693,11.8132371902466,11.8393669128418,11.8656129837036,11.891975402832,11.9184560775757,11.9450540542603,11.9717712402344,11.998607635498,12.0255651473999,12.0526447296143,12.0798454284668,12.1071691513062,12.134617805481,12.1612367630005,12.1770677566528,12.1929397583008,12.2088527679443,12.2248077392578,12.2408037185669,12.2568426132202,12.2729234695435,12.2890453338623,12.3052110671997,12.321418762207,12.3376693725586,12.3539628982544,12.3702993392944,12.386679649353,12.4031028747559,12.4195699691772,12.4360799789429,12.4526348114014,12.4692335128784,12.4858770370483,12.5025644302368,12.5192966461182,12.5360736846924,12.5528955459595,12.5697631835938,12.5866756439209,12.6036338806152,12.6206378936768,12.6376876831055,12.6547842025757,12.6719264984131,12.689115524292,12.7063512802124,12.7236337661743,12.7409629821777,12.758339881897,12.775764465332,12.7932357788086,12.8107557296753,12.8283243179321,12.8459396362305,12.8636045455933,12.8813180923462,12.8990802764893,12.9168910980225,12.9347515106201,12.9526615142822,12.9706211090088,12.9886302947998,13.0066890716553,13.0247993469238,13.0429592132568,13.0611705780029,13.0794324874878,13.0977458953857,13.1161098480225,13.1345252990723,13.1529932022095,13.1715135574341,13.1900854110718,13.2087097167969,13.2273864746094,13.2461166381836,13.2649002075195,13.2837362289429,13.3026266098022,13.3215703964233,13.3437490463257,13.3713159561157,13.398998260498,13.426794052124,13.4547061920166,13.4827346801758,13.5108795166016,13.5391426086426,13.5675249099731,13.5960254669189,13.6246461868286,13.6533880233765,13.6822509765625,13.711236000061,13.7403440475464,13.7695770263672,13.7989339828491,13.8284158706665,13.858024597168,13.8877601623535,13.9176235198975,13.9476165771484,13.9777383804321,14.0079898834229,14.0383739471436,14.0688896179199,14.0995378494263,14.1303195953369,14.6472959518433,15.1325101852417,15.1882095336914,15.2443189620972,15.3008451461792,15.3577919006348,15.4151639938354,15.4729671478271,15.5312042236328,15.5898818969727,15.6490049362183,15.7085781097412,15.7686061859131,15.8290948867798,15.8900499343872,16.4999980926514,16.5548820495605,16.6101341247559,16.6657543182373,16.7217483520508,16.7781200408936,16.8348731994629,16.8920116424561,16.9495391845703,17.0074596405029,17.0657768249512,17.1244964599609,17.1836204528809,17.2431545257568,17.3005504608154,17.3011074066162,17.301664352417,17.3022212982178,17.3027801513672,17.303337097168,17.3038959503174,17.3044528961182,17.3050098419189,17.3055686950684,17.3061256408691,17.3066844940186,17.3072414398193,17.3078002929688,17.3083591461182,17.3089160919189,17.3094749450684,17.3100318908691,17.3105907440186,17.3111476898193,17.3117046356201,17.3122653961182,17.3128242492676,17.3133811950684,17.3139400482178,17.3144989013672,17.3150577545166,17.3156147003174
10.6996440887451,10.7060050964355,10.7123737335205,10.7187490463257,10.7251329421997,10.7315235137939,10.737922668457,10.7443294525146,10.7507429122925,10.7571649551392,10.7635936737061,10.7700309753418,10.7764759063721,10.7829284667969,10.7893886566162,10.7958564758301,10.8023319244385,10.8088150024414,10.8153066635132,10.8218059539795,10.8283128738403,10.8348274230957,10.8413496017456,10.8478803634644,10.8544187545776,10.8609647750854,10.8675184249878,10.874080657959,10.8806505203247,10.887228012085,10.8938140869141,10.9004077911377,10.9070091247559,10.9136180877686,10.9202365875244,10.9268617630005,10.9334955215454,10.9401369094849,10.9467868804932,10.9534454345703,10.9601106643677,10.9667854309082,10.9734678268433,10.9801578521729,10.9868564605713,10.9935636520386,11.0002784729004,11.0070018768311,11.0137329101562,11.0204725265503,11.0272207260132,11.0339765548706,11.0407409667969,11.047513961792,11.0542945861816,11.0610837936401,11.0678815841675,11.0746879577637,11.0815029144287,11.0883255004883,11.0951566696167,11.101996421814,11.1088447570801,11.1157007217407,11.1225662231445,11.1294393539429,11.1363220214844,11.1432123184204,11.1501111984253,11.157018661499,11.3667144775391,11.3736734390259,11.3806400299072,11.3876152038574,11.3945999145508,11.4015922546387,11.4085931777954,11.415602684021,11.4226217269897,11.429648399353,11.4366846084595,11.4437284469604,11.4507818222046,11.4578437805176,11.4649143218994,11.4719934463501,11.4790811538696,11.486177444458,11.4932832717896,11.5003976821899,11.5075206756592,11.5146522521973,11.5217933654785,11.5289430618286,11.5361013412476,11.5432691574097,11.5504455566406,11.5576305389404,11.5648250579834,11.5720281600952,11.5792398452759,11.5864610671997,11.5936918258667,11.6009302139282,11.6081790924072,11.6154356002808,11.6227025985718,11.6299781799316,11.6372623443604,11.6445560455322,11.6590118408203,11.6844635009766,11.7100257873535,11.7357015609741,11.7614889144897,11.7873907089233,11.8134059906006,11.8395366668701,11.8657836914062,11.892147064209,11.9186277389526,11.9452266693115,11.9719438552856,11.9987821578979,12.0257406234741,12.0528202056885,12.0800218582153,12.1015605926514,12.1172361373901,12.1329526901245,12.1487092971802,12.1645069122314,12.1803464889526,12.1962261199951,12.2121486663818,12.2281112670898,12.2441167831421,12.2601642608643,12.2762537002563,12.2923851013184,12.3085594177246,12.3247756958008,12.3410348892212,12.3573369979858,12.373682975769,12.3900718688965,12.4065036773682,12.4229803085327,12.4394998550415,12.4560632705688,12.4726715087891,12.4893236160278,12.5060205459595,12.5227613449097,12.5395479202271,12.5563793182373,12.5732564926147,12.5901784896851,12.6071462631226,12.6241598129272,12.6412191390991,12.6583251953125,12.6754770278931,12.6926755905151,12.7099208831787,12.7272129058838,12.7445526123047,12.7619390487671,12.7793731689453,12.7968549728394,12.8143844604492,12.8319625854492,12.849588394165,12.8672637939453,12.8849868774414,12.9027585983276,12.9205799102783,12.9384508132935,12.9563703536987,12.9743404388428,12.9923601150513,13.0104303359985,13.0285501480103,13.0467205047607,13.0649423599243,13.0832147598267,13.1015386581421,13.1199131011963,13.1383399963379,13.1568183898926,13.1753492355347,13.1939315795898,13.2125673294067,13.231255531311,13.2499961853027,13.2687902450562,13.2876377105713,13.3074541091919,13.3348722457886,13.3624029159546,13.3900470733643,13.4178066253662,13.4456815719604,13.473671913147,13.5017795562744,13.5300045013428,13.5583477020264,13.5868101119995,13.6153917312622,13.6440944671631,13.6729183197021,13.7018642425537,13.7309322357178,13.760124206543,13.7894411087036,13.8188829421997,13.8484506607056,13.8781452178955,13.9079675674438,13.9379186630249,13.9679985046387,13.9982080459595,14.0285491943359,14.0590219497681,14.0896272659302,14.1203660964966,14.4487352371216,14.967022895813,15.0215072631836,15.0763902664185,15.1316757202148,15.18736743927,15.2434711456299,15.2999906539917,15.3569316864014,15.4142971038818,15.4720935821533,15.5303249359131,15.5889959335327,15.6481113433838,15.7076778411865,15.7676992416382,15.8281812667847,16.5133304595947,16.5683040618896,16.6236438751221,16.6793556213379,16.7354412078857,16.7919044494629,16.8487510681152,16.90598487854,16.9636077880859,17.0216236114502,17.0800399780273,17.1388568878174,17.144926071167,17.1454753875732,17.1460227966309,17.1465702056885,17.1471176147461,17.1476669311523,17.14821434021,17.1487598419189,17.1493091583252,17.1498565673828,17.1504058837891,17.1509532928467,17.1515007019043,17.1520481109619,17.1525974273682,17.1531448364258,17.1536922454834,17.1542415618896,17.1547889709473,17.1553382873535,17.1558837890625,17.1564331054688,17.156982421875,17.1575298309326,17.1580791473389,17.1586265563965
10.7102785110474,10.7166519165039,10.723032951355,10.7294216156006,10.7358179092407,10.7422218322754,10.7486333847046,10.7550525665283,10.7614793777466,10.7679138183594,10.7743558883667,10.7808055877686,10.7872629165649,10.7937288284302,10.8002014160156,10.8066825866699,10.8131713867188,10.8196678161621,10.826171875,10.8326845169067,10.8392038345337,10.8457317352295,10.8522672653198,10.858811378479,10.8653621673584,10.8719215393066,10.8784885406494,10.885064125061,10.8916473388672,10.8982381820679,10.9048366546631,10.9114437103271,10.9180593490601,10.9246816635132,10.9313135147095,10.937952041626,10.9445991516113,10.9512548446655,10.9579181671143,10.9645891189575,10.9712686538696,10.9779567718506,10.9846525192261,10.9913568496704,10.9980688095093,11.004789352417,11.0115184783936,11.0182552337646,11.0250005722046,11.0317535400391,11.0385150909424,11.0452852249146,11.0520639419556,11.0588502883911,11.0656452178955,11.0724487304688,11.0792608261108,11.0860805511475,11.0929088592529,11.0997457504272,11.1065912246704,11.1134452819824,11.120306968689,11.1271781921387,11.1340570449829,11.1409454345703,11.1478414535522,11.154746055603,11.1616592407227,11.1685819625854,11.351393699646,11.3583326339722,11.3652811050415,11.3722381591797,11.3792028427124,11.3861770629883,11.3931589126587,11.4001493453979,11.4071493148804,11.4141569137573,11.4211740493774,11.4281997680664,11.4352331161499,11.4422760009766,11.4493274688721,11.4563865661621,11.4634552001953,11.4705333709717,11.4776191711426,11.4847145080566,11.4918174743652,11.498929977417,11.5060510635376,11.5131816864014,11.520320892334,11.5274686813354,11.5346250534058,11.5417909622192,11.5489654541016,11.5561485290527,11.5633411407471,11.5705423355103,11.5777521133423,11.5849714279175,11.5922002792358,11.599437713623,11.6066837310791,11.6139392852783,11.6212034225464,11.6284770965576,11.635760307312,11.6591758728027,11.6846284866333,11.7101917266846,11.7358675003052,11.7616558074951,11.787558555603,11.8135747909546,11.8397064208984,11.8659534454346,11.8923177719116,11.9187994003296,11.9453992843628,11.9721174240112,11.9989557266235,12.025915145874,12.0424671173096,12.0579900741577,12.0735521316528,12.0891551971436,12.1047992706299,12.1204824447632,12.1362066268921,12.1519727706909,12.167778968811,12.1836261749268,12.1995153427124,12.2154455184937,12.2314176559448,12.2474317550659,12.2634878158569,12.2795858383179,12.2957258224487,12.3119087219238,12.3281345367432,12.3444023132324,12.3607139587402,12.3770685195923,12.3934659957886,12.4099073410034,12.4263925552368,12.4429216384888,12.459493637085,12.4761114120483,12.492772102356,12.5094785690308,12.5262289047241,12.5430250167847,12.5598659515381,12.5767517089844,12.5936832427979,12.6106605529785,12.6276836395264,12.6447525024414,12.6618680953979,12.6790294647217,12.6962375640869,12.7134923934937,12.7307939529419,12.748143196106,12.7655401229858,12.7829837799072,12.8004760742188,12.8180150985718,12.8356037139893,12.8532390594482,12.8709239959717,12.8886575698853,12.906439781189,12.9242715835571,12.9421520233154,12.9600820541382,12.9780626296997,12.9960927963257,13.0141725540161,13.0323038101196,13.0504846572876,13.0687170028687,13.0869998931885,13.1053342819214,13.1237192153931,13.1421566009521,13.1606464385986,13.1791877746582,13.1977806091309,13.2164268493652,13.2351264953613,13.2538776397705,13.2726831436157,13.2986259460449,13.3260068893433,13.3535013198853,13.3811092376709,13.4088315963745,13.4366683959961,13.4646215438843,13.4926910400391,13.5208787918091,13.5491828918457,13.5776071548462,13.6061506271362,13.6348133087158,13.6635980606079,13.6925048828125,13.7215337753296,13.7506856918335,13.7799615859985,13.8093633651733,13.8388900756836,13.8685436248779,13.8983249664307,13.9282341003418,13.9582719802856,13.9884395599365,14.0187387466431,14.049168586731,14.0797309875488,14.110426902771,14.2554874420166,14.8051147460938,14.8584251403809,14.9121208190918,14.9662055969238,15.0206842422485,15.0755605697632,15.1308403015137,15.1865262985229,15.2426233291626,15.2991371154785,15.356071472168,15.4134311676025,15.4712200164795,15.529444694519,15.5881090164185,15.6472187042236,15.7067775726318,15.7667922973633,16.526683807373,16.5817470550537,16.6371765136719,16.6929779052734,16.7491550445557,16.8057136535645,16.8626537322998,16.9199810028076,16.9776992797852,16.9915447235107,16.9920806884766,16.992618560791,16.9931564331055,16.9936943054199,16.9942321777344,16.9947700500488,16.9953079223633,16.9958457946777,16.9963855743408,16.9969234466553,16.9974613189697,16.9979991912842,16.9985370635986,16.9990768432617,16.9996147155762,17.0001544952393,17.0006904602051,17.0012283325195,17.0017681121826,17.0023078918457,17.0028438568115,17.0033836364746,17.0039234161377,17.0044593811035
10.7209339141846,10.7273206710815,10.7337141036987,10.7401151657104,10.7465238571167,10.7529411315918,10.7593650817871,10.765796661377,10.7722368240356,10.7786836624146,10.7851390838623,10.7916021347046,10.7980728149414,10.8045511245728,10.8110370635986,10.817530632019,10.8240327835083,10.8305425643921,10.8370590209961,10.8435850143433,10.8501176834106,10.8566579818726,10.8632068634033,10.8697633743286,10.8763284683228,10.8829011917114,10.8894815444946,10.8960695266724,10.9026660919189,10.9092702865601,10.91588306427,10.9225034713745,10.9291315078735,10.9357681274414,10.9424123764038,10.9490652084351,10.9557256698608,10.9623947143555,10.9690713882446,10.9757566452026,10.9824495315552,10.9891510009766,10.9958610534668,11.0025787353516,11.0093040466309,11.0160388946533,11.0227813720703,11.0295314788818,11.0362911224365,11.0430583953857,11.0498332977295,11.0566177368164,11.0634098052979,11.0702104568481,11.0770196914673,11.083836555481,11.0906620025635,11.0974969863892,11.1043395996094,11.1111898422241,11.118049621582,11.1249179840088,11.1317939758301,11.1386785507202,11.1455726623535,11.1524744033813,11.159384727478,11.1663045883179,11.1732320785522,11.1801681518555,11.3307218551636,11.3398475646973,11.34898853302,11.3569011688232,11.3638477325439,11.3708028793335,11.3777666091919,11.3847379684448,11.3917188644409,11.3987083435059,11.4057054519653,11.412712097168,11.4197263717651,11.4267501831055,11.4337825775146,11.4408235549927,11.4478731155396,11.4549312591553,11.4619979858398,11.4690732955933,11.4761571884155,11.483250617981,11.4903526306152,11.4974632263184,11.5045824050903,11.5117111206055,11.5188484191895,11.5259943008423,11.533148765564,11.5403127670288,11.5474853515625,11.5546674728394,11.5618572235107,11.5690574645996,11.576265335083,11.5834827423096,11.590708732605,11.5979442596436,11.6051893234253,11.6124429702759,11.6197052001953,11.6339979171753,11.6593408584595,11.68479347229,11.7103576660156,11.7360343933105,11.7618236541748,11.7877264022827,11.8137435913086,11.8398761749268,11.8661241531372,11.8924884796143,11.9189710617065,11.9455718994141,11.9686155319214,11.9839477539062,11.9993200302124,12.0147314071655,12.0301828384399,12.0456733703613,12.061203956604,12.0767755508423,12.0923871994019,12.1080379486084,12.1237306594849,12.1394634246826,12.155237197876,12.1710529327393,12.1869087219238,12.202805519104,12.2187452316284,12.2347259521484,12.2507476806641,12.2668123245239,12.282919883728,12.2990684509277,12.3152599334717,12.3314943313599,12.3477716445923,12.3640918731689,12.3804550170898,12.3968620300293,12.413311958313,12.4298067092896,12.4463443756104,12.462926864624,12.4795522689819,12.496223449707,12.5129384994507,12.5296983718872,12.5465030670166,12.5633535385132,12.5802488327026,12.5971899032593,12.6141767501831,12.6312093734741,12.6482877731323,12.665412902832,12.6825838088989,12.6998014450073,12.7170658111572,12.7343778610229,12.7517366409302,12.7691431045532,12.7865972518921,12.8040981292725,12.8216485977173,12.8392457962036,12.8568916320801,12.874587059021,12.8923301696777,12.9101228713989,12.9279642105103,12.945855140686,12.9637956619263,12.9817867279053,12.9998273849487,13.0179176330566,13.0360584259033,13.0542507171631,13.0724925994873,13.0907859802246,13.109130859375,13.1275272369385,13.1459760665894,13.164475440979,13.1830282211304,13.2016324996948,13.2202892303467,13.2389993667603,13.2625770568848,13.2898092269897,13.3171539306641,13.344612121582,13.3721828460693,13.3998680114746,13.4276676177979,13.4555835723877,13.4836158752441,13.5117645263672,13.5400314331055,13.568416595459,13.5969209671021,13.625545501709,13.6542911529541,13.6831579208374,13.7121467590332,13.7412595748901,13.7704954147339,13.7998561859131,13.8293428421021,13.8589553833008,13.8886947631836,13.9185628890991,13.948558807373,13.978684425354,14.0089416503906,14.0393285751343,14.0698480606079,14.1005010604858,14.1312875747681,14.6163816452026,14.6988458633423,14.7513914108276,14.8043146133423,14.8576192855835,14.9113092422485,14.9653882980347,15.0198612213135,15.0747318267822,15.1300048828125,15.1856851577759,15.2417764663696,15.2982835769653,15.3552112579346,15.4125642776489,15.47034740448,15.5285654067993,15.5872230529785,15.6463251113892,15.7058773040771,16.540060043335,16.5952110290527,16.6507301330566,16.7066230773926,16.7628936767578,16.819543838501,16.840877532959,16.8414058685303,16.8419342041016,16.8424625396729,16.8429908752441,16.8435192108154,16.8440475463867,16.844575881958,16.8451061248779,16.8456344604492,16.8461627960205,16.8466930389404,16.8472194671631,16.8477478027344,16.8482761383057,16.8488063812256,16.8493366241455,16.8498630523682,16.8503932952881,16.8509216308594,16.8514499664307,16.851978302002,16.8525085449219,16.8530368804932
10.7007837295532,10.7089233398438,10.7170743942261,10.7252388000488,10.7334146499634,10.7416038513184,10.7498054504395,10.7580194473267,10.76624584198,10.7744846343994,10.7827367782593,10.7910003662109,10.799277305603,10.8075675964355,10.8158693313599,10.8241853713989,10.8325128555298,10.8408536911011,10.8479681015015,10.8545064926147,10.8610525131226,10.8676071166992,10.8741683959961,10.8807382583618,10.8873167037964,10.8939018249512,10.9004955291748,10.9070978164673,10.91370677948,10.9203252792358,10.9269504547119,10.9335842132568,10.9402265548706,10.9468765258789,10.9535341262817,10.9602003097534,10.9668750762939,10.973557472229,10.9802474975586,10.986946105957,10.9936532974243,11.0003681182861,11.0070915222168,11.0138235092163,11.0205631256104,11.0273113250732,11.0340671539307,11.0408315658569,11.0476045608521,11.054386138916,11.0611753463745,11.0679731369019,11.074779510498,11.0815935134888,11.0884170532227,11.0952482223511,11.1020879745483,11.1089363098145,11.1157932281494,11.1226577758789,11.1295318603516,11.1364135742188,11.1433048248291,11.150203704834,11.1571111679077,11.1640281677246,11.170952796936,11.1778860092163,11.1848278045654,11.1917791366577,11.1987380981445,11.3111591339111,11.3202533721924,11.3293628692627,11.3384866714478,11.3476257324219,11.3567781448364,11.3659467697144,11.375129699707,11.38330078125,11.3902788162231,11.3972663879395,11.4042625427246,11.4112663269043,11.4182796478271,11.4253015518188,11.4323320388794,11.4393711090088,11.446418762207,11.4534749984741,11.4605398178101,11.4676141738892,11.4746961593628,11.4817876815796,11.4888877868652,11.4959964752197,11.5031147003174,11.5102405548096,11.5173759460449,11.5245199203491,11.5316734313965,11.5388355255127,11.5460062026978,11.5531854629517,11.5603742599487,11.5675716400146,11.5747785568237,11.5819940567017,11.5892190933228,11.5964527130127,11.6036949157715,11.6109466552734,11.6341619491577,11.6595048904419,11.6849584579468,11.7105236053467,11.7362003326416,11.7619905471802,11.7878942489624,11.8139123916626,11.8400449752808,11.8662939071655,11.8926601409912,11.9108095169067,11.9259948730469,11.9412183761597,11.9564809799194,11.9717826843262,11.9871234893799,12.0025033950806,12.0179233551025,12.0333824157715,12.0488815307617,12.0644207000732,12.0799999237061,12.0956201553345,12.1112794876099,12.1269807815552,12.1427221298218,12.158504486084,12.1743278503418,12.1901922225952,12.2060985565186,12.2220458984375,12.2380352020264,12.2540664672852,12.2701396942139,12.2862558364868,12.3024129867554,12.3186130523682,12.3348569869995,12.3511428833008,12.3674716949463,12.3838443756104,12.4002599716187,12.4167194366455,12.4332227706909,12.4497690200806,12.4663600921631,12.4829959869385,12.4996757507324,12.5164003372192,12.5331697463989,12.5499839782715,12.5668439865112,12.5837478637695,12.6006984710693,12.6176948547363,12.6347370147705,12.6518249511719,12.6689596176147,12.6861400604248,12.7033672332764,12.7206420898438,12.7379636764526,12.755331993103,12.7727479934692,12.7902116775513,12.8077239990234,12.8252830505371,12.8428907394409,12.8605470657349,12.8782520294189,12.8960056304932,12.9138078689575,12.9316596984863,12.9495611190796,12.9675121307373,12.9855127334595,13.0035638809204,13.0216646194458,13.03981590271,13.0580186843872,13.0762710571289,13.094575881958,13.1129312515259,13.1313381195068,13.1497964859009,13.1683073043823,13.1868705749512,13.2054862976074,13.2267217636108,13.2538080215454,13.2810039520264,13.3083124160767,13.3357334136963,13.3632678985596,13.3909168243408,13.4186792373657,13.4465579986572,13.474552154541,13.5026626586914,13.530891418457,13.5592384338379,13.5877046585083,13.6162900924683,13.6449966430664,13.6738243103027,13.7027740478516,13.7318458557129,13.7610425949097,13.7903623580933,13.8198089599609,13.8493804931641,13.8790788650513,13.9089050292969,13.9388599395752,13.9689435958862,13.9991579055786,14.0295028686523,14.0599794387817,14.0905895233154,14.1213331222534,14.4186534881592,14.5426578521729,14.5940914154053,14.6458902359009,14.6980571746826,14.7505979537964,14.8035154342651,14.8568143844604,14.9104976654053,14.9645709991455,15.0190382003784,15.0739030838013,15.1291694641113,15.1848430633545,15.2409286499023,15.2974300384521,15.3543510437012,15.4116973876953,15.4694738388062,15.5276851654053,15.5863361358643,15.645432472229,16.5534553527832,16.6086959838867,16.6643085479736,16.6928634643555,16.693380355835,16.6939010620117,16.6944198608398,16.6949405670166,16.6954593658447,16.6959762573242,16.696496963501,16.6970176696777,16.6975364685059,16.698055267334,16.6985740661621,16.6990947723389,16.699613571167,16.7001323699951,16.7006530761719,16.7011699676514,16.7016925811768,16.7022132873535,16.702730178833,16.7032527923584,16.7037696838379,16.7042903900146
10.6752347946167,10.6833343505859,10.6914472579956,10.6995725631714,10.707709312439,10.715859413147,10.7240209579468,10.732195854187,10.7403831481934,10.7485818862915,10.7567939758301,10.7650184631348,10.7732563018799,10.7815055847168,10.7897682189941,10.7980432510376,10.8063306808472,10.8146314620972,10.8229446411133,10.8312711715698,10.8396100997925,10.8479614257812,10.8563261032104,10.8647041320801,10.8730945587158,10.8814973831177,10.8899145126343,10.898344039917,10.9067859649658,10.9152421951294,10.9237108230591,10.9321928024292,10.9406871795654,10.9491958618164,10.9577178955078,10.9662523269653,10.9748001098633,10.983362197876,10.9914464950562,10.9981594085693,11.0048799514771,11.0116081237793,11.0183458328247,11.0250911712646,11.0318441390991,11.0386056900024,11.0453758239746,11.0521545410156,11.0589418411255,11.0657367706299,11.0725402832031,11.0793514251709,11.0861721038818,11.0930004119873,11.0998373031616,11.1066827774048,11.1135368347168,11.1203994750977,11.1272706985474,11.1341495513916,11.1410369873047,11.1479339599609,11.1548385620117,11.1617527008057,11.1686744689941,11.1756048202515,11.182544708252,11.189492225647,11.1964483261108,11.2034139633179,11.2103872299194,11.2826156616211,11.2916641235352,11.3007278442383,11.3098049163818,11.3188972473145,11.3280048370361,11.3371257781982,11.3462619781494,11.3554134368896,11.3645792007446,11.3737602233887,11.3829555511475,11.3921661376953,11.4013910293579,11.4098224639893,11.4168338775635,11.4238538742065,11.4308815002441,11.4379186630249,11.4449653625488,11.4520196914673,11.4590826034546,11.4661550521851,11.4732360839844,11.4803256988525,11.4874229431152,11.4945306777954,11.5016460418701,11.508770942688,11.5159044265747,11.5230464935303,11.530198097229,11.5373582839966,11.544527053833,11.5517044067383,11.5588912963867,11.5660877227783,11.5732917785645,11.5805063247681,11.5877285003662,11.5949602127075,11.609091758728,11.6343250274658,11.6596689224243,11.6851234436035,11.7106895446777,11.736367225647,11.7621583938599,11.7880620956421,11.8140811920166,11.8385591506958,11.8535604476929,11.8685998916626,11.8836765289307,11.8987922668457,11.9139471054077,11.9291391372681,11.9443712234497,11.959641456604,11.9749517440796,11.9903001785278,12.0056886672974,12.0211162567139,12.0365839004517,12.0520915985107,12.0676393508911,12.0832262039185,12.0988550186157,12.11452293396,12.1302318572998,12.1459817886353,12.1617727279663,12.177604675293,12.1934776306152,12.2093925476074,12.2253484725952,12.2413463592529,12.2573871612549,12.2734689712524,12.2895927429199,12.3057594299316,12.3219690322876,12.3382205963135,12.3545160293579,12.3708534240723,12.3872346878052,12.4036598205566,12.4201288223267,12.4366407394409,12.4531965255737,12.4697971343994,12.4864416122437,12.5031299591064,12.5198640823364,12.5366430282593,12.553466796875,12.5703353881836,12.5872497558594,12.604208946228,12.6212148666382,12.6382665634155,12.6553640365601,12.6725082397461,12.6896982192993,12.7069358825684,12.7242202758789,12.741551399231,12.7589292526245,12.7763557434082,12.7938289642334,12.8113508224487,12.8289203643799,12.8465375900269,12.8642044067383,12.8819189071655,12.8996829986572,12.9174957275391,12.935357093811,12.9532690048218,12.971230506897,12.9892406463623,13.0073022842407,13.0254135131836,13.0435762405396,13.06178855896,13.0800523757935,13.0983667373657,13.1167325973511,13.1351509094238,13.1536197662354,13.1721420288086,13.1910610198975,13.2180004119873,13.2450504302979,13.2722110748291,13.2994832992554,13.326868057251,13.3543653488159,13.3819770812988,13.4097023010254,13.4375438690186,13.465500831604,13.4935741424561,13.521764755249,13.5500726699829,13.5785007476807,13.6070470809937,13.6357145309448,13.6645030975342,13.6934127807617,13.7224454879761,13.7516021728516,13.7808818817139,13.8102874755859,13.8398180007935,13.8694763183594,13.8992605209351,13.9291734695435,13.9592161178589,13.9893884658813,14.0196905136108,14.0501251220703,14.0806913375854,14.1113920211792,14.2262029647827,14.3897542953491,14.440110206604,14.490818977356,14.5418863296509,14.5933141708374,14.6451072692871,14.6972694396973,14.7498044967651,14.802716255188,14.8560094833374,14.9096870422363,14.9637546539307,15.0182151794434,15.0730743408203,15.1283349990845,15.1840028762817,15.2400808334351,15.2965755462646,15.3534908294678,15.410831451416,15.4686012268066,15.5268058776855,15.5854501724243,16.5474262237549,16.5479373931885,16.5484466552734,16.548957824707,16.549467086792,16.549976348877,16.5504894256592,16.5509967803955,16.5515098571777,16.5520191192627,16.552526473999,16.5530395507812,16.5535488128662,16.5540618896484,16.5545692443848,16.5550785064697,16.555591583252,16.5561027526855,16.5566120147705,16.5571231842041,16.5576343536377,16.5581436157227
10.6545906066895,10.6578683853149,10.6659421920776,10.6740283966064,10.6821269989014,10.6902379989624,10.6983604431152,10.7064962387085,10.7146434783936,10.722804069519,10.7309770584106,10.739161491394,10.7473592758179,10.7555694580078,10.7637920379639,10.7720279693604,10.7802753448486,10.7885360717773,10.7968091964722,10.8050947189331,10.8133935928345,10.821704864502,10.8300294876099,10.8383665084839,10.846715927124,10.8550786972046,10.8634548187256,10.8718433380127,10.8802442550659,10.8886594772339,10.897087097168,10.9055271148682,10.9139804840088,10.9224472045898,10.9309272766113,10.9394207000732,10.9479274749756,10.956446647644,10.9649791717529,10.9735260009766,10.9820852279663,10.9906578063965,10.9992437362671,11.0078439712524,11.0164566040039,11.0250835418701,11.0337238311768,11.0423774719238,11.0510444641113,11.0597257614136,11.0684194564819,11.0771284103394,11.0858497619629,11.0945854187012,11.1033353805542,11.1120986938477,11.1208753585815,11.1296663284302,11.1384716033936,11.1456651687622,11.15256690979,11.1594772338867,11.1663970947266,11.1733245849609,11.1802616119385,11.1872062683105,11.1941595077515,11.2011222839355,11.2080936431885,11.2150726318359,11.2220611572266,11.2542152404785,11.2632188796997,11.2722368240356,11.281268119812,11.2903146743774,11.2993755340576,11.3084516525269,11.3175411224365,11.3266458511353,11.335765838623,11.3449001312256,11.3540487289429,11.3632125854492,11.3723907470703,11.3815841674805,11.3907918930054,11.4000148773193,11.4092531204224,11.4185066223145,11.4277744293213,11.4364681243896,11.4435119628906,11.4505643844604,11.4576263427734,11.464695930481,11.4717750549316,11.4788627624512,11.4859590530396,11.4930648803711,11.5001783370972,11.5073013305664,11.5144329071045,11.5215730667114,11.5287227630615,11.5358810424805,11.5430488586426,11.5502243041992,11.557409286499,11.564603805542,11.5718059539795,11.5790176391602,11.586238861084,11.6092548370361,11.6344890594482,11.6598339080811,11.6852884292603,11.7108554840088,11.7365341186523,11.7623252868652,11.782000541687,11.7968578338623,11.8117532730103,11.8266868591309,11.8416576385498,11.8566665649414,11.8717136383057,11.8867988586426,11.9019231796265,11.9170846939087,11.9322862625122,11.9475250244141,11.9628047943115,11.9781217575073,11.9934787750244,12.0088758468628,12.0243120193481,12.0397872924805,12.0553035736084,12.0708589553833,12.0864543914795,12.1020908355713,12.1177682876587,12.1334857940674,12.1492433547974,12.1650428771973,12.1808834075928,12.1967649459839,12.2126884460449,12.2286529541016,12.2446603775024,12.2607088088989,12.2767992019653,12.292932510376,12.3091077804565,12.3253259658813,12.3415870666504,12.3578901290894,12.3742370605469,12.3906278610229,12.4070615768433,12.4235391616821,12.4400596618652,12.4566249847412,12.4732351303101,12.4898881912231,12.5065870285034,12.5233297348022,12.5401182174683,12.5569505691528,12.5738286972046,12.5907526016235,12.6077213287354,12.6247367858887,12.6417980194092,12.6589050292969,12.6760587692261,12.6932592391968,12.7105054855347,12.7277994155884,12.7451400756836,12.7625284194946,12.7799644470215,12.7974481582642,12.8149795532227,12.832558631897,12.8501863479614,12.867862701416,12.8855876922607,12.9033613204956,12.9211845397949,12.9390573501587,12.9569787979126,12.974949836731,12.9929714202881,13.011043548584,13.0291652679443,13.0473375320435,13.0655603408813,13.0838346481323,13.1021604537964,13.1205368041992,13.1389656066895,13.1574459075928,13.1823863983154,13.2092905044556,13.2363042831421,13.2634296417236,13.2906656265259,13.3180141448975,13.3454751968384,13.3730497360229,13.4007377624512,13.428542137146,13.4564609527588,13.4844970703125,13.5126495361328,13.5409202575684,13.5693092346191,13.5978174209595,13.6264457702637,13.6551942825317,13.6840658187866,13.7130584716797,13.7421741485596,13.7714147567749,13.8007793426514,13.8302698135376,13.8598861694336,13.889630317688,13.9195013046265,13.949501991272,13.9796323776245,14.0098924636841,14.0402841567993,14.0708074569702,14.1014652252197,14.1322555541992,14.2400321960449,14.2893438339233,14.3389978408813,14.3889989852905,14.4393491744995,14.4900531768799,14.5411148071289,14.5925369262695,14.6443252563477,14.6964817047119,14.7490110397339,14.8019170761108,14.85520362854,14.9088764190674,14.9629373550415,15.0173921585083,15.072244644165,15.1274995803833,15.1831617355347,15.2392339706421,15.2957220077515,15.3526306152344,15.4099645614624,15.4677276611328,15.5259265899658,16.406005859375,16.4065074920654,16.4070072174072,16.4075107574463,16.4080123901367,16.4085121154785,16.4090156555176,16.409517288208,16.4100170135498,16.4105186462402,16.4110221862793,16.4115219116211,16.4120254516602,16.4125270843506,16.413028717041,16.4135303497314,16.4140319824219,16.4145317077637
10.6521625518799,10.653847694397,10.6555328369141,10.6572189331055,10.6589050292969,10.6647386550903,10.6728229522705,10.6809186935425,10.6890277862549,10.6971492767334,10.705283164978,10.7134284973145,10.7215871810913,10.7297582626343,10.737940788269,10.7461366653442,10.7543449401855,10.7625665664673,10.7707996368408,10.7790451049805,10.7873039245605,10.7955751419067,10.8038597106934,10.8121566772461,10.8204660415649,10.8287878036499,10.8371229171753,10.8454713821411,10.853832244873,10.8622055053711,10.8705921173096,10.8789920806885,10.8874044418335,10.8958301544189,10.9042682647705,10.9127197265625,10.9211854934692,10.9296627044678,10.9381542205811,10.9466581344604,10.9551763534546,10.9637069702148,10.9722509384155,10.9808082580566,10.9893789291382,10.9979639053345,11.0065612792969,11.0151720046997,11.0237970352173,11.0324354171753,11.0410871505737,11.0497522354126,11.0584306716919,11.0671234130859,11.0758295059204,11.0845489501953,11.093282699585,11.102029800415,11.1107912063599,11.1195669174194,11.1283550262451,11.1371583938599,11.145975112915,11.154806137085,11.1636505126953,11.1725091934204,11.1813821792603,11.1902685165405,11.1991701126099,11.2080850601196,11.2170143127441,11.2259578704834,11.2349166870117,11.2438888549805,11.252875328064,11.2618761062622,11.2708911895752,11.2799215316772,11.288966178894,11.2980241775513,11.3070974349976,11.3161859512329,11.325288772583,11.3344058990479,11.3435373306274,11.3526840209961,11.3618459701538,11.3710222244263,11.3802127838135,11.3894186019897,11.3986396789551,11.4078760147095,11.4171266555786,11.4263925552368,11.4356727600098,11.4449691772461,11.4542798995972,11.4632377624512,11.4703149795532,11.4774007797241,11.4844951629639,11.4915990829468,11.4987115859985,11.5058326721191,11.5129623413086,11.5201005935669,11.5272483825684,11.5344047546387,11.5415697097778,11.5487442016602,11.5559272766113,11.5631198883057,11.5703210830688,11.5842914581299,11.6094179153442,11.6346530914307,11.6599979400635,11.685453414917,11.7110214233398,11.7259788513184,11.7406959533691,11.7554502487183,11.7702407836914,11.7850694656372,11.7999353408813,11.8148384094238,11.829779624939,11.8447580337524,11.8597745895386,11.8748302459717,11.8899230957031,11.9050550460815,11.9202251434326,11.9354333877563,11.9506816864014,11.965968132019,11.981294631958,11.9966592788696,12.0120639801025,12.0275087356567,12.0429925918579,12.0585165023804,12.0740804672241,12.0896844863892,12.1053295135498,12.1210145950317,12.1367406845093,12.1525068283081,12.1683149337769,12.1841640472412,12.2000541687012,12.2159862518311,12.2319593429565,12.2479753494263,12.2640323638916,12.2801313400269,12.2962732315063,12.3124580383301,12.3286848068237,12.3449544906616,12.3612670898438,12.3776235580444,12.394021987915,12.4104652404785,12.4269514083862,12.4434814453125,12.4600563049316,12.4766750335693,12.4933376312256,12.5100450515747,12.5267972946167,12.5435943603516,12.5604372024536,12.5773248672485,12.5942573547363,12.6112365722656,12.6282606124878,12.6453313827515,12.6624479293823,12.6796112060547,12.6968212127686,12.7140779495239,12.7313814163208,12.7487325668335,12.7661304473877,12.7835760116577,12.8010692596436,12.8186101913452,12.836199760437,12.8538379669189,12.8715238571167,12.8892593383789,12.9070434570312,12.9248762130737,12.9427585601807,12.9606904983521,12.9786720275879,12.9967041015625,13.0147867202759,13.0329189300537,13.0511016845703,13.0693349838257,13.0876197814941,13.1059560775757,13.124342918396,13.1469631195068,13.1737232208252,13.2005910873413,13.2275695800781,13.2546586990356,13.2818593978882,13.3091707229614,13.3365955352783,13.3641338348389,13.3917856216431,13.4195518493652,13.4474334716797,13.4754314422607,13.5035467147827,13.5317792892456,13.5601301193237,13.5885992050171,13.6171884536743,13.6458988189697,13.6747303009033,13.7036838531494,13.7327604293823,13.7619600296021,13.7912845611572,13.8207340240479,13.8503103256226,13.880012512207,13.9098424911499,13.9398012161255,13.9698896408081,14.0001077651978,14.0304565429688,14.0609378814697,14.0915517807007,14.1197805404663,14.1384420394897,14.1496353149414,14.1903257369995,14.2392930984497,14.2885990142822,14.3382482528687,14.3882436752319,14.4385890960693,14.4892873764038,14.5403432846069,14.591760635376,14.6435422897339,14.6956939697266,14.7482175827026,14.8011178970337,14.854398727417,14.9080657958984,14.9621210098267,15.0165700912476,15.0714168548584,15.1266651153564,15.1823205947876,15.2383871078491,15.2948684692383,15.3517713546753,15.4090986251831,15.4668550491333,16.2669830322266,16.2674751281738,16.2679672241211,16.2684593200684,16.2689533233643,16.2694454193115,16.2699394226074,16.2704315185547,16.2709255218506,16.2714195251465,16.2719135284424,16.2724056243896,16.2728958129883,16.2733936309814
10.6497364044189,10.6514205932617,10.6531047821045,10.6547899246216,10.6564750671387,10.6581611633301,10.6598482131958,10.6615352630615,10.6635341644287,10.6716165542603,10.6797113418579,10.6878185272217,10.6959381103516,10.7040700912476,10.7122144699097,10.7203702926636,10.7285394668579,10.7367210388184,10.7449150085449,10.7531213760376,10.7613401412964,10.7695713043213,10.7778158187866,10.7860727310181,10.7943420410156,10.8026237487793,10.8109188079834,10.8192262649536,10.8275470733643,10.835880279541,10.8442258834839,10.8525848388672,10.8609571456909,10.8693418502808,10.8777389526367,10.8861494064331,10.8945732116699,10.9030103683472,10.9114599227905,10.9199228286743,10.9283990859985,10.9368877410889,10.9453907012939,10.9539060592651,10.9624347686768,10.9709768295288,10.9795322418213,10.9881010055542,10.9966831207275,11.0052795410156,11.0138883590698,11.0225105285645,11.0311470031738,11.0397968292236,11.0484600067139,11.0571365356445,11.0658273696899,11.0745315551758,11.0832490921021,11.0919809341431,11.1007261276245,11.1094846725464,11.118257522583,11.1270446777344,11.1358451843262,11.1446599960327,11.153489112854,11.1623315811157,11.1711883544922,11.1800584793091,11.188943862915,11.1978425979614,11.2067556381226,11.2156829833984,11.2246246337891,11.2335805892944,11.2425508499146,11.2515344619751,11.2605333328247,11.2695474624634,11.2785749435425,11.2876167297363,11.2966737747192,11.3057451248169,11.3148307800293,11.3239307403564,11.3330459594727,11.3421754837036,11.3513202667236,11.3604793548584,11.3696537017822,11.3788423538208,11.3880462646484,11.3972644805908,11.4064979553223,11.4157466888428,11.4250106811523,11.4342889785767,11.44358253479,11.4528913497925,11.462215423584,11.4715547561646,11.4809083938599,11.4901342391968,11.4972448348999,11.5043640136719,11.5114917755127,11.5186281204224,11.5257740020752,11.5329284667969,11.5400924682617,11.5472640991211,11.5544462203979,11.5616359710693,11.5844535827637,11.609580039978,11.6348161697388,11.6559467315674,11.6704883575439,11.6850662231445,11.6996803283691,11.7143316268921,11.7290191650391,11.7437438964844,11.758505821228,11.7733039855957,11.788140296936,11.8030138015747,11.8179244995117,11.8328733444214,11.8478603363037,11.8628845214844,11.877947807312,11.8930492401123,11.9081888198853,11.9233665466309,11.9385833740234,11.953839302063,11.9691343307495,11.9844675064087,11.9998416900635,12.0152540206909,12.030707359314,12.0461988449097,12.061731338501,12.0773038864136,12.0929164886475,12.1085691452026,12.1242628097534,12.1399974822998,12.1557722091675,12.1715888977051,12.1874465942383,12.2033452987671,12.2192859649658,12.2352676391602,12.2512912750244,12.2673578262329,12.2834663391113,12.2996168136597,12.3158092498779,12.3320455551147,12.3483238220215,12.3646459579468,12.3810110092163,12.3974189758301,12.4138708114624,12.430365562439,12.4469051361084,12.4634885787964,12.4801168441772,12.4967889785767,12.5135059356689,12.5302667617798,12.5470733642578,12.5639247894287,12.5808219909668,12.5977649688721,12.6147527694702,12.6317873001099,12.6488666534424,12.6659936904907,12.6831665039062,12.7003860473633,12.7176523208618,12.7349653244019,12.7523260116577,12.7697334289551,12.7871894836426,12.8046922683716,12.8222436904907,12.8398427963257,12.8574905395508,12.875186920166,12.8929319381714,12.9107265472412,12.9285697937012,12.9464626312256,12.9644050598145,12.9823970794678,13.0004386901855,13.0185317993164,13.0366744995117,13.0548677444458,13.0731115341187,13.0914068222046,13.1117305755615,13.1383466720581,13.1650705337524,13.1919040679932,13.2188472747803,13.2459001541138,13.2730646133423,13.3003406524658,13.3277282714844,13.3552303314209,13.3828449249268,13.4105739593506,13.4384183883667,13.4663791656494,13.4944562911987,13.522650718689,13.5509624481201,13.5793943405151,13.6079444885254,13.6366157531738,13.6654081344604,13.6943216323853,13.7233581542969,13.7525186538696,13.7818021774292,13.8112115859985,13.8407468795776,13.8704080581665,13.9001970291138,13.9301137924194,13.9601602554321,13.9903364181519,14.0206432342529,14.0510816574097,14.0762033462524,14.1011333465576,14.1246137619019,14.1357851028442,14.1469736099243,14.1581802368164,14.1694049835205,14.1895904541016,14.2385530471802,14.2878541946411,14.337498664856,14.3874883651733,14.4378280639648,14.4885215759277,14.5395727157593,14.5909843444824,14.6427602767944,14.6949062347412,14.7474241256714,14.8003187179565,14.8535938262939,14.9072542190552,14.9613037109375,15.0157470703125,15.0705881118774,15.1258306503296,15.1814794540405,15.2375392913818,15.2940158843994,15.3509111404419,15.4082317352295,16.1302947998047,16.1307792663574,16.1312637329102,16.1317501068115,16.1322345733643,16.132719039917,16.1332015991211,16.1336879730225,16.1341724395752,16.1346588134766
10.6473112106323,10.6489944458008,10.6506776809692,10.652361869812,10.6540470123291,10.6557321548462,10.6574182510376,10.659104347229,10.6607913970947,10.6624784469604,10.6641664505005,10.6658554077148,10.6704120635986,10.6785049438477,10.6866102218628,10.6947269439697,10.7028570175171,10.7109994888306,10.7191543579102,10.7273216247559,10.7355012893677,10.7436933517456,10.7518978118896,10.7601146697998,10.7683439254761,10.7765865325928,10.7848415374756,10.7931089401245,10.8013887405396,10.809681892395,10.8179874420166,10.8263063430786,10.8346376419067,10.842981338501,10.8513383865356,10.8597078323364,10.8680906295776,10.8764867782593,10.884895324707,10.8933172225952,10.9017515182495,10.9102001190186,10.9186601638794,10.927134513855,10.935622215271,10.9441223144531,10.9526357650757,10.9611625671387,10.9697027206421,10.9782562255859,10.9868230819702,10.9954032897949,11.0039968490601,11.0126047134399,11.0212249755859,11.0298585891724,11.0385065078735,11.0471677780151,11.0558423995972,11.0645313262939,11.0732326507568,11.0819492340088,11.0906782150269,11.0994215011597,11.1081790924072,11.1169500350952,11.1257343292236,11.1345329284668,11.1433458328247,11.152172088623,11.1610126495361,11.169867515564,11.1787357330322,11.1876182556152,11.196515083313,11.2054262161255,11.2143516540527,11.2232913970947,11.2322444915771,11.2412128448486,11.2501955032349,11.2591915130615,11.2682027816772,11.2772283554077,11.2862682342529,11.2953233718872,11.3043918609619,11.3134756088257,11.3225736618042,11.3316869735718,11.3408145904541,11.3499565124512,11.3591136932373,11.3682851791382,11.3774719238281,11.3866739273071,11.3958902359009,11.4051208496094,11.4143676757812,11.4236288070679,11.4329051971436,11.4421968460083,11.4515027999878,11.4608249664307,11.4701614379883,11.4795141220093,11.488881111145,11.4982633590698,11.507661819458,11.5170745849609,11.5243005752563,11.5314531326294,11.5386142730713,11.5457849502563,11.5595970153809,11.5846157073975,11.6011152267456,11.6155204772949,11.6299610137939,11.644437789917,11.6589508056641,11.6735000610352,11.6880855560303,11.7027072906494,11.7173652648926,11.7320613861084,11.7467927932739,11.7615623474121,11.7763690948486,11.7912130355835,11.8060941696167,11.8210124969482,11.8359689712524,11.8509635925293,11.8659963607788,11.881067276001,11.8961763381958,11.9113235473633,11.9265098571777,11.9417352676392,11.9569988250732,11.9723014831543,11.9876432418823,12.0030250549316,12.0184469223022,12.0339069366455,12.0494070053101,12.0649480819702,12.0805292129517,12.0961494445801,12.1118106842041,12.1275129318237,12.143256187439,12.1590394973755,12.1748647689819,12.1907300949097,12.2066383361816,12.2225866317749,12.2385778427124,12.2546100616455,12.2706851959229,12.2868022918701,12.3029613494873,12.3191633224487,12.3354082107544,12.35169506073,12.3680257797241,12.3843994140625,12.4008169174194,12.4172773361206,12.4337825775146,12.4503307342529,12.4669237136841,12.4835605621338,12.5002422332764,12.5169677734375,12.5337381362915,12.5505542755127,12.5674152374268,12.584321975708,12.6012735366821,12.6182708740234,12.6353149414062,12.6524047851562,12.6695404052734,12.6867227554321,12.7039518356323,12.7212285995483,12.7385511398315,12.7559213638306,12.7733392715454,12.7908039093018,12.8083171844482,12.8258790969849,12.843487739563,12.8611459732056,12.8788528442383,12.8966073989868,12.9144124984741,12.9322652816772,12.9501686096191,12.9681215286255,12.9861240386963,13.0041761398315,13.0222787857056,13.0404319763184,13.0586357116699,13.0768909454346,13.10315990448,13.1297407150269,13.1564302444458,13.1832284927368,13.2101354598999,13.2371530532837,13.2642812728882,13.291522026062,13.3188734054565,13.3463382720947,13.3739156723022,13.4016084671021,13.4294157028198,13.4573383331299,13.4853782653809,13.5135345458984,13.5418081283569,13.570200920105,13.5987129211426,13.627345085144,13.6560983657837,13.6849727630615,13.7139701843262,13.7430896759033,13.7723340988159,13.8017024993896,13.8311967849731,13.8608169555664,13.8905649185181,13.9204406738281,13.9504451751709,13.9805793762207,14.0082063674927,14.0328950881958,14.057671546936,14.0825357437134,14.1074876785278,14.1219606399536,14.1331281661987,14.1443128585815,14.1555156707764,14.1667356491089,14.1779737472534,14.1892290115356,14.2005033493042,14.237813949585,14.287109375,14.3367481231689,14.3867330551147,14.4370679855347,14.4877557754517,14.5388011932373,14.5902070999146,14.641978263855,14.6941175460815,14.7466306686401,14.7995195388794,14.8527889251709,14.9064435958862,14.9604873657227,15.0149240493774,15.0697593688965,15.1249961853027,15.1806383132935,15.2366924285889,15.2931623458862,15.3500518798828,15.9958848953247,15.9963617324829,15.9968385696411,15.9973163604736,15.9977931976318,15.9982681274414
10.64488697052,10.6465692520142,10.6482524871826,10.6499357223511,10.6516199111938,10.6533041000366,10.6549892425537,10.6566753387451,10.6583614349365,10.6600475311279,10.6617345809937,10.6634225845337,10.6651105880737,10.6667995452881,10.6684894561768,10.6701784133911,10.6772975921631,10.6854009628296,10.6935167312622,10.7016448974609,10.7097854614258,10.7179384231567,10.7261037826538,10.734281539917,10.7424716949463,10.7506742477417,10.7588891983032,10.7671165466309,10.7753572463989,10.7836103439331,10.7918758392334,10.8001546859741,10.8084449768066,10.8167486190796,10.825065612793,10.8333950042725,10.8417367935181,10.8500919342041,10.8584604263306,10.8668413162231,10.8752346038818,10.883641242981,10.8920612335205,10.9004936218262,10.9089403152466,10.9173984527588,10.9258708953857,10.9343566894531,10.9428548812866,10.9513664245605,10.9598913192749,10.9684295654297,10.9769811630249,10.9855461120605,10.9941244125366,11.0027160644531,11.0113210678101,11.0199394226074,11.0285711288452,11.0372171401978,11.0458765029907,11.0545492172241,11.0632352828979,11.0719356536865,11.0806493759155,11.089376449585,11.0981178283691,11.1068725585938,11.1156415939331,11.1244239807129,11.1332206726074,11.1420316696167,11.1508560180664,11.1596946716309,11.1685466766357,11.1774129867554,11.1862936019897,11.1951885223389,11.2040977478027,11.213020324707,11.2219581604004,11.2309093475342,11.239875793457,11.2488555908203,11.2578496932983,11.2668590545654,11.2758827209473,11.2849206924438,11.2939729690552,11.3030395507812,11.3121213912964,11.3212175369263,11.3303279876709,11.3394527435303,11.3485927581787,11.3577480316162,11.3669176101685,11.3761024475098,11.3853015899658,11.3945150375366,11.4037446975708,11.4129886627197,11.4222478866577,11.4315214157104,11.4408111572266,11.4501152038574,11.4594345092773,11.4687690734863,11.4781188964844,11.4874839782715,11.4968643188477,11.5062599182129,11.5156707763672,11.5250978469849,11.5345392227173,11.5467967987061,11.5610675811768,11.5753726959229,11.589714050293,11.6040906906128,11.6185035705566,11.6329517364502,11.6474361419678,11.6619558334351,11.6765127182007,11.6911058425903,11.705735206604,11.720401763916,11.7351045608521,11.7498435974121,11.7646207809448,11.7794351577759,11.7942867279053,11.809175491333,11.8241024017334,11.8390665054321,11.8540697097778,11.8691091537476,11.8841876983643,11.8993053436279,11.9144611358643,11.9296550750732,11.9448881149292,11.9601593017578,11.9754705429077,11.9908208847046,12.0062112808228,12.0216398239136,12.0371084213257,12.0526180267334,12.0681667327881,12.0837554931641,12.0993852615356,12.1150541305542,12.1307649612427,12.1465167999268,12.1623086929321,12.1781415939331,12.194016456604,12.2099323272705,12.2258901596069,12.241888999939,12.2579307556152,12.2740144729614,12.2901401519775,12.3063077926636,12.3225183486938,12.3387718200684,12.3550691604614,12.3714075088501,12.3877906799316,12.4042167663574,12.4206867218018,12.4372005462646,12.4537582397461,12.4703598022461,12.487006187439,12.5036964416504,12.5204315185547,12.5372123718262,12.5540370941162,12.5709075927734,12.5878229141235,12.6047849655151,12.6217918395996,12.6388444900513,12.6559438705444,12.6730899810791,12.690281867981,12.7075204849243,12.7248067855835,12.7421388626099,12.7595186233521,12.7769470214844,12.7944221496582,12.8119449615479,12.8295164108276,12.8471355438232,12.864803314209,12.8825197219849,12.9002857208252,12.9180994033813,12.9359636306763,12.9538764953613,12.9718399047852,12.9898519515991,13.0079154968262,13.0260286331177,13.0441923141479,13.0681610107422,13.0945997238159,13.1211462020874,13.147801399231,13.1745643615723,13.2014360427856,13.2284183502197,13.2555103302002,13.2827138900757,13.3100299835205,13.3374576568604,13.3649988174438,13.3926544189453,13.4204244613647,13.4483098983765,13.4763116836548,13.504430770874,13.5326662063599,13.5610208511353,13.5894947052002,13.6180877685547,13.646800994873,13.6756362915039,13.7045936584473,13.7336740493774,13.7628784179688,13.7922067642212,13.8216600418091,13.8512392044067,13.8809461593628,13.9107799530029,13.9407434463501,13.9653148651123,13.9898529052734,14.014476776123,14.0391883850098,14.0639867782593,14.0888729095459,14.1081647872925,14.119309425354,14.1304721832275,14.1416530609131,14.1528511047363,14.1640672683716,14.1753015518188,14.1865530014038,14.1978225708008,14.2091093063354,14.2204151153564,14.2370738983154,14.2863645553589,14.3359985351562,14.3859777450562,14.4363079071045,14.4869899749756,14.5380296707153,14.589430809021,14.6411962509155,14.6933298110962,14.7458372116089,14.7987203598022,14.8519840240479,14.9056329727173,14.9596710205078,15.0141019821167,15.0689306259155,15.1241617202759,15.1797981262207,15.2358455657959,15.8632278442383,15.863697052002,15.8641662597656
10.642463684082,10.6441459655762,10.645827293396,10.6475105285645,10.6491937637329,10.6508769989014,10.6525611877441,10.6542463302612,10.6559314727783,10.6576175689697,10.6593046188354,10.6609907150269,10.6626787185669,10.6643667221069,10.666054725647,10.6677446365356,10.66943359375,10.671124458313,10.6728143692017,10.6760911941528,10.6841926574707,10.6923065185547,10.7004327774048,10.708571434021,10.7167224884033,10.7248859405518,10.7330617904663,10.741250038147,10.7494506835938,10.7576637268066,10.76589012146,10.7741289138794,10.7823791503906,10.7906436920166,10.7989196777344,10.8072090148926,10.8155107498169,10.8238258361816,10.8321533203125,10.8404932022095,10.8488464355469,10.8572120666504,10.8655910491943,10.8739833831787,10.8823881149292,10.8908052444458,10.8992366790771,10.9076805114746,10.9161376953125,10.9246072769165,10.9330911636353,10.9415874481201,10.9500970840454,10.9586200714111,10.9671564102173,10.9757061004639,10.9842681884766,10.992844581604,11.0014343261719,11.0100374221802,11.0186538696289,11.0272836685181,11.035927772522,11.0445852279663,11.0532560348511,11.0619401931763,11.0706377029419,11.0793495178223,11.0880746841431,11.0968141555786,11.1055669784546,11.1143341064453,11.1231145858765,11.1319093704224,11.1407175064087,11.1495399475098,11.1583766937256,11.1672267913818,11.1760911941528,11.1849699020386,11.1938619613647,11.20276927948,11.2116899490356,11.2206249237061,11.2295742034912,11.2385387420654,11.2475166320801,11.2565088272095,11.2655153274536,11.2745370864868,11.2835721969604,11.2926225662231,11.3016872406006,11.3107662200928,11.319860458374,11.32896900177,11.3380918502808,11.3472299575806,11.3563823699951,11.3655500411987,11.3747320175171,11.3839292526245,11.393141746521,11.4023685455322,11.4116096496582,11.4208669662476,11.4301385879517,11.4394254684448,11.4487276077271,11.4580450057983,11.4673767089844,11.4767246246338,11.4860877990723,11.4954652786255,11.5048589706421,11.5142679214478,11.5236921310425,11.5301303863525,11.5356492996216,11.5640230178833,11.5783357620239,11.5926837921143,11.6070680618286,11.6214876174927,11.6359434127808,11.6504354476929,11.6649627685547,11.6795272827148,11.6941270828247,11.7087650299072,11.7234382629395,11.73814868927,11.7528963088989,11.7676811218262,11.7825031280518,11.7973623275757,11.8122587203979,11.8271932601929,11.8421659469604,11.8571758270264,11.8722248077393,11.8873109817505,11.9024362564087,11.9175996780396,11.9328012466431,11.9480428695679,11.9633226394653,11.9786415100098,11.9940004348755,12.0093975067139,12.0248355865479,12.0403127670288,12.0558300018311,12.0713863372803,12.0869836807251,12.1026210784912,12.1182994842529,12.1340188980103,12.1497783660889,12.1655788421631,12.1814212799072,12.1973037719727,12.213228225708,12.2291946411133,12.2452030181885,12.2612533569336,12.2773447036743,12.2934799194336,12.3096561431885,12.3258762359619,12.3421382904053,12.3584432601929,12.374792098999,12.3911838531494,12.4076194763184,12.4240980148315,12.4406204223633,12.4571876525879,12.4737987518311,12.4904537200928,12.5071535110474,12.5238981246948,12.5406875610352,12.5575218200684,12.5744018554688,12.591326713562,12.6082973480225,12.6253137588501,12.6423768997192,12.6594858169556,12.6766405105591,12.6938428878784,12.7110910415649,12.7283868789673,12.7457284927368,12.7631187438965,12.7805557250977,12.798041343689,12.8155746459961,12.833155632019,12.8507852554321,12.868462562561,12.8861894607544,12.9039649963379,12.9217891693115,12.9396629333496,12.9575872421265,12.9755601882935,12.9935827255249,13.0116567611694,13.0333480834961,13.0596466064453,13.086051940918,13.1125631332397,13.1391830444336,13.1659107208252,13.1927471160889,13.2196941375732,13.246750831604,13.2739181518555,13.3011980056763,13.3285894393921,13.3560943603516,13.3837127685547,13.4114456176758,13.4392938613892,13.4672584533691,13.4953384399414,13.5235366821289,13.5518531799316,13.5802879333496,13.6088418960571,13.6375169754028,13.6663131713867,13.6952304840088,13.724271774292,13.7534351348877,13.7827234268188,13.8121366500854,13.8416748046875,13.8713407516479,13.8983821868896,13.9226846694946,13.9470729827881,13.97154712677,13.9961071014404,14.0207538604736,14.0454874038696,14.0703077316284,14.0943946838379,14.1055183410645,14.1166591644287,14.127818107605,14.1389942169189,14.1501884460449,14.1613998413086,14.1726293563843,14.183876991272,14.1951427459717,14.2064256668091,14.2177267074585,14.2290458679199,14.2403831481934,14.2517375946045,14.2856206893921,14.3352489471436,14.3852233886719,14.435546875,14.4862241744995,14.5372591018677,14.5886545181274,14.6404142379761,14.6925430297852,14.7450437545776,14.7979211807251,14.8511800765991,14.9048223495483,14.958854675293,15.013279914856,15.0681018829346,15.123327255249
10.6400423049927,10.6417226791382,10.643404006958,10.6450862884521,10.6467685699463,10.6484518051147,10.6501350402832,10.651819229126,10.6535034179688,10.6551885604858,10.6568746566772,10.6585607528687,10.6602478027344,10.6619348526001,10.6636228561401,10.6653108596802,10.6669998168945,10.6686887741089,10.6703786849976,10.6720695495605,10.6737604141235,10.6754522323608,10.6771440505981,10.6829843521118,10.6910963058472,10.6992206573486,10.7073574066162,10.7155065536499,10.7236680984497,10.7318420410156,10.7400283813477,10.7482280731201,10.7564392089844,10.7646636962891,10.7728996276855,10.7811489105225,10.7894105911255,10.7976856231689,10.8059730529785,10.8142728805542,10.822585105896,10.8309106826782,10.8392496109009,10.8476009368896,10.8559646606445,10.8643417358398,10.8727312088013,10.8811340332031,10.8895502090454,10.8979787826538,10.906421661377,10.9148759841919,10.9233446121216,10.9318256378174,10.9403200149536,10.9488277435303,10.9573488235474,10.9658832550049,10.9744310379028,10.9829912185669,10.9915657043457,11.0001535415649,11.0087547302246,11.0173692703247,11.0259971618652,11.0346384048462,11.0432939529419,11.051962852478,11.0606451034546,11.0693407058716,11.0780506134033,11.0867738723755,11.0955104827881,11.1042613983154,11.1130266189575,11.12180519104,11.130597114563,11.139404296875,11.1482238769531,11.1570587158203,11.1659069061279,11.1747694015503,11.1836452484131,11.1925363540649,11.2014408111572,11.2103595733643,11.219292640686,11.2282400131226,11.2372016906738,11.2461776733398,11.2551679611206,11.2641725540161,11.2731914520264,11.2822246551514,11.2912731170654,11.3003358840942,11.3094129562378,11.3185043334961,11.3276109695435,11.3367319107056,11.3458671569824,11.3550176620483,11.3641834259033,11.3733625411987,11.3825578689575,11.3917675018311,11.4009923934937,11.410231590271,11.4194860458374,11.4287557601929,11.4380407333374,11.4473400115967,11.4566555023193,11.4659852981567,11.4753303527832,11.484691619873,11.4940671920776,11.5034580230713,11.512864112854,11.5187501907349,11.5242586135864,11.5297727584839,11.5669794082642,11.5812997817993,11.5956554412842,11.6100463867188,11.6244745254517,11.63893699646,11.6534366607666,11.6679716110229,11.6825428009033,11.697151184082,11.7117958068848,11.7264776229858,11.7411956787109,11.7559509277344,11.7707424163818,11.7855730056763,11.8004388809204,11.8153438568115,11.830286026001,11.8452663421631,11.8602848052979,11.875340461731,11.890435218811,11.9055681228638,11.9207401275635,11.9359493255615,11.9511985778809,11.9664869308472,11.9818143844604,11.9971809387207,12.0125865936279,12.0280323028564,12.0435180664062,12.059042930603,12.0746088027954,12.0902137756348,12.105860710144,12.1215467453003,12.1372737884521,12.1530418395996,12.168851852417,12.1847019195557,12.2005929946899,12.2165269851685,12.2325010299683,12.2485179901123,12.2645769119263,12.2806777954102,12.296820640564,12.313006401062,12.3292350769043,12.3455066680908,12.3618202209473,12.3781776428223,12.3945789337158,12.4110231399536,12.42751121521,12.4440422058105,12.4606189727783,12.4772386550903,12.4939031600952,12.510612487793,12.5273656845093,12.5441646575928,12.5610084533691,12.5778970718384,12.5948324203491,12.6118125915527,12.6288385391235,12.6459102630615,12.663028717041,12.680193901062,12.6974048614502,12.7146635055542,12.7319688796997,12.7493209838867,12.7667207717896,12.7841682434082,12.8016624450684,12.8192052841187,12.8367967605591,12.8544359207153,12.8721237182617,12.8898611068726,12.9076461791992,12.9254817962646,12.9433650970459,12.9612989425659,12.9792823791504,12.9987211227417,13.0248794555664,13.0511436462402,13.0775146484375,13.1039915084839,13.130576133728,13.1572694778442,13.1840705871582,13.2109813690186,13.2380027770996,13.2651348114014,13.2923774719238,13.3197326660156,13.3472013473511,13.3747825622559,13.4024791717529,13.430290222168,13.4582166671753,13.4862594604492,13.5144195556641,13.5426969528198,13.5710935592651,13.599609375,13.6282453536987,13.6570024490356,13.6858806610107,13.7148809432983,13.7440052032471,13.7732534408569,13.8026256561279,13.8320875167847,13.8561592102051,13.8803148269653,13.9045543670654,13.928879737854,13.9532890319824,13.9777851104736,14.0023670196533,14.0270357131958,14.0517911911011,14.0766344070435,14.0917539596558,14.1028728485107,14.1140098571777,14.1251649856567,14.1363363265991,14.1475267410278,14.1587343215942,14.1699590682983,14.1812028884888,14.1924638748169,14.2037420272827,14.2150392532349,14.2263536453247,14.2376871109009,14.2490377426147,14.2604064941406,14.2717943191528,14.284875869751,14.3344993591309,14.3844680786133,14.4347867965698,14.4854593276978,14.5364875793457,14.5878782272339,14.6396322250366,14.6917552947998,14.7442502975464,14.7971229553223,14.8503751754761
10.6376209259033,10.6393013000488,10.6409816741943,10.6426630020142,10.644344329834,10.6460266113281,10.6477098464966,10.649393081665,10.6510763168335,10.6527614593506,10.6544456481934,10.6561317443848,10.6578168869019,10.6595039367676,10.6611909866333,10.662878036499,10.6645660400391,10.6662549972534,10.6679439544678,10.6696338653564,10.6713237762451,10.6730146408081,10.6747064590454,10.6763982772827,10.67809009552,10.679783821106,10.6817770004272,10.689887046814,10.6980094909668,10.7061443328857,10.7142915725708,10.722451210022,10.7306232452393,10.7388076782227,10.7470054626465,10.7552146911621,10.7634372711182,10.771671295166,10.7799186706543,10.7881784439087,10.7964515686035,10.8047370910645,10.8130350112915,10.821346282959,10.8296689987183,10.8380060195923,10.8463554382324,10.8547172546387,10.8630924224854,10.8714799880981,10.8798809051514,10.888295173645,10.8967218399048,10.905161857605,10.9136152267456,10.9220819473267,10.9305610656738,10.9390535354614,10.9475593566895,10.9560785293579,10.9646100997925,10.9731559753418,10.9817152023315,10.9902868270874,10.998872756958,11.007472038269,11.0160846710205,11.0247106552124,11.0333499908447,11.0420026779175,11.050669670105,11.0593500137329,11.0680437088013,11.0767517089844,11.0854730606079,11.0942077636719,11.1029567718506,11.1117191314697,11.1204957962036,11.1292858123779,11.138090133667,11.1469087600708,11.155740737915,11.164587020874,11.1734476089478,11.1823215484619,11.1912097930908,11.2001123428345,11.2090291976929,11.217960357666,11.2269058227539,11.2358646392822,11.2448387145996,11.2538270950317,11.2628297805786,11.2718467712402,11.2808780670166,11.2899236679077,11.2989835739136,11.3080587387085,11.3171482086182,11.3262529373169,11.3353710174561,11.3445053100586,11.3536529541016,11.3628158569336,11.3719940185547,11.3811864852905,11.3903942108154,11.3996162414551,11.4088535308838,11.4181060791016,11.4273738861084,11.43665599823,11.4459533691406,11.4552659988403,11.4645938873291,11.4739370346069,11.4832954406738,11.4926691055298,11.5019006729126,11.5073928833008,11.5128908157349,11.5183935165405,11.5239019393921,11.5416164398193,11.584264755249,11.5986280441284,11.6130275726318,11.6274614334106,11.6419315338135,11.6564388275146,11.6709814071655,11.6855611801147,11.7001762390137,11.7148284912109,11.7295179367065,11.7442436218262,11.7590065002441,11.7738065719604,11.7886438369751,11.8035182952881,11.8184309005737,11.8333806991577,11.8483686447144,11.8633947372437,11.8784589767456,11.8935613632202,11.9087018966675,11.9238815307617,11.9390993118286,11.9543571472168,11.9696531295776,11.9849882125854,12.0003633499146,12.0157775878906,12.0312309265137,12.0467252731323,12.0622577667236,12.0778322219849,12.0934457778931,12.1091003417969,12.1247959136963,12.140531539917,12.1563081741333,12.1721258163452,12.1879844665527,12.2038841247559,12.2198266983032,12.2358102798462,12.2518348693848,12.2679023742676,12.2840127944946,12.3001642227173,12.3163595199585,12.3325958251953,12.3488759994507,12.3651990890503,12.3815660476685,12.3979759216309,12.4144287109375,12.4309253692627,12.4474668502808,12.4640512466431,12.4806804656982,12.4973545074463,12.5140724182129,12.5308361053467,12.547643661499,12.5644969940186,12.581395149231,12.5983390808105,12.6153297424316,12.6323652267456,12.6494464874268,12.6665744781494,12.6837491989136,12.7009696960449,12.7182378768921,12.7355527877808,12.7529144287109,12.7703237533569,12.7877817153931,12.8052864074707,12.8228387832642,12.8404397964478,12.8580894470215,12.8757877349854,12.8935346603394,12.9113302230835,12.9291753768921,12.9470691680908,12.9650135040283,12.9902973175049,13.0164222717285,13.042652130127,13.0689878463745,13.0954313278198,13.1219806671143,13.1486387252808,13.1754055023193,13.20228099823,13.229266166687,13.2563619613647,13.2835693359375,13.3108882904053,13.3383197784424,13.3658647537231,13.3935241699219,13.4212980270386,13.4491872787476,13.4771919250488,13.505313873291,13.5335540771484,13.5619125366211,13.590389251709,13.6189861297607,13.6477041244507,13.6765432357788,13.7055044174194,13.7345886230469,13.7637958526611,13.7902660369873,13.8141918182373,13.8382015228271,13.8622941970825,13.8864717483521,13.9107332229614,13.935079574585,13.9595108032227,13.9840288162231,14.0086326599121,14.0333232879639,14.0581016540527,14.0780162811279,14.0891141891479,14.1002292633057,14.1113615036011,14.1225118637085,14.1336803436279,14.1448650360107,14.1560688018799,14.1672897338867,14.1785287857056,14.1897859573364,14.201060295105,14.2123527526855,14.2236633300781,14.2349920272827,14.2463388442993,14.2577028274536,14.2690858840942,14.2804870605469,14.2919063568115,14.3033437728882,14.3337497711182,14.383713722229,14.4340267181396,14.4846935272217,14.535717010498,14.5871019363403
10.6352014541626,10.6368808746338,10.638560295105,10.6402406692505,10.6419219970703,10.6436033248901,10.6452856063843,10.6469678878784,10.6486511230469,10.6503343582153,10.6520185470581,10.6537027359009,10.6553888320923,10.6570739746094,10.6587600708008,10.6604471206665,10.6621341705322,10.6638221740723,10.6655111312866,10.667200088501,10.6688890457153,10.670578956604,10.672269821167,10.67396068573,10.6756525039673,10.6773443222046,10.6790370941162,10.6807298660278,10.6824235916138,10.684118270874,10.6886777877808,10.696798324585,10.7049312591553,10.7130765914917,10.7212343215942,10.7294044494629,10.7375869750977,10.7457828521729,10.7539901733398,10.7622108459473,10.7704439163208,10.7786893844604,10.7869472503662,10.7952175140381,10.8035011291504,10.8117971420288,10.8201065063477,10.8284282684326,10.8367624282837,10.8451099395752,10.8534698486328,10.8618431091309,10.8702297210693,10.8786287307739,10.8870401382446,10.8954658508301,10.9039039611816,10.9123544692993,10.9208192825317,10.9292964935303,10.9377870559692,10.9462909698486,10.9548082351685,10.9633378982544,10.9718818664551,10.9804382324219,10.9890089035034,10.9975929260254,11.0061893463135,11.0148000717163,11.0234241485596,11.0320615768433,11.0407123565674,11.0493774414062,11.0580558776855,11.0667476654053,11.0754528045654,11.0841722488403,11.0929050445557,11.1016521453857,11.1104125976562,11.1191873550415,11.1279754638672,11.1367778778076,11.1455936431885,11.1544237136841,11.1632680892944,11.1721258163452,11.1809978485107,11.189884185791,11.198784828186,11.2076997756958,11.2166290283203,11.2255716323853,11.2345285415649,11.2435007095337,11.2524862289429,11.2614870071411,11.2705020904541,11.2795305252075,11.28857421875,11.2976331710815,11.3067054748535,11.3157930374146,11.3248949050903,11.3340110778809,11.3431425094604,11.3522891998291,11.3614492416382,11.3706254959106,11.3798160552979,11.3890209197998,11.3982410430908,11.4074764251709,11.4167261123657,11.4259920120239,11.4352712631226,11.4445667266846,11.4538774490356,11.4632024765015,11.4725437164307,11.4818992614746,11.4905757904053,11.496057510376,11.5015449523926,11.5070362091064,11.5125341415405,11.5180368423462,11.5235443115234,11.5872316360474,11.6016025543213,11.6160087585449,11.6304512023926,11.6449289321899,11.6594429016113,11.6739931106567,11.6885795593262,11.7032032012939,11.7178630828857,11.7325592041016,11.7472925186157,11.7620639801025,11.7768707275391,11.7917165756226,11.8065986633301,11.8215188980103,11.8364763259888,11.8514728546143,11.8665065765381,11.8815784454346,11.8966884613037,11.9118375778198,11.9270248413086,11.9422512054443,11.9575166702271,11.9728202819824,11.9881639480591,12.003547668457,12.0189695358276,12.0344314575195,12.0499334335327,12.0654754638672,12.0810575485229,12.0966796875,12.1123428344727,12.1280460357666,12.1437902450562,12.1595754623413,12.1754007339478,12.1912689208984,12.2071771621704,12.2231283187866,12.2391204833984,12.2551546096802,12.2712306976318,12.2873487472534,12.3035097122192,12.319712638855,12.335958480835,12.3522481918335,12.368579864502,12.384955406189,12.4013738632202,12.41783618927,12.4343423843384,12.4508924484253,12.4674863815308,12.4841251373291,12.500807762146,12.5175352096558,12.5343074798584,12.5511245727539,12.5679874420166,12.5848951339722,12.6018486022949,12.6188478469849,12.635892868042,12.6529846191406,12.6701221466064,12.6873064041138,12.7045364379883,12.7218141555786,12.7391386032104,12.7565107345581,12.7739295959473,12.7913970947266,12.8089122772217,12.8264751434326,12.8440856933594,12.8617448806763,12.8794527053833,12.8972101211548,12.9150161743164,12.9328708648682,12.9558973312378,12.9818840026855,13.0079755783081,13.0341711044312,13.0604734420776,13.0868816375732,13.1133966445923,13.1400194168091,13.1667509078979,13.1935911178589,13.2205410003662,13.2476015090942,13.274772644043,13.3020553588867,13.3294506072998,13.3569593429565,13.3845806121826,13.412317276001,13.4401693344116,13.4681367874146,13.4962215423584,13.5244235992432,13.5527429580688,13.5811815261841,13.6097402572632,13.6384181976318,13.667218208313,13.6961402893066,13.7249965667725,13.7486963272095,13.772479057312,13.7963428497314,13.8202905654907,13.8443212509155,13.8684349060059,13.8926334381104,13.916916847229,13.9412851333618,13.9657382965088,13.9902782440186,14.0149040222168,14.0396165847778,14.064305305481,14.0753812789917,14.0864744186401,14.0975856781006,14.1087141036987,14.1198606491089,14.1310243606567,14.1422052383423,14.1534042358398,14.1646213531494,14.175856590271,14.1871089935303,14.1983795166016,14.2096672058105,14.2209739685059,14.2322978973389,14.2436399459839,14.2550010681152,14.2663793563843,14.2777757644653,14.2891912460327,14.3006238937378,14.3120756149292,14.3235454559326,14.335033416748
10.6327829360962,10.6344614028931,10.6361398696899,10.6378202438354,10.6394996643066,10.6411809921265,10.6428623199463,10.6445436477661,10.6462259292603,10.6479091644287,10.6495923995972,10.6512756347656,10.6529607772827,10.6546459197998,10.6563310623169,10.6580171585083,10.6597032546997,10.6613903045654,10.6630783081055,10.6647663116455,10.6664552688599,10.6681442260742,10.6698341369629,10.6715240478516,10.6732149124146,10.6749067306519,10.6765985488892,10.6782913208008,10.6799840927124,10.6816778182983,10.6833715438843,10.6850662231445,10.6867609024048,10.6884565353394,10.6955871582031,10.7037181854248,10.7118616104126,10.7200183868408,10.7281866073608,10.736367225647,10.7445602416992,10.7527666091919,10.7609844207764,10.7692155838013,10.7774591445923,10.7857160568237,10.793984413147,10.8022661209106,10.8105602264404,10.8188676834106,10.827187538147,10.8355197906494,10.8438653945923,10.8522233963013,10.8605947494507,10.8689785003662,10.8773756027222,10.8857860565186,10.8942089080811,10.902645111084,10.9110946655273,10.9195566177368,10.9280319213867,10.9365205764771,10.9450225830078,10.953537940979,10.9620656967163,10.9706077575684,10.9791622161865,10.9877309799194,10.9963121414185,11.0049076080322,11.0135164260864,11.0221376419067,11.0307731628418,11.0394220352173,11.0480852127075,11.0567617416382,11.0654516220093,11.0741548538208,11.0828723907471,11.0916032791138,11.1003475189209,11.1091060638428,11.1178789138794,11.1266651153564,11.1354646682739,11.1442794799805,11.1531066894531,11.1619491577148,11.170804977417,11.1796751022339,11.1885595321655,11.1974573135376,11.2063703536987,11.2152967453003,11.2242374420166,11.233193397522,11.2421627044678,11.2511463165283,11.2601442337036,11.269157409668,11.2781848907471,11.2872257232666,11.2962818145752,11.3053522109985,11.3144378662109,11.3235378265381,11.33265209198,11.3417806625366,11.3509244918823,11.3600835800171,11.3692569732666,11.3784446716309,11.3876476287842,11.3968658447266,11.406099319458,11.4153470993042,11.4246101379395,11.4338874816895,11.4431810379028,11.452488899231,11.4618120193481,11.4711503982544,11.4792737960815,11.4847450256348,11.4902210235596,11.495701789856,11.5011882781982,11.5066804885864,11.5121774673462,11.5176792144775,11.5516338348389,11.6045789718628,11.6189918518066,11.6334419250488,11.6479272842407,11.6624488830566,11.6770067214966,11.6916007995605,11.7062311172485,11.7208986282349,11.7356033325195,11.7503442764282,11.7651224136353,11.7799377441406,11.7947902679443,11.8096809387207,11.8246088027954,11.8395738601685,11.8545780181885,11.8696203231812,11.8846998214722,11.8998174667358,11.9149751663208,11.9301700592041,11.9454050064087,11.9606781005859,11.9759902954102,11.9913415908813,12.0067329406738,12.0221633911133,12.037633895874,12.0531435012817,12.0686941146851,12.0842847824097,12.0999145507812,12.1155862808228,12.1312980651855,12.1470508575439,12.1628437042236,12.1786785125732,12.1945552825928,12.2104721069336,12.2264308929443,12.2424325942993,12.2584753036499,12.2745599746704,12.2906866073608,12.3068561553955,12.3230686187744,12.3393239974976,12.3556213378906,12.3719625473022,12.3883466720581,12.4047746658325,12.4212455749512,12.4377613067627,12.4543199539185,12.4709234237671,12.4875707626343,12.5042629241943,12.5209999084473,12.5377817153931,12.5546083450317,12.5714797973633,12.588397026062,12.6053600311279,12.622368812561,12.6394233703613,12.6565246582031,12.6736717224121,12.6908645629883,12.7081050872803,12.7253923416138,12.7427272796631,12.7601089477539,12.7775382995605,12.7950143814087,12.812539100647,12.8301124572754,12.8477334976196,12.8654022216797,12.8831205368042,12.9008874893188,12.9216794967651,12.9475288391113,12.973482131958,12.9995393753052,13.0257015228271,13.0519695281982,13.0783433914185,13.1048240661621,13.1314115524292,13.1581077575684,13.1849126815796,13.2118272781372,13.2388525009155,13.2659873962402,13.29323387146,13.320592880249,13.3480644226074,13.3756504058838,13.4033498764038,13.4311637878418,13.4590940475464,13.4871406555176,13.5153045654297,13.5435857772827,13.5719861984253,13.6005058288574,13.6291456222534,13.6579065322876,13.6838188171387,13.7073774337769,13.7310161590576,13.7547369003296,13.7785406112671,13.8024253845215,13.8263940811157,13.8504457473755,13.8745813369751,13.8988018035889,13.9231061935425,13.9474964141846,13.9719715118408,13.9965324401855,14.0211811065674,14.0459156036377,14.0616750717163,14.0727472305298,14.083836555481,14.0949440002441,14.1060676574707,14.1172094345093,14.1283693313599,14.1395463943481,14.1507415771484,14.1619539260864,14.1731843948364,14.1844329833984,14.1956987380981,14.2069826126099,14.2182846069336,14.2296047210693,14.2409429550171,14.2522993087769,14.2636737823486,14.2750654220581,14.2864761352539,14.2979049682617
10.6303653717041,10.6320428848267,10.6337213516235,10.6353998184204,10.6370792388916,10.6387596130371,10.6404399871826,10.6421203613281,10.6438026428223,10.6454839706421,10.6471672058105,10.648850440979,10.6505336761475,10.6522178649902,10.6539030075073,10.6555881500244,10.6572732925415,10.6589603424072,10.6606464385986,10.6623344421387,10.6640224456787,10.6657104492188,10.6673994064331,10.6690893173218,10.6707792282104,10.6724700927734,10.6741609573364,10.6758527755737,10.677544593811,10.6792373657227,10.6809310913086,10.6826248168945,10.6843185424805,10.686014175415,10.6877088546753,10.6894054412842,10.6911020278931,10.6943759918213,10.7025060653687,10.7106475830078,10.7188014984131,10.7269678115845,10.7351474761963,10.7433385848999,10.7515430450439,10.7597589492798,10.7679882049561,10.7762298583984,10.7844839096069,10.7927513122559,10.8010311126709,10.8093233108521,10.8176288604736,10.8259468078613,10.8342771530151,10.8426208496094,10.8509769439697,10.8593463897705,10.8677282333374,10.8761234283447,10.8845319747925,10.8929529190063,10.9013872146606,10.9098348617554,10.9182949066162,10.9267683029175,10.9352550506592,10.9437551498413,10.9522676467896,10.9607944488525,10.9693336486816,10.9778871536255,10.9864530563354,10.9950323104858,11.003625869751,11.0122318267822,11.0208520889282,11.0294857025146,11.0381326675415,11.0467929840088,11.0554676055908,11.0641555786133,11.0728569030762,11.0815715789795,11.0903005599976,11.0990438461304,11.1078004837036,11.1165704727173,11.1253547668457,11.1341524124146,11.1429643630981,11.1517906188965,11.1606302261353,11.1694841384888,11.178352355957,11.18723487854,11.1961307525635,11.2050409317017,11.2139654159546,11.2229042053223,11.2318572998047,11.2408246994019,11.2498064041138,11.2588024139404,11.2678136825562,11.2768383026123,11.2858772277832,11.2949314117432,11.3039999008179,11.3130826950073,11.3221807479858,11.3312931060791,11.3404197692871,11.3495616912842,11.358717918396,11.3678884506226,11.3770751953125,11.3862752914429,11.3954916000366,11.4047222137451,11.4139680862427,11.423228263855,11.4325037002563,11.4417943954468,11.4511003494263,11.4604215621948,11.4679946899414,11.4734544754028,11.4789199829102,11.4843902587891,11.4898662567139,11.4953470230103,11.5008325576782,11.5063247680664,11.5118207931519,11.5173225402832,11.6002445220947,11.621976852417,11.6364336013794,11.6509265899658,11.6654558181763,11.6800212860107,11.6946229934692,11.7092609405518,11.7239360809326,11.7386484146118,11.753396987915,11.7681827545166,11.7830057144165,11.7978668212891,11.8127641677856,11.8276996612549,11.8426742553711,11.8576850891113,11.8727350234985,11.8878221511841,11.9029483795166,11.9181137084961,11.9333171844482,11.9485597610474,11.9638404846191,11.9791612625122,11.9945211410522,12.0099201202393,12.0253591537476,12.0408372879028,12.0563564300537,12.0719146728516,12.0875129699707,12.1031522750854,12.1188316345215,12.1345520019531,12.1503133773804,12.1661148071289,12.1819581985474,12.1978425979614,12.2137689590454,12.229736328125,12.2457456588745,12.2617979049683,12.2778911590576,12.2940273284912,12.3102054595947,12.3264265060425,12.3426904678345,12.3589973449707,12.3753461837769,12.3917398452759,12.4081764221191,12.424656867981,12.4411811828613,12.4577493667603,12.4743614196777,12.4910182952881,12.5077199935913,12.5244655609131,12.5412569046021,12.5580930709839,12.5749740600586,12.5919008255005,12.6088733673096,12.6258916854858,12.6429557800293,12.6600666046143,12.6772232055664,12.6944255828857,12.7116765975952,12.7289733886719,12.74631690979,12.7637090682983,12.7811479568481,12.7986345291138,12.8161687850952,12.8337516784668,12.8513832092285,12.8690624237061,12.8876428604126,12.9133558273315,12.9391717910767,12.9650907516479,12.991114616394,13.0172433853149,13.0434770584106,13.0698156356812,13.0962619781494,13.1228151321411,13.1494770050049,13.1762466430664,13.2031259536743,13.2301139831543,13.2572135925293,13.2844247817993,13.31174659729,13.3391819000244,13.3667306900024,13.3943939208984,13.4221706390381,13.4500637054443,13.4780721664429,13.5061979293823,13.534441947937,13.5628032684326,13.5912847518921,13.6195507049561,13.6428880691528,13.6663055419922,13.6898031234741,13.7133817672729,13.7370414733887,13.7607831954956,13.7846069335938,13.8085136413574,13.8325033187866,13.8565759658813,13.8807334899902,13.904974937439,13.9293012619019,13.9537124633789,13.9782094955444,14.0027933120728,14.0274629592896,14.0479965209961,14.0590467453003,14.0701141357422,14.0811996459961,14.0923023223877,14.103422164917,14.1145601272583,14.1257152557373,14.1368885040283,14.148078918457,14.1592874526978,14.1705141067505,14.1817579269409,14.1930198669434,14.2042999267578,14.21559715271,14.2269134521484,14.2382469177246,14.2495985031128,14.260968208313
10.6279487609863,10.6296253204346,10.6313028335571,10.632981300354,10.6346597671509,10.6363391876221,10.6380186080933,10.6396989822388,10.6413793563843,10.6430606842041,10.6447429656982,10.6464252471924,10.6481084823608,10.6497917175293,10.6514759063721,10.6531600952148,10.6548452377319,10.656530380249,10.6582164764404,10.6599035263062,10.6615905761719,10.6632776260376,10.664966583252,10.666654586792,10.6683444976807,10.6700344085693,10.671724319458,10.673415184021,10.6751070022583,10.6767988204956,10.6784915924072,10.6801843643188,10.6818780899048,10.6835718154907,10.685266494751,10.6869621276855,10.6886577606201,10.6903533935547,10.6920509338379,10.6937475204468,10.6954460144043,10.7012929916382,10.709433555603,10.7175855636597,10.7257499694824,10.7339277267456,10.7421169281006,10.750319480896,10.7585334777832,10.7667608261108,10.7750005722046,10.7832536697388,10.7915182113647,10.7997961044312,10.8080863952637,10.8163900375366,10.8247060775757,10.8330345153809,10.8413763046265,10.8497304916382,10.8580980300903,10.8664789199829,10.8748722076416,10.8832778930664,10.8916969299316,10.9001293182373,10.9085750579834,10.9170331954956,10.9255046844482,10.9339895248413,10.9424877166748,10.9509983062744,10.9595222473145,10.9680604934692,10.9766111373901,10.9851751327515,10.9937534332275,11.0023441314697,11.0109491348267,11.0195665359497,11.0281982421875,11.0368432998657,11.0455017089844,11.0541734695435,11.0628595352173,11.0715589523315,11.0802726745605,11.0889987945557,11.0977401733398,11.1064939498901,11.1152620315552,11.124044418335,11.1328401565552,11.1416501998901,11.1504745483398,11.15931224823,11.1681642532349,11.1770296096802,11.1859102249146,11.1948041915894,11.2037124633789,11.2126350402832,11.2215719223022,11.2305221557617,11.2394876480103,11.2484674453735,11.2574615478516,11.2664699554443,11.2754926681519,11.2845296859741,11.2935810089111,11.3026475906372,11.311728477478,11.3208236694336,11.3299341201782,11.3390588760376,11.3481979370117,11.3573522567749,11.3665208816528,11.3757047653198,11.3849039077759,11.3941173553467,11.4033451080322,11.4125890731812,11.4218473434448,11.4311208724976,11.440408706665,11.4497127532959,11.4567365646362,11.4621858596802,11.46764087677,11.4731006622314,11.4785652160645,11.4840354919434,11.4895105361938,11.4949913024902,11.5004768371582,11.5059680938721,11.5114641189575,11.5616674423218,11.624963760376,11.6394281387329,11.6539278030396,11.6684646606445,11.6830377578735,11.6976470947266,11.7122926712036,11.726975440979,11.7416944503784,11.7564506530762,11.7712450027466,11.786075592041,11.8009443283081,11.8158493041992,11.8307933807373,11.8457746505737,11.8607940673828,11.8758516311646,11.8909473419189,11.906081199646,11.92125415802,11.9364652633667,11.9517164230347,11.9670057296753,11.9823341369629,11.9977025985718,12.0131092071533,12.0285568237305,12.0440435409546,12.0595693588257,12.0751361846924,12.0907430648804,12.106390953064,12.1220788955688,12.1378078460693,12.1535768508911,12.1693878173828,12.1852397918701,12.201132774353,12.2170667648315,12.2330436706543,12.2490615844727,12.2651214599609,12.2812242507935,12.2973690032959,12.3135557174683,12.3297853469849,12.34605884552,12.3623743057251,12.3787326812744,12.3951349258423,12.4115810394287,12.4280700683594,12.4446039199829,12.4611806869507,12.4778022766113,12.4944686889648,12.5111789703369,12.5279340744019,12.544734954834,12.5615797042847,12.5784702301025,12.5954065322876,12.6123886108398,12.6294164657593,12.6464900970459,12.6636095046997,12.6807765960693,12.6979894638062,12.7152490615845,12.7325553894043,12.7499094009399,12.7673110961914,12.7847595214844,12.8022565841675,12.8198003768921,12.8373937606812,12.855034828186,12.8793621063232,12.9050426483154,12.9308252334595,12.9567108154297,12.9827013015747,13.0087957382202,13.0349950790405,13.06130027771,13.0877113342285,13.1142301559448,13.1408567428589,13.1675910949707,13.1944351196289,13.2213878631592,13.2484521865845,13.2756261825562,13.3029127120972,13.3303117752075,13.3578233718872,13.3854494094849,13.4131898880005,13.4410448074341,13.4690160751343,13.4971046447754,13.5253095626831,13.5536327362061,13.5790033340454,13.602201461792,13.6254787445068,13.6488361358643,13.6722736358643,13.6957921981812,13.7193908691406,13.7430715560913,13.7668342590332,13.7906789779663,13.8146066665649,13.8386173248291,13.8627119064331,13.886890411377,13.911153793335,13.9355010986328,13.9599351882935,13.9844541549683,14.0090589523315,14.0337514877319,14.0453729629517,14.0564193725586,14.0674829483032,14.0785636901855,14.0896625518799,14.1007785797119,14.1119117736816,14.1230630874634,14.1342315673828,14.1454181671143,14.1566219329834,14.1678447723389,14.1790838241577,14.1903419494629,14.2016172409058,14.2129106521606,14.2242221832275
10.6255331039429,10.6272096633911,10.6288862228394,10.6305637359619,10.6322412490845,10.6339197158813,10.6355991363525,10.6372785568237,10.6389579772949,10.6406383514404,10.6423196792603,10.6440010070801,10.6456832885742,10.6473665237427,10.6490497589111,10.6507329940796,10.6524171829224,10.6541023254395,10.6557874679565,10.6574735641479,10.6591596603394,10.6608467102051,10.6625337600708,10.6642217636108,10.6659107208252,10.6675996780396,10.6692895889282,10.6709794998169,10.6726703643799,10.6743612289429,10.6760530471802,10.6777448654175,10.6794376373291,10.681131362915,10.682825088501,10.6845197677612,10.6862144470215,10.6879100799561,10.6896057128906,10.6913022994995,10.6929998397827,10.6946973800659,10.6963958740234,10.698094367981,10.7000818252563,10.7082195281982,10.7163696289062,10.7245330810547,10.7327079772949,10.7408962249756,10.749095916748,10.7573089599609,10.7655344009399,10.7737722396851,10.7820224761963,10.7902860641479,10.7985620498657,10.8068504333496,10.8151521682739,10.8234663009644,10.8317928314209,10.8401327133179,10.848484992981,10.8568506240845,10.8652286529541,10.8736200332642,10.8820247650146,10.8904418945312,10.8988723754883,10.9073152542114,10.915771484375,10.924241065979,10.9327239990234,10.9412202835083,10.9497289657593,10.9582509994507,10.9667873382568,10.9753360748291,10.9838981628418,10.9924736022949,11.0010633468628,11.0096654891968,11.0182819366455,11.0269107818604,11.0355539321899,11.04421043396,11.0528802871704,11.0615644454956,11.0702619552612,11.0789728164673,11.0876979827881,11.0964365005493,11.105188369751,11.1139545440674,11.1227350234985,11.1315288543701,11.1403369903564,11.1491584777832,11.1579942703247,11.166844367981,11.1757078170776,11.1845855712891,11.1934776306152,11.2023839950562,11.2113037109375,11.2202386856079,11.2291879653931,11.2381505966187,11.2471284866333,11.2561197280884,11.2651262283325,11.2741470336914,11.283182144165,11.2922315597534,11.3012952804565,11.3103742599487,11.3194675445557,11.3285751342773,11.3376979827881,11.3468351364136,11.3559865951538,11.3651542663574,11.3743352890015,11.3835315704346,11.3927431106567,11.4019689559937,11.4112100601196,11.4204664230347,11.4297380447388,11.4390239715576,11.4455013275146,11.4509401321411,11.4563837051392,11.4618330001831,11.4672870635986,11.4727458953857,11.4782104492188,11.4836807250977,11.4891557693481,11.4946355819702,11.5001211166382,11.5056123733521,11.5233469009399,11.6103630065918,11.6424226760864,11.6569309234619,11.6714744567871,11.6860551834106,11.7006721496582,11.7153253555298,11.7300157546997,11.7447423934937,11.7595071792603,11.7743082046509,11.7891473770142,11.8040227890015,11.8189363479614,11.833888053894,11.848876953125,11.8639039993286,11.8789701461792,11.8940734863281,11.909215927124,11.9243965148926,11.9396162033081,11.9548749923706,11.9701719284058,11.9855089187622,12.0008850097656,12.016300201416,12.0317554473877,12.0472507476807,12.0627851486206,12.0783605575562,12.093976020813,12.1096315383911,12.1253280639648,12.1410646438599,12.1568431854248,12.172661781311,12.1885223388672,12.2044239044189,12.2203674316406,12.2363519668579,12.2523794174194,12.2684478759766,12.2845592498779,12.3007125854492,12.3169088363647,12.3331470489502,12.3494281768799,12.3657531738281,12.3821210861206,12.3985319137573,12.4149866104126,12.4314851760864,12.4480276107788,12.4646139144897,12.4812450408936,12.4979200363159,12.5146398544312,12.5314044952393,12.5482139587402,12.5650691986084,12.5819683074951,12.5989141464233,12.6159057617188,12.6329431533813,12.6500263214111,12.6671552658081,12.6843318939209,12.7015542984009,12.7188234329224,12.7361402511597,12.7535037994385,12.7709150314331,12.7883739471436,12.8058805465698,12.8234348297119,12.8455467224121,12.8710927963257,12.8967390060425,12.9224891662598,12.9483423233032,12.9742975234985,13.000358581543,13.0265235900879,13.0527954101562,13.0791721343994,13.1056566238403,13.1322479248047,13.1589469909668,13.1857557296753,13.2126731872559,13.2397012710571,13.2668399810791,13.2940902709961,13.3214530944824,13.3489284515381,13.3765172958374,13.4042205810547,13.4320383071899,13.4599723815918,13.4880228042603,13.5157136917114,13.5386953353882,13.5617561340332,13.5848951339722,13.6081132888794,13.6314115524292,13.6547889709473,13.6782474517822,13.7017860412598,13.7254056930542,13.7491073608398,13.7728910446167,13.7967567443848,13.8207054138184,13.8447380065918,13.8688535690308,13.8930530548096,13.9173374176025,13.941707611084,13.9661626815796,13.9907035827637,14.0153312683105,14.0317249298096,14.0427503585815,14.0537919998169,14.0648517608643,14.0759286880493,14.0870227813721,14.0981349945068,14.1092643737793,14.1204109191895,14.1315755844116,14.1427583694458,14.1539583206177,14.1651754379272,14.1764116287231,14.1876649856567
10.623119354248,10.6247940063477,10.6264705657959,10.6281471252441,10.6298246383667,10.6315021514893,10.6331796646118,10.634859085083,10.6365375518799,10.6382179260254,10.6398983001709,10.6415786743164,10.6432600021362,10.6449422836304,10.6466245651245,10.648307800293,10.6499910354614,10.6516752243042,10.653359413147,10.6550445556641,10.6567296981812,10.6584157943726,10.6601028442383,10.661789894104,10.663477897644,10.6651659011841,10.6668548583984,10.6685447692871,10.6702346801758,10.6719245910645,10.6736154556274,10.6753072738647,10.6769990921021,10.6786918640137,10.6803846359253,10.6820783615112,10.6837730407715,10.6854677200317,10.687162399292,10.6888580322266,10.6905546188354,10.6922512054443,10.6939487457275,10.6956472396851,10.6973457336426,10.6990442276001,10.7007436752319,10.7024440765381,10.7070055007935,10.7151546478271,10.7233152389526,10.7314891815186,10.7396745681763,10.7478733062744,10.7560844421387,10.764307975769,10.7725439071655,10.7807922363281,10.7890539169312,10.7973279953003,10.8056144714355,10.8139142990112,10.8222255706787,10.8305511474609,10.8388891220093,10.8472394943237,10.8556032180786,10.8639793395996,10.872368812561,10.8807706832886,10.8891868591309,10.8976144790649,10.9060564041138,10.9145107269287,10.9229784011841,10.9314594268799,10.9399528503418,10.9484596252441,10.9569807052612,10.9655141830444,10.9740610122681,10.9826211929321,10.9911947250366,10.9997825622559,11.0083827972412,11.016996383667,11.0256242752075,11.0342645645142,11.0429191589355,11.0515880584717,11.0602693557739,11.0689649581909,11.0776739120483,11.0863962173462,11.0951328277588,11.1038837432861,11.1126470565796,11.1214256286621,11.1302175521851,11.1390228271484,11.1478424072266,11.1566762924194,11.1655244827271,11.1743860244751,11.1832618713379,11.1921520233154,11.2010555267334,11.2099742889404,11.2189064025879,11.2278528213501,11.2368144989014,11.2457895278931,11.2547788619995,11.2637825012207,11.272801399231,11.281834602356,11.2908821105957,11.2999439239502,11.3090200424194,11.3181114196777,11.3272171020508,11.3363370895386,11.3454723358154,11.354621887207,11.3637866973877,11.3729658126831,11.3821601867676,11.3913688659668,11.4005928039551,11.4098320007324,11.4190864562988,11.42835521698,11.434287071228,11.439715385437,11.4451484680176,11.450587272644,11.4560308456421,11.4614791870117,11.4669332504272,11.4723920822144,11.4778566360474,11.483325958252,11.4888010025024,11.4942808151245,11.4997653961182,11.5052556991577,11.5717191696167,11.6454200744629,11.6599349975586,11.6744871139526,11.6890745162964,11.7036991119385,11.7183599472046,11.733057975769,11.7477931976318,11.7625646591187,11.7773733139038,11.7922201156616,11.8071041107178,11.8220252990723,11.8369846343994,11.8519811630249,11.8670167922974,11.8820896148682,11.8972015380859,11.9123516082764,11.9275398254395,11.9427680969238,11.9580345153809,11.9733400344849,11.9886846542358,12.0040693283081,12.0194931030273,12.0349559783936,12.0504598617554,12.0660028457642,12.0815858840942,12.0972099304199,12.1128740310669,12.1285791397095,12.1443243026733,12.1601104736328,12.1759376525879,12.1918067932129,12.2077169418335,12.223669052124,12.2396631240845,12.2556982040405,12.2717761993408,12.287896156311,12.3040580749512,12.3202629089355,12.3365097045898,12.3528003692627,12.3691339492798,12.3855104446411,12.401930809021,12.4183950424194,12.4349021911621,12.4514541625977,12.4680490493774,12.4846897125244,12.5013732910156,12.518102645874,12.5348768234253,12.5516958236694,12.5685596466064,12.5854692459106,12.6024236679077,12.6194248199463,12.6364717483521,12.653564453125,12.6707029342651,12.6878890991211,12.7051210403442,12.7224006652832,12.7397270202637,12.7571001052856,12.7745208740234,12.7919893264771,12.8119087219238,12.8373203277588,12.8628330230713,12.8884477615356,12.9141635894775,12.9399833679199,12.9659061431885,12.9919328689575,13.0180644989014,13.04430103302,13.0706443786621,13.0970935821533,13.123649597168,13.1503143310547,13.1770877838135,13.2039699554443,13.2309627532959,13.2580652236938,13.2852792739868,13.3126058578491,13.3400449752808,13.3675966262817,13.3952627182007,13.4230442047119,13.4509401321411,13.4757804870605,13.4986267089844,13.5215511322021,13.5445528030396,13.5676336288452,13.5907926559448,13.614031791687,13.6373491287231,13.6607475280762,13.6842260360718,13.7077856063843,13.7314262390137,13.75514793396,13.7789525985718,13.8028392791748,13.8268098831177,13.8508625030518,13.875,13.8992214202881,13.9235277175903,13.9479188919067,13.9723958969116,13.996958732605,14.0181045532227,14.0291080474854,14.0401287078857,14.0511665344238,14.0622215270996,14.0732946395874,14.0843849182129,14.0954923629761,14.1066179275513,14.1177606582642,14.1289205551147,14.1400985717773,14.151294708252
