8.78105068206787,8.7822437286377,8.78343677520752,8.78462982177734,8.78582382202148,8.7893123626709,8.79529857635498,8.80129241943359,8.80729484558105,8.81330585479736,8.8193244934082,8.82535171508789,8.83138751983643,8.83743095397949,8.84348297119141,8.84954261779785,8.85561084747314,8.86168766021729,8.86777305603027,8.87386703491211,8.87996864318848,8.88607883453369,8.89219760894775,8.89832496643066,8.90445995330811,8.91060447692871,8.91675662994385,8.92291736602783,8.92908763885498,8.93526554107666,8.94145202636719,8.94764709472656,8.95385074615479,8.96006393432617,8.96628475189209,8.97251415252686,8.97875308990479,8.98499965667725,8.99125576019287,8.99751949310303,9.00379276275635,9.01007461547852,9.01636600494385,9.02266502380371,9.02897357940674,9.03529071807861,9.04161643981934,9.04795169830322,9.05429553985596,9.06064796447754,9.06700897216797,9.07337951660156,9.07975959777832,9.08614730834961,9.09254550933838,9.09895133972168,9.10536670684814,9.11179161071777,9.11822509765625,9.12466812133789,9.13111972808838,9.13758087158203,9.14405059814453,9.1505298614502,9.15701866149902,9.1635160446167,9.17002296447754,9.17653942108154,9.18306446075439,9.18959903717041,9.19614315032959,9.20269680023193,9.20925903320312,9.21581649780273,9.21963405609131,9.22345352172852,9.2272777557373,9.23110389709473,9.23493385314941,9.23876667022705,9.24260234832764,9.24644184112549,9.25028419494629,9.25412940979004,9.25797843933105,9.26183032989502,9.26568603515625,9.26954460144043,9.27340602874756,9.27727031707764,9.28113842010498,9.28501033782959,9.28888511657715,9.29276275634766,9.29664325714111,9.30052757263184,9.30441570281982,9.30830574035645,9.31219959259033,9.31609725952148,9.31999778747559,9.32390213012695,9.32780838012695,9.33171939849854,9.33563327789307,9.33955001831055,9.34346961975098,9.34739303588867,9.35132026672363,9.35525035858154,9.3591833114624,9.36312007904053,9.36706066131592,9.37100410461426,9.37495040893555,9.3789005279541,9.38285350799561,9.38681030273438,9.39077091217041,9.39473342895508,9.39870071411133,9.40267086029053,9.40664386749268,9.41062068939209,9.41460037231445,9.41858386993408,9.42257118225098,9.42656135559082,9.4533748626709,9.49527645111084,9.53755187988281,9.58020496368408,9.62324047088623,9.66666603088379,9.71048355102539,9.75470161437988,9.79932308197021,9.84435558319092,9.87023067474365,9.8814811706543,9.8927583694458,9.90406036376953,9.9153881072998,9.92674255371094,9.9381217956543,9.94952869415283,9.96096038818359,9.97241973876953,9.98390483856201,9.99541568756104,10.0069541931152,10.018518447876,10.0301103591919,10.0417289733887,10.0533742904663,10.0650472640991,10.0767459869385,10.0884733200073,10.100227355957,10.1120090484619,10.1238174438477,10.1356544494629,10.1475191116333,10.1594104766846,10.1713314056396,10.1832790374756,10.195255279541,10.2072601318359,10.219292640686,10.2313537597656,10.2483854293823,10.2659168243408,10.2835073471069,10.3011589050293,10.3188714981079,10.3366451263428,10.3544797897339,10.3723764419556,10.3903350830078,10.4065370559692,10.4211235046387,10.4357500076294,10.4504175186157,10.4651260375977,10.4798765182495,10.4946689605713,10.5095024108887,10.524377822876,10.5392961502075,10.542067527771,10.5419778823853,10.541898727417,10.5418090820312,10.5417232513428,10.5416402816772,10.5415506362915,10.5414686203003,10.5413818359375,10.5412931442261,10.5412130355835,10.5411243438721,10.5410346984863,10.5409555435181,10.5408658981323,10.5407829284668,10.5406970977783,10.5406084060669,10.5405254364014,10.5404396057129,10.5403528213501,10.5402708053589,10.5401811599731,10.5400981903076,10.5400123596191,10.5399265289307,10.5398406982422,10.5397548675537,10.5396690368652,10.5395860671997,10.5395002365112,10.5394105911255,10.5393285751343,10.5392427444458,10.5391597747803,10.5390701293945,10.5389842987061,10.5389022827148,10.5388154983521,10.5387296676636,10.5386438369751,10.5385580062866,10.5384759902954,10.5383892059326,10.5383005142212,10.5382175445557,10.5381317138672,10.5380430221558,10.5379600524902,10.5378742218018,10.5377855300903,10.5377025604248,10.5376167297363,10.5375337600708,10.5374450683594,10.5373620986938,10.5372762680054,10.5371904373169,10.5371046066284,10.5370187759399,10.5369329452515,10.536847114563,10.5367650985718,10.5366792678833,10.5365896224976,10.5365076065063,10.5364217758179,10.5363359451294,10.5362462997437,10.5361642837524,10.536078453064,10.5359926223755,10.535906791687,10.5358209609985,10.5357351303101,10.5356531143188,10.5355672836304,10.5354814529419,10.5353956222534,10.5353059768677,10.5352268218994,10.535138130188,10.5350494384766,10.534966468811,10.5348844528198,10.5347948074341,10.5347127914429,10.5346269607544,10.5345411300659,10.5344552993774,10.534369468689,10.5342836380005,10.5341987609863,10.5341129302979,10.5340270996094,10.5339441299438,10.5338554382324,10.5337696075439,10.5336837768555,10.5336017608643,10.5335130691528,10.5334300994873,10.5333452224731,10.5332593917847,10.5331735610962,10.5330877304077,10.5330018997192,10.532919883728,10.5328311920166,10.5327453613281
8.77875900268555,8.77995109558105,8.78114414215088,8.7823371887207,8.78353023529053,8.78472328186035,8.78591728210449,8.78711128234863,8.78830623626709,8.79351234436035,8.79950428009033,8.80550384521484,8.8115119934082,8.81752872467041,8.82355308532715,8.82958602905273,8.83562755584717,8.84167671203613,8.84773445129395,8.85380077362061,8.8598747253418,8.86595726013184,8.87204837799072,8.87814807891846,8.88425540924072,8.89037132263184,8.8964958190918,8.90262985229492,8.90877056121826,8.91492080688477,8.92107963562012,8.92724609375,8.93342208862305,8.93960571289062,8.94579887390137,8.95199966430664,8.95820999145508,8.96442794799805,8.97065544128418,8.97689151763916,8.98313522338867,8.98938846588135,8.99565029144287,9.00192070007324,9.00820064544678,9.01448822021484,9.02078533172607,9.02709102630615,9.03340530395508,9.03972911834717,9.04606151580811,9.05240249633789,9.05875205993652,9.06511116027832,9.07147884368896,9.07785606384277,9.08424091339111,9.09063625335693,9.0970401763916,9.10345268249512,9.1098747253418,9.11630535125732,9.12274551391602,9.12919425964355,9.13565254211426,9.14212036132812,9.14859676361084,9.1550817489624,9.16157722473145,9.16808128356934,9.17459487915039,9.18111705780029,9.18764877319336,9.19419002532959,9.20074081420898,9.20677947998047,9.21058940887451,9.2144021987915,9.21821784973145,9.22203636169434,9.22585868835449,9.2296838760376,9.23351287841797,9.23734474182129,9.24117946624756,9.24501705169678,9.24885845184326,9.2527027130127,9.25655078887939,9.26040172576904,9.26425552368164,9.2681131362915,9.27197360992432,9.27583694458008,9.27970409393311,9.28357410430908,9.28744697570801,9.2913236618042,9.29520320892334,9.29908657073975,9.3029727935791,9.30686283111572,9.31075572967529,9.31465148925781,9.3185510635376,9.32245349884033,9.32635879516602,9.33026885986328,9.33418083190918,9.33809661865234,9.34201526641846,9.34593772888184,9.34986305236816,9.35379219055176,9.3577241897583,9.36166000366211,9.36559867858887,9.36954116821289,9.37348651885986,9.37743473052979,9.38138675689697,9.38534259796143,9.38930130004883,9.3932638168335,9.39722919464111,9.40119743347168,9.40516948699951,9.40914535522461,9.41312408447266,9.41710662841797,9.42109203338623,9.43342971801758,9.47515487670898,9.51725006103516,9.55972099304199,9.60257339477539,9.64581108093262,9.68944072723389,9.73346614837646,9.77789306640625,9.82272815704346,9.86797618865967,9.8827543258667,9.89403343200684,9.90533828735352,9.91666984558105,9.92802619934082,9.93940925598145,9.95081901550293,9.96225357055664,9.97371578216553,9.98520374298096,9.99671840667725,10.0082597732544,10.0198278427124,10.031421661377,10.0430431365967,10.0546913146973,10.066367149353,10.0780696868896,10.0897998809814,10.1015567779541,10.1133413314819,10.1251535415649,10.1369934082031,10.1488609313965,10.160756111145,10.172679901123,10.1846313476562,10.1966104507446,10.2086181640625,10.2242202758789,10.2416687011719,10.2591772079468,10.2767448425293,10.2943735122681,10.3120622634888,10.32981300354,10.3476238250732,10.365496635437,10.3800077438354,10.3945188522339,10.4090709686279,10.4236631393433,10.4382972717285,10.4529714584351,10.4676876068115,10.4824457168579,10.4840288162231,10.483941078186,10.4838590621948,10.4837741851807,10.4836864471436,10.4836053848267,10.4835166931152,10.4834327697754,10.4833507537842,10.48326587677,10.4831781387329,10.483097076416,10.4830093383789,10.4829273223877,10.4828395843506,10.4827547073364,10.4826736450195,10.4825887680054,10.4825048446655,10.4824199676514,10.4823322296143,10.482250213623,10.4821662902832,10.482081413269,10.4819965362549,10.4819116592407,10.4818239212036,10.4817428588867,10.4816551208496,10.4815731048584,10.4814891815186,10.4814043045044,10.4813194274902,10.4812355041504,10.481146812439,10.4810657501221,10.4809818267822,10.4808931350708,10.4808120727539,10.4807281494141,10.4806432723999,10.4805583953857,10.4804706573486,10.4803895950317,10.4803047180176,10.4802169799805,10.4801359176636,10.4800510406494,10.4799633026123,10.4798793792725,10.4797973632812,10.4797134399414,10.4796257019043,10.4795408248901,10.4794597625732,10.4793720245361,10.479287147522,10.4792032241821,10.479118347168,10.4790334701538,10.4789524078369,10.4788646697998,10.47878074646,10.4786958694458,10.478611946106,10.4785270690918,10.4784421920776,10.4783582687378,10.4782733917236,10.4781894683838,10.4781045913696,10.4780206680298,10.4779329299927,10.4778518676758,10.4777669906616,10.4776792526245,10.4775953292847,10.4775142669678,10.4774293899536,10.4773454666138,10.4772577285767,10.4771766662598,10.4770889282227,10.4770078659058,10.4769201278687,10.4768352508545,10.4767513275146,10.4766702651978,10.4765825271606,10.4764976501465,10.4764137268066,10.4763288497925,10.4762477874756,10.4761610031128,10.4760732650757,10.4759922027588,10.4759073257446,10.4758234024048,10.4757356643677,10.4756507873535,10.4755706787109,10.4754829406738,10.4753980636597,10.4753141403198,10.4752330780029,10.4751453399658,10.4750642776489,10.4749765396118,10.474892616272,10.4748077392578,10.4747276306152
8.77646923065186,8.77766132354736,8.77885246276855,8.78004455566406,8.78123760223389,8.78243064880371,8.78362369537354,8.78481769561768,8.7860107421875,8.78720569610596,8.7883996963501,8.78959465026855,8.79172706604004,8.79771614074707,8.80371379852295,8.80971908569336,8.81573390960693,8.82175540924072,8.82778644561768,8.83382511138916,8.83987140655518,8.84592723846436,8.85199069976807,8.85806179046631,8.86414241790771,8.87023067474365,8.87632751464844,8.88243293762207,8.88854694366455,8.89466857910156,8.90079975128174,8.90693855285645,8.9130859375,8.9192419052124,8.92540645599365,8.93157958984375,8.93776035308838,8.94395065307617,8.95014953613281,8.9563570022583,8.96257305145264,8.96879768371582,8.97502994537354,8.98127174377441,8.98752307891846,8.99378204345703,9.00004959106445,9.00632667541504,9.01261234283447,9.01890659332275,9.02520942687988,9.03152084350586,9.037841796875,9.04417133331299,9.05051040649414,9.05685710906982,9.06321334838867,9.06957912445068,9.07595252990723,9.08233547210693,9.0887279510498,9.09512901306152,9.10153865814209,9.10795783996582,9.11438655853271,9.12082386016846,9.12726974487305,9.1337251663208,9.14019012451172,9.14666366577148,9.15314674377441,9.15963935852051,9.16614055633545,9.17265129089355,9.17917060852051,9.18570041656494,9.19223880767822,9.19776058197021,9.20156192779541,9.20536708831787,9.2091760635376,9.21298694610596,9.21680164337158,9.22062015533447,9.224440574646,9.22826480865479,9.23209190368652,9.23592281341553,9.23975658416748,9.24359321594238,9.24743366241455,9.25127696990967,9.25512313842773,9.25897312164307,9.26282596588135,9.26668167114258,9.27054119110107,9.27440357208252,9.27826881408691,9.28213787078857,9.28600978851318,9.28988552093506,9.29376411437988,9.29764652252197,9.3015308380127,9.305419921875,9.30931091308594,9.31320571899414,9.31710433959961,9.32100582122803,9.32491016387939,9.32881832122803,9.33272933959961,9.33664417266846,9.34056186676025,9.344482421875,9.34840679168701,9.35233497619629,9.3562650680542,9.36019992828369,9.36413764953613,9.36807823181152,9.37202262878418,9.37596988677979,9.37992095947266,9.38387489318848,9.38783264160156,9.3917932510376,9.3957576751709,9.39972496032715,9.40369606018066,9.40767002105713,9.41164779663086,9.41562938690186,9.41961288452148,9.45511722564697,9.49703502655029,9.53932571411133,9.58199405670166,9.6250467300415,9.66848754882812,9.71232318878174,9.75655746459961,9.80119609832764,9.84624576568604,9.8840274810791,9.89530944824219,9.90661716461182,9.9179515838623,9.92931079864502,9.94069766998291,9.95210933685303,9.963547706604,9.97501277923584,9.98650360107422,9.99802112579346,10.0095653533936,10.0211362838745,10.0327339172363,10.044358253479,10.0560092926025,10.0676879882812,10.0793933868408,10.0911264419556,10.1028871536255,10.1146745681763,10.1264905929565,10.1383333206177,10.150203704834,10.1621017456055,10.1740283966064,10.1859827041626,10.2001695632935,10.2175359725952,10.2349615097046,10.2524461746216,10.2699918746948,10.2875967025757,10.3052625656128,10.3229894638062,10.3392152786255,10.353611946106,10.368049621582,10.3825273513794,10.3970460891724,10.4116048812866,10.4262046813965,10.4266214370728,10.4265384674072,10.4264545440674,10.4263715744019,10.4262847900391,10.4262046813965,10.426121711731,10.4260349273682,10.4259510040283,10.4258680343628,10.4257850646973,10.4257011413574,10.4256181716919,10.4255313873291,10.4254512786865,10.425368309021,10.4252815246582,10.4252014160156,10.4251146316528,10.4250316619873,10.4249486923218,10.424861907959,10.4247817993164,10.4246950149536,10.4246120452881,10.4245319366455,10.4244451522827,10.4243621826172,10.4242792129517,10.4241924285889,10.4241123199463,10.4240255355835,10.423942565918,10.4238624572754,10.4237756729126,10.4236927032471,10.4236097335815,10.4235229492188,10.4234428405762,10.4233598709106,10.4232730865479,10.4231901168823,10.4231071472168,10.4230241775513,10.4229402542114,10.4228544235229,10.4227705001831,10.4226875305176,10.4226045608521,10.4225215911865,10.4224376678467,10.4223518371582,10.4222717285156,10.4221887588501,10.4221019744873,10.4220190048218,10.4219360351562,10.4218530654907,10.4217691421509,10.4216833114624,10.4216032028198,10.421516418457,10.4214334487915,10.421350479126,10.4212675094604,10.4211845397949,10.4211015701294,10.4210147857666,10.4209318161011,10.4208488464355,10.42076587677,10.4206819534302,10.4205989837646,10.4205131530762,10.4204301834106,10.4203472137451,10.4202632904053,10.4201774597168,10.4200973510742,10.4200143814087,10.4199285507202,10.4198446273804,10.4197616577148,10.4196758270264,10.4195957183838,10.4195127487183,10.4194269180298,10.4193439483643,10.4192600250244,10.4191770553589,10.4190940856934,10.4190082550049,10.4189252853394,10.4188423156738,10.418755531311,10.4186763763428,10.41858959198,10.4185066223145,10.4184236526489,10.4183406829834,10.4182577133179,10.4181718826294,10.4180889129639,10.4180088043213,10.4179229736328,10.4178400039673,10.4177532196045,10.417670249939,10.4175872802734,10.4175043106079,10.4174184799194,10.4173355102539
8.77418041229248,8.77537155151367,8.77656269073486,8.77775382995605,8.77894592285156,8.78013896942139,8.78133106231689,8.78252410888672,8.78371715545654,8.78491115570068,8.78610515594482,8.78729915618896,8.78849315643311,8.78968811035156,8.79088401794434,8.79207897186279,8.79592895507812,8.80192375183105,8.80792713165283,8.81393909454346,8.81995868682861,8.82598686218262,8.83202266693115,8.83806705474854,8.84412002563477,8.85018062591553,8.85625076293945,8.86232757568359,8.8684139251709,8.87450885772705,8.88061141967773,8.88672256469727,8.89284229278564,8.89896965026855,8.90510654449463,8.91125106811523,8.917405128479,8.9235668182373,8.92973709106445,8.93591594696045,8.94210338592529,8.94829940795898,8.95450496673584,8.96071815490723,8.96693992614746,8.97317028045654,8.97940921783447,8.98565769195557,8.99191474914551,8.99817943572998,9.00445365905762,9.0107364654541,9.01702785491943,9.02332878112793,9.02963829040527,9.03595638275146,9.0422830581665,9.04861831665039,9.05496311187744,9.06131649017334,9.0676794052124,9.07405090332031,9.08043098449707,9.08682060241699,9.09321880340576,9.0996265411377,9.10604286193848,9.11246776580811,9.11890316009521,9.12534618377686,9.13179874420166,9.13826084136963,9.14473247528076,9.15121269226074,9.15770149230957,9.16419982910156,9.17070865631104,9.17722511291504,9.18375205993652,9.18875885009766,9.19255352020264,9.19635105133057,9.20015144348145,9.20395565032959,9.20776271820068,9.21157360076904,9.21538639068604,9.21920299530029,9.22302341461182,9.22684574127197,9.23067188262939,9.23450183868408,9.2383337020874,9.2421703338623,9.24600887298584,9.24985122680664,9.25369644165039,9.25754451751709,9.26139640808105,9.26525115966797,9.26910877227783,9.27297019958496,9.27683448791504,9.28070259094238,9.28457355499268,9.28844738006592,9.29232501983643,9.29620552062988,9.30008983612061,9.30397701263428,9.3078670501709,9.31176090240479,9.31565761566162,9.31955814361572,9.32346153259277,9.32736778259277,9.33127784729004,9.33519172668457,9.33910846710205,9.34302806854248,9.34695053100586,9.35087776184082,9.35480690002441,9.35873985290527,9.3626766204834,9.36661624908447,9.3705587387085,9.37450504302979,9.37845516204834,9.38240814208984,9.3863639831543,9.39032363891602,9.394287109375,9.39825344085693,9.40222263336182,9.40619564056396,9.41017246246338,9.41415214538574,9.43516540527344,9.47690486907959,9.51901626586914,9.56150341033936,9.60437202453613,9.64762592315674,9.69127178192139,9.73531341552734,9.77975845336914,9.82460975646973,9.86987495422363,9.89658546447754,9.90789699554443,9.91923332214355,9.93059635162354,9.94198513031006,9.95340061187744,9.96484184265137,9.97630977630615,9.98780345916748,9.99932384490967,10.0108709335327,10.0224447250366,10.0340452194214,10.0456733703613,10.0573272705078,10.0690097808838,10.0807180404663,10.092453956604,10.1042175292969,10.1160087585449,10.1278266906738,10.1396732330322,10.1515464782715,10.1634483337402,10.176230430603,10.1935157775879,10.2108592987061,10.2282629013062,10.2457246780396,10.2632474899292,10.2808294296265,10.2984714508057,10.3130264282227,10.3273506164551,10.3417148590088,10.3561191558838,10.3699283599854,10.3698396682739,10.3697576522827,10.3696756362915,10.3695964813232,10.369514465332,10.3694267272949,10.3693447113037,10.3692626953125,10.3691806793213,10.3690986633301,10.3690166473389,10.3689308166504,10.3688526153564,10.368766784668,10.3686819076538,10.3685998916626,10.3685178756714,10.3684358596802,10.368353843689,10.3682680130005,10.3681869506836,10.3681049346924,10.3680191040039,10.36794090271,10.3678550720215,10.3677730560303,10.3676910400391,10.3676061630249,10.3675241470337,10.3674421310425,10.3673601150513,10.3672780990601,10.3671932220459,10.3671083450317,10.3670263290405,10.3669443130493,10.3668622970581,10.3667802810669,10.3666954040527,10.3666133880615,10.3665313720703,10.3664464950562,10.3663673400879,10.3662824630737,10.3662004470825,10.3661184310913,10.3660335540771,10.3659515380859,10.3658695220947,10.3657884597778,10.3657064437866,10.3656177520752,10.365535736084,10.3654537200928,10.3653755187988,10.3652935028076,10.3652057647705,10.3651237487793,10.3650417327881,10.3649597167969,10.3648777008057,10.3647928237915,10.3647108078003,10.3646297454834,10.3645439147949,10.364462852478,10.3643808364868,10.3642988204956,10.3642139434814,10.3641319274902,10.364049911499,10.3639650344849,10.3638830184937,10.3638019561768,10.3637199401855,10.3636350631714,10.3635530471802,10.363471031189,10.3633899688721,10.3633012771606,10.3632192611694,10.3631381988525,10.3630590438843,10.3629741668701,10.362889289856,10.3628072738647,10.3627262115479,10.3626441955566,10.3625621795654,10.3624773025513,10.3623924255371,10.3623113632202,10.362229347229,10.3621473312378,10.3620624542236,10.3619804382324,10.3618993759155,10.3618173599243,10.3617324829102,10.3616514205933,10.3615655899048,10.3614873886108,10.3614025115967,10.3613176345825,10.3612394332886,10.3611545562744,10.3610696792603,10.3609914779663,10.3609066009521,10.360821723938,10.360743522644,10.3606586456299,10.3605766296387
8.77189254760742,8.7730827331543,8.77427387237549,8.77546501159668,8.77665615081787,8.77784729003906,8.77903938293457,8.78023242950439,8.7814245223999,8.78261756896973,8.78381061553955,8.78500461578369,8.78619861602783,8.78739261627197,8.78858757019043,8.78978252410889,8.79097747802734,8.7921724319458,8.79336833953857,8.79456520080566,8.80013561248779,8.80613613128662,8.8121452331543,8.8181619644165,8.82418823242188,8.83022117614746,8.83626365661621,8.84231376647949,8.84837245941162,8.8544397354126,8.86051464080811,8.86659812927246,8.87269020080566,8.8787899017334,8.8848991394043,8.89101600646973,8.897141456604,8.90327548980713,8.9094181060791,8.91556835174561,8.92172813415527,8.92789554595947,8.93407249450684,8.94025707244873,8.94645118713379,8.95265293121338,8.95886421203613,8.96508312225342,8.97131156921387,8.97754764556885,8.98379325866699,8.99004745483398,8.99631023406982,9.00258159637451,9.00886154174805,9.01515102386475,9.02144813537598,9.02775478363037,9.03407096862793,9.04039478302002,9.04672813415527,9.05307006835938,9.05942058563232,9.06578063964844,9.0721492767334,9.07852745056152,9.0849142074585,9.09130954742432,9.0977144241333,9.10412788391113,9.11055088043213,9.11698246002197,9.12342357635498,9.12987327575684,9.13633251190186,9.14280128479004,9.14927864074707,9.15576553344727,9.16226100921631,9.16876602172852,9.17528057098389,9.17977428436279,9.18356132507324,9.18735218048096,9.1911449432373,9.19494152069092,9.1987419128418,9.20254421234131,9.20635032653809,9.21015930175781,9.2139720916748,9.21778774261475,9.22160625457764,9.22542762756348,9.22925281524658,9.23308086395264,9.23691272735596,9.24074649810791,9.24458408355713,9.24842548370361,9.25226974487305,9.25611686706543,9.25996685028076,9.26382064819336,9.26767730712891,9.27153778076172,9.27540111541748,9.27926731109619,9.28313732147217,9.28701019287109,9.29088687896729,9.29476642608643,9.29864883422852,9.30253505706787,9.30642414093018,9.31031608581543,9.31421184539795,9.31811141967773,9.32201290130615,9.32591915130615,9.32982730865479,9.33373928070068,9.33765506744385,9.34157371520996,9.34549522399902,9.34942054748535,9.35334873199463,9.35728073120117,9.36121654510498,9.36515426635742,9.36909580230713,9.3730411529541,9.37698936462402,9.38094139099121,9.38489627838135,9.38885498046875,9.3928165435791,9.39678192138672,9.40075016021729,9.40472221374512,9.4086971282959,9.41529655456543,9.45686054229736,9.49879360198975,9.54110050201416,9.58378505706787,9.62685394287109,9.67031097412109,9.71416282653809,9.75841331481934,9.80306911468506,9.84813594818115,9.8936185836792,9.90917682647705,9.92051601409912,9.93188190460205,9.94327354431152,9.95469188690186,9.96613597869873,9.97760677337646,9.98910331726074,10.0006275177002,10.0121774673462,10.023754119873,10.0353584289551,10.0469884872437,10.0586462020874,10.070330619812,10.0820426940918,10.0937814712524,10.1055479049683,10.1173419952393,10.1291637420654,10.1410131454468,10.1528902053833,10.1696090698242,10.1868715286255,10.2041921615601,10.2215728759766,10.2390117645264,10.2565116882324,10.2727575302124,10.2869701385498,10.3012228012085,10.3137607574463,10.3136796951294,10.3135957717896,10.313515663147,10.3134307861328,10.3133506774902,10.3132696151733,10.3131895065308,10.3131046295166,10.313024520874,10.3129405975342,10.3128595352173,10.3127756118774,10.3126945495605,10.312614440918,10.3125305175781,10.3124494552612,10.3123693466187,10.3122854232788,10.3122043609619,10.312123298645,10.3120393753052,10.3119592666626,10.3118753433228,10.3117942810059,10.3117141723633,10.3116302490234,10.3115491867065,10.311469078064,10.3113851547241,10.3113079071045,10.3112201690674,10.3111400604248,10.3110589981079,10.3109788894653,10.3108949661255,10.3108139038086,10.3107299804688,10.3106498718262,10.3105688095093,10.3104848861694,10.3104047775269,10.310320854187,10.3102397918701,10.3101558685303,10.3100757598877,10.3099946975708,10.3099117279053,10.3098278045654,10.3097505569458,10.309666633606,10.3095827102661,10.3095016479492,10.3094215393066,10.3093376159668,10.3092575073242,10.3091735839844,10.3090925216675,10.3090124130249,10.3089256286621,10.3088483810425,10.3087644577026,10.308687210083,10.3086032867432,10.3085193634033,10.3084392547607,10.3083581924438,10.308274269104,10.3081912994385,10.3081102371216,10.3080263137817,10.3079500198364,10.3078660964966,10.3077850341797,10.3077020645142,10.3076210021973,10.3075408935547,10.3074569702148,10.307373046875,10.3072929382324,10.3072128295898,10.3071317672729,10.3070478439331,10.3069648742676,10.3068838119507,10.3068037033081,10.3067197799683,10.3066396713257,10.3065557479858,10.3064756393433,10.3063955307007,10.3063116073608,10.3062314987183,10.3061475753784,10.3060674667358,10.3059864044189,10.3058996200562,10.3058195114136,10.305739402771,10.3056583404541,10.3055782318115,10.3054914474487,10.3054113388062,10.3053312301636,10.3052501678467,10.3051671981812,10.3050832748413,10.3050031661987,10.3049221038818,10.3048391342163,10.3047552108765,10.3046751022339,10.3045949935913,10.3045110702515,10.3044271469116
8.769606590271,8.77079582214355,8.77198600769043,8.7731761932373,8.7743673324585,8.77555847167969,8.77674961090088,8.77794075012207,8.77913284301758,8.7803258895874,8.78151798248291,8.78271102905273,8.78390407562256,8.7850980758667,8.78629207611084,8.78748607635498,8.78868103027344,8.78987598419189,8.79107093811035,8.79226684570312,8.7934627532959,8.79465866088867,8.79585552215576,8.79834651947021,8.80434513092041,8.81035232543945,8.81636714935303,8.82238960266113,8.8284215927124,8.83446025848389,8.84050846099854,8.84656429290771,8.85262870788574,8.85870170593262,8.86478233337402,8.87087249755859,8.8769702911377,8.88307571411133,8.88919067382812,8.89531326293945,8.90144538879395,8.90758514404297,8.91373348236084,8.91989040374756,8.92605495452881,8.93222904205322,8.93841171264648,8.94460296630859,8.95080280303955,8.95701026916504,8.96322727203369,8.96945285797119,8.97568702697754,8.98192977905273,8.98818111419678,8.99444103240967,9.00071048736572,9.00698757171631,9.01327419281006,9.01956939697266,9.0258731842041,9.03218650817871,9.03850746154785,9.04483795166016,9.05117797851562,9.05752563476562,9.06388282775879,9.07024955749512,9.07662391662598,9.0830078125,9.08940124511719,9.09580326080322,9.10221385955811,9.10863399505615,9.11506366729736,9.12150192260742,9.12794876098633,9.1344051361084,9.14087104797363,9.14734554290771,9.15382957458496,9.16032314300537,9.16682529449463,9.17080783843994,9.17458724975586,9.17837047576904,9.18215656280518,9.18594551086426,9.18973827362061,9.19353294372559,9.19733142852783,9.20113372802734,9.20493793487549,9.2087459564209,9.21255779266357,9.21637153625488,9.22018909454346,9.22400951385498,9.22783374786377,9.23166084289551,9.2354907989502,9.23932456970215,9.24316024780273,9.2470006942749,9.2508430480957,9.25468921661377,9.25853824615479,9.26239109039307,9.2662467956543,9.27010536193848,9.27396774291992,9.27783298492432,9.28170204162598,9.28557395935059,9.28944873809814,9.29332637786865,9.29720783233643,9.30109310150146,9.30498123168945,9.30887222290039,9.31276702880859,9.31666469573975,9.32056522369385,9.32446956634521,9.32837772369385,9.33228778839111,9.33620262145996,9.34011936187744,9.3440408706665,9.3479642868042,9.35189151763916,9.35582256317139,9.35975646972656,9.36369323730469,9.36763381958008,9.37157726287842,9.37552452087402,9.37947559356689,9.38342952728271,9.38738632202148,9.39134693145752,9.3953104019165,9.39927768707275,9.40324783325195,9.40722179412842,9.4369010925293,9.47865676879883,9.52078342437744,9.56328678131104,9.60617065429688,9.64944076538086,9.69310283660889,9.73716163635254,9.78162288665771,9.82649230957031,9.87177467346191,9.91045570373535,9.92179870605469,9.93316745758057,9.9445629119873,9.95598316192627,9.96743106842041,9.97890472412109,9.99040412902832,10.0019311904907,10.0134840011597,10.0250644683838,10.0366706848145,10.0483045578003,10.059965133667,10.0716524124146,10.0833673477173,10.0951099395752,10.106879234314,10.1186761856079,10.130500793457,10.1458129882812,10.1629953384399,10.1802349090576,10.1975336074829,10.2148914337158,10.2323083877563,10.2469043731689,10.2581987380981,10.2581195831299,10.2580394744873,10.2579565048218,10.2578773498535,10.257794380188,10.2577152252197,10.2576360702515,10.2575531005859,10.2574739456177,10.2573881149292,10.2573089599609,10.2572288513184,10.2571468353271,10.2570667266846,10.2569847106934,10.2569055557251,10.2568225860596,10.2567434310913,10.2566604614258,10.2565813064575,10.256498336792,10.2564191818237,10.2563400268555,10.2562570571899,10.2561740875244,10.2560949325562,10.2560129165649,10.2559328079224,10.2558507919312,10.2557678222656,10.2556915283203,10.2556095123291,10.2555265426636,10.2554445266724,10.2553644180298,10.2552852630615,10.2552032470703,10.2551202774048,10.2550411224365,10.2549619674683,10.2548789978027,10.2547969818115,10.254714012146,10.254638671875,10.2545585632324,10.2544727325439,10.2543935775757,10.2543115615845,10.2542324066162,10.2541494369507,10.2540702819824,10.2539873123169,10.2539081573486,10.2538290023804,10.2537469863892,10.2536640167236,10.2535820007324,10.2535057067871,10.2534198760986,10.2533445358276,10.2532587051392,10.2531795501709,10.2531003952026,10.2530174255371,10.2529354095459,10.2528562545776,10.2527732849121,10.2526941299438,10.2526121139526,10.2525291442871,10.2524499893188,10.2523708343506,10.2522888183594,10.2522096633911,10.2521266937256,10.2520446777344,10.2519655227661,10.2518825531006,10.2518033981323,10.2517213821411,10.2516422271729,10.2515602111816,10.2514810562134,10.2513952255249,10.2513160705566,10.2512369155884,10.2511539459229,10.2510757446289,10.2509927749634,10.2509136199951,10.2508316040039,10.2507486343384,10.2506704330444,10.2505874633789,10.2505083084106,10.2504291534424,10.2503442764282,10.25026512146,10.2501821517944,10.2501029968262,10.2500247955322,10.2499418258667,10.2498598098755,10.2497806549072,10.249698638916,10.2496194839478,10.2495365142822,10.249454498291,10.2493753433228,10.2492961883545,10.2492141723633,10.2491321563721,10.2490501403809,10.2489671707153,10.2488918304443
8.76732063293457,8.76850986480713,8.76969909667969,8.77088928222656,8.77207946777344,8.77326965332031,8.7744607925415,8.7756519317627,8.77684307098389,8.77803421020508,8.77922630310059,8.78041934967041,8.78161144256592,8.78280448913574,8.78399753570557,8.78519153594971,8.78638553619385,8.78757953643799,8.78877449035645,8.7899694442749,8.79116439819336,8.79236030578613,8.79355621337891,8.79475212097168,8.79594898223877,8.79714584350586,8.79834270477295,8.80255508422852,8.80855941772461,8.81457233428955,8.82059288024902,8.82662105560303,8.8326587677002,8.83870410919189,8.84475708007812,8.85081958770752,8.85688972473145,8.86296844482422,8.86905479431152,8.87515068054199,8.88125419616699,8.88736629486084,8.89348602294922,8.89961528778076,8.90575313568115,8.91189861297607,8.91805267333984,8.92421531677246,8.93038749694824,8.93656730651855,8.94275569915771,8.94895267486572,8.95515823364258,8.96137237548828,8.96759510040283,8.97382640838623,8.98006629943848,8.98631572723389,8.99257278442383,8.99883937835693,9.00511455535889,9.01139831542969,9.01769065856934,9.02399253845215,9.03030204772949,9.03662109375,9.04294872283936,9.04928588867188,9.05563163757324,9.06198596954346,9.06834983825684,9.07472229003906,9.08110332489014,9.08749389648438,9.09389305114746,9.10030078887939,9.10671806335449,9.11314487457275,9.11958026885986,9.12602519989014,9.13247871398926,9.13894176483154,9.14541339874268,9.15189456939697,9.15808868408203,9.16185855865479,9.16563129425049,9.16940593719482,9.17318534851074,9.17696666717529,9.18075180053711,9.18453979492188,9.18833065032959,9.19212532043457,9.1959228515625,9.19972324371338,9.20352649688721,9.2073335647583,9.21114349365234,9.21495628356934,9.21877288818359,9.2225923538208,9.22641468048096,9.23024082183838,9.23406982421875,9.23790168762207,9.24173736572266,9.24557590484619,9.24941730499268,9.25326251983643,9.25711059570312,9.26096153259277,9.26481628417969,9.26867389678955,9.27253532409668,9.27639865875244,9.28026676177979,9.28413677215576,9.288010597229,9.29188823699951,9.29576778411865,9.29965209960938,9.30353832244873,9.30742835998535,9.31132221221924,9.31521797180176,9.31911849975586,9.32302093505859,9.32692718505859,9.33083724975586,9.33475017547607,9.33866596221924,9.34258556365967,9.34650897979736,9.35043430328369,9.3543643951416,9.35829639434814,9.36223220825195,9.36617183685303,9.37011432647705,9.37406063079834,9.37800979614258,9.38196182250977,9.38591861724854,9.38987731933594,9.39383983612061,9.39780616760254,9.40177536010742,9.41702556610107,9.45860481262207,9.50055313110352,9.54287528991699,9.58557605743408,9.62866115570068,9.67213439941406,9.71600246429443,9.76027011871338,9.80494403839111,9.85002708435059,9.89552783966064,9.92308235168457,9.9344539642334,9.94585132598877,9.957275390625,9.96872615814209,9.98020267486572,9.9917049407959,10.0032348632812,10.0147905349731,10.0263738632202,10.0379838943481,10.0496206283569,10.0612840652466,10.0729751586914,10.0846929550171,10.0964384078979,10.108211517334,10.1221294403076,10.1392307281494,10.1563901901245,10.1736078262329,10.1908836364746,10.2032356262207,10.2031574249268,10.2030763626099,10.2029943466187,10.2029161453247,10.2028350830078,10.2027540206909,10.202675819397,10.2025938034058,10.2025127410889,10.2024345397949,10.202356338501,10.2022752761841,10.2021932601929,10.2021160125732,10.202033996582,10.2019529342651,10.2018718719482,10.2017936706543,10.2017116546631,10.2016334533691,10.2015523910522,10.2014713287354,10.2013931274414,10.2013120651245,10.2012300491333,10.2011528015137,10.2010707855225,10.2009897232056,10.2009153366089,10.2008304595947,10.2007522583008,10.2006711959839,10.200590133667,10.200511932373,10.2004308700562,10.2003488540649,10.200270652771,10.2001895904541,10.2001113891602,10.2000303268433,10.1999492645264,10.1998710632324,10.1997900009155,10.1997089385986,10.1996307373047,10.1995496749878,10.1994686126709,10.199390411377,10.1993093490601,10.1992273330688,10.1991500854492,10.1990690231323,10.1989908218384,10.1989097595215,10.1988277435303,10.1987466812134,10.1986694335938,10.1985874176025,10.1985063552856,10.198429107666,10.1983470916748,10.1982698440552,10.1981887817383,10.1981067657471,10.1980295181274,10.1979484558105,10.1978664398193,10.1977853775024,10.1977081298828,10.1976270675659,10.197548866272,10.1974678039551,10.1973867416382,10.1973085403442,10.1972274780273,10.1971492767334,10.1970653533936,10.1969871520996,10.1969060897827,10.1968278884888,10.1967468261719,10.196662902832,10.1965885162354,10.1965036392212,10.1964263916016,10.1963481903076,10.1962633132935,10.1961860656738,10.1961050033569,10.196026802063,10.1959457397461,10.1958646774292,10.1957836151123,10.1957063674927,10.1956253051758,10.1955442428589,10.1954660415649,10.195384979248,10.1953067779541,10.1952257156372,10.1951417922974,10.1950674057007,10.1949825286865,10.1949081420898,10.19482421875,10.1947431564331,10.1946649551392,10.1945838928223,10.1945066452026,10.1944227218628,10.1943445205688,10.194263458252,10.1941862106323,10.1941051483154,10.1940240859985,10.1939458847046
8.76503658294678,8.76622486114502,8.76741409301758,8.76860332489014,8.7697925567627,8.77098274230957,8.77217292785645,8.77336311340332,8.77455425262451,8.77574443817139,8.77693653106689,8.77812767028809,8.77931976318359,8.78051280975342,8.78170490264893,8.78289794921875,8.78409194946289,8.78528499603271,8.78647899627686,8.78767395019531,8.78886795043945,8.79006290435791,8.79125881195068,8.79245376586914,8.79364967346191,8.794846534729,8.79604244232178,8.79723930358887,8.79843711853027,8.79963493347168,8.80083274841309,8.8067684173584,8.81277751922607,8.81879615783691,8.82482242584229,8.8308572769165,8.83689975738525,8.84295082092285,8.8490104675293,8.85507869720459,8.86115455627441,8.86723899841309,8.87333106994629,8.87943267822266,8.88554191589355,8.8916597366333,8.89778614044189,8.90392112731934,8.91006469726562,8.91621685028076,8.92237663269043,8.92854595184326,8.93472290039062,8.94090843200684,8.94710350036621,8.95330619812012,8.95951747894287,8.96573829650879,8.97196674346924,8.97820472717285,8.98445129394531,8.99070644378662,8.99696922302246,9.00324249267578,9.00952339172363,9.01581287384033,9.0221118927002,9.02841949462891,9.03473567962646,9.04106140136719,9.04739475250244,9.05373764038086,9.06009006500244,9.06645011901855,9.07282066345215,9.07919883728027,9.08558654785156,9.0919828414917,9.098388671875,9.10480308532715,9.11122703552246,9.11766052246094,9.12410163879395,9.13055324554443,9.13701343536377,9.14348220825195,9.14916515350342,9.15292644500732,9.1566915512085,9.16046047210693,9.164231300354,9.16800594329834,9.17178344726562,9.17556381225586,9.17934703826904,9.18313407897949,9.18692398071289,9.19071769714355,9.19451332092285,9.19831275939941,9.20211601257324,9.2059211730957,9.20973014831543,9.21354198455811,9.21735668182373,9.22117519378662,9.22499656677246,9.22882175445557,9.2326488494873,9.23647975921631,9.24031448364258,9.2441520690918,9.24799251556396,9.25183582305908,9.25568294525146,9.2595329284668,9.26338672637939,9.26724243164062,9.27110290527344,9.27496528625488,9.27883148193359,9.28270053863525,9.28657341003418,9.29044914245605,9.2943286895752,9.29821109771729,9.30209636688232,9.30598545074463,9.30987739562988,9.3137731552124,9.31767177581787,9.32157325744629,9.32547855377197,9.32938671112061,9.3332986831665,9.33721351623535,9.34113121032715,9.34505367279053,9.34897804260254,9.35290622711182,9.35683727264404,9.36077213287354,9.36471080780029,9.36865139007568,9.37259674072266,9.37654399871826,9.38049602508545,9.38445091247559,9.38840866088867,9.39237022399902,9.39633464813232,9.40030288696289,9.43863773345947,9.48040866851807,9.52255153656006,9.56507015228271,9.60797023773193,9.6512565612793,9.6949348449707,9.73901081085205,9.78348922729492,9.82837581634521,9.87367534637451,9.91939544677734,9.93574047088623,9.94714069366455,9.95856761932373,9.97002124786377,9.98150062561035,9.99300670623779,10.0045394897461,10.0160980224609,10.027684211731,10.0392971038818,10.0509366989136,10.0626039505005,10.0742969512939,10.0860185623169,10.0985555648804,10.1155776977539,10.1326570510864,10.1488552093506,10.148777961731,10.1487016677856,10.1486215591431,10.1485414505005,10.1484613418579,10.1483812332153,10.1483011245728,10.1482238769531,10.1481437683105,10.148063659668,10.1479835510254,10.1479063034058,10.1478300094604,10.1477460861206,10.147665977478,10.1475896835327,10.1475095748901,10.1474294662476,10.1473522186279,10.1472692489624,10.1471920013428,10.1471157073975,10.1470317840576,10.146951675415,10.1468753814697,10.1467952728271,10.1467189788818,10.1466388702393,10.1465587615967,10.1464786529541,10.1463985443115,10.1463212966919,10.1462383270264,10.1461610794067,10.1460847854614,10.1460046768188,10.1459217071533,10.1458444595337,10.1457643508911,10.1456880569458,10.1456079483032,10.1455249786377,10.1454477310181,10.1453676223755,10.1452913284302,10.1452083587646,10.145131111145,10.1450548171997,10.1449708938599,10.1448917388916,10.144814491272,10.1447343826294,10.1446542739868,10.1445779800415,10.1444978713989,10.1444177627563,10.1443386077881,10.1442584991455,10.1441812515259,10.1441011428833,10.1440181732178,10.1439418792725,10.1438655853271,10.1437854766846,10.1437015533447,10.1436252593994,10.1435489654541,10.1434650421143,10.143385887146,10.1433086395264,10.1432294845581,10.1431493759155,10.1430730819702,10.1429891586304,10.1429128646851,10.1428327560425,10.1427526473999,10.1426763534546,10.1425933837891,10.1425132751465,10.1424369812012,10.1423568725586,10.142276763916,10.1422004699707,10.1421203613281,10.1420412063599,10.1419610977173,10.1418809890747,10.1418018341064,10.1417245864868,10.1416454315186,10.141565322876,10.1414852142334,10.1414089202881,10.1413259506226,10.1412496566772,10.1411724090576,10.1410865783691,10.1410102844238,10.1409330368042,10.1408538818359,10.1407737731934,10.1406936645508,10.1406145095825,10.1405382156372,10.1404581069946,10.1403779983521,10.1402988433838,10.1402187347412,10.1401386260986,10.1400623321533,10.1399793624878,10.1399030685425,10.1398229598999,10.1397438049316,10.1396636962891,10.1395845413208
8.7627534866333,8.76394176483154,8.76513004302979,8.76631832122803,8.76750755310059,8.76869678497314,8.7698860168457,8.77107620239258,8.77226543426514,8.77345657348633,8.7746467590332,8.77583789825439,8.7770299911499,8.77822113037109,8.7794132232666,8.78060626983643,8.78179836273193,8.78299140930176,8.7841854095459,8.78537845611572,8.78657245635986,8.78776741027832,8.78896141052246,8.79015636444092,8.79135227203369,8.79254817962646,8.79374408721924,8.79493999481201,8.7961368560791,8.79733371734619,8.79853057861328,8.79972839355469,8.80092620849609,8.80212497711182,8.80497741699219,8.81098461151123,8.81700038909912,8.82302379608154,8.82905673980713,8.83509635925293,8.84114551544189,8.84720230102539,8.85326766967773,8.85934162139893,8.86542320251465,8.87151336669922,8.87761211395264,8.8837194442749,8.8898344039917,8.89595794677734,8.90209102630615,8.90823173522949,8.91438102722168,8.92053890228271,8.92670440673828,8.93287944793701,8.93906307220459,8.94525527954102,8.95145511627197,8.95766448974609,8.96388244628906,8.97010803222656,8.97634315490723,8.98258686065674,8.9888391494751,8.99510097503662,9.00137042999268,9.00764942169189,9.01393604278564,9.02023220062256,9.02653694152832,9.03285121917725,9.0391731262207,9.04550457000732,9.05184555053711,9.05819416046143,9.06455230712891,9.07091999053955,9.07729530334473,9.08368015289307,9.09007453918457,9.09647750854492,9.10288906097412,9.10931015014648,9.11574077606201,9.12217998504639,9.12862777709961,9.135085105896,9.14025783538818,9.14401245117188,9.14776992797852,9.15153121948242,9.15529537200928,9.15906238555908,9.16283226013184,9.16660499572754,9.17038154602051,9.17416095733643,9.17794418334961,9.18172931671143,9.18551826477051,9.18931007385254,9.19310569763184,9.19690322875977,9.20070457458496,9.20450973510742,9.20831680297852,9.21212768554688,9.21594142913818,9.21975898742676,9.22357940673828,9.22740268707275,9.23122882843018,9.23505878448486,9.2388916015625,9.2427282333374,9.24656772613525,9.25041007995605,9.2542552947998,9.25810432434082,9.26195621490479,9.26581192016602,9.2696704864502,9.27353191375732,9.27739715576172,9.28126525878906,9.28513717651367,9.28901195526123,9.29288959503174,9.2967700958252,9.30065536499023,9.30454254150391,9.30843353271484,9.31232738494873,9.31622505187988,9.32012557983398,9.32402992248535,9.32793712615967,9.33184719085693,9.33576107025146,9.33967781066895,9.34359836578369,9.34752178192139,9.35144901275635,9.35537910461426,9.35931205749512,9.36324977874756,9.36718940734863,9.37113285064697,9.37508010864258,9.37903022766113,9.38298320770264,9.38694000244141,9.39089965820312,9.39486312866211,9.41875457763672,9.46035003662109,9.5023136138916,9.54465103149414,9.58736801147461,9.63046932220459,9.67395877838135,9.71784400939941,9.76212787628174,9.80681800842285,9.85191917419434,9.89743709564209,9.93702697753906,9.94843101501465,9.95986080169678,9.97131633758545,9.9827995300293,9.99430847167969,10.0058441162109,10.017406463623,10.028995513916,10.0406112670898,10.0522537231445,10.0639238357544,10.0756206512451,10.0920343399048,10.0949783325195,10.0948963165283,10.0948209762573,10.0947418212891,10.0946626663208,10.0945873260498,10.0945053100586,10.0944299697876,10.0943508148193,10.0942716598511,10.0941896438599,10.0941143035889,10.0940351486206,10.0939569473267,10.0938777923584,10.0937986373901,10.0937232971191,10.0936441421509,10.0935659408569,10.0934906005859,10.0934076309204,10.0933294296265,10.0932502746582,10.0931711196899,10.093092918396,10.0930137634277,10.0929384231567,10.0928592681885,10.0927810668945,10.0927019119263,10.0926237106323,10.0925445556641,10.0924654006958,10.0923871994019,10.0923118591309,10.0922327041626,10.0921535491943,10.0920782089233,10.0919961929321,10.0919179916382,10.0918388366699,10.0917596817017,10.0916814804077,10.0916023254395,10.0915241241455,10.0914487838745,10.0913696289062,10.0912914276123,10.091212272644,10.0911331176758,10.0910549163818,10.0909795761108,10.0908975601196,10.0908222198486,10.0907430648804,10.0906648635864,10.0905857086182,10.090503692627,10.090425491333,10.090350151062,10.0902709960938,10.0901927947998,10.0901136398315,10.0900354385376,10.0899600982666,10.0898809432983,10.0897989273071,10.0897235870361,10.0896453857422,10.089563369751,10.08948802948,10.0894060134888,10.0893306732178,10.0892524719238,10.0891733169556,10.0890951156616,10.0890159606934,10.0889377593994,10.0888624191284,10.0887832641602,10.0887022018433,10.088623046875,10.0885448455811,10.0884695053101,10.0883903503418,10.0883083343506,10.0882339477539,10.0881547927856,10.0880765914917,10.0879974365234,10.0879192352295,10.0878410339355,10.0877618789673,10.0876836776733,10.0876045227051,10.0875263214111,10.0874481201172,10.0873689651489,10.087290763855,10.087215423584,10.08713722229,10.0870580673218,10.0869798660278,10.0869016647339,10.0868196487427,10.0867443084717,10.0866622924805,10.0865840911865,10.0865087509155,10.0864305496216,10.0863552093506,10.0862731933594,10.0861949920654,10.0861167907715,10.0860376358032,10.0859594345093,10.0858812332153,10.0858030319214
8.76047229766846,8.76165962219238,8.76284694671631,8.76403522491455,8.76522350311279,8.76641178131104,8.76760005950928,8.76878929138184,8.76997947692871,8.77116870880127,8.77235889434814,8.77355003356934,8.77474021911621,8.7759313583374,8.77712345123291,8.7783145904541,8.77950668334961,8.78069972991943,8.78189182281494,8.78308486938477,8.78427886962891,8.78547191619873,8.78666591644287,8.78786087036133,8.78905582427979,8.79025077819824,8.7914457321167,8.79264163970947,8.79383754730225,8.79503345489502,8.79623031616211,8.7974271774292,8.79862499237061,8.79982280731201,8.80102062225342,8.80221843719482,8.80341720581055,8.80461597442627,8.80919170379639,8.81520557403564,8.82122707366943,8.82725620269775,8.83329391479492,8.83934020996094,8.8453950881958,8.8514575958252,8.85752868652344,8.86360836029053,8.86969566345215,8.87579250335693,8.88189697265625,8.88801002502441,8.89413070678711,8.90026092529297,8.90639877319336,8.91254615783691,8.918701171875,8.92486476898193,8.93103694915771,8.93721771240234,8.94340705871582,8.94960498809814,8.95581150054932,8.96202659606934,8.9682502746582,8.97448253631592,8.9807243347168,8.98697376251221,8.99323272705078,8.99949932098389,9.00577545166016,9.01206016540527,9.01835346221924,9.02465629577637,9.03096675872803,9.03728675842285,9.04361534118652,9.04995346069336,9.05630016326904,9.06265544891357,9.06901931762695,9.0753927230835,9.0817756652832,9.08816623687744,9.09456729888916,9.10097599029541,9.10739421844482,9.1138219833374,9.12025833129883,9.12670421600342,9.13136768341064,9.13511562347412,9.13886547088623,9.14261913299561,9.14637565612793,9.15013599395752,9.15389823913574,9.15766429901123,9.16143321990967,9.16520500183105,9.16898059844971,9.17275905609131,9.17654037475586,9.18032455444336,9.18411254882812,9.18790340423584,9.1916971206665,9.19549465179443,9.199294090271,9.20309829711914,9.20690441131592,9.21071434020996,9.21452713012695,9.21834278106689,9.22216129302979,9.22598361968994,9.22980976104736,9.23363780975342,9.23746967315674,9.24130439758301,9.24514293670654,9.24898433685303,9.25282859802246,9.25667667388916,9.26052761077881,9.26438140869141,9.26823902130127,9.27209949493408,9.27596378326416,9.27982997894287,9.28370094299316,9.28757381439209,9.29145050048828,9.29533100128174,9.29921340942383,9.3031005859375,9.3069896697998,9.31088256835938,9.31477928161621,9.318678855896,9.32258129119873,9.32648754119873,9.33039665222168,9.33430862426758,9.33822441101074,9.34214401245117,9.34606647491455,9.34999179840088,9.35392093658447,9.35785293579102,9.36178874969482,9.36572742462158,9.36966991424561,9.37361526489258,9.37756443023682,9.381516456604,9.38547229766846,9.38943099975586,9.39895534515381,9.44037532806396,9.48216152191162,9.52431964874268,9.56685447692871,9.60977077484131,9.65307331085205,9.69676780700684,9.74086093902588,9.78535556793213,9.83025932312012,9.87557697296143,9.92131423950195,9.94972038269043,9.96115398406982,9.97261238098145,9.98409843444824,9.99561023712158,10.0071487426758,10.0187139511108,10.0303058624268,10.0418195724487,10.0417451858521,10.0416641235352,10.0415868759155,10.0415086746216,10.041431427002,10.0413541793823,10.0412759780884,10.0412015914917,10.0411205291748,10.0410461425781,10.0409660339355,10.0408916473389,10.040810585022,10.040732383728,10.0406589508057,10.0405778884888,10.0405035018921,10.0404224395752,10.0403451919556,10.0402669906616,10.040189743042,10.0401124954224,10.0400342941284,10.0399570465088,10.0398797988892,10.0398015975952,10.0397214889526,10.039647102356,10.039568901062,10.0394887924194,10.0394144058228,10.0393333435059,10.0392589569092,10.0391817092896,10.0391006469727,10.039026260376,10.0389451980591,10.0388679504395,10.0387935638428,10.0387134552002,10.0386352539062,10.0385580062866,10.0384836196899,10.0384063720703,10.0383253097534,10.0382480621338,10.0381708145142,10.0380964279175,10.0380191802979,10.037938117981,10.0378608703613,10.0377836227417,10.037709236145,10.0376319885254,10.0375509262085,10.0374736785889,10.0373964309692,10.0373182296753,10.0372409820557,10.037163734436,10.0370826721191,10.0370092391968,10.0369310379028,10.0368537902832,10.0367736816406,10.0366954803467,10.0366182327271,10.0365409851074,10.0364637374878,10.0363864898682,10.0363092422485,10.0362310409546,10.036153793335,10.0360765457153,10.0359992980957,10.0359220504761,10.0358448028564,10.0357675552368,10.0356864929199,10.0356121063232,10.0355348587036,10.035457611084,10.0353775024414,10.0352993011475,10.0352258682251,10.0351486206055,10.0350675582886,10.0349903106689,10.0349130630493,10.0348358154297,10.034761428833,10.0346841812134,10.0346040725708,10.0345230102539,10.0344457626343,10.0343713760376,10.034291267395,10.0342168807983,10.0341396331787,10.0340595245361,10.0339851379395,10.0339050292969,10.0338277816772,10.0337533950806,10.033673286438,10.0335960388184,10.0335187911987,10.0334415435791,10.0333642959595,10.0332870483398,10.0332059860229,10.0331287384033,10.0330514907837,10.0329742431641,10.0329008102417,10.0328197479248,10.0327463150024,10.0326652526855,10.0325880050659
8.75819110870361,8.75937843322754,8.76056480407715,8.76175212860107,8.76294040679932,8.76412773132324,8.76531600952148,8.76650524139404,8.76769351959229,8.76888275146484,8.77007293701172,8.77126216888428,8.77245235443115,8.77364349365234,8.77483367919922,8.77602481842041,8.77721691131592,8.77840805053711,8.77960014343262,8.78079319000244,8.78198528289795,8.78317832946777,8.78437232971191,8.78556632995605,8.7867603302002,8.78795433044434,8.78914928436279,8.79034423828125,8.79153919219971,8.79273509979248,8.79393100738525,8.79512786865234,8.79632472991943,8.79752159118652,8.79871845245361,8.79991626739502,8.80111408233643,8.80231285095215,8.80351161956787,8.80471038818359,8.80590915679932,8.80739974975586,8.81341075897217,8.81943035125732,8.82545757293701,8.83149242401123,8.83753681182861,8.84358882904053,8.84964847564697,8.85571765899658,8.86179447174072,8.86787986755371,8.87397289276123,8.88007545471191,8.88618564605713,8.89230442047119,8.8984317779541,8.90456771850586,8.91071128845215,8.9168643951416,8.92302513122559,8.92919540405273,8.93537330627441,8.94155979156494,8.94775581359863,8.95395946502686,8.96017169952393,8.96639347076416,8.97262287139893,8.97886180877686,8.98510932922363,8.99136447906494,8.99762916564941,9.00390243530273,9.0101842880249,9.01647567749023,9.02277565002441,9.02908420562744,9.03540134429932,9.04172706604004,9.04806232452393,9.05440616607666,9.06075859069824,9.06712055206299,9.07349109649658,9.07987117767334,9.08625984191895,9.0926570892334,9.09906387329102,9.10547924041748,9.11190414428711,9.11833763122559,9.12249565124512,9.12623596191406,9.12997913360596,9.1337251663208,9.13747501373291,9.14122676849365,9.14498233795166,9.14874076843262,9.15250205993652,9.1562671661377,9.16003513336182,9.16380596160889,9.16757965087891,9.17135715484619,9.17513751983643,9.17892074584961,9.18270683288574,9.18649673461914,9.19028949737549,9.19408512115479,9.19788455963135,9.20168685913086,9.20549201965332,9.20930004119873,9.21311187744141,9.21692657470703,9.22074508666992,9.22456550598145,9.22838973999023,9.23221778869629,9.23604869842529,9.23988246917725,9.24371910095215,9.24755954742432,9.25140285491943,9.2552490234375,9.25909900665283,9.26295185089111,9.26680755615234,9.27066707611084,9.27452945709229,9.278395652771,9.28226470947266,9.28613662719727,9.29001235961914,9.29389095306396,9.29777336120605,9.30165863037109,9.30554676055908,9.30943870544434,9.31333351135254,9.31723213195801,9.32113361358643,9.32503795623779,9.32894611358643,9.33285713195801,9.33677196502686,9.34068965911865,9.34461116790771,9.34853553771973,9.35246276855469,9.35639381408691,9.36032867431641,9.36426639556885,9.36820697784424,9.37215137481689,9.37609958648682,9.38004970550537,9.38400459289551,9.38796234130859,9.42048454284668,9.46209526062012,9.50407409667969,9.54642772674561,9.58916091918945,9.6322774887085,9.67578411102295,9.71968555450439,9.76398658752441,9.80869388580322,9.8538122177124,9.89934825897217,9.94530582427979,9.96244716644287,9.97390842437744,9.98539733886719,9.98914527893066,9.98906517028809,9.98899173736572,9.98891544342041,9.9888391494751,9.98875904083252,9.98867988586426,9.98861026763916,9.98853015899658,9.98845386505127,9.98837757110596,9.98829746246338,9.98822116851807,9.98814868927002,9.98806858062744,9.98799228668213,9.98791313171387,9.9878396987915,9.98776340484619,9.98768711090088,9.98760414123535,9.98753070831299,9.98745441436768,9.98738193511963,9.98730182647705,9.98722267150879,9.98714637756348,9.98707008361816,9.98699378967285,9.98691749572754,9.98683738708496,9.9867639541626,9.98668479919434,9.98661136627197,9.98653221130371,9.9864559173584,9.98637962341309,9.98630332946777,9.98622417449951,9.9861478805542,9.98607444763184,9.98599529266357,9.98591899871826,9.98583889007568,9.98576259613037,9.98568630218506,9.98561382293701,9.98553371429443,9.98545742034912,9.98537826538086,9.98530578613281,9.98522567749023,9.98515319824219,9.98507308959961,9.9849967956543,9.98492050170898,9.98484420776367,9.98476505279541,9.9846887588501,9.98461627960205,9.98453617095947,9.98445987701416,9.9843807220459,9.98430442810059,9.98422813415527,9.98415184020996,9.98407649993896,9.98400020599365,9.98392009735107,9.98384761810303,9.98376846313477,9.98368835449219,9.98361587524414,9.98353672027588,9.98346328735352,9.9833869934082,9.98330783843994,9.98322868347168,9.98315525054932,9.98307609558105,9.98300361633301,9.98292350769043,9.98284816741943,9.98277187347412,9.98269557952881,9.98261642456055,9.98254013061523,9.98246383666992,9.98238754272461,9.9823112487793,9.98223209381104,9.98215579986572,9.98208045959473,9.98200416564941,9.9819278717041,9.98184871673584,9.98177623748779,9.98169612884521,9.98162078857422,9.98154067993164,9.98146533966064,9.98138904571533,9.98131275177002,9.98123645782471,9.98115730285645,9.9810848236084,9.98100566864014,9.98093223571777,9.98085308074951,9.98077392578125,9.98069763183594,9.98062229156494,9.98054599761963,9.98046684265137,9.98039054870605,9.98031425476074,9.9802417755127,9.98016262054443,9.98008632659912,9.98001098632812,9.97993087768555
8.7559118270874,8.75709819793701,8.75828456878662,8.75947093963623,8.76065826416016,8.76184558868408,8.76303291320801,8.76422119140625,8.76540946960449,8.76659774780273,8.76778697967529,8.76897621154785,8.77016544342041,8.77135562896729,8.77254581451416,8.77373600006104,8.77492713928223,8.77611827850342,8.77731037139893,8.77850151062012,8.77969360351562,8.78088665008545,8.78207874298096,8.7832727432251,8.78446578979492,8.78565979003906,8.7868537902832,8.78804779052734,8.7892427444458,8.79043769836426,8.79163360595703,8.79282855987549,8.79402542114258,8.79522132873535,8.79641819000244,8.79761505126953,8.79881286621094,8.80000972747803,8.80120849609375,8.80240631103516,8.80360507965088,8.8048038482666,8.80600357055664,8.80720329284668,8.80840301513672,8.81161689758301,8.81763362884521,8.82365894317627,8.82969188690186,8.83573341369629,8.84178256988525,8.84784030914307,8.85390663146973,8.85998058319092,8.86606407165527,8.87215518951416,8.87825393676758,8.88436222076416,8.89047908782959,8.89660358428955,8.90273666381836,8.90887832641602,8.91502857208252,8.92118740081787,8.92735385894775,8.9335298538208,8.9397144317627,8.94590663909912,8.95210838317871,8.95831871032715,8.96453666687012,8.97076416015625,8.97700023651123,8.98324489593506,8.98949813842773,8.99575996398926,9.00203037261963,9.00831031799316,9.01459884643555,9.02089500427246,9.02720165252686,9.03351593017578,9.03983974456787,9.04617214202881,9.05251312255859,9.05886268615723,9.06522178649902,9.07159042358398,9.07796669006348,9.08435344696045,9.09074783325195,9.09715175628662,9.10356426239014,9.10991096496582,9.11364078521729,9.1173734664917,9.12110900878906,9.12484836578369,9.12859058380127,9.1323356628418,9.13608360290527,9.1398344039917,9.14358901977539,9.14734649658203,9.15110683441162,9.15487003326416,9.15863704681396,9.16240692138672,9.16617965698242,9.16995620727539,9.17373466491699,9.17751693725586,9.18130207061768,9.18509101867676,9.18888282775879,9.19267749786377,9.1964750289917,9.20027637481689,9.20408058166504,9.20788764953613,9.21169757843018,9.21551132202148,9.21932792663574,9.22314834594727,9.22697162628174,9.23079776763916,9.23462677001953,9.23845958709717,9.24229526519775,9.24613475799561,9.24997615814209,9.25382232666016,9.25767040252686,9.26152229309082,9.26537704467773,9.26923561096191,9.27309703826904,9.27696132659912,9.28082942962646,9.28470039367676,9.28857421875,9.29245185852051,9.29633331298828,9.30021667480469,9.30410385131836,9.3079948425293,9.31188869476318,9.31578540802002,9.31968593597412,9.32358932495117,9.32749652862549,9.33140659332275,9.33531951904297,9.33923625946045,9.34315586090088,9.34707927703857,9.35100555419922,9.35493564605713,9.35886859893799,9.36280536651611,9.36674499511719,9.37068843841553,9.37463474273682,9.37858390808105,9.38253784179688,9.40067768096924,9.44211292266846,9.48391532897949,9.52608871459961,9.56863880157471,9.61157131195068,9.6548900604248,9.69860172271729,9.74271106719971,9.78722286224365,9.83214378356934,9.87747859954834,9.92323398590088,9.93694114685059,9.93686962127686,9.93678760528564,9.93671607971191,9.93664073944092,9.93656253814697,9.93648719787598,9.93640899658203,9.93633365631104,9.93625831604004,9.93618297576904,9.9361047744751,9.9360294342041,9.93595409393311,9.93587970733643,9.93580436706543,9.93572521209717,9.93565082550049,9.93557548522949,9.93549728393555,9.93542194366455,9.93534660339355,9.93526840209961,9.93519306182861,9.93511772155762,9.93503952026367,9.93496799468994,9.934889793396,9.934814453125,9.934739112854,9.93466091156006,9.93458557128906,9.93451118469238,9.93443202972412,9.93435764312744,9.93428230285645,9.9342041015625,9.9341287612915,9.93405342102051,9.93397903442383,9.93389987945557,9.93382549285889,9.93375015258789,9.93367195129395,9.93359661102295,9.93352222442627,9.93344306945801,9.93336868286133,9.9332971572876,9.93321514129639,9.93313980102539,9.93306541442871,9.93299007415771,9.93291473388672,9.93283653259277,9.93276214599609,9.9326868057251,9.9326114654541,9.93253326416016,9.93245887756348,9.93238353729248,9.93230819702148,9.93222999572754,9.93215179443359,9.93208026885986,9.93200206756592,9.93192672729492,9.93185234069824,9.9317741394043,9.9316987991333,9.93162059783936,9.93154621124268,9.93147087097168,9.93139266967773,9.93131732940674,9.93124294281006,9.93116760253906,9.93108940124512,9.93101501464844,9.93093681335449,9.93086528778076,9.93078708648682,9.93070888519287,9.93063354492188,9.9305591583252,9.9304838180542,9.93040561676025,9.93033123016357,9.93025588989258,9.93018054962158,9.93010330200195,9.93002796173096,9.92994976043701,9.92987823486328,9.92980003356934,9.92972183227539,9.92964744567871,9.92957210540771,9.92949390411377,9.92941951751709,9.92934131622314,9.92926597595215,9.92919158935547,9.92911624908447,9.92904186248779,9.92896366119385,9.9288854598999,9.92881393432617,9.92873573303223,9.92866134643555,9.92858600616455,9.92850780487061,9.92843341827393,9.92835903167725,9.9282808303833,9.9282054901123,9.92812728881836,9.92805290222168,9.927978515625,9.92790031433105,9.92782211303711
8.75363445281982,8.75481986999512,8.75600528717041,8.7571907043457,8.75837707519531,8.75956439971924,8.76075172424316,8.76193904876709,8.76312637329102,8.76431465148926,8.7655029296875,8.76669120788574,8.7678804397583,8.76906967163086,8.77025890350342,8.77144908905029,8.77263927459717,8.77382946014404,8.77502059936523,8.77621173858643,8.77740287780762,8.77859497070312,8.77978706359863,8.78098011016846,8.78217315673828,8.78336620330811,8.78455924987793,8.78575325012207,8.78694725036621,8.78814125061035,8.78933620452881,8.79053115844727,8.79172706604004,8.79292297363281,8.79411888122559,8.79531478881836,8.79651165008545,8.79770946502686,8.79890632629395,8.80010414123535,8.80130195617676,8.80250072479248,8.8036994934082,8.80489826202393,8.80609703063965,8.80729675292969,8.80849742889404,8.80969715118408,8.81089782714844,8.81583881378174,8.82186126708984,8.82789134979248,8.83393001556396,8.8399772644043,8.84603309631348,8.85209655761719,8.85816860198975,8.86424827575684,8.87033748626709,8.87643432617188,8.88253974914551,8.88865375518799,8.894775390625,8.90090656280518,8.90704536437988,8.91319274902344,8.91934967041016,8.92551422119141,8.9316873550415,8.93786907196045,8.94405937194824,8.95025825500488,8.95646572113037,8.96268177032471,8.96890640258789,8.97513961791992,8.9813814163208,8.98763179779053,8.99389171600342,9.00015926361084,9.00643634796143,9.01272201538086,9.01901626586914,9.02532005310059,9.03163146972656,9.0379524230957,9.04428195953369,9.05062103271484,9.05696868896484,9.06332492828369,9.06968975067139,9.07606410980225,9.08244705200195,9.08883953094482,9.09524059295654,9.1010799407959,9.10480308532715,9.10852813720703,9.11225700378418,9.11598873138428,9.11972332000732,9.12346076965332,9.12720203399658,9.13094615936279,9.13469314575195,9.13844299316406,9.14219570159912,9.14595222473145,9.14971160888672,9.15347385406494,9.15723991394043,9.16100883483887,9.16477966308594,9.16855525970459,9.17233276367188,9.17611408233643,9.17989826202393,9.18368530273438,9.18747615814209,9.19126987457275,9.19506645202637,9.19886589050293,9.20266914367676,9.20647525787354,9.21028423309326,9.21409702301025,9.2179126739502,9.22173118591309,9.22555255889893,9.22937774658203,9.2332067489624,9.23703765869141,9.24087238311768,9.24470996856689,9.24855136871338,9.25239562988281,9.2562427520752,9.26009273529053,9.26394653320312,9.26780414581299,9.2716646194458,9.27552795410156,9.27939414978027,9.28326416015625,9.28713703155518,9.29101371765137,9.29489326477051,9.2987756729126,9.30266189575195,9.30655097961426,9.31044387817383,9.31433963775635,9.31823825836182,9.32214069366455,9.32604694366455,9.32995510101318,9.3338680267334,9.33778285980225,9.34170150756836,9.34562397003174,9.34954929351807,9.35347747802734,9.35740947723389,9.3613452911377,9.36528301239014,9.36922550201416,9.37317085266113,9.37711906433105,9.38107109069824,9.42221546173096,9.46384048461914,9.50583553314209,9.54820537567139,9.5909538269043,9.63408660888672,9.67760944366455,9.72152805328369,9.76584625244141,9.81056976318359,9.85570621490479,9.88513565063477,9.88505554199219,9.88498497009277,9.88490772247314,9.88483047485352,9.88475608825684,9.88467884063721,9.88460540771484,9.88453102111816,9.88445377349854,9.88438320159912,9.88430309295654,9.88422870635986,9.8841552734375,9.88407802581787,9.88400363922119,9.88392639160156,9.8838529586792,9.88377857208252,9.88370513916016,9.88362407684326,9.88355350494385,9.88347625732422,9.8834056854248,9.88332843780518,9.88325119018555,9.88317775726318,9.88310050964355,9.88302326202393,9.88295269012451,9.88287544250488,9.88279819488525,9.88272476196289,9.88265037536621,9.88257312774658,9.88249969482422,9.88242244720459,9.88235187530518,9.88227462768555,9.88219738006592,9.88212394714355,9.88205051422119,9.88197326660156,9.88189888000488,9.88182163238525,9.88174819946289,9.88167095184326,9.8815975189209,9.88152027130127,9.88144588470459,9.88136959075928,9.88129901885986,9.88122177124023,9.88114452362061,9.88107109069824,9.88099670410156,9.88091945648193,9.88084602355957,9.88076877593994,9.88069534301758,9.88061809539795,9.88054466247559,9.88046741485596,9.88039016723633,9.88031959533691,9.8802433013916,9.88016891479492,9.88009166717529,9.88001823425293,9.8799409866333,9.8798713684082,9.87979030609131,9.87971687316895,9.87964344024658,9.87956619262695,9.87949275970459,9.87941551208496,9.8793420791626,9.87926483154297,9.87919139862061,9.87911701202393,9.87904071807861,9.87896347045898,9.87889003753662,9.87881565093994,9.87873554229736,9.87866497039795,9.87858867645264,9.87851428985596,9.87844085693359,9.87836456298828,9.8782901763916,9.87821388244629,9.87813949584961,9.87806606292725,9.87798976898193,9.8779125213623,9.87783908843994,9.87776184082031,9.87768840789795,9.87761497497559,9.87753772735596,9.87746429443359,9.87738704681396,9.87730979919434,9.87723636627197,9.87716007232666,9.87708950042725,9.87701225280762,9.8769359588623,9.87686252593994,9.87678527832031,9.87671184539795,9.87663459777832,9.87656116485596,9.87648391723633,9.87641048431396,9.8763370513916,9.87626075744629
8.75135707855225,8.75254154205322,8.75372695922852,8.75491237640381,8.7560977935791,8.75728416442871,8.75847053527832,8.75965690612793,8.76084423065186,8.76203155517578,8.76321983337402,8.76440715789795,8.76559543609619,8.76678466796875,8.76797294616699,8.76916217803955,8.77035236358643,8.7715425491333,8.77273273468018,8.77392292022705,8.77511405944824,8.77630519866943,8.77749633789062,8.77868843078613,8.77988052368164,8.78107357025146,8.78226661682129,8.78345966339111,8.78465270996094,8.78584671020508,8.78704071044922,8.78823566436768,8.78942966461182,8.79062557220459,8.79182052612305,8.79301643371582,8.79421234130859,8.79540920257568,8.79660606384277,8.79780292510986,8.79899978637695,8.80019760131836,8.80139636993408,8.80259418487549,8.80379295349121,8.80499172210693,8.80619144439697,8.80739116668701,8.80859088897705,8.80979156494141,8.81099224090576,8.81219291687012,8.81404399871826,8.82006359100342,8.82609176635742,8.83212852478027,8.83817291259766,8.84422588348389,8.85028743743896,8.85635662078857,8.86243438720703,8.86852073669434,8.87461471557617,8.88071823120117,8.8868293762207,8.89294910430908,8.89907741546631,8.90521335601807,8.91135883331299,8.91751194000244,8.92367458343506,8.92984485626221,8.9360237121582,8.94221210479736,8.94840812683105,8.95461273193359,8.9608268737793,8.96704864501953,8.97327899932861,8.97951889038086,8.98576641082764,8.99202346801758,8.99828910827637,9.004563331604,9.01084613800049,9.01713848114014,9.02343845367432,9.02974796295166,9.03606605529785,9.04239368438721,9.04872894287109,9.05507373809814,9.06142807006836,9.06779098510742,9.07416248321533,9.08054256439209,9.08693218231201,9.09226608276367,9.09598159790039,9.09969997406006,9.10342121124268,9.10714626312256,9.11087322235107,9.11460399627686,9.11833763122559,9.12207412719727,9.12581443786621,9.12955665588379,9.13330268859863,9.13705158233643,9.14080333709717,9.14455890655518,9.14831733703613,9.15207862854004,9.15584278106689,9.1596097946167,9.16338062286377,9.16715431213379,9.17093086242676,9.17471122741699,9.17849445343018,9.18228054046631,9.18606948852539,9.18986225128174,9.19365787506104,9.19745635986328,9.20125770568848,9.20506286621094,9.20887088775635,9.21268272399902,9.21649646759033,9.22031402587891,9.22413539886475,9.22795867919922,9.23178577423096,9.23561668395996,9.2394495010376,9.2432861328125,9.24712562561035,9.25096893310547,9.25481510162354,9.25866508483887,9.26251697540283,9.26637268066406,9.27023220062256,9.274094581604,9.2779598236084,9.28182792663574,9.28569984436035,9.28957557678223,9.29345417022705,9.29733562469482,9.30121994018555,9.30510807037354,9.30900001525879,9.31289386749268,9.31679248809814,9.32069301605225,9.32459735870361,9.32850551605225,9.33241653442383,9.33633041381836,9.34024810791016,9.3441686630249,9.34809303283691,9.35202026367188,9.3559513092041,9.35988521575928,9.3638219833374,9.36776256561279,9.37170696258545,9.37565422058105,9.4024019241333,9.44385147094727,9.48566913604736,9.52785873413086,9.57042407989502,9.61337280273438,9.65670871734619,9.70043659210205,9.74456214904785,9.78909111022949,9.83385848999023,9.83378505706787,9.83370971679688,9.83363628387451,9.83356094360352,9.8334846496582,9.83341217041016,9.83333587646484,9.83326625823975,9.83318710327148,9.83311462402344,9.83304119110107,9.83296585083008,9.83289241790771,9.83281707763672,9.83274078369141,9.83266830444336,9.83259201049805,9.83252239227295,9.83244323730469,9.83236694335938,9.83229827880859,9.83222198486328,9.83214569091797,9.83207321166992,9.83199691772461,9.83192157745361,9.83184814453125,9.83177280426025,9.83170032501221,9.83162403106689,9.83155155181885,9.8314790725708,9.83139896392822,9.83132648468018,9.83125400543213,9.83117866516113,9.83110523223877,9.83102989196777,9.83095359802246,9.83088111877441,9.83080863952637,9.83072948455811,9.83065700531006,9.8305835723877,9.8305082321167,9.83043575286865,9.83035945892334,9.83028697967529,9.83021068572998,9.83013820648193,9.83006286621094,9.82998657226562,9.82991409301758,9.82983779907227,9.82976531982422,9.82969284057617,9.82961368560791,9.82954120635986,9.82946872711182,9.82939338684082,9.82931709289551,9.82924461364746,9.82916831970215,9.8290958404541,9.82902336120605,9.82894420623779,9.82887172698975,9.8287992477417,9.8287239074707,9.82864761352539,9.82857227325439,9.82849979400635,9.8284273147583,9.82835102081299,9.82827854156494,9.82820320129395,9.82812690734863,9.82805442810059,9.82798194885254,9.82790279388428,9.82783031463623,9.82775783538818,9.82768249511719,9.82760620117188,9.82753086090088,9.82745838165283,9.82738590240479,9.82730960845947,9.82723712921143,9.82715892791748,9.82708644866943,9.82701396942139,9.82693767547607,9.82686519622803,9.82678985595703,9.82671356201172,9.82664108276367,9.82656574249268,9.82649040222168,9.82641792297363,9.82634162902832,9.82627296447754,9.82619380950928,9.82611846923828,9.82604885101318,9.82596969604492,9.82589721679688,9.82582187652588,9.82574653625488,9.82567405700684,9.82560157775879,9.82552623748779,9.82544994354248,9.82537746429443,9.82530212402344,9.82522964477539
8.7490816116333,8.75026512145996,8.75144958496094,8.75263500213623,8.75381946563721,8.7550048828125,8.75619125366211,8.75737762451172,8.75856399536133,8.75975036621094,8.76093769073486,8.76212501525879,8.76331233978271,8.76450061798096,8.7656888961792,8.76687717437744,8.76806640625,8.76925563812256,8.77044582366943,8.77163505554199,8.77282619476318,8.77401638031006,8.77520751953125,8.77639865875244,8.77758979797363,8.77878189086914,8.77997398376465,8.78116703033447,8.7823600769043,8.78355312347412,8.78474617004395,8.78594017028809,8.78713417053223,8.78832912445068,8.78952407836914,8.7907190322876,8.79191398620605,8.79310989379883,8.79430675506592,8.79550266265869,8.79669952392578,8.79789638519287,8.79909420013428,8.80029201507568,8.80148983001709,8.80268859863281,8.80388736724854,8.80508613586426,8.8062858581543,8.80748558044434,8.80868530273438,8.80988597869873,8.81108665466309,8.81228733062744,8.81348896026611,8.81469058990479,8.81826782226562,8.82429313659668,8.83032703399658,8.83636951446533,8.84241962432861,8.84847831726074,8.85454559326172,8.86062049865723,8.86670398712158,8.87279605865479,8.87889671325684,8.88500595092773,8.89112281799316,8.89724826812744,8.90338230133057,8.90952491760254,8.91567611694336,8.92183589935303,8.92800331115723,8.93418025970459,8.9403657913208,8.94655895233154,8.95276165008545,8.95897197723389,8.96519184112549,8.97142028808594,8.97765731811523,8.98390197753906,8.99015617370605,8.99641990661621,9.0026912689209,9.00897121429443,9.01526069641113,9.02155876159668,9.02786540985107,9.03418064117432,9.04050540924072,9.04683876037598,9.05318069458008,9.05953216552734,9.06589221954346,9.07226085662842,9.07863903045654,9.08347034454346,9.08717823028564,9.09088897705078,9.09460353851318,9.09832096099854,9.10204124450684,9.10576438903809,9.10949039459229,9.11322021484375,9.11695289611816,9.12068843841553,9.12442684173584,9.1281681060791,9.13191318511963,9.13566112518311,9.13941192626953,9.14316558837891,9.14692306518555,9.15068244934082,9.15444564819336,9.15821266174316,9.1619815826416,9.1657543182373,9.16952991485596,9.17330837249756,9.17709064483643,9.18087577819824,9.18466377258301,9.18845462799072,9.1922492980957,9.19604682922363,9.19984722137451,9.20365142822266,9.20745849609375,9.21126842498779,9.21508121490479,9.21889781951904,9.22271728515625,9.22654056549072,9.23036575317383,9.2341947555542,9.23802757263184,9.24186325073242,9.24570178985596,9.24954319000244,9.25338840484619,9.25723648071289,9.26108837127686,9.26494216918945,9.26880073547363,9.27266120910645,9.27652549743652,9.28039264678955,9.28426361083984,9.28813743591309,9.29201507568359,9.29589557647705,9.29977893829346,9.30366611480713,9.30755615234375,9.31144905090332,9.31534576416016,9.31924629211426,9.32314872741699,9.32705593109131,9.33096504211426,9.33487796783447,9.33879470825195,9.34271430969238,9.34663677215576,9.35056304931641,9.3544921875,9.35842514038086,9.36236190795898,9.36630058288574,9.37024402618408,9.38267040252686,9.42394638061523,9.4655876159668,9.50759792327881,9.54998302459717,9.59274768829346,9.63589668273926,9.67943668365479,9.72337055206299,9.7677059173584,9.78304004669189,9.78296756744385,9.78289604187012,9.78281879425049,9.78274631500244,9.78267478942871,9.78260040283203,9.7825288772583,9.7824535369873,9.78237915039062,9.78230762481689,9.78223323822021,9.78215789794922,9.78208351135254,9.78200817108154,9.78193664550781,9.78186511993408,9.78178691864014,9.78171539306641,9.78164100646973,9.781569480896,9.78149795532227,9.78141975402832,9.78134822845459,9.78127384185791,9.78119850158691,9.78112697601318,9.7810525894165,9.78097724914551,9.78090667724609,9.7808313369751,9.78075695037842,9.78068161010742,9.78061008453369,9.78053951263428,9.78046417236328,9.7803897857666,9.78031826019287,9.78024291992188,9.7801685333252,9.78009414672852,9.78001880645752,9.77994823455811,9.77987289428711,9.77980136871338,9.7797269821167,9.77965259552002,9.77958106994629,9.77950572967529,9.77943134307861,9.77935981750488,9.7792854309082,9.77921104431152,9.77913951873779,9.7790641784668,9.77898979187012,9.77891540527344,9.77884387969971,9.77876949310303,9.77869415283203,9.77862358093262,9.77854824066162,9.77847385406494,9.77839946746826,9.77832794189453,9.77825355529785,9.77817821502686,9.77810764312744,9.77803611755371,9.77795791625977,9.77788639068604,9.77781200408936,9.77774047851562,9.77766609191895,9.77759170532227,9.77751731872559,9.77744197845459,9.77737140655518,9.77729606628418,9.7772216796875,9.77715015411377,9.77707576751709,9.77700138092041,9.77692985534668,9.77685546875,9.77678108215332,9.77670669555664,9.77663135528564,9.77656078338623,9.77648544311523,9.77641487121582,9.77634048461914,9.77626514434814,9.77619075775146,9.77612018585205,9.77604484558105,9.77597427368164,9.7758960723877,9.77582168579102,9.77575397491455,9.77567958831787,9.77560138702393,9.7755298614502,9.77545547485352,9.77538108825684,9.77530956268311,9.77523517608643,9.77516078948975,9.77508926391602,9.77501487731934,9.77494430541992,9.77486991882324,9.77479553222656,9.77472019195557
8.74680614471436,8.74798965454102,8.74917411804199,8.75035858154297,8.75154304504395,8.75272750854492,8.75391292572021,8.75509834289551,8.7562837600708,8.75747013092041,8.75865650177002,8.75984382629395,8.76103019714355,8.76221752166748,8.76340579986572,8.76459407806396,8.76578235626221,8.76697063446045,8.76815986633301,8.76934909820557,8.77053833007812,8.771728515625,8.77291870117188,8.77410984039307,8.77530097961426,8.77649211883545,8.77768325805664,8.77887535095215,8.78006744384766,8.78126049041748,8.7824535369873,8.78364658355713,8.78483963012695,8.78603363037109,8.78722763061523,8.78842258453369,8.78961753845215,8.79081249237061,8.79200839996338,8.79320430755615,8.79440021514893,8.79559707641602,8.79679298400879,8.7979907989502,8.79918766021729,8.80038547515869,8.80158424377441,8.80278205871582,8.80398082733154,8.80518054962158,8.8063793182373,8.80757904052734,8.8087797164917,8.80997943878174,8.81118011474609,8.81238174438477,8.81358337402344,8.81478500366211,8.81598663330078,8.81718921661377,8.82249546051025,8.82852649688721,8.83456611633301,8.84061431884766,8.84667015075684,8.85273456573486,8.85880756378174,8.86488914489746,8.87097835540771,8.87707614898682,8.88318252563477,8.88929748535156,8.89542102813721,8.90155220031738,8.90769195556641,8.91384029388428,8.919997215271,8.92616271972656,8.93233680725098,8.93851947784424,8.94471073150635,8.9509105682373,8.95711898803711,8.96333599090576,8.96956157684326,8.97579574584961,8.9820384979248,8.98829078674316,8.99455070495605,9.00082015991211,9.0070972442627,9.01338386535645,9.01967906951904,9.0259838104248,9.0322961807251,9.03861808776855,9.04494857788086,9.05128860473633,9.05763721466064,9.06399440765381,9.07036018371582,9.0746898651123,9.07839107513428,9.0820951461792,9.08580207824707,9.08951187133789,9.09322547912598,9.09694194793701,9.10066032409668,9.10438251495361,9.10810852050781,9.11183643341064,9.11556816101074,9.11930179595947,9.12303924560547,9.12678050994873,9.13052368164062,9.13427066802979,9.13802051544189,9.14177322387695,9.14552879333496,9.14928817749023,9.15304946899414,9.15681552886963,9.16058349609375,9.16435432434082,9.16812896728516,9.17190647125244,9.17568778991699,9.17947101593018,9.18325805664062,9.18704795837402,9.19084167480469,9.1946382522583,9.19843769073486,9.20223999023438,9.20604610443115,9.20985507965088,9.21366691589355,9.21748161315918,9.22130012512207,9.22512149810791,9.22894668579102,9.23277473449707,9.23660564422607,9.24044036865234,9.24427700042725,9.24811840057373,9.25196170806885,9.25580883026123,9.25965881347656,9.26351261138916,9.26736927032471,9.2712287902832,9.27509212493896,9.27895832061768,9.28282737731934,9.28670024871826,9.29057598114014,9.29445552825928,9.29833793640137,9.30222415924072,9.30611228942871,9.31000518798828,9.31389999389648,9.31779861450195,9.32170104980469,9.32560634613037,9.329514503479,9.3334264755249,9.33734130859375,9.34125995635986,9.34518146514893,9.34910678863525,9.35303497314453,9.35696601867676,9.36090087890625,9.36483955383301,9.36878108978271,9.40412521362305,9.44559097290039,9.48742389678955,9.52962875366211,9.57221031188965,9.61517524719238,9.65852642059326,9.70227146148682,9.73282146453857,9.73274803161621,9.73267364501953,9.73260021209717,9.73252964019775,9.73245620727539,9.73238277435303,9.73231220245361,9.73223495483398,9.73216152191162,9.73209095001221,9.73201751708984,9.73194408416748,9.73187065124512,9.7318000793457,9.73172664642334,9.73165225982666,9.7315788269043,9.7315092086792,9.73143482208252,9.73136138916016,9.73128795623779,9.73121738433838,9.73114395141602,9.73107051849365,9.73099708557129,9.73092365264893,9.73084926605225,9.73077583312988,9.73070526123047,9.73062896728516,9.73055839538574,9.73048496246338,9.73041439056396,9.7303409576416,9.73026752471924,9.73019409179688,9.73012351989746,9.7300500869751,9.72997665405273,9.72990322113037,9.72982978820801,9.72975921630859,9.72968578338623,9.72961235046387,9.72954177856445,9.72946548461914,9.72939205169678,9.72932147979736,9.729248046875,9.72917079925537,9.72910118103027,9.72902774810791,9.7289571762085,9.72887992858887,9.7288064956665,9.72873687744141,9.72866630554199,9.72859001159668,9.72851943969727,9.7284460067749,9.72837257385254,9.72830200195312,9.72822570800781,9.7281551361084,9.72808170318604,9.72800827026367,9.72793483734131,9.72786140441895,9.72778797149658,9.72771835327148,9.72764492034912,9.72757148742676,9.72749805450439,9.72742462158203,9.72735118865967,9.72728061676025,9.72720718383789,9.72713375091553,9.72706031799316,9.7269868850708,9.7269172668457,9.72684001922607,9.72677040100098,9.72669696807861,9.72662353515625,9.72655010223389,9.72647666931152,9.72640323638916,9.72633266448975,9.7262601852417,9.72618675231934,9.72611331939697,9.72603988647461,9.7259693145752,9.72589588165283,9.72581958770752,9.72574901580811,9.72567653656006,9.7256031036377,9.72552967071533,9.72545623779297,9.72538566589355,9.72531318664551,9.72523975372314,9.72516632080078,9.72509288787842,9.725022315979,9.72494983673096,9.72487640380859,9.72480297088623,9.72472953796387
8.74453353881836,8.7457160949707,8.74689960479736,8.74808311462402,8.74926662445068,8.75045108795166,8.75163555145264,8.75282001495361,8.75400543212891,8.7551908493042,8.75637722015381,8.75756359100342,8.75874996185303,8.75993633270264,8.76112365722656,8.76231098175049,8.76349830627441,8.76468658447266,8.7658748626709,8.76706409454346,8.76825332641602,8.76944255828857,8.77063179016113,8.77182197570801,8.77301216125488,8.77420330047607,8.77539443969727,8.77658557891846,8.77777671813965,8.77896881103516,8.78016090393066,8.78135395050049,8.78254699707031,8.78374004364014,8.78493404388428,8.7861270904541,8.78732204437256,8.7885160446167,8.78971099853516,8.79090595245361,8.79210186004639,8.79329776763916,8.79449367523193,8.79569053649902,8.79688739776611,8.7980842590332,8.79928207397461,8.80047988891602,8.80167770385742,8.80287647247314,8.80407524108887,8.80527400970459,8.80647373199463,8.80767345428467,8.80887317657471,8.81007385253906,8.81127452850342,8.81247615814209,8.81367683410645,8.81487846374512,8.81608104705811,8.81728363037109,8.81848621368408,8.82069778442383,8.82672691345215,8.832763671875,8.8388090133667,8.84486293792725,8.85092544555664,8.85699558258057,8.86307430267334,8.86916160583496,8.87525653839111,8.88136100769043,8.88747310638428,8.89359378814697,8.8997220993042,8.90585994720459,8.91200637817383,8.9181604385376,8.92432308197021,8.930495262146,8.93667507171631,8.94286346435547,8.94906044006348,8.95526695251465,8.96148109436035,8.9677038192749,8.9739351272583,8.98017597198486,8.98642444610596,8.99268245697021,8.99894905090332,9.00522422790527,9.01150798797607,9.01780128479004,9.02410221099854,9.0304126739502,9.0367317199707,9.04306030273438,9.04939651489258,9.05574226379395,9.06209754943848,9.06592750549316,9.06962108612061,9.07331848144531,9.07701778411865,9.08072090148926,9.08442687988281,9.08813571929932,9.09184741973877,9.09556293487549,9.09928131103516,9.10300159454346,9.10672569274902,9.11045360565186,9.11418342590332,9.11791706085205,9.12165260314941,9.12539196014404,9.12913513183594,9.13288021087646,9.13662910461426,9.140380859375,9.14413547515869,9.14789295196533,9.15165424346924,9.15541839599609,9.1591854095459,9.16295528411865,9.16672897338867,9.17050552368164,9.17428493499756,9.17806720733643,9.18185329437256,9.18564224243164,9.18943405151367,9.19322967529297,9.19702816009521,9.20082950592041,9.20463371276855,9.20844173431396,9.21225261688232,9.21606636047363,9.21988391876221,9.22370433807373,9.2275276184082,9.23135471343994,9.23518466949463,9.23901748657227,9.24285316467285,9.2466926574707,9.25053596496582,9.25438117980957,9.25823020935059,9.26208305358887,9.26593780517578,9.26979732513428,9.27365875244141,9.2775239944458,9.28139209747314,9.28526401519775,9.28913879394531,9.29301643371582,9.29689788818359,9.30078220367432,9.30466938018799,9.30856037139893,9.31245517730713,9.31635284423828,9.32025337219238,9.32415771484375,9.32806491851807,9.33197498321533,9.33588886260986,9.33980655670166,9.34372615814209,9.3476505279541,9.35157775878906,9.35550785064697,9.35944175720215,9.36337852478027,9.38438701629639,9.42567825317383,9.46733474731445,9.50936126708984,9.55176162719727,9.59454250335693,9.63770771026611,9.6812629699707,9.68303775787354,9.68296527862549,9.68289661407471,9.68282413482666,9.68275165557861,9.68267917633057,9.68260288238525,9.68253421783447,9.68246173858643,9.68238925933838,9.68231678009033,9.68224430084229,9.68217468261719,9.68209934234619,9.68202686309814,9.68195724487305,9.68188190460205,9.68181228637695,9.68173980712891,9.68166446685791,9.68159866333008,9.68152236938477,9.68144989013672,9.68138122558594,9.68130588531494,9.68123340606689,9.6811637878418,9.68109130859375,9.68101596832275,9.68094635009766,9.68087387084961,9.68080139160156,9.68073272705078,9.68065738677979,9.68058490753174,9.68051242828369,9.68043994903564,9.68037033081055,9.68029499053955,9.68022632598877,9.68015384674072,9.68007755279541,9.68000888824463,9.67993640899658,9.67986106872559,9.67979145050049,9.67971992492676,9.67964744567871,9.67957496643066,9.67950248718262,9.67943382263184,9.67935752868652,9.67928504943848,9.6792163848877,9.6791410446167,9.6790714263916,9.67899608612061,9.67892360687256,9.67885494232178,9.67878246307373,9.67870998382568,9.67863750457764,9.67856216430664,9.67849349975586,9.67842102050781,9.67834854125977,9.67827606201172,9.67820453643799,9.67813205718994,9.67805957794189,9.67798709869385,9.6779146194458,9.67784309387207,9.67777347564697,9.67769813537598,9.67762565612793,9.6775541305542,9.67748165130615,9.67741203308105,9.67733669281006,9.67726421356201,9.67719554901123,9.67712020874023,9.67705154418945,9.67697620391846,9.67690658569336,9.67683506011963,9.67676258087158,9.67669010162354,9.67661762237549,9.67654609680176,9.67647361755371,9.67640113830566,9.67632961273193,9.67625713348389,9.67618465423584,9.67611217498779,9.67604351043701,9.67596817016602,9.67589569091797,9.67582416534424,9.67575168609619,9.67568302154541,9.67560768127441,9.67553520202637,9.67546272277832,9.67539119720459,9.67532253265381,9.6752462387085
8.74226093292236,8.74344348907471,8.74462604522705,8.74580860137939,8.74699211120605,8.74817562103271,8.74936008453369,8.75054359436035,8.75172805786133,8.75291347503662,8.75409889221191,8.75528430938721,8.7564697265625,8.75765609741211,8.75884246826172,8.76002979278564,8.76121616363525,8.7624044418335,8.76359176635742,8.76478004455566,8.76596832275391,8.76715755462646,8.76834583282471,8.76953601837158,8.77072525024414,8.77191543579102,8.77310562133789,8.77429676055908,8.77548789978027,8.77667903900146,8.77787017822266,8.77906227111816,8.78025436401367,8.7814474105835,8.78264045715332,8.78383350372314,8.78502750396729,8.78622150421143,8.78741550445557,8.78860950469971,8.78980445861816,8.79100036621094,8.79219532012939,8.79339122772217,8.79458808898926,8.79578399658203,8.79698085784912,8.79817867279053,8.79937553405762,8.80057334899902,8.80177211761475,8.80296993255615,8.80416870117188,8.80536842346191,8.80656719207764,8.80776786804199,8.80896759033203,8.81016826629639,8.81136894226074,8.8125696182251,8.81377124786377,8.81497287750244,8.81617546081543,8.8173770904541,8.81858062744141,8.81978321075439,8.8209867477417,8.82492828369141,8.83096218109131,8.83700561523438,8.84305667877197,8.84911632537842,8.85518455505371,8.86126041412354,8.86734485626221,8.87343788146973,8.87953948974609,8.88564872741699,8.89176750183105,8.89789390563965,8.90402889251709,8.91017246246338,8.9163236618042,8.92248439788818,8.92865371704102,8.93483066558838,8.94101715087891,8.94721126556396,8.95341491699219,8.95962619781494,8.96584701538086,8.97207641601562,8.97831344604492,8.98456001281738,8.99081516265869,8.99707889556885,9.00335216522217,9.00963306427002,9.01592350006104,9.02222156524658,9.02853012084961,9.03484630584717,9.04117107391357,9.04750537872314,9.05349826812744,9.05718231201172,9.06086826324463,9.0645580291748,9.06825065612793,9.07194709777832,9.07564544677734,9.07934761047363,9.08305168151855,9.08675956726074,9.09047031402588,9.09418487548828,9.09790134429932,9.10162162780762,9.10534477233887,9.10907077789307,9.11279964447021,9.11653137207031,9.12026691436768,9.12400531768799,9.12774658203125,9.13149070739746,9.13523769378662,9.13898849487305,9.14274215698242,9.14649868011475,9.15025901794434,9.15402221679688,9.15778732299805,9.1615571975708,9.16532897949219,9.16910457611084,9.17288303375244,9.17666435241699,9.18044853210449,9.18423652648926,9.18802738189697,9.19182109832764,9.19561862945557,9.19941902160645,9.20322227478027,9.20702934265137,9.21083831787109,9.21465110778809,9.21846771240234,9.22228717803955,9.22610950469971,9.22993469238281,9.23376369476318,9.2375955581665,9.24143028259277,9.24526882171631,9.24911022186279,9.25295448303223,9.25680255889893,9.26065349578857,9.26450824737549,9.26836490631104,9.27222633361816,9.27608966827393,9.27995681762695,9.28382682800293,9.28770065307617,9.29157733917236,9.29545783996582,9.29934120178223,9.30322742462158,9.3071174621582,9.31101036071777,9.31490612030029,9.31880569458008,9.32270908355713,9.32661533355713,9.33052444458008,9.33443737030029,9.33835315704346,9.34227180480957,9.34619426727295,9.35012054443359,9.35404968261719,9.35798168182373,9.36473178863525,9.40585041046143,9.44733047485352,9.48917865753174,9.53139972686768,9.57399749755859,9.61697769165039,9.6338357925415,9.63376522064209,9.63369369506836,9.63362216949463,9.63354778289795,9.63347911834717,9.63340854644775,9.63333702087402,9.63326549530029,9.63319110870361,9.63312244415283,9.63304805755615,9.63297653198242,9.63290596008301,9.63283443450928,9.63276290893555,9.63269138336182,9.6326208114624,9.63254928588867,9.63247776031494,9.63240623474121,9.6323356628418,9.63226699829102,9.63218975067139,9.63212108612061,9.63205051422119,9.63198184967041,9.63190460205078,9.63183307647705,9.63176155090332,9.63169384002686,9.63162231445312,9.63154792785645,9.63147640228271,9.63140869140625,9.63133811950684,9.63126277923584,9.63119220733643,9.6311206817627,9.63104915618896,9.63097858428955,9.63090705871582,9.63083553314209,9.63076496124268,9.63069343566895,9.63062191009521,9.6305513381958,9.63047695159912,9.63040828704834,9.63033390045166,9.63026332855225,9.63019180297852,9.63012027740479,9.63004970550537,9.62997817993164,9.62990379333496,9.6298360824585,9.62976169586182,9.62969017028809,9.62962245941162,9.62954807281494,9.62947654724121,9.6294059753418,9.62933826446533,9.6292667388916,9.62919235229492,9.62912082672119,9.62905025482178,9.62897872924805,9.62890434265137,9.6288366317749,9.62876510620117,9.62869453430176,9.62862300872803,9.62854862213135,9.62847805023193,9.6284065246582,9.62833595275879,9.62826442718506,9.62819385528564,9.62812232971191,9.6280517578125,9.62798023223877,9.62790584564209,9.62783432006836,9.62776374816895,9.62769603729248,9.62762451171875,9.62754726409912,9.62747955322266,9.62740802764893,9.62733745574951,9.62726593017578,9.6271915435791,9.62712383270264,9.62704944610596,9.62697887420654,9.62690830230713,9.6268367767334,9.62676620483398,9.62669467926025,9.62662410736084,9.62655258178711,9.62647819519043,9.62640762329102,9.62633991241455,9.62626838684082
