7.71854829788208,7.718430519104,7.71831274032593,7.71819496154785,7.71807718276978,7.7179594039917,7.71784162521362,7.71772384643555,7.71760606765747,7.71748828887939,7.71737051010132,7.71725273132324,7.71713495254517,7.71701717376709,7.71689939498901,7.71678161621094,7.71666431427002,7.72179412841797,7.74710988998413,7.77259206771851,7.79824256896973,7.82406282424927,7.85005521774292,7.87622022628784,7.90256023406982,7.9290771484375,7.9557728767395,7.9826488494873,8.00128078460693,8.00303936004639,8.00479888916016,8.00655937194824,8.00831985473633,8.01008224487305,8.01184463500977,8.0136079788208,8.01537227630615,8.01713752746582,8.01890277862549,8.02066993713379,8.02243709564209,8.02420520782471,8.02597332000732,8.02774333953857,8.02951335906982,8.03128528594971,8.03305721282959,8.03483009338379,8.03660297393799,8.03837776184082,8.04015254974365,8.0419282913208,8.04370498657227,8.04548263549805,8.04726123809814,8.04903984069824,8.05081939697266,8.05259990692139,8.05438137054443,8.0561637878418,8.05794715881348,8.05973052978516,8.06151485443115,8.06330013275146,8.06508636474609,8.06687355041504,8.0686616897583,8.07044982910156,8.07223892211914,8.07402896881104,8.07581996917725,8.07761192321777,8.0794038772583,8.08119773864746,8.08299160003662,8.0847864151001,8.08658218383789,8.08837890625,8.09017562866211,8.09197425842285,8.09377288818359,8.09557247161865,8.09737300872803,8.09917449951172,8.10097599029541,8.10277938842773,8.10458278656006,8.1063871383667,8.10819244384766,8.10999774932861,8.1118049621582,8.11361217498779,8.1154203414917,8.11722946166992,8.11903953552246,8.120849609375,8.12266159057617,8.12447357177734,8.12628650665283,8.12810134887695,8.12991523742676,8.1317310333252,8.13354778289795,8.1353645324707,8.13718318939209,8.13900184631348,8.14082145690918,8.1426420211792,8.14446258544922,8.14628505706787,8.14810752868652,8.14993190765381,8.15175628662109,8.1535816192627,8.1554069519043,8.15723419189453,8.15906238555908,8.16089057922363,8.1627197265625,8.16455078125,8.1663818359375,8.168212890625,8.17004585266113,8.17187976837158,8.17371368408203,8.17554950714111,8.18009662628174,8.18480587005615,8.18951988220215,8.19423866271973,8.19896411895752,8.20369434356689,8.20843029022217,8.21317100524902,8.21791839599609,8.22267055511475,8.2274284362793,8.23219108581543,8.23696041107178,8.24173450469971,8.24651432037354,8.25129985809326,8.25609016418457,8.26088714599609,8.2656888961792,8.27049732208252,8.27531051635742,8.28012943267822,8.28495311737061,8.2897834777832,8.2946195602417,8.29946041107178,8.30430793762207,8.30916023254395,8.31401920318604,8.31888294219971,8.32375240325928,8.32862854003906,8.33350944519043,8.3383960723877,8.34328842163086,8.34818744659424,8.3530912399292,8.35800170898438,8.36291694641113,8.36783885955811,8.37276554107666,8.37769889831543,8.3826379776001,8.38758277893066,8.39253330230713,8.39748954772949,8.40245151519775,8.40742015838623,8.41239356994629,8.41737365722656,8.42235946655273,8.4273509979248,8.43234920501709,8.43735218048096,8.44236183166504,8.44737720489502,8.4523983001709,8.45742607116699,8.46245956420898,8.46749877929688,8.47254371643066,8.47759532928467,8.48265266418457,8.48771667480469,8.49278545379639,8.49786186218262,8.50294303894043,8.50803089141846,8.51312446594238,8.51822471618652,8.52333068847656,8.5284423828125,8.53356075286865,8.53868579864502,8.54381561279297,8.54895305633545,8.55409526824951,8.55924415588379,8.56439971923828,8.56956100463867,8.57472896575928,8.57990264892578,8.5850830078125,8.59027004241943,8.59546279907227,8.600661277771,8.60586643218994,8.6110782623291,8.61629581451416,8.62152004241943,8.62675094604492,8.63198757171631,8.63723087310791,8.64248085021973,8.64773750305176,8.65299987792969,8.65826797485352,8.66354370117188,8.66882514953613,8.67411327362061,8.67940807342529,8.6847095489502,8.690016746521,8.69533061981201,8.70065116882324,8.70597839355469,8.71131229400635,8.71665191650391,8.721999168396,8.72735214233398,8.73271179199219,8.73807811737061,8.74345111846924,8.74883079528809,8.75421714782715,8.75961017608643,8.76500988006592,8.77041625976562,8.77582836151123,8.78124809265137,8.78667449951172,8.99267768859863,8.9978199005127,9.00296688079834,9.00811958312988,9.01327896118164,9.01844310760498,9.02361392974854,9.0287914276123,9.03397369384766,9.03916263580322,9.04435729980469,9.04955768585205,9.05476379394531,9.05997657775879,9.06519508361816,9.07041931152344,9.07565021514893,9.08088684082031,9.0861291885376,9.0913782119751,9.0966329574585,9.10189437866211,9.1071605682373,9.11243438720703,9.11771297454834,9.12299823760986,9.1282901763916,9.13358783721924,9.13889122009277,9.14420127868652,9.14951705932617,9.15483951568604,9.1601676940918,9.16550254821777,9.17084312438965,9.17619037628174,9.18154335021973,9.18690299987793,9.19226932525635,9.19764137268066,9.2030200958252,9.20840454101562,9.21379566192627,9.21919250488281,9.22459602355957,9.23000621795654,9.23542213439941,9.24084568023682,9.2462739944458,9.25170993804932,9.25715160369873,9.26259994506836,9.27832508087158,9.29715633392334,9.31606292724609,9.33504772186279,9.35410976409912,9.37324905395508,9.3924674987793,9.41176509857178,9.43114185333252,9.45059776306152
7.71937847137451,7.71926069259644,7.71914291381836,7.71902513504028,7.71890735626221,7.71878957748413,7.71867179870605,7.71855401992798,7.71843576431274,7.71831798553467,7.71820020675659,7.71808242797852,7.71796464920044,7.71784687042236,7.71772956848145,7.71761178970337,7.71749401092529,7.7218976020813,7.74721384048462,7.77269697189331,7.79834794998169,7.82416915893555,7.8501615524292,7.87632751464844,7.90266847610474,7.92918634414673,7.95588254928589,7.98275899887085,8.00905227661133,8.01081371307373,8.01257705688477,8.0143404006958,8.01610565185547,8.01787090301514,8.0196361541748,8.02140331268311,8.02317142486572,8.02493953704834,8.02670860290527,8.02847862243652,8.03024959564209,8.03202056884766,8.03379344940186,8.03556632995605,8.03734016418457,8.0391149520874,8.04088973999023,8.0426664352417,8.04444313049316,8.04622077941895,8.04799938201904,8.04977893829346,8.05155944824219,8.05333995819092,8.05512237548828,8.05690479278564,8.05868816375732,8.060471534729,8.06225681304932,8.06404209136963,8.06582832336426,8.06761646270752,8.06940364837646,8.07119274139404,8.07298278808594,8.07477283477783,8.07656383514404,8.07835578918457,8.08014869689941,8.08194255828857,8.08373737335205,8.08553218841553,8.08732795715332,8.08912467956543,8.09092235565186,8.0927209854126,8.09452056884766,8.09632015228271,8.09812068939209,8.09992218017578,8.10172462463379,8.10352802276611,8.10533237457275,8.10713672637939,8.10894298553467,8.11074924468994,8.11255645751953,8.11436462402344,8.11617279052734,8.11798286437988,8.11979293823242,8.12160396575928,8.12341594696045,8.12522792816162,8.12704181671143,8.12885570526123,8.13067150115967,8.13248729705811,8.13430404663086,8.13612174987793,8.137939453125,8.1397590637207,8.14157867431641,8.14339923858643,8.14522075653076,8.14704322814941,8.14886665344238,8.15069103240967,8.15251541137695,8.15434169769287,8.15616798400879,8.15799522399902,8.15982341766357,8.16165161132812,8.16348171234131,8.16531276702881,8.16714382171631,8.16897583007812,8.17080879211426,8.17264270782471,8.17447757720947,8.17631340026855,8.17814922332764,8.17998695373535,8.18182468414307,8.1836633682251,8.18771743774414,8.19243431091309,8.19715785980225,8.20188617706299,8.20661926269531,8.21135902404785,8.21610355377197,8.22085380554199,8.22560882568359,8.23037052154541,8.23513698577881,8.23990917205811,8.2446870803833,8.24946975708008,8.25425910949707,8.25905323028564,8.26385307312012,8.26865863800049,8.27346992492676,8.27828693389893,8.28310871124268,8.28793716430664,8.29277038574219,8.29760932922363,8.30245494842529,8.30730533599854,8.31216144561768,8.31702327728271,8.32189083099365,8.32676410675049,8.33164310455322,8.33652782440186,8.34141826629639,8.34631443023682,8.35121631622314,8.35612392425537,8.3610372543335,8.36595726013184,8.37088203430176,8.37581253051758,8.38074970245361,8.38569164276123,8.39064025878906,8.39559459686279,8.40055465698242,8.40552043914795,8.41049194335938,8.41547012329102,8.42045307159424,8.42544269561768,8.43043804168701,8.43543910980225,8.4404468536377,8.44545936584473,8.45047855377197,8.45550346374512,8.46053504943848,8.46557235717773,8.47061538696289,8.47566413879395,8.48071956634521,8.48578071594238,8.49084758758545,8.49592113494873,8.50100040435791,8.50608539581299,8.51117706298828,8.51627445220947,8.52137851715088,8.52648830413818,8.53160381317139,8.5367259979248,8.54185390472412,8.54698848724365,8.55212879180908,8.55727577209473,8.56242847442627,8.56758785247803,8.57275295257568,8.57792472839355,8.58310222625732,8.58828639984131,8.59347724914551,8.59867382049561,8.6038761138916,8.60908508300781,8.61430072784424,8.61952304840088,8.62475109100342,8.62998580932617,8.63522624969482,8.64047336578369,8.64572715759277,8.65098762512207,8.65625381469727,8.66152667999268,8.6668062210083,8.67209148406982,8.67738342285156,8.68268203735352,8.68798732757568,8.69329929351807,8.69861698150635,8.70394134521484,8.70927238464355,8.71461009979248,8.71995449066162,8.72530555725098,8.73066234588623,8.73602676391602,8.7413969039917,8.7467737197876,8.75215816497803,8.75754833221436,8.7629451751709,8.76834869384766,8.77375888824463,8.77917575836182,8.78460025787354,8.79003047943115,8.79546737670898,8.98076248168945,8.98589038848877,8.99102401733398,8.9961633682251,9.00130844116211,9.00646018981934,9.01161670684814,9.01677989959717,9.02194881439209,9.02712345123291,9.03230476379395,9.03749084472656,9.04268360137939,9.04788208007812,9.05308723449707,9.05829811096191,9.06351470947266,9.0687370300293,9.07396602630615,9.07920074462891,9.08444118499756,9.08968830108643,9.09494018554688,9.10019969940186,9.10546493530273,9.11073589324951,9.11601257324219,9.12129592895508,9.12658596038818,9.13188171386719,9.13718318939209,9.14249134063721,9.14780521392822,9.15312576293945,9.15845203399658,9.16378402709961,9.16912269592285,9.17446804046631,9.17981910705566,9.18517684936523,9.19054126739502,9.1959114074707,9.20128726959229,9.20666980743408,9.21205902099609,9.21745491027832,9.22285556793213,9.22826385498047,9.23367786407471,9.23909854888916,9.24452590942383,9.24995899200439,9.25924777984619,9.278000831604,9.29683017730713,9.31573581695557,9.33471870422363,9.35377883911133,9.37291812896729,9.39213466644287,9.41143035888672,9.43080615997314
7.7202091217041,7.72009134292603,7.71997308731079,7.71985530853271,7.71973752975464,7.71961975097656,7.71950197219849,7.71938419342041,7.71926641464233,7.71914863586426,7.71903038024902,7.71891260147095,7.71879482269287,7.71867704391479,7.71855926513672,7.7184419631958,7.71832418441772,7.72200059890747,7.74731779098511,7.77280139923096,7.79845333099365,7.82427501678467,7.85026836395264,7.87643527984619,7.90277671813965,7.9292950630188,7.95599222183228,7.98286962509155,8.00992965698242,8.01860427856445,8.02037048339844,8.02213764190674,8.02390575408936,8.02567386627197,8.02744388580322,8.02921390533447,8.03098487854004,8.03275680541992,8.03452968597412,8.03630256652832,8.03807735443115,8.03985214233398,8.04162788391113,8.0434045791626,8.04518127441406,8.04695987701416,8.04873847961426,8.05051803588867,8.0522985458374,8.05408000946045,8.05586242675781,8.05764484405518,8.05942821502686,8.06121349334717,8.06299877166748,8.06478404998779,8.06657123565674,8.06835842132568,8.07014656066895,8.07193660736084,8.07372570037842,8.07551670074463,8.07730865478516,8.07910060882568,8.08089351654053,8.082688331604,8.08448219299316,8.08627796173096,8.08807468414307,8.08987140655518,8.0916690826416,8.09346866607666,8.0952672958374,8.09706783294678,8.09886932373047,8.10067081451416,8.10247421264648,8.10427761077881,8.10608196258545,8.10788726806641,8.10969257354736,8.11149978637695,8.11330699920654,8.11511516571045,8.11692428588867,8.11873435974121,8.12054538726807,8.12235736846924,8.12416934967041,8.1259822845459,8.1277961730957,8.12961101531982,8.13142681121826,8.1332426071167,8.13506031036377,8.13687801361084,8.13869667053223,8.14051628112793,8.14233684539795,8.14415740966797,8.14597988128662,8.14780235290527,8.14962577819824,8.15145015716553,8.15327548980713,8.15510177612305,8.15692806243896,8.15875625610352,8.16058444976807,8.16241359710693,8.16424369812012,8.16607475280762,8.16790580749512,8.16973876953125,8.1715726852417,8.17340660095215,8.17524147033691,8.177077293396,8.17891407012939,8.18075180053711,8.18258953094482,8.18442916870117,8.18626880645752,8.18810939788818,8.18995189666748,8.19179439544678,8.19535160064697,8.20007801055908,8.20480918884277,8.20954704284668,8.21428966522217,8.21903705596924,8.22379112243652,8.22854995727539,8.23331451416016,8.23808479309082,8.24285984039307,8.24764156341553,8.25242805480957,8.25722026824951,8.26201820373535,8.26682090759277,8.27163028717041,8.27644538879395,8.28126525878906,8.28609085083008,8.29092216491699,8.2957592010498,8.30060195922852,8.30545043945312,8.31030464172363,8.31516456604004,8.32003021240234,8.32490062713623,8.32977771759033,8.33466053009033,8.33954811096191,8.34444236755371,8.34934234619141,8.354248046875,8.35915851593018,8.36407566070557,8.36899852752686,8.37392711639404,8.37886238098145,8.38380241394043,8.38874816894531,8.39370059967041,8.39865779876709,8.40362167358398,8.40859127044678,8.41356658935547,8.41854763031006,8.42353534698486,8.42852783203125,8.43352699279785,8.43853187561035,8.44354248046875,8.44855976104736,8.45358276367188,8.45861148834229,8.46364593505859,8.46868705749512,8.47373390197754,8.47878646850586,8.48384571075439,8.48891067504883,8.49398136138916,8.49905776977539,8.50414085388184,8.5092306137085,8.51432514190674,8.51942729949951,8.52453422546387,8.52964782714844,8.53476715087891,8.53989315032959,8.54502487182617,8.55016326904297,8.55530738830566,8.56045818328857,8.56561470031738,8.57077789306641,8.57594680786133,8.58112239837646,8.58630466461182,8.59149265289307,8.59668636322021,8.60188674926758,8.60709381103516,8.61230659484863,8.61752605438232,8.62275218963623,8.62798404693604,8.63322257995605,8.63846683502197,8.64371871948242,8.64897632598877,8.65423965454102,8.65951061248779,8.66478729248047,8.67007064819336,8.67535972595215,8.68065643310547,8.68595886230469,8.69126796722412,8.69658374786377,8.70190525054932,8.70723438262939,8.71256923675537,8.71791076660156,8.72325897216797,8.72861385345459,8.73397541046143,8.73934364318848,8.74471759796143,8.75009918212891,8.7554874420166,8.7608814239502,8.766282081604,8.77169036865234,8.77710437774658,8.78252601623535,8.78795337677002,8.79338836669922,8.79883003234863,8.80427742004395,8.96615600585938,8.97270584106445,8.97911357879639,8.98423862457275,8.98937034606934,8.99450778961182,8.99965190887451,9.00480079650879,9.00995635986328,9.01511764526367,9.02028369903564,9.02545738220215,9.03063583374023,9.03582096099854,9.04101181030273,9.04620838165283,9.05141067504883,9.05661964416504,9.06183433532715,9.06705474853516,9.07228183746338,9.0775146484375,9.08275318145752,9.08799839019775,9.09324932098389,9.09850597381592,9.10376930236816,9.10903835296631,9.11431312561035,9.11959457397461,9.12488174438477,9.13017559051514,9.13547515869141,9.14078140258789,9.14609336853027,9.15141201019287,9.15673637390137,9.16206645965576,9.16740417480469,9.1727466583252,9.17809581756592,9.18345165252686,9.18881320953369,9.19418144226074,9.19955635070801,9.20493698120117,9.21032333374023,9.21571636199951,9.221116065979,9.22652244567871,9.23193454742432,9.23735332489014,9.24277782440186,9.25892448425293,9.27767562866211,9.29650402069092,9.31540870666504,9.33439064025879,9.35344982147217,9.37258625030518,9.39180183410645,9.41109657287598
7.72103977203369,7.72092199325562,7.72080373764038,7.7206859588623,7.72056818008423,7.72045040130615,7.72033262252808,7.72021436691284,7.72009658813477,7.71997880935669,7.71986103057861,7.71974325180054,7.71962547302246,7.71950769424438,7.71938991546631,7.71927213668823,7.71915435791016,7.7221040725708,7.7474217414856,7.77290630340576,7.79855871200562,7.82438135147095,7.85037517547607,7.87654256820679,7.90288496017456,7.92940425872803,7.95610189437866,7.98298025131226,8.01004028320312,8.02640914916992,8.02817916870117,8.02994918823242,8.0317211151123,8.03349304199219,8.03526592254639,8.0370397567749,8.03881454467773,8.04058933258057,8.04236602783203,8.0441427230835,8.04592037200928,8.04769897460938,8.04947757720947,8.0512580871582,8.05303859710693,8.05482006072998,8.05660247802734,8.05838584899902,8.06017017364502,8.06195449829102,8.06373977661133,8.06552600860596,8.0673131942749,8.06910133361816,8.07089042663574,8.07267951965332,8.07446956634521,8.07626056671143,8.07805252075195,8.0798454284668,8.08163928985596,8.08343315124512,8.08522796630859,8.08702373504639,8.0888204574585,8.09061813354492,8.09241676330566,8.09421539306641,8.09601497650146,8.09781646728516,8.09961795806885,8.10141944885254,8.10322284698486,8.1050271987915,8.10683155059814,8.1086368560791,8.11044311523438,8.11225032806396,8.11405849456787,8.11586666107178,8.11767673492432,8.11948680877686,8.12129783630371,8.12310981750488,8.12492275238037,8.12673568725586,8.12855052947998,8.1303653717041,8.13218116760254,8.13399791717529,8.13581562042236,8.13763427734375,8.13945293426514,8.14127349853516,8.14309406280518,8.14491558074951,8.14673805236816,8.14856147766113,8.1503849029541,8.15220928192139,8.1540355682373,8.15586185455322,8.15768909454346,8.15951633453369,8.16134548187256,8.16317462921143,8.16500568389893,8.16683673858643,8.16866874694824,8.17050170898438,8.17233562469482,8.17417049407959,8.17600536346436,8.17784118652344,8.17967891693115,8.18151664733887,8.1833553314209,8.18519496917725,8.18703556060791,8.18887615203857,8.19071865081787,8.19256114959717,8.19440460205078,8.19624900817871,8.19809436798096,8.19994068145752,8.20300102233887,8.20773601531982,8.21247577667236,8.21722221374512,8.22197341918945,8.22673034667969,8.23149299621582,8.23626041412354,8.24103450775146,8.24581336975098,8.25059795379639,8.2553882598877,8.26018333435059,8.26498508453369,8.26979160308838,8.27460384368896,8.27942180633545,8.28424549102783,8.28907489776611,8.29391002655029,8.29875087738037,8.30359649658203,8.30844879150391,8.31330585479736,8.31816959381104,8.32303810119629,8.32791328430176,8.33279323577881,8.33767986297607,8.34257125854492,8.34746837615967,8.35237216949463,8.35728073120117,8.36219596862793,8.36711692810059,8.37204265594482,8.37697505950928,8.38191318511963,8.38685703277588,8.39180660247803,8.39676284790039,8.40172386169434,8.40669059753418,8.41166400909424,8.4166431427002,8.42162799835205,8.42661952972412,8.43161582946777,8.43661880493164,8.44162750244141,8.44664192199707,8.45166206359863,8.45668888092041,8.46172142028809,8.46675968170166,8.47180461883545,8.47685432434082,8.48191070556641,8.48697376251221,8.49204254150391,8.4971170425415,8.502197265625,8.50728416442871,8.51237773895264,8.51747608184814,8.52258110046387,8.5276927947998,8.53281021118164,8.53793334960938,8.54306316375732,8.54819869995117,8.55334091186523,8.5584888458252,8.56364345550537,8.56880378723145,8.57397079467773,8.57914352416992,8.58432292938232,8.58950805664062,8.59469985961914,8.59989833831787,8.6051025390625,8.61031341552734,8.61553001403809,8.62075424194336,8.62598323822021,8.6312198638916,8.63646221160889,8.64171028137207,8.64696598052979,8.6522274017334,8.65749549865723,8.66276931762695,8.66804981231689,8.67333698272705,8.67863082885742,8.68393135070801,8.68923759460449,8.69455051422119,8.69987010955811,8.70519638061523,8.71052932739258,8.71586894989014,8.72121429443359,8.72656631469727,8.73192501068115,8.73729038238525,8.74266242980957,8.7480411529541,8.75342655181885,8.75881862640381,8.76421737670898,8.76962280273438,8.77503490447998,8.78045272827148,8.78587818145752,8.79131031036377,8.79674911499023,8.80219459533691,8.80764675140381,8.81310558319092,8.81857109069824,8.95155811309814,8.95808601379395,8.96462345123291,8.97117042541504,8.97772693634033,8.98429298400879,8.99086856842041,8.99745464324951,9.00314235687256,9.00829601287842,9.01345443725586,9.01861953735352,9.02379131317139,9.02896785736084,9.03415107727051,9.03934001922607,9.04453468322754,9.0497350692749,9.05494213104248,9.06015491485596,9.06537342071533,9.07059860229492,9.07582855224609,9.0810661315918,9.08630847930908,9.09155750274658,9.09681224822998,9.10207366943359,9.10734081268311,9.11261367797852,9.11789321899414,9.12317943572998,9.1284704208374,9.13376808166504,9.13907241821289,9.14438247680664,9.14969921112061,9.15502166748047,9.16034984588623,9.16568470001221,9.1710262298584,9.17637348175049,9.18172645568848,9.18708610534668,9.1924524307251,9.19782447814941,9.20320320129395,9.20858860015869,9.21397972106934,9.2193775177002,9.22478103637695,9.23019123077393,9.2399263381958,9.25860118865967,9.27735137939453,9.29617786407471,9.31508159637451,9.33406162261963,9.35311985015869,9.37225532531738,9.39146900177002
7.72187042236328,7.72175264358521,7.72163486480713,7.72151660919189,7.72139883041382,7.72128105163574,7.72116327285767,7.72104501724243,7.72092723846436,7.72080945968628,7.7206916809082,7.72057342529297,7.72045564651489,7.72033786773682,7.72022008895874,7.72010231018066,7.71998453140259,7.72220754623413,7.74752569198608,7.77301073074341,7.79866409301758,7.82448720932007,7.85048198699951,7.87665033340454,7.90299320220947,7.9295129776001,7.95621156692505,7.9830904006958,8.01015186309814,8.03422927856445,8.03600311279297,8.03777694702148,8.03955173492432,8.04132747650146,8.04310321807861,8.04488086700439,8.04665851593018,8.04843711853027,8.05021667480469,8.05199718475342,8.05377864837646,8.05556011199951,8.05734348297119,8.05912685394287,8.06091117858887,8.06269645690918,8.06448173522949,8.06626892089844,8.06805610656738,8.06984424591064,8.07163333892822,8.07342338562012,8.07521343231201,8.07700538635254,8.07879734039307,8.08059024810791,8.08238410949707,8.08417892456055,8.08597373962402,8.08777046203613,8.08956718444824,8.09136486053467,8.09316349029541,8.09496307373047,8.09676361083984,8.09856414794922,8.10036563873291,8.10216903686523,8.10397243499756,8.10577583312988,8.10758113861084,8.10938739776611,8.11119365692139,8.11300086975098,8.11480903625488,8.11661815643311,8.11842823028564,8.12023830413818,8.12205028533936,8.12386226654053,8.12567520141602,8.12748908996582,8.12930393218994,8.13111972808838,8.13293552398682,8.13475322723389,8.13657093048096,8.13838958740234,8.14020919799805,8.14202976226807,8.14385032653809,8.14567279815674,8.14749526977539,8.14931964874268,8.15114402770996,8.15296936035156,8.15479469299316,8.1566219329834,8.15844917297363,8.16027736663818,8.16210651397705,8.16393661499023,8.16576766967773,8.16759967803955,8.16943168640137,8.1712646484375,8.17309856414795,8.17493343353271,8.1767692565918,8.1786060333252,8.18044376373291,8.18228149414062,8.18412113189697,8.18596076965332,8.18780136108398,8.18964290618896,8.19148540496826,8.19332790374756,8.19517230987549,8.19701671600342,8.19886302947998,8.20070934295654,8.20255661010742,8.20440483093262,8.20625400543213,8.20810317993164,8.21066379547119,8.215407371521,8.2201566696167,8.2249116897583,8.22967147827148,8.23443794250488,8.23920917510986,8.24398612976074,8.24876880645752,8.25355625152588,8.25835037231445,8.26314926147461,8.26795387268066,8.27276420593262,8.27758026123047,8.28240203857422,8.28722858428955,8.2920618057251,8.29689979553223,8.30174350738525,8.3065938949585,8.31144905090332,8.31630992889404,8.32117652893066,8.32604885101318,8.33092784881592,8.33581161499023,8.34070110321045,8.34559631347656,8.35049724578857,8.35540390014648,8.36031723022461,8.36523532867432,8.37015914916992,8.37508964538574,8.38002490997314,8.38496685028076,8.38991451263428,8.39486789703369,8.399827003479,8.40479183197021,8.40976238250732,8.41473960876465,8.41972255706787,8.42471122741699,8.42970561981201,8.43470573425293,8.43971252441406,8.44472408294678,8.44974231719971,8.45476722717285,8.45979690551758,8.46483325958252,8.46987533569336,8.47492408752441,8.47997760772705,8.4850378036499,8.49010467529297,8.49517631530762,8.50025463104248,8.50533962249756,8.51043033599854,8.51552677154541,8.52062892913818,8.52573776245117,8.53085327148438,8.53597450256348,8.54110145568848,8.54623508453369,8.5513744354248,8.55652046203613,8.56167221069336,8.5668306350708,8.57199478149414,8.5771656036377,8.58234214782715,8.58752536773682,8.5927152633667,8.59791088104248,8.60311317443848,8.60832118988037,8.61353588104248,8.61875629425049,8.62398338317871,8.62921714782715,8.6344575881958,8.63970375061035,8.64495658874512,8.65021514892578,8.65548038482666,8.66075229644775,8.66603088378906,8.67131614685059,8.67660713195801,8.68190479278564,8.6872091293335,8.69251918792725,8.69783687591553,8.70316028594971,8.7084903717041,8.71382713317871,8.71917057037354,8.72451972961426,8.72987651824951,8.73523902893066,8.74060916900635,8.74598503112793,8.75136756896973,8.75675678253174,8.76215267181396,8.76755619049072,8.77296543121338,8.77838134765625,8.78380393981934,8.78923320770264,8.79466915130615,8.80011177062988,8.80556201934814,8.8110179901123,8.816481590271,8.82195091247559,8.82742786407471,8.93050956726074,8.93700695037842,8.94351387023926,8.95002937316895,8.95655536651611,8.96309089660645,8.96963500976562,8.97618961334229,8.98275375366211,8.9893274307251,8.99591064453125,9.00250339508057,9.00910568237305,9.01571750640869,9.02212524414062,9.02730083465576,9.03248119354248,9.03766822814941,9.04286098480225,9.04806041717529,9.05326461791992,9.05847549438477,9.06369209289551,9.06891536712646,9.07414436340332,9.07937908172607,9.08462047576904,9.08986663818359,9.09512042999268,9.10037899017334,9.10564422607422,9.11091613769531,9.11619281768799,9.12147617340088,9.12676620483398,9.13206195831299,9.13736438751221,9.14267253875732,9.14798641204834,9.15330696105957,9.1586332321167,9.16396617889404,9.1693058013916,9.17465114593506,9.18000221252441,9.18535995483398,9.19072437286377,9.19609451293945,9.20147132873535,9.20685386657715,9.21224308013916,9.21763896942139,9.22304058074951,9.23960399627686,9.25827789306641,9.27702713012695,9.29585266113281,9.31475448608398,9.33373355865479,9.35278987884521,9.37192440032959
7.72270154953003,7.72258329391479,7.72246551513672,7.72234773635864,7.72222995758057,7.72211170196533,7.72199392318726,7.72187614440918,7.72175788879395,7.72164011001587,7.72152233123779,7.72140455245972,7.72128629684448,7.72116851806641,7.72105073928833,7.72093296051025,7.72081518173218,7.7223105430603,7.74763011932373,7.77311563491821,7.79876947402954,7.82459354400635,7.85058879852295,7.87675762176514,7.90310144424438,7.92962217330933,7.95632123947144,7.9832010269165,8.01026248931885,8.03750896453857,8.06494045257568,8.09256076812744,8.12036991119385,8.14837169647217,8.16026878356934,8.16142272949219,8.054518699646,8.05630111694336,8.05808353424072,8.05986785888672,8.06165218353271,8.06343746185303,8.06522369384766,8.0670108795166,8.06879901885986,8.07058715820312,8.0723762512207,8.0741662979126,8.07595729827881,8.07774925231934,8.07954216003418,8.08133506774902,8.0831298828125,8.08492469787598,8.08672046661377,8.08851623535156,8.09031391143799,8.09211254119873,8.09391117095947,8.09571075439453,8.09751129150391,8.0993127822876,8.10111427307129,8.10291767120361,8.10472106933594,8.10652542114258,8.10833072662354,8.11013698577881,8.1119441986084,8.1137523651123,8.11556053161621,8.11736965179443,8.11917972564697,8.12099075317383,8.122802734375,8.12461566925049,8.12642860412598,8.1282434463501,8.13005828857422,8.13187408447266,8.13369083404541,8.13550758361816,8.13732624053955,8.13914489746094,8.14096546173096,8.14278602600098,8.14460754394531,8.14643001556396,8.14825344085693,8.1500768661499,8.1519021987915,8.15372753143311,8.15555381774902,8.15738105773926,8.15920925140381,8.16103839874268,8.16286754608154,8.16469860076904,8.16652965545654,8.16836166381836,8.17019462585449,8.17202854156494,8.17386245727539,8.17569732666016,8.17753410339355,8.17937088012695,8.18120861053467,8.1830472946167,8.18488597869873,8.18672657012939,8.18856716156006,8.19040966033936,8.19225215911865,8.19409561157227,8.1959400177002,8.19778537750244,8.19963073730469,8.20147800445557,8.20332527160645,8.20517444610596,8.20702362060547,8.2088737487793,8.21072483062744,8.2125768661499,8.21442890167236,8.21628284454346,8.21834087371826,8.22309398651123,8.22785186767578,8.23261547088623,8.23738479614258,8.24215984344482,8.24693965911865,8.2517261505127,8.25651741027832,8.26131439208984,8.26611709594727,8.27092552185059,8.27573871612549,8.28055858612061,8.284348487854,8.28553676605225,8.2867259979248,8.28791522979736,8.28910446166992,8.2902946472168,8.29582786560059,8.30143356323242,8.30704784393311,8.312668800354,8.31829833984375,8.32393455505371,8.32957935333252,8.33523082733154,8.34089088439941,8.34655857086182,8.35223388671875,8.3579158782959,8.36360645294189,8.36930561065674,8.3750114440918,8.38072490692139,8.38644695281982,8.39217662811279,8.39791393280029,8.40365886688232,8.40941143035889,8.4151725769043,8.42094135284424,8.42671775817871,8.43250274658203,8.43779754638672,8.44280815124512,8.44782447814941,8.45284557342529,8.45787334442139,8.4629077911377,8.4679479598999,8.47299385070801,8.47804546356201,8.48310279846191,8.48816680908203,8.49323749542236,8.49831295013428,8.50339508056641,8.50848388671875,8.51357746124268,8.51867866516113,8.52378463745117,8.52889728546143,8.53401565551758,8.53914070129395,8.54427242279053,8.54940891265869,8.55455303192139,8.55970287322998,8.56485843658447,8.57002067565918,8.57518863677979,8.58036327362061,8.58554363250732,8.59073066711426,8.59592437744141,8.60112380981445,8.60632991790771,8.61154174804688,8.61676025390625,8.62198543548584,8.62721633911133,8.63245391845703,8.63769721984863,8.64294815063477,8.6482048034668,8.65346717834473,8.65873718261719,8.66401290893555,8.66929531097412,8.67458343505859,8.6798791885376,8.6851806640625,8.69048881530762,8.69580364227295,8.70112419128418,8.70645236968994,8.7117862701416,8.71712684631348,8.72247409820557,8.72782802581787,8.73318862915039,8.73855590820312,8.74392890930176,8.74930953979492,8.75469589233398,8.76008987426758,8.76548957824707,8.77089691162109,8.77630996704102,8.78173065185547,8.78715705871582,8.7925910949707,8.79803085327148,8.8034782409668,8.80893135070801,8.81439208984375,8.81985950469971,8.82533359527588,8.83081436157227,8.83630275726318,8.90956020355225,8.9160270690918,8.9225025177002,8.92898845672607,8.93548393249512,8.94198799133301,8.94850254058838,8.9550256729126,8.96155834197998,8.96810150146484,8.97465324401855,8.98121547698975,8.98778629302979,8.9943675994873,9.00095748901367,9.00755786895752,9.01416778564453,9.02078723907471,9.02741718292236,9.03405570983887,9.04070472717285,9.04638576507568,9.05158805847168,9.05679702758789,9.06201267242432,9.06723308563232,9.07246017456055,9.07769298553467,9.082932472229,9.08817768096924,9.09342861175537,9.0986852645874,9.10394859313965,9.10921764373779,9.11449337005615,9.11977481842041,9.12506294250488,9.13035678863525,9.13565635681152,9.14096260070801,9.14627456665039,9.15159320831299,9.15691757202148,9.1622486114502,9.16758632659912,9.17292881011963,9.17827892303467,9.18363475799561,9.18899631500244,9.19436454772949,9.19973945617676,9.20512008666992,9.2105073928833,9.22068500518799,9.23928165435791,9.25795459747314,9.27670192718506,9.2955265045166,9.31442737579346,9.33340454101562,9.35245990753174
7.72353267669678,7.72341442108154,7.72329664230347,7.72317886352539,7.72306060791016,7.72294282913208,7.722825050354,7.72270679473877,7.72258901596069,7.72247123718262,7.72235298156738,7.72223520278931,7.72211742401123,7.72199964523315,7.72188138961792,7.72176361083984,7.72164583206177,7.72241401672363,7.74773406982422,7.77322053909302,7.7988748550415,7.82469940185547,7.85069561004639,7.87686538696289,7.9032096862793,7.92973136901855,7.95643091201782,7.98331117630005,8.01037406921387,8.03762054443359,8.06505298614502,8.09267425537109,8.12048435211182,8.14848613739014,8.15805912017822,8.15921211242676,8.16036510467529,8.16151809692383,8.16267108917236,8.16382503509521,8.16497993469238,8.16613388061523,8.1672887802124,8.16844367980957,8.16959953308105,8.07849407196045,8.08028697967529,8.08208084106445,8.08387470245361,8.08567047119141,8.0874662399292,8.08926296234131,8.09106063842773,8.09285926818848,8.09465885162354,8.09645843505859,8.09825897216797,8.10006141662598,8.10186386108398,8.10366630554199,8.10547065734863,8.10727596282959,8.10908126831055,8.11088752746582,8.11269474029541,8.11450290679932,8.11631202697754,8.11812210083008,8.11993217468262,8.12174320220947,8.12355613708496,8.12536811828613,8.12718200683594,8.12899684906006,8.1308126449585,8.13262844085693,8.13444519042969,8.13626289367676,8.13808155059814,8.13990116119385,8.14172172546387,8.14354228973389,8.14536476135254,8.14718723297119,8.14901065826416,8.15083503723145,8.15266036987305,8.15448570251465,8.15631294250488,8.15814018249512,8.15996837615967,8.16179752349854,8.16362762451172,8.16545867919922,8.16729068756104,8.16912269592285,8.1709566116333,8.17279052734375,8.17462539672852,8.1764612197876,8.178297996521,8.18013477325439,8.18197345733643,8.18381214141846,8.1856517791748,8.18749237060547,8.18933391571045,8.19117641448975,8.19301891326904,8.19486331939697,8.1967077255249,8.19855308532715,8.20039939880371,8.20224666595459,8.20409488677979,8.2059440612793,8.20779323577881,8.20964431762695,8.2114953994751,8.21334743499756,8.21520042419434,8.21705436706543,8.21890926361084,8.22076416015625,8.22262096405029,8.22447776794434,8.22633647918701,8.23079395294189,8.23556137084961,8.24033451080322,8.24511241912842,8.24989604949951,8.2546854019165,8.25948047637939,8.26428031921387,8.26908683776855,8.27389812469482,8.27850914001465,8.27969646453857,8.2808837890625,8.28207111358643,8.28325843811035,8.28444671630859,8.28563594818115,8.28682422637939,8.28801345825195,8.28920364379883,8.29039287567139,8.29158401489258,8.29451465606689,8.30011940002441,8.30573177337646,8.31135177612305,8.31697845458984,8.32261371612549,8.32825660705566,8.33390617370605,8.33956432342529,8.34523010253906,8.35090351104736,8.3565845489502,8.36227321624756,8.36796951293945,8.37367343902588,8.37938594818115,8.38510513305664,8.39083290100098,8.39656829833984,8.40231227874756,8.40806293487549,8.41382217407227,8.41958904266357,8.42536449432373,8.4311466217041,8.43693733215332,8.44273662567139,8.44854259490967,8.45435810089111,8.46018028259277,8.46601104736328,8.47184944152832,8.47769641876221,8.48355197906494,8.48941421508789,8.495285987854,8.50116443634033,8.50705242156982,8.51294803619385,8.5188512802124,8.5247631072998,8.53068351745605,8.53661155700684,8.54254817962646,8.54849338531494,8.55444622039795,8.5604076385498,8.56637763977051,8.57235527038574,8.57834148406982,8.58433628082275,8.59033966064453,8.59635162353516,8.60237121582031,8.60839939117432,8.61443614959717,8.61998748779297,8.62521553039551,8.63045120239258,8.63569259643555,8.64094066619873,8.64619445800781,8.65145492553711,8.65672206878662,8.66199493408203,8.66727542877197,8.67256164550781,8.67785453796387,8.68315315246582,8.6884593963623,8.69377136230469,8.69909000396729,8.7044153213501,8.70974636077881,8.71508502960205,8.72042942047119,8.72578144073486,8.73113918304443,8.73650360107422,8.74187469482422,8.74725246429443,8.75263690948486,8.75802707672119,8.76342487335205,8.76882934570312,8.77424049377441,8.7796573638916,8.78508186340332,8.79051303863525,8.7959508895874,8.80139541625977,8.80684661865234,8.81230449676514,8.81776905059814,8.82324028015137,8.82871913909912,8.83420372009277,8.83969593048096,8.84519481658936,8.85070037841797,8.89514541625977,8.90159130096436,8.90804576873779,8.91451072692871,8.92098522186279,8.92746829986572,8.93396091461182,8.94046306610107,8.9469747543335,8.95349597930908,8.96002674102783,8.96656799316406,8.97311687469482,8.97967720031738,8.98624610900879,8.99282455444336,8.99941253662109,9.00601100921631,9.01261806488037,9.01923561096191,9.02586269378662,9.03249931335449,9.03914642333984,9.04580211639404,9.05246829986572,9.05914497375488,9.0655517578125,9.07077693939209,9.07600784301758,9.08124446868896,9.08648777008057,9.09173679351807,9.09699249267578,9.10225296020508,9.10752105712891,9.11279487609863,9.11807441711426,9.12335968017578,9.12865161895752,9.13394927978516,9.13925361633301,9.14456367492676,9.14988040924072,9.15520286560059,9.16053199768066,9.16586685180664,9.17120838165283,9.17655563354492,9.18190956115723,9.18726921081543,9.19263553619385,9.19800853729248,9.20338726043701,9.22036457061768,9.23896026611328,9.25763130187988,9.27637767791748,9.29520034790039,9.31410026550293,9.33307647705078
7.72436380386353,7.72424602508545,7.72412776947021,7.72400999069214,7.72389221191406,7.72377395629883,7.72365617752075,7.72353792190552,7.72342014312744,7.72330236434937,7.72318410873413,7.72306632995605,7.72294855117798,7.72283029556274,7.72271251678467,7.72259473800659,7.72247695922852,7.72251749038696,7.74783802032471,7.77332496643066,7.79898023605347,7.82480573654175,7.85080242156982,7.87697267532349,7.90331792831421,7.92984008789062,7.95654058456421,7.98342180252075,8.01048564910889,8.03773307800293,8.06516647338867,8.09278774261475,8.12059879302979,8.14860153198242,8.15585041046143,8.15700244903564,8.15815448760986,8.1593074798584,8.16046047210693,8.16161346435547,8.16276741027832,8.16392135620117,8.16507530212402,8.16623020172119,8.16738510131836,8.16854000091553,8.16969585418701,8.1708517074585,8.17200756072998,8.17316436767578,8.17432117462158,8.17547798156738,8.1766357421875,8.10081005096436,8.10261249542236,8.10441589355469,8.10622024536133,8.10802555084229,8.10983180999756,8.11163806915283,8.11344623565674,8.11525440216064,8.11706352233887,8.11887359619141,8.12068462371826,8.12249660491943,8.12430858612061,8.12612152099609,8.12793636322021,8.12975120544434,8.13156700134277,8.13338279724121,8.13520050048828,8.13701820373535,8.13883781433105,8.14065742492676,8.14247798919678,8.14429950714111,8.14612102508545,8.14794445037842,8.14976787567139,8.15159320831299,8.15341854095459,8.15524482727051,8.15707206726074,8.15889930725098,8.16072845458984,8.16255760192871,8.16438865661621,8.16621971130371,8.16805171966553,8.16988468170166,8.17171764373779,8.17355251312256,8.17538738250732,8.17722415924072,8.17906093597412,8.18089866638184,8.18273735046387,8.18457698822021,8.18641662597656,8.18825817108154,8.19009971618652,8.19194316864014,8.19378662109375,8.19563102722168,8.19747543334961,8.19932174682617,8.20116806030273,8.20301628112793,8.20486450195312,8.20671367645264,8.20856380462646,8.21041393280029,8.21226596832275,8.21411895751953,8.21597194671631,8.2178258895874,8.21968078613281,8.22153663635254,8.22339344024658,8.22525119781494,8.22710990905762,8.22896862030029,8.2308292388916,8.23268985748291,8.23455142974854,8.23850917816162,8.24328517913818,8.24806690216064,8.252854347229,8.25764656066895,8.2624454498291,8.26724910736084,8.27205848693848,8.27386379241943,8.27504920959473,8.27623558044434,8.27742099761963,8.27860832214355,8.27979469299316,8.28098201751709,8.28216934204102,8.28335762023926,8.2845458984375,8.28573417663574,8.2869234085083,8.28811264038086,8.28930187225342,8.29049205780029,8.29168224334717,8.29287338256836,8.29406356811523,8.29880619049072,8.30441570281982,8.31003379821777,8.31565952301025,8.32129287719727,8.32693386077881,8.33258152008057,8.33823776245117,8.34390163421631,8.34957313537598,8.35525226593018,8.36093902587891,8.36663436889648,8.37233638763428,8.37804698944092,8.38376426696777,8.38949012756348,8.39522457122803,8.40096569061279,8.40671539306641,8.41247177124023,8.41823768615723,8.42401027679443,8.42979145050049,8.43558025360107,8.44137668609619,8.44718170166016,8.45299434661865,8.458815574646,8.46464443206787,8.47048091888428,8.47632598876953,8.48217868804932,8.48803997039795,8.49390888214111,8.49978637695312,8.50567245483398,8.51156520843506,8.5174674987793,8.52337741851807,8.52929592132568,8.53522205352783,8.54115676879883,8.54709911346436,8.55305099487305,8.55901050567627,8.56497764587402,8.57095432281494,8.57693862915039,8.58293151855469,8.58893299102783,8.59494209289551,8.60095977783203,8.60698699951172,8.61302185058594,8.619065284729,8.6251163482666,8.63117694854736,8.63724613189697,8.64332294464111,8.64940929412842,8.65550422668457,8.66160678863525,8.6677188873291,8.6738395690918,8.67996788024902,8.68610572814941,8.69225215911865,8.69840717315674,8.70457077026367,8.71074390411377,8.7169246673584,8.72311496734619,8.72931385040283,8.73552131652832,8.74173831939697,8.74796390533447,8.75419807434082,8.76044082641602,8.76669311523438,8.77295398712158,8.77922439575195,8.78550338745117,8.79179096221924,8.79808807373047,8.80439376831055,8.81021785736084,8.8156795501709,8.82114887237549,8.82662391662598,8.832106590271,8.83759593963623,8.84309196472168,8.84859466552734,8.85410499572754,8.85962200164795,8.87436103820801,8.88077640533447,8.8872013092041,8.89363574981689,8.90007972717285,8.90653324127197,8.91299533843994,8.91946697235107,8.92594814300537,8.93243885040283,8.93893909454346,8.94544887542725,8.95196723937988,8.95849609375,8.96503448486328,8.97158241271973,8.97813892364502,8.98470592498779,8.99128246307373,8.99786853790283,9.0044641494751,9.01106929779053,9.01768398284912,9.0243091583252,9.03094387054443,9.03758811950684,9.0442419052124,9.05090618133545,9.05757999420166,9.06426334381104,9.07095623016357,9.07766056060791,9.08437347412109,9.09004592895508,9.09529972076416,9.10055923461914,9.10582447052002,9.1110954284668,9.11637306213379,9.121657371521,9.1269474029541,9.13224315643311,9.13754558563232,9.14285373687744,9.14816761016846,9.153489112854,9.15881538391113,9.16414833068848,9.16948795318604,9.17483329772949,9.18018531799316,9.18554306030273,9.19090747833252,9.20152378082275,9.22004318237305,9.23863792419434,9.25730800628662,9.2760534286499,9.2948751449585,9.30809211730957
7.72519540786743,7.72507762908936,7.72495937347412,7.72484159469604,7.72472333908081,7.72460556030273,7.7244873046875,7.72436952590942,7.72425127029419,7.72413349151611,7.72401571273804,7.7238974571228,7.72377967834473,7.72366142272949,7.72354364395142,7.72342586517334,7.72330808639526,7.72319030761719,7.7479419708252,7.77342987060547,7.79908609390259,7.82491159439087,7.85090923309326,7.87708044052124,7.90342617034912,7.92994928359985,7.9566502571106,7.98353242874146,8.01059627532959,8.03784465789795,8.06527900695801,8.0929012298584,8.12071323394775,8.14871692657471,8.15364360809326,8.15479469299316,8.15594577789307,8.15709781646729,8.15825080871582,8.15940284729004,8.16055583953857,8.16170883178711,8.16286277770996,8.16401672363281,8.16517066955566,8.16632556915283,8.16748046875,8.16863536834717,8.16979122161865,8.17094707489014,8.17210292816162,8.17325973510742,8.17441654205322,8.17557430267334,8.17673110961914,8.17788982391357,8.17904758453369,8.18020629882812,8.18136501312256,8.18252372741699,8.18368339538574,8.18484306335449,8.12506198883057,8.12687492370605,8.12868976593018,8.1305046081543,8.13232135772705,8.1341381072998,8.13595581054688,8.13777351379395,8.13959312438965,8.14141368865967,8.14323425292969,8.14505577087402,8.14687824249268,8.14870166778564,8.15052604675293,8.15235137939453,8.15417671203613,8.15600299835205,8.1578311920166,8.15965938568115,8.16148853302002,8.16331768035889,8.16514873504639,8.1669807434082,8.16881275177002,8.17064571380615,8.1724796295166,8.17431449890137,8.17615032196045,8.17798709869385,8.17982387542725,8.18166255950928,8.18350124359131,8.18534088134766,8.18718147277832,8.1890230178833,8.1908655166626,8.19270801544189,8.19455242156982,8.19639682769775,8.19824314117432,8.20008945465088,8.20193672180176,8.20378494262695,8.20563316345215,8.20748329162598,8.2093334197998,8.21118450164795,8.21303653717041,8.21488952636719,8.21674346923828,8.21859836578369,8.2204532623291,8.22231006622314,8.22416687011719,8.22602462768555,8.22788333892822,8.22974300384521,8.23160362243652,8.23346424102783,8.23532676696777,8.23718929290771,8.23905372619629,8.24091815948486,8.24278354644775,8.24623870849609,8.25102424621582,8.25581455230713,8.26061058044434,8.26541233062744,8.26803970336914,8.2692232131958,8.27040767669678,8.27159214019775,8.27277660369873,8.27396202087402,8.27514743804932,8.27633380889893,8.27752017974854,8.27870655059814,8.27989292144775,8.28108024597168,8.28226852416992,8.28345584869385,8.28464412689209,8.28583240509033,8.28702163696289,8.28821086883545,8.28940105438232,8.29059028625488,8.29178142547607,8.29297161102295,8.29416275024414,8.29535388946533,8.29749202728271,8.3031005859375,8.30871677398682,8.31434059143066,8.31997203826904,8.32561111450195,8.33125782012939,8.33691215515137,8.34257411956787,8.34824371337891,8.35392093658447,8.35960674285889,8.36529922485352,8.37099933624268,8.37670803070068,8.38242435455322,8.38814830780029,8.39387989044189,8.39962005615234,8.40536689758301,8.41112232208252,8.41688632965088,8.42265701293945,8.42843627929688,8.43422317504883,8.44001865386963,8.44582080841064,8.45163249969482,8.45745086669922,8.46327781677246,8.46911334991455,8.47495555877686,8.48080730438232,8.48666667938232,8.49253368377686,8.49840927124023,8.50429248809814,8.5101842880249,8.51608371734619,8.52199172973633,8.52790832519531,8.53383255004883,8.53976535797119,8.5457067489624,8.55165576934814,8.55761337280273,8.56357860565186,8.56955337524414,8.57553577423096,8.58152675628662,8.58752536773682,8.59353351593018,8.59954929351807,8.6055736541748,8.61160659790039,8.61764812469482,8.62369823455811,8.62975597381592,8.63582324981689,8.64189910888672,8.64798259735107,8.65407562255859,8.66017627716064,8.66628646850586,8.67240428924561,8.67853164672852,8.68466758728027,8.69081115722656,8.69696426391602,8.70312595367432,8.70929718017578,8.71547603607178,8.72166442871094,8.72786140441895,8.7340669631958,8.7402811050415,8.74650478363037,8.75273704528809,8.75897789001465,8.76522827148438,8.77148628234863,8.77775478363037,8.78403091430664,8.79031753540039,8.79661178588867,8.80291557312012,8.80922889709473,8.81555080413818,8.82188129425049,8.82822132110596,8.83457088470459,8.84092903137207,8.84729671478271,8.85367393493652,8.86005973815918,8.866455078125,8.87285900115967,8.8792724609375,8.8856954574585,8.89212799072266,8.89856910705566,8.90502071380615,8.91147994995117,8.91794967651367,8.92442893981934,8.93091773986816,8.93741512298584,8.943922996521,8.950439453125,8.95696544647217,8.96350193023682,8.97004699707031,8.97660160064697,8.98316669464111,8.9897403717041,8.99632453918457,9.0029182434082,9.00952053070068,9.01613330841064,9.02275657653809,9.02938842773438,9.03603076934814,9.04268264770508,9.04934406280518,9.05601501464844,9.06269645690918,9.06938743591309,9.07608890533447,9.08279991149902,9.08952045440674,9.09625148773193,9.10299205780029,9.10939788818359,9.11467361450195,9.11995506286621,9.12524318695068,9.13053703308105,9.13583755493164,9.14114379882812,9.14645671844482,9.15177536010742,9.15709972381592,9.16243076324463,9.16776847839355,9.17311191558838,9.1784610748291,9.18381786346436,9.20120429992676,9.21972274780273,9.23831653594971,9.25698471069336,9.26831150054932,9.27863693237305
7.72602701187134,7.72590923309326,7.72579097747803,7.72567319869995,7.72555494308472,7.72543716430664,7.72531890869141,7.72520112991333,7.7250828742981,7.72496509552002,7.72484683990479,7.72472906112671,7.72461080551147,7.7244930267334,7.72437524795532,7.72425699234009,7.72413921356201,7.72402143478394,7.74804592132568,7.77353429794312,7.79919147491455,7.82501792907715,7.8510160446167,7.87718772888184,7.90353441238403,7.93005800247192,7.95675992965698,7.983642578125,8.01070785522461,8.03795623779297,8.06539154052734,8.09301471710205,8.12082767486572,8.14883136749268,8.1514368057251,8.152587890625,8.1537389755249,8.1548900604248,8.15604209899902,8.15719413757324,8.15834617614746,8.15949821472168,8.16065120697021,8.16180515289307,8.1629581451416,8.16411209106445,8.16526699066162,8.16642093658447,8.16757583618164,8.16873168945312,8.16988754272461,8.17104339599609,8.17219924926758,8.17335605621338,8.17451286315918,8.17566967010498,8.1768274307251,8.17798519134521,8.17914390563965,8.18030261993408,8.18146133422852,8.18262004852295,8.1837797164917,8.18493938446045,8.18610000610352,8.18726062774658,8.18842124938965,8.18958187103271,8.1907434463501,8.1919059753418,8.1476354598999,8.14945983886719,8.15128421783447,8.15310955047607,8.15493583679199,8.15676212310791,8.15859031677246,8.16041851043701,8.16224765777588,8.16407871246338,8.16590976715088,8.1677417755127,8.16957378387451,8.17140769958496,8.17324161529541,8.17507743835449,8.17691326141357,8.17875003814697,8.18058776855469,8.18242645263672,8.18426513671875,8.18610572814941,8.18794631958008,8.18978786468506,8.19163036346436,8.19347381591797,8.1953182220459,8.19716358184814,8.19900989532471,8.20085620880127,8.20270442962646,8.20455265045166,8.20640182495117,8.208251953125,8.21010303497314,8.21195411682129,8.21380710601807,8.21566009521484,8.21751499176025,8.21936988830566,8.22122573852539,8.22308254241943,8.22493934631348,8.22679805755615,8.22865676879883,8.23051738739014,8.23237800598145,8.23423957824707,8.23610210418701,8.23796558380127,8.23982906341553,8.24169445037842,8.24355983734131,8.24542713165283,8.24729442596436,8.2491626739502,8.25103187561035,8.25398254394531,8.25877666473389,8.26222324371338,8.26340579986572,8.26458835601807,8.26577091217041,8.26695442199707,8.26813793182373,8.26932144165039,8.27050590515137,8.27169036865234,8.27287483215332,8.27406024932861,8.27524566650391,8.27643203735352,8.27761840820312,8.27880477905273,8.27999210357666,8.28117847442627,8.28236675262451,8.28355407714844,8.28474235534668,8.28593158721924,8.2871208190918,8.28831005096436,8.28949928283691,8.29068946838379,8.29187965393066,8.29307079315186,8.29426193237305,8.29545307159424,8.29664421081543,8.29783630371094,8.30178642272949,8.30740070343018,8.31302261352539,8.31865215301514,8.32428932189941,8.32993412017822,8.33558654785156,8.34124660491943,8.34691524505615,8.35259056091309,8.35827350616455,8.36396503448486,8.36966323852539,8.37537002563477,8.38108444213867,8.38680648803711,8.39253616333008,8.39827442169189,8.40402030944824,8.40977382659912,8.41553497314453,8.42130470275879,8.42708110809326,8.4328670501709,8.43865966796875,8.44446086883545,8.45026969909668,8.45608711242676,8.46191215515137,8.46774482727051,8.4735860824585,8.47943592071533,8.48529243469238,8.4911584854126,8.49703121185303,8.50291347503662,8.50880336761475,8.5147008895874,8.52060699462891,8.52652168273926,8.53244400024414,8.53837490081787,8.54431343078613,8.55026149749756,8.5562162399292,8.562180519104,8.56815242767334,8.57413291931152,8.58012199401855,8.58611965179443,8.59212493896484,8.5981388092041,8.60416126251221,8.61019229888916,8.61623191833496,8.62228012084961,8.62833595275879,8.63440132141113,8.64047431945801,8.64655685424805,8.65264701843262,8.65874576568604,8.66485404968262,8.67096996307373,8.67709541320801,8.68322849273682,8.68937110900879,8.69552230834961,8.70168209075928,8.70785045623779,8.71402740478516,8.72021389007568,8.72640800476074,8.73261165618896,8.73882389068604,8.74504566192627,8.75127601623535,8.75751495361328,8.76376247406006,8.77001953125,8.77628517150879,8.78256034851074,8.78884315490723,8.79513645172119,8.801438331604,8.80774879455566,8.81406879425049,8.82039737701416,8.826735496521,8.83308219909668,8.83943843841553,8.84580421447754,8.8521785736084,8.85856246948242,8.86495590209961,8.87135791778564,8.87776947021484,8.88418960571289,8.89062023162842,8.89705944061279,8.90350818634033,8.90996646881104,8.91643333435059,8.92291069030762,8.9293966293335,8.93589210510254,8.94239711761475,8.94891166687012,8.95543575286865,8.96196937561035,8.96851253509521,8.97506523132324,8.98162746429443,8.98819923400879,8.99478149414062,9.00137233734131,9.00797271728516,9.01458358764648,9.02120399475098,9.02783393859863,9.03447341918945,9.04112243652344,9.0477819442749,9.05445098876953,9.06113052368164,9.0678186416626,9.07451820373535,9.08122634887695,9.08794498443604,9.09467315673828,9.10141181945801,9.1081600189209,9.11491870880127,9.1216869354248,9.12846565246582,9.13413047790527,9.13943481445312,9.14474487304688,9.15006160736084,9.15538501739502,9.1607141494751,9.16604900360107,9.17139053344727,9.18244171142578,9.20088577270508,9.21865272521973,9.22886943817139,9.23910713195801,9.24936771392822
7.7268590927124,7.72674083709717,7.72662305831909,7.72650480270386,7.72638702392578,7.72626876831055,7.72615098953247,7.72603273391724,7.725914478302,7.72579669952393,7.72567844390869,7.72556066513062,7.72544240951538,7.7253246307373,7.72520637512207,7.72508859634399,7.72497081756592,7.72485303878784,7.74814987182617,7.77363920211792,7.79929685592651,7.82512426376343,7.85112285614014,7.87729549407959,7.90364265441895,7.93016719818115,7.95687007904053,7.9837532043457,8.01081848144531,8.0380687713623,8.06550407409668,8.0931282043457,8.12094116210938,8.14808177947998,8.14923191070557,8.15038204193115,8.15153217315674,8.15268325805664,8.15383434295654,8.15498542785645,8.15613746643066,8.15728950500488,8.1584415435791,8.15959453582764,8.16074752807617,8.16190052032471,8.16305446624756,8.16420841217041,8.16536235809326,8.16651725769043,8.1676721572876,8.16882705688477,8.16998291015625,8.17113876342773,8.17229557037354,8.17345142364502,8.17460918426514,8.17576599121094,8.17692375183105,8.17808151245117,8.17923927307129,8.18039798736572,8.18155670166016,8.18271636962891,8.18387603759766,8.18503570556641,8.18619632720947,8.18735694885254,8.18851757049561,8.18967819213867,8.19083976745605,8.19200229644775,8.19316387176514,8.19432640075684,8.19548988342285,8.19665241241455,8.19781589508057,8.1989803314209,8.20014381408691,8.17216968536377,8.17400455474854,8.1758394241333,8.1776762008667,8.1795129776001,8.18135070800781,8.18319034576416,8.18502998352051,8.18686962127686,8.18871116638184,8.19055366516113,8.19239616394043,8.19424057006836,8.19608497619629,8.19793033599854,8.1997766494751,8.20162391662598,8.20347118377686,8.20532035827637,8.2071704864502,8.20902061462402,8.21087169647217,8.21272373199463,8.21457672119141,8.2164306640625,8.21828556060791,8.22014045715332,8.22199726104736,8.22385406494141,8.22571182250977,8.22757053375244,8.22943019866943,8.23129081726074,8.23315238952637,8.23501491546631,8.23687744140625,8.23874092102051,8.24060535430908,8.24247074127197,8.24433708190918,8.2462043762207,8.24807167053223,8.24994087219238,8.25169658660889,8.25287532806396,8.25405502319336,8.25523471832275,8.25641536712646,8.25759601593018,8.25877666473389,8.25995826721191,8.26113891601562,8.26232147216797,8.263503074646,8.26468563079834,8.265869140625,8.26705169677734,8.26823616027832,8.26941967010498,8.27060413360596,8.27178859710693,8.27297306060791,8.2741584777832,8.2753438949585,8.27653026580811,8.27771663665771,8.27890300750732,8.28009033203125,8.28127765655518,8.2824649810791,8.28365325927734,8.28484153747559,8.28602981567383,8.28721904754639,8.28840827941895,8.28959846496582,8.29078769683838,8.29197883605957,8.29316902160645,8.29436016082764,8.29555130004883,8.29674339294434,8.29793548583984,8.29912757873535,8.30047225952148,8.30608463287354,8.31170463562012,8.31733226776123,8.32296752929688,8.32861137390137,8.33426189422607,8.33992004394531,8.34558582305908,8.3512601852417,8.35694122314453,8.36263084411621,8.36832809448242,8.37403202056885,8.37974452972412,8.38546562194824,8.39119338989258,8.39692974090576,8.40267276763916,8.40842533111572,8.4141845703125,8.41995143890381,8.42572689056396,8.43151092529297,8.43730163574219,8.44310092926025,8.44890785217285,8.4547233581543,8.46054649353027,8.4663782119751,8.47221660614014,8.47806453704834,8.48392009735107,8.48978328704834,8.49565505981445,8.5015344619751,8.50742244720459,8.51331806182861,8.51922225952148,8.5251350402832,8.53105545043945,8.53698444366455,8.5429220199585,8.54886722564697,8.5548210144043,8.56078243255615,8.56675243377686,8.57273101806641,8.5787181854248,8.58471393585205,8.59071731567383,8.59672927856445,8.60274982452393,8.60877895355225,8.61481666564941,8.62086200714111,8.62691688537598,8.63297939300537,8.63905048370361,8.64513111114502,8.65121936798096,8.65731620788574,8.66342258453369,8.66953659057617,8.6756591796875,8.68179130554199,8.68793106079102,8.6940803527832,8.70023822784424,8.70640468597412,8.71257972717285,8.71876335144043,8.72495651245117,8.73115730285645,8.73736763000488,8.74358749389648,8.74981498718262,8.75605201721191,8.76229763031006,8.76855278015137,8.77481651306152,8.78108882904053,8.7873706817627,8.79366111755371,8.79996109008789,8.80626964569092,8.81258678436279,8.81891441345215,8.82524967193604,8.83159446716309,8.8379487991333,8.84431171417236,8.85068416595459,8.85706615447998,8.86345672607422,8.86985683441162,8.87626647949219,8.8826847076416,8.88911247253418,8.89554977416992,8.90199661254883,8.90845203399658,8.9149169921875,8.92139148712158,8.92787647247314,8.93436908721924,8.94087219238281,8.94738483428955,8.95390701293945,8.9604377746582,8.96697902679443,8.97352981567383,8.98008918762207,8.98665904998779,8.99323844909668,8.99982738494873,9.00642585754395,9.01303386688232,9.01965141296387,9.02627944946289,9.03291702270508,9.03956413269043,9.04622077941895,9.05288791656494,9.0595645904541,9.06625080108643,9.07294750213623,9.0796537399292,9.08636951446533,9.09309577941895,9.09983253479004,9.10657787322998,9.11333465576172,9.1201000213623,9.12687683105469,9.13366317749023,9.14045906066895,9.14726543426514,9.15367031097412,9.15899753570557,9.16433048248291,9.17963123321533,9.1897611618042,9.19991207122803,9.21008682250977,9.22028350830078
7.72769117355347,7.72757291793823,7.72745513916016,7.72733688354492,7.72721862792969,7.72710084915161,7.72698259353638,7.7268648147583,7.72674655914307,7.72662830352783,7.72651052474976,7.72639226913452,7.72627449035645,7.72615623474121,7.72603845596313,7.7259202003479,7.72580242156982,7.72568464279175,7.74825429916382,7.77374410629272,7.79940223693848,7.82523012161255,7.85122966766357,7.87740278244019,7.90375089645386,7.93027591705322,7.95697975158691,7.98386383056641,8.01093006134033,8.03818035125732,8.06561660766602,8.09324169158936,8.12105560302734,8.14587879180908,8.14702796936035,8.14817714691162,8.14932727813721,8.15047740936279,8.15162754058838,8.15277862548828,8.15392971038818,8.15508079528809,8.1562328338623,8.15738487243652,8.15853691101074,8.15968990325928,8.16084289550781,8.16199588775635,8.1631498336792,8.16430377960205,8.16545867919922,8.16661262512207,8.16776752471924,8.16892337799072,8.17007923126221,8.17123508453369,8.17239093780518,8.17354774475098,8.17470455169678,8.17586231231689,8.1770191192627,8.17817783355713,8.17933559417725,8.18049430847168,8.18165302276611,8.18281269073486,8.18397235870361,8.18513202667236,8.18629264831543,8.18745231628418,8.18861389160156,8.18977451324463,8.19093608856201,8.19209861755371,8.19326019287109,8.19442272186279,8.19558620452881,8.19674873352051,8.19791221618652,8.19907665252686,8.20024108886719,8.20140552520752,8.20256996154785,8.2037353515625,8.20490074157715,8.2060661315918,8.20723247528076,8.20839881896973,8.19685173034668,8.19869709014893,8.20054340362549,8.20239162445068,8.20423984527588,8.20608901977539,8.2079381942749,8.20978927612305,8.21164131164551,8.21349334716797,8.21534633636475,8.21720123291016,8.21905612945557,8.22091197967529,8.22276878356934,8.22462558746338,8.22648429870605,8.22834300994873,8.23020362854004,8.23179912567139,8.23297309875488,8.23414611816406,8.23532104492188,8.23649501800537,8.23766994476318,8.238844871521,8.24002075195312,8.24119663238525,8.24237251281738,8.24354934692383,8.24472618103027,8.24590301513672,8.24708080291748,8.24825859069824,8.24943733215332,8.25061511993408,8.25179386138916,8.25297355651855,8.25415325164795,8.25533294677734,8.25651359558105,8.25769329071045,8.25887489318848,8.26005554199219,8.26123714447021,8.26241970062256,8.26360130310059,8.26478385925293,8.26596736907959,8.26714992523193,8.26833438873291,8.26951789855957,8.27070236206055,8.27188682556152,8.2730712890625,8.27425670623779,8.2754430770874,8.2766284942627,8.2778148651123,8.27900123596191,8.28018856048584,8.28137588500977,8.28256320953369,8.28375148773193,8.28493976593018,8.28612899780273,8.28731727600098,8.28850746154785,8.28969669342041,8.29088687896729,8.29207706451416,8.29326820373535,8.29445934295654,8.29565048217773,8.29684257507324,8.29803466796875,8.29922676086426,8.30041980743408,8.30161285400391,8.30476856231689,8.31038761138916,8.31601333618164,8.32164669036865,8.32728862762451,8.33293724060059,8.33859348297119,8.34425830841064,8.34992980957031,8.35560989379883,8.36129665374756,8.36699199676514,8.37269496917725,8.37840557098389,8.38412475585938,8.38985061645508,8.39558506011963,8.40132713317871,8.40707683563232,8.41283416748047,8.41860008239746,8.42437362670898,8.43015480041504,8.43594455718994,8.44174194335938,8.44754695892334,8.45336055755615,8.4591817855835,8.46501064300537,8.47084808349609,8.47669410705566,8.48254680633545,8.4884090423584,8.49427890777588,8.50015640258789,8.50604248046875,8.51193618774414,8.51783847808838,8.52374935150146,8.52966785430908,8.53559494018555,8.54152965545654,8.54747295379639,8.55342483520508,8.55938529968262,8.56535339355469,8.57133007049561,8.57731533050537,8.58330821990967,8.58930969238281,8.5953197479248,8.60133838653564,8.60736560821533,8.61340141296387,8.61944484710693,8.62549686431885,8.63155841827393,8.63762760162354,8.64370536804199,8.6497917175293,8.65588760375977,8.66199111938477,8.66810321807861,8.67422389984131,8.68035411834717,8.68649196624756,8.69263935089111,8.6987943649292,8.70495891571045,8.71113204956055,8.71731376647949,8.72350406646729,8.72970390319824,8.73591232299805,8.7421293258667,8.7483549118042,8.75459003448486,8.76083374023438,8.76708698272705,8.77334785461426,8.77961826324463,8.78589820861816,8.79218673706055,8.79848384857178,8.80479049682617,8.81110572814941,8.81743049621582,8.82376480102539,8.83010768890381,8.83645915985107,8.8428201675415,8.8491907119751,8.85556983947754,8.86195850372314,8.86835670471191,8.87476348876953,8.88117980957031,8.88760566711426,8.89404106140137,8.90048503875732,8.90693855285645,8.91340160369873,8.91987419128418,8.92635631561279,8.93284702301025,8.9393482208252,8.94585800170898,8.95237731933594,8.95890712738037,8.96544551849365,8.9719934463501,8.97855186462402,8.9851188659668,8.99169635772705,8.99828243255615,9.00487899780273,9.01148509979248,9.01810073852539,9.02472591400146,9.0313606262207,9.03800582885742,9.0446605682373,9.05132484436035,9.05799961090088,9.06468391418457,9.07137775421143,9.07808208465576,9.08479595184326,9.09151935577393,9.09825325012207,9.10499668121338,9.11175060272217,9.11851406097412,9.12528800964355,9.13207244873047,9.13886642456055,9.14566993713379,9.15248394012451,9.15741443634033,9.1711368560791,9.18124771118164,9.19138050079346
7.72852325439453,7.72840547561646,7.72828722000122,7.72816896438599,7.72805118560791,7.72793292999268,7.72781467437744,7.72769689559937,7.72757863998413,7.7274603843689,7.72734260559082,7.72722434997559,7.72710609436035,7.72698831558228,7.72687005996704,7.72675228118896,7.72663402557373,7.72651624679565,7.74835824966431,7.77384853363037,7.79950761795044,7.82533645629883,7.85133647918701,7.87751054763794,7.90385913848877,7.93038511276245,7.9570894241333,7.98397397994995,8.01104164123535,8.03829288482666,8.06573009490967,8.09335517883301,8.12117004394531,8.1436767578125,8.14482498168945,8.14597415924072,8.14712333679199,8.14827251434326,8.14942264556885,8.15057277679443,8.15172290802002,8.15287399291992,8.15402507781982,8.15517616271973,8.15632820129395,8.15748023986816,8.1586332321167,8.15978527069092,8.16093826293945,8.1620922088623,8.16324520111084,8.16440010070801,8.16555404663086,8.16670894622803,8.1678638458252,8.16901874542236,8.17017459869385,8.17133045196533,8.17248725891113,8.17364406585693,8.17480087280273,8.17595767974854,8.17711544036865,8.17827320098877,8.1794319152832,8.18059062957764,8.18174934387207,8.18290901184082,8.18406867980957,8.18522834777832,8.18638801574707,8.18754863739014,8.18871021270752,8.18987083435059,8.19103240966797,8.19219493865967,8.19335651397705,8.19451904296875,8.19568252563477,8.19684600830078,8.1980094909668,8.19917297363281,8.20033740997314,8.20150184631348,8.20266628265381,8.20383167266846,8.20499706268311,8.20616340637207,8.20732975006104,8.20849609375,8.20966243743896,8.21082973480225,8.21199798583984,8.21316528320312,8.21433353424072,8.21550178527832,8.21667098999023,8.21784019470215,8.21900939941406,8.22017955780029,8.22134971618652,8.22251987457275,8.2236909866333,8.22486209869385,8.22603416442871,8.22720527648926,8.22837829589844,8.2295503616333,8.23072338104248,8.23189640045166,8.23307037353516,8.23424434661865,8.23541831970215,8.23659229278564,8.23776721954346,8.23894309997559,8.2401180267334,8.24129390716553,8.24247074127197,8.2436466217041,8.24482345581055,8.24600124359131,8.24717807769775,8.24835681915283,8.24953460693359,8.25071334838867,8.25189208984375,8.25307178497314,8.25425052642822,8.25543117523193,8.25661087036133,8.25779151916504,8.25897216796875,8.26015377044678,8.2613353729248,8.26251697540283,8.26369953155518,8.26488208770752,8.26606559753418,8.26724815368652,8.26843166351318,8.26961612701416,8.27080059051514,8.27198505401611,8.27316951751709,8.27435493469238,8.27554130554199,8.27672672271729,8.27791309356689,8.27910041809082,8.28028678894043,8.28147411346436,8.2826623916626,8.28384971618652,8.28503894805908,8.28622722625732,8.28741645812988,8.28860569000244,8.28979587554932,8.29098606109619,8.29217624664307,8.29336643218994,8.29455757141113,8.29574966430664,8.29694080352783,8.29813289642334,8.29932594299316,8.30051898956299,8.30171203613281,8.30290508270264,8.30409908294678,8.3090705871582,8.31469440460205,8.32032680511475,8.32596588134766,8.3316125869751,8.33726787567139,8.34292984008789,8.34860038757324,8.35427856445312,8.35996341705322,8.36565685272217,8.37135791778564,8.37706756591797,8.38278388977051,8.38850879669189,8.3942403793335,8.39998054504395,8.40572834014893,8.41148471832275,8.41724872589111,8.423020362854,8.42879962921143,8.4345874786377,8.4403829574585,8.44618606567383,8.45199775695801,8.45781707763672,8.46364402770996,8.46947956085205,8.47532367706299,8.48117542266846,8.48703479766846,8.4929027557373,8.49877834320068,8.50466251373291,8.51055431365967,8.51645469665527,8.52236366271973,8.52828025817871,8.53420543670654,8.54013824462891,8.54607963562012,8.55202960968018,8.55798816680908,8.56395435333252,8.5699291229248,8.57591152191162,8.5819034576416,8.58790302276611,8.59391117095947,8.59992790222168,8.60595321655273,8.61198616027832,8.61802768707275,8.62407875061035,8.63013744354248,8.63620471954346,8.64228057861328,8.64836502075195,8.65445804595947,8.66055965423584,8.66667079925537,8.67278957366943,8.67891693115234,8.6850528717041,8.69119834899902,8.69735145568848,8.70351409912109,8.70968532562256,8.71586513519287,8.72205352783203,8.72825050354004,8.73445701599121,8.74067211151123,8.7468957901001,8.75312900543213,8.75936985015869,8.76562118530273,8.77188014984131,8.77814865112305,8.78442573547363,8.79071235656738,8.79700756072998,8.80331230163574,8.80962562561035,8.81594848632812,8.82227993011475,8.82862091064453,8.83497047424316,8.84132957458496,8.84769725799561,8.85407447814941,8.86046123504639,8.86685657501221,8.87326145172119,8.87967586517334,8.88609981536865,8.89253234863281,8.89897441864014,8.90542602539062,8.91188716888428,8.91835689544678,8.92483615875244,8.93132591247559,8.93782424926758,8.94433212280273,8.95084953308105,8.95737648010254,8.96391296386719,8.970458984375,8.97701454162598,8.98357963562012,8.99015426635742,8.99673843383789,9.00333213806152,9.00993633270264,9.01655006408691,9.02317237854004,9.02980518341064,9.03644847869873,9.04310035705566,9.04976272583008,9.05643463134766,9.06311702728271,9.06980800628662,9.07651042938232,9.08322143554688,9.08994293212891,9.09667491912842,9.10341548919678,9.11016750335693,9.11692905426025,9.12370014190674,9.1304817199707,9.13727378845215,9.14407539367676,9.14838886260986,9.1524076461792
7.72935581207275,7.72923755645752,7.72911930084229,7.72900152206421,7.72888326644897,7.72876501083374,7.72864723205566,7.72852897644043,7.7284107208252,7.72829246520996,7.72817468643188,7.72805643081665,7.72793817520142,7.72782039642334,7.72770214080811,7.72758436203003,7.72746610641479,7.72734832763672,7.74846220016479,7.77395343780518,7.7996129989624,7.82544231414795,7.85144329071045,7.87761783599854,7.90396738052368,7.93049383163452,7.95719909667969,7.98408460617065,8.01115226745605,8.03840446472168,8.065842628479,8.09346866607666,8.12128448486328,8.14147567749023,8.14262390136719,8.14377212524414,8.14492034912109,8.14606952667236,8.14721870422363,8.1483678817749,8.14951801300049,8.15066814422607,8.15181827545166,8.15296936035156,8.15412044525146,8.15527248382568,8.15642356872559,8.1575756072998,8.15872859954834,8.15988159179688,8.16103458404541,8.16218757629395,8.1633415222168,8.16449546813965,8.1656494140625,8.16680431365967,8.16795921325684,8.16911506652832,8.1702709197998,8.17142677307129,8.17258262634277,8.17373943328857,8.17489624023438,8.17605400085449,8.17721176147461,8.17836952209473,8.17952823638916,8.18068695068359,8.18184566497803,8.18300533294678,8.18416404724121,8.18532466888428,8.18648433685303,8.18764495849609,8.18880653381348,8.18996715545654,8.19112873077393,8.19229125976562,8.19345378875732,8.19461631774902,8.19577884674072,8.19694232940674,8.19810581207275,8.19926929473877,8.2004337310791,8.20159816741943,8.20276355743408,8.20392894744873,8.20509433746338,8.20625972747803,8.20742607116699,8.20859241485596,8.20975971221924,8.21092700958252,8.2120943069458,8.2132625579834,8.214430809021,8.21559906005859,8.21676826477051,8.21793746948242,8.21910667419434,8.22027683258057,8.2214469909668,8.22261714935303,8.22378826141357,8.22495937347412,8.22613143920898,8.22730255126953,8.22847557067871,8.22964763641357,8.23082065582275,8.23199367523193,8.23316764831543,8.23434162139893,8.23551559448242,8.23669052124023,8.23786449432373,8.23904037475586,8.24021530151367,8.2413911819458,8.24256801605225,8.24374485015869,8.24492168426514,8.24609851837158,8.24727630615234,8.24845409393311,8.24963188171387,8.25081062316895,8.25199031829834,8.25316905975342,8.25434875488281,8.25552845001221,8.25670909881592,8.25788974761963,8.25907039642334,8.26025199890137,8.26143360137939,8.26261520385742,8.26379776000977,8.26498031616211,8.26616287231445,8.26734638214111,8.26852989196777,8.26971435546875,8.27089881896973,8.2720832824707,8.273268699646,8.27445411682129,8.27563953399658,8.27682495117188,8.27801132202148,8.27919864654541,8.28038597106934,8.28157329559326,8.28276062011719,8.28394889831543,8.28513717651367,8.28632545471191,8.28751468658447,8.28870487213135,8.28989410400391,8.29108428955078,8.29227447509766,8.29346561431885,8.29465675354004,8.29584789276123,8.29703998565674,8.29823207855225,8.29942512512207,8.30061721801758,8.30181121826172,8.30300426483154,8.30419826507568,8.30539226531982,8.30775356292725,8.31337642669678,8.31900596618652,8.32464408874512,8.33028888702393,8.33594226837158,8.34160327911377,8.34727096557617,8.35294723510742,8.3586311340332,8.36432266235352,8.37002182006836,8.37572860717773,8.38144397735596,8.38716602325439,8.39289665222168,8.3986349105835,8.40438175201416,8.41013526916504,8.41589736938477,8.42166709899902,8.42744445800781,8.43323040008545,8.43902397155762,8.44482612609863,8.45063495635986,8.45645236968994,8.46227836608887,8.46811199188232,8.47395324707031,8.47980308532715,8.48566150665283,8.49152660369873,8.49740123748779,8.50328350067139,8.50917339324951,8.51507186889648,8.5209789276123,8.52689361572266,8.53281688690186,8.53874778747559,8.54468727111816,8.55063533782959,8.55659103393555,8.56255531311035,8.568528175354,8.5745096206665,8.58049869537354,8.58649635314941,8.59250259399414,8.59851741790771,8.60454082489014,8.61057186126709,8.61661148071289,8.62266063690186,8.62871742248535,8.6347827911377,8.64085674285889,8.64693927764893,8.65303039550781,8.65913009643555,8.66523838043213,8.67135524749756,8.67748069763184,8.68361473083496,8.68975734710693,8.69590950012207,8.70206928253174,8.70823860168457,8.71441650390625,8.72060298919678,8.72679805755615,8.73300170898438,8.73921489715576,8.745436668396,8.75166797637939,8.75790691375732,8.76415538787842,8.77041339874268,8.77667903900146,8.78295421600342,8.78923892974854,8.7955322265625,8.80183410644531,8.80814552307129,8.81446647644043,8.82079601287842,8.82713413238525,8.83348178863525,8.83983898162842,8.84620475769043,8.85258007049561,8.85896396636963,8.86535739898682,8.87176036834717,8.87817287445068,8.88459396362305,8.89102458953857,8.89746475219727,8.9039134979248,8.91037178039551,8.91684055328369,8.92331790924072,8.92980480194092,8.93630027770996,8.94280624389648,8.94932174682617,8.95584583282471,8.96238040924072,8.9689245223999,8.97547721862793,8.98204040527344,8.98861312866211,8.99519538879395,9.00178718566895,9.00838851928711,9.01499938964844,9.02161979675293,9.0282506942749,9.03489112854004,9.04154109954834,9.0482006072998,9.05487060546875,9.06155014038086,9.06824016571045,9.07493877410889,9.08164882659912,9.0883674621582,9.09509658813477,9.10183525085449,9.1085844039917,9.11534404754639,9.12211322784424,9.12889194488525,9.1353759765625
7.73018836975098,7.73007011413574,7.72995185852051,7.72983407974243,7.7297158241272,7.72959756851196,7.72947931289673,7.72936153411865,7.72924327850342,7.72912502288818,7.72900676727295,7.72888898849487,7.72877073287964,7.7286524772644,7.72853422164917,7.72841644287109,7.72829818725586,7.72818040847778,7.74856615066528,7.77405834197998,7.79971837997437,7.82554864883423,7.85155010223389,7.87772560119629,7.90407562255859,7.93060302734375,7.95730876922607,7.98419523239136,8.01126384735107,8.0385160446167,8.06595516204834,8.09358215332031,8.12139892578125,8.1392765045166,8.14042377471924,8.14157104492188,8.14271926879883,8.14386749267578,8.14501571655273,8.146164894104,8.14731407165527,8.14846324920654,8.14961338043213,8.15076351165771,8.1519136428833,8.1530647277832,8.15421581268311,8.15536785125732,8.15651893615723,8.15767192840576,8.15882396697998,8.15997695922852,8.16112995147705,8.16228294372559,8.16343688964844,8.16459083557129,8.16574573516846,8.16690063476562,8.16805553436279,8.16921043395996,8.17036628723145,8.17152214050293,8.17267894744873,8.17383575439453,8.17499256134033,8.17615032196045,8.17730808258057,8.17846584320068,8.1796236038208,8.18078231811523,8.18194198608398,8.18310070037842,8.18426036834717,8.18542098999023,8.18658065795898,8.18774127960205,8.18890285491943,8.1900634765625,8.19122505187988,8.19238758087158,8.19355010986328,8.19471263885498,8.19587516784668,8.1970386505127,8.19820213317871,8.19936656951904,8.20053005218506,8.20169544219971,8.20285987854004,8.20402526855469,8.20519065856934,8.2063570022583,8.20752334594727,8.20868968963623,8.2098560333252,8.21102333068848,8.21219158172607,8.21335887908936,8.21452713012695,8.21569633483887,8.21686458587646,8.21803379058838,8.21920394897461,8.22037410736084,8.22154426574707,8.2227144241333,8.22388553619385,8.22505664825439,8.22622871398926,8.2273998260498,8.22857284545898,8.22974491119385,8.23091793060303,8.23209095001221,8.2332649230957,8.2344388961792,8.2356128692627,8.23678779602051,8.23796272277832,8.23913764953613,8.24031352996826,8.24148941040039,8.24266529083252,8.24384212493896,8.24501895904541,8.24619579315186,8.24737358093262,8.24855136871338,8.24973011016846,8.25090885162354,8.25208759307861,8.25326728820801,8.2544469833374,8.2556266784668,8.25680732727051,8.25798797607422,8.25916862487793,8.26035022735596,8.26153182983398,8.26271343231201,8.26389598846436,8.2650785446167,8.26626110076904,8.2674446105957,8.26862812042236,8.26981258392334,8.27099704742432,8.27218151092529,8.27336692810059,8.27455234527588,8.27573776245117,8.27692413330078,8.27811050415039,8.279296875,8.28048419952393,8.28167152404785,8.28285884857178,8.28404712677002,8.28523540496826,8.28642463684082,8.28761386871338,8.28880310058594,8.28999328613281,8.29118347167969,8.29237365722656,8.29356479644775,8.29475593566895,8.29594707489014,8.29713916778564,8.29833126068115,8.29952335357666,8.30071640014648,8.30190944671631,8.30310344696045,8.30429744720459,8.30549144744873,8.30668640136719,8.30788135528564,8.3120584487915,8.31768608093262,8.32332229614258,8.32896614074707,8.33461666107178,8.34027576446533,8.34594249725342,8.35161685943604,8.35729885101318,8.36298847198486,8.36868572235107,8.37439155578613,8.38010406494141,8.38582515716553,8.39155387878418,8.39729022979736,8.40303421020508,8.40878677368164,8.41454696655273,8.42031478881836,8.42609024047852,8.43187427520752,8.43766593933105,8.44346618652344,8.44927310943604,8.4550895690918,8.46091270446777,8.4667444229126,8.47258472442627,8.47843170166016,8.48428821563721,8.49015235900879,8.4960241317749,8.50190448760986,8.50779247283936,8.5136890411377,8.51959419250488,8.5255069732666,8.53142833709717,8.53735733032227,8.54329490661621,8.549241065979,8.55519485473633,8.5611572265625,8.56712818145752,8.57310771942139,8.57909488677979,8.58509063720703,8.59109497070312,8.59710788726807,8.60312843322754,8.60915756225586,8.61519622802734,8.62124252319336,8.62729740142822,8.63336086273193,8.63943290710449,8.6455135345459,8.65160179138184,8.65769958496094,8.66380596160889,8.66992092132568,8.67604446411133,8.68217658996582,8.68831729888916,8.69446659088135,8.7006254196167,8.70679187774658,8.71296787261963,8.71915245056152,8.72534561157227,8.73154735565186,8.73775863647461,8.74397850036621,8.75020694732666,8.75644397735596,8.76269054412842,8.76894569396973,8.7752103805542,8.78148365020752,8.78776550292969,8.79405689239502,8.8003568649292,8.80666637420654,8.81298446655273,8.81931209564209,8.82564830780029,8.83199405670166,8.83834838867188,8.84471225738525,8.8510856628418,8.85746765136719,8.86385917663574,8.87025928497314,8.87666988372803,8.88308811187744,8.88951683044434,8.89595508575439,8.9024019241333,8.90885829925537,8.91532421112061,8.921799659729,8.92828369140625,8.93477821350098,8.94128131866455,8.94779396057129,8.95431709289551,8.96084880828857,8.9673900604248,8.9739408493042,8.98050212860107,8.9870719909668,8.99365234375,9.00024127960205,9.00684070587158,9.01344966888428,9.02006816864014,9.02669620513916,9.03333473205566,9.03998184204102,9.04664039611816,9.05330753326416,9.05998420715332,9.06667137145996,9.07336902618408,9.08007526397705,9.0867919921875,9.09351921081543,9.10025596618652,9.10700225830078,9.11375904083252
7.73102140426636,7.73090314865112,7.73078489303589,7.73066663742065,7.73054838180542,7.73043012619019,7.73031187057495,7.73019409179688,7.73007583618164,7.72995758056641,7.72983932495117,7.72972106933594,7.72960329055786,7.72948503494263,7.72936677932739,7.72924900054932,7.72913074493408,7.72901248931885,7.74867010116577,7.77416276931763,7.79982376098633,7.82565450668335,7.85165739059448,7.87783288955688,7.90418386459351,7.93071174621582,7.95741844177246,7.9843053817749,8.01137447357178,8.03862857818604,8.06606769561768,8.09369564056396,8.12151336669922,8.13707828521729,8.13822460174561,8.13937187194824,8.14051914215088,8.14166641235352,8.14281463623047,8.14396286010742,8.14511108398438,8.14626026153564,8.14740943908691,8.14855861663818,8.14970874786377,8.15085887908936,8.15200996398926,8.15316009521484,8.15431118011475,8.15546321868896,8.15661525726318,8.1577672958374,8.15891933441162,8.16007232666016,8.16122531890869,8.16237926483154,8.16353321075439,8.16468715667725,8.1658411026001,8.16699600219727,8.16815090179443,8.16930675506592,8.1704626083374,8.17161846160889,8.17277526855469,8.17393112182617,8.17508888244629,8.17624568939209,8.17740345001221,8.17856216430664,8.17971992492676,8.18087863922119,8.18203830718994,8.18319702148438,8.18435668945312,8.18551731109619,8.18667697906494,8.18783760070801,8.18899917602539,8.19015979766846,8.19132232666016,8.19248390197754,8.19364643096924,8.19480895996094,8.19597148895264,8.19713497161865,8.19829845428467,8.199462890625,8.20062732696533,8.20179176330566,8.202956199646,8.20412158966064,8.20528793334961,8.20645332336426,8.20761966705322,8.20878601074219,8.20995330810547,8.21112060546875,8.21228790283203,8.21345615386963,8.21462440490723,8.21579265594482,8.21696186065674,8.21813106536865,8.21930122375488,8.2204704284668,8.22164058685303,8.22281169891357,8.22398281097412,8.22515392303467,8.22632503509521,8.22749710083008,8.22867012023926,8.22984218597412,8.2310152053833,8.23218822479248,8.23336219787598,8.23453617095947,8.23571014404297,8.23688507080078,8.23805999755859,8.23923492431641,8.24041080474854,8.24158668518066,8.24276256561279,8.24393939971924,8.24511623382568,8.24629402160645,8.24747180938721,8.24864959716797,8.24982738494873,8.25100612640381,8.2521858215332,8.25336456298828,8.25454425811768,8.25572395324707,8.25690460205078,8.25808525085449,8.25926685333252,8.26044750213623,8.26162910461426,8.2628116607666,8.26399421691895,8.26517677307129,8.26635932922363,8.26754283905029,8.26872634887695,8.26991081237793,8.27109527587891,8.27227973937988,8.27346515655518,8.27465057373047,8.27583599090576,8.27702236175537,8.27820873260498,8.27939510345459,8.28058242797852,8.28176975250244,8.28295803070068,8.28414535522461,8.28533458709717,8.28652286529541,8.28771209716797,8.28890132904053,8.2900915145874,8.29128170013428,8.29247188568115,8.29366302490234,8.29485416412354,8.29604625701904,8.29723739624023,8.29843044281006,8.29962253570557,8.30081558227539,8.30200862884521,8.30320262908936,8.3043966293335,8.30559062957764,8.30678558349609,8.30798053741455,8.30917549133301,8.31074047088623,8.31636714935303,8.32200145721436,8.32764339447021,8.33329200744629,8.33894920349121,8.34461402893066,8.35028648376465,8.35596656799316,8.36165428161621,8.36735057830811,8.37305355072021,8.37876510620117,8.38448429107666,8.39021110534668,8.39594554901123,8.40168762207031,8.40743827819824,8.4131965637207,8.4189624786377,8.42473697662354,8.43051815032959,8.43630790710449,8.44210624694824,8.44791221618652,8.45372581481934,8.459547996521,8.46537780761719,8.47121524810791,8.47706127166748,8.48291492462158,8.48877716064453,8.49464797973633,8.50052547454834,8.50641250610352,8.51230716705322,8.51820945739746,8.52412128448486,8.53003978729248,8.53596782684326,8.54190349578857,8.54784679412842,8.55379962921143,8.55976009368896,8.56572818756104,8.57170581817627,8.57769107818604,8.58368492126465,8.58968734741211,8.59569835662842,8.60171699523926,8.60774421691895,8.6137809753418,8.61982536315918,8.62587833404541,8.63193988800049,8.6380090713501,8.64408779144287,8.65017509460449,8.65627098083496,8.66237449645996,8.66848754882812,8.67460918426514,8.680739402771,8.6868782043457,8.69302558898926,8.69918155670166,8.70534610748291,8.71152019500732,8.71770286560059,8.7238941192627,8.73009395599365,8.73630237579346,8.74252033233643,8.74874687194824,8.75498199462891,8.76122665405273,8.76747989654541,8.77374172210693,8.78001308441162,8.78629302978516,8.79258251190186,8.7988805770874,8.8051872253418,8.81150341033936,8.81782817840576,8.82416248321533,8.83050632476807,8.83685874938965,8.84322071075439,8.84959125518799,8.85597133636475,8.86236095428467,8.86875915527344,8.87516689300537,8.88158416748047,8.88801002502441,8.89444541931152,8.9008903503418,8.90734481811523,8.91380786895752,8.92028141021729,8.9267635345459,8.93325519561768,8.93975639343262,8.94626712799072,8.95278739929199,8.95931720733643,8.96585655212402,8.97240543365479,8.97896385192871,8.9855318069458,8.99210929870605,8.99869728088379,9.00529384613037,9.01189994812012,9.01851654052734,9.02514266967773,9.03177833557129,9.03842353820801,9.04507923126221,9.05174446105957,9.0584192276001,9.06510448455811,9.07179832458496,9.07850360870361,9.08521747589111,9.09194183349609
7.73185396194458,7.73173570632935,7.73161792755127,7.73149967193604,7.7313814163208,7.73126316070557,7.73114490509033,7.7310266494751,7.73090839385986,7.73079013824463,7.73067235946655,7.73055410385132,7.73043584823608,7.73031759262085,7.73019933700562,7.73008155822754,7.7299633026123,7.72984504699707,7.74877452850342,7.77426767349243,7.79992914199829,7.82576084136963,7.85176420211792,7.87794065475464,7.90429210662842,7.93082094192505,7.95752811431885,7.98441600799561,8.0114860534668,8.03874015808105,8.06618118286133,8.09380912780762,8.12162685394287,8.13488101959229,8.13602638244629,8.13717269897461,8.13831996917725,8.13946628570557,8.1406135559082,8.14176177978516,8.14291000366211,8.14405822753906,8.14520645141602,8.14635562896729,8.14750480651855,8.14865398406982,8.14980411529541,8.150954246521,8.1521053314209,8.15325546264648,8.1544075012207,8.15555858612061,8.15671062469482,8.15786266326904,8.15901470184326,8.1601676940918,8.16132164001465,8.16247463226318,8.16362857818604,8.16478252410889,8.16593742370605,8.16709232330322,8.16824722290039,8.16940212249756,8.17055797576904,8.17171478271484,8.17287063598633,8.17402744293213,8.17518424987793,8.17634201049805,8.17749977111816,8.17865753173828,8.17981624603271,8.18097496032715,8.18213367462158,8.18329334259033,8.18445301055908,8.18561267852783,8.1867733001709,8.18793392181396,8.18909549713135,8.19025611877441,8.19141864776611,8.1925802230835,8.1937427520752,8.19490528106689,8.19606781005859,8.19723129272461,8.19839572906494,8.19955921173096,8.20072364807129,8.20188808441162,8.20305347442627,8.20421886444092,8.20538425445557,8.20655059814453,8.2077169418335,8.20888328552246,8.21004962921143,8.21121692657471,8.2123851776123,8.2135534286499,8.2147216796875,8.2158899307251,8.21705913543701,8.21822834014893,8.21939754486084,8.22056770324707,8.2217378616333,8.22290897369385,8.22408008575439,8.22525119781494,8.22642230987549,8.22759437561035,8.22876644134521,8.22993946075439,8.23111248016357,8.23228549957275,8.23345947265625,8.23463344573975,8.23580741882324,8.23698234558105,8.23815727233887,8.23933219909668,8.24050807952881,8.24168395996094,8.24286079406738,8.24403762817383,8.24521446228027,8.24639129638672,8.24756908416748,8.24874687194824,8.24992561340332,8.2511043548584,8.25228309631348,8.25346279144287,8.25464248657227,8.25582218170166,8.25700283050537,8.25818347930908,8.25936412811279,8.26054573059082,8.26172733306885,8.26290988922119,8.26409149169922,8.26527500152588,8.26645755767822,8.26764106750488,8.26882457733154,8.27000904083252,8.2711935043335,8.27237796783447,8.27356338500977,8.27474880218506,8.27593421936035,8.27712059020996,8.27830696105957,8.27949333190918,8.28068065643311,8.28186798095703,8.28305625915527,8.28424453735352,8.28543281555176,8.28662204742432,8.28781127929688,8.28900051116943,8.29019069671631,8.29138088226318,8.29257106781006,8.29376220703125,8.29495334625244,8.29614448547363,8.29733657836914,8.29852867126465,8.29972171783447,8.3009147644043,8.30210781097412,8.30330181121826,8.3044958114624,8.30568981170654,8.306884765625,8.30807971954346,8.30927467346191,8.31047058105469,8.31166648864746,8.31504821777344,8.32068061828613,8.32632064819336,8.33196830749512,8.33762359619141,8.34328651428223,8.34895706176758,8.35463523864746,8.36032104492188,8.36601543426514,8.37171649932861,8.37742614746094,8.38314342498779,8.38886833190918,8.3946008682251,8.40034198760986,8.40609073638916,8.41184711456299,8.41761112213135,8.42338275909424,8.42916297912598,8.43495082855225,8.44074726104736,8.44655132293701,8.45236301422119,8.45818328857422,8.46401119232178,8.46984672546387,8.4756908416748,8.48154258728027,8.48740291595459,8.49327182769775,8.49914836883545,8.50503253936768,8.51092529296875,8.51682662963867,8.52273559570312,8.52865219116211,8.53457832336426,8.54051208496094,8.54645347595215,8.55240440368652,8.55836296081543,8.56432914733887,8.57030487060547,8.5762882232666,8.58228015899658,8.58828067779541,8.59428882598877,8.60030651092529,8.60633182525635,8.61236572265625,8.618408203125,8.6244592666626,8.63051891326904,8.63658618927002,8.64266300201416,8.64874839782715,8.65484142303467,8.66094398498535,8.66705417633057,8.67317390441895,8.67930221557617,8.68543910980225,8.69158458709717,8.69773864746094,8.70390129089355,8.71007347106934,8.71625328063965,8.72244262695312,8.72864055633545,8.73484706878662,8.74106311798096,8.74728679656982,8.75352096557617,8.75976276397705,8.76601409912109,8.77227401733398,8.77854251861572,8.78482055664062,8.79110813140869,8.79740428924561,8.80370903015137,8.81002235412598,8.81634616851807,8.82267761230469,8.82901954650879,8.83537006378174,8.84172916412354,8.8480978012085,8.85447597503662,8.86086273193359,8.86725902557373,8.87366485595703,8.88007926940918,8.88650321960449,8.89293670654297,8.89937973022461,8.9058313369751,8.91229343414307,8.91876411437988,8.92524433135986,8.93173408508301,8.938232421875,8.94474124908447,8.95125961303711,8.95778656005859,8.96432399749756,8.97087001800537,8.97742652893066,8.98399257659912,8.99056720733643,8.99715232849121,9.00374698638916,9.01035118103027,9.01696586608887,9.02358913421631,9.03022289276123,9.03686618804932,9.04351902008057,9.0501823425293,9.05685424804688,9.06353664398193,9.07022953033447
7.73268747329712,7.73256921768188,7.73245096206665,7.73233270645142,7.73221445083618,7.73209619522095,7.73197793960571,7.73185968399048,7.73174142837524,7.73162317276001,7.73150491714478,7.73138666152954,7.73126840591431,7.73115062713623,7.731032371521,7.73091411590576,7.73079586029053,7.73067808151245,7.74887847900391,7.77437257766724,7.80003452301025,7.82586669921875,7.85187101364136,7.87804794311523,7.90440082550049,7.93093013763428,7.95763778686523,7.98452663421631,8.01159763336182,8.03885269165039,8.06629371643066,8.09392261505127,8.12174129486084,8.1326847076416,8.13383007049561,8.13497543334961,8.13612174987793,8.13726806640625,8.13841438293457,8.13956165313721,8.14070892333984,8.1418571472168,8.14300441741943,8.1441535949707,8.14530181884766,8.14645099639893,8.1476001739502,8.14874935150146,8.14989948272705,8.15104961395264,8.15220069885254,8.15335178375244,8.15450286865234,8.15565395355225,8.15680599212646,8.15795803070068,8.15911102294922,8.16026401519775,8.16141700744629,8.16256999969482,8.16372394561768,8.16487789154053,8.1660327911377,8.16718769073486,8.16834259033203,8.16949844360352,8.170654296875,8.17181015014648,8.17296695709229,8.17412376403809,8.17528057098389,8.176438331604,8.17759609222412,8.17875385284424,8.17991256713867,8.18107128143311,8.18222999572754,8.18338966369629,8.18454933166504,8.18570899963379,8.18686962127686,8.18803024291992,8.1891918182373,8.19035243988037,8.19151496887207,8.19267654418945,8.19383907318115,8.19500160217285,8.19616508483887,8.19732856750488,8.1984920501709,8.19965553283691,8.20081996917725,8.20198440551758,8.20314979553223,8.20431518554688,8.20548057556152,8.20664691925049,8.20781326293945,8.20897960662842,8.2101469039917,8.21131420135498,8.21248149871826,8.21364974975586,8.21481800079346,8.21598720550537,8.21715545654297,8.2183256149292,8.21949481964111,8.22066497802734,8.22183513641357,8.22300624847412,8.22417640686035,8.22534847259521,8.22651958465576,8.22769165039062,8.22886371612549,8.23003673553467,8.23120975494385,8.23238277435303,8.23355674743652,8.23473072052002,8.23590469360352,8.23707962036133,8.23825454711914,8.23943042755127,8.2406063079834,8.24178218841553,8.24295806884766,8.2441349029541,8.24531173706055,8.24648952484131,8.24766731262207,8.24884510040283,8.25002288818359,8.25120162963867,8.25238132476807,8.25356006622314,8.25473976135254,8.25592041015625,8.25710105895996,8.25828170776367,8.25946235656738,8.26064395904541,8.26182556152344,8.26300716400146,8.26418972015381,8.26537322998047,8.26655578613281,8.26773929595947,8.26892280578613,8.27010726928711,8.27129173278809,8.27247619628906,8.27366161346436,8.27484703063965,8.27603244781494,8.27721881866455,8.27840518951416,8.27959251403809,8.28077983856201,8.28196716308594,8.28315448760986,8.28434276580811,8.28553104400635,8.28672027587891,8.28790950775146,8.28909873962402,8.2902889251709,8.29147911071777,8.29267024993896,8.29386043548584,8.29505157470703,8.29624366760254,8.29743576049805,8.29862785339355,8.29982089996338,8.30101299285889,8.30220699310303,8.30340003967285,8.30459403991699,8.30578899383545,8.30698299407959,8.30817890167236,8.30937385559082,8.31056976318359,8.31176567077637,8.31296253204346,8.31415843963623,8.31936073303223,8.32499885559082,8.33064460754395,8.3362979888916,8.34195899963379,8.34762763977051,8.35330390930176,8.35898876190186,8.36468029022217,8.37038040161133,8.37608814239502,8.38180351257324,8.387526512146,8.39325714111328,8.39899635314941,8.40474319458008,8.41049766540527,8.416259765625,8.42203044891357,8.42780780792236,8.43359470367432,8.43938827514648,8.4451904296875,8.45100021362305,8.45681858062744,8.46264457702637,8.46847915649414,8.47432136535645,8.48017120361328,8.48602962493896,8.49189567565918,8.49777030944824,8.50365352630615,8.50954437255859,8.51544284820557,8.52134990692139,8.52726554870605,8.53318881988525,8.5391206741333,8.5450611114502,8.55100917816162,8.55696582794189,8.56293106079102,8.56890392303467,8.57488536834717,8.58087539672852,8.58687400817871,8.59288024902344,8.59889602661133,8.60491943359375,8.61095142364502,8.61699199676514,8.62304019927979,8.6290979385376,8.63516426086426,8.64123821258545,8.6473217010498,8.65341281890869,8.65951347351074,8.66562175750732,8.67173957824707,8.67786598205566,8.68400001525879,8.69014358520508,8.69629573822021,8.7024564743042,8.70862674713135,8.71480464935303,8.72099208831787,8.72718715667725,8.7333927154541,8.73960590362549,8.74582862854004,8.75205898284912,8.75829982757568,8.76454830169678,8.77080631256104,8.77707386016846,8.78334903717041,8.78963375091553,8.79592800140381,8.80223083496094,8.80854225158691,8.81486320495605,8.82119369506836,8.82753276824951,8.83388137817383,8.84023857116699,8.84660530090332,8.8529806137085,8.85936546325684,8.86575984954834,8.87216281890869,8.87857532501221,8.88499736785889,8.89142894744873,8.89786911010742,8.90431880950928,8.9107780456543,8.91724681854248,8.92372512817383,8.93021202087402,8.9367094039917,8.94321537017822,8.94973087310791,8.95625686645508,8.96279144287109,8.96933555603027,8.97589015960693,8.98245334625244,8.98902606964111,8.99560928344727,9.00220108032227,9.00880336761475,9.01541519165039,9.0220365524292,9.02866744995117,9.03530883789062,9.04195976257324,9.04862022399902
