13.2837677001953,13.3937635421753,13.5077123641968,0,0,0,0,0,0,0,0,0,0,0,0,0,0,0,0,0,0,0,0,0,0,0,0,0,0,0,0,0,0,0,0,0,0,0,0,0,0,0,0,0,0,0,0,0,0,0,0,0,0,0,0,0,0,0,0,0,0,0,0,0,0,0,0,0,0,0,0,0,0,0,0,0,0,0,0,0,0,0,0,0,0,0,0,0,0,0,0,0,0,0,0,0,0,0,0,0,0,0,0,0,0,0,0,0,0,0,0,0,0,0,0,0,0,0,0,0,0,0,0,0,0,0,0,0,0,0,0,0,0,0,0,0,0,0,0,0,0,0,0,0,0,0,0,0,0,0,0,0,0,0,0,0,0,0,0,0,0,0,0,0,0,0,0,0,0,0,0,0,0,0,0,0,0,0,0,0,0,0,0,0,0,0,0,0,0,0,0,0,0,0,0,0,0,0,0,0,0,0,0,0,0,0,0,0,0,0,0,0,0,0,0,0,0,0,0,0,0,0,0,0,0,0,0,0,0,0,0,0,0,0,0,0,0,0,0,0,0,0,0,0,0,0,0,0,0,0,0,0,0,0,0,0,0,0,0,0,0,0,0,0,0,0,0,0,0,0,0,0,0,0,0,0,0,0,0,0,0,0,0,0,0,0,0,0,0,0,0,0,0,0,0,0,0,0
13.1926746368408,13.3011598587036,13.4114446640015,13.5235738754272,0,0,0,0,0,0,0,0,0,0,0,0,0,0,0,0,0,0,0,0,0,0,0,0,0,0,0,0,0,0,0,0,0,0,0,0,0,0,0,0,0,0,0,0,0,0,0,0,0,0,0,0,0,0,0,0,0,0,0,0,0,0,0,0,0,0,0,0,0,0,0,0,0,0,0,0,0,0,0,0,0,0,0,0,0,0,0,0,0,0,0,0,0,0,0,0,0,0,0,0,0,0,0,0,0,0,0,0,0,0,0,0,0,0,0,0,0,0,0,0,0,0,0,0,0,0,0,0,0,0,0,0,0,0,0,0,0,0,0,0,0,0,0,0,0,0,0,0,0,0,0,0,0,0,0,0,0,0,0,0,0,0,0,0,0,0,0,0,0,0,0,0,0,0,0,0,0,0,0,0,0,0,0,0,0,0,0,0,0,0,0,0,0,0,0,0,0,0,0,0,0,0,0,0,0,0,0,0,0,0,0,0,0,0,0,0,0,0,0,0,0,0,0,0,0,0,0,0,0,0,0,0,0,0,0,0,0,0,0,0,0,0,0,0,0,0,0,0,0,0,0,0,0,0,0,0,0,0,0,0,0,0,0,0,0,0,0,0,0,0,0,0,0,0,0,0,0,0,0,0,0,0,0,0,0,0,0,0,0,0,0,0,0,0
13.1028213500977,13.20982837677,13.3185977935791,13.4291734695435,13.541600227356,0,0,0,0,0,0,0,0,0,0,0,0,0,0,0,0,0,0,0,0,0,0,0,0,0,0,0,0,0,0,0,0,0,0,0,0,0,0,0,0,0,0,0,0,0,0,0,0,0,0,0,0,0,0,0,0,0,0,0,0,0,0,0,0,0,0,0,0,0,0,0,0,0,0,0,0,0,0,0,0,0,0,0,0,0,0,0,0,0,0,0,0,0,0,0,0,0,0,0,0,0,0,0,0,0,0,0,0,0,0,0,0,0,0,0,0,0,0,0,0,0,0,0,0,0,0,0,0,0,0,0,0,0,0,0,0,0,0,0,0,0,0,0,0,0,0,0,0,0,0,0,0,0,0,0,0,0,0,0,0,0,0,0,0,0,0,0,0,0,0,0,0,0,0,0,0,0,0,0,0,0,0,0,0,0,0,0,0,0,0,0,0,0,0,0,0,0,0,0,0,0,0,0,0,0,0,0,0,0,0,0,0,0,0,0,0,0,0,0,0,0,0,0,0,0,0,0,0,0,0,0,0,0,0,0,0,0,0,0,0,0,0,0,0,0,0,0,0,0,0,0,0,0,0,0,0,0,0,0,0,0,0,0,0,0,0,0,0,0,0,0,0,0,0,0,0,0,0,0,0,0,0,0,0,0,0,0,0,0,0,0,0,0
13.0141839981079,13.1197423934937,13.2270269393921,13.3360815048218,13.446949005127,0,0,0,0,0,0,0,0,0,0,0,0,0,0,0,0,0,0,0,0,0,0,0,0,0,0,0,0,0,0,0,0,0,0,0,0,0,0,0,0,0,0,0,0,0,0,0,0,0,0,0,0,0,0,0,0,0,0,0,0,0,0,0,0,0,0,0,0,0,0,0,0,0,0,0,0,0,0,0,0,0,0,0,0,0,0,0,0,0,0,0,0,0,0,0,0,0,0,0,0,0,0,0,0,0,0,0,0,0,0,0,0,0,0,0,0,0,0,0,0,0,0,0,0,0,0,0,0,0,0,0,0,0,0,0,0,0,0,0,0,0,0,0,0,0,0,0,0,0,0,0,0,0,0,0,0,0,0,0,0,0,0,0,0,0,0,0,0,0,0,0,0,0,0,0,0,0,0,0,0,0,0,0,0,0,0,0,0,0,0,0,0,0,0,0,0,0,0,0,0,0,0,0,0,0,0,0,0,0,0,0,0,0,0,0,0,0,0,0,0,0,0,0,0,0,0,0,0,0,0,0,0,0,0,0,0,0,0,0,0,0,0,0,0,0,0,0,0,0,0,0,0,0,0,0,0,0,0,0,0,0,0,0,0,0,0,0,0,0,0,0,0,0,0,0,0,0,0,0,0,0,0,0,0,0,0,0,0,0,0,0,0,0
12.9267377853394,13.0308771133423,13.1367073059082,13.2442712783813,13.3536109924316,0,0,0,0,0,0,0,0,0,0,0,0,0,0,0,0,0,0,0,0,0,0,0,0,0,0,0,0,0,0,0,0,0,0,0,0,0,0,0,0,0,0,0,0,0,0,0,0,0,0,0,0,0,0,0,0,0,0,0,0,0,0,0,0,0,0,0,0,0,0,0,0,0,0,0,0,0,0,0,0,0,0,0,0,0,0,0,0,0,0,0,0,0,0,0,0,0,0,0,0,0,0,0,0,0,0,0,0,0,0,0,0,0,0,0,0,0,0,0,0,0,0,0,0,0,0,0,0,0,0,0,0,0,0,0,0,0,0,0,0,0,0,0,0,0,0,0,0,0,0,0,0,0,0,0,0,0,0,0,0,0,0,0,0,0,0,0,0,0,0,0,0,0,0,0,0,0,0,0,0,0,0,0,0,0,0,0,0,0,0,0,0,0,0,0,0,0,0,0,0,0,0,0,0,0,0,0,0,0,0,0,0,0,0,0,0,0,0,0,0,0,0,0,0,0,0,0,0,0,0,0,0,0,0,0,0,0,0,0,0,0,0,0,0,0,0,0,0,0,0,0,0,0,0,0,0,0,0,0,0,0,0,0,0,0,0,0,0,0,0,0,0,0,0,0,0,0,0,0,0,0,0,0,0,0,0,0,0,0,0,0,0,0
12.8187484741211,12.9432067871094,13.0476131439209,13.1537160873413,13.2615604400635,0,0,0,0,0,0,0,0,0,0,0,0,0,0,0,0,0,0,0,0,0,0,0,0,0,0,0,0,0,0,0,0,0,0,0,0,0,0,0,0,0,0,0,0,0,0,0,0,0,0,0,0,0,0,0,0,0,0,0,0,0,0,0,0,0,0,0,0,0,0,0,0,0,0,0,0,0,0,0,0,0,0,0,0,0,0,0,0,0,0,0,0,0,0,0,0,0,0,0,0,0,0,0,0,0,0,0,0,0,0,0,0,0,0,0,0,0,0,0,0,0,0,0,0,0,0,0,0,0,0,0,0,0,0,0,0,0,0,0,0,0,0,0,0,0,0,0,0,0,0,0,0,0,0,0,0,0,0,0,0,0,0,0,0,0,0,0,0,0,0,0,0,0,0,0,0,0,0,0,0,0,0,0,0,0,0,0,0,0,0,0,0,0,0,0,0,0,0,0,0,0,0,0,0,0,0,0,0,0,0,0,0,0,0,0,0,0,0,0,0,0,0,0,0,0,0,0,0,0,0,0,0,0,0,0,0,0,0,0,0,0,0,0,0,0,0,0,0,0,0,0,0,0,0,0,0,0,0,0,0,0,0,0,0,0,0,0,0,0,0,0,0,0,0,0,0,0,0,0,0,0,0,0,0,0,0,0,0,0,0,0,0,0
12.8045682907104,12.8300294876099,12.9562158584595,13.0643911361694,13.1707696914673,0,0,0,0,0,0,0,0,0,0,0,0,0,0,0,0,0,0,0,0,0,0,0,0,0,0,0,0,0,0,0,0,0,0,0,0,0,0,0,0,0,0,0,0,0,0,0,0,0,0,0,0,0,0,0,0,0,0,0,0,0,0,0,0,0,0,0,0,0,0,0,0,0,0,0,0,0,0,0,0,0,0,0,0,0,0,0,0,0,0,0,0,0,0,0,0,0,0,0,0,0,0,0,0,0,0,0,0,0,0,0,0,0,0,0,0,0,0,0,0,0,0,0,0,0,0,0,0,0,0,0,0,0,0,0,0,0,0,0,0,0,0,0,0,0,0,0,0,0,0,0,0,0,0,0,0,0,0,0,0,0,0,0,0,0,0,0,0,0,0,0,0,0,0,0,0,0,0,0,0,0,0,0,0,0,0,0,0,0,0,0,0,0,0,0,0,0,0,0,0,0,0,0,0,0,0,0,0,0,0,0,0,0,0,0,0,0,0,0,0,0,0,0,0,0,0,0,0,0,0,0,0,0,0,0,0,0,0,0,0,0,0,0,0,0,0,0,0,0,0,0,0,0,0,0,0,0,0,0,0,0,0,0,0,0,0,0,0,0,0,0,0,0,0,0,0,0,0,0,0,0,0,0,0,0,0,0,0,0,0,0,0,0
12.8669357299805,12.8916749954224,12.9165086746216,12.9677391052246,13.0812139511108,0,0,0,0,0,0,0,0,0,0,0,0,0,0,0,0,0,0,0,0,0,0,0,0,0,0,0,0,0,0,0,0,0,0,0,0,0,0,0,0,0,0,0,0,0,0,0,0,0,0,0,0,0,0,0,0,0,0,0,0,0,0,0,0,0,0,0,0,0,0,0,0,0,0,0,0,0,0,0,0,0,0,0,0,0,0,0,0,0,0,0,0,0,0,0,0,0,0,0,0,0,0,0,0,0,0,0,0,0,0,0,0,0,0,0,0,0,0,0,0,0,0,0,0,0,0,0,0,0,0,0,0,0,0,0,0,0,0,0,0,0,0,0,0,0,0,0,0,0,0,0,0,0,0,0,0,0,0,0,0,0,0,0,0,0,0,0,0,0,0,0,0,0,0,0,0,0,0,0,0,0,0,0,0,0,0,0,0,0,0,0,0,0,0,0,0,0,0,0,0,0,0,0,0,0,0,0,0,0,0,0,0,0,0,0,0,0,0,0,0,0,0,0,0,0,0,0,0,0,0,0,0,0,0,0,0,0,0,0,0,0,0,0,0,0,0,0,0,0,0,0,0,0,0,0,0,0,0,0,0,0,0,0,0,0,0,0,0,0,0,0,0,0,0,0,0,0,0,0,0,0,0,0,0,0,0,0,0,0,0,0,0,0
12.2487297058105,12.9548959732056,12.9799747467041,13.0051507949829,13.030424118042,0,0,0,0,0,0,0,0,0,0,0,0,0,0,0,0,0,0,0,0,0,0,0,0,0,0,0,0,0,0,0,0,0,0,0,0,0,0,0,0,0,0,0,0,0,0,0,0,0,0,0,0,0,0,0,0,0,0,0,0,0,0,0,0,0,0,0,0,0,0,0,0,0,0,0,0,0,0,0,0,0,0,0,0,0,0,0,0,0,0,0,0,0,0,0,0,0,0,0,0,0,0,0,0,0,0,0,0,0,0,0,0,0,0,0,0,0,0,0,0,0,0,0,0,0,0,0,0,0,0,0,0,0,0,0,0,0,0,0,0,0,0,0,0,0,0,0,0,0,0,0,0,0,0,0,0,0,0,0,0,0,0,0,0,0,0,0,0,0,0,0,0,0,0,0,0,0,0,0,0,0,0,0,0,0,0,0,0,0,0,0,0,0,0,0,0,0,0,0,0,0,0,0,0,0,0,0,0,0,0,0,0,0,0,0,0,0,0,0,0,0,0,0,0,0,0,0,0,0,0,0,0,0,0,0,0,0,0,0,0,0,0,0,0,0,0,0,0,0,0,0,0,0,0,0,0,0,0,0,0,0,0,0,0,0,0,0,0,0,0,0,0,0,0,0,0,0,0,0,0,0,0,0,0,0,0,0,0,0,0,0,0,0
10.8602161407471,11.7983207702637,12.9171628952026,13.074517250061,13.1494760513306,14.6017017364502,0,0,0,0,0,0,0,0,0,0,0,0,0,0,0,0,0,0,0,0,0,0,0,0,0,0,0,0,0,0,0,0,0,0,0,0,0,0,0,0,0,0,0,0,0,0,0,0,0,0,0,0,0,0,0,0,0,0,0,0,0,0,0,0,0,0,0,0,0,0,0,0,0,0,0,0,0,0,0,0,0,0,0,0,0,0,0,0,0,0,0,0,0,0,0,0,0,0,0,0,0,0,0,0,0,0,0,0,0,0,0,0,0,0,0,0,0,0,0,0,0,0,0,0,0,0,0,0,0,0,0,0,0,0,0,0,0,0,0,0,0,0,0,0,0,0,0,0,0,0,0,0,0,0,0,0,0,0,0,0,0,0,0,0,0,0,0,0,0,0,0,0,0,0,0,0,0,0,0,0,0,0,0,0,0,0,0,0,0,0,0,0,0,0,0,0,0,0,0,0,0,0,0,0,0,0,0,0,0,0,0,0,0,0,0,0,0,0,0,0,0,0,0,0,0,0,0,0,0,0,0,0,0,0,0,0,0,0,0,0,0,0,0,0,0,0,0,0,0,0,0,0,0,0,0,0,0,0,0,0,0,0,0,0,0,0,0,0,0,0,0,0,0,0,0,0,0,0,0,0,0,0,0,0,0,0,0,0,0,0,0,0
10.684268951416,10.7274761199951,11.3808555603027,12.4168643951416,13.6627626419067,14.0915260314941,14.4975366592407,17.6033325195312,17.6428108215332,17.682466506958,17.7223014831543,17.7623176574707,17.8023929595947,0,0,0,0,0,0,0,0,0,0,0,0,0,0,0,0,0,0,0,0,0,0,0,0,0,0,0,0,0,0,0,0,0,0,0,0,0,0,0,0,0,0,0,0,0,0,0,0,0,0,0,0,0,0,0,0,0,0,0,0,0,0,0,0,0,0,0,0,0,0,0,0,0,0,0,0,0,0,0,0,0,0,0,0,0,0,0,0,0,0,0,0,0,0,0,0,0,0,0,0,0,0,0,0,0,0,0,0,0,0,0,0,0,0,0,0,0,0,0,0,0,0,0,0,0,0,0,0,0,0,0,0,0,0,0,0,0,0,0,0,0,0,0,0,0,0,0,0,0,0,0,0,0,0,0,0,0,0,0,0,0,0,0,0,0,0,0,0,0,0,0,0,0,0,0,0,0,0,0,0,0,0,0,0,0,0,0,0,0,0,0,0,0,0,0,0,0,0,0,0,0,0,0,0,0,0,0,0,0,0,0,0,0,0,0,0,0,0,0,0,0,0,0,0,0,0,0,0,0,0,0,0,0,0,0,0,0,0,0,0,0,0,0,0,0,0,0,0,0,0,0,0,0,0,0,0,0,0,0,0,0,0,0,0,0,0,0,0,0,0,0,0,0,0,0,0,0,0,0,0,0,0,0,0,0
10.6183843612671,10.6610593795776,10.7040777206421,10.9919233322144,11.9539270401001,13.1042890548706,13.9944887161255,14.3948469161987,14.8187866210938,17.4640254974365,17.5028686523438,17.5418853759766,17.5810775756836,17.6204433441162,17.6599864959717,17.6997108459473,17.7396221160889,17.7797164916992,17.8199901580811,17.8604488372803,17.9010887145996,17.9417381286621,0,0,0,0,0,0,0,0,0,0,0,0,0,0,0,0,0,0,0,0,0,0,0,0,0,0,0,0,0,0,0,0,0,0,0,0,0,0,0,0,0,0,0,0,0,0,0,0,0,0,0,0,0,0,0,0,0,0,0,0,0,0,0,0,0,0,0,0,0,0,0,0,0,0,0,0,0,0,0,0,0,0,0,0,0,0,0,0,0,0,0,0,0,0,0,0,0,0,0,0,0,0,0,0,0,0,0,0,0,0,0,0,0,0,0,0,0,0,0,0,0,0,0,0,0,0,0,0,0,0,0,0,0,0,0,0,0,0,0,0,0,0,0,0,0,0,0,0,0,0,0,0,0,0,0,0,0,0,0,0,0,0,0,0,0,0,0,0,0,0,0,0,0,0,0,0,0,0,0,0,0,0,0,0,0,0,0,0,0,0,0,0,0,0,0,0,0,0,0,0,0,0,0,0,0,0,0,0,0,0,0,0,0,0,0,0,0,0,0,0,0,0,0,0,0,0,0,0,0,0,0,0,0,0,0,0,0,0,0,0,0,0,0,0,0,0,0,0,0,0,0,0,0,0,0,0,0,0,0,0,0,0,0,0,0,0,0,0,0,0,0,0,0,0,0,0
10.5533075332642,10.595458984375,10.6379489898682,10.6807813644409,10.7239599227905,11.5255765914917,12.5896787643433,13.8722896575928,14.2936019897461,14.7115125656128,17.2890777587891,17.327112197876,17.3653144836426,17.4036846160889,17.4422245025635,17.4809379577637,17.5198268890381,17.5589199066162,17.5981884002686,17.6376304626465,17.6772518157959,17.7170505523682,17.7570304870605,17.7971897125244,17.837532043457,17.8780555725098,17.9187660217285,17.9596691131592,18.0007648468018,18.0420475006104,0,0,0,0,0,0,0,0,0,0,0,0,0,0,0,0,0,0,0,0,0,0,0,0,0,0,0,0,0,0,0,0,0,0,0,0,0,0,0,0,0,0,0,0,0,0,0,0,0,0,0,0,0,0,0,0,0,0,0,0,0,0,0,0,0,0,0,0,0,0,0,0,0,0,0,0,0,0,0,0,0,0,0,0,0,0,0,0,0,0,0,0,0,0,0,0,0,0,0,0,0,0,0,0,0,0,0,0,0,0,0,0,0,0,0,0,0,0,0,0,0,0,0,0,0,0,0,0,0,0,0,0,0,0,0,0,0,0,0,0,0,0,0,0,0,0,0,0,0,0,0,0,0,0,0,0,0,0,0,0,0,0,0,0,0,0,0,0,0,0,0,0,0,0,0,0,0,0,0,0,0,0,0,0,0,0,0,0,0,0,0,0,0,0,0,0,0,0,0,0,0,0,0,0,0,0,0,0,0,0,0,0,0,0,0,0,0,0,0,0,0,0,0,0,0,0,0,0,0,0,0,0,0,0,0,0,0,0,0,0,0,0,0,0,0,0,0,0,0,0,0,0,0,0,0,0,0,0,0,0,0,0,0,0,0,0,0,0
10.4890232086182,10.5306615829468,10.5726327896118,10.6149396896362,10.6575860977173,10.7005767822266,11.1268634796143,12.113959312439,13.2969160079956,14.1937713623047,14.6057806015015,17.1174926757812,17.1548194885254,17.192310333252,17.2299652099609,17.2677707672119,17.3057117462158,17.3438186645508,17.3820953369141,17.420539855957,17.459156036377,17.4979419708252,17.536901473999,17.5760364532471,17.6153450012207,17.6548519134521,17.6945495605469,17.7344284057617,17.7744846343994,17.8147239685059,17.8551445007324,17.8957500457764,17.9365406036377,17.9775161743164,18.0186805725098,18.0600337982178,18.1015777587891,18.1433124542236,18.1852378845215,0,0,0,0,0,0,0,0,0,0,0,0,0,0,0,0,0,0,0,0,0,0,0,0,0,0,0,0,0,0,0,0,0,0,0,0,0,0,0,0,0,0,0,0,0,0,0,0,0,0,0,0,0,0,0,0,0,0,0,0,0,0,0,0,0,0,0,0,0,0,0,0,0,0,0,0,0,0,0,0,0,0,0,0,0,0,0,0,0,0,0,0,0,0,0,0,0,0,0,0,0,0,0,0,0,0,0,0,0,0,0,0,0,0,0,0,0,0,0,0,0,0,0,0,0,0,0,0,0,0,0,0,0,0,0,0,0,0,0,0,0,0,0,0,0,0,0,0,0,0,0,0,0,0,0,0,0,0,0,0,0,0,0,0,0,0,0,0,0,0,0,0,0,0,0,0,0,0,0,0,0,0,0,0,0,0,0,0,0,0,0,0,0,0,0,0,0,0,0,0,0,0,0,0,0,0,0,0,0,0,0,0,0,0,0,0,0,0,0,0,0,0,0,0,0,0,0,0,0,0,0,0,0,0,0,0,0,0,0,0,0,0,0,0,0,0,0,0,0,0,0,0,0,0,0,0,0,0,0
10.4255170822144,10.4666519165039,10.508113861084,10.5499048233032,10.5920295715332,10.6344919204712,10.6772956848145,10.7548141479492,11.6740264892578,12.7673711776733,14.088342666626,14.5015573501587,16.9493560791016,16.9859294891357,17.0226650238037,17.0595626831055,17.096622467041,17.1338424682617,17.1712093353271,17.2086563110352,17.2462863922119,17.2841777801514,17.3222370147705,17.3604640960693,17.3988609313965,17.437427520752,17.4761180877686,17.5149803161621,17.5540161132812,17.5932273864746,17.6326122283936,17.6721744537354,17.7119159698486,17.751838684082,17.7919731140137,17.8322925567627,17.8727931976318,17.9134788513184,17.9543495178223,17.9954090118408,18.0366554260254,18.0780906677246,18.1197166442871,18.1615352630615,18.2035484313965,0,0,0,0,0,0,0,0,0,0,0,0,0,0,0,0,0,0,0,0,0,0,0,0,0,0,0,0,0,0,0,0,0,0,0,0,0,0,0,0,0,0,0,0,0,0,0,0,0,0,0,0,0,0,0,0,0,0,0,0,0,0,0,0,0,0,0,0,0,0,0,0,0,0,0,0,0,0,0,0,0,0,0,0,0,0,0,0,0,0,0,0,0,0,0,0,0,0,0,0,0,0,0,0,0,0,0,0,0,0,0,0,0,0,0,0,0,0,0,0,0,0,0,0,0,0,0,0,0,0,0,0,0,0,0,0,0,0,0,0,0,0,0,0,0,0,0,0,0,0,0,0,0,0,0,0,0,0,0,0,0,0,0,0,0,0,0,0,0,0,0,0,0,0,0,0,0,0,0,0,0,0,0,0,0,0,0,0,0,0,0,0,0,0,0,0,0,0,0,0,0,0,0,0,0,0,0,0,0,0,0,0,0,0,0,0,0,0,0,0,0,0,0,0,0,0,0,0,0,0,0,0,0,0,0,0,0,0,0,0,0,0,0,0,0,0,0,0,0,0,0,0,0
10.3627758026123,10.4034156799316,10.4443769454956,10.4856615066528,10.5272731781006,10.5692176818848,10.611496925354,10.6541156768799,10.697078704834,11.2651586532593,12.2783889770508,13.4952907562256,14.398811340332,14.8229885101318,16.8202629089355,16.8562793731689,16.8924503326416,16.9287757873535,16.965259552002,17.0018997192383,17.0387001037598,17.075662612915,17.1127910614014,17.1500816345215,17.187536239624,17.2251529693604,17.2629375457764,17.3008155822754,17.3388290405273,17.3770332336426,17.4155025482178,17.4541435241699,17.4929542541504,17.5319404602051,17.5711002349854,17.6104335784912,17.6499137878418,17.6895542144775,17.7293739318848,17.7693729400635,17.8095512390137,17.8499126434326,17.8904762268066,17.9312419891357,17.9721946716309,18.013334274292,18.0546646118164,18.0961818695068,18.1378936767578,18.1797962188721,18.2218933105469,0,0,0,0,0,0,0,0,0,0,0,0,0,0,0,0,0,0,0,0,0,0,0,0,0,0,0,0,0,0,0,0,0,0,0,0,0,0,0,0,0,0,0,0,0,0,0,0,0,0,0,0,0,0,0,0,0,0,0,0,0,0,0,0,0,0,0,0,0,0,0,0,0,0,0,0,0,0,0,0,0,0,0,0,0,0,0,0,0,0,0,0,0,0,0,0,0,0,0,0,0,0,0,0,0,0,0,0,0,0,0,0,0,0,0,0,0,0,0,0,0,0,0,0,0,0,0,0,0,0,0,0,0,0,0,0,0,0,0,0,0,0,0,0,0,0,0,0,0,0,0,0,0,0,0,0,0,0,0,0,0,0,0,0,0,0,0,0,0,0,0,0,0,0,0,0,19.9998798370361,19.9993629455566,19.9988441467285,19.9983291625977,19.9978103637695,19.99729347229,19.9967765808105,19.9962577819824,19.9957408905029,19.9952239990234,19.9947032928467,19.9941864013672,19.9936714172363,19.9931526184082,19.9926357269287,19.9921207427979,19.9916000366211,19.9910831451416,19.9905700683594,19.9900512695312,19.9895343780518,19.9890174865723,19.9884986877441,19.9879837036133,19.9874649047852,19.9869480133057,19.9864330291748,19.9859142303467,19.9853973388672,19.9848804473877,19.9843654632568,19.9838485717773,19.9833316802979,19.9828147888184,19.9822978973389,19.9817810058594,19.9812622070312,19.980749130249,19.9802303314209,19.97971534729,19.9791984558105,19.9786815643311,19.9781646728516,19.9776496887207,19.9771327972412,19.9766159057617,19.9760971069336,19.9755821228027,19.9750671386719,19.9745502471924,19.9740333557129,19.9735164642334,19.9730014801025,19.972484588623,19.9719696044922,0,0,0,0,0,0,0,0,0,0,0,0,0,0,0,0
10.3007841110229,10.3409395217896,10.3814086914062,10.4221963882446,10.4633054733276,10.5047397613525,10.5465040206909,10.5886011123657,10.6310358047485,10.6738128662109,10.8839616775513,11.8263502120972,12.9501514434814,14.297511100769,14.7156534194946,16.6577415466309,16.6930828094482,16.728572845459,16.7642154693604,16.7999954223633,16.8359241485596,16.8720073699951,16.9082469940186,16.9446411132812,16.9811935424805,17.0179023742676,17.0547714233398,17.0918006896973,17.1289901733398,17.1663513183594,17.2038764953613,17.2415657043457,17.2794208526611,17.3174438476562,17.3556327819824,17.3939666748047,17.4323921203613,17.4709892272949,17.5097770690918,17.5488376617432,17.5880718231201,17.6274833679199,17.6670703887939,17.7068367004395,17.7467823028564,17.7869091033936,17.8272018432617,17.8676433563232,17.9082698822021,17.9490795135498,17.9900760650635,18.0312976837158,18.0727081298828,18.1143112182617,18.1561050415039,18.198091506958,18.2402744293213,19.8789768218994,19.8784656524658,19.8779544830322,19.8774433135986,19.876932144165,19.8764209747314,19.8759098052979,19.8753986358643,19.8748874664307,19.8743762969971,19.8738651275635,19.8733520507812,19.8728408813477,19.8723316192627,19.8718204498291,19.8713073730469,19.8707981109619,19.8702869415283,19.8697757720947,19.8692646026611,19.8687553405762,19.8682422637939,19.8677349090576,19.8672218322754,19.8667106628418,19.8662014007568,19.8656883239746,19.8651809692383,19.8646697998047,19.8641586303711,19.8636474609375,19.8631362915039,19.8626251220703,19.8621158599854,19.8616065979004,19.8610954284668,19.8605842590332,19.8600749969482,19.8595638275146,19.8590526580811,19.8585414886475,19.8580322265625,19.8575248718262,19.8570137023926,19.856502532959,19.8559913635254,19.8554821014404,19.8549728393555,19.8544616699219,19.8539485931396,19.8534412384033,19.8529319763184,19.8524227142334,19.8519115447998,19.8514022827148,19.8508930206299,19.8503818511963,19.8498725891113,19.8493633270264,19.8488521575928,19.8483409881592,19.8478336334229,19.8473224639893,19.8468112945557,19.8463039398193,19.8457946777344,19.8452835083008,19.8447742462158,19.8442649841309,19.8437557220459,19.8432483673096,19.842737197876,19.8422260284424,19.8417167663574,19.8412075042725,19.8406982421875,19.8401889801025,19.8396797180176,19.8391723632812,19.8386611938477,19.8381519317627,19.8376445770264,19.8371334075928,19.8366241455078,19.8361148834229,19.8356056213379,19.8350982666016,19.834587097168,19.8340797424316,19.8335704803467,19.8330612182617,19.8325519561768,19.8320446014404,19.8315353393555,19.8310241699219,19.8305187225342,19.8300075531006,19.8294982910156,19.8289890289307,19.8284797668457,19.827974319458,19.8274631500244,19.8269557952881,19.8264465332031,19.8259372711182,19.8254299163818,19.8249206542969,19.8244113922119,19.8239040374756,19.8233947753906,19.8228855133057,19.8223762512207,19.821870803833,19.821361541748,19.8208522796631,19.8203449249268,19.8198356628418,19.8193264007568,19.8188209533691,19.8183116912842,19.8178043365479,19.8172950744629,19.8167858123779,19.8162784576416,19.8157691955566,19.8152618408203,19.814754486084,19.814245223999,19.8137378692627,19.8132305145264,19.8127212524414,19.8122158050537,19.8117084503174,19.8111972808838,19.8106918334961,19.8101825714111,19.8096752166748,19.8091659545898,19.8086585998535,19.8081512451172,19.8076457977295,19.8071365356445,19.8066291809082,19.8061218261719,19.8056125640869,19.805103302002,19.8045978546143,19.8040904998779,19.8035831451416,19.8030757904053,19.8025684356689,19.8020629882812,19.8015556335449,19.8010482788086,19.8005409240723,19.8000335693359,19.7995262145996,19.7990169525146,19.798511505127,19.798002243042,19.7974967956543,19.7969875335693,19.7964820861816,19.7959728240967,19.7954654693604,19.7949600219727,19.7944526672363,19.7939453125,19.7934398651123,19.7929306030273,19.7924251556396,19.7919178009033,19.791410446167,19.7909049987793,19.790397644043,19.7898902893066,19.7893848419189,19.7888774871826,19.7883720397949,19.7878665924072,19.7873573303223,19.7868480682373,19.7863445281982,19.7858371734619,19.7853298187256,19.7848243713379,19.7843170166016,19.7838115692139,19.7833061218262,19.7827987670898,19.7822914123535,19.7817859649658,19.7812786102295,19.7807750701904,19.7802658081055,19.7797603607178,19.7792549133301,19.7787475585938,19.7782402038574,19.7777366638184,19.7772312164307,19.7767219543457,19.7762184143066,19.7757110595703,19.7752056121826,19.7747001647949,19.7741928100586,19.7736854553223,19.7731819152832,19.7726745605469,19.7721710205078,19.7716636657715,19.7711563110352,19.7706527709961,19.7701454162598,19.7696399688721,19.7691345214844,19.7686290740967,19.768123626709,19.7676181793213,19.767110824585,19.7666053771973,19.7660999298096,19.7655944824219,19.7650909423828,19.7645835876465,19.7640781402588,19.7635726928711,0,0,0,0,0,0,0,0,0,0,0,0,0
10.2395305633545,10.2792081832886,10.3191947937012,10.3594942092896,10.4001092910767,10.4410438537598,10.4823017120361,10.5238876342773,10.5658044815063,10.6080560684204,10.6506481170654,10.69358253479,11.4069347381592,12.4473438262939,13.6996746063232,14.6098623275757,16.5050582885742,16.5329113006592,16.5677242279053,16.6026821136475,16.6377906799316,16.6730461120605,16.7084522247314,16.7440071105957,16.7797145843506,16.8155765533447,16.8515911102295,16.8877582550049,16.924072265625,16.9605350494385,16.9971561431885,17.033935546875,17.070873260498,17.1079730987549,17.1452331542969,17.1826553344727,17.2202491760254,17.2580108642578,17.2959384918213,17.3340320587158,17.3722953796387,17.4107265472412,17.4493293762207,17.4881019592285,17.5269718170166,17.5659866333008,17.6051769256592,17.6445655822754,17.6842308044434,17.7240734100342,17.7640972137451,17.8043022155762,17.8446884155273,17.8852596282959,17.9260139465332,17.9669570922852,18.0080852508545,18.0493545532227,18.0908126831055,18.132474899292,18.174352645874,18.2164249420166,18.2586917877197,19.6710052490234,19.670503616333,19.6700019836426,19.6695003509521,19.6690006256104,19.6685009002686,19.6680011749268,19.667501449585,19.6669998168945,19.6664981842041,19.6659984588623,19.6654987335205,19.6649971008301,19.6644973754883,19.6639976501465,19.6634960174561,19.6629962921143,19.6624946594238,19.661994934082,19.6614952087402,19.6609954833984,19.660493850708,19.6599941253662,19.6594944000244,19.6589946746826,19.6584949493408,19.6579933166504,19.6574954986572,19.6569938659668,19.656494140625,19.6559944152832,19.6554946899414,19.654993057251,19.6544952392578,19.653995513916,19.6534957885742,19.6529941558838,19.652494430542,19.6519947052002,19.6514949798584,19.6509952545166,19.6504955291748,19.6499977111816,19.6494960784912,19.648998260498,19.6484985351562,19.6479988098145,19.6474990844727,19.6469993591309,19.6464996337891,19.6459980010986,19.6455020904541,19.6450023651123,19.6445026397705,19.6440010070801,19.6435050964355,19.6430034637451,19.642505645752,19.6420078277588,19.6415061950684,19.6410064697266,19.640510559082,19.6400089263916,19.6395092010498,19.6390113830566,19.6385097503662,19.6380138397217,19.6375141143799,19.6370143890381,19.6365146636963,19.6360187530518,19.6355171203613,19.6350212097168,19.6345195770264,19.6340198516846,19.63352394104,19.6330242156982,19.6325244903564,19.6320247650146,19.6315269470215,19.6310272216797,19.6305294036865,19.6300296783447,19.6295337677002,19.6290340423584,19.6285362243652,19.6280364990234,19.6275386810303,19.6270389556885,19.6265411376953,19.6260433197021,19.6255435943604,19.6250476837158,19.6245460510254,19.6240501403809,19.6235504150391,19.6230545043945,19.6225528717041,19.6220569610596,19.6215572357178,19.6210594177246,19.6205615997314,19.6200618743896,19.6195659637451,19.619068145752,19.6185703277588,19.6180725097656,19.6175746917725,19.6170749664307,19.6165771484375,19.6160793304443,19.6155796051025,19.615083694458,19.6145839691162,19.6140899658203,19.6135902404785,19.6130924224854,19.6125946044922,19.612096786499,19.6115989685059,19.6111030578613,19.6106033325195,19.6101055145264,19.6096096038818,19.6091117858887,19.6086120605469,19.6081161499023,19.6076183319092,19.607120513916,19.6066246032715,19.6061248779297,19.6056308746338,19.605131149292,19.6046352386475,19.6041374206543,19.6036376953125,19.6031436920166,19.6026439666748,19.6021461486816,19.6016483306885,19.6011543273926,19.6006546020508,19.6001605987549,19.5996627807617,19.5991649627686,19.598669052124,19.5981712341309,19.5976734161377,19.5971755981445,19.5966796875,19.5961818695068,19.5956878662109,19.5951900482178,19.5946922302246,19.5941963195801,19.5936985015869,19.5932006835938,19.5927047729492,19.5922069549561,19.5917110443115,19.591215133667,19.5907192230225,19.5902233123779,19.5897254943848,19.5892295837402,19.5887317657471,19.5882358551025,19.587739944458,19.5872440338135,19.5867462158203,19.5862503051758,19.5857543945312,19.5852565765381,19.5847606658936,19.584264755249,19.5837688446045,19.5832710266113,19.5827751159668,19.5822792053223,19.5817852020264,19.5812873840332,19.5807914733887,19.5802955627441,19.579797744751,19.5793037414551,19.5788059234619,19.5783100128174,19.5778121948242,19.5773181915283,19.5768222808838,19.5763263702393,19.5758304595947,19.5753364562988,19.5748386383057,19.5743427276611,19.5738468170166,19.5733509063721,19.5728569030762,19.572359085083,19.5718669891357,19.5713691711426,19.570873260498,19.5703773498535,19.5698833465576,19.5693874359131,19.5688915252686,19.5683937072754,19.5678997039795,19.5674057006836,19.5669078826904,19.5664138793945,19.56591796875,19.5654239654541,19.5649280548096,19.564432144165,19.5639362335205,19.5634422302246,19.5629463195801,19.5624523162842,19.5619564056396,19.5614585876465,19.5609664916992,19.5604705810547,19.5599765777588,19.5594806671143,19.8579483032227,19.8574466705322,19.8569431304932,19.8564376831055,19.8559341430664,19.8554306030273,19.8549270629883,19.8544216156006,19.8539180755615,19.8534145355225
10.1790008544922,10.2182102203369,10.2577228546143,10.2975425720215,10.3376722335815,10.3781156539917,10.4188766479492,10.4599599838257,10.501368522644,10.5431051254272,10.5851755142212,10.6275835037231,10.6703319549561,11.0162487030029,11.9827013015747,13.1382417678833,14.5055809020996,14.9361667633057,16.4281978607178,16.528341293335,16.5348358154297,16.5413360595703,16.5478401184082,16.554349899292,16.5828628540039,16.6178855895996,16.6530570983887,16.6883773803711,16.7238483428955,16.7594718933105,16.7952442169189,16.8311710357666,16.8672523498535,16.9034881591797,16.9398803710938,16.9764308929443,17.0131378173828,17.0499973297119,17.0870056152344,17.124174118042,17.161506652832,17.1989994049072,17.2366580963135,17.274486541748,17.3124866485596,17.3506526947021,17.388988494873,17.4274959564209,17.4661712646484,17.5050201416016,17.5440425872803,17.5832386016846,17.6225814819336,17.6620254516602,17.7016448974609,17.7414436340332,17.7814445495605,17.8217277526855,17.8621940612793,17.9028453826904,17.9436798095703,17.9847030639648,18.0259132385254,18.0673122406006,18.1089038848877,18.1506862640381,18.1926612854004,18.2348003387451,18.2771472930908,19.4673385620117,19.4668464660645,19.4663581848145,19.4658660888672,19.4653778076172,19.4648876190186,19.4643974304199,19.4639053344727,19.463415145874,19.4629249572754,19.4624347686768,19.4619464874268,19.4614543914795,19.4609661102295,19.4604740142822,19.4599857330322,19.4594955444336,19.4590072631836,19.4585132598877,19.4580249786377,19.4575347900391,19.4570446014404,19.4565563201904,19.4560642242432,19.4555759429932,19.4550857543945,19.4545974731445,19.4541072845459,19.4536190032959,19.453125,19.45263671875,19.4521484375,19.4516582489014,19.4511680603027,19.4506778717041,19.4501914978027,19.4496994018555,19.4492111206055,19.4487209320068,19.4482307434082,19.4477405548096,19.4472522735596,19.4467639923096,19.4462757110596,19.4457855224609,19.4452934265137,19.4448070526123,19.4443168640137,19.4438285827637,19.4433364868164,19.442850112915,19.4423599243164,19.441873550415,19.4413814544678,19.4408931732178,19.4404048919678,19.4399166107178,19.4394264221191,19.4389362335205,19.4384479522705,19.4379577636719,19.4374694824219,19.4369792938232,19.4364910125732,19.4360027313232,19.4355144500732,19.4350261688232,19.4345378875732,19.4340476989746,19.4335594177246,19.4330711364746,19.432580947876,19.4320945739746,19.431604385376,19.431116104126,19.4306297302246,19.430139541626,19.4296493530273,19.429162979126,19.428674697876,19.428186416626,19.427698135376,19.4272060394287,19.4267196655273,19.4262313842773,19.425745010376,19.4252529144287,19.4247665405273,19.4242782592773,19.423791885376,19.4233016967773,19.422815322876,19.422327041626,19.421838760376,19.4213485717773,19.420862197876,19.420373916626,19.419885635376,19.419397354126,19.418909072876,19.4184226989746,19.4179344177246,19.4174461364746,19.4169578552246,19.4164714813232,19.4159812927246,19.4154949188232,19.4150066375732,19.4145183563232,19.4140319824219,19.4135437011719,19.4130554199219,19.4125690460205,19.4120807647705,19.4115924835205,19.4111061096191,19.4106178283691,19.4101314544678,19.4096431732178,19.4091548919678,19.4086685180664,19.4081802368164,19.4076919555664,19.407205581665,19.4067192077637,19.4062309265137,19.4057445526123,19.4052562713623,19.4047698974609,19.4042816162109,19.4037914276123,19.4033069610596,19.4028186798096,19.4023323059082,19.4018459320068,19.4013595581055,19.4008712768555,19.4003868103027,19.3998966217041,19.3994121551514,19.3989219665527,19.3984375,19.3979511260986,19.3974609375,19.3969764709473,19.3964881896973,19.3960018157959,19.3955154418945,19.3950309753418,19.3945407867432,19.3940563201904,19.3935680389404,19.3930816650391,19.3925952911377,19.3921070098877,19.3916206359863,19.3911361694336,19.3906497955322,19.3901615142822,19.3896770477295,19.3891906738281,19.3887042999268,19.3882160186768,19.387731552124,19.3872451782227,19.3867588043213,19.3862724304199,19.3857841491699,19.3852977752686,19.3848133087158,19.3843250274658,19.3838405609131,19.3833522796631,19.3828678131104,19.382381439209,19.3818950653076,19.3814105987549,19.3809242248535,19.3804378509521,19.3799514770508,19.3794631958008,19.378978729248,19.3784923553467,19.3780078887939,19.3775215148926,19.3770370483398,19.3765506744385,19.3760662078857,19.3755779266357,19.375093460083,19.3746070861816,19.3741188049316,19.3736362457275,19.3731498718262,19.3726634979248,19.3721752166748,19.3716926574707,19.3712062835693,19.370719909668,19.3702354431152,19.3697490692139,19.3692646026611,19.3687801361084,19.368293762207,19.3678073883057,19.3673229217529,19.3668365478516,19.3663539886475,19.3658657073975,19.3653831481934,19.3648986816406,19.3644123077393,19.3639259338379,19.3634414672852,19.3629550933838,19.3624687194824,19.3619861602783,19.361499786377,19.3610172271729,19.3605308532715,19.3600463867188,19.3595600128174,19.6549816131592,19.6544914245605,19.6539974212646,19.6535015106201,19.6530113220215,19.6525135040283,19.6520214080811
10.1191825866699,10.1579322814941,10.1969785690308,10.2363271713257,10.2759799957275,10.3159418106079,10.3562154769897,10.3968048095703,10.4377126693726,10.4789447784424,10.5205039978027,10.5623931884766,10.6046180725098,10.6471815109253,10.6900882720947,11.5523242950439,12.6210136413574,13.9103441238403,14.8271923065186,16.1053600311279,16.2294044494629,16.355375289917,16.4833164215088,16.5582046508789,16.5647220611572,16.5712451934814,16.5777740478516,16.5843067169189,16.5954189300537,16.6080341339111,16.6206684112549,16.633321762085,16.6683578491211,16.7037410736084,16.7392749786377,16.7749633789062,16.8108024597168,16.8467960357666,16.8829441070557,16.9192485809326,16.9557075500488,16.9923267364502,17.0291023254395,17.0660381317139,17.1031341552734,17.1403903961182,17.1778106689453,17.2153759002686,17.2531051635742,17.2910022735596,17.329065322876,17.3673057556152,17.4057159423828,17.4442958831787,17.4830474853516,17.5219707489014,17.5610694885254,17.600341796875,17.6397895812988,17.6794166564941,17.7192192077637,17.7591171264648,17.7991752624512,17.8394145965576,17.8798351287842,17.9204654693604,17.9613819122314,18.0024852752686,18.0437774658203,18.0852584838867,18.126932144165,18.1687965393066,18.2108573913574,18.2531108856201,19.2683277130127,19.2678470611572,19.2673664093018,19.2668838500977,19.2664070129395,19.2659244537354,19.2654438018799,19.2649631500244,19.2644844055176,19.2640037536621,19.2635250091553,19.2630443572998,19.2625637054443,19.2620830535889,19.2616024017334,19.2611236572266,19.2606410980225,19.2601623535156,19.2596817016602,19.259204864502,19.2587242126465,19.2582416534424,19.2577648162842,19.2572841644287,19.2568035125732,19.2563247680664,19.2558441162109,19.2553653717041,19.2548866271973,19.2544040679932,19.2539234161377,19.2534446716309,19.2529640197754,19.2524871826172,19.2520065307617,19.2515277862549,19.2510471343994,19.2505683898926,19.2500877380371,19.2496089935303,19.2491302490234,19.2486476898193,19.2481708526611,19.2476902008057,19.2472114562988,19.246732711792,19.2462539672852,19.2457714080811,19.2452964782715,19.244815826416,19.2443370819092,19.2438545227051,19.2433757781982,19.24289894104,19.2424182891846,19.2419395446777,19.2414608001709,19.2409820556641,19.2405014038086,19.2400245666504,19.2395439147949,19.2390670776367,19.2385864257812,19.2381076812744,19.2376289367676,19.2371520996094,19.2366695404053,19.2361927032471,19.2357139587402,19.2352333068848,19.2347583770752,19.2342777252197,19.2337989807129,19.2333202362061,19.2328433990479,19.2323608398438,19.2318859100342,19.2314052581787,19.2309246063232,19.230447769165,19.2299690246582,19.2294921875,19.2290115356445,19.2285327911377,19.2280559539795,19.2275772094727,19.2270984649658,19.2266216278076,19.2261428833008,19.2256641387939,19.2251853942871,19.2247066497803,19.2242298126221,19.2237510681152,19.2232723236084,19.2227935791016,19.2223148345947,19.2218379974365,19.2213611602783,19.2208805084229,19.2204055786133,19.2199268341064,19.2194480895996,19.2189693450928,19.2184925079346,19.2180137634277,19.2175350189209,19.2170600891113,19.2165794372559,19.2161026000977,19.2156257629395,19.2151470184326,19.2146701812744,19.2141914367676,19.2137126922607,19.2132358551025,19.2127590179443,19.2122802734375,19.2118034362793,19.2113246917725,19.2108497619629,19.2103710174561,19.2098941802979,19.209415435791,19.2089405059814,19.208459854126,19.2079811096191,19.2075061798096,19.2070274353027,19.2065505981445,19.2060718536377,19.2055969238281,19.2051181793213,19.2046432495117,19.2041645050049,19.2036876678467,19.2032089233398,19.2027320861816,19.2022571563721,19.2017784118652,19.201301574707,19.2008228302002,19.200345993042,19.1998710632324,19.1993942260742,19.1989135742188,19.1984424591064,19.197961807251,19.1974849700928,19.1970081329346,19.196533203125,19.1960544586182,19.19557762146,19.1951007843018,19.1946220397949,19.194149017334,19.1936702728271,19.1931953430176,19.1927165985107,19.1922397613525,19.191764831543,19.1912879943848,19.1908111572266,19.1903343200684,19.1898593902588,19.1893787384033,19.1889057159424,19.1884288787842,19.187952041626,19.1874771118164,19.1869983673096,19.1865253448486,19.1860485076904,19.1855697631836,19.1850967407227,19.1846179962158,19.1841430664062,19.1836681365967,19.1831874847412,19.1827125549316,19.1822376251221,19.1817607879639,19.1812839508057,19.1808090209961,19.1803321838379,19.1798572540283,19.1793804168701,19.1789016723633,19.1784286499023,19.1779537200928,19.1774768829346,19.1770000457764,19.1765251159668,19.1760482788086,19.175573348999,19.1750965118408,19.1746215820312,19.1741485595703,19.1736717224121,19.1731948852539,19.1727180480957,19.1722450256348,19.1717681884766,19.171293258667,19.1708164215088,19.1703414916992,19.169864654541,19.1693916320801,19.1689167022705,19.1684417724609,19.1679630279541,19.1674880981445,19.1670112609863,19.1665363311768,19.1660633087158,19.1655864715576,19.1651134490967,19.1646347045898,19.1641597747803,19.1636867523193,19.4561233520508,19.4556427001953,19.4551582336426,19.4546737670898
10.0796957015991,10.1039447784424,10.1369495391846,10.175835609436,10.2150201797485,10.2545080184937,10.2943029403687,10.3344068527222,10.3748245239258,10.4155607223511,10.4566173553467,10.4979982376099,10.5397090911865,10.5817518234253,10.6241321563721,10.6668529510498,11.1517906188965,12.1432418823242,13.3318758010864,14.7197971343994,15.7949638366699,15.9142560958862,16.035364151001,16.1583290100098,16.2831935882568,16.4100036621094,16.5388050079346,16.5881748199463,16.5991344451904,16.6117572784424,16.624397277832,16.637056350708,16.6497344970703,16.6624336242676,16.6751518249512,16.6878871917725,16.7006454467773,16.7134208679199,16.7262153625488,16.7390308380127,16.7547569274902,16.7905082702637,16.8264122009277,16.8624687194824,16.898681640625,16.9350490570068,16.9715747833252,17.0082569122314,17.0450992584229,17.0821018218994,17.1192684173584,17.1565952301025,17.1940879821777,17.2317428588867,17.2695636749268,17.3075504302979,17.3456897735596,17.3839931488037,17.4224739074707,17.4611282348633,17.4999561309814,17.5389537811279,17.5781288146973,17.6174774169922,17.65700340271,17.6967067718506,17.7365875244141,17.7766513824463,17.81689453125,17.8572845458984,17.8977870941162,17.9384727478027,17.9793453216553,18.0204029083252,18.0616760253906,18.1032390594482,18.1449966430664,18.1869449615479,18.2290878295898,19.0733432769775,19.0728721618652,19.0724010467529,19.0719318389893,19.071460723877,19.0709896087646,19.0705184936523,19.0700492858887,19.0695781707764,19.0691070556641,19.0686378479004,19.0681667327881,19.0676956176758,19.0672264099121,19.0667552947998,19.0662841796875,19.0658149719238,19.0653457641602,19.0648727416992,19.0644016265869,19.0639343261719,19.0634632110596,19.0629920959473,19.0625228881836,19.0620517730713,19.061580657959,19.0611114501953,19.0606422424316,19.0601711273193,19.0597019195557,19.0592308044434,19.0587596893311,19.0582904815674,19.0578212738037,19.05735206604,19.0568828582764,19.0564098358154,19.0559425354004,19.0554714202881,19.0550003051758,19.0545310974121,19.0540618896484,19.0535907745361,19.0531234741211,19.0526523590088,19.0521831512451,19.0517139434814,19.0512447357178,19.0507774353027,19.0503063201904,19.0498352050781,19.0493659973145,19.0488948822021,19.0484256744385,19.0479583740234,19.0474891662598,19.0470161437988,19.0465507507324,19.0460777282715,19.0456104278564,19.0451393127441,19.0446720123291,19.0442028045654,19.0437297821045,19.0432643890381,19.0427951812744,19.0423240661621,19.0418548583984,19.0413875579834,19.0409164428711,19.0404491424561,19.0399780273438,19.0395107269287,19.039041519165,19.0385704040527,19.0381031036377,19.0376319885254,19.037166595459,19.036693572998,19.0362281799316,19.0357570648193,19.0352897644043,19.0348205566406,19.0343532562256,19.0338821411133,19.0334148406982,19.0329456329346,19.0324726104736,19.0320091247559,19.0315380096436,19.0310707092285,19.0306015014648,19.0301322937012,19.0296630859375,19.0291957855225,19.0287265777588,19.0282592773438,19.0277900695801,19.027322769165,19.0268535614014,19.0263824462891,19.025915145874,19.025447845459,19.0249805450439,19.0245094299316,19.0240440368652,19.0235748291016,19.0231056213379,19.0226383209229,19.0221691131592,19.0217018127441,19.0212306976318,19.0207633972168,19.0202960968018,19.0198287963867,19.019359588623,19.0188941955566,19.0184230804443,19.0179557800293,19.0174884796143,19.0170211791992,19.0165519714355,19.0160865783691,19.0156173706055,19.0151462554932,19.0146808624268,19.0142116546631,19.0137462615967,19.0132751464844,19.012809753418,19.0123424530029,19.0118751525879,19.0114059448242,19.0109405517578,19.0104732513428,19.0100021362305,19.0095348358154,19.0090675354004,19.008602142334,19.0081310272217,19.0076656341553,19.0071983337402,19.0067329406738,19.0062637329102,19.0057964324951,19.0053291320801,19.004861831665,19.00439453125,19.0039253234863,19.0034580230713,19.0029907226562,19.0025253295898,19.0020580291748,19.0015907287598,19.0011215209961,19.0006561279297,19.0001888275146,18.9997215270996,18.9992542266846,18.9987850189209,18.9983196258545,18.9978523254395,18.9973850250244,18.9969177246094,18.9964542388916,18.9959850311279,18.9955177307129,18.9950504302979,18.9945850372314,18.9941177368164,18.9936504364014,18.9931831359863,18.9927158355713,18.9922523498535,18.9917831420898,18.9913177490234,18.9908504486084,18.9903831481934,18.9899158477783,18.9894504547119,18.9889831542969,18.9885177612305,18.9880485534668,18.987585067749,18.987117767334,18.9866485595703,18.9861850738525,18.9857158660889,18.9852523803711,18.9847850799561,18.9843196868896,18.983850479126,18.9833869934082,18.9829196929932,18.9824542999268,18.9819869995117,18.9815196990967,18.9810543060303,18.9805889129639,18.9801216125488,18.9796562194824,18.979190826416,18.978723526001,18.9782581329346,18.9777927398682,18.9773254394531,18.9768619537354,18.9763946533203,18.9759273529053,18.9754619598389,18.9749965667725,18.9745292663574,18.974063873291,18.9735984802246,18.9731349945068,18.9726657867432,18.9722023010254,18.971736907959,19.2612495422363
10.0549974441528,10.0791273117065,10.1033735275269,10.1277360916138,10.1547794342041,10.1938018798828,10.2331256866455,10.2727537155151,10.312689781189,10.3529386520386,10.3935012817383,10.4343843460083,10.4755897521973,10.5171222686768,10.5589847564697,10.6011819839478,10.6437177658081,10.7781000137329,11.7014684677124,12.7995986938477,14.1275939941406,15.4963073730469,15.6111145019531,15.7276344299316,15.845908164978,15.9659729003906,16.0878715515137,16.2116470336914,16.3373413085938,16.4649982452393,16.5946674346924,16.6407928466797,16.6534767150879,16.6661796569824,16.6789035797119,16.6916465759277,16.7044086456299,16.7171897888184,16.7299919128418,16.7428131103516,16.7556533813477,16.7685146331787,16.7813949584961,16.7942943572998,16.8072128295898,16.8201541900635,16.8331127166748,16.8460922241211,16.8590927124023,16.8781814575195,16.9144611358643,16.9508972167969,16.9874897003174,17.024242401123,17.0611534118652,17.0982246398926,17.1354579925537,17.1728534698486,17.210412979126,17.2481365203857,17.2860260009766,17.3240814208984,17.3623065948486,17.4006996154785,17.4392642974854,17.4779949188232,17.5168952941895,17.5559711456299,17.5952205657959,17.6346473693848,17.6742496490479,17.7140293121338,17.7539901733398,17.794132232666,17.8344554901123,17.8749618530273,17.9156513214111,17.9565277099609,17.9974975585938,18.0386390686035,18.0799674987793,18.121488571167,18.1631984710693,18.2051296234131,18.2473583221436,18.8818054199219,18.8813438415527,18.8808822631836,18.8804206848145,18.8799591064453,18.8794975280762,18.8790378570557,18.8785743713379,18.8781147003174,18.8776531219482,18.8771915435791,18.87672996521,18.8762683868408,18.8758087158203,18.8753490447998,18.8748874664307,18.8744258880615,18.873966217041,18.8735027313232,18.8730449676514,18.8725833892822,18.8721199035645,18.8716621398926,18.8712005615234,18.8707389831543,18.8702774047852,18.8698177337646,18.8693561553955,18.868896484375,18.8684349060059,18.8679752349854,18.8675155639648,18.8670539855957,18.8665924072266,18.8661327362061,18.8656730651855,18.8652095794678,18.8647518157959,18.8642902374268,18.8638286590576,18.8633689880371,18.8629093170166,18.8624496459961,18.861988067627,18.8615264892578,18.8610687255859,18.8606071472168,18.8601455688477,18.8596858978271,18.8592262268066,18.8587665557861,18.858304977417,18.8578453063965,18.857385635376,18.8569259643555,18.8564643859863,18.8560066223145,18.8555450439453,18.8550834655762,18.8546237945557,18.8541660308838,18.8537044525146,18.8532447814941,18.8527851104736,18.8523235321045,18.8518676757812,18.8514060974121,18.850944519043,18.8504867553711,18.8500270843506,18.8495674133301,18.8491058349609,18.8486461639404,18.8481864929199,18.8477268218994,18.8472671508789,18.8468074798584,18.8463478088379,18.845890045166,18.8454284667969,18.844970703125,18.8445091247559,18.844051361084,18.8435897827148,18.8431301116943,18.8426723480225,18.842212677002,18.8417530059814,18.8412952423096,18.8408355712891,18.8403759002686,18.839916229248,18.8394565582275,18.8389987945557,18.8385391235352,18.838077545166,18.8376197814941,18.8371601104736,18.8367004394531,18.8362445831299,18.8357830047607,18.8353252410889,18.834867477417,18.8344058990479,18.8339462280273,18.8334884643555,18.833028793335,18.8325710296631,18.8321094512939,18.8316535949707,18.8311939239502,18.8307342529297,18.8302745819092,18.8298168182373,18.8293571472168,18.8289012908936,18.828441619873,18.8279819488525,18.8275241851807,18.8270626068115,18.8266067504883,18.8261470794678,18.8256912231445,18.8252296447754,18.8247737884521,18.824312210083,18.8238544464111,18.8233966827393,18.8229389190674,18.8224773406982,18.822021484375,18.8215618133545,18.821102142334,18.8206462860107,18.8201866149902,18.8197288513184,18.8192710876465,18.8188133239746,18.8183555603027,18.8178977966309,18.8174381256104,18.8169803619385,18.816520690918,18.8160610198975,18.8156051635742,18.8151454925537,18.8146896362305,18.81422996521,18.8137722015381,18.8133144378662,18.812858581543,18.8124008178711,18.8119430541992,18.8114833831787,18.8110256195068,18.810567855835,18.8101081848145,18.8096523284912,18.8091926574707,18.8087348937988,18.808277130127,18.8078212738037,18.8073616027832,18.80690574646,18.8064460754395,18.8059902191162,18.8055324554443,18.8050727844238,18.8046169281006,18.8041591644287,18.8037033081055,18.8032417297363,18.8027877807617,18.8023281097412,18.801872253418,18.8014144897461,18.8009586334229,18.8004989624023,18.8000431060791,18.7995853424072,18.7991256713867,18.7986717224121,18.7982120513916,18.7977561950684,18.7972984313965,18.7968406677246,18.7963848114014,18.7959289550781,18.7954692840576,18.7950134277344,18.7945556640625,18.794095993042,18.7936420440674,18.7931842803955,18.7927284240723,18.7922706604004,18.7918128967285,18.7913570404053,18.790901184082,18.7904434204102,18.7899875640869,18.7895278930664,18.7890739440918,18.7886161804199,18.7881565093994,18.7877006530762,18.7872447967529,18.7867889404297,18.7863311767578,18.7858753204346,18.7854175567627,18.7849636077881,18.7845039367676
10.0304203033447,10.0544319152832,10.078558921814,10.1028022766113,10.1271629333496,10.1516399383545,10.1762371063232,10.2118320465088,10.2512950897217,10.2910642623901,10.3311433792114,10.3715362548828,10.4122457504272,10.4532766342163,10.4946317672729,10.5363149642944,10.5783309936523,10.6206836700439,10.6633768081665,11.2907094955444,12.3081922531128,13.5313024520874,14.9404344558716,15.3193044662476,15.4314947128296,15.5453395843506,15.6608772277832,15.7781438827515,15.8971815109253,16.0180282592773,16.1407260894775,16.2653179168701,16.3918495178223,16.5203647613525,16.6509094238281,16.695405960083,16.7081756591797,16.7209625244141,16.7337703704834,16.7465953826904,16.7594432830811,16.7723083496094,16.7851943969727,16.7981014251709,16.8110256195068,16.8239707946777,16.8369369506836,16.8499221801758,16.8629283905029,16.8759536743164,16.8889999389648,16.9020652770996,16.9151515960693,16.928258895874,16.941385269165,16.954532623291,16.9676990509033,16.9808883666992,17.0034370422363,17.0402584075928,17.0772380828857,17.1143798828125,17.151683807373,17.1891498565674,17.2267799377441,17.264575958252,17.3025379180908,17.3406658172607,17.378963470459,17.5680103302002,17.5959796905518,17.6240386962891,17.6521873474121,17.6804256439209,17.7087554931641,17.737174987793,17.7656860351562,17.7942886352539,17.8229846954346,17.8517723083496,17.8806533813477,17.9096298217773,17.9386978149414,17.974365234375,18.015510559082,18.0568428039551,18.0983238220215,18.139928817749,18.6954345703125,18.6949806213379,18.6945285797119,18.6940765380859,18.69362449646,18.6931705474854,18.692720413208,18.6922664642334,18.6918144226074,18.6913623809814,18.6909084320068,18.6904582977295,18.6900062561035,18.6895542144775,18.6891021728516,18.6886520385742,18.6881980895996,18.6877460479736,18.6872959136963,18.6868438720703,18.6863918304443,18.6859378814697,18.6854877471924,18.6850357055664,18.6845836639404,18.6841316223145,18.6836814880371,18.6832294464111,18.6827774047852,18.6823234558105,18.6818733215332,18.6814231872559,18.6809711456299,18.6805191040039,18.6800651550293,18.679615020752,18.679162979126,18.6787147521973,18.6782608032227,18.6778087615967,18.6773586273193,18.676908493042,18.6764545440674,18.67600440979,18.6755542755127,18.6751022338867,18.6746501922607,18.6742000579834,18.6737499237061,18.6732959747314,18.6728458404541,18.6723937988281,18.6719455718994,18.6714916229248,18.6710414886475,18.6705894470215,18.6701374053955,18.6696872711182,18.6692352294922,18.6687850952148,18.6683349609375,18.6678848266602,18.6674327850342,18.6669826507568,18.6665306091309,18.6660823822021,18.6656284332275,18.6651782989502,18.6647281646729,18.6642761230469,18.6638259887695,18.6633758544922,18.6629257202148,18.6624736785889,18.6620254516602,18.6615734100342,18.6611232757568,18.6606712341309,18.6602210998535,18.6597709655762,18.6593208312988,18.6588687896729,18.6584186553955,18.6579685211182,18.6575164794922,18.6570682525635,18.6566181182861,18.6561660766602,18.6557159423828,18.6552658081055,18.6548156738281,18.6543674468994,18.6539154052734,18.6534633636475,18.6530151367188,18.6525650024414,18.6521148681641,18.6516647338867,18.6512145996094,18.6507625579834,18.6503143310547,18.6498641967773,18.6494140625,18.6489639282227,18.6485137939453,18.648063659668,18.647611618042,18.6471652984619,18.6467132568359,18.6462631225586,18.6458129882812,18.6453647613525,18.6449146270752,18.6444664001465,18.6440143585205,18.6435661315918,18.6431140899658,18.6426639556885,18.6422157287598,18.6417655944824,18.6413154602051,18.6408653259277,18.640417098999,18.6399669647217,18.6395168304443,18.6390686035156,18.6386184692383,18.6381683349609,18.6377220153809,18.6372680664062,18.6368198394775,18.6363716125488,18.6359195709229,18.6354732513428,18.6350212097168,18.6345748901367,18.6341247558594,18.633674621582,18.6332244873047,18.632776260376,18.6323261260986,18.6318778991699,18.6314277648926,18.6309776306152,18.6305294036865,18.6300792694092,18.6296329498291,18.6291828155518,18.628734588623,18.6282844543457,18.6278381347656,18.6273880004883,18.6269397735596,18.6264877319336,18.6260395050049,18.6255912780762,18.6251430511475,18.6246929168701,18.6242446899414,18.6237964630127,18.6233463287354,18.6228981018066,18.6224479675293,18.6219997406006,18.6215515136719,18.6211032867432,18.6206531524658,18.6202049255371,18.6197566986084,18.6193084716797,18.618860244751,18.618408203125,18.6179637908936,18.6175136566162,18.6170654296875,18.6166172027588,18.6161708831787,18.6157188415527,18.615270614624,18.6148242950439,18.6143741607666,18.6139278411865,18.6134777069092,18.6130313873291,18.6125812530518,18.612133026123,18.6116847991943,18.6112384796143,18.6107883453369,18.6103420257568,18.6098918914795,18.6094436645508,18.6089973449707,18.608549118042,18.6080989837646,18.6076526641846,18.6072025299072,18.6067562103271,18.6063079833984,18.6058597564697,18.6054134368896,18.6049652099609,18.604513168335,18.6040687561035,18.6036205291748,18.6031742095947,18.602725982666,18.6022796630859,18.60182762146,18.6013813018799
10.0059623718262,10.029857635498,10.0538663864136,10.0779914855957,10.1022310256958,10.1265888214111,10.1510639190674,10.1756572723389,10.2003707885742,10.229926109314,10.2695293426514,10.309440612793,10.349663734436,10.3902015686035,10.4310579299927,10.4722366333008,10.5137424468994,10.5555782318115,10.5977487564087,10.6402568817139,10.9078102111816,11.854513168335,12.9833097457886,14.2881546020508,15.041672706604,15.1463003158569,15.2559614181519,15.3672218322754,15.4801168441772,15.5946836471558,15.7109575271606,15.8289794921875,15.948787689209,16.0704231262207,16.1939277648926,16.3193473815918,16.4467220306396,16.5761032104492,16.7075347900391,16.7503814697266,16.7632331848145,16.7761058807373,16.7889976501465,16.801908493042,16.8148403167725,16.8277912139893,16.840763092041,16.8537540435791,16.8667659759521,16.8797969818115,16.8928489685059,16.9059219360352,16.9190139770508,16.9321250915527,16.9452590942383,16.9584121704102,16.9715843200684,16.9847793579102,16.9979934692383,17.0112285614014,17.0244846343994,17.0377616882324,17.0510578155518,17.0643768310547,17.0777149200439,17.0910758972168,17.104455947876,17.1305656433105,17.1679401397705,17.2054767608643,17.2431793212891,17.2810459136963,17.3190803527832,17.6814365386963,17.7097682952881,17.7381916046143,17.7667064666748,17.7953128814697,17.824010848999,17.8528022766113,17.8816871643066,17.910665512085,17.9397373199463,17.9689044952393,17.9981670379639,18.0275230407715,18.0569763183594,18.0865268707275,18.1283893585205,18.5135917663574,18.5131454467773,18.5127029418945,18.5122585296631,18.5118160247803,18.5113735198975,18.510929107666,18.5104846954346,18.5100421905518,18.5095977783203,18.5091533660889,18.5087127685547,18.5082683563232,18.5078239440918,18.507381439209,18.5069408416748,18.5064945220947,18.5060539245605,18.5056095123291,18.5051670074463,18.5047245025635,18.504280090332,18.5038375854492,18.5033931732178,18.5029525756836,18.5025081634521,18.502067565918,18.5016212463379,18.5011806488037,18.5007362365723,18.5002937316895,18.4998512268066,18.4994068145752,18.4989643096924,18.4985218048096,18.4980792999268,18.4976387023926,18.4971942901611,18.4967498779297,18.4963092803955,18.4958667755127,18.4954242706299,18.4949798583984,18.4945373535156,18.4940948486328,18.4936504364014,18.4932098388672,18.4927654266357,18.4923248291016,18.4918804168701,18.4914436340332,18.4909954071045,18.4905567169189,18.4901123046875,18.4896717071533,18.4892272949219,18.4887866973877,18.4883441925049,18.4878978729248,18.4874610900879,18.4870147705078,18.4865741729736,18.4861316680908,18.485689163208,18.4852485656738,18.484806060791,18.4843616485596,18.4839248657227,18.4834785461426,18.4830360412598,18.4825973510742,18.4821510314941,18.48171043396,18.4812698364258,18.4808292388916,18.4803848266602,18.479944229126,18.4795017242432,18.479061126709,18.4786186218262,18.478178024292,18.4777355194092,18.4772930145264,18.4768505096436,18.4764080047607,18.4759674072266,18.4755249023438,18.4750843048096,18.4746398925781,18.4742012023926,18.4737586975098,18.4733180999756,18.4728736877441,18.47243309021,18.4719924926758,18.471549987793,18.4711112976074,18.470666885376,18.4702281951904,18.469783782959,18.4693431854248,18.4689025878906,18.4684619903564,18.468017578125,18.4675788879395,18.4671363830566,18.4666919708252,18.4662532806396,18.4658126831055,18.4653739929199,18.4649295806885,18.4644889831543,18.4640483856201,18.4636077880859,18.4631652832031,18.4627265930176,18.4622840881348,18.4618434906006,18.4614009857178,18.460958480835,18.4605178833008,18.4600772857666,18.4596366882324,18.4591960906982,18.4587574005127,18.4583148956299,18.4578742980957,18.4574337005615,18.4569931030273,18.4565525054932,18.4561100006104,18.4556694030762,18.455228805542,18.4547882080078,18.454345703125,18.4539089202881,18.4534645080566,18.4530258178711,18.4525852203369,18.4521446228027,18.4517059326172,18.451265335083,18.4508228302002,18.450382232666,18.4499416351318,18.4495010375977,18.4490604400635,18.4486198425293,18.4481792449951,18.4477405548096,18.4472999572754,18.4468574523926,18.4464206695557,18.4459781646729,18.44553565979,18.4450988769531,18.4446563720703,18.4442176818848,18.4437770843506,18.4433364868164,18.4428958892822,18.4424571990967,18.4420166015625,18.441577911377,18.4411354064941,18.4406967163086,18.4402561187744,18.4398174285889,18.4393749237061,18.4389343261719,18.4384956359863,18.4380569458008,18.4376163482666,18.4371738433838,18.4367370605469,18.4362964630127,18.4358558654785,18.435417175293,18.4349765777588,18.4345378875732,18.4340972900391,18.4336585998535,18.4332160949707,18.4327793121338,18.4323406219482,18.4319000244141,18.4314613342285,18.4310207366943,18.4305820465088,18.4301433563232,18.4297008514404,18.4292621612549,18.4288234710693,18.4283809661865,18.4279441833496,18.4275035858154,18.4270668029785,18.4266262054443,18.4261856079102,18.4257469177246,18.4253082275391,18.4248676300049,18.4244289398193,18.4239902496338,18.4235496520996,18.4231128692627,18.4226722717285,18.422233581543,18.4217948913574
9.98162460327148,10.0054025650024,10.0292949676514,10.0533018112183,10.0774230957031,10.1016607284546,10.1260147094727,10.150486946106,10.1750783920288,10.1997880935669,10.2246189117432,10.2495708465576,10.2878284454346,10.3278827667236,10.3682498931885,10.4089336395264,10.4499378204346,10.4912662506104,10.532922744751,10.574912071228,10.6172370910645,10.6599025726318,11.4331331253052,12.2303857803345,12.6671533584595,13.7423505783081,14.9101734161377,14.9523019790649,14.9946689605713,15.0551071166992,15.3376865386963,15.4353332519531,15.5342311859131,15.644341468811,15.761360168457,15.8801431655884,16.0007305145264,16.123161315918,16.2474822998047,16.3737354278564,16.5019645690918,16.6322193145752,16.7645454406738,16.8057193756104,16.8186569213867,16.8316135406494,16.8445911407471,16.8575878143311,16.87060546875,16.8836421966553,16.8966999053955,16.9097785949707,16.9228763580322,16.9359951019287,16.9491329193115,16.9622936248779,16.9754734039307,16.9886722564697,17.0018939971924,17.0151348114014,17.0283966064453,17.0416793823242,17.0549831390381,17.0683059692383,17.0816516876221,17.0950183868408,17.1084041595459,17.1218128204346,17.1352405548096,17.1486911773682,17.1621608734131,17.1756534576416,17.1891670227051,17.2027015686035,17.2162570953369,17.2298355102539,17.2596092224121,17.7963352203369,17.8250370025635,17.853832244873,17.8827209472656,17.9117012023926,17.9407768249512,17.9699478149414,17.9992122650146,18.0285739898682,18.0588550567627,18.1033096313477,18.1479835510254,18.3356857299805,18.3352489471436,18.3348140716553,18.3343811035156,18.3339462280273,18.3335094451904,18.3330764770508,18.3326416015625,18.3322048187256,18.3317718505859,18.3313369750977,18.3309001922607,18.3304672241211,18.3300285339355,18.3295974731445,18.329158782959,18.3287258148193,18.3282928466797,18.3278579711914,18.3274230957031,18.3269901275635,18.3265552520752,18.3261184692383,18.3256855010986,18.3252487182617,18.3248176574707,18.3243808746338,18.3239479064941,18.3235130310059,18.3230762481689,18.3226413726807,18.322208404541,18.3217754364014,18.3213405609131,18.3209056854248,18.3204708099365,18.3200378417969,18.31960105896,18.3191680908203,18.3187351226807,18.3183002471924,18.3178653717041,18.3174324035645,18.3169975280762,18.3165645599365,18.3161315917969,18.31569480896,18.3152599334717,18.314826965332,18.3143939971924,18.3139591217041,18.3135242462158,18.3130893707275,18.3126583099365,18.3122215270996,18.3117904663086,18.3113574981689,18.3109226226807,18.3104877471924,18.3100528717041,18.3096199035645,18.3091831207275,18.3087520599365,18.3083171844482,18.3078861236572,18.3074512481689,18.3070182800293,18.306583404541,18.3061504364014,18.3057174682617,18.3052825927734,18.3048477172852,18.3044128417969,18.3039836883545,18.3035488128662,18.3031139373779,18.3026809692383,18.3022499084473,18.301815032959,18.3013820648193,18.3009490966797,18.30051612854,18.3000812530518,18.2996463775635,18.2992153167725,18.2987823486328,18.2983474731445,18.2979145050049,18.2974815368652,18.297046661377,18.2966175079346,18.2961807250977,18.295747756958,18.295316696167,18.2948837280273,18.2944488525391,18.2940158843994,18.2935829162598,18.2931499481201,18.2927188873291,18.2922821044922,18.2918510437012,18.2914180755615,18.2909851074219,18.2905521392822,18.2901191711426,18.2896862030029,18.2892532348633,18.2888221740723,18.288387298584,18.287956237793,18.2875213623047,18.2870922088623,18.286657333374,18.2862243652344,18.2857913970947,18.2853603363037,18.2849273681641,18.284496307373,18.2840614318848,18.2836265563965,18.2831974029541,18.2827625274658,18.2823314666748,18.2818965911865,18.2814674377441,18.2810306549072,18.2806015014648,18.2801685333252,18.2797374725342,18.2793045043945,18.2788696289062,18.2784404754639,18.2780075073242,18.2775745391846,18.2771415710449,18.2767086029053,18.2762775421143,18.2758464813232,18.2754135131836,18.2749805450439,18.2745475769043,18.2741184234619,18.2736854553223,18.273250579834,18.2728214263916,18.272388458252,18.2719573974609,18.2715244293213,18.2710952758789,18.2706604003906,18.2702293395996,18.26979637146,18.2693653106689,18.2689323425293,18.2685031890869,18.2680702209473,18.267635345459,18.2672061920166,18.266773223877,18.2663421630859,18.2659111022949,18.2654781341553,18.2650470733643,18.2646179199219,18.2641830444336,18.2637519836426,18.2633190155029,18.2628860473633,18.2624568939209,18.2620239257812,18.2615928649902,18.2611637115479,18.2607326507568,18.2603015899658,18.2598667144775,18.2594337463379,18.2590065002441,18.2585754394531,18.2581443786621,18.2577133178711,18.2572784423828,18.2568473815918,18.2564163208008,18.2559852600098,18.2555541992188,18.2551231384277,18.2546920776367,18.2542610168457,18.2538299560547,18.2533988952637,18.2529697418213,18.252534866333,18.252103805542,18.2516746520996,18.25124168396,18.2508106231689,18.2503833770752,18.2499485015869,18.2495193481445,18.2490863800049,18.2486572265625,18.2482261657715,18.2477951049805,18.2473640441895,18.2469329833984,18.2465038299561,18.2460689544678,18.2456436157227
9.95740413665771,9.98106670379639,10.0048427581787,10.0287322998047,10.0527362823486,10.0768547058105,10.1010894775391,10.1254415512085,10.1499109268188,10.1744995117188,10.1992063522339,10.2240343093872,10.2489833831787,10.2740545272827,10.3061933517456,10.3463907241821,10.3869028091431,10.4277334213257,10.4688863754272,10.5103645324707,10.552173614502,10.5943164825439,10.6367979049683,11.0406808853149,12.0089645385742,12.1709127426147,12.3372898101807,13.2367105484009,14.4152679443359,14.8502712249756,14.8920612335205,14.9340877532959,14.9763517379761,15.0698280334473,15.0973596572876,15.5452680587769,15.6455841064453,15.7472038269043,15.850152015686,15.9544553756714,16.0601406097412,16.176248550415,16.3013916015625,16.4284858703613,16.5575790405273,16.6887168884277,16.8219470977783,16.8614234924316,16.8744468688965,16.8874912261963,16.9005546569824,16.9136371612549,16.9267425537109,16.9398670196533,16.953010559082,16.9661769866943,16.979362487793,16.9925689697266,17.0057945251465,17.01904296875,17.0323104858398,17.0455989837646,17.0589084625244,17.0722389221191,17.0855903625488,17.0989608764648,17.1123542785645,17.125768661499,17.1392040252686,17.152660369873,17.1661376953125,17.1796360015869,17.1931552886963,17.2066955566406,17.2202587127686,17.2338428497314,17.2474479675293,17.2610740661621,17.2747230529785,17.8548622131348,17.883752822876,17.9127388000488,17.9418182373047,17.9709911346436,18.0002593994141,18.0339679718018,18.0782985687256,18.1228485107422,18.1615924835205,18.1611671447754,18.1607398986816,18.1603126525879,18.1598873138428,18.159460067749,18.1590347290039,18.1586093902588,18.1581802368164,18.1577568054199,18.1573276519775,18.1569023132324,18.1564750671387,18.1560478210449,18.1556224822998,18.1551933288574,18.1547679901123,18.1543407440186,18.1539173126221,18.1534881591797,18.1530609130859,18.1526355743408,18.1522102355957,18.151782989502,18.1513557434082,18.1509304046631,18.1505031585693,18.1500797271729,18.1496505737305,18.149227142334,18.1487979888916,18.1483726501465,18.1479454040527,18.1475219726562,18.1470928192139,18.1466693878174,18.146240234375,18.1458168029785,18.1453895568848,18.144962310791,18.1445388793945,18.1441116333008,18.143684387207,18.1432590484619,18.1428337097168,18.142406463623,18.1419830322266,18.1415557861328,18.1411304473877,18.1407051086426,18.1402778625488,18.1398525238037,18.1394271850586,18.1390018463135,18.1385765075684,18.1381492614746,18.1377239227295,18.137300491333,18.1368732452393,18.1364479064941,18.136022567749,18.1355953216553,18.1351699829102,18.1347427368164,18.1343193054199,18.1338920593262,18.1334705352783,18.1330432891846,18.1326160430908,18.1321926116943,18.1317672729492,18.1313400268555,18.130916595459,18.1304912567139,18.1300640106201,18.1296405792236,18.1292133331299,18.1287899017334,18.1283645629883,18.1279373168945,18.127513885498,18.1270885467529,18.1266613006592,18.1262397766113,18.1258125305176,18.1253852844238,18.1249618530273,18.1245365142822,18.1241130828857,18.1236877441406,18.1232604980469,18.1228370666504,18.1224117279053,18.1219863891602,18.1215629577637,18.1211395263672,18.1207122802734,18.1202869415283,18.1198616027832,18.1194362640381,18.119010925293,18.1185874938965,18.1181621551514,18.1177387237549,18.1173133850098,18.1168899536133,18.1164627075195,18.1160411834717,18.1156158447266,18.1151885986328,18.1147651672363,18.1143417358398,18.1139163970947,18.1134910583496,18.1130695343018,18.112642288208,18.1122169494629,18.1117935180664,18.1113700866699,18.1109447479248,18.1105213165283,18.1100959777832,18.1096706390381,18.1092472076416,18.1088199615479,18.1083984375,18.1079750061035,18.107551574707,18.1071262359619,18.1067008972168,18.1062755584717,18.1058540344238,18.1054267883301,18.1050071716309,18.1045799255371,18.104154586792,18.1037330627441,18.103307723999,18.1028842926025,18.1024589538574,18.1020355224609,18.1016101837158,18.101188659668,18.1007633209229,18.100341796875,18.0999164581299,18.0994911193848,18.0990676879883,18.0986423492432,18.0982208251953,18.0977973937988,18.0973739624023,18.0969486236572,18.0965251922607,18.0961017608643,18.0956783294678,18.0952548980713,18.0948314666748,18.0944080352783,18.0939826965332,18.0935592651367,18.0931339263916,18.0927124023438,18.0922870635986,18.0918655395508,18.0914421081543,18.0910186767578,18.0905952453613,18.0901718139648,18.0897464752197,18.0893230438232,18.0889015197754,18.0884761810303,18.0880546569824,18.0876274108887,18.0872077941895,18.086784362793,18.0863609313965,18.0859394073486,18.0855140686035,18.085090637207,18.0846691131592,18.0842437744141,18.0838203430176,18.0833988189697,18.0829734802246,18.0825519561768,18.0821266174316,18.0817070007324,18.0812816619873,18.0808620452881,18.080436706543,18.0800132751465,18.0795917510986,18.0791683197021,18.0787467956543,18.0783195495605,18.0778999328613,18.0774745941162,18.0770530700684,18.0766296386719,18.076208114624,18.0757846832275,18.0753631591797,18.0749397277832,18.0745162963867,18.0740928649902,18.0736713409424,18.0732479095459,18.072826385498
9.93330097198486,9.95684909820557,9.98050975799561,10.004282951355,10.028169631958,10.052170753479,10.0762872695923,10.1005191802979,10.1248683929443,10.1493349075317,10.1739196777344,10.1986246109009,10.2234497070312,10.2483959197998,10.2734642028809,10.2986555099487,10.3246231079102,10.3649654388428,10.4056224822998,10.4466009140015,10.4879035949707,10.5295333862305,10.5714950561523,10.6137933731079,10.6742782592773,11.5791959762573,11.9516201019287,12.1120157241821,12.2767744064331,12.7669591903687,13.8598976135254,14.749623298645,14.7908477783203,14.8323040008545,14.8739938735962,14.9159183502197,14.9580793380737,15.0004796981812,15.1121635437012,15.1398506164551,15.758544921875,15.8616418838501,15.9660968780518,16.0719375610352,16.1791896820068,16.2878837585449,16.3980464935303,16.5097103118896,16.6229057312012,16.7455978393555,16.8797435760498,16.9174995422363,16.9306087493896,16.9437389373779,16.9568901062012,16.9700603485107,16.9832534790039,16.9964656829834,17.0096988677979,17.0229511260986,17.036226272583,17.0495204925537,17.0628356933594,17.076171875,17.0895290374756,17.1029071807861,17.1163063049316,17.1297264099121,17.1431674957275,17.1566314697266,17.1701145172119,17.1836185455322,17.1971454620361,17.210693359375,17.2242622375488,17.2378520965576,17.25146484375,17.2650985717773,17.2787532806396,17.8558921813965,17.884786605835,17.9137744903564,17.9428577423096,17.9720344543457,17.9920330047607,17.9916152954102,17.9911956787109,17.990779876709,17.9903602600098,17.9899425506592,17.9895210266113,17.9891033172607,17.9886856079102,17.9882640838623,17.9878482818604,17.9874286651611,17.9870090484619,17.9865913391113,17.9861736297607,17.9857540130615,17.9853363037109,17.9849166870117,17.9844970703125,17.9840793609619,17.9836616516113,17.9832420349121,17.9828243255615,17.9824066162109,17.9819869995117,17.9815692901611,17.9811515808105,17.98073387146,17.9803161621094,17.9798965454102,17.9794769287109,17.9790592193604,17.9786415100098,17.9782218933105,17.97780418396,17.9773845672607,17.9769687652588,17.9765491485596,17.976131439209,17.9757137298584,17.9752979278564,17.9748783111572,17.974458694458,17.9740409851074,17.9736213684082,17.9732055664062,17.9727878570557,17.9723682403564,17.9719486236572,17.9715328216553,17.9711151123047,17.9706974029541,17.9702777862549,17.9698638916016,17.9694442749023,17.9690227508545,17.9686088562012,17.968189239502,17.9677715301514,17.9673538208008,17.9669380187988,17.9665184020996,17.9661026000977,17.9656848907471,17.9652671813965,17.9648475646973,17.964427947998,17.9640140533447,17.9635963439941,17.9631786346436,17.962760925293,17.9623432159424,17.9619255065918,17.9615097045898,17.9610919952393,17.96067237854,17.9602565765381,17.9598388671875,17.9594211578369,17.9590015411377,17.9585857391357,17.9581699371338,17.9577522277832,17.957332611084,17.956916809082,17.9565010070801,17.9560832977295,17.9556636810303,17.955249786377,17.9548301696777,17.9544143676758,17.9539966583252,17.953577041626,17.953161239624,17.9527454376221,17.9523296356201,17.9519100189209,17.9514961242676,17.951078414917,17.9506607055664,17.9502449035645,17.9498271942139,17.9494094848633,17.9489917755127,17.9485759735107,17.9481582641602,17.9477424621582,17.9473247528076,17.9469089508057,17.9464912414551,17.9460754394531,17.9456577301025,17.9452419281006,17.9448261260986,17.944408416748,17.9439926147461,17.9435729980469,17.9431571960449,17.942741394043,17.942325592041,17.9419059753418,17.9414920806885,17.9410743713379,17.9406604766846,17.9402408599854,17.9398250579834,17.9394092559814,17.9389915466309,17.9385757446289,17.938159942627,17.937744140625,17.9373264312744,17.9369125366211,17.9364948272705,17.9360790252686,17.9356632232666,17.9352474212646,17.9348297119141,17.9344139099121,17.9339962005615,17.9335823059082,17.9331665039062,17.932746887207,17.9323329925537,17.9319152832031,17.9314994812012,17.9310855865479,17.9306697845459,17.9302539825439,17.929838180542,17.9294204711914,17.9290046691895,17.9285888671875,17.9281711578369,17.9277572631836,17.927339553833,17.9269237518311,17.9265098571777,17.9260940551758,17.9256763458252,17.9252624511719,17.9248447418213,17.924430847168,17.9240131378174,17.9235973358154,17.9231834411621,17.9227657318115,17.9223518371582,17.9219360351562,17.9215221405029,17.9211044311523,17.920690536499,17.9202728271484,17.9198589324951,17.9194431304932,17.9190273284912,17.9186115264893,17.9181957244873,17.917781829834,17.9173641204834,17.9169502258301,17.9165344238281,17.9161186218262,17.9157047271729,17.9152889251709,17.9148731231689,17.9144592285156,17.914041519165,17.9136257171631,17.9132118225098,17.9127960205078,17.9123821258545,17.9119663238525,17.9115505218506,17.9111347198486,17.9107227325439,17.9103050231934,17.90989112854,17.9094753265381,17.9090614318848,17.9086456298828,17.9082298278809,17.9078159332275,17.9074020385742,17.9069862365723,17.9065723419189,17.906156539917,17.9057426452637,17.9053268432617,17.9049129486084,17.9044971466064,17.9040832519531,17.9036655426025,17.9032516479492
9.90931415557861,9.93274879455566,9.95629501342773,9.97995281219482,10.0037231445312,10.0276069641113,10.0516052246094,10.0757188796997,10.0999488830566,10.1242952346802,10.1487588882446,10.1733417510986,10.1980428695679,10.2228651046753,10.2478084564209,10.272873878479,10.2980613708496,10.3233737945557,10.3488101959229,10.3836059570312,10.4244108200073,10.465537071228,10.5069894790649,10.5487718582153,10.5908870697021,10.6333408355713,11.1768293380737,11.7400894165039,11.8948202133179,12.0536851882935,12.2168502807617,12.3844938278198,13.3457326889038,14.5446634292603,14.6910018920898,14.7318992614746,14.7730255126953,14.8143815994263,14.8559694290161,14.8977928161621,14.9398508071899,14.9821481704712,15.1269960403442,15.1547384262085,15.1825819015503,15.9777565002441,16.0837516784668,16.191162109375,16.3000164031982,16.4103450775146,16.5221786499023,16.6355457305908,16.7504787445068,16.8670101165771,16.9607715606689,16.9739475250244,16.9871463775635,17.0003643035889,17.0136032104492,17.0268630981445,17.0401420593262,17.0534439086914,17.066764831543,17.0801086425781,17.0934715270996,17.1068553924561,17.1202602386475,17.1336879730225,17.1471347808838,17.1606044769287,17.1740951538086,17.1876068115234,17.2011394500732,17.214693069458,17.2282676696777,17.2418651580811,17.2554836273193,17.2691230773926,17.2827854156494,17.826021194458,17.825611114502,17.8251991271973,17.8247909545898,17.8243770599365,17.8239688873291,17.8235549926758,17.8231449127197,17.822732925415,17.8223247528076,17.8219127655029,17.8215026855469,17.8210887908936,17.8206787109375,17.8202667236328,17.8198547363281,17.8194465637207,17.819034576416,17.81862449646,17.8182125091553,17.8178043365479,17.8173923492432,17.8169822692871,17.8165702819824,17.8161582946777,17.8157482147217,17.8153381347656,17.8149280548096,17.8145160675049,17.8141059875488,17.8136959075928,17.8132839202881,17.812873840332,17.812463760376,17.8120536804199,17.8116436004639,17.8112335205078,17.8108215332031,17.8104114532471,17.8099994659424,17.8095893859863,17.8091793060303,17.8087711334229,17.8083591461182,17.8079509735107,17.8075389862061,17.80712890625,17.8067188262939,17.8063087463379,17.8058986663818,17.8054866790771,17.8050785064697,17.804666519165,17.804256439209,17.8038463592529,17.8034362792969,17.8030242919922,17.8026161193848,17.8022079467773,17.8017978668213,17.8013858795166,17.8009757995605,17.8005657196045,17.8001537322998,17.799747467041,17.7993354797363,17.7989273071289,17.7985153198242,17.7981071472168,17.7976951599121,17.7972888946533,17.7968769073486,17.7964706420898,17.7960567474365,17.7956466674805,17.795238494873,17.7948265075684,17.7944183349609,17.7940101623535,17.7935981750488,17.7931900024414,17.7927799224854,17.7923679351807,17.7919597625732,17.7915496826172,17.7911396026611,17.7907295227051,17.7903213500977,17.7899131774902,17.7895030975342,17.7890930175781,17.7886829376221,17.7882747650146,17.78786277771,17.7874546051025,17.7870464324951,17.7866363525391,17.786226272583,17.785816192627,17.7854080200195,17.7849960327148,17.7845897674561,17.7841796875,17.7837715148926,17.7833614349365,17.7829532623291,17.782543182373,17.7821350097656,17.7817249298096,17.7813148498535,17.7809066772461,17.78049659729,17.7800884246826,17.7796783447266,17.7792701721191,17.7788619995117,17.7784519195557,17.7780437469482,17.7776355743408,17.7772254943848,17.776819229126,17.7764072418213,17.7759971618652,17.7755908966064,17.7751808166504,17.7747707366943,17.7743625640869,17.7739543914795,17.7735443115234,17.7731380462646,17.7727279663086,17.7723197937012,17.7719116210938,17.7715034484863,17.7710933685303,17.7706832885742,17.7702751159668,17.769868850708,17.7694606781006,17.7690505981445,17.7686424255371,17.7682342529297,17.7678241729736,17.7674160003662,17.7670078277588,17.7665977478027,17.7661895751953,17.7657814025879,17.7653732299805,17.7649669647217,17.7645568847656,17.7641487121582,17.7637405395508,17.7633323669434,17.7629241943359,17.7625160217285,17.7621078491211,17.7616996765137,17.7612895965576,17.7608795166016,17.7604732513428,17.7600650787354,17.7596588134766,17.7592487335205,17.7588424682617,17.7584323883057,17.7580261230469,17.7576179504395,17.757209777832,17.7568016052246,17.7563934326172,17.7559852600098,17.7555770874023,17.7551689147949,17.7547607421875,17.7543544769287,17.7539443969727,17.7535381317139,17.7531299591064,17.7527256011963,17.7523136138916,17.7519073486328,17.7514991760254,17.751091003418,17.7506828308105,17.7502746582031,17.7498683929443,17.7494583129883,17.7490539550781,17.7486438751221,17.7482395172119,17.7478294372559,17.7474231719971,17.7470149993896,17.7466087341309,17.7461986541748,17.745792388916,17.7453861236572,17.7449760437012,17.744571685791,17.744161605835,17.7437553405762,17.7433490753174,17.74294090271,17.7425327301025,17.7421264648438,17.7417182922363,17.7413082122803,17.7409038543701,17.7404937744141,17.7400894165039,17.7396812438965,17.7392749786377,17.7388687133789,17.7384605407715,17.7380523681641,17.7376461029053,17.7372379302979,17.7368297576904
9.88544273376465,9.90876483917236,9.93219661712646,9.95573997497559,9.97939586639404,10.0031633377075,10.0270442962646,10.0510406494141,10.0751514434814,10.0993776321411,10.1237211227417,10.1481828689575,10.1727619171143,10.1974611282349,10.2222805023193,10.247220993042,10.2722835540771,10.2974681854248,10.3227777481079,10.3482112884521,10.3737707138062,10.4023141860962,10.4432668685913,10.4845428466797,10.5261459350586,10.5680809020996,10.6103506088257,10.8014869689941,11.5359163284302,11.6852779388428,11.8385581970215,11.9959144592285,12.1575088500977,12.3235168457031,12.868350982666,13.9794731140137,14.5924940109253,14.6328439712524,14.6734180450439,14.7142181396484,14.7552452087402,14.796501159668,14.8379898071289,14.879711151123,14.921667098999,14.9638614654541,15.0062942504883,15.1696548461914,15.1975536346436,15.2255544662476,16.2031517028809,16.3121681213379,16.4226627349854,16.5346641540527,16.6482028961182,16.7633113861084,16.8800239562988,16.9983711242676,17.0175094604492,17.0307750701904,17.0440616607666,17.0573692321777,17.0706958770752,17.0840454101562,17.0974159240723,17.1108074188232,17.1242179870605,17.1376514434814,17.1511058807373,17.1645812988281,17.1780776977539,17.1915950775146,17.205135345459,17.2186946868896,17.2322769165039,17.2458801269531,17.2595043182373,17.2731513977051,17.2868175506592,17.6610298156738,17.660623550415,17.6602210998535,17.659818649292,17.6594142913818,17.6590118408203,17.6586093902588,17.6582050323486,17.6578006744385,17.6573963165283,17.6569938659668,17.6565914154053,17.6561870574951,17.6557846069336,17.6553783416748,17.6549777984619,17.6545734405518,17.6541709899902,17.6537666320801,17.6533660888672,17.6529598236084,17.6525573730469,17.6521549224854,17.6517505645752,17.651346206665,17.6509456634521,17.650541305542,17.6501369476318,17.6497364044189,17.6493301391602,17.6489295959473,17.6485252380371,17.6481227874756,17.6477203369141,17.6473178863525,17.6469135284424,17.6465129852295,17.6461086273193,17.6457042694092,17.6453018188477,17.6448974609375,17.644495010376,17.6440944671631,17.6436920166016,17.6432876586914,17.6428852081299,17.6424808502197,17.6420803070068,17.6416759490967,17.6412734985352,17.6408710479736,17.6404685974121,17.6400661468506,17.6396636962891,17.6392631530762,17.6388568878174,17.6384563446045,17.638053894043,17.6376514434814,17.6372489929199,17.6368465423584,17.6364440917969,17.6360397338867,17.6356391906738,17.6352348327637,17.6348342895508,17.6344299316406,17.6340293884277,17.6336269378662,17.6332244873047,17.6328220367432,17.6324195861816,17.6320152282715,17.6316165924072,17.6312103271484,17.6308078765869,17.630407333374,17.6300048828125,17.6296043395996,17.6292018890381,17.6287975311279,17.6283988952637,17.6279945373535,17.627592086792,17.6271915435791,17.6267890930176,17.6263866424561,17.6259841918945,17.625581741333,17.6251792907715,17.6247787475586,17.6243762969971,17.6239738464355,17.6235733032227,17.6231689453125,17.6227703094482,17.6223659515381,17.6219635009766,17.6215629577637,17.6211605072021,17.6207599639893,17.6203575134277,17.6199569702148,17.6195526123047,17.6191539764404,17.6187496185303,17.6183490753174,17.6179485321045,17.617546081543,17.6171436309814,17.6167449951172,17.616340637207,17.6159400939941,17.6155376434326,17.6151351928711,17.6147365570068,17.6143341064453,17.6139316558838,17.6135311126709,17.613130569458,17.6127262115479,17.6123275756836,17.6119251251221,17.6115226745605,17.6111221313477,17.6107196807861,17.6103191375732,17.6099166870117,17.6095180511475,17.6091156005859,17.6087169647217,17.6083126068115,17.6079120635986,17.6075115203857,17.6071109771729,17.6067085266113,17.6063060760498,17.6059074401855,17.605504989624,17.6051044464111,17.6047039031982,17.6043033599854,17.6039009094238,17.6035022735596,17.603099822998,17.6026992797852,17.6022968292236,17.6018962860107,17.6014938354492,17.601095199585,17.6006946563721,17.6002922058105,17.5998916625977,17.5994911193848,17.5990924835205,17.598690032959,17.5982875823975,17.5978889465332,17.5974884033203,17.5970859527588,17.5966854095459,17.596284866333,17.5958843231201,17.5954837799072,17.5950832366943,17.5946826934814,17.5942821502686,17.5938816070557,17.5934810638428,17.5930805206299,17.592679977417,17.5922813415527,17.5918788909912,17.5914783477783,17.5910797119141,17.5906772613525,17.5902786254883,17.5898780822754,17.5894775390625,17.589075088501,17.5886783599854,17.5882740020752,17.5878791809082,17.587474822998,17.5870742797852,17.5866756439209,17.586275100708,17.5858726501465,17.5854740142822,17.585075378418,17.5846729278564,17.5842742919922,17.5838737487793,17.5834732055664,17.5830726623535,17.5826759338379,17.5822734832764,17.5818729400635,17.5814743041992,17.5810737609863,17.5806732177734,17.5802726745605,17.5798740386963,17.5794734954834,17.5790748596191,17.5786743164062,17.5782737731934,17.5778751373291,17.5774765014648,17.577075958252,17.5766716003418,17.5762748718262,17.5758743286133,17.5754776000977,17.5750770568848,17.5746765136719,17.574275970459,17.5738792419434,17.5734767913818
9.86168670654297,9.88489627838135,9.90821552276611,9.93164539337158,9.95518589019775,9.97883892059326,10.0026035308838,10.0264825820923,10.0504751205444,10.0745830535889,10.0988073348999,10.1231479644775,10.1476068496704,10.1721830368042,10.1968793869019,10.2216958999634,10.2466335296631,10.2716932296753,10.2968759536743,10.3221817016602,10.3476123809814,10.3731689453125,10.3988513946533,10.4246625900269,10.4621906280518,10.5036163330078,10.5453720092773,10.5874605178833,10.6298856735229,11.3163766860962,11.4829902648926,11.6309766769409,11.782826423645,11.9386940002441,12.0987405776978,12.2631359100342,12.4320611953735,13.4565658569336,14.4952983856201,14.5351123809814,14.5751457214355,14.6153993606567,14.6558771133423,14.6965789794922,14.7375078201294,14.7786645889282,14.8200531005859,14.8616733551025,14.903528213501,14.9456195831299,14.9879484176636,15.1846008300781,15.2125539779663,15.240611076355,15.2687711715698,16.4349975585938,16.5471687316895,16.6608791351318,16.7761650085449,16.8930549621582,17.0115871429443,17.0612964630127,17.0746326446533,17.0879878997803,17.1013641357422,17.1147613525391,17.1281795501709,17.1416187286377,17.1550788879395,17.1685600280762,17.1820621490479,17.1955871582031,17.2091312408447,17.2226982116699,17.2362861633301,17.2498950958252,17.2635269165039,17.2771797180176,17.2908535003662,17.4990615844727,17.498664855957,17.4982681274414,17.4978733062744,17.4974765777588,17.4970817565918,17.4966831207275,17.4962902069092,17.4958934783936,17.4954967498779,17.4951000213623,17.4947052001953,17.4943065643311,17.4939098358154,17.4935150146484,17.4931201934814,17.4927234649658,17.4923267364502,17.4919319152832,17.4915351867676,17.4911403656006,17.490743637085,17.4903507232666,17.4899520874023,17.4895572662354,17.4891624450684,17.4887657165527,17.4883689880371,17.4879741668701,17.4875755310059,17.4871807098389,17.4867858886719,17.4863910675049,17.4859943389893,17.4855995178223,17.4852046966553,17.4848098754883,17.4844131469727,17.484016418457,17.48362159729,17.483226776123,17.4828281402588,17.4824352264404,17.4820384979248,17.4816436767578,17.4812488555908,17.4808540344238,17.4804573059082,17.4800643920898,17.4796676635742,17.4792709350586,17.4788761138916,17.4784812927246,17.478084564209,17.4776878356934,17.477294921875,17.4768981933594,17.476505279541,17.4761085510254,17.4757137298584,17.4753170013428,17.4749240875244,17.4745292663574,17.4741344451904,17.4737377166748,17.4733409881592,17.4729480743408,17.4725532531738,17.4721584320068,17.4717617034912,17.4713687896729,17.4709720611572,17.4705791473389,17.4701824188232,17.4697895050049,17.4693927764893,17.4689960479736,17.4686031341553,17.4682064056396,17.4678134918213,17.4674167633057,17.4670257568359,17.4666290283203,17.4662342071533,17.4658393859863,17.4654445648193,17.4650497436523,17.4646549224854,17.464262008667,17.4638652801514,17.463472366333,17.4630756378174,17.462682723999,17.462287902832,17.461893081665,17.461498260498,17.4611034393311,17.4607105255127,17.4603157043457,17.4599227905273,17.4595241546631,17.4591312408447,17.4587364196777,17.4583415985107,17.457950592041,17.4575538635254,17.4571590423584,17.4567680358887,17.4563694000244,17.4559764862061,17.4555835723877,17.4551906585693,17.4547939300537,17.4543991088867,17.4540061950684,17.4536113739014,17.453218460083,17.4528198242188,17.4524307250977,17.4520359039307,17.451639175415,17.451244354248,17.4508533477783,17.4504585266113,17.450065612793,17.4496688842773,17.449275970459,17.4488830566406,17.448486328125,17.4480953216553,17.4477005004883,17.4473075866699,17.4469127655029,17.4465198516846,17.4461250305176,17.4457321166992,17.4453372955322,17.4449424743652,17.4445476531982,17.4441547393799,17.4437618255615,17.4433689117432,17.4429740905762,17.4425811767578,17.4421882629395,17.4417934417725,17.4414024353027,17.4410057067871,17.4406127929688,17.4402198791504,17.4398231506348,17.4394302368164,17.439037322998,17.4386463165283,17.4382495880127,17.4378604888916,17.437463760376,17.4370727539062,17.4366779327393,17.4362850189209,17.4358901977539,17.4354953765869,17.4351024627686,17.4347095489502,17.4343185424805,17.4339237213135,17.4335327148438,17.4331359863281,17.4327430725098,17.43235206604,17.4319591522217,17.4315643310547,17.4311714172363,17.4307765960693,17.4303855895996,17.4299926757812,17.4295978546143,17.4292068481445,17.4288120269775,17.4284210205078,17.4280261993408,17.4276332855225,17.4272403717041,17.4268474578857,17.4264545440674,17.426061630249,17.4256687164307,17.4252738952637,17.4248847961426,17.424488067627,17.4240970611572,17.4237060546875,17.4233112335205,17.4229183197021,17.4225273132324,17.4221324920654,17.4217414855957,17.4213466644287,17.4209537506104,17.420560836792,17.4201698303223,17.4197769165039,17.4193859100342,17.4189929962158,17.4185981750488,17.4182071685791,17.4178142547607,17.4174213409424,17.417028427124,17.4166374206543,17.4162425994873,17.4158496856689,17.4154567718506,17.4150657653809,17.4146747589111,17.4142799377441,17.413890838623,17.4134960174561,17.4131050109863
9.83804416656494,9.8611421585083,9.88434982299805,9.90766620635986,9.93109321594238,9.95463180541992,9.97828197479248,10.0020437240601,10.0259199142456,10.0499105453491,10.0740156173706,10.0982370376587,10.1225748062134,10.1470308303833,10.1716051101685,10.1962985992432,10.2211112976074,10.2460460662842,10.2711029052734,10.2962827682495,10.3215856552124,10.3470134735107,10.3725671768188,10.3982467651367,10.424054145813,10.449990272522,10.4811840057373,10.5227603912354,10.5646686553955,10.6069116592407,10.9317646026611,11.2875871658325,11.4305486679077,11.5771770477295,11.7276163101196,11.8820171356201,12.0405378341675,12.2033452987671,12.3706159591675,12.9713659286499,14.1011304855347,14.4386768341064,14.4781799316406,14.5178995132446,14.5578384399414,14.597996711731,14.6383771896362,14.6789817810059,14.7198123931885,14.7608709335327,14.8021593093872,14.8436794281006,14.8854322433472,14.9274215698242,14.9696474075317,15.012113571167,15.2275848388672,15.2556972503662,15.2839136123657,15.3122339248657,16.6735744476318,16.7890357971191,16.9061088562012,17.0248241424561,17.1053123474121,17.1187152862549,17.1321411132812,17.1455860137939,17.1590518951416,17.1725406646729,17.1860485076904,17.1995792388916,17.2131309509277,17.2267036437988,17.2402992248535,17.2539138793945,17.2675514221191,17.2812099456787,17.2948913574219,17.30859375,17.3396492004395,17.3392601013184,17.3388710021973,17.3384819030762,17.3380908966064,17.337703704834,17.3373126983643,17.3369255065918,17.3365364074707,17.3361473083496,17.3357582092285,17.3353691101074,17.3349800109863,17.3345928192139,17.3342018127441,17.333812713623,17.3334255218506,17.3330345153809,17.3326473236084,17.3322582244873,17.3318710327148,17.3314819335938,17.3310928344727,17.3307037353516,17.3303165435791,17.329927444458,17.3295383453369,17.3291492462158,17.3287620544434,17.3283710479736,17.3279838562012,17.3275966644287,17.3272037506104,17.3268184661865,17.3264293670654,17.3260402679443,17.3256530761719,17.3252658843994,17.3248767852783,17.3244876861572,17.3240985870361,17.3237113952637,17.3233222961426,17.3229312896729,17.322546005249,17.3221588134766,17.3217697143555,17.3213806152344,17.3209934234619,17.3206043243408,17.3202171325684,17.3198280334473,17.3194408416748,17.3190517425537,17.3186626434326,17.3182773590088,17.3178882598877,17.3174991607666,17.3171119689941,17.3167247772217,17.316333770752,17.3159484863281,17.315559387207,17.3151721954346,17.3147830963135,17.3143939971924,17.3140087127686,17.3136196136475,17.313232421875,17.3128433227539,17.3124561309814,17.312068939209,17.3116817474365,17.3112926483154,17.310905456543,17.3105182647705,17.3101272583008,17.309741973877,17.3093547821045,17.308967590332,17.3085784912109,17.3081912994385,17.3078022003174,17.3074169158936,17.3070278167725,17.306640625,17.3062553405762,17.3058681488037,17.3054790496826,17.3050899505615,17.3047027587891,17.304313659668,17.3039302825928,17.3035373687744,17.3031520843506,17.3027648925781,17.3023777008057,17.3019905090332,17.3016052246094,17.3012161254883,17.3008308410645,17.3004417419434,17.3000526428223,17.2996692657471,17.2992782592773,17.2988929748535,17.2985057830811,17.2981185913086,17.2977294921875,17.2973461151123,17.2969551086426,17.2965698242188,17.2961826324463,17.2957935333252,17.29541015625,17.2950210571289,17.2946338653564,17.294246673584,17.2938594818115,17.2934722900391,17.2930870056152,17.2926998138428,17.2923107147217,17.2919235229492,17.2915382385254,17.2911510467529,17.2907638549805,17.2903785705566,17.2899913787842,17.2896022796631,17.2892150878906,17.2888317108154,17.288444519043,17.2880573272705,17.287670135498,17.2872848510742,17.2868957519531,17.2865104675293,17.2861232757568,17.2857360839844,17.2853527069092,17.2849636077881,17.2845764160156,17.2841892242432,17.2838039398193,17.2834167480469,17.283031463623,17.282642364502,17.2822589874268,17.2818717956543,17.2814846038818,17.281099319458,17.2807102203369,17.2803249359131,17.2799396514893,17.2795524597168,17.2791633605957,17.2787799835205,17.2783946990967,17.2780094146729,17.2776203155518,17.2772331237793,17.2768497467041,17.276460647583,17.2760772705078,17.2756881713867,17.2753028869629,17.2749156951904,17.2745323181152,17.2741451263428,17.2737579345703,17.2733726501465,17.2729873657227,17.2726001739502,17.2722129821777,17.2718276977539,17.2714424133301,17.2710571289062,17.2706680297852,17.27028465271,17.2698974609375,17.269510269165,17.2691268920898,17.2687397003174,17.2683525085449,17.2679710388184,17.2675819396973,17.2671947479248,17.2668113708496,17.2664241790771,17.266040802002,17.2656555175781,17.2652702331543,17.2648830413818,17.264497756958,17.2641105651855,17.2637271881104,17.2633399963379,17.2629547119141,17.2625675201416,17.2621822357178,17.2617969512939,17.2614116668701,17.2610263824463,17.2606410980225,17.2602558135986,17.2598705291748,17.2594871520996,17.2590980529785,17.2587127685547,17.2583293914795,17.257942199707,17.2575569152832,17.2571716308594,17.2567863464355,17.2564010620117,17.2560157775879,17.2556304931641
9.81451416015625,9.83750247955322,9.86059856414795,9.88380336761475,9.90711688995361,9.9305419921875,9.95407772064209,9.9777250289917,10.0014848709106,10.0253582000732,10.0493450164795,10.0734481811523,10.0976667404175,10.1220016479492,10.1464548110962,10.1710262298584,10.1957168579102,10.2205276489258,10.2454595565796,10.2705125808716,10.2956895828247,10.3209896087646,10.34641456604,10.3719654083252,10.3976421356201,10.4234466552734,10.4493799209595,10.4754419326782,10.5016345977783,10.541974067688,10.5840358734131,10.6264333724976,11.0987234115601,11.2369108200073,11.3785829544067,11.5238733291626,11.6729211807251,11.8258762359619,11.982892036438,12.1441335678101,12.3097743988037,12.5199384689331,13.5692548751831,14.3435134887695,14.3824968338013,14.4216918945312,14.4611024856567,14.5007276535034,14.5405721664429,14.5806350708008,14.6209192276001,14.6614274978638,14.7021608352661,14.7431201934814,14.784309387207,14.8257284164429,14.8673810958862,14.9092674255371,14.9513912200928,14.9937543869019,15.2426452636719,15.2708129882812,15.2990856170654,15.3274621963501,15.3559446334839,15.3845338821411,17.0380821228027,17.1495552062988,17.163028717041,17.1765232086182,17.1873168945312,17.1869354248047,17.1865520477295,17.1861686706543,17.1857872009277,17.1854038238525,17.185022354126,17.1846408843994,17.1842575073242,17.1838779449463,17.1834945678711,17.1831111907959,17.1827297210693,17.1823501586914,17.1819667816162,17.181583404541,17.1812019348145,17.1808204650879,17.18044090271,17.1800575256348,17.1796760559082,17.179292678833,17.1789093017578,17.1785297393799,17.1781482696533,17.1777648925781,17.1773853302002,17.1770000457764,17.1766166687012,17.1762390136719,17.1758556365967,17.1754760742188,17.1750926971436,17.174711227417,17.1743297576904,17.1739501953125,17.1735649108887,17.1731872558594,17.1728038787842,17.172420501709,17.1720390319824,17.1716575622559,17.1712760925293,17.1708946228027,17.1705150604248,17.1701335906982,17.1697521209717,17.1693706512451,17.1689891815186,17.168607711792,17.1682262420654,17.1678447723389,17.1674633026123,17.1670818328857,17.1667003631592,17.1663208007812,17.1659355163574,17.1655578613281,17.1651744842529,17.1647930145264,17.1644115447998,17.1640319824219,17.1636505126953,17.1632690429688,17.1628856658936,17.1625061035156,17.1621246337891,17.1617431640625,17.1613636016846,17.160982131958,17.1606006622314,17.1602191925049,17.159839630127,17.1594581604004,17.1590766906738,17.1586952209473,17.1583118438721,17.1579341888428,17.1575508117676,17.1571712493896,17.1567897796631,17.1564102172852,17.1560287475586,17.155647277832,17.1552658081055,17.1548862457275,17.1545066833496,17.154125213623,17.1537437438965,17.1533622741699,17.1529808044434,17.1526012420654,17.1522197723389,17.1518402099609,17.151460647583,17.1510772705078,17.1506996154785,17.1503162384033,17.1499366760254,17.1495571136475,17.1491756439209,17.1487941741943,17.1484146118164,17.1480331420898,17.1476535797119,17.1472759246826,17.1468925476074,17.1465110778809,17.1461315155029,17.145751953125,17.1453704833984,17.1449909210205,17.1446094512939,17.1442279815674,17.1438484191895,17.1434688568115,17.143087387085,17.1427059173584,17.1423301696777,17.1419467926025,17.1415672302246,17.1411876678467,17.1408061981201,17.1404247283936,17.1400470733643,17.1396656036377,17.1392841339111,17.1389064788818,17.1385250091553,17.138147354126,17.1377658843994,17.1373882293701,17.1370067596436,17.1366291046143,17.1362476348877,17.1358680725098,17.1354866027832,17.1351070404053,17.1347255706787,17.1343479156494,17.1339683532715,17.1335868835449,17.133207321167,17.1328258514404,17.1324501037598,17.1320686340332,17.1316890716553,17.1313095092773,17.1309299468994,17.1305484771729,17.1301670074463,17.129789352417,17.1294078826904,17.1290321350098,17.1286487579346,17.1282711029053,17.1278915405273,17.1275119781494,17.1271324157715,17.1267547607422,17.126371383667,17.1259937286377,17.1256160736084,17.1252326965332,17.1248569488525,17.1244735717773,17.124095916748,17.1237144470215,17.1233367919922,17.1229572296143,17.1225776672363,17.122200012207,17.1218204498291,17.1214408874512,17.1210594177246,17.1206836700439,17.1203022003174,17.1199226379395,17.1195430755615,17.1191654205322,17.1187839508057,17.118408203125,17.1180267333984,17.1176490783691,17.1172676086426,17.1168880462646,17.116512298584,17.1161289215088,17.1157531738281,17.1153736114502,17.1149940490723,17.1146144866943,17.114236831665,17.1138553619385,17.1134777069092,17.1131000518799,17.112720489502,17.112340927124,17.1119613647461,17.1115837097168,17.1112041473389,17.1108264923096,17.1104469299316,17.1100692749023,17.1096897125244,17.1093101501465,17.1089305877686,17.1085529327393,17.10817527771,17.107795715332,17.1074161529541,17.1070365905762,17.1066589355469,17.1062812805176,17.1059017181396,17.1055240631104,17.1051445007324,17.1047649383545,17.1043872833252,17.1040096282959,17.1036319732666,17.1032524108887,17.1028728485107,17.1024951934814,17.1021156311035,17.1017379760742,17.1013603210449,17.100980758667
