7.0135293006897,7.01798486709595,7.02244567871094,7.02691221237183,7.03138446807861,7.0358624458313,7.04034566879272,7.04483509063721,7.04933023452759,7.05383110046387,7.05833768844604,7.06284999847412,7.06736850738525,7.07189226150513,7.0764217376709,7.08095741271973,7.08549880981445,7.09004592895508,7.0945987701416,7.09915781021118,7.1037220954895,7.10829305648804,7.11286926269531,7.11745166778564,7.12203979492188,7.12663412094116,7.13123416900635,7.13584041595459,7.14045238494873,7.14507055282593,7.14969444274902,7.15432453155518,7.15896034240723,7.16360235214233,7.16825008392334,7.1729040145874,7.17756414413452,7.1822304725647,7.18690252304077,7.1915807723999,7.19626522064209,7.20095586776733,7.20565223693848,7.21035480499268,7.21506404876709,7.2197790145874,7.22450017929077,7.2292275428772,7.23396110534668,7.23870086669922,7.24344682693481,7.24819898605347,7.25295734405518,7.25772190093994,7.26249313354492,7.2672700881958,7.27205371856689,7.27684354782104,7.28163957595825,7.28644227981567,7.29125118255615,7.29606628417969,7.30088758468628,7.30571556091309,7.31054973602295,7.31539058685303,7.32023763656616,7.32509136199951,7.32995128631592,7.33481740951538,7.33969068527222,7.34456968307495,7.34945583343506,7.35434818267822,7.3592472076416,7.36415243148804,7.36906433105469,7.37398290634155,7.37890815734863,7.38383960723877,7.38877773284912,7.39372301101685,7.39867448806763,7.40363264083862,7.40859746932983,7.4135684967041,7.41854667663574,7.4235315322876,7.42852306365967,7.43352127075195,7.43852615356445,7.44353818893433,7.44855642318726,7.45358180999756,7.45861387252808,7.46365261077881,7.46869850158691,7.47375059127808,7.47881031036377,7.48387622833252,7.48894929885864,7.49402904510498,7.49911594390869,7.50420951843262,7.50931024551392,7.51441764831543,7.51953220367432,7.52465391159058,7.52978229522705,7.5349178314209,7.54006052017212,7.54520988464355,7.55036640167236,7.55553007125854,7.5607008934021,7.56587839126587,7.57106351852417,7.57625532150269,7.58145427703857,7.58666038513184,7.59187412261963,7.59709453582764,7.60232210159302,7.60697555541992,7.61127519607544,7.6155800819397,7.61988925933838,7.6242036819458,7.62852334976196,7.63284730911255,7.63717651367188,7.64151048660278,7.64584922790527,7.65285873413086,7.66725444793701,7.6813383102417,7.68900632858276,7.69668960571289,7.70438861846924,7.71210289001465,7.71983242034912,7.72757720947266,7.73533821105957,7.74311447143555,7.75090646743774,7.758713722229,7.76653718948364,7.7743763923645,7.78223133087158,7.79010248184204,7.79798936843872,7.80589199066162,7.8138108253479,7.82174587249756,7.8296971321106,7.83766412734985,7.84564781188965,7.85364770889282,7.86166381835938,7.86969614028931,7.87774467468262,7.88581037521362,7.89389228820801,7.90199089050293,7.91010570526123,7.91823768615723,7.9263858795166,7.93455171585083,7.94273376464844,7.95093297958374,7.95914888381958,7.96738195419312,7.97563219070435,7.98389911651611,7.99218368530273,8.00048542022705,8.00880432128906,8.01714038848877,8.02549362182617,8.03386402130127,8.04225254058838,8.05065822601318,8.05908203125,8.06752300262451,8.07598209381104,8.08445930480957,8.0929536819458,8.10146617889404,8.10999584197998,8.11854457855225,8.12711048126221,8.13569450378418,8.14429759979248,8.15291786193848,8.1615571975708,8.17021465301514,8.17889022827148,8.18758392333984,8.19629669189453,8.20502853393555,8.21377849578857,8.22254657745361,8.23133373260498,8.24013996124268,8.24896430969238,8.25780868530273,8.2666711807251,8.27555370330811,8.28445434570312,8.29337406158447,8.30231380462646,8.31127262115479,8.32025051116943,8.32924747467041,8.33826541900635,8.3473014831543,8.35635757446289,8.36543369293213,8.3745288848877,8.38364410400391,8.39277935028076,8.40193462371826,8.41110992431641,8.42030429840088,8.42951965332031,8.43875503540039,8.44801139831543,8.4572868347168,8.46658325195312,8.47590065002441,8.48523807525635,8.49459552764893,8.50397396087646,8.51337432861328,8.52279472351074,8.53223514556885,8.54169750213623,8.55118083953857,8.56068420410156,8.57020950317383,8.57975578308105,8.58932399749756,8.59891319274902,8.60852336883545,8.61815547943115,8.62780952453613,8.63748455047607,8.64718151092529,8.65690040588379,8.66664123535156,8.67640399932861,8.68618869781494,8.69599533081055,8.70582485198975,8.71567535400391,8.72554874420166,8.73544502258301,8.74536323547363,8.75530433654785,8.76526737213135,8.77525424957275,8.78526306152344,8.79529476165771,8.80534934997559,8.81542778015137,8.82552814483643,8.83565235137939,8.84580039978027,8.85597038269043,8.8661642074585,8.87638187408447,8.88662338256836,8.89688873291016,8.90717697143555,8.91748905181885,8.92782592773438,8.9381856918335,8.94857025146484,8.9589786529541,8.96941184997559,8.97986888885498,8.99423122406006,9.00921726226807,9.02425289154053,9.03933906555176,9.05447578430176,9.06966304779053,9.08490085601807,9.10019016265869,9.11553192138672,9.13092422485352,9.14636993408203,9.16186714172363,9.17741680145264,9.19301986694336,9.20867538452148,9.22438526153564,9.24014854431152,9.25596523284912,9.27183628082275,9.28776168823242,9.30374240875244,9.31977844238281,9.33586978912354,9.35201644897461,9.36821842193604,9.38447761535645,9.40079307556152,9.41716575622559,9.43359470367432,9.45008182525635,9.46662616729736,9.48322868347168,9.4998893737793,9.51660919189453,9.53338813781738,9.55022525787354,9.56712341308594,9.58133697509766,9.5950231552124,9.60874843597412,9.62251377105713,9.63631820678711,9.65016174316406
6.99912786483765,7.00356483459473,7.00800752639771,7.01245594024658,7.0169095993042,7.02136898040771,7.02583408355713,7.0303053855896,7.03478193283081,7.03926372528076,7.04375171661377,7.04824590682983,7.05274486541748,7.05725049972534,7.06176137924194,7.06627798080444,7.07080030441284,7.0753288269043,7.07986307144165,7.0844030380249,7.08894872665405,7.0935001373291,7.09805774688721,7.10262107849121,7.10719013214111,7.11176490783691,7.11634588241577,7.12093257904053,7.12552547454834,7.13012409210205,7.13472890853882,7.13933944702148,7.14395618438721,7.14857864379883,7.15320682525635,7.15784168243408,7.16248226165771,7.16712856292725,7.17178106307983,7.17643976211548,7.18110418319702,7.18577527999878,7.19045209884644,7.19513463973999,7.19982385635376,7.20451879501343,7.20921993255615,7.21392774581909,7.21864128112793,7.22336053848267,7.22808647155762,7.23281860351562,7.23755693435669,7.24230146408081,7.24705219268799,7.25180912017822,7.25657224655151,7.26134157180786,7.26611757278442,7.27089929580688,7.27568769454956,7.28048229217529,7.28528356552124,7.29009056091309,7.29490423202515,7.29972410202026,7.3045506477356,7.30938339233398,7.31422233581543,7.31906795501709,7.32392024993896,7.32877826690674,7.33364343643188,7.33851480484009,7.34339237213135,7.34827661514282,7.35316753387451,7.35806465148926,7.36296844482422,7.36787891387939,7.37279605865479,7.37771940231323,7.38264942169189,7.38758611679077,7.39252948760986,7.39747953414917,7.40243625640869,7.40739917755127,7.41236925125122,7.41734552383423,7.42232894897461,7.42731857299805,7.43231534957886,7.43731880187988,7.44232892990112,7.44734525680542,7.45236921310425,7.45739936828613,7.46243667602539,7.46748065948486,7.47253131866455,7.47758913040161,7.48265361785889,7.48772525787354,7.4928035736084,7.49788856506348,7.50298023223877,7.50807952880859,7.51318550109863,7.51829814910889,7.52341794967651,7.52854490280151,7.53367853164673,7.53881931304932,7.54396724700928,7.54912185668945,7.55428409576416,7.55945301055908,7.56462907791138,7.56981229782104,7.57500219345093,7.58019971847534,7.58540439605713,7.59061574935913,7.59583473205566,7.60106086730957,7.60629367828369,7.61153411865234,7.61678171157837,7.62203693389893,7.62727928161621,7.63160228729248,7.63592958450317,7.64026212692261,7.65183782577515,7.65944719314575,7.66707134246826,7.67471075057983,7.68236541748047,7.69003582000732,7.69772100448608,7.70542192459106,7.71313810348511,7.72087001800537,7.7286171913147,7.73637962341309,7.74415826797485,7.75195217132568,7.75976228713989,7.76758766174316,7.77542877197266,7.78328609466553,7.79115867614746,7.79904794692993,7.80695295333862,7.81487369537354,7.82281112670898,7.83076477050781,7.83873414993286,7.84671926498413,7.8547215461731,7.86273956298828,7.87077474594116,7.87882566452026,7.8868932723999,7.89497709274292,7.90307760238647,7.91119527816772,7.91932916641235,7.92748022079468,7.93564796447754,7.94383239746094,7.95203351974487,7.9602518081665,7.96848726272583,7.97673988342285,7.98500919342041,7.99329566955566,8.00159931182861,8.00992107391357,8.01825904846191,8.02661514282227,8.03498840332031,8.04337882995605,8.05178737640381,8.06021308898926,8.06865692138672,8.07711791992188,8.08559703826904,8.09409427642822,8.1026086807251,8.11114120483398,8.11969184875488,8.12826061248779,8.13684749603271,8.14545249938965,8.15407562255859,8.16271686553955,8.17137718200684,8.18005466461182,8.18875122070312,8.19746685028076,8.20620059967041,8.21495246887207,8.22372341156006,8.23251342773438,8.2413215637207,8.25014972686768,8.25899600982666,8.26786136627197,8.27674579620361,8.28564929962158,8.29457187652588,8.3035135269165,8.31247520446777,8.32145595550537,8.3304557800293,8.33947563171387,8.34851455688477,8.35757350921631,8.36665153503418,8.3757495880127,8.38486766815186,8.39400577545166,8.40316390991211,8.41234111785889,8.42153930664062,8.43075752258301,8.43999481201172,8.44925403594971,8.45853233337402,8.4678316116333,8.47715187072754,8.48649120330811,8.49585247039795,8.50523376464844,8.51463603973389,8.52405834197998,8.53350257873535,8.54296779632568,8.55245399475098,8.56196022033691,8.57148838043213,8.58103847503662,8.59060859680176,8.60020065307617,8.60981369018555,8.6194486618042,8.62910556793213,8.63878345489502,8.6484842300415,8.65820503234863,8.66794967651367,8.67771434783936,8.68750286102295,8.6973123550415,8.70714378356934,8.71699810028076,8.72687435150146,8.73677349090576,8.74669456481934,8.75663948059082,8.76660537719727,8.77659511566162,8.78660678863525,8.7966423034668,8.80669975280762,8.81678104400635,8.82688522338867,8.83701229095459,8.8471622467041,8.85733604431152,8.86753368377686,8.87775421142578,8.88799858093262,8.89826679229736,8.9085578918457,8.91887378692627,8.92921352386475,8.93957710266113,8.94996452331543,8.96037673950195,8.97367477416992,8.98859214782715,9.00355911254883,9.01857566833496,9.03364276885986,9.04876041412354,9.06392860412598,9.07914733886719,9.09441757202148,9.10973930358887,9.12511253356934,9.14053726196289,9.15601539611816,9.17154502868652,9.1871280670166,9.2027645111084,9.2184534072876,9.23419570922852,9.24999237060547,9.26584339141846,9.28174877166748,9.29770851135254,9.31372356414795,9.32979393005371,9.34591960906982,9.36210060119629,9.37833881378174,9.39463233947754,9.41098308563232,9.42739105224609,9.44385623931885,9.46037864685059,9.47696018218994,9.49359893798828,9.51029586791992,9.52705192565918,9.5430383682251,9.55661582946777,9.57023143768311,9.58388614654541,9.59757995605469,9.61131286621094
6.98478555679321,6.98920440673828,6.99362897872925,6.99805879592896,7.00249433517456,7.00693559646606,7.01138210296631,7.01583480834961,7.02029275894165,7.02475690841675,7.02922630310059,7.03370141983032,7.03818225860596,7.04266881942749,7.04716110229492,7.05165910720825,7.05616331100464,7.06067276000977,7.06518793106079,7.06970930099487,7.0742359161377,7.07876873016357,7.08330726623535,7.08785152435303,7.09240198135376,7.09695768356323,7.10151958465576,7.10608720779419,7.11066102981567,7.11524057388306,7.11982583999634,7.12441730499268,7.12901449203491,7.13361787796021,7.1382269859314,7.14284181594849,7.14746332168579,7.15209007263184,7.15672302246094,7.1613621711731,7.16600751876831,7.17065858840942,7.17531538009644,7.17997884750366,7.18464803695679,7.18932342529297,7.19400501251221,7.19869232177734,7.20338582992554,7.20808553695679,7.21279144287109,7.21750354766846,7.22222185134888,7.22694635391235,7.23167705535889,7.23641347885132,7.24115657806396,7.24590587615967,7.25066137313843,7.25542306900024,7.26019096374512,7.26496505737305,7.26974534988403,7.27453231811523,7.27932548522949,7.28412485122681,7.28893041610718,7.29374265670776,7.29856109619141,7.30338621139526,7.30821704864502,7.31305456161499,7.31789875030518,7.32274913787842,7.32760620117188,7.33246946334839,7.33733940124512,7.3422155380249,7.34709787368774,7.35198736190796,7.35688304901123,7.36178541183472,7.36669397354126,7.37160968780518,7.37653112411499,7.38145971298218,7.38639497756958,7.39133644104004,7.39628505706787,7.40123987197876,7.40620136260986,7.41116952896118,7.41614437103271,7.42112636566162,7.42611455917358,7.43110942840576,7.43611097335815,7.44111967086792,7.4461350440979,7.4511570930481,7.45618581771851,7.46122121810913,7.46626377105713,7.47131252288818,7.47636842727661,7.48143148422241,7.48650121688843,7.49157762527466,7.49666118621826,7.50175142288208,7.50684881210327,7.51195335388184,7.51706457138062,7.52218246459961,7.52730751037598,7.53243970870972,7.53757905960083,7.54272508621216,7.54787826538086,7.55303812026978,7.55820560455322,7.56337976455688,7.56856155395508,7.57375001907349,7.57894563674927,7.58414840698242,7.58935832977295,7.59457540512085,7.59979963302612,7.60503101348877,7.61026954650879,7.61551570892334,7.62076854705811,7.6260290145874,7.63129663467407,7.63529634475708,7.64526128768921,7.65285730361938,7.66046857833862,7.66809511184692,7.67573642730713,7.6833930015564,7.69106531143188,7.69875288009644,7.70645570755005,7.71417427062988,7.72190761566162,7.72965669631958,7.73742198944092,7.74520254135132,7.75299882888794,7.76081037521362,7.76863813400269,7.77648162841797,7.78434085845947,7.7922158241272,7.8001070022583,7.80801439285278,7.81593751907349,7.82387685775757,7.83183193206787,7.83980321884155,7.84779167175293,7.85579538345337,7.86381578445435,7.87185287475586,7.87990617752075,7.88797616958618,7.89606237411499,7.90416526794434,7.91228485107422,7.9204216003418,7.92857456207275,7.93674468994141,7.94493103027344,7.95313453674316,7.96135568618774,7.9695930480957,7.97784757614136,7.98611927032471,7.99440813064575,8.00271415710449,8.01103782653809,8.01937866210938,8.02773666381836,8.03611278533936,8.04450607299805,8.05291652679443,8.06134510040283,8.06979084014893,8.07825374603271,8.08673572540283,8.09523487091064,8.10375213623047,8.11228656768799,8.12084007263184,8.12941074371338,8.13800048828125,8.14660739898682,8.15523338317871,8.16387748718262,8.17253971099854,8.18122005462646,8.18991947174072,8.19863700866699,8.20737266540527,8.21612739562988,8.22490119934082,8.23369407653809,8.24250507354736,8.25133514404297,8.26018333435059,8.26905155181885,8.27793884277344,8.28684520721436,8.2957706451416,8.30471420288086,8.31367874145508,8.32266139984131,8.33166408538818,8.3406867980957,8.34972858428955,8.35878944396973,8.36787033081055,8.37697124481201,8.38609218597412,8.39523315429688,8.40439319610596,8.41357326507568,8.42277431488037,8.43199443817139,8.44123554229736,8.45049667358398,8.45977878570557,8.46907997131348,8.47840213775635,8.48774528503418,8.49710941314697,8.50649356842041,8.51589870452881,8.52532386779785,8.53477096557617,8.54423809051514,8.55372714996338,8.56323719024658,8.57276821136475,8.58232021331787,8.59189319610596,8.60148811340332,8.61110496520996,8.62074279785156,8.63040161132812,8.64008331298828,8.6497859954834,8.65951061248779,8.66925716400146,8.67902565002441,8.68881702423096,8.69862937927246,8.70846462249756,8.71832180023193,8.72820091247559,8.73810291290283,8.74802684783936,8.75797462463379,8.76794338226318,8.77793598175049,8.78795146942139,8.79798889160156,8.80805015563965,8.81813430786133,8.8282413482666,8.83837127685547,8.84852504730225,8.85870170593262,8.86890316009521,8.87912654876709,8.88937377929688,8.89964580535889,8.90994071960449,8.92025947570801,8.93060207366943,8.94096851348877,8.95321178436279,8.96806144714355,8.98295974731445,8.9979076385498,9.01290607452393,9.0279541015625,9.04305171966553,9.05820083618164,9.07340049743652,9.08865165710449,9.10395431518555,9.11930751800537,9.1347131729126,9.15017127990723,9.16568088531494,9.18124389648438,9.19686031341553,9.21252918243408,9.22825145721436,9.24402809143066,9.25985813140869,9.27574253082275,9.29168224334717,9.30767631530762,9.32372570037842,9.33983039855957,9.35599040985107,9.37220668792725,9.3884801864624,9.40480899810791,9.42119598388672,9.4376392364502,9.45413970947266,9.47069835662842,9.48731517791748,9.50399112701416,0,0,0,0,0
6.97050189971924,6.97490262985229,6.97930908203125,6.98372077941895,6.98813819885254,6.99256134033203,6.99698972702026,7.00142383575439,7.00586366653442,7.01030921936035,7.01476049423218,7.01921701431274,7.02367973327637,7.02814769744873,7.03262138366699,7.03710126876831,7.04158639907837,7.04607725143433,7.05057382583618,7.05507659912109,7.05958461761475,7.0640983581543,7.0686182975769,7.07314348220825,7.07767486572266,7.08221197128296,7.08675479888916,7.09130382537842,7.09585857391357,7.10041904449463,7.10498523712158,7.10955762863159,7.11413526535034,7.11871957778931,7.12330913543701,7.12790536880493,7.13250684738159,7.13711452484131,7.14172840118408,7.14634799957275,7.15097379684448,7.15560531616211,7.16024303436279,7.16488647460938,7.16953611373901,7.17419147491455,7.1788535118103,7.18352127075195,7.18819522857666,7.19287490844727,7.19756126403809,7.2022533416748,7.20695161819458,7.21165609359741,7.2163667678833,7.22108316421509,7.22580623626709,7.23053550720215,7.23527050018311,7.24001216888428,7.24475955963135,7.24951362609863,7.25427389144897,7.25904035568237,7.26381301879883,7.26859188079834,7.27337741851807,7.27816867828369,7.28296661376953,7.28777074813843,7.29258155822754,7.29739856719971,7.30222177505493,7.30705118179321,7.31188726425171,7.31673002243042,7.32157850265503,7.32643413543701,7.33129596710205,7.33616399765015,7.34103870391846,7.34591960906982,7.35080766677856,7.3557014465332,7.36060237884521,7.36550951004028,7.37042331695557,7.37534379959106,7.38027048110962,7.38520431518555,7.39014434814453,7.39509105682373,7.40004444122314,7.40500402450562,7.40997076034546,7.41494417190552,7.41992425918579,7.42491054534912,7.42990398406982,7.43490409851074,7.43991088867188,7.44492483139038,7.44994497299194,7.45497226715088,7.46000576019287,7.46504688262939,7.47009420394897,7.47514867782593,7.4802098274231,7.48527765274048,7.49035263061523,7.49543476104736,7.50052356719971,7.50561904907227,7.5107216835022,7.51583099365234,7.52094745635986,7.5260705947876,7.53120136260986,7.53633880615234,7.54148292541504,7.54663467407227,7.55179309844971,7.55695867538452,7.56213140487671,7.56731081008911,7.57249784469604,7.57769155502319,7.58289289474487,7.58810091018677,7.59331607818604,7.59853887557983,7.60376834869385,7.60900545120239,7.61424970626831,7.6195011138916,7.62475967407227,7.62825918197632,7.63145732879639,7.6401891708374,7.65387725830078,7.66149044036865,7.66911888122559,7.67676258087158,7.68442106246948,7.6920952796936,7.69978475570679,7.70748996734619,7.71521043777466,7.72294616699219,7.73069763183594,7.73846435546875,7.74624681472778,7.7540454864502,7.76185941696167,7.76968908309937,7.77753448486328,7.78539609909058,7.79327344894409,7.80116653442383,7.80907535552979,7.81700086593628,7.82494258880615,7.83290004730225,7.84087371826172,7.84886407852173,7.85687017440796,7.86489295959473,7.87293195724487,7.88098764419556,7.88905954360962,7.89714813232422,7.90525341033936,7.91337490081787,7.92151355743408,7.92966890335083,7.93784093856812,7.9460301399231,7.95423603057861,7.96245861053467,7.97069883346558,7.97895574569702,7.98722982406616,7.995521068573,8.00382900238037,8.01215553283691,8.02049827575684,8.02885913848877,8.03723621368408,8.04563236236572,8.05404567718506,8.06247615814209,8.07092380523682,8.07939052581787,8.08787441253662,8.09637546539307,8.10489559173584,8.11343288421631,8.12198829650879,8.13056182861328,8.13915348052979,8.1477632522583,8.15639114379883,8.16503810882568,8.17370223999023,8.18238544464111,8.19108772277832,8.19980716705322,8.20854568481445,8.21730327606201,8.2260799407959,8.2348747253418,8.24368762969971,8.25252056121826,8.26137161254883,8.27024269104004,8.27913188934326,8.28804111480713,8.29696846008301,8.30591583251953,8.31488227844238,8.32386779785156,8.33287334442139,8.34189796447754,8.35094261169434,8.36000633239746,8.36909008026123,8.37819290161133,8.38731670379639,8.39645957946777,8.4056224822998,8.4148063659668,8.42400932312012,8.4332332611084,8.44247627258301,8.45174026489258,8.46102428436279,8.47032928466797,8.47965431213379,8.48900032043457,8.498366355896,8.50775337219238,8.51716136932373,8.52658939361572,8.53603935241699,8.54550933837891,8.5550012588501,8.56451416015625,8.57404708862305,8.58360290527344,8.59317874908447,8.60277652740479,8.61239624023438,8.62203693389893,8.63169956207275,8.64138317108154,8.65108871459961,8.66081619262695,8.67056560516357,8.68033790588379,8.69013118743896,8.69994640350342,8.70978450775146,8.71964454650879,8.72952747344971,8.7394323348999,8.74936008453369,8.75930976867676,8.76928234100342,8.77927780151367,8.78929615020752,8.79933738708496,8.80940055847168,8.81948852539062,8.82959842681885,8.83973217010498,8.84988880157471,8.86006832122803,8.87027263641357,8.88049983978271,8.89074993133545,8.90102481842041,8.91132259368896,8.92164516448975,8.93284225463867,8.94762420654297,8.9624547958374,8.97733402252197,8.99226379394531,9.00724315643311,9.02227210998535,9.03735160827637,9.05248069763184,9.06766128540039,9.08289337158203,9.09817600250244,9.11351013183594,9.12889671325684,9.14433479309082,9.15982437133789,9.175368309021,9.19096374511719,9.2066125869751,9.22231483459473,9.23807048797607,9.25388050079346,9.26974487304688,9.28566360473633,9.30163669586182,9.31766510009766,9.33374881744385,0,0,0,0,0,0,0,0,0,0,0,0,0
6.95627641677856,6.96065902709961,6.96504735946655,6.96944141387939,6.97384071350098,6.97824573516846,6.98265600204468,6.9870719909668,6.99149370193481,6.99592113494873,7.00035381317139,7.0047926902771,7.00923633575439,7.01368618011475,7.018141746521,7.02260303497314,7.02706956863403,7.03154182434082,7.03602027893066,7.04050397872925,7.04499340057373,7.04948902130127,7.05398988723755,7.05849647521973,7.06300926208496,7.06752777099609,7.07205152511597,7.0765814781189,7.08111715316772,7.08565902709961,7.09020614624023,7.09475946426392,7.0993185043335,7.10388326644897,7.10845422744751,7.11303091049194,7.11761331558228,7.12220191955566,7.12679624557495,7.13139629364014,7.13600301742554,7.14061498641968,7.14523315429688,7.14985752105713,7.15448760986328,7.15912389755249,7.1637659072876,7.16841411590576,7.17306804656982,7.1777286529541,7.18239498138428,7.18706750869751,7.19174575805664,7.19643020629883,7.20112133026123,7.20581769943237,7.21052074432373,7.21522998809814,7.21994495391846,7.22466659545898,7.22939395904541,7.23412799835205,7.23886775970459,7.24361419677734,7.248366355896,7.25312519073486,7.25789022445679,7.26266145706177,7.2674388885498,7.2722225189209,7.27701234817505,7.28180885314941,7.28661155700684,7.29142045974731,7.29623603820801,7.30105781555176,7.30588579177856,7.31072044372559,7.31556129455566,7.32040882110596,7.32526254653931,7.33012247085571,7.33498907089233,7.33986234664917,7.34474182128906,7.34962797164917,7.35452079772949,7.35941982269287,7.36432552337646,7.36923742294312,7.37415647506714,7.37908172607422,7.38401365280151,7.38895177841187,7.39389705657959,7.39884901046753,7.40380716323853,7.40877246856689,7.41374397277832,7.41872215270996,7.42370748519897,7.42869901657104,7.43369770050049,7.43870306015015,7.44371461868286,7.44873332977295,7.45375871658325,7.45879125595093,7.46383047103882,7.46887636184692,7.47392892837524,7.47898864746094,7.48405504226685,7.48912811279297,7.49420833587646,7.49929523468018,7.50438928604126,7.50949001312256,7.51459789276123,7.51971292495728,7.52483463287354,7.52996301651001,7.53509902954102,7.54024171829224,7.54539155960083,7.55054807662964,7.55571222305298,7.56088304519653,7.56606101989746,7.57124614715576,7.57643842697144,7.58163785934448,7.58684396743774,7.59205770492554,7.5972785949707,7.60250663757324,7.60774183273315,7.61298418045044,7.61804533004761,7.62123489379883,7.62442684173584,7.6276216506958,7.63081932067871,7.65015649795532,7.66251230239868,7.67014312744141,7.67778825759888,7.68544912338257,7.69312572479248,7.70081758499146,7.70852422714233,7.71624660491943,7.72398471832275,7.73173809051514,7.73950719833374,7.74729204177856,7.75509214401245,7.76290845870972,7.77074003219604,7.77858781814575,7.78645133972168,7.79433059692383,7.80222606658936,7.81013774871826,7.81806516647339,7.82600879669189,7.83396816253662,7.84194421768188,7.84993648529053,7.85794496536255,7.86596965789795,7.87401151657104,7.88206911087036,7.89014339447021,7.89823389053345,7.90634155273438,7.91446542739868,7.92260646820068,7.93076372146606,7.93893814086914,7.94712924957275,7.95533752441406,7.96356296539307,7.97180509567261,7.98006391525269,7.98834085464478,7.99663400650024,8.00494480133057,8.01327323913574,8.02161884307861,8.02998161315918,8.03836154937744,8.04675960540771,8.05517482757568,8.06360816955566,8.07205867767334,8.08052635192871,8.08901309967041,8.0975170135498,8.10603904724121,8.11457920074463,8.12313652038574,8.13171291351318,8.14030647277832,8.14891910552979,8.15754985809326,8.16619873046875,8.17486572265625,8.18355178833008,8.19225597381592,8.20097827911377,8.20971870422363,8.21847915649414,8.22725772857666,8.23605537414551,8.24487113952637,8.25370597839355,8.26255989074707,8.27143383026123,8.2803258895874,8.2892370223999,8.29816722869873,8.30711650848389,8.31608581542969,8.32507419586182,8.33408260345459,8.34311008453369,8.35215663909912,8.3612232208252,8.37030982971191,8.37941551208496,8.38854217529297,8.39768695831299,8.40685367584229,8.41603946685791,8.42524528503418,8.43447113037109,8.44371700286865,8.45298385620117,8.46227073669434,8.47157859802246,8.48090648651123,8.49025535583496,8.49962425231934,8.50901317596436,8.51842403411865,8.52785587310791,8.53730773925781,8.54678153991699,8.55627536773682,8.56579113006592,8.57532787322998,8.584885597229,8.5944652557373,8.60406589508057,8.61368751525879,8.62333106994629,8.63299655914307,8.64268398284912,8.65239238739014,8.66212272644043,8.671875,8.68165016174316,8.69144630432129,8.70126438140869,8.71110534667969,8.72096920013428,8.73085403442383,8.74076271057129,8.75069236755371,8.76064586639404,8.77062129974365,8.78061962127686,8.79064083099365,8.80068588256836,8.81075286865234,8.82084274291992,8.83095550537109,8.84109306335449,8.85125255584717,8.86143589019775,8.87164211273193,8.88187313079834,8.89212703704834,8.90240383148193,8.91270542144775,8.92727947235107,8.94204235076904,8.95685482025146,8.97171592712402,8.98662662506104,9.0015869140625,9.01659679412842,9.03165721893311,9.04676818847656,9.06192970275879,9.07714176177979,9.09240531921387,9.10772037506104,9.12308692932129,9.13850498199463,9.15397548675537,0,0,0,0,0,0,0,0,0,0,0,0,0,0,0,0,0,0,0,0,0,0
6.94210910797119,6.94647407531738,6.95084428787231,6.95522022247314,6.95960187911987,6.96398878097534,6.96838092803955,6.97277927398682,6.97718286514282,6.98159170150757,6.98600673675537,6.99042701721191,6.9948525428772,6.99928426742554,7.00372123718262,7.0081639289856,7.01261234283447,7.01706647872925,7.02152633666992,7.02599191665649,7.03046274185181,7.03493976593018,7.03942203521729,7.04391002655029,7.04840421676636,7.05290365219116,7.05740928649902,7.06192016601562,7.06643724441528,7.07096004486084,7.07548856735229,7.08002281188965,7.0845627784729,7.08910894393921,7.09366083145142,7.09821844100952,7.10278177261353,7.10735130310059,7.11192655563354,7.1165075302124,7.12109470367432,7.12568759918213,7.13028621673584,7.13489103317261,7.13950204849243,7.14411878585815,7.14874172210693,7.15337038040161,7.15800476074219,7.16264581680298,7.16729211807251,7.17194509506226,7.1766037940979,7.1812686920166,7.18593978881836,7.19061660766602,7.19530010223389,7.19998931884766,7.20468425750732,7.20938587188721,7.21409368515015,7.21880722045898,7.22352695465088,7.22825336456299,7.232985496521,7.23772382736206,7.24246883392334,7.24721956253052,7.25197696685791,7.2567400932312,7.26150989532471,7.26628589630127,7.27106809616089,7.27585649490356,7.28065156936646,7.2854528427124,7.29026031494141,7.29507398605347,7.29989433288574,7.30472087860107,7.30955362319946,7.31439304351807,7.31923866271973,7.3240909576416,7.32894992828369,7.33381462097168,7.33868646621704,7.34356451034546,7.34844875335693,7.35334014892578,7.35823774337769,7.36314153671265,7.36805200576782,7.37296915054321,7.37789297103882,7.38282346725464,7.38776016235352,7.39270401000977,7.39765405654907,7.40261077880859,7.40757417678833,7.41254425048828,7.41752099990845,7.42250442504883,7.42749452590942,7.43249130249023,7.43749475479126,7.44250535964966,7.44752216339111,7.45254611968994,7.45757675170898,7.46261405944824,7.46765851974487,7.47270965576172,7.47776746749878,7.48283243179321,7.4879035949707,7.49298238754272,7.49806785583496,7.50315999984741,7.50825929641724,7.51336526870728,7.51847839355469,7.52359867095947,7.52872562408447,7.53385972976685,7.53900051116943,7.54414892196655,7.54930353164673,7.55446577072144,7.55963516235352,7.56481122970581,7.56999492645264,7.57518529891968,7.58038282394409,7.58558797836304,7.5907998085022,7.59601879119873,7.60124492645264,7.60647821426392,7.61103963851929,7.61422348022461,7.61740970611572,7.62059879302979,7.62379026412964,7.62698459625244,7.63908195495605,7.66015005111694,7.67116737365723,7.67881488800049,7.68647813796997,7.69415616989136,7.70184993743896,7.70955896377563,7.71728372573853,7.72502326965332,7.73277902603149,7.74055004119873,7.74833726882935,7.75613975524902,7.76395750045776,7.77179145812988,7.77964162826538,7.78750705718994,7.79538869857788,7.80328607559204,7.81119966506958,7.8191294670105,7.82707500457764,7.83503675460815,7.84301519393921,7.85100984573364,7.8590202331543,7.86704730987549,7.87509107589722,7.88315057754517,7.89122724533081,7.89932060241699,7.90742969512939,7.91555643081665,7.92369937896729,7.93185901641846,7.94003582000732,7.94822931289673,7.95643949508667,7.96466732025146,7.9729118347168,7.98117303848267,7.98945188522339,7.99774742126465,8.00606060028076,8.01439094543457,8.02273941040039,8.03110408782959,8.0394868850708,8.04788684844971,8.05630493164062,8.06474018096924,8.07319355010986,8.08166408538818,8.09015274047852,8.09865856170654,8.1071834564209,8.11572551727295,8.12428569793701,8.13286399841309,8.14146041870117,8.15007495880127,8.1587085723877,8.16736030578613,8.17602920532227,8.18471717834473,8.19342422485352,8.2021484375,8.21089267730713,8.21965503692627,8.22843647003174,8.23723602294922,8.24605464935303,8.25489234924316,8.26374912261963,8.27262496948242,8.28151893615723,8.29043292999268,8.29936599731445,8.30831813812256,8.31729030609131,8.32628154754639,8.33529186248779,8.34432220458984,8.35337162017822,8.36244106292725,8.3715295791626,8.38063812255859,8.38976669311523,8.39891529083252,8.40808391571045,8.41727256774902,8.42648124694824,8.43570995330811,8.44495868682861,8.45422840118408,8.4635181427002,8.47282791137695,8.48215866088867,8.49151039123535,8.50088214874268,8.51027488708496,8.51968765258789,8.52912139892578,8.53857707977295,8.54805278778076,8.55755043029785,8.5670690536499,8.57660865783691,8.58616924285889,8.59575080871582,8.60535430908203,8.61497974395752,8.62462615966797,8.6342945098877,8.64398384094238,8.65369606018066,8.66342926025391,8.67318439483643,8.68296146392822,8.69276142120361,8.70258331298828,8.71242713928223,8.72229290008545,8.73218154907227,8.74209308624268,8.75202655792236,8.76198196411133,8.7719612121582,8.78196239471436,8.7919864654541,8.80203437805176,8.81210422515869,8.82219791412354,8.83231449127197,8.842453956604,8.85261631011963,8.86280345916748,8.87301254272461,8.88324642181396,8.89350318908691,8.90702724456787,8.92172336578369,8.93646812438965,8.95126152038574,8.96610450744629,8.98099708557129,8.99593830108643,0,0,0,0,0,0,0,0,0,0,0,0,0,0,0,0,0,0,0,0,0,0,0,0,0,0,0,0,0,0
6.9279990196228,6.93234634399414,6.93669891357422,6.9410572052002,6.94542074203491,6.94978952407837,6.95416450500488,6.95854425430298,6.96293020248413,6.96732091903687,6.97171783447266,6.97611999511719,6.98052787780762,6.98494100570679,6.98936033248901,6.99378490447998,6.99821472167969,7.00265073776245,7.00709199905396,7.01153898239136,7.01599168777466,7.02045011520386,7.02491426467896,7.02938365936279,7.03385925292969,7.03834056854248,7.04282712936401,7.0473198890686,7.05181789398193,7.05632209777832,7.06083154678345,7.06534719467163,7.06986856460571,7.07439565658569,7.07892847061157,7.08346748352051,7.08801174163818,7.09256219863892,7.09711837768555,7.10168027877808,7.10624837875366,7.11082220077515,7.11540174484253,7.11998748779297,7.12457895278931,7.1291766166687,7.13378000259399,7.13838958740234,7.14300489425659,7.14762592315674,7.15225315093994,7.1568865776062,7.16152572631836,7.16617107391357,7.17082214355469,7.17547988891602,7.18014335632324,7.18481254577637,7.18948793411255,7.19416999816895,7.19885778427124,7.20355129241943,7.20825147628784,7.21295738220215,7.21766996383667,7.22238826751709,7.22711277008057,7.2318434715271,7.23658037185669,7.24132394790649,7.2460732460022,7.25082874298096,7.25559091567993,7.2603588104248,7.26513338088989,7.26991415023804,7.27470111846924,7.2794942855835,7.28429412841797,7.2891001701355,7.29391241073608,7.29873085021973,7.30355596542358,7.3083872795105,7.31322526931763,7.31806945800781,7.32292032241821,7.32777738571167,7.33264064788818,7.33751106262207,7.34238719940186,7.34727001190186,7.35215997695923,7.3570556640625,7.36195802688599,7.36686706542969,7.3717827796936,7.37670469284058,7.38163375854492,7.38656902313232,7.39151096343994,7.39645957946777,7.40141487121582,7.40637636184692,7.4113450050354,7.41631984710693,7.42130184173584,7.42629051208496,7.43128538131714,7.43628740310669,7.44129610061646,7.44631147384644,7.45133399963379,7.4563627243042,7.46139860153198,7.46644115447998,7.47149085998535,7.47654676437378,7.48160982131958,7.48668003082275,7.49175691604614,7.49684047698975,7.50193119049072,7.50702857971191,7.51213312149048,7.51724481582642,7.52236318588257,7.52748823165894,7.53262090682983,7.53776025772095,7.54290628433228,7.54805994033813,7.55322027206421,7.55838775634766,7.56356239318848,7.56874418258667,7.57393264770508,7.57912874221802,7.58433151245117,7.58954191207886,7.59475898742676,7.59998369216919,7.60404682159424,7.60722494125366,7.61040544509888,7.61358833312988,7.61677408218384,7.61996269226074,7.62315368652344,7.62803983688354,7.64904689788818,7.67016983032227,7.6798415184021,7.68750667572021,7.69518709182739,7.70288276672363,7.71059370040894,7.71832084655762,7.7260627746582,7.73382043838501,7.74159336090088,7.74938201904297,7.75718688964844,7.76500701904297,7.77284336090088,7.78069543838501,7.7885627746582,7.79644680023193,7.80434656143188,7.81226205825806,7.82019376754761,7.8281421661377,7.83610582351685,7.84408617019653,7.8520827293396,7.86009550094604,7.86812496185303,7.87617063522339,7.88423299789429,7.89231157302856,7.90040683746338,7.90851879119873,7.91664743423462,7.92479228973389,7.93295478820801,7.94113349914551,7.9493293762207,7.95754194259644,7.96577167510986,7.97401809692383,7.98228216171265,7.99056339263916,7.99886131286621,8.00717639923096,8.01550960540771,8.02385997772217,8.03222751617432,8.04061222076416,8.04901504516602,8.05743503570557,8.06587219238281,8.07432746887207,8.08280086517334,8.09129238128662,8.0998010635376,8.10832786560059,8.11687183380127,8.12543487548828,8.1340160369873,8.14261436462402,8.15123176574707,8.15986728668213,8.1685209274292,8.1771936416626,8.18588352203369,8.19459342956543,8.20332050323486,8.21206665039062,8.22083187103271,8.22961521148682,8.23841762542725,8.247239112854,8.25607872009277,8.26493835449219,8.27381610870361,8.28271389007568,8.29162979125977,8.30056571960449,8.30952072143555,8.31849479675293,8.32748794555664,8.336501121521,8.345534324646,8.35458660125732,8.36365795135498,8.37274932861328,8.38186168670654,8.39099216461182,8.40014362335205,8.40931510925293,8.41850662231445,8.4277172088623,8.43694877624512,8.44620037078857,8.45547294616699,8.46476554870605,8.47407817840576,8.48341178894043,8.49276542663574,8.50214004516602,8.51153564453125,8.52095127105713,8.53038883209229,8.53984642028809,8.54932594299316,8.55882549285889,8.56834697723389,8.57788944244385,8.58745288848877,8.59703731536865,8.60664367675781,8.61627197265625,8.62592124938965,8.63559246063232,8.64528560638428,8.65499973297119,8.66473579406738,8.67449474334717,8.68427467346191,8.69407749176025,8.70390224456787,8.71374893188477,8.72361755371094,8.7335090637207,8.74342346191406,8.7533597946167,8.76331901550293,8.77330112457275,8.78330516815186,8.79333305358887,8.80338287353516,8.81345653533936,8.82355308532715,8.83367252349854,8.84381484985352,8.85398101806641,8.86417102813721,0,0,0,0,0,0,0,0,0,0,0,0,0,0,0,0,0,0,0,0,0,0,0,0,0,0,0,0,0,0,0,0,0,0,0,0,0
6.91394662857056,6.91827583312988,6.92261123657227,6.92695140838623,6.93129730224609,6.9356484413147,6.9400053024292,6.9443678855896,6.94873523712158,6.95310878753662,6.9574875831604,6.96187162399292,6.96626138687134,6.97065687179565,6.97505760192871,6.97946405410767,6.98387622833252,6.98829364776611,6.99271726608276,6.99714612960815,7.00158023834229,7.00602054595947,7.0104660987854,7.01491737365723,7.01937437057495,7.02383708953857,7.02830505371094,7.03277921676636,7.03725910186768,7.04174423217773,7.04623556137085,7.05073261260986,7.05523490905762,7.05974340438843,7.06425762176514,7.06877756118774,7.07330322265625,7.07783460617065,7.08237218856812,7.08691501617432,7.09146404266357,7.09601879119873,7.10057973861694,7.1051459312439,7.10971879959106,7.11429691314697,7.11888122558594,7.1234712600708,7.12806701660156,7.13266897201538,7.13727712631226,7.14189100265503,7.14651107788086,7.15113639831543,7.15576839447021,7.1604061126709,7.16505002975464,7.16970014572144,7.17435598373413,7.17901754379272,7.18368577957153,7.18835973739624,7.193039894104,7.19772624969482,7.2024188041687,7.20711708068848,7.21182203292847,7.21653270721436,7.2212495803833,7.2259726524353,7.23070192337036,7.23543739318848,7.24017906188965,7.24492692947388,7.24968147277832,7.25444173812866,7.25920820236206,7.26398134231567,7.26876068115234,7.27354574203491,7.2783374786377,7.28313589096069,7.28794050216675,7.2927508354187,7.29756832122803,7.30239152908325,7.30722141265869,7.31205797195435,7.31690073013306,7.32174968719482,7.32660531997681,7.33146715164185,7.3363356590271,7.34121036529541,7.34609174728394,7.35097980499268,7.35587406158447,7.36077499389648,7.36568260192871,7.37059640884399,7.37551689147949,7.38044452667236,7.38537788391113,7.39031839370728,7.39526510238647,7.40021896362305,7.40517902374268,7.41014575958252,7.41511964797974,7.42009973526001,7.4250864982605,7.4300799369812,7.43508052825928,7.44008779525757,7.44510126113892,7.45012187957764,7.45514917373657,7.46018362045288,7.46522426605225,7.47027206420898,7.47532653808594,7.48038816452026,7.4854564666748,7.49053144454956,7.49561357498169,7.50070285797119,7.50579833984375,7.51090145111084,7.51601123809814,7.52112770080566,7.52625131607056,7.53138208389282,7.5365195274353,7.54166460037231,7.54681634902954,7.55197477340698,7.55714082717896,7.56231355667114,7.5674934387207,7.57268047332764,7.57787466049194,7.58307600021362,7.58828449249268,7.5935001373291,7.59706687927246,7.60023927688599,7.60341358184814,7.60659074783325,7.60977077484131,7.61295318603516,7.61613845825195,7.6193265914917,7.62251710891724,7.63797569274902,7.65903759002686,7.68021583557129,7.68853569030762,7.69621849060059,7.70391607284546,7.71162939071655,7.71935796737671,7.72710180282593,7.73486185073853,7.74263715744019,7.75042772293091,7.75823450088501,7.76605701446533,7.77389526367188,7.78174924850464,7.78961944580078,7.79750490188599,7.80540704727173,7.81332492828369,7.82125902175903,7.8292088508606,7.83717489242554,7.84515762329102,7.85315656661987,7.86117124557495,7.86920309066772,7.87725067138672,7.88531541824341,7.89339637756348,7.90149354934692,7.90960788726807,7.91773843765259,7.9258861541748,7.93405055999756,7.94223165512085,7.95042943954468,7.95864486694336,7.96687650680542,7.97512578964233,7.98339176177979,7.99167490005493,7.99997568130493,8.00829315185547,8.01662826538086,8.02498054504395,8.03335094451904,8.04173755645752,8.05014324188232,8.05856513977051,8.0670051574707,8.07546329498291,8.08393859863281,8.09243202209473,8.10094356536865,8.10947227478027,8.11801910400391,8.12658500671387,8.13516807556152,8.14376926422119,8.15238952636719,8.16102695465088,8.1696834564209,8.17835712432861,8.18705081939697,8.19576168060303,8.20449256896973,8.21324062347412,8.22200775146484,8.23079490661621,8.23959922790527,8.24842357635498,8.2572660446167,8.26612758636475,8.27500820159912,8.28390789031982,8.29282665252686,8.30176544189453,8.31072235107422,8.31969928741455,8.32869625091553,8.33771133422852,8.34674644470215,8.35580158233643,8.36487579345703,8.3739709854126,8.38308429718018,8.39221858978271,8.4013729095459,8.41054630279541,8.41974067687988,8.42895412445068,8.43818855285645,8.44744300842285,8.4567174911499,8.46601295471191,8.47532844543457,8.48466491699219,8.49402141571045,8.50339889526367,8.51279735565186,8.52221584320068,8.53165531158447,8.54111671447754,8.55059814453125,8.56010150909424,8.56962490081787,8.57917022705078,8.58873653411865,8.5983247756958,8.60793399810791,8.61756420135498,8.62721633911133,8.63689041137695,8.64658641815186,8.65630435943604,8.66604328155518,8.67580509185791,8.68558788299561,8.69539356231689,8.70522117614746,8.7150707244873,8.72494316101074,8.73483753204346,8.74475479125977,8.75469398498535,0,0,0,0,0,0,0,0,0,0,0,0,0,0,0,0,0,0,0,0,0,0,0,0,0,0,0,0,0,0,0,0,0,0,0,0,0,0,0,0,0,0,0,0,0
6.89995050430298,6.90426254272461,6.90858030319214,6.91290283203125,6.91723108291626,6.92156505584717,6.92590427398682,6.93024873733521,6.93459844589233,6.93895387649536,6.94331502914429,6.94768142700195,6.95205354690552,6.95643091201782,6.96081352233887,6.96520233154297,6.96959638595581,6.97399568557739,6.97840070724487,6.98281145095825,6.98722791671753,6.99164962768555,6.99607706069946,7.00051021575928,7.00494909286499,7.00939321517944,7.01384305953979,7.01829862594604,7.02275991439819,7.02722692489624,7.03169965744019,7.03617811203003,7.04066228866577,7.04515171051025,7.04964733123779,7.05414867401123,7.05865573883057,7.06316804885864,7.06768703460693,7.07221126556396,7.07674121856689,7.08127737045288,7.08581876754761,7.09036636352539,7.09491968154907,7.09947919845581,7.10404396057129,7.10861539840698,7.11319208145142,7.11777496337891,7.12236356735229,7.12695789337158,7.13155889511108,7.13616514205933,7.14077758789062,7.14539575576782,7.15002059936523,7.15465068817139,7.1592869758606,7.16392946243286,7.16857767105103,7.1732325553894,7.17789268493652,7.18255949020386,7.18723201751709,7.19191074371338,7.19659566879272,7.20128631591797,7.20598363876343,7.21068668365479,7.2153959274292,7.22011137008667,7.2248330116272,7.22956085205078,7.23429489135742,7.23903512954712,7.24378156661987,7.24853420257568,7.25329303741455,7.25805807113647,7.26282930374146,7.26760721206665,7.2723913192749,7.27718114852905,7.28197813034058,7.286780834198,7.29159021377563,7.29640579223633,7.30122756958008,7.30605602264404,7.31089067459106,7.3157320022583,7.32057952880859,7.32543325424194,7.33029413223267,7.33516073226929,7.34003400802612,7.34491395950317,7.34980010986328,7.3546929359436,7.35959243774414,7.36449813842773,7.36941051483154,7.37432956695557,7.3792552947998,7.3841872215271,7.38912630081177,7.39407157897949,7.39902353286743,7.40398216247559,7.40894746780396,7.41391944885254,7.41889762878418,7.42388296127319,7.42887496948242,7.43387365341187,7.43887948989868,7.44389152526855,7.44891023635864,7.4539361000061,7.45896863937378,7.46400785446167,7.46905422210693,7.47410678863525,7.47916698455811,7.48423337936401,7.48930692672729,7.49438714981079,7.49947452545166,7.5045690536499,7.5096697807312,7.51477813720703,7.51989316940308,7.52501487731934,7.53014421463013,7.53527975082397,7.54042291641235,7.54557323455811,7.55072975158691,7.55589389801025,7.56106519699097,7.56624364852905,7.57142877578735,7.57662153244019,7.58182096481323,7.58693647384644,7.59009981155396,7.59326601028442,7.59643507003784,7.59960651397705,7.60278034210205,7.60595703125,7.6091365814209,7.61231851577759,7.61550331115723,7.61869049072266,7.62693691253662,7.64793729782104,7.66905403137207,7.68956518173218,7.69724941253662,7.70494937896729,7.71266508102417,7.72039556503296,7.72814178466797,7.73590326309204,7.74368095397949,7.75147390365601,7.7592830657959,7.76710748672485,7.77494764328003,7.78280401229858,7.79067611694336,7.79856395721436,7.80646753311157,7.81438779830933,7.82232427597046,7.83027648925781,7.83824491500854,7.8462290763855,7.85422992706299,7.86224746704102,7.87028121948242,7.87833166122437,7.88639783859253,7.89448118209839,7.90258073806763,7.9106969833374,7.91882991790771,7.92698001861572,7.93514680862427,7.94332981109619,7.95153045654297,7.95974731445312,7.96798181533813,7.97623300552368,7.98450136184692,7.99278688430786,8.00109004974365,8.00940990447998,8.017746925354,8.02610206604004,8.03447437286377,8.0428638458252,8.05127143859863,8.05969619750977,8.06813907623291,8.07659816741943,8.08507633209229,8.09357261657715,8.10208606719971,8.11061763763428,8.11916732788086,8.12773418426514,8.13632011413574,8.14492416381836,8.15354633331299,8.16218662261963,8.17084503173828,8.17952251434326,8.18821811676025,8.19693183898926,8.20566463470459,8.21441555023193,8.22318553924561,8.23197460174561,8.24078178405762,8.24960803985596,8.25845336914062,8.26731777191162,8.27620029449463,8.28510284423828,8.29402446746826,8.30296516418457,8.31192588806152,8.32090473175049,8.3299036026001,8.33892250061035,8.34795951843262,8.35701751708984,8.3660945892334,8.3751916885376,8.38430786132812,8.39344501495361,8.40260124206543,8.41177845001221,8.42097473144531,8.43019104003906,8.43942832946777,8.44868564605713,8.45796298980713,8.46726036071777,8.4765796661377,8.48591804504395,8.49527740478516,8.50465774536133,8.51405906677246,8.52348041534424,8.53292369842529,8.54238700866699,8.55187129974365,8.56137657165527,8.57090377807617,8.58045196533203,8.59002113342285,8.59961223602295,8.60922431945801,8.61885738372803,8.62851333618164,8.63819026947021,8.64788818359375,0,0,0,0,0,0,0,0,0,0,0,0,0,0,0,0,0,0,0,0,0,0,0,0,0,0,0,0,0,0,0,0,0,0,0,0,0,0,0,0,0,0,0,0,0,0,0,0,0,0,0,0,0
6.88601160049438,6.89030599594116,6.89460611343384,6.89891147613525,6.90322208404541,6.90753841400146,6.91185998916626,6.91618680953979,6.92051935195923,6.9248571395874,6.92920017242432,6.93354892730713,6.93790292739868,6.94226264953613,6.94662761688232,6.95099830627441,6.9553747177124,6.95975589752197,6.9641432762146,6.96853590011597,6.97293424606323,6.97733783721924,6.98174715042114,6.98616218566895,6.99058294296265,6.99500894546509,6.99944067001343,7.00387763977051,7.00832080841064,7.01276922225952,7.01722383499146,7.02168369293213,7.0261492729187,7.03062057495117,7.03509759902954,7.03957986831665,7.04406833648682,7.04856252670288,7.05306243896484,7.05756807327271,7.06207942962646,7.06659650802612,7.07111930847168,7.07564783096313,7.08018255233765,7.08472299575806,7.08926916122437,7.09382104873657,7.09837913513184,7.10294246673584,7.1075119972229,7.11208772659302,7.11666917800903,7.12125635147095,7.12584924697876,7.13044834136963,7.13505363464355,7.13966464996338,7.1442813873291,7.14890432357788,7.15353345870972,7.15816831588745,7.16280937194824,7.16745615005493,7.17210912704468,7.17676830291748,7.18143320083618,7.18610429763794,7.19078159332275,7.19546508789062,7.20015430450439,7.20485019683838,7.20955181121826,7.2142596244812,7.2189736366272,7.22369337081909,7.2284197807312,7.23315238952637,7.23789119720459,7.24263620376587,7.24738693237305,7.25214433670044,7.25690841674805,7.26167821884155,7.26645421981812,7.27123689651489,7.27602529525757,7.28082036972046,7.28562164306641,7.29042959213257,7.29524374008179,7.30006408691406,7.30489110946655,7.3097243309021,7.3145637512207,7.31940984725952,7.3242621421814,7.32912111282349,7.33398628234863,7.33885812759399,7.34373617172241,7.34862089157104,7.35351228713989,7.35841035842896,7.36331462860107,7.36822557449341,7.3731427192688,7.3780665397644,7.38299703598022,7.38793420791626,7.39287805557251,7.39782857894897,7.4027853012085,7.40774917602539,7.41271924972534,7.41769647598267,7.42268037796021,7.4276704788208,7.43266773223877,7.43767166137695,7.44268178939819,7.44769906997681,7.45272350311279,7.45775413513184,7.46279191970825,7.46783638000488,7.47288751602173,7.47794580459595,7.48301076889038,7.48808240890503,7.49316120147705,7.49824714660645,7.5033392906189,7.50843906402588,7.51354551315308,7.51865863800049,7.52377891540527,7.52890634536743,7.5340404510498,7.53918170928955,7.54433012008667,7.54948568344116,7.55464792251587,7.55981731414795,7.5649938583374,7.57017755508423,7.57536840438843,7.5799880027771,7.58314561843872,7.58630609512329,7.58946895599365,7.59263467788696,7.59580278396606,7.59897375106812,7.60214710235596,7.60532331466675,7.60850238800049,7.61168384552002,7.6148681640625,7.61805486679077,7.63686943054199,7.65792512893677,7.67909717559814,7.69828128814697,7.70598316192627,7.71370029449463,7.72143316268921,7.72918176651001,7.73694562911987,7.7447247505188,7.7525200843811,7.76033115386963,7.76815795898438,7.77600002288818,7.78385829925537,7.79173278808594,7.79962301254272,7.80752897262573,7.81545114517212,7.82338953018188,7.83134365081787,7.83931446075439,7.8473014831543,7.85530424118042,7.86332368850708,7.87135982513428,7.87941217422485,7.88748121261597,7.8955659866333,7.90366840362549,7.91178703308105,7.91992235183716,7.9280743598938,7.93624305725098,7.94442844390869,7.95263147354126,7.96085071563721,7.96908712387085,7.97734069824219,7.98561191558838,7.99389934539795,8.00220489501953,8.01052665710449,8.01886653900146,8.02722358703613,8.03559875488281,8.04399013519287,8.05239963531494,8.06082725524902,8.0692720413208,8.07773494720459,8.08621501922607,8.09471321105957,8.10322952270508,8.11176300048828,8.1203145980835,8.12888526916504,8.13747310638428,8.14607906341553,8.15470409393311,8.16334629058838,8.17200756072998,8.18068695068359,8.18938541412354,8.19810199737549,8.20683670043945,8.21559047698975,8.22436237335205,8.233154296875,8.24196434020996,8.25079250335693,8.25964069366455,8.2685079574585,8.27739334106445,8.28629779815674,8.29522228240967,8.30416584014893,8.31312847137451,8.32211017608643,8.33111190795898,8.34013271331787,8.3491735458374,8.35823345184326,8.36731338500977,8.3764123916626,8.38553237915039,8.39467144012451,8.40383052825928,8.413010597229,8.42220878601074,8.43142890930176,8.4406681060791,8.44992828369141,8.45920848846436,8.46850967407227,8.47783088684082,8.48717212677002,8.49653434753418,8.5059175491333,8.51532077789307,8.52474594116211,8.5341911315918,8.54365730285645,8.55314445495605,0,0,0,0,0,0,0,0,0,0,0,0,0,0,0,0,0,0,0,0,0,0,0,0,0,0,0,0,0,0,0,0,0,0,0,0,0,0,0,0,0,0,0,0,0,0,0,0,0,0,0,0,0,0,0,0,0,0,0,0
6.8721284866333,6.87640571594238,6.88068866729736,6.88497638702393,6.88926982879639,6.89356851577759,6.89787244796753,6.90218210220337,6.90649700164795,6.91081714630127,6.91514253616333,6.91947364807129,6.92381048202515,6.92815208435059,6.93249940872192,6.93685245513916,6.94121074676514,6.94557428359985,6.94994354248047,6.95431852340698,6.95869874954224,6.96308469772339,6.96747589111328,6.97187280654907,6.97627544403076,6.98068332672119,6.98509693145752,6.98951578140259,6.99394083023071,6.99837112426758,7.00280714035034,7.007248878479,7.01169586181641,7.01614904403687,7.02060747146606,7.02507162094116,7.02954149246216,7.03401708602905,7.03849840164185,7.04298543930054,7.04747819900513,7.05197668075562,7.056480884552,7.06099081039429,7.06550645828247,7.07002782821655,7.07455539703369,7.07908821105957,7.08362722396851,7.08817195892334,7.09272241592407,7.09727907180786,7.10184144973755,7.10640954971313,7.11098337173462,7.11556339263916,7.1201491355896,7.1247410774231,7.12933874130249,7.13394212722778,7.13855171203613,7.14316749572754,7.14778900146484,7.15241622924805,7.15704965591431,7.16168928146362,7.16633462905884,7.17098617553711,7.17564392089844,7.18030738830566,7.18497705459595,7.18965291976929,7.19433498382568,7.19902276992798,7.20371675491333,7.20841693878174,7.2131233215332,7.21783590316772,7.2225546836853,7.22727918624878,7.23201036453247,7.23674774169922,7.24149084091187,7.24624061584473,7.25099658966064,7.25575876235962,7.26052713394165,7.26530170440674,7.27008247375488,7.27486991882324,7.2796630859375,7.28446340560913,7.28926944732666,7.29408168792725,7.29890108108521,7.30372619628906,7.30855798721313,7.31339597702026,7.31824016571045,7.32309103012085,7.32794857025146,7.33281230926514,7.33768272399902,7.34255933761597,7.34744215011597,7.35233211517334,7.35722827911377,7.36213111877441,7.36704015731812,7.37195587158203,7.37687826156616,7.38180732727051,7.38674306869507,7.39168500900269,7.39663410186768,7.40158939361572,7.40655136108398,7.41152000427246,7.41649532318115,7.42147779464722,7.42646646499634,7.43146181106567,7.43646383285522,7.44147300720215,7.44648838043213,7.45151090621948,7.45654010772705,7.46157598495483,7.46661901473999,7.47166872024536,7.47672510147095,7.48178863525391,7.48685884475708,7.49193572998047,7.49701976776123,7.50211048126221,7.50720834732056,7.51231288909912,7.51742458343506,7.52254343032837,7.52766895294189,7.53280162811279,7.53794145584106,7.54308795928955,7.54824161529541,7.55340242385864,7.55856990814209,7.56374502182007,7.56892681121826,7.57305240631104,7.57620429992676,7.57935857772827,7.58251571655273,7.58567571640015,7.58883810043335,7.5920033454895,7.59517097473145,7.59834146499634,7.60151433944702,7.60469007492065,7.60786819458008,7.61104917526245,7.61423301696777,7.6258339881897,7.64682865142822,7.66793918609619,7.68916654586792,7.70701694488525,7.7147364616394,7.72247123718262,7.73022174835205,7.73798799514771,7.74576950073242,7.75356674194336,7.76137924194336,7.7692084312439,7.7770528793335,7.78491353988647,7.79278945922852,7.80068206787109,7.80858993530273,7.81651449203491,7.82445526123047,7.83241176605225,7.8403844833374,7.8483738899231,7.85637903213501,7.8644003868103,7.87243843078613,7.8804931640625,7.8885645866394,7.89665174484253,7.90475606918335,7.91287660598755,7.92101430892944,7.92916870117188,7.93733978271484,7.94552755355835,7.95373249053955,7.96195459365845,7.97019338607788,7.97844934463501,7.98672199249268,7.9950122833252,8.00331974029541,8.01164436340332,8.01998615264893,8.02834606170654,8.03672218322754,8.04511737823486,8.05352878570557,8.06195831298828,8.07040596008301,8.07887077331543,8.08735370635986,8.09585380554199,8.10437297821045,8.1129093170166,8.12146282196045,8.13003540039062,8.13862609863281,8.14723491668701,8.15586185455322,8.16450691223145,8.173171043396,8.18185234069824,8.19055271148682,8.19927215576172,8.20800971984863,8.21676635742188,8.22554016113281,8.23433399200439,8.2431468963623,8.25197792053223,8.26082801818848,8.26969814300537,8.27858638763428,8.28749370574951,8.29642009735107,8.30536651611328,8.31433200836182,8.32331657409668,8.33232021331787,8.34134387969971,8.35038757324219,8.359450340271,8.36853218078613,8.37763500213623,8.38675689697266,8.39589881896973,8.40506076812744,8.4142427444458,8.4234447479248,8.43266677856445,8.44190883636475,8.451171875,8.4604549407959,0,0,0,0,0,0,0,0,0,0,0,0,0,0,0,0,0,0,0,0,0,0,0,0,0,0,0,0,0,0,0,0,0,0,0,0,0,0,0,0,0,0,0,0,0,0,0,0,0,0,0,0,0,0,0,0,0,0,0,0,0,0,0,0,0,0,0
6.85830116271973,6.86256170272827,6.8668270111084,6.87109756469727,6.87537384033203,6.87965488433838,6.88394165039062,6.88823366165161,6.8925313949585,6.89683389663696,6.90114212036133,6.90545558929443,6.90977478027344,6.91409873962402,6.91842889785767,6.92276382446289,6.92710447311401,6.93145036697388,6.93580198287964,6.94015884399414,6.94452142715454,6.94888925552368,6.95326280593872,6.9576416015625,6.96202611923218,6.96641635894775,6.97081184387207,6.97521305084229,6.97961950302124,6.98403167724609,6.98844957351685,6.9928731918335,6.99730205535889,7.00173664093018,7.00617694854736,7.01062297821045,7.01507425308228,7.01953125,7.02399444580078,7.0284628868103,7.03293704986572,7.03741693496704,7.04190254211426,7.04639387130737,7.05089092254639,7.0553936958313,7.05990219116211,7.06441688537598,7.06893682479858,7.07346296310425,7.07799434661865,7.08253192901611,7.08707523345947,7.09162473678589,7.09617948532104,7.10074043273926,7.10530710220337,7.10987997055054,7.11445808410645,7.11904287338257,7.12363290786743,7.12822914123535,7.13283157348633,7.1374397277832,7.14205360412598,7.14667367935181,7.15129995346069,7.15593147277832,7.16056966781616,7.16521406173706,7.1698637008667,7.17452001571655,7.1791820526123,7.18385028839111,7.18852472305298,7.19320487976074,7.19789171218872,7.2025842666626,7.20728302001953,7.21198797225952,7.21669864654541,7.22141599655151,7.22613906860352,7.23086881637573,7.23560428619385,7.24034643173218,7.24509429931641,7.24984884262085,7.25460958480835,7.25937652587891,7.26414966583252,7.26892900466919,7.27371454238892,7.27850675582886,7.28330516815186,7.28810977935791,7.29292058944702,7.29773807525635,7.30256175994873,7.30739164352417,7.31222820281982,7.31707143783569,7.32192039489746,7.3267765045166,7.3316388130188,7.33650732040405,7.34138250350952,7.34626388549805,7.35115242004395,7.35604667663574,7.36094808578491,7.36585569381714,7.37076997756958,7.37569046020508,7.38061809539795,7.38555192947388,7.39049243927002,7.39543962478638,7.40039348602295,7.40535402297974,7.41032123565674,7.4152946472168,7.42027521133423,7.42526245117188,7.43025636672974,7.43525695800781,7.4402642250061,7.44527816772461,7.45029926300049,7.45532655715942,7.46036100387573,7.46540212631226,7.47045040130615,7.47550487518311,7.48056650161743,7.48563528060913,7.49071073532104,7.49579286575317,7.50088214874268,7.50597810745239,7.51108121871948,7.51619100570679,7.52130794525146,7.52643203735352,7.53156328201294,7.53670072555542,7.54184579849243,7.54699802398682,7.55215692520142,7.55732297897339,7.56249618530273,7.56612920761108,7.56927537918091,7.57242393493652,7.57557535171509,7.5787296295166,7.58188629150391,7.585045337677,7.58820724487305,7.59137201309204,7.59453916549683,7.5977087020874,7.60088157653809,7.6040563583374,7.60723447799683,7.61041498184204,7.61482954025269,7.63576364517212,7.65681314468384,7.67797899246216,7.6992621421814,7.71577310562134,7.72350978851318,7.73126220703125,7.73903036117554,7.74681377410889,7.75461387634277,7.76242876052856,7.77025938034058,7.77810621261597,7.78596878051758,7.79384708404541,7.80174160003662,7.80965185165405,7.81757831573486,7.82552146911621,7.83347988128662,7.84145498275757,7.84944581985474,7.85745334625244,7.86547756195068,7.87351751327515,7.8815746307373,7.88964748382568,7.89773750305176,7.90584421157837,7.9139666557312,7.92210674285889,7.93026304244995,7.93843650817871,7.94662666320801,7.954833984375,7.96305799484253,7.97129917144775,7.97955751419067,7.98783254623413,7.99612522125244,8.00443458557129,8.01276206970215,8.02110576629639,8.02946853637695,8.0378475189209,8.04624462127686,8.05465888977051,8.06309032440186,8.07153987884521,8.08000755310059,8.08849239349365,8.09699535369873,8.10551643371582,8.11405467987061,8.12261199951172,8.13118648529053,8.13977909088135,8.1483907699585,8.15702056884766,8.16566753387451,8.1743335723877,8.18301773071289,8.19172096252441,8.20044231414795,8.20918273925781,8.21794128417969,8.22671890258789,8.23551464080811,8.24432945251465,8.25316429138184,8.26201629638672,8.27088832855225,8.2797794342041,8.28868961334229,8.2976188659668,8.30656719207764,8.31553554534912,8.32452297210693,8.33352947235107,8.34255599975586,8.35160160064697,8.36066722869873,0,0,0,0,0,0,0,0,0,0,0,0,0,0,0,0,0,0,0,0,0,0,0,0,0,0,0,0,0,0,0,0,0,0,0,0,0,0,0,0,0,0,0,0,0,0,0,0,0,0,0,0,0,0,0,0,0,0,0,0,0,0,0,0,0,0,0,0,0,0,0,0,0,0,0
6.84452962875366,6.84877300262451,6.85302114486694,6.85727453231812,6.86153364181519,6.86579751968384,6.87006711959839,6.87434196472168,6.87862205505371,6.88290739059448,6.88719797134399,6.8914942741394,6.89579582214355,6.90010261535645,6.90441465377808,6.90873241424561,6.91305541992188,6.91738367080688,6.92171764373779,6.92605686187744,6.93040180206299,6.93475198745728,6.9391074180603,6.94346857070923,6.94783544540405,6.95220756530762,6.95658493041992,6.96096849441528,6.96535682678223,6.96975135803223,6.97415113449097,6.97855615615845,6.98296689987183,6.9873833656311,6.99180555343628,6.99623346328735,7.00066661834717,7.00510549545288,7.00955009460449,7.01399993896484,7.01845598220825,7.0229172706604,7.02738475799561,7.03185749053955,7.03633594512939,7.04082012176514,7.04531002044678,7.04980564117432,7.05430746078491,7.05881452560425,7.06332731246948,7.06784629821777,7.0723705291748,7.07690095901489,7.08143711090088,7.08597898483276,7.09052658081055,7.09508037567139,7.09963989257812,7.10420513153076,7.10877656936646,7.11335325241089,7.11793661117554,7.12252521514893,7.12712001800537,7.13172101974487,7.13632774353027,7.14094018936157,7.14555883407593,7.15018320083618,7.15481376647949,7.15945053100586,7.16409301757812,7.16874170303345,7.17339658737183,7.1780571937561,7.18272399902344,7.18739652633667,7.19207572937012,7.19676065444946,7.20145177841187,7.20614910125732,7.21085214614868,7.21556186676025,7.22027778625488,7.22499942779541,7.22972774505615,7.23446178436279,7.23920202255249,7.2439489364624,7.24870157241821,7.25346088409424,7.25822591781616,7.2629976272583,7.2677755355835,7.27255964279175,7.27735042572021,7.28214693069458,7.28695011138916,7.2917594909668,7.29657554626465,7.30139780044556,7.30622625350952,7.3110613822937,7.31590270996094,7.32075023651123,7.32560443878174,7.33046531677246,7.33533239364624,7.34020614624023,7.34508609771729,7.34997272491455,7.35486555099487,7.35976505279541,7.36467123031616,7.36958408355713,7.37450313568115,7.37942886352539,7.38436126708984,7.38930034637451,7.39424610137939,7.39919805526733,7.40415716171265,7.40912246704102,7.4140944480896,7.4190731048584,7.42405891418457,7.4290509223938,7.4340500831604,7.43905591964722,7.44406843185425,7.44908714294434,7.45411348342896,7.45914602279663,7.46418571472168,7.46923208236694,7.47428512573242,7.47934532165527,7.48441219329834,7.48948574066162,7.49456644058228,7.49965381622314,7.50474834442139,7.509850025177,7.51495838165283,7.52007341384888,7.52519559860229,7.53032493591309,7.53546094894409,7.54060411453247,7.54575443267822,7.55091190338135,7.55607604980469,7.55921840667725,7.56235885620117,7.56550216674805,7.56864786148071,7.57179594039917,7.57494688034058,7.57810020446777,7.58125638961792,7.58441543579102,7.5875768661499,7.59074068069458,7.59390735626221,7.59707689285278,7.60024881362915,7.60342311859131,7.60660028457642,7.60978031158447,7.62473106384277,7.64571952819824,7.66682434082031,7.68804550170898,7.70938491821289,7.72454833984375,7.73230314254761,7.74007320404053,7.74785900115967,7.75566053390503,7.76347780227661,7.77131080627441,7.77915954589844,7.78702402114868,7.7949047088623,7.80280160903931,7.81071424484253,7.81864261627197,7.82658720016479,7.83454847335815,7.84252548217773,7.85051870346069,7.85852861404419,7.86655473709106,7.87459707260132,7.88265609741211,7.89073181152344,7.89882373809814,7.90693235397339,7.91505765914917,7.92319965362549,7.93135833740234,7.93953371047974,7.94772624969482,7.95593595504761,7.96416234970093,7.97240543365479,7.9806661605835,7.98894357681274,7.99723863601685,8.00555038452148,8.01387977600098,8.02222633361816,8.03059101104736,8.03897190093994,8.04737186431885,8.05578804016113,8.06422233581543,8.07267379760742,8.08114433288574,8.08963108062744,8.09813690185547,8.10665988922119,8.11520099639893,8.12376022338867,8.13233757019043,8.1409330368042,8.14954662322998,8.15817832946777,8.16682910919189,8.17549705505371,8.18418407440186,8.19288921356201,8.2016134262085,8.21035575866699,8.21911716461182,8.22789764404297,8.23669624328613,8.24551391601562,8.25434970855713,8.26320552825928,8.27207946777344,0,0,0,0,0,0,0,0,0,0,0,0,0,0,0,0,0,0,0,0,0,0,0,0,0,0,0,0,0,0,0,0,0,0,0,0,0,0,0,0,0,0,0,0,0,0,0,0,0,0,0,0,0,0,0,0,0,0,0,0,0,0,0,0,0,0,0,0,0,0,0,0,0,0,0,0,0,0,0,0,0,0
6.83081340789795,6.83503913879395,6.83927059173584,6.84350728988647,6.84774875640869,6.85199594497681,6.85624837875366,6.8605055809021,6.86476850509644,6.86903667449951,6.87331008911133,6.87758922576904,6.88187313079834,6.88616275787354,6.89045763015747,6.89475774765015,6.89906311035156,6.90337419509888,6.90769052505493,6.91201210021973,6.91633939743042,6.92067193984985,6.92500972747803,6.9293532371521,6.93370246887207,6.93805646896362,6.94241619110107,6.94678163528442,6.95115232467651,6.9555287361145,6.95991039276123,6.96429777145386,6.96869087219238,6.97308921813965,6.97749328613281,6.98190259933472,6.98631763458252,6.99073839187622,6.99516487121582,6.99959659576416,7.00403451919556,7.00847721099854,7.01292610168457,7.0173807144165,7.02184057235718,7.02630662918091,7.03077793121338,7.03525543212891,7.03973817825317,7.04422664642334,7.0487208366394,7.05322122573853,7.05772686004639,7.06223821640015,7.06675577163696,7.07127904891968,7.07580757141113,7.08034229278564,7.08488321304321,7.08942937850952,7.09398174285889,7.09853982925415,7.10310363769531,7.10767316818237,7.11224889755249,7.11683034896851,7.12141799926758,7.12601137161255,7.13061046600342,7.13521575927734,7.13982725143433,7.14444446563721,7.14906740188599,7.15369653701782,7.15833187103271,7.16297292709351,7.16762018203735,7.1722731590271,7.1769323348999,7.18159770965576,7.18626928329468,7.19094657897949,7.19563007354736,7.20031976699829,7.20501565933228,7.20971727371216,7.21442556381226,7.21913957595825,7.22386026382446,7.22858667373657,7.23331928253174,7.23805809020996,7.2428035736084,7.24755477905273,7.25231218338013,7.25707626342773,7.26184606552124,7.26662254333496,7.27140522003174,7.27619409561157,7.28098964691162,7.28579139709473,7.29059886932373,7.29541349411011,7.30023384094238,7.30506134033203,7.30989456176758,7.31473445892334,7.31958055496216,7.32443332672119,7.32929229736328,7.33415794372559,7.33902978897095,7.34390830993652,7.34879350662231,7.35368490219116,7.35858297348022,7.36348724365234,7.36839866638184,7.37331628799438,7.37824010848999,7.38317108154297,7.388108253479,7.39305257797241,7.39800310134888,7.40296030044556,7.40792417526245,7.41289472579956,7.41787195205688,7.42285585403442,7.42784643173218,7.43284368515015,7.43784761428833,7.44285869598389,7.4478759765625,7.45290040969849,7.45793151855469,7.4629693031311,7.46801424026489,7.4730658531189,7.47812414169312,7.48318958282471,7.48826122283936,7.49334049224854,7.49842643737793,7.50351905822754,7.50861883163452,7.51372528076172,7.51883888244629,7.52395963668823,7.52908706665039,7.53422164916992,7.53936338424683,7.54451179504395,7.5491886138916,7.55232048034668,7.55545520782471,7.55859279632568,7.56173276901245,7.56487512588501,7.56802034378052,7.57116794586182,7.57431840896606,7.5774712562561,7.58062696456909,7.58378505706787,7.5869460105896,7.59010934829712,7.59327554702759,7.59644460678101,7.59961605072021,7.60278987884521,7.60596656799316,7.61373043060303,7.6346583366394,7.65570163726807,7.67686128616333,7.69813823699951,7.71953344345093,7.73334407806396,7.74111604690552,7.74890422821045,7.7567081451416,7.76452732086182,7.77236223220825,7.78021335601807,7.7880802154541,7.79596281051636,7.80386161804199,7.81177616119385,7.81970739364624,7.8276538848877,7.83561706542969,7.84359645843506,7.85159206390381,7.85960388183594,7.8676323890686,7.87567663192749,7.88373804092407,7.89181613922119,7.89990997314453,7.90802049636841,7.91614818572998,7.92429256439209,7.93245363235474,7.94063138961792,7.9488263130188,7.95703792572021,7.96526622772217,7.97351217269897,7.98177528381348,7.99005508422852,7.99835205078125,8.006667137146,8.01499843597412,8.02334690093994,8.03171348571777,8.0400972366333,8.04849910736084,8.05691814422607,8.065354347229,8.07380867004395,8.0822811126709,8.09077072143555,8.09927845001221,8.10780429840088,8.11634826660156,8.12490940093994,8.13348960876465,8.14208698272705,8.15070343017578,8.15933799743652,8.16799068450928,8.17666149139404,8.18535041809082,0,0,0,0,0,0,0,0,0,0,0,0,0,0,0,0,0,0,0,0,0,0,0,0,0,0,0,0,0,0,0,0,0,0,0,0,0,0,0,0,0,0,0,0,0,0,0,0,0,0,0,0,0,0,0,0,0,0,0,0,0,0,0,0,0,0,0,0,0,0,0,0,0,0,0,0,0,0,0,0,0,0,0,0,0,0,0,0,0
6.81715154647827,6.82136106491089,6.82557535171509,6.82979488372803,6.83401966094971,6.83824968338013,6.84248495101929,6.84672546386719,6.85097122192383,6.85522222518921,6.85947847366333,6.86373996734619,6.86800670623779,6.87227916717529,6.87655639648438,6.88083934783936,6.88512754440308,6.88942098617554,6.8937201499939,6.89802408218384,6.90233373641968,6.90664911270142,6.91096925735474,6.91529512405396,6.91962623596191,6.92396306991577,6.92830514907837,6.93265295028687,6.9370059967041,6.94136428833008,6.94572830200195,6.95009756088257,6.95447254180908,6.95885324478149,6.96323919296265,6.9676308631897,6.97202777862549,6.97643041610718,6.98083877563477,6.98525238037109,6.98967170715332,6.99409675598145,6.99852752685547,7.00296354293823,7.00740528106689,7.01185274124146,7.01630592346191,7.02076435089111,7.02522897720337,7.02969884872437,7.03417491912842,7.03865623474121,7.04314374923706,7.04763650894165,7.05213499069214,7.05663967132568,7.06114959716797,7.06566572189331,7.07018756866455,7.07471466064453,7.07924795150757,7.08378744125366,7.0883321762085,7.09288311004639,7.09743976593018,7.10200214385986,7.10657072067261,7.11114501953125,7.11572504043579,7.12031078338623,7.12490272521973,7.12950086593628,7.13410472869873,7.13871431350708,7.14333009719849,7.14795207977295,7.15257978439331,7.15721321105957,7.16185283660889,7.16649866104126,7.17115020751953,7.17580795288086,7.18047189712524,7.18514204025269,7.18981790542603,7.19449996948242,7.19918823242188,7.20388221740723,7.20858287811279,7.21328926086426,7.21800231933594,7.22272109985352,7.22744607925415,7.23217725753784,7.23691463470459,7.24165821075439,7.24640798568726,7.25116443634033,7.25592660903931,7.26069498062134,7.26547002792358,7.27025127410889,7.27503871917725,7.27983236312866,7.28463268280029,7.28943872451782,7.29425144195557,7.29907083511353,7.30389642715454,7.30872821807861,7.31356620788574,7.31841087341309,7.32326221466064,7.32811975479126,7.33298349380493,7.33785438537598,7.34273099899292,7.34761476516724,7.35250473022461,7.35740089416504,7.36230373382568,7.36721324920654,7.37212944030762,7.37705183029175,7.38198137283325,7.38691711425781,7.39185953140259,7.39680814743042,7.40176391601562,7.40672636032104,7.41169548034668,7.41667079925537,7.42165327072144,7.42664194107056,7.43163776397705,7.43664026260376,7.44164943695068,7.44666528701782,7.45168828964233,7.4567174911499,7.46175384521484,7.466796875,7.47184658050537,7.47690343856812,7.48196697235107,7.48703765869141,7.49211454391479,7.49719905853271,7.50229024887085,7.5073881149292,7.51249313354492,7.51760482788086,7.52272415161133,7.52784967422485,7.53298234939575,7.53812265396118,7.54230880737305,7.54543542861938,7.54856443405151,7.55169582366943,7.5548300743103,7.55796670913696,7.56110620498657,7.56424808502197,7.56739282608032,7.57053995132446,7.57368993759155,7.57684230804443,7.57999753952026,7.58315515518188,7.58631563186646,7.58947849273682,7.59264421463013,7.59581232070923,7.59898328781128,7.60215711593628,7.60533332824707,7.62362861633301,7.64461135864258,7.66570997238159,7.68692493438721,7.7082576751709,7.72970962524414,7.74215984344482,7.74994993209839,7.75775575637817,7.76557683944702,7.77341413497925,7.7812671661377,7.78913593292236,7.79702091217041,7.80492210388184,7.81283855438232,7.82077169418335,7.82872104644775,7.83668661117554,7.84466791152954,7.85266542434692,7.86067962646484,7.86871004104614,7.87675714492798,7.88482046127319,7.89290046691895,7.90099668502808,7.9091100692749,7.91723966598511,7.92538595199585,7.93354940414429,7.94172954559326,7.94992685317993,7.95814037322998,7.96637153625488,7.97461938858032,7.98288440704346,7.99116659164429,7.99946594238281,8.00778293609619,8.01611709594727,8.02446842193604,8.0328369140625,8.04122257232666,8.04962730407715,8.05804824829102,8.06648731231689,8.07494449615479,8.08341884613037,8.09191131591797,8.10042095184326,0,0,0,0,0,0,0,0,0,0,0,0,0,0,0,0,0,0,0,0,0,0,0,0,0,0,0,0,0,0,0,0,0,0,0,0,0,0,0,0,0,0,0,0,0,0,0,0,0,0,0,0,0,0,0,0,0,0,0,0,0,0,0,0,0,0,0,0,0,0,0,0,0,0,0,0,0,0,0,0,0,0,0,0,0,0,0,0,0,0,0,0,0,0,0,0
6.80354499816895,6.80773735046387,6.81193447113037,6.81613731384277,6.82034540176392,6.82455825805664,6.82877683639526,6.83300018310547,6.83722877502441,6.84146308898926,6.84570217132568,6.84994649887085,6.85419654846191,6.85845136642456,6.86271142959595,6.86697721481323,6.87124824523926,6.87552452087402,6.87980604171753,6.88409280776978,6.88838529586792,6.89268255233765,6.89698553085327,6.90129423141479,6.9056077003479,6.9099268913269,6.91425132751465,6.91858148574829,6.92291688919067,6.9272575378418,6.93160390853882,6.93595552444458,6.94031286239624,6.94467544555664,6.94904327392578,6.95341682434082,6.95779609680176,6.96218061447144,6.96657085418701,6.97096681594849,6.9753680229187,6.97977495193481,6.98418712615967,6.98860549926758,6.99302911758423,6.99745798110962,7.00189304351807,7.00633335113525,7.01077938079834,7.01523113250732,7.01968860626221,7.02415180206299,7.02862024307251,7.03309488296509,7.03757476806641,7.04206085205078,7.0465521812439,7.05104970932007,7.05555248260498,7.06006145477295,7.06457567214966,7.06909608840942,7.07362222671509,7.07815408706665,7.08269214630127,7.08723545074463,7.09178495407104,7.09634017944336,7.10090112686157,7.10546827316284,7.11004114151001,7.11461973190308,7.11920404434204,7.12379503250122,7.12839126586914,7.13299369812012,7.13760185241699,7.14221620559692,7.14683675765991,7.1514630317688,7.15609502792358,7.16073322296143,7.16537761688232,7.17002773284912,7.17468404769897,7.17934656143188,7.18401479721069,7.18868970870972,7.19336986541748,7.19805669784546,7.20274972915649,7.20744848251343,7.21215343475342,7.21686506271362,7.22158241271973,7.22630596160889,7.23103523254395,7.23577165603638,7.24051380157471,7.24526214599609,7.25001668930054,7.25477743148804,7.25954437255859,7.26431751251221,7.26909732818604,7.27388334274292,7.27867555618286,7.28347396850586,7.28827905654907,7.29309034347534,7.29790782928467,7.30273199081421,7.30756187438965,7.31239891052246,7.31724214553833,7.32209157943726,7.3269476890564,7.33180999755859,7.33667898178101,7.34155416488647,7.34643602371216,7.35132455825806,7.35621929168701,7.36112070083618,7.36602878570557,7.37094306945801,7.37586402893066,7.38079166412354,7.38572597503662,7.39066648483276,7.39561414718628,7.40056800842285,7.40552854537964,7.4104962348938,7.41547012329102,7.42045068740845,7.42543840408325,7.43043231964111,7.43543291091919,7.44044065475464,7.4454550743103,7.45047616958618,7.45550394058228,7.46053838729858,7.46557998657227,7.47062826156616,7.47568321228027,7.48074531555176,7.48581409454346,7.49088954925537,7.49597215652466,7.50106143951416,7.50615787506104,7.51126146316528,7.51637125015259,7.52148866653442,7.52661275863647,7.5317440032959,7.53544187545776,7.5385627746582,7.54168605804443,7.54481172561646,7.54794025421143,7.55107116699219,7.5542049407959,7.5573410987854,7.56048011779785,7.56362152099609,7.56676578521729,7.56991243362427,7.57306146621704,7.57621383666992,7.57936811447144,7.5825252532959,7.58568525314331,7.58884763717651,7.59201288223267,7.59518051147461,7.5983510017395,7.60152387619019,7.61263132095337,7.63355302810669,7.65459060668945,7.67574405670166,7.69701480865479,7.71840381622314,7.73991203308105,7.75099563598633,7.75880336761475,7.76662683486938,7.7744665145874,7.78232145309448,7.79019260406494,7.79807949066162,7.80598258972168,7.81390190124512,7.82183694839478,7.82978820800781,7.83775568008423,7.84573936462402,7.8537392616272,7.86175537109375,7.86978816986084,7.87783718109131,7.88590288162231,7.89398527145386,7.90208387374878,7.91019916534424,7.91833066940308,7.92647981643677,7.93464517593384,7.9428277015686,7.95102691650391,7.9592432975769,7.96747636795044,7.97572660446167,7.9839940071106,7.99227857589722,8.00057983398438,8.0088996887207,8.01723575592041,8.02558898925781,0,0,0,0,0,0,0,0,0,0,0,0,0,0,0,0,0,0,0,0,0,0,0,0,0,0,0,0,0,0,0,0,0,0,0,0,0,0,0,0,0,0,0,0,0,0,0,0,0,0,0,0,0,0,0,0,0,0,0,0,0,0,0,0,0,0,0,0,0,0,0,0,0,0,0,0,0,0,0,0,0,0,0,0,0,0,0,0,0,0,0,0,0,0,0,0,0,0,0,0,0,0
6.78999185562134,6.79416751861572,6.79834842681885,6.80253458023071,6.80672550201416,6.81092166900635,6.81512308120728,6.81932973861694,6.82354164123535,6.8277587890625,6.83198118209839,6.83620834350586,6.84044122695923,6.84467935562134,6.84892225265503,6.85317087173462,6.85742473602295,6.86168384552002,6.86594772338867,6.87021780014038,6.87449264526367,6.8787727355957,6.88305854797363,6.88734912872314,6.89164590835571,6.89594745635986,6.90025424957275,6.90456676483154,6.90888452529907,6.9132080078125,6.91753625869751,6.92187070846558,6.92620992660522,6.93055486679077,6.93490552902222,6.93926095962524,6.94362258911133,6.94798946380615,6.95236158370972,6.95673942565918,6.96112298965454,6.96551179885864,6.96990585327148,6.97430610656738,6.97871160507202,6.98312282562256,6.98753929138184,6.99196147918701,6.99638938903809,7.00082302093506,7.00526189804077,7.00970649719238,7.01415681838989,7.0186128616333,7.02307462692261,7.02754211425781,7.03201532363892,7.03649377822876,7.04097843170166,7.0454683303833,7.049964427948,7.05446577072144,7.05897331237793,7.06348657608032,7.06800556182861,7.0725302696228,7.07706069946289,7.08159685134888,7.08613920211792,7.09068727493286,7.0952410697937,7.09980058670044,7.10436630249023,7.10893774032593,7.11351490020752,7.11809778213501,7.12268733978271,7.12728214263916,7.13188314437866,7.13648986816406,7.14110279083252,7.14572143554688,7.15034627914429,7.15497732162476,7.15961408615112,7.16425704956055,7.16890573501587,7.17356061935425,7.17822122573853,7.18288850784302,7.18756151199341,7.19224071502686,7.1969256401062,7.20161724090576,7.20631456375122,7.21101808547974,7.21572780609131,7.22044372558594,7.22516584396362,7.22989416122437,7.23462867736816,7.23936939239502,7.24411630630493,7.24886894226074,7.25362873077393,7.25839424133301,7.26316595077515,7.26794385910034,7.27272844314575,7.27751922607422,7.28231620788574,7.28711938858032,7.29192924499512,7.29674530029297,7.30156755447388,7.306396484375,7.31123161315918,7.31607341766357,7.32092142105103,7.32577562332153,7.33063650131226,7.33550405502319,7.34037780761719,7.3452582359314,7.35014486312866,7.35503816604614,7.35993814468384,7.36484432220459,7.36975717544556,7.37467670440674,7.37960243225098,7.38453531265259,7.38947439193726,7.39442014694214,7.39937257766724,7.40433168411255,7.40929746627808,7.41426992416382,7.41924905776978,7.42423486709595,7.42922735214233,7.43422603607178,7.43923234939575,7.44424486160278,7.44926404953003,7.45429039001465,7.45932340621948,7.46436309814453,7.46940994262695,7.47446346282959,7.47952365875244,7.48459053039551,7.48966455459595,7.49474573135376,7.49983358383179,7.50492811203003,7.51002979278564,7.51513814926147,7.52025365829468,7.52537631988525,7.52858734130859,7.53170251846313,7.53482007980347,7.53794002532959,7.54106283187866,7.54418849945068,7.54731607437134,7.5504469871521,7.55357980728149,7.55671548843384,7.55985403060913,7.56299495697021,7.56613874435425,7.56928491592407,7.57243347167969,7.57558488845825,7.57873916625977,7.58189582824707,7.58505487442017,7.58821678161621,7.59138154983521,7.59454870223999,7.59771871566772,7.60166501998901,7.6225266456604,7.64350318908691,7.66459560394287,7.68580436706543,7.70713138580322,7.72857666015625,7.75014162063599,7.75985193252563,7.76767730712891,7.77551889419556,7.78337574005127,7.79124927520752,7.79913854598999,7.80704355239868,7.81496477127075,7.8229022026062,7.83085584640503,7.83882522583008,7.84681129455566,7.85481309890747,7.86283159255981,7.8708667755127,7.87891817092896,7.88698577880859,7.89507007598877,7.90317106246948,7.91128873825073,7.91942262649536,7.92757368087769,7.93574190139771,7.9439263343811,0,0,0,0,0,0,0,0,0,0,0,0,0,0,0,0,0,0,0,0,0,0,0,0,0,0,0,0,0,0,0,0,0,0,0,0,0,0,0,0,0,0,0,0,0,0,0,0,0,0,0,0,0,0,0,0,0,0,0,0,0,0,0,0,0,0,0,0,0,0,0,0,0,0,0,0,0,0,0,0,0,0,0,0,0,0,0,0,0,0,0,0,0,0,0,0,0,0,0,0,0,0,0,0,0,0,0,0,0
6.77649307250977,6.78065204620361,6.7848162651062,6.78898572921753,6.79315996170044,6.79733943939209,6.80152416229248,6.80571413040161,6.80990934371948,6.81410932540894,6.81831455230713,6.82252550125122,6.82674121856689,6.83096218109131,6.83518838882446,6.83941984176636,6.84365653991699,6.84789848327637,6.85214567184448,6.85639810562134,6.86065578460693,6.86491870880127,6.8691873550415,6.87346076965332,6.87773990631104,6.88202428817749,6.88631391525269,6.89060878753662,6.89490938186646,6.89921522140503,6.90352630615234,6.9078426361084,6.91216468811035,6.91649198532104,6.92082452774048,6.92516279220581,6.92950630187988,6.93385553359985,6.93821001052856,6.94257020950317,6.94693565368652,6.95130634307861,6.95568323135376,6.96006488800049,6.96445274353027,6.9688458442688,6.97324419021606,6.97764825820923,6.98205804824829,6.98647356033325,6.99089431762695,6.99532079696655,6.99975299835205,7.00419092178345,7.00863409042358,7.01308298110962,7.01753759384155,7.02199792861938,7.02646398544312,7.03093576431274,7.03541326522827,7.03989601135254,7.04438495635986,7.04887962341309,7.05337953567505,7.05788564682007,7.06239748001099,7.0669150352478,7.07143831253052,7.07596731185913,7.0805025100708,7.08504295349121,7.08958959579468,7.09414196014404,7.09870052337646,7.10326433181763,7.10783433914185,7.11241006851196,7.11699199676514,7.12157964706421,7.12617349624634,7.13077259063721,7.13537836074829,7.13998985290527,7.14460706710815,7.14923048019409,7.15385961532593,7.15849494934082,7.16313648223877,7.16778373718262,7.17243719100952,7.17709684371948,7.18176221847534,7.18643379211426,7.19111156463623,7.1957950592041,7.20048522949219,7.20518112182617,7.20988321304321,7.21459150314331,7.21930599212646,7.22402620315552,7.22875308990479,7.23348617553711,7.23822546005249,7.24297046661377,7.24772214889526,7.25248003005981,7.25724411010742,7.26201438903809,7.26679086685181,7.27157402038574,7.27636289596558,7.28115844726562,7.28596019744873,7.29076862335205,7.29558324813843,7.30040407180786,7.30523109436035,7.31006479263306,7.31490516662598,7.31975126266479,7.32460451126099,7.32946348190308,7.33432960510254,7.3392014503479,7.34408044815063,7.34896564483643,7.35385751724243,7.35875558853149,7.36366033554077,7.36857175827026,7.37348937988281,7.37841367721558,7.38334512710571,7.38828229904175,7.39322662353516,7.39817762374878,7.40313482284546,7.40809917449951,7.41306972503662,7.4180474281311,7.4230318069458,7.42802238464355,7.43302011489868,7.43802404403687,7.44303512573242,7.44805288314819,7.45307779312134,7.45810890197754,7.46314716339111,7.4681921005249,7.47324371337891,7.47830247879028,7.48336791992188,7.48844003677368,7.49351930618286,7.49860572814941,7.50369882583618,7.50879859924316,7.51390552520752,7.51863861083984,7.52174520492554,7.52485466003418,7.52796649932861,7.531081199646,7.53419828414917,7.53731775283813,7.54044008255005,7.54356479644775,7.54669237136841,7.54982233047485,7.55295515060425,7.55609035491943,7.55922794342041,7.56236839294434,7.56551170349121,7.56865739822388,7.57180547714233,7.57495641708374,7.57810974121094,7.58126592636108,7.58442497253418,7.58758640289307,7.59075021743774,7.59391689300537,7.59708642959595,7.61153221130371,7.63244819641113,7.65347957611084,7.67462682723999,7.69589138031006,7.71727418899536,7.73877620697021,7.76039838790894,7.76872825622559,7.77657175064087,7.78443098068237,7.79230642318726,7.80019760131836,7.80810499191284,7.8160285949707,7.82396793365479,7.83192348480225,7.83989524841309,7.8478832244873,7.8558874130249,7.86390829086304,7.87194538116455,0,0,0,0,0,0,0,0,0,0,0,0,0,0,0,0,0,0,0,0,0,0,0,0,0,0,0,0,0,0,0,0,0,0,0,0,0,0,0,0,0,0,0,0,0,0,0,0,0,0,0,0,0,0,0,0,0,0,0,0,0,0,0,0,0,0,0,0,0,0,0,0,0,0,0,0,0,0,0,0,0,0,0,0,0,0,0,0,0,0,0,0,0,0,0,0,0,0,0,0,0,0,0,0,0,0,0,0,0,0,0,0,0,0,0
6.77215909957886,6.77325487136841,6.77435111999512,6.77549076080322,6.7796483039856,6.78381156921387,6.78797960281372,6.79215288162231,6.79633092880249,6.80051469802856,6.80470323562622,6.80889701843262,6.81309604644775,6.81729984283447,6.82150936126709,6.82572364807129,6.82994365692139,6.83416843414307,6.83839893341064,6.8426342010498,6.84687471389771,6.8511209487915,6.85537195205688,6.85962867736816,6.86389017105103,6.86815738677979,6.87242984771729,6.87670755386353,6.88099050521851,6.88527870178223,6.88957262039185,6.89387178421021,6.8981761932373,6.90248584747314,6.90680122375488,6.91112184524536,6.91544771194458,6.9197793006897,6.92411613464355,6.92845821380615,6.93280601501465,6.93715953826904,6.94151782989502,6.94588232040405,6.95025205612183,6.95462703704834,6.95900774002075,6.9633936882019,6.96778583526611,6.9721827507019,6.97658586502075,6.98099422454834,6.98540782928467,6.98982763290405,6.99425268173218,6.9986834526062,7.00311994552612,7.00756168365479,7.0120096206665,7.01646280288696,7.02092170715332,7.02538633346558,7.02985668182373,7.03433275222778,7.03881406784058,7.04330158233643,7.04779481887817,7.05229377746582,7.05679845809937,7.06130886077881,7.06582498550415,7.07034683227539,7.07487440109253,7.07940816879272,7.08394718170166,7.08849239349365,7.09304332733154,7.09760046005249,7.10216283798218,7.10673141479492,7.11130619049072,7.11588621139526,7.12047243118286,7.12506484985352,7.12966299057007,7.13426685333252,7.13887691497803,7.14349269866943,7.1481146812439,7.15274286270142,7.15737628936768,7.16201639175415,7.16666221618652,7.17131423950195,7.17597246170044,7.18063640594482,7.18530654907227,7.18998289108276,7.19466495513916,7.19935321807861,7.20404767990112,7.20874834060669,7.21345520019531,7.21816825866699,7.22288751602173,7.22761249542236,7.23234415054321,7.23708152770996,7.24182558059692,7.24657583236694,7.25133180618286,7.25609445571899,7.26086330413818,7.26563835144043,7.27041959762573,7.27520751953125,7.28000116348267,7.2848014831543,7.28960847854614,7.29442119598389,7.29924058914185,7.30406618118286,7.30889844894409,7.31373691558838,7.31858205795288,7.32343339920044,7.32829093933105,7.33315515518188,7.33802604675293,7.34290313720703,7.34778690338135,7.35267686843872,7.35757350921631,7.36247682571411,7.36738634109497,7.37230253219604,7.37722539901733,7.38215494155884,7.38709115982056,7.39203357696533,7.39698266983032,7.40193891525269,7.40690135955811,7.41187047958374,7.41684627532959,7.42182874679565,7.42681789398193,7.43181371688843,7.43681669235229,7.44182586669922,7.44684219360352,7.45186519622803,7.45689487457275,7.4619312286377,7.46697473526001,7.47202491760254,7.47708177566528,7.4821457862854,7.48721599578857,7.49229383468628,7.4973783493042,7.50246953964233,7.50756788253784,7.5118145942688,7.51491546630859,7.51801919937134,7.52112579345703,7.52423429489136,7.52734565734863,7.53045988082886,7.53357648849487,7.53669548034668,7.53981733322144,7.54294157028198,7.54606866836548,7.54919815063477,7.55233001708984,7.55546474456787,7.55860233306885,7.56174230575562,7.56488466262817,7.56802988052368,7.57117748260498,7.57432794570923,7.57748079299927,7.58063650131226,7.58379459381104,7.58695554733276,7.59011936187744,7.59328508377075,7.60056972503662,7.62142515182495,7.64239549636841,7.66348171234131,7.68468475341797,7.70600509643555,7.72744417190552,7.7490029335022,7.76977872848511,7.77762460708618,7.78548622131348,7.79336357116699,0,0,0,0,0,0,0,0,0,0,0,0,0,0,0,0,0,0,0,0,0,0,0,0,0,0,0,0,0,0,0,0,0,0,0,0,0,0,0,0,0,0,0,0,0,0,0,0,0,0,0,0,0,0,0,0,0,0,0,0,0,0,0,0,0,0,0,0,0,0,0,0,0,0,0,0,0,0,0,0,0,0,0,0,0,0,0,0,0,0,0,0,0,0,0,0,0,0,0,0,0,0,0,0,0,0,0,0,0,0,0,0,0,0,0,0,0,0,0,0,0,0
6.77031660079956,6.77141189575195,6.7725076675415,6.77360343933105,6.77470016479492,6.77579689025879,6.77689409255981,6.77864503860474,6.78280687332153,6.78697395324707,6.79114580154419,6.79532289505005,6.79950523376465,6.80369234085083,6.80788516998291,6.81208276748657,6.81628561019897,6.82049369812012,6.82470703125,6.82892513275146,6.83314895629883,6.83737802505493,6.84161233901978,6.8458514213562,6.85009622573853,6.85434627532959,6.85860157012939,6.86286163330078,6.86712789535522,6.87139892578125,6.87567520141602,6.87995672225952,6.88424396514893,6.88853645324707,6.89283418655396,6.89713716506958,6.9014458656311,6.90575981140137,6.91007900238037,6.91440391540527,6.91873407363892,6.9230694770813,6.92741060256958,6.9317569732666,6.93610906600952,6.94046640396118,6.94482898712158,6.94919729232788,6.95357131958008,6.95795059204102,6.96233558654785,6.96672582626343,6.9711217880249,6.97552347183228,6.97993040084839,6.9843430519104,6.98876094818115,6.99318504333496,6.99761438369751,7.00204944610596,7.00648975372314,7.01093626022339,7.01538801193237,7.01984596252441,7.0243091583252,7.02877807617188,7.03325271606445,7.03773260116577,7.04221868515015,7.04671049118042,7.05120801925659,7.05571126937866,7.06022024154663,7.0647349357605,7.06925582885742,7.07378196716309,7.07831382751465,7.08285188674927,7.08739566802979,7.0919451713562,7.09650087356567,7.10106182098389,7.10562896728516,7.11020231246948,7.11478090286255,7.11936616897583,7.12395668029785,7.12855339050293,7.13315582275391,7.13776445388794,7.14237880706787,7.14699935913086,7.1516261100769,7.15625810623169,7.16089677810669,7.16554117202759,7.17019176483154,7.1748480796814,7.17951107025146,7.18417978286743,7.1888542175293,7.19353532791138,7.19822216033936,7.20291519165039,7.20761442184448,7.21231937408447,7.21703100204468,7.22174835205078,7.2264723777771,7.23120212554932,7.23593854904175,7.24068069458008,7.24542951583862,7.25018405914307,7.25494527816772,7.25971269607544,7.26448583602905,7.26926612854004,7.27405214309692,7.27884435653687,7.28364324569702,7.28844833374023,7.2932596206665,7.29807758331299,7.30290174484253,7.30773258209229,7.3125696182251,7.31741285324097,7.32226276397705,7.32711887359619,7.33198165893555,7.33685064315796,7.34172630310059,7.34660816192627,7.35149669647217,7.35639190673828,7.36129331588745,7.36620187759399,7.37111663818359,7.37603759765625,7.38096523284912,7.38590002059937,7.39084100723267,7.39578866958618,7.40074300765991,7.4057035446167,7.41067123413086,7.41564559936523,7.42062616348267,7.42561388015747,7.43060827255249,7.43560934066772,7.44061708450317,7.44563150405884,7.45065307617188,7.45568132400513,7.46071577072144,7.46575784683228,7.47080612182617,7.47586154937744,7.48092365264893,7.48599243164062,7.4910683631897,7.49615144729614,7.50124073028564,7.50500297546387,7.50809812545776,7.51119661331177,7.5142970085144,7.51740026473999,7.52050590515137,7.52361440658569,7.52672529220581,7.52983856201172,7.53295469284058,7.53607368469238,7.53919458389282,7.54231834411621,7.54544496536255,7.54857397079468,7.5517053604126,7.55483961105347,7.55797624588013,7.56111574172974,7.56425762176514,7.56740236282349,7.57054948806763,7.57369947433472,7.5768518447876,7.58000707626343,7.58316469192505,7.58632516860962,7.58948802947998,7.59265375137329,7.61043405532837,7.63134384155273,0,0,0,0,0,0,0,0,0,0,0,0,0,0,0,0,0,0,0,0,0,0,0,0,0,0,0,0,0,0,0,0,0,0,0,0,0,0,0,0,0,0,0,0,0,0,0,0,0,0,0,0,0,0,0,0,0,0,0,0,0,0,0,0,0,0,0,0,0,0,0,0,0,0,0,0,0,0,0,0,0,0,0,0,0,0,0,0,0,0,0,0,0,0,0,0,0,0,0,0,0,0,0,0,0,0,0,0,0,0,0,0,0,0,0,0,0,0,0,0,0,0,0,0,0,0,0,0
6.76847457885742,6.76956939697266,6.77066469192505,6.7717604637146,6.77285623550415,6.77395248413086,6.77504873275757,6.77614593505859,6.77724313735962,6.7783408164978,6.77943897247314,6.78180265426636,6.78596830368042,6.79013919830322,6.79431486129761,6.79849576950073,6.8026819229126,6.8068733215332,6.81106948852539,6.81527137756348,6.81947803497314,6.82368993759155,6.82790756225586,6.83212995529175,6.83635759353638,6.84059047698975,6.84482860565186,6.84907197952271,6.85332059860229,6.85757446289062,6.8618335723877,6.86609840393066,6.87036800384521,6.87464332580566,6.87892389297485,6.88320970535278,6.88750076293945,6.89179706573486,6.89609909057617,6.90040636062622,6.90471887588501,6.90903663635254,6.91336011886597,6.91768932342529,6.9220232963562,6.92636299133301,6.93070793151855,6.93505859375,6.93941450119019,6.94377613067627,6.94814348220825,6.95251560211182,6.95689392089844,6.9612774848938,6.9656662940979,6.9700608253479,6.9744610786438,6.9788670539856,6.98327827453613,6.98769474029541,6.99211740493774,6.99654531478882,7.00097894668579,7.00541830062866,7.00986337661743,7.01431369781494,7.01877021789551,7.02323198318481,7.02769947052002,7.03217267990112,7.03665161132812,7.04113626480103,7.04562664031982,7.05012273788452,7.05462455749512,7.05913209915161,7.063645362854,7.06816482543945,7.07268953323364,7.07722043991089,7.08175706863403,7.08629941940308,7.09084749221802,7.09540128707886,7.09996128082275,7.10452699661255,7.1090989112854,7.11367607116699,7.11825942993164,7.12284898757935,7.12744426727295,7.13204526901245,7.13665246963501,7.14126539230347,7.14588451385498,7.15050935745239,7.15514039993286,7.15977764129639,7.16442060470581,7.16906976699829,7.17372465133667,7.17838573455811,7.1830530166626,7.18772602081299,7.19240570068359,7.1970911026001,7.20178270339966,7.20648002624512,7.21118402481079,7.21589422225952,7.22061014175415,7.22533226013184,7.23006105422974,7.23479557037354,7.23953628540039,7.2442831993103,7.24903678894043,7.25379657745361,7.2585620880127,7.26333427429199,7.26811265945435,7.27289724349976,7.27768802642822,7.2824854850769,7.28728866577148,7.29209899902344,7.29691505432129,7.30173778533936,7.30656671524048,7.31140232086182,7.31624412536621,7.32109212875366,7.32594680786133,7.33080816268921,7.33567571640015,7.34054946899414,7.34543037414551,7.35031700134277,7.35521078109741,7.36011075973511,7.36501741409302,7.36993026733398,7.37484979629517,7.37977647781372,7.38470935821533,7.3896484375,7.39459466934204,7.39954710006714,7.40450668334961,7.40947246551514,7.41444540023804,7.41942453384399,7.42441034317017,7.42940330505371,7.43440246582031,7.43940877914429,7.44442176818848,7.44944143295288,7.4544677734375,7.45950078964233,7.46454095840454,7.46958780288696,7.4746413230896,7.47970199584961,7.48476934432983,7.48984336853027,7.49492454528809,7.49820327758789,7.50129365921021,7.50438594818115,7.50748109817505,7.51057863235474,7.51367855072021,7.51678133010864,7.51988649368286,7.52299451828003,7.52610492706299,7.52921772003174,7.53233337402344,7.53545141220093,7.53857231140137,7.5416955947876,7.54482126235962,7.54794979095459,7.55108070373535,7.55421447753906,7.55735063552856,7.56048965454102,7.56363105773926,7.56677532196045,7.56992197036743,7.57307100296021,7.57622337341309,7.5793776512146,7.58253479003906,0,0,0,0,0,0,0,0,0,0,0,0,0,0,0,0,0,0,0,0,0,0,0,0,0,0,0,0,0,0,0,0,0,0,0,0,0,0,0,0,0,0,0,0,0,0,0,0,0,0,0,0,0,0,0,0,0,0,0,0,0,0,0,0,0,0,0,0,0,0,0,0,0,0,0,0,0,0,0,0,0,0,0,0,0,0,0,0,0,0,0,0,0,0,0,0,0,0,0,0,0,0,0,0,0,0,0,0,0,0,0,0,0,0,0,0,0,0,0,0,0,0,0,0,0,0,0,0,0
