7.19531106948853,7.19931268692017,7.20331907272339,7.20732975006104,7.21134471893311,7.2153639793396,7.21938800811768,7.22341632843018,7.22744941711426,7.23148679733276,7.23552894592285,7.23957538604736,7.24362659454346,7.24768209457397,7.25174236297607,7.2558069229126,7.2598762512207,7.26394987106323,7.26802825927734,7.27211093902588,7.27619886398315,7.2802906036377,7.28438758850098,7.28848886489868,7.29259490966797,7.29670572280884,7.30082082748413,7.30494070053101,7.30906534194946,7.31319427490234,7.31732797622681,7.32146692276001,7.32561016082764,7.32975816726685,7.33391046524048,7.34657716751099,7.36026287078857,7.37399959564209,7.38778734207153,7.40162754058838,7.41551876068115,7.42946290969849,7.44345951080322,7.45750856399536,7.47161102294922,7.48576688766479,7.49997663497925,7.51424026489258,7.52855825424194,7.5429310798645,7.55735874176025,7.57184171676636,7.58525085449219,7.59291934967041,7.60060262680054,7.60830211639404,7.61601686477661,7.6237473487854,7.63149356842041,7.63925552368164,7.64703321456909,7.65482711791992,7.66263675689697,7.67046213150024,7.67830371856689,7.68616104125977,7.69403505325317,7.70192432403564,7.70983028411865,7.71775245666504,7.72569131851196,7.73364591598511,7.74161720275879,7.74960517883301,7.75760936737061,7.76563024520874,7.77366733551025,7.78172159194946,7.78979206085205,7.79787969589233,7.80598402023315,7.81410503387451,7.82224321365356,7.83039808273315,7.83857011795044,7.84675931930542,7.8549656867981,7.86318922042847,7.87142992019653,7.87968778610229,7.88796329498291,7.89625597000122,7.90456628799438,7.91289377212524,7.92123889923096,7.92960166931152,7.9379825592041,7.94638061523438,7.95479679107666,7.9632306098938,7.97168254852295,7.98015260696411,7.98864030838013,7.99714612960815,8.00567054748535,8.0142126083374,8.02277278900146,8.03135204315186,8.03994846343994,8.04856491088867,8.0571985244751,8.06585121154785,8.07452201843262,8.08321189880371,8.09192085266113,8.10064792633057,8.10939407348633,8.11815929412842,8.12694358825684,8.13574600219727,8.14456844329834,8.15340995788574,8.16227054595947,8.17115020751953,8.18004989624023,8.18896770477295,8.19790649414062,8.20686340332031,8.21584129333496,8.22483825683594,8.23385429382324,8.24289131164551,8.2519474029541,8.26102352142334,8.27011966705322,8.27923583984375,8.28837203979492,8.29752826690674,8.30670547485352,8.31590270996094,8.325119972229,8.33435726165771,8.34361553192139,8.35289478302002,8.36219501495361,8.37151527404785,8.38085651397705,8.39021873474121,8.39960193634033,8.4090051651001,8.41843032836914,8.42787647247314,8.43734455108643,8.44683361053467,8.45634365081787,8.46587467193604,8.47542858123779,8.4850025177002,8.49459934234619,8.50421714782715,8.51385688781738,8.52351951599121,8.533203125,8.54290866851807,8.55263614654541,8.56238651275635,8.57215881347656,8.58195304870605,8.59177017211914,8.60161018371582,8.61147212982178,8.62135696411133,8.63126373291016,8.64119434356689,8.65114784240723,8.66112327575684,8.67112255096436,8.68114471435547,8.69118976593018,8.70125865936279,8.711350440979,8.72146606445312,8.73160552978516,8.74484157562256,8.75932312011719,8.77385330200195,8.78843212127686,8.80305957794189,8.81773471832275,8.83245944976807,8.84723377227783,8.86205768585205,8.87693119049072,8.89185428619385,8.90682792663574,8.92185211181641,8.93692684173584,8.95205307006836,8.96722984313965,8.98245906829834,8.99773979187012,9.01307201385498,9.02845764160156,9.04389476776123,9.05938529968262,9.07492923736572,9.09052658081055,9.10617733001709,9.12188243865967,9.13764095306396,9.15345478057861,9.1693229675293,9.18524646759033,9.20122528076172,9.21726036071777,9.23335075378418,9.24949836730957,9.26570129394531,9.28196144104004,9.29827976226807,9.31465435028076,9.33108711242676,9.34757804870605,9.36412715911865,9.38073539733887,9.39740180969238,9.41412830352783,9.42957592010498,9.44312381744385,9.456711769104,9.47033786773682,9.48400402069092,9.49770927429199,9.51145362854004,9.52523899078369,9.53906345367432,9.55292892456055,9.56683444976807,9.58078002929688,9.59476661682129,9.60879421234131,9.62286281585693,9.63697242736816,9.65112400054932,9.66531658172607,9.67955207824707,9.69382858276367,9.7081470489502,9.72250843048096,9.73691272735596,9.75135898590088,9.76047039031982,9.76738357543945,9.77430629730225,9.7812385559082,9.78818130493164,9.79513359069824,9.80209541320801,9.80906772613525,9.81604957580566,9.82304096221924,9.83004283905029,9.83705520629883,9.84407615661621,9.85110855102539,9.85815048217773,9.86520195007324,9.87226486206055,9.8793363571167,9.88641929626465,9.89351177215576,9.90061473846436,9.90772724151611,9.91485023498535,9.92198371887207,9.92912769317627,9.93628120422363,9.94344520568848,9.9506196975708,9.95780467987061,9.96500015258789,9.97220611572266,9.9794225692749,9.98664855957031,9.99388599395752,10.0011339187622,10.0083913803101,10.0156602859497,10.0229396820068,10.0302295684814,10.0375299453735,10.0448408126831,10.0521631240845,10.059494972229,10.0668382644653,10.0741920471191,10.0815563201904,10.0889320373535,10.0963182449341,10.1037149429321,10.111123085022,10.1185417175293,10.1259717941284
7.18616724014282,7.19015884399414,7.19415473937988,7.19815492630005,7.20215940475464,7.20616865158081,7.21018266677856,7.21420097351074,7.21822357177734,7.22225093841553,7.22628259658813,7.23031854629517,7.23435926437378,7.23840427398682,7.24245405197144,7.24650812149048,7.25056743621826,7.25463056564331,7.25869846343994,7.26277112960815,7.26684808731079,7.27092981338501,7.27501583099365,7.27910661697388,7.28320217132568,7.28730201721191,7.29140663146973,7.29551601409912,7.29962968826294,7.3037486076355,7.30787134170532,7.31199932098389,7.31613159179688,7.3202691078186,7.32441091537476,7.33264923095703,7.34628295898438,7.35996770858765,7.37370300292969,7.38749027252197,7.40132904052734,7.4152193069458,7.42916202545166,7.44315767288208,7.4572057723999,7.47130680084229,7.48546171188354,7.49967002868652,7.51393270492554,7.52824974060059,7.54262113571167,7.555832862854,7.56344175338745,7.57106590270996,7.57870531082153,7.58635997772217,7.59403038024902,7.6017165184021,7.60941791534424,7.61713552474976,7.62486791610718,7.63261651992798,7.640380859375,7.64816093444824,7.65595674514771,7.66376876831055,7.67159652709961,7.67944049835205,7.68730020523071,7.69517612457275,7.70306777954102,7.71097660064697,7.71890115737915,7.72684240341187,7.7347993850708,7.74277305603027,7.75076293945312,7.75876951217651,7.76679277420044,7.7748327255249,7.78288888931274,7.79096221923828,7.79905223846436,7.80715847015381,7.81528234481812,7.82342290878296,7.83158016204834,7.83975505828857,7.84794664382935,7.85615539550781,7.86438131332397,7.87262439727783,7.88088512420654,7.88916301727295,7.89745807647705,7.90577077865601,7.91410112380981,7.92244863510132,7.93081426620483,7.93919706344604,7.94759845733643,7.9560170173645,7.96445369720459,7.97290802001953,7.98138046264648,7.98987102508545,7.99837923049927,8.0069055557251,8.0154504776001,8.02401351928711,8.03259563446045,8.04119491577148,8.04981327056885,8.05844974517822,8.06710529327393,8.07577896118164,8.08447170257568,8.09318256378174,8.10191345214844,8.11066150665283,8.11942958831787,8.12821674346924,8.13702201843262,8.14584732055664,8.15469169616699,8.16355514526367,8.17243766784668,8.18133926391602,8.190260887146,8.1992015838623,8.20816230773926,8.21714210510254,8.22614192962646,8.23516178131104,8.24420070648193,8.25325965881348,8.26233863830566,8.2714376449585,8.28055763244629,8.28969669342041,8.29885578155518,8.30803489685059,8.31723499298096,8.32645606994629,8.33569717407227,8.34495830535889,8.35424041748047,8.3635425567627,8.3728666305542,8.38221073150635,8.39157581329346,8.40096187591553,8.41036891937256,8.41979694366455,8.4292459487915,8.43871688842773,8.44820880889893,8.45772266387939,8.46725654602051,8.47681331634521,8.48639106750488,8.49599075317383,8.50561141967773,8.51525497436523,8.5249195098877,8.53460693359375,8.54431533813477,8.55404663085938,8.56379985809326,8.57357501983643,8.58337306976318,8.59319305419922,8.60303592681885,8.61290168762207,8.62278938293457,8.63270092010498,8.64263343811035,8.65259075164795,8.66256999969482,8.67257213592529,8.68259811401367,8.69264698028564,8.70271873474121,8.71281433105469,8.72509384155273,8.73951053619385,8.75397491455078,8.76848793029785,8.78304767608643,8.79765701293945,8.81231498718262,8.82702159881592,8.84177780151367,8.85658264160156,8.87143802642822,8.88634300231934,8.9012975692749,8.91630363464355,8.93135929107666,8.94646644592285,8.96162509918213,8.97683429718018,8.99209594726562,9.00741004943848,9.02277565002441,9.03819370269775,9.0536642074585,9.06918907165527,9.08476638793945,9.10039710998535,9.11608219146729,9.13182067871094,9.14761447906494,9.16346263885498,9.17936611175537,9.1953239440918,9.21133804321289,9.22740840911865,9.24353408813477,9.25971698760986,9.27595615386963,9.29225254058838,9.30860614776611,9.32501792907715,9.34148693084717,9.3580150604248,9.37460136413574,9.3912467956543,9.40524959564209,9.41872787475586,9.4322452545166,9.44580078125,9.45939636230469,9.47303009033203,9.48670387268066,9.50041675567627,9.51416969299316,9.52796268463135,9.5417947769165,9.55566787719727,9.56958198547363,9.58353519439697,9.59753036499023,9.61156558990479,9.62564277648926,9.63976097106934,9.65392017364502,9.66812133789062,9.68236446380615,9.6966495513916,9.71097660064697,9.72534656524658,9.73975849151611,9.75131797790527,9.75821781158447,9.76512718200684,9.77204704284668,9.77897644042969,9.78591537475586,9.7928638458252,9.79982280731201,9.80679130554199,9.81377029418945,9.82075881958008,9.82775783538818,9.83476638793945,9.84178447723389,9.8488130569458,9.8558521270752,9.86290073394775,9.86995983123779,9.877028465271,9.88410758972168,9.89119625091553,9.89829635620117,9.90540599822998,9.91252517700195,9.91965579986572,9.92679595947266,9.93394660949707,9.94110679626465,9.94827842712402,9.95545959472656,9.9626522064209,9.9698543548584,9.97706699371338,9.98429012298584,9.99152374267578,9.9987678527832,10.0060224533081,10.0132884979248,10.0205640792847,10.027850151062,10.0351476669312,10.0424547195435,10.0497732162476,10.0571022033691,10.0644416809082,10.0717916488647,10.0791530609131,10.0865249633789,10.0939073562622,10.1013011932373
7.17704629898071,7.18102788925171,7.18501329421997,7.18900346755981,7.19299793243408,7.19699716567993,7.20100069046021,7.2050085067749,7.20902109146118,7.21303796768188,7.21705913543701,7.22108507156372,7.22511577606201,7.22915029525757,7.23319005966187,7.23723363876343,7.24128198623657,7.2453351020813,7.24939250946045,7.25345468521118,7.25752115249634,7.26159238815308,7.26566791534424,7.26974821090698,7.27383327484131,7.27792263031006,7.28201675415039,7.2861156463623,7.29021883010864,7.29432678222656,7.29843950271606,7.30255651473999,7.3066782951355,7.31080484390259,7.3149356842041,7.31907176971436,7.33235645294189,7.34598922729492,7.35967254638672,7.37340688705444,7.38719272613525,7.40103054046631,7.41491985321045,7.42886161804199,7.44285583496094,7.45690298080444,7.47100305557251,7.48515653610229,7.49936389923096,7.5136251449585,7.52664232254028,7.53419256210327,7.54175758361816,7.54933786392212,7.55693387985229,7.56454467773438,7.57217121124268,7.57981300354004,7.58747005462646,7.59514236450195,7.60283088684082,7.61053466796875,7.61825370788574,7.62598896026611,7.63373994827271,7.64150619506836,7.64928865432739,7.65708684921265,7.66490125656128,7.67273092269897,7.68057727813721,7.68843936920166,7.69631767272949,7.7042121887207,7.71212291717529,7.72004985809326,7.72799301147461,7.73595285415649,7.74392890930176,7.7519211769104,7.75993013381958,7.7679557800293,7.77599811553955,7.78405666351318,7.79213237762451,7.80022430419922,7.80833387374878,7.81646013259888,7.82460308074951,7.83276319503784,7.84093999862671,7.84913396835327,7.85734510421753,7.86557388305664,7.87381935119629,7.88208246231079,7.89036273956299,7.89866065979004,7.90697574615479,7.91530847549438,7.92365884780884,7.93202686309814,7.9404125213623,7.94881629943848,7.95723724365234,7.96567630767822,7.97413349151611,7.98260831832886,7.99110174179077,7.99961280822754,8.00814151763916,8.01668930053711,8.02525520324707,8.03383922576904,8.04244136810303,8.05106258392334,8.05970191955566,8.06836032867432,8.07703685760498,8.08573150634766,8.09444618225098,8.10317897796631,8.11192989349365,8.12070083618164,8.12949085235596,8.13829898834229,8.14712715148926,8.15597343444824,8.16483974456787,8.17372512817383,8.18262958526611,8.19155406951904,8.2004976272583,8.2094612121582,8.21844387054443,8.22744655609131,8.23646926879883,8.24551105499268,8.25457286834717,8.2636547088623,8.2727575302124,8.28187942504883,8.2910213470459,8.30018329620361,8.30936622619629,8.31856918334961,8.32779216766357,8.3370361328125,8.34630107879639,8.35558605194092,8.36489200592041,8.37421798706055,8.38356494903564,8.3929328918457,8.40232276916504,8.41173267364502,8.42116355895996,8.43061637878418,8.44009017944336,8.4495849609375,8.45910167694092,8.4686393737793,8.47819805145264,8.48777961730957,8.49738216400146,8.50700664520264,8.51665306091309,8.5263204574585,8.5360107421875,8.54572296142578,8.55545711517334,8.56521415710449,8.57499217987061,8.58479404449463,8.59461688995361,8.60446357727051,8.61433219909668,8.62422370910645,8.63413715362549,8.64407444000244,8.65403366088867,8.66401672363281,8.67402267456055,8.68405151367188,8.6941032409668,8.70543479919434,8.71978664398193,8.73418617248535,8.74863338470459,8.76312732696533,8.77767086029053,8.79226207733154,8.8069019317627,8.82159042358398,8.83632755279541,8.85111522674561,8.86595153808594,8.88083839416504,8.89577484130859,8.91076183319092,8.92579936981201,8.94088745117188,8.95602703094482,8.97121715545654,8.98645973205566,9.00175380706787,9.01710033416748,9.03249931335449,9.04795074462891,9.06345558166504,9.07901287078857,9.09462451934814,9.11028957366943,9.12600803375244,9.1417818069458,9.15760898590088,9.17349243164062,9.18943023681641,9.20542430877686,9.22147274017334,9.23757839202881,9.25374031066895,9.26995849609375,9.28623390197754,9.30256652832031,9.31895637512207,9.33540439605713,9.35191059112549,9.36767673492432,9.38104820251465,9.39445686340332,9.40790462493896,9.42139053344727,9.43491554260254,9.44847965240479,9.46208190917969,9.47572422027588,9.48940563201904,9.50312614440918,9.51688671112061,9.53068733215332,9.54452800750732,9.55840969085693,9.57233047485352,9.5862922668457,9.6002950668335,9.61433887481689,9.6284236907959,9.64255046844482,9.65671825408936,9.67092704772949,9.68517875671387,9.69947242736816,9.71380805969238,9.72818565368652,9.7421817779541,9.74906826019287,9.75596523284912,9.76287174224854,9.76978874206543,9.77671432495117,9.78365039825439,9.79059600830078,9.79755210876465,9.80451679229736,9.81149291992188,9.81847763061523,9.82547378540039,9.83247852325439,9.83949375152588,9.84651947021484,9.85355472564697,9.86060047149658,9.86765575408936,9.87472152709961,9.88179683685303,9.88888263702393,9.8959789276123,9.90308475494385,9.91020202636719,9.91732788085938,9.92446517944336,9.93161201477051,9.93877029418945,9.94593811035156,9.95311641693115,9.96030426025391,9.96750354766846,9.97471332550049,9.98193264007568,9.98916339874268,9.99640369415283,10.0036554336548,10.0109167098999,10.0181894302368,10.0254716873169,10.0327653884888,10.0400695800781,10.047384262085,10.0547094345093,10.0620460510254,10.069393157959,10.0767507553101
7.16794872283936,7.17191982269287,7.17589521408081,7.17987537384033,7.18385982513428,7.18784856796265,7.1918420791626,7.19583988189697,7.19984245300293,7.20384883880615,7.20785999298096,7.21187543869019,7.215895652771,7.21992015838623,7.22394943237305,7.22798299789429,7.23202085494995,7.2360634803772,7.24011039733887,7.24416208267212,7.24821853637695,7.25227928161621,7.25634431838989,7.26041412353516,7.264488697052,7.26856756210327,7.27265119552612,7.2767391204834,7.28083229064941,7.2849292755127,7.28903150558472,7.29313802719116,7.29724884033203,7.30136489868164,7.30548572540283,7.30961036682129,7.31848239898682,7.33206367492676,7.34569501876831,7.35937738418579,7.3731107711792,7.38689565658569,7.40073204040527,7.4146203994751,7.42856073379517,7.44255399703979,7.45659971237183,7.47069883346558,7.48485136032104,7.49767637252808,7.50516843795776,7.51267528533936,7.52019739151001,7.52773475646973,7.53528690338135,7.54285430908203,7.55043697357178,7.55803489685059,7.56564807891846,7.57327651977539,7.58092021942139,7.5885796546936,7.59625482559204,7.60394525527954,7.61165142059326,7.61937284469604,7.62711000442505,7.63486337661743,7.64263200759888,7.6504168510437,7.65821743011475,7.66603374481201,7.67386627197266,7.68171453475952,7.68957901000977,7.69745969772339,7.70535659790039,7.71326971054077,7.72119903564453,7.72914457321167,7.73710632324219,7.74508476257324,7.75307989120483,7.7610912322998,7.76911926269531,7.77716398239136,7.78522491455078,7.7933030128479,7.80139780044556,7.80950927734375,7.81763792037964,7.82578325271606,7.83394575119019,7.842125415802,7.85032176971436,7.8585352897644,7.86676645278931,7.87501430511475,7.8832802772522,7.89156341552734,7.89986324310303,7.90818119049072,7.91651630401611,7.92486953735352,7.93323993682861,7.94162845611572,7.95003414154053,7.95845794677734,7.96689987182617,7.97535943984985,7.98383712768555,7.99233245849609,8.00084590911865,8.00937843322754,8.01792812347412,8.02649688720703,8.03508377075195,8.04368877410889,8.05231285095215,8.06095409393311,8.06961536407471,8.078293800354,8.08699226379395,8.0957088470459,8.10444450378418,8.11319923400879,8.12197208404541,8.13076496124268,8.13957595825195,8.14840602874756,8.15725612640381,8.16612529754639,8.17501354217529,8.18392086029053,8.19284820556641,8.20179462432861,8.21076107025146,8.21974658966064,8.22875213623047,8.23777675628662,8.24682235717773,8.25588703155518,8.26497173309326,8.27407646179199,8.28320121765137,8.2923469543457,8.30151176452637,8.31069755554199,8.31990337371826,8.32913017272949,8.33837699890137,8.34764385223389,8.35693168640137,8.36624050140381,8.37557029724121,8.38492012023926,8.39429187774658,8.40368366241455,8.41309642791748,8.42253112792969,8.43198680877686,8.44146347045898,8.45096111297607,8.46048069000244,8.47002220153809,8.47958469390869,8.48916816711426,8.49877452850342,8.50840187072754,8.51805114746094,8.52772235870361,8.53741550445557,8.5471305847168,8.55686855316162,8.56662845611572,8.5764102935791,8.58621501922607,8.59604167938232,8.60589027404785,8.61576271057129,8.625657081604,8.63557434082031,8.64551448822021,8.65547752380371,8.6654634475708,8.6754732131958,8.68586444854736,8.70015239715576,8.71448612213135,8.72886848449707,8.7432975769043,8.75777435302734,8.77229976654053,8.78687286376953,8.80149459838867,8.81616592407227,8.83088493347168,8.84565448760986,8.86047267913818,8.87534046173096,8.8902587890625,8.9052267074585,8.92024517059326,8.93531513214111,8.95043563842773,8.96560764312744,8.98083019256592,8.9961051940918,9.01143264770508,9.02681255340576,9.04224395751953,9.05772876739502,9.07326698303223,9.08885860443115,9.1045036315918,9.12020301818848,9.13595581054688,9.15176391601562,9.16762638092041,9.18354415893555,9.19951725006104,9.21554565429688,9.23163032531738,9.24777126312256,9.2639684677124,9.28022289276123,9.29653453826904,9.31290340423584,9.32932949066162,9.34366893768311,9.35697078704834,9.37031173706055,9.38368988037109,9.39710712432861,9.41056156158447,9.4240550994873,9.43758773803711,9.45115947723389,9.46477031707764,9.47841930389404,9.49210834503174,9.50583744049072,9.51960563659668,9.53341484069824,9.54726314544678,9.56115245819092,9.57508182525635,9.58905124664307,9.60306262969971,9.61711406707764,9.63120746612549,9.64534187316895,9.65951728820801,9.67373466491699,9.68799495697021,9.70229625701904,9.71664047241211,9.7310266494751,9.73993682861328,9.7468204498291,9.7537145614624,9.76061820983887,9.76753044128418,9.77445411682129,9.78138637542725,9.78832912445068,9.79528141021729,9.80224418640137,9.8092155456543,9.81619834899902,9.82319068908691,9.83019256591797,9.83720397949219,9.8442268371582,9.85125827789307,9.85830020904541,9.86535263061523,9.87241554260254,9.87948799133301,9.88656997680664,9.89366245269775,9.90076541900635,9.90787887573242,9.91500186920166,9.9221363067627,9.92927932739258,9.93643379211426,9.94359874725342,9.95077323913574,9.95795822143555,9.96515369415283,9.9723596572876,9.97957611083984,9.98680305480957,9.99404048919678,10.0012884140015,10.0085468292236,10.0158157348633,10.0230951309204,10.030385017395,10.0376853942871,10.044997215271,10.052318572998
7.15887355804443,7.16283512115479,7.1668004989624,7.1707706451416,7.17474460601807,7.17872381210327,7.18270683288574,7.18669462203979,7.19068670272827,7.19468307495117,7.1986837387085,7.2026891708374,7.20669937133789,7.21071338653564,7.21473217010498,7.2187557220459,7.22278308868408,7.22681570053101,7.2308521270752,7.23489379882812,7.23893928527832,7.2429895401001,7.24704456329346,7.25110387802124,7.25516796112061,7.25923633575439,7.26330947875977,7.26738691329956,7.2714695930481,7.2755560874939,7.27964782714844,7.2837438583374,7.28784418106079,7.29194927215576,7.29605913162231,7.30017375946045,7.30466079711914,7.318190574646,7.33177089691162,7.34540128707886,7.35908222198486,7.37281465530396,7.38659858703613,7.40043354034424,7.41432094573975,7.4282603263855,7.44225215911865,7.45629692077637,7.46893262863159,7.47636699676514,7.48381662368774,7.49128103256226,7.49876022338867,7.50625467300415,7.51376342773438,7.52128791809082,7.52882719039917,7.53638172149658,7.5439510345459,7.55153608322144,7.55913591384888,7.56675148010254,7.57438230514526,7.58202838897705,7.58969020843506,7.59736728668213,7.60505962371826,7.61276817321777,7.62049198150635,7.62823152542114,7.63598728179932,7.64375829696655,7.65154504776001,7.65934801101685,7.6671667098999,7.67500162124634,7.68285226821899,7.69071912765503,7.69860219955444,7.70650100708008,7.71441650390625,7.72234869003296,7.73029613494873,7.7382607460022,7.74624156951904,7.75423860549927,7.76225233078003,7.77028274536133,7.77832984924316,7.78639364242554,7.79447412490845,7.80257129669189,7.81068515777588,7.81881618499756,7.82696390151978,7.83512878417969,7.84331083297729,7.8515100479126,7.8597264289856,7.86795949935913,7.87621021270752,7.88447856903076,7.89276361465454,7.90106630325317,7.90938711166382,7.917724609375,7.92608022689819,7.93445348739624,7.94284439086914,7.95125293731689,7.9596791267395,7.96812343597412,7.97658586502075,7.98506593704224,7.99356412887573,8.0020809173584,8.01061534881592,8.01916790008545,8.02773952484131,8.03632831573486,8.04493618011475,8.05356216430664,8.06220722198486,8.0708703994751,8.07955265045166,8.08825302124023,8.09697246551514,8.10571098327637,8.11446762084961,8.1232442855835,8.13203907012939,8.14085292816162,8.14968681335449,8.15853881835938,8.1674108505249,8.17630195617676,8.18521213531494,8.19414234161377,8.20309162139893,8.21206092834473,8.22104930877686,8.23005771636963,8.23908519744873,8.24813365936279,8.25720119476318,8.26628875732422,8.2753963470459,8.28452396392822,8.29367256164551,8.30284023284912,8.3120288848877,8.32123756408691,8.33046722412109,8.33971691131592,8.3489875793457,8.35827827453613,8.36758995056152,8.37692260742188,8.38627624511719,8.39564990997314,8.40504550933838,8.41446113586426,8.42389869689941,8.43335723876953,8.44283676147461,8.45233821868896,8.46186065673828,8.47140502929688,8.48097038269043,8.49055767059326,8.50016689300537,8.50979709625244,8.51945018768311,8.52912425994873,8.53882122039795,8.54853916168213,8.5582799911499,8.56804275512695,8.5778284072876,8.58763599395752,8.59746646881104,8.60731887817383,8.61719417572021,8.62709140777588,8.63701248168945,8.6469554901123,8.65692234039307,8.66691207885742,8.6806058883667,8.69487571716309,8.70919227600098,8.72355651855469,8.73796844482422,8.75242805480957,8.76693534851074,8.78149127960205,8.79609489440918,8.81074810028076,8.82544898986816,8.84019947052002,8.85499954223633,8.86984920501709,8.88474941253662,8.89969825744629,8.91469860076904,8.92974948883057,8.94485092163086,8.96000385284424,8.9752082824707,8.99046421051025,9.00577259063721,9.02113246917725,9.03654479980469,9.05201053619385,9.06752872467041,9.08310031890869,9.09872531890869,9.11440467834473,9.13013744354248,9.14592552185059,9.16176795959473,9.1776647567749,9.19361782073975,9.20962619781494,9.22568988800049,9.2418098449707,9.25798606872559,9.27421951293945,9.2905101776123,9.30658626556396,9.31978321075439,9.33301734924316,9.34628963470459,9.35959911346436,9.37294769287109,9.38633346557617,9.39975738525391,9.41322040557861,9.42672157287598,9.44026184082031,9.45384120941162,9.46745872497559,9.48111629486084,9.49481391906738,9.5085506439209,9.52232646942139,9.53614330291748,9.54999923706055,9.56389617919922,9.5778341293335,9.59181213378906,9.60583019256592,9.6198902130127,9.63399219512939,9.64813423156738,9.66231822967529,9.67654418945312,9.69081211090088,9.70512199401855,9.71947479248047,9.73082256317139,9.73769378662109,9.74457454681396,9.75146484375,9.7583646774292,9.76527500152588,9.77219390869141,9.77912425994873,9.7860631942749,9.79301261901855,9.79997158050537,9.80694007873535,9.81391906738281,9.82090854644775,9.82790660858154,9.83491611480713,9.84193420410156,9.84896373748779,9.85600185394287,9.86305141448975,9.87011051177979,9.87717914581299,9.88425827026367,9.89134788513184,9.89844703674316,9.90555763244629,9.91267681121826,9.91980743408203,9.92694759368896,9.9340991973877,9.94126033782959,9.94843101501465,9.9556131362915,9.96280574798584,9.97000789642334,9.97722053527832,9.9844446182251,9.99167823791504,9.99892234802246,10.0061779022217,10.0134429931641,10.0207195281982,10.0280055999756
7.14982175827026,7.15377330780029,7.15772867202759,7.16168880462646,7.16565275192261,7.16962146759033,7.17359495162964,7.17757225036621,7.18155431747437,7.18554019927979,7.18953132629395,7.19352626800537,7.19752597808838,7.20152997970581,7.20553874969482,7.20955181121826,7.21356916427612,7.21759128570557,7.22161769866943,7.22564840316772,7.22968435287476,7.23372411727905,7.23776865005493,7.24181747436523,7.24587106704712,7.24992895126343,7.25399208068848,7.25805902481079,7.26213073730469,7.26620721817017,7.27028799057007,7.27437353134155,7.27846336364746,7.28255844116211,7.28665781021118,7.29076147079468,7.29486989974976,7.30437040328979,7.31789922714233,7.33147764205933,7.34510707855225,7.35878753662109,7.37251853942871,7.38630104064941,7.40013551712036,7.41402149200439,7.42795991897583,7.44040822982788,7.44778633117676,7.45517873764038,7.46258640289307,7.4700083732605,7.47744512557983,7.48489665985107,7.49236297607422,7.49984455108643,7.50734090805054,7.51485204696655,7.52237844467163,7.52991962432861,7.53747653961182,7.54504823684692,7.55263519287109,7.56023788452148,7.56785535812378,7.57548856735229,7.58313703536987,7.59080076217651,7.59848022460938,7.60617542266846,7.61388540267944,7.62161159515381,7.62935352325439,7.6371111869812,7.64488458633423,7.65267372131348,7.6604790687561,7.66830015182495,7.67613697052002,7.68399047851562,7.69185924530029,7.6997447013855,7.70764636993408,7.71556425094604,7.72349834442139,7.73144817352295,7.73941516876221,7.74739837646484,7.75539779663086,7.76341390609741,7.7714467048645,7.77949619293213,7.78756237030029,7.79564523696899,7.80374479293823,7.81186151504517,7.81999492645264,7.8281455039978,7.83631277084351,7.84449672698975,7.85269832611084,7.86091709136963,7.86915302276611,7.87740612030029,7.88567686080933,7.89396476745605,7.90227031707764,7.91059303283691,7.9189338684082,7.92729139328003,7.93566751480103,7.94406080245972,7.95247173309326,7.96090078353882,7.96934747695923,7.97781229019165,7.98629522323608,7.99479627609253,8.00331497192383,8.0118522644043,8.02040767669678,8.02898120880127,8.03757381439209,8.04618358612061,8.05481243133545,8.06346035003662,8.0721263885498,8.080810546875,8.08951473236084,8.09823703765869,8.10697746276855,8.11573791503906,8.12451648712158,8.13331413269043,8.14213085174561,8.15096664428711,8.15982246398926,8.16869640350342,8.17759037017822,8.18650436401367,8.19543647766113,8.20438861846924,8.21336078643799,8.22235202789307,8.23136329650879,8.24039363861084,8.24944496154785,8.25851535797119,8.26760578155518,8.27671718597412,8.28584766387939,8.29499816894531,8.30416965484619,8.31336116790771,8.32257270812988,8.33180522918701,8.34105777740479,8.35033130645752,8.35962581634521,8.36894035339355,8.37827587127686,8.3876314163208,8.39700889587402,8.40640735626221,8.41582679748535,8.42526721954346,8.43472862243652,8.44421100616455,8.45371532440186,8.46324157714844,8.47278881072998,8.48235702514648,8.49194812774658,8.50156021118164,8.51119422912598,8.52084922790527,8.53052711486816,8.54022693634033,8.54994869232178,8.5596923828125,8.5694580078125,8.57924747467041,8.58905792236328,8.59889125823975,8.60874652862549,8.61862564086914,8.62852668762207,8.63845062255859,8.64839744567871,8.66114711761475,8.67535305023193,8.68960571289062,8.70390510559082,8.71825218200684,8.73264598846436,8.74708843231201,8.76157760620117,8.77611541748047,8.7907018661499,8.80533599853516,8.82001972198486,8.83475208282471,8.849534034729,8.86436557769775,8.87924671173096,8.89417743682861,8.90915870666504,8.92419147491455,8.93927383422852,8.95440769195557,8.9695930480957,8.98482990264893,9.00011825561523,9.01545906066895,9.03085231781006,9.04629802703857,9.06179714202881,9.07734966278076,9.09295463562012,9.10861396789551,9.12432670593262,9.14009475708008,9.15591621398926,9.17179393768311,9.18772602081299,9.20371341705322,9.21975708007812,9.23585605621338,9.25201225280762,9.26822376251221,9.2828893661499,9.29601860046387,9.30918598175049,9.32239055633545,9.33563232421875,9.34891223907471,9.362229347229,9.37558460235596,9.38897800445557,9.40240955352783,9.41588020324707,9.42938899993896,9.44293689727783,9.45652389526367,9.47014999389648,9.48381519317627,9.49751949310303,9.51126480102539,9.52504825592041,9.53887271881104,9.55273723602295,9.56664180755615,9.58058738708496,9.59457397460938,9.60860061645508,9.6226692199707,9.63677787780762,9.65092849731445,9.66512107849121,9.67935562133789,9.69363117218018,9.7079496383667,9.72172546386719,9.72858333587646,9.73545074462891,9.74232864379883,9.74921607971191,9.75611305236816,9.76301956176758,9.76993560791016,9.77686214447021,9.78379821777344,9.79074382781982,9.79769992828369,9.80466556549072,9.81164169311523,9.81862735748291,9.82562255859375,9.83262825012207,9.83964347839355,9.84666919708252,9.85370445251465,9.86075019836426,9.86780643463135,9.8748722076416,9.88194751739502,9.88903427124023,9.89613056182861,9.90323638916016,9.9103536605835,9.91748046875,9.92461776733398,9.93176460266113,9.93892288208008,9.94609069824219,9.95326900482178,9.96045780181885,9.9676570892334,9.97486686706543,9.98208713531494,9.98931694030762,9.99655818939209,10.003809928894
7.14079284667969,7.14473438262939,7.14867973327637,7.15262985229492,7.15658378601074,7.16054248809814,7.16450548171997,7.16847324371338,7.17244482040405,7.17642116546631,7.18040180206299,7.18438673019409,7.18837642669678,7.19237041473389,7.19636869430542,7.20037126541138,7.20437860488892,7.20839023590088,7.21240663528442,7.21642732620239,7.22045230865479,7.22448205947876,7.22851657867432,7.23255491256714,7.23659801483154,7.24064588546753,7.24469804763794,7.24875497817993,7.25281620025635,7.25688219070435,7.26095247268677,7.26502752304077,7.2691068649292,7.27319097518921,7.2772798538208,7.28137350082397,7.28547143936157,7.29060173034668,7.30407953262329,7.31760740280151,7.33118486404419,7.34481334686279,7.35849237442017,7.37222242355347,7.38600397109985,7.39983701705933,7.41210079193115,7.41942262649536,7.42675924301147,7.43411016464233,7.4414758682251,7.44885587692261,7.45625019073486,7.46365976333618,7.4710841178894,7.47852277755737,7.4859766960144,7.49344539642334,7.50092887878418,7.50842714309692,7.51594066619873,7.5234694480896,7.53101301193237,7.53857183456421,7.54614591598511,7.55373525619507,7.56133985519409,7.56895971298218,7.57659482955933,7.5842456817627,7.59191179275513,7.59959316253662,7.60729026794434,7.61500310897827,7.62273168563843,7.63047552108765,7.63823556900024,7.64601182937622,7.65380334854126,7.66161060333252,7.66943407058716,7.67727327346802,7.68512868881226,7.69300031661987,7.70088768005371,7.70879173278809,7.71671152114868,7.72464799880981,7.73260068893433,7.74056959152222,7.74855518341064,7.75655746459961,7.76457643508911,7.77261161804199,7.78066301345825,7.78873157501221,7.7968168258667,7.80491876602173,7.81303787231445,7.82117366790771,7.82932662963867,7.83749628067017,7.84568357467651,7.85388708114624,7.86210870742798,7.87034702301025,7.87860298156738,7.88687610626221,7.89516639709473,7.9034743309021,7.91179990768433,7.92014265060425,7.92850303649902,7.93688106536865,7.94527721405029,7.95369100570679,7.96212244033813,7.97057199478149,7.97903966903687,7.98752498626709,7.99602842330933,8.00454998016357,8.01309013366699,8.02164745330811,8.03022480010986,8.03881931304932,8.04743194580078,8.05606365203857,8.0647144317627,8.07338237762451,8.08207035064697,8.09077644348145,8.09950065612793,8.10824489593506,8.1170072555542,8.12578868865967,8.13458919525146,8.14340877532959,8.15224838256836,8.16110610961914,8.16998386383057,8.17888069152832,8.18779563903809,8.19673156738281,8.20568656921387,8.21466159820557,8.22365570068359,8.23266983032227,8.24170303344727,8.25075721740723,8.25983047485352,8.26892375946045,8.27803707122803,8.28717136383057,8.29632472991943,8.30549907684326,8.31469345092773,8.32390785217285,8.33314323425293,8.34239959716797,8.35167598724365,8.36097240447998,8.37029075622559,8.37962913513184,8.38898849487305,8.39836883544922,8.40776920318604,8.41719245910645,8.4266357421875,8.43610000610352,8.44558620452881,8.45509338378906,8.46462249755859,8.47417259216309,8.48374462127686,8.49333763122559,8.50295352935791,8.5125904083252,8.52224922180176,8.5319299697876,8.54163265228271,8.55135822296143,8.5611047744751,8.57087421417236,8.58066654205322,8.59047985076904,8.60031700134277,8.61017608642578,8.62005710601807,8.62996196746826,8.64177513122559,8.65591812133789,8.67010688781738,8.68434238433838,8.69862461090088,8.71295356750488,8.72733020782471,8.74175453186035,8.75622653961182,8.7707462310791,8.78531455993652,8.79993152618408,8.81459712982178,8.82931137084961,8.84407520294189,8.85888767242432,8.87375068664551,8.88866329193115,8.90362644195557,8.91863918304443,8.93370342254639,8.94881820678711,8.96398448944092,8.97920227050781,8.99447250366211,9.00979328155518,9.02516746520996,9.04059410095215,9.05607318878174,9.07160568237305,9.08719158172607,9.10283088684082,9.11852359771729,9.1342716217041,9.15007305145264,9.16592979431152,9.18184185028076,9.19780826568604,9.21383190155029,9.22990989685059,9.24604511260986,9.25931262969971,9.27237606048584,9.285475730896,9.29861354827881,9.31178760528564,9.32499980926514,9.33824825286865,9.35153579711914,9.36486053466797,9.37822341918945,9.39162445068359,9.40506362915039,9.41854190826416,9.43205833435059,9.44561386108398,9.45920848846436,9.4728422164917,9.48651504516602,9.50022792816162,9.5139799118042,9.52777194976807,9.54160404205322,9.55547714233398,9.56938934326172,9.58334350585938,9.597336769104,9.61137199401855,9.62544822692871,9.63956642150879,9.65372467041016,9.66792583465576,9.68216800689697,9.69645214080811,9.71077919006348,9.71949005126953,9.72634506225586,9.73320960998535,9.74008369445801,9.74696731567383,9.75386142730713,9.76076507568359,9.76767826080322,9.77460098266602,9.78153419494629,9.78847694396973,9.79543018341064,9.80239200592041,9.80936431884766,9.81634712219238,9.82333946228027,9.83034133911133,9.83735370635986,9.84437656402588,9.85140800476074,9.8584508895874,9.86550331115723,9.87256622314453,9.879638671875,9.88672161102295,9.89381408691406,9.90091705322266,9.90803050994873,9.91515445709229,9.922287940979,9.9294319152832,9.93658638000488,9.94375133514404,9.95092582702637,9.95811176300049,9.96530723571777,9.97251319885254,9.9797306060791
7.13090133666992,7.13565540313721,7.13965368270874,7.14359378814697,7.14753818511963,7.15148639678955,7.15543985366821,7.15939712524414,7.16335868835449,7.16732501983643,7.17129564285278,7.17527055740356,7.17924976348877,7.18323373794556,7.18722200393677,7.1912145614624,7.19521141052246,7.1992130279541,7.20321893692017,7.20722961425781,7.21124458312988,7.21526384353638,7.21928739547729,7.22331619262695,7.22734880447388,7.23138618469238,7.23542785644531,7.23947429656982,7.24352550506592,7.24758100509644,7.25164079666138,7.2557053565979,7.25977468490601,7.26384830474854,7.26792621612549,7.27200937271118,7.2760968208313,7.28018856048584,7.29031229019165,7.30378913879395,7.31731557846069,7.33089208602905,7.34451961517334,7.35819721221924,7.37192630767822,7.38400840759277,7.39127492904663,7.39855575561523,7.40585088729858,7.41316032409668,7.42048406600952,7.42782258987427,7.43517589569092,7.44254302978516,7.44992542266846,7.4573221206665,7.46473360061646,7.47215986251831,7.47960090637207,7.48705673217773,7.49452781677246,7.50201368331909,7.50951433181763,7.51702976226807,7.52456092834473,7.53210639953613,7.53966760635376,7.54724407196045,7.55483531951904,7.56244230270386,7.57006406784058,7.57770156860352,7.58535432815552,7.59302282333374,7.60070657730103,7.60840606689453,7.61612129211426,7.62385177612305,7.63159847259521,7.63936042785645,7.64713859558105,7.65493249893188,7.66274213790894,7.67056798934937,7.67840957641602,7.68626737594604,7.69414091110229,7.70203113555908,7.70993709564209,7.71785974502563,7.72579860687256,7.73375368118286,7.74172496795654,7.74971294403076,7.75771760940552,7.76573848724365,7.77377605438232,7.78183031082153,7.78990125656128,7.79798889160156,7.80609321594238,7.8142147064209,7.82235336303711,7.8305082321167,7.83868074417114,7.84687042236328,7.85507678985596,7.86330032348633,7.87154102325439,7.87979936599731,7.88807535171509,7.8963680267334,7.90467882156372,7.91300630569458,7.92135190963745,7.92971515655518,7.9380955696106,7.94649410247803,7.95491075515747,7.96334505081177,7.97179698944092,7.98026704788208,7.98875522613525,7.99726104736328,8.00578498840332,8.01432800292969,8.02288913726807,8.03146743774414,8.04006481170654,8.04868030548096,8.0573148727417,8.06596755981445,8.07463932037354,8.08332920074463,8.09203815460205,8.1007661819458,8.10951232910156,8.11827754974365,8.12706184387207,8.13586521148682,8.14468765258789,8.15352916717529,8.16239070892334,8.1712703704834,8.1801700592041,8.18908882141113,8.19802665710449,8.20698547363281,8.21596240997314,8.22495937347412,8.23397636413574,8.24301242828369,8.2520694732666,8.26114559173584,8.27024269104004,8.27935886383057,8.28849506378174,8.29765224456787,8.30682945251465,8.31602668762207,8.32524394989014,8.33448219299316,8.34374141693115,8.35302066802979,8.36231994628906,8.37164115905762,8.38098239898682,8.39034461975098,8.39972877502441,8.4091329574585,8.41855812072754,8.42800426483154,8.43747234344482,8.44696140289307,8.45647239685059,8.46600341796875,8.47555732727051,8.48513221740723,8.49472904205322,8.50434684753418,8.51398754119873,8.52364921569824,8.53333377838135,8.54303932189941,8.55276775360107,8.56251811981201,8.57229042053223,8.58208560943604,8.59190273284912,8.6017427444458,8.61160564422607,8.62248992919922,8.63656902313232,8.65069484710693,8.66486644744873,8.67908477783203,8.69334983825684,8.70766162872314,8.72202110290527,8.73642730712891,8.75088214874268,8.76538372039795,8.77993488311768,8.79453372955322,8.80918025970459,8.82387733459473,8.83862209320068,8.85341739654541,8.86826133728027,8.88315582275391,8.89809989929199,8.91309452056885,8.92814064025879,8.94323635101318,8.95838356018066,8.97358226776123,8.98883247375488,9.00413513183594,9.01948928833008,9.03489685058594,9.05035591125488,9.06586933135986,9.08143520355225,9.09705448150635,9.11272811889648,9.12845516204834,9.14423751831055,9.16007328033447,9.17596530914307,9.1919116973877,9.20791339874268,9.22289562225342,9.23585605621338,9.24885272979736,9.26188659667969,9.27495670318604,9.28806400299072,9.30120849609375,9.31439018249512,9.32761001586914,9.34086608886719,9.35416126251221,9.36749362945557,9.38086318969727,9.39427185058594,9.40771961212158,9.42120456695557,9.43472957611084,9.44829273223877,9.46189498901367,9.47553634643555,9.48921680450439,9.50293731689453,9.51669692993164,9.53049755096436,9.54433727264404,9.55821800231934,9.57213878631592,9.58610057830811,9.60010242462158,9.61414527893066,9.62823009490967,9.64235591888428,9.65652275085449,9.67073154449463,9.68498229980469,9.69927501678467,9.71041393280029,9.71725559234619,9.72410774230957,9.7309684753418,9.7378396987915,9.74472045898438,9.75161170959473,9.75851154327393,9.76542186737061,9.77234172821045,9.77927112579346,9.78621101379395,9.7931604385376,9.80011940002441,9.80708885192871,9.81406784057617,9.82105731964111,9.82805633544922,9.83506488800049,9.84208393096924,9.84911346435547,9.85615253448486,9.86320114135742,9.87026023864746,9.87732982635498,9.88440990447998,9.89149951934814,9.89859867095947,9.9057092666626,9.91282939910889,9.91996002197266,9.92710018157959,9.93425178527832,9.94141292572021,9.94858455657959,9.95576667785645
7.11558389663696,7.1203179359436,7.12505769729614,7.1298041343689,7.13455724716187,7.13931608200073,7.14408159255981,7.14885330200195,7.15363121032715,7.15825176239014,7.16221237182617,7.16617727279663,7.17014646530151,7.17412042617798,7.17809820175171,7.18208074569702,7.18606758117676,7.19005918502808,7.19405508041382,7.19805479049683,7.20205974578857,7.20606899261475,7.21008253097534,7.21410036087036,7.21812295913696,7.22215032577515,7.2261815071106,7.23021793365479,7.2342586517334,7.23830318450928,7.2423529624939,7.24640703201294,7.25046586990356,7.25452899932861,7.25859689712524,7.26266956329346,7.26674604415894,7.27082777023315,7.27659702301025,7.29002285003662,7.30349826812744,7.31702375411987,7.33059930801392,7.34422540664673,7.35612773895264,7.3633394241333,7.37056541442871,7.37780523300171,7.38505983352661,7.3923282623291,7.39961099624634,7.40690803527832,7.41421937942505,7.42154550552368,7.42888641357422,7.4362416267395,7.44361114501953,7.45099544525146,7.4583945274353,7.46580839157104,7.47323656082153,7.48067998886108,7.48813819885254,7.49561071395874,7.503098487854,7.51060152053833,7.51811933517456,7.52565240859985,7.53320074081421,7.54076385498047,7.54834222793579,7.55593585968018,7.56354475021362,7.57116889953613,7.57880878448486,7.58646392822266,7.59413433074951,7.60182046890259,7.60952234268188,7.61723947525024,7.62497234344482,7.63272142410278,7.6404857635498,7.64826583862305,7.65606212615967,7.66387414932251,7.67170190811157,7.67954635620117,7.68740653991699,7.69528245925903,7.70317506790161,7.71108341217041,7.71900844573975,7.7269492149353,7.7349066734314,7.74288082122803,7.75087070465088,7.75887775421143,7.76690101623535,7.77494096755981,7.78299760818481,7.79107093811035,7.79916143417358,7.8072681427002,7.8153920173645,7.8235330581665,7.83169078826904,7.83986568450928,7.84805727005005,7.85626602172852,7.86449241638184,7.87273597717285,7.88099670410156,7.88927459716797,7.89757013320923,7.90588283538818,7.91421365737915,7.92256164550781,7.93092727661133,7.93931102752686,7.94771194458008,7.95613098144531,7.9645676612854,7.97302198410034,7.98149490356445,7.98998546600342,7.99849414825439,8.00702095031738,8.01556587219238,8.02412986755371,8.03271102905273,8.04131126403809,8.04992961883545,8.05856704711914,8.06722164154053,8.07589626312256,8.0845890045166,8.09330081939697,8.10203075408936,8.11077976226807,8.11954784393311,8.12833499908447,8.13714122772217,8.14596652984619,8.15481090545654,8.16367530822754,8.17255783081055,8.18145942687988,8.19038200378418,8.19932270050049,8.20828342437744,8.21726322174072,8.22626399993896,8.23528385162354,8.24432277679443,8.25338268280029,8.26246166229248,8.27156066894531,8.28068065643311,8.28981971740723,8.29897975921631,8.30815982818604,8.31735992431641,8.32658004760742,8.33582210540771,8.34508323669434,8.35436534881592,8.36366844177246,8.37299251556396,8.38233661651611,8.39170265197754,8.40108871459961,8.41049575805664,8.41992473602295,8.4293737411499,8.43884468078613,8.44833755493164,8.45785045623779,8.46738529205322,8.47694206237793,8.48652076721191,8.49612045288086,8.50574207305908,8.51538467407227,8.52505016326904,8.5347375869751,8.54444694519043,8.55417823791504,8.56393146514893,8.57370758056641,8.58350563049316,8.59332656860352,8.60328960418701,8.61730670928955,8.63136959075928,8.64547824859619,8.65963268280029,8.6738338470459,8.68808174133301,8.70237636566162,8.71671772003174,8.73110675811768,8.74554347991943,8.76002883911133,8.77456092834473,8.78914165496826,8.80377101898193,8.81844902038574,8.833176612854,8.8479528427124,8.86277961730957,8.87765502929688,8.89258098602295,8.90755748748779,8.92258358001709,8.93766117095947,8.95278930664062,8.96796894073486,8.9832010269165,8.99848365783691,9.01381874084473,9.02920627593994,9.04464626312256,9.06013965606689,9.07568645477295,9.09128570556641,9.1069393157959,9.12264633178711,9.13840866088867,9.15422439575195,9.17009544372559,9.18602180480957,9.19962215423584,9.21251773834229,9.22544860839844,9.23841667175293,9.25142097473145,9.26446151733398,9.27753925323486,9.29065418243408,9.30380630493164,9.31699466705322,9.33022117614746,9.34348583221436,9.35678768157959,9.37012767791748,9.38350582122803,9.39692115783691,9.41037654876709,9.42386913299561,9.43740177154541,9.45097255706787,9.4645824432373,9.47823143005371,9.49191951751709,9.50564861297607,9.51941585540771,9.53322410583496,9.5470724105835,9.56096076965332,9.57488918304443,9.58885860443115,9.60286903381348,9.61692047119141,9.63101291656494,9.64514636993408,9.65932178497314,9.67353916168213,9.68779754638672,9.70135402679443,9.70818328857422,9.71502208709717,9.7218713760376,9.72872924804688,9.73559761047363,9.74247550964355,9.74936294555664,9.75625991821289,9.7631664276123,9.7700834274292,9.77700996398926,9.78394603729248,9.79089260101318,9.79784870147705,9.80481433868408,9.81179046630859,9.81877613067627,9.82577228546143,9.83277797698975,9.83979320526123,9.8468189239502,9.85385513305664,9.86090087890625,9.86795616149902,9.87502288818359,9.88209915161133,9.88918495178223,9.89628124237061,9.90338802337646,9.9105052947998,9.91763210296631,9.92476940155029,9.93191719055176
7.10033273696899,7.10504579544067,7.10976600646973,7.11449193954468,7.11922407150269,7.12396287918091,7.12870788574219,7.13345909118652,7.13821649551392,7.14298057556152,7.14775085449219,7.15252733230591,7.15731048583984,7.16209983825684,7.16689586639404,7.17169809341431,7.17650699615479,7.18092823028564,7.18491411209106,7.18890428543091,7.19289875030518,7.19689750671387,7.20090055465698,7.20490884780884,7.20892095565796,7.21293783187866,7.21695899963379,7.2209849357605,7.22501516342163,7.22904968261719,7.23308897018433,7.23713302612305,7.24118137359619,7.24523401260376,7.24929141998291,7.25335311889648,7.25741958618164,7.26149082183838,7.26556634902954,7.27630853652954,7.28973340988159,7.3032078742981,7.31673192977905,7.32845687866211,7.3356146812439,7.34278631210327,7.34997129440308,7.35717105865479,7.36438465118408,7.37161254882812,7.37885475158691,7.38611078262329,7.39338159561157,7.40066623687744,7.40796566009521,7.41527938842773,7.42260789871216,7.42995071411133,7.43730783462524,7.44467973709106,7.45206594467163,7.4594669342041,7.46688270568848,7.47431325912476,7.48175859451294,7.48921871185303,7.49669408798218,7.50418376922607,7.51168870925903,7.51920890808105,7.52674436569214,7.53429508209229,7.54186010360718,7.54944086074829,7.55703639984131,7.56464767456055,7.57227420806885,7.57991600036621,7.58757352828979,7.59524631500244,7.60293483734131,7.61063861846924,7.61835813522339,7.62609338760376,7.63384437561035,7.64161157608032,7.64939403533936,7.65719223022461,7.66500663757324,7.6728367805481,7.68068313598633,7.68854570388794,7.69642448425293,7.70431900024414,7.71222972869873,7.72015714645386,7.72810029983521,7.73606014251709,7.74403619766235,7.75202894210815,7.76003837585449,7.76806402206421,7.77610683441162,7.78416585922241,7.79224157333374,7.80033397674561,7.80844354629517,7.81656980514526,7.8247127532959,7.83287334442139,7.84105014801025,7.84924459457397,7.85745620727539,7.8656849861145,7.87393093109131,7.88219451904297,7.89047479629517,7.89877319335938,7.90708827972412,7.91542148590088,7.92377185821533,7.93213987350464,7.94052600860596,7.94892978668213,7.95735120773315,7.96579027175903,7.97424745559692,7.98272275924683,7.99121618270874,7.99972772598267,8.00825691223145,8.01680469512939,8.02537059783936,8.03395557403564,8.04255771636963,8.05117893218994,8.05981826782227,8.06847667694092,8.07715320587158,8.08584880828857,8.09456348419189,8.10329627990723,8.11204814910889,8.12081909179688,8.12960910797119,8.13841819763184,8.14724636077881,8.15609359741211,8.16495990753174,8.1738452911377,8.1827507019043,8.19167518615723,8.20061874389648,8.20958232879639,8.21856594085693,8.22756862640381,8.23659133911133,8.24563312530518,8.25469589233398,8.26377773284912,8.2728796005249,8.28200244903564,8.29114532470703,8.30030727386475,8.30949020385742,8.31869316101074,8.32791709899902,8.33716106414795,8.34642601013184,8.35571098327637,8.36501693725586,8.37434387207031,8.38369178771973,8.39305973052979,8.40244960784912,8.4118595123291,8.42129135131836,8.43074417114258,8.44021797180176,8.44971370697021,8.45923042297363,8.46876811981201,8.47832775115967,8.4879093170166,8.4975118637085,8.50713634490967,8.51678276062012,8.52645206451416,8.53614139556885,8.54585456848145,8.555588722229,8.56534576416016,8.57512474060059,8.58492660522461,8.59813022613525,8.6121301651001,8.62617588043213,8.64026737213135,8.65440559387207,8.66858959197998,8.68281936645508,8.697096824646,8.71142196655273,8.72579288482666,8.74021244049072,8.75467872619629,8.76919364929199,8.78375720977783,8.79836845397949,8.81302833557129,8.82773780822754,8.84249591827393,8.85730361938477,8.87216091156006,8.88706874847412,8.90202617645264,8.91703414916992,8.93209266662598,8.94720268249512,8.96236324310303,8.97757530212402,8.99283981323242,9.00815486907959,9.02352333068848,9.03894424438477,9.05441761016846,9.06994438171387,9.085524559021,9.10115814208984,9.11684513092041,9.13258743286133,9.14838314056396,9.16367244720459,9.1764669418335,9.18929672241211,9.20216274261475,9.21506500244141,9.22800350189209,9.24097919464111,9.25399017333984,9.26703834533691,9.28012371063232,9.29324531555176,9.30640411376953,9.31960105895996,9.33283519744873,9.34610652923584,9.35941600799561,9.37276363372803,9.38614845275879,9.39957237243652,9.41303443908691,9.42653560638428,9.4400749206543,9.45365333557129,9.46727085113525,9.48092842102051,9.49462509155273,9.50836086273193,9.52213668823242,9.5359525680542,9.54980850219727,9.56370449066162,9.57764148712158,9.59161853790283,9.605637550354,9.61969661712646,9.63379764556885,9.64793968200684,9.66212272644043,9.67634773254395,9.6906156539917,9.69912815093994,9.70595455169678,9.71279048919678,9.71963596343994,9.72649097442627,9.73335552215576,9.74023056030273,9.74711418151855,9.75400829315186,9.76091194152832,9.76782608032227,9.77474880218506,9.78168201446533,9.78862571716309,9.79557800292969,9.80254077911377,9.80951309204102,9.81649589538574,9.82348823547363,9.830491065979,9.83750343322754,9.84452629089355,9.85155868530273,9.85860061645508,9.86565399169922,9.87271595001221,9.87978935241699,9.88687229156494,9.89396572113037,9.90106868743896,9.90818214416504
7.08514642715454,7.08983945846558,7.09453916549683,7.09924507141113,7.1039571762085,7.10867547988892,7.11339998245239,7.11813068389893,7.12286806106567,7.12761163711548,7.13236141204834,7.13711738586426,7.14187955856323,7.14664888381958,7.15142393112183,7.15620565414429,7.1609935760498,7.16578769683838,7.17058849334717,7.17539596557617,7.18020963668823,7.18502998352051,7.18985652923584,7.19468975067139,7.19952917098999,7.20374870300293,7.20775985717773,7.21177530288696,7.21579551696777,7.21981954574585,7.22384881973267,7.22788238525391,7.23192024230957,7.23596286773682,7.24000978469849,7.24406099319458,7.24811697006226,7.25217771530151,7.25624322891235,7.26264572143555,7.27602005004883,7.28944396972656,7.3009934425354,7.30809783935547,7.31521511077881,7.32234668731689,7.32949256896973,7.33665180206299,7.343825340271,7.35101318359375,7.35821485519409,7.36543035507202,7.3726601600647,7.37990427017212,7.38716316223145,7.3944354057312,7.40172243118286,7.40902376174927,7.41633987426758,7.42366981506348,7.43101453781128,7.43837404251099,7.44574785232544,7.4531364440918,7.4605393409729,7.46795749664307,7.47539043426514,7.48283767700195,7.49030065536499,7.49777746200562,7.50527000427246,7.51277685165405,7.52029943466187,7.52783679962158,7.5353889465332,7.54295635223389,7.55053949356079,7.5581374168396,7.56575107574463,7.57337951660156,7.58102369308472,7.58868312835693,7.59635829925537,7.60404920578003,7.61175537109375,7.61947727203369,7.62721490859985,7.63496780395508,7.64273691177368,7.65052223205566,7.65832281112671,7.66613912582397,7.67397212982178,7.68182039260864,7.68968534469604,7.69756603240967,7.70546293258667,7.71337652206421,7.72130584716797,7.72925186157227,7.73721408843994,7.74519300460815,7.75318765640259,7.76119947433472,7.76922750473022,7.77727222442627,7.78533411026001,7.79341220855713,7.80150699615479,7.80961894989014,7.81774759292603,7.82589340209961,7.83405637741089,7.84223556518555,7.85043287277222,7.85864686965942,7.86687755584717,7.87512636184692,7.88339185714722,7.89167499542236,7.89997577667236,7.90829372406006,7.91662931442261,7.92498207092285,7.93335294723511,7.94174146652222,7.95014810562134,7.95857191085815,7.96701383590698,7.97547388076782,7.98395156860352,7.99244737625122,8.00096130371094,8.00949382781982,8.01804447174072,8.02661323547363,8.03519916534424,8.04380512237549,8.05242919921875,8.06107139587402,8.06973171234131,8.07841110229492,8.08710956573486,8.09582710266113,8.10456275939941,8.11331748962402,8.12209129333496,8.13088321685791,8.1396951675415,8.14852619171143,8.15737533569336,8.16624450683594,8.17513370513916,8.18404197692871,8.19296836853027,8.2019157409668,8.21088218688965,8.21986770629883,8.22887325286865,8.23789882659912,8.24694442749023,8.25600910186768,8.26509475708008,8.27419948577881,8.2833251953125,8.29246997833252,8.3016357421875,8.31082153320312,8.32002735137939,8.32925415039062,8.33850193023682,8.34776878356934,8.35705757141113,8.36636638641357,8.37569618225098,8.38504695892334,8.39441776275635,8.40381050109863,8.41322422027588,8.42265892028809,8.43211460113525,8.44159126281738,8.45108985900879,8.46060943603516,8.4701509475708,8.47971343994141,8.48929786682129,8.49890422821045,8.50853157043457,8.51818180084229,8.52785301208496,8.53754711151123,8.54726219177246,8.55700016021729,8.56676006317139,8.57903957366943,8.59297752380371,8.60696029663086,8.6209888458252,8.63506317138672,8.64918422698975,8.66335105895996,8.67756366729736,8.69182395935059,8.70613098144531,8.72048568725586,8.73488712310791,8.74933624267578,8.76383304595947,8.7783784866333,8.79297256469727,8.80761432647705,8.82230567932129,8.83704566955566,8.85183525085449,8.86667442321777,8.88156318664551,8.8965015411377,8.91149139404297,8.9265308380127,8.94162178039551,8.95676422119141,8.97195720672607,8.98720169067383,9.00249862670898,9.01784801483154,9.03324890136719,9.04870319366455,9.06420993804932,9.0797700881958,9.09538459777832,9.11105155944824,9.1267728805542,9.14069652557373,9.15342712402344,9.16619300842285,9.17899417877197,9.19183158874512,9.20470523834229,9.21761417388916,9.23056030273438,9.24354267120361,9.25656127929688,9.26961612701416,9.28270816802979,9.29583835601807,9.30900478363037,9.32220840454102,9.33544921875,9.34872913360596,9.36204528808594,9.37540054321289,9.38879299163818,9.40222454071045,9.41569423675537,9.42920303344727,9.44274997711182,9.45633697509766,9.46996212005615,9.48362636566162,9.49733066558838,9.51107501983643,9.52485847473145,9.53868198394775,9.55254650115967,9.56645011901855,9.58039569854736,9.59438037872314,9.60840702056885,9.62247467041016,9.63658332824707,9.65073394775391,9.66492557525635,9.67915916442871,9.69009017944336,9.69690322875977,9.70372676849365,9.71055889129639,9.7174015045166,9.72425365447998,9.73111534118652,9.73798656463623,9.7448673248291,9.75175857543945,9.75865936279297,9.76556968688965,9.77248954772949,9.7794189453125,9.78635883331299,9.79330921173096,9.80026817321777,9.80723762512207,9.81421661376953,9.82120609283447,9.82820510864258,9.83521461486816,9.84223365783691,9.84926319122314,9.85630226135254,9.86335182189941,9.87041091918945,9.87748050689697,9.88456058502197
7.0700249671936,7.07469797134399,7.0793776512146,7.08406352996826,7.08875513076782,7.0934534072876,7.09815788269043,7.10286855697632,7.10758543014526,7.11230850219727,7.11703777313232,7.12177324295044,7.12651538848877,7.13126373291016,7.13601875305176,7.14077949523926,7.14554691314697,7.15032052993774,7.15510082244873,7.15988731384277,7.16468000411987,7.16947937011719,7.17428541183472,7.1790976524353,7.18391609191895,7.1887412071228,7.19357299804688,7.198410987854,7.20325565338135,7.20810699462891,7.21296453475952,7.21782922744751,7.22268295288086,7.22671508789062,7.23075151443481,7.23479270935059,7.23883867263794,7.24288845062256,7.24694347381592,7.2510027885437,7.26235818862915,7.27373552322388,7.28078651428223,7.28785085678101,7.29492902755737,7.30202102661133,7.30912733078003,7.31624698638916,7.32338047027588,7.33052825927734,7.33768939971924,7.34486532211304,7.35205507278442,7.3592586517334,7.36647653579712,7.37370824813843,7.38095474243164,7.38821506500244,7.39548969268799,7.40277862548828,7.41008186340332,7.41740036010742,7.42473268508911,7.43207931518555,7.43944072723389,7.44681644439697,7.45420742034912,7.46161270141602,7.46903324127197,7.47646808624268,7.48391723632812,7.49138212203979,7.49886178970337,7.50635576248169,7.51386547088623,7.52138948440552,7.52892923355103,7.53648376464844,7.54405355453491,7.55163860321045,7.55923891067505,7.56685447692871,7.57448530197144,7.58213186264038,7.58979368209839,7.59747123718262,7.60516405105591,7.61287212371826,7.62059640884399,7.62833642959595,7.63609170913696,7.64386320114136,7.65165042877197,7.65945339202881,7.66727256774902,7.67510747909546,7.68295860290527,7.69082546234131,7.69870853424072,7.70660781860352,7.71452379226685,7.7224555015564,7.73040342330933,7.73836803436279,7.7463493347168,7.75434684753418,7.76236057281494,7.77039098739624,7.77843856811523,7.78650236129761,7.79458332061768,7.80268049240112,7.81079483032227,7.81892585754395,7.82707405090332,7.83523941040039,7.84342193603516,7.8516206741333,7.85983753204346,7.86807107925415,7.87632179260254,7.88459014892578,7.89287567138672,7.90117883682251,7.909499168396,7.91783761978149,7.92619323730469,7.93456649780273,7.94295787811279,7.95136642456055,7.95979309082031,7.96823740005493,7.97669982910156,7.98518037796021,7.99367904663086,8.00219535827637,8.0107307434082,8.01928329467773,8.02785491943359,8.03644466400146,8.04505252838135,8.05367851257324,8.06232357025146,8.07098770141602,8.07966995239258,8.08837032318115,8.09709072113037,8.1058292388916,8.11458587646484,8.12336254119873,8.13215827941895,8.14097213745117,8.14980602264404,8.15865898132324,8.16753101348877,8.17642211914062,8.18533229827881,8.19426345825195,8.20321273803711,8.21218204498291,8.22117042541504,8.23017883300781,8.23920726776123,8.24825572967529,8.25732326507568,8.26641178131104,8.27551937103271,8.28464794158936,8.29379558563232,8.30296421051025,8.31215286254883,8.32136249542236,8.33059215545654,8.33984184265137,8.34911251068115,8.3584041595459,8.36771583557129,8.37704849243164,8.38640213012695,8.39577674865723,8.40517234802246,8.41458892822266,8.42402648925781,8.43348503112793,8.44296550750732,8.45246696472168,8.461989402771,8.47153377532959,8.48110008239746,8.49068737030029,8.5002965927124,8.50992774963379,8.51958084106445,8.52925491333008,8.5389518737793,8.54867076873779,8.56003284454346,8.57390880584717,8.58782958984375,8.60179615020752,8.61580848693848,8.6298656463623,8.64396953582764,8.65811920166016,8.67231559753418,8.68655776977539,8.70084762573242,8.71518421173096,8.72956848144531,8.74400043487549,8.75847911834717,8.7730073928833,8.78758239746094,8.80220699310303,8.81688022613525,8.83160209655762,8.84637355804443,8.86119365692139,8.87606430053711,8.89098453521729,8.90595531463623,8.92097663879395,8.93604850769043,8.951171875,8.96634578704834,8.98157215118408,8.99684906005859,9.01217937469482,9.02756118774414,9.04299545288086,9.0584831237793,9.07402324676514,9.08961772918701,9.10520458221436,9.11783599853516,9.13050270080566,9.14320468902588,9.1559419631958,9.16871547698975,9.18152332305908,9.19436836242676,9.20724868774414,9.22016525268555,9.23311805725098,9.24610710144043,9.25913333892822,9.27219581604004,9.2852954864502,9.29843235015869,9.31160545349121,9.32481670379639,9.33806610107422,9.35135269165039,9.3646764755249,9.37803936004639,9.39143943786621,9.40487861633301,9.41835594177246,9.43187236785889,9.44542694091797,9.45902061462402,9.47265434265137,9.48632621765137,9.50003910064697,9.51379013061523,9.5275821685791,9.54141330718994,9.55528545379639,9.56919765472412,9.58315086364746,9.59714412689209,9.61117839813232,9.62525463104248,9.63937091827393,9.65352916717529,9.66772937774658,9.68106842041016,9.68786907196045,9.69467926025391,9.70149993896484,9.70832920074463,9.71516799926758,9.72201728820801,9.7288761138916,9.73574352264404,9.74262142181396,9.74950981140137,9.75640678405762,9.76331424713135,9.77023124694824,9.7771577835083,9.78409385681152,9.79104042053223,9.79799652099609,9.80496311187744,9.81193923950195,9.81892490386963,9.82592105865479,9.83292675018311,9.83994293212891,9.84696865081787,9.85400485992432,9.86105060577393
7.05496788024902,7.05962133407593,7.06428098678589,7.06894636154175,7.07361841201782,7.07829666137695,7.08298063278198,7.08767127990723,7.09236812591553,7.09707117080688,7.10177993774414,7.10649538040161,7.11121702194214,7.11594533920288,7.12067937850952,7.12542009353638,7.13016700744629,7.13492012023926,7.13967943191528,7.14444541931152,7.14921760559082,7.15399646759033,7.1587815284729,7.16357278823853,7.16837072372437,7.17317485809326,7.17798566818237,7.1828031539917,7.18762683868408,7.19245672225952,7.19729328155518,7.20213651657104,7.20698642730713,7.21184253692627,7.21670532226562,7.22157430648804,7.22645044326782,7.23133277893066,7.23622179031372,7.24111747741699,7.24667978286743,7.25367832183838,7.26069021224976,7.26771593093872,7.27475547790527,7.28180837631226,7.28887462615967,7.29595518112183,7.30304908752441,7.31015729904175,7.31727886199951,7.32441473007202,7.33156442642212,7.3387279510498,7.34590530395508,7.3530969619751,7.36030244827271,7.36752271652222,7.37475633621216,7.382004737854,7.3892674446106,7.39654397964478,7.40383529663086,7.41114091873169,7.41846084594727,7.42579555511475,7.43314456939697,7.44050788879395,7.44788599014282,7.4552788734436,7.46268606185913,7.47010850906372,7.47754526138306,7.48499727249146,7.49246406555176,7.49994564056396,7.50744199752808,7.51495361328125,7.52248001098633,7.53002214431763,7.53757905960083,7.54515075683594,7.55273818969727,7.56034088134766,7.56795835494995,7.57559156417847,7.58324003219604,7.59090423583984,7.59858369827271,7.60627889633179,7.61398983001709,7.62171602249146,7.62945795059204,7.63721609115601,7.64498996734619,7.65277910232544,7.66058444976807,7.66840600967407,7.67624282836914,7.68409633636475,7.69196557998657,7.69985103607178,7.70775318145752,7.71567106246948,7.72360515594482,7.73155546188354,7.7395224571228,7.7475061416626,7.75550603866577,7.76352262496948,7.77155542373657,7.7796049118042,7.78767156600952,7.79575443267822,7.80385446548462,7.81197118759155,7.82010459899902,7.82825565338135,7.83642292022705,7.84460783004761,7.8528094291687,7.86102819442749,7.86926460266113,7.87751817703247,7.8857889175415,7.89407682418823,7.90238237380981,7.91070556640625,7.91904640197754,7.92740440368652,7.93578052520752,7.94417381286621,7.95258522033691,7.96101474761963,7.9694619178772,7.97792673110962,7.98640966415405,7.99491119384766,8.00343036651611,8.01196765899658,8.02052307128906,8.02909755706787,8.03768920898438,8.04630088806152,8.05492973327637,8.06357669830322,8.07224369049072,8.08092880249023,8.08963203430176,8.09835433959961,8.10709571838379,8.1158561706543,8.12463474273682,8.13343334197998,8.14225006103516,8.15108680725098,8.15994262695312,8.16881656646729,8.17771148681641,8.18662452697754,8.19555759429932,8.20450973510742,8.21348190307617,8.22247314453125,8.23148536682129,8.24051666259766,8.24956703186035,8.25863838195801,8.26772880554199,8.27684020996094,8.28597068786621,8.29512214660645,8.30429363250732,8.31348514556885,8.32269763946533,8.33193016052246,8.34118270874023,8.35045623779297,8.35975074768066,8.36906623840332,8.37840175628662,8.38775825500488,8.39713573455811,8.40653419494629,8.41595363616943,8.42539501190186,8.43485641479492,8.44433975219727,8.45384407043457,8.46337032318115,8.4729175567627,8.48248672485352,8.49207782745361,8.50168991088867,8.51132392883301,8.52097988128662,8.53065776824951,8.54111003875732,8.55492496490479,8.56878471374512,8.582688331604,8.59663867950439,8.61063385009766,8.62467384338379,8.63876056671143,8.65289306640625,8.66707229614258,8.68129825592041,8.69556999206543,8.70988941192627,8.72425651550293,8.73867034912109,8.75313186645508,8.7676420211792,8.78219985961914,8.79680633544922,8.81146144866943,8.82616519927979,8.84091758728027,8.85572052001953,8.87057209014893,8.88547420501709,8.90042686462402,8.91542911529541,8.93048191070557,8.94558620452881,8.96074199676514,8.97594833374023,8.99120712280273,9.00651741027832,9.02188014984131,9.0372953414917,9.05276298522949,9.068284034729,9.08252048492432,9.09508991241455,9.10769367218018,9.12033176422119,9.13300514221191,9.14571475982666,9.1584587097168,9.17123889923096,9.18405437469482,9.19690608978271,9.20979309082031,9.22271728515625,9.23567676544189,9.24867343902588,9.2617073059082,9.27477645874023,9.28788375854492,9.30102729797363,9.314208984375,9.32742786407471,9.34068393707275,9.35397720336914,9.3673095703125,9.3806791305542,9.39408779144287,9.40753364562988,9.42101860046387,9.43454265594482,9.44810485839844,9.46170711517334,9.4753475189209,9.48902797698975,9.50274753570557,9.51650714874268,9.53030681610107,9.54414653778076,9.55802631378174,9.57194709777832,9.58590793609619,9.59990882873535,9.61395168304443,9.62803554534912,9.64216041564941,9.65632724761963,9.67053508758545,9.67885208129883,9.68564987182617,9.69245719909668,9.69927406311035,9.70610046386719,9.71293640136719,9.71978187561035,9.72663688659668,9.73350238800049,9.74037742614746,9.74726104736328,9.75415515899658,9.76105976104736,9.76797294616699,9.7748966217041,9.78182983398438,9.78877353668213,9.79572677612305,9.80268955230713,9.80966186523438,9.8166446685791,9.82363796234131,9.83064079284668,9.83765316009521
7.03997468948364,7.04460859298706,7.04924821853638,7.05389404296875,7.05854606628418,7.06320428848267,7.06786870956421,7.07253932952881,7.07721567153931,7.08189868927002,7.08658742904663,7.09128284454346,7.09598445892334,7.10069227218628,7.10540628433228,7.11012649536133,7.11485290527344,7.1195855140686,7.12432479858398,7.12907028198242,7.13382196426392,7.13857984542847,7.14334440231323,7.14811515808105,7.15289211273193,7.15767574310303,7.16246604919434,7.16726207733154,7.17206525802612,7.1768741607666,7.18168973922729,7.1865119934082,7.19134092330933,7.19617605209351,7.2010178565979,7.20586585998535,7.21072053909302,7.2155818939209,7.22044944763184,7.22532367706299,7.23020458221436,7.2350926399231,7.23887014389038,7.24185991287231,7.25469255447388,7.26170635223389,7.26873397827148,7.27577590942383,7.28283071517944,7.28989934921265,7.29698133468628,7.30407762527466,7.31118774414062,7.31831121444702,7.32544898986816,7.33260059356689,7.33976602554321,7.34694576263428,7.35413932800293,7.36134719848633,7.36856889724731,7.37580490112305,7.38305568695068,7.39032030105591,7.39759874343872,7.40489196777344,7.41219997406006,7.41952180862427,7.42685842514038,7.43420934677124,7.441575050354,7.44895553588867,7.45635032653809,7.4637598991394,7.47118425369263,7.47862339019775,7.48607778549194,7.49354648590088,7.50102996826172,7.50852870941162,7.51604270935059,7.5235710144043,7.53111505508423,7.53867435455322,7.54624843597412,7.55383777618408,7.56144237518311,7.56906270980835,7.5766978263855,7.58434867858887,7.59201526641846,7.59969711303711,7.60739469528198,7.61510753631592,7.62283611297607,7.63058042526245,7.63834047317505,7.64611673355103,7.65390825271606,7.66171598434448,7.66953945159912,7.67737913131714,7.68523454666138,7.69310617446899,7.70099449157715,7.70889806747437,7.71681880950928,7.72475528717041,7.73270845413208,7.74067783355713,7.74866342544556,7.75666570663452,7.76468420028687,7.7727198600769,7.78077173233032,7.78884029388428,7.79692602157593,7.80502843856812,7.81314754486084,7.82128381729126,7.82943725585938,7.83760738372803,7.84579420089722,7.85399866104126,7.86221981048584,7.87045860290527,7.8787145614624,7.88698768615723,7.8952784538269,7.90358638763428,7.9119119644165,7.92025518417358,7.92861604690552,7.9369945526123,7.94539070129395,7.9538049697876,7.96223640441895,7.97068643569946,7.97915410995483,7.98763990402222,7.99614334106445,8.00466537475586,8.01320552825928,8.02176380157471,8.03034019470215,8.0389347076416,8.04754829406738,8.05618095397949,8.0648307800293,8.07349967956543,8.08218765258789,8.09089374542236,8.09961891174316,8.10836315155029,8.11712551116943,8.12590789794922,8.13470840454102,8.14352798461914,8.15236759185791,8.16122627258301,8.17010307312012,8.17900085449219,8.18791675567627,8.196852684021,8.20580768585205,8.21478271484375,8.22377681732178,8.23279094696045,8.24182510375977,8.25087928771973,8.25995349884033,8.26904678344727,8.27816104888916,8.28729438781738,8.29644870758057,8.30562305450439,8.31481838226318,8.3240327835083,8.33326816558838,8.34252452850342,8.3518009185791,8.36109828948975,8.37041664123535,8.3797550201416,8.38911437988281,8.3984956741333,8.40789699554443,8.41731929779053,8.4267635345459,8.43622779846191,8.44571495056152,8.45522212982178,8.46475124359131,8.47430229187012,8.48387432098389,8.49346828460693,8.50308322906494,8.51272106170654,8.52237987518311,8.53602409362793,8.54982280731201,8.56366539001465,8.57755374908447,8.59148693084717,8.60546493530273,8.61948871612549,8.63355827331543,8.64767456054688,8.66183567047119,8.67604446411133,8.69029998779297,8.7046012878418,8.71895027160645,8.73334693908691,8.7477912902832,8.76228332519531,8.77682304382324,8.79141139984131,8.80604839324951,8.82073497772217,8.83546924591064,8.85025405883789,8.86508750915527,8.87997055053711,8.89490413665771,8.90988826751709,8.92492294311523,8.94000816345215,8.95514488220215,8.97033214569092,8.98557186126709,9.00086307525635,9.01620674133301,9.03160190582275,9.04705047607422,9.05994987487793,9.07245635986328,9.08499717712402,9.09757328033447,9.11018371582031,9.12282848358154,9.1355094909668,9.14822578430176,9.16097640991211,9.17376327514648,9.18658638000488,9.19944477081299,9.21233940124512,9.22527027130127,9.23823738098145,9.25124168395996,9.2642822265625,9.27735900878906,9.29047298431396,9.30362415313721,9.31681346893311,9.33003902435303,9.34330272674561,9.35660457611084,9.36994361877441,9.38332080841064,9.39673614501953,9.41019058227539,9.42368316650391,9.43721485137939,9.45078468322754,9.46439456939697,9.47804355621338,9.49173164367676,9.50545883178711,9.51922607421875,9.53303337097168,9.5468807220459,9.56076908111572,9.57469749450684,9.58866596221924,9.60267543792725,9.61672687530518,9.63081836700439,9.64495182037354,9.65912628173828,9.66985130310059,9.67663669586182,9.68343067169189,9.69023513793945,9.69704914093018,9.70387172698975,9.7107048034668,9.71754741668701,9.72439956665039,9.73126125335693,9.73813343048096,9.74501419067383,9.75190544128418,9.7588062286377,9.76571655273438,9.77263736724854,9.77956676483154,9.78650760650635,9.79345703125,9.80041694641113,9.80124855041504,9.80120468139648
7.02504539489746,7.02965927124023,7.03427934646606,7.03890562057495,7.04353809356689,7.04817628860474,7.05282068252563,7.05747127532959,7.0621280670166,7.06679105758667,7.07146024703979,7.07613515853882,7.08081674575806,7.08550453186035,7.09019804000854,7.09489822387695,7.09960460662842,7.10431718826294,7.10903596878052,7.11376094818115,7.11849212646484,7.12322998046875,7.12797403335571,7.13272428512573,7.13748073577881,7.1422438621521,7.14701271057129,7.15178871154785,7.15657091140747,7.16135931015015,7.16615438461304,7.17095565795898,7.17576313018799,7.18057727813721,7.18539810180664,7.19022512435913,7.19505882263184,7.19989919662476,7.20474576950073,7.20959901809692,7.21445846557617,7.21932458877563,7.22419786453247,7.22907733917236,7.23233842849731,7.23532295227051,7.23830986022949,7.25007581710815,7.26272344589233,7.26975297927856,7.27679634094238,7.28385305404663,7.29092359542847,7.29800796508789,7.3051061630249,7.3122181892395,7.31934356689453,7.32648372650146,7.33363676071167,7.34080457687378,7.34798669815063,7.35518217086792,7.36239194869995,7.36961603164673,7.37685394287109,7.38410663604736,7.39137315750122,7.39865398406982,7.40594911575317,7.41325902938843,7.42058324813843,7.42792177200317,7.43527507781982,7.44264268875122,7.45002508163452,7.45742225646973,7.46483421325684,7.47226047515869,7.47970199584961,7.48715829849243,7.49462890625,7.50211477279663,7.50961589813232,7.51713180541992,7.52466249465942,7.53220844268799,7.53976964950562,7.5473461151123,7.55493783950806,7.56254482269287,7.57016706466675,7.57780504226685,7.58545827865601,7.59312629699707,7.60081052780151,7.60851001739502,7.61622524261475,7.62395620346069,7.63170289993286,7.63946533203125,7.64724349975586,7.65503787994385,7.6628475189209,7.67067384719849,7.67851543426514,7.68637371063232,7.69424772262573,7.70213794708252,7.71004390716553,7.71796703338623,7.72590589523315,7.73386096954346,7.7418327331543,7.74982070922852,7.75782537460327,7.76584672927856,7.77388429641724,7.7819390296936,7.79001045227051,7.79809856414795,7.80620336532593,7.81432485580444,7.82246351242065,7.8306188583374,7.83879137039185,7.84698104858398,7.85518741607666,7.86341142654419,7.87165260314941,7.87991094589233,7.88818693161011,7.89648008346558,7.9047908782959,7.91311883926392,7.92146492004395,7.92982816696167,7.93820905685425,7.94660806655884,7.95502471923828,7.96345901489258,7.97191095352173,7.98038148880005,7.98886966705322,7.99737596511841,8.00590038299561,8.01444339752197,8.02300453186035,8.03158378601074,8.04018115997314,8.04879665374756,8.0574312210083,8.06608486175537,8.07475662231445,8.08344745635986,8.09215545654297,8.10088348388672,8.1096305847168,8.11839580535889,8.12718105316162,8.13598442077637,8.14480686187744,8.15364837646484,8.16250991821289,8.17139053344727,8.18029022216797,8.189208984375,8.19814777374268,8.20710563659668,8.21608352661133,8.22508144378662,8.23409843444824,8.24313545227051,8.2521915435791,8.26126861572266,8.27036571502686,8.27948188781738,8.28861904144287,8.297776222229,8.30695343017578,8.3161506652832,8.32536888122559,8.33460712432861,8.3438663482666,8.35314559936523,8.36244583129883,8.37176704406738,8.3811092376709,8.39047145843506,8.3998556137085,8.40925979614258,8.41868495941162,8.42813205718994,8.43760013580322,8.44708919525146,8.45660018920898,8.46613311767578,8.47568607330322,8.48526191711426,8.49485874176025,8.50447750091553,8.51720809936523,8.53094577789307,8.54472732543945,8.55855369567871,8.57242488861084,8.58634090423584,8.60030269622803,8.61430931091309,8.62836265563965,8.64246082305908,8.65660572052002,8.67079734802246,8.68503475189209,8.69931983947754,8.71365165710449,8.72803020477295,8.74245643615723,8.75693130493164,8.77145385742188,8.78602409362793,8.80064296722412,8.81531047821045,8.83002758026123,8.84479331970215,8.85960865020752,8.87447452545166,8.88938903808594,8.90435409545898,8.91937065124512,8.9344367980957,8.94955444335938,8.96472358703613,8.97994327545166,8.99521541595459,9.01054000854492,9.02508068084717,9.03749084472656,9.04993534088135,9.06241416931152,9.07492733001709,9.08747482299805,9.10005760192871,9.11267471313477,9.12532711029053,9.138014793396,9.15073776245117,9.16349601745605,9.17629051208496,9.18912029266357,9.20198535919189,9.21488761901855,9.22782516479492,9.24079990386963,9.25381088256836,9.26685810089111,9.27994251251221,9.29306411743164,9.30622291564941,9.31941890716553,9.33265209197998,9.34592342376709,9.35923194885254,9.37257957458496,9.38596439361572,9.39938735961914,9.41284942626953,9.42634963989258,9.43988800048828,9.45346641540527,9.46708393096924,9.48073959350586,9.49443531036377,9.50817108154297,9.52194690704346,9.53576183319092,9.54961681365967,9.56351280212402,9.57744884490967,9.59142589569092,9.60544395446777,9.61950302124023,9.6336030960083,9.64774417877197,9.66086769104004,9.66763973236084,9.6744213104248,9.68121337890625,9.68801403045654,9.69482517242432,9.70164489746094,9.70847511291504,9.71531391143799,9.72216320037842,9.72902202606201,9.73589038848877,9.74276828765869,9.74965667724609,9.75164413452148,9.75160121917725,9.75155735015869,9.75151443481445,9.7514705657959,9.75142574310303
7.01017904281616,7.01477384567261,7.01937389373779,7.02398061752319,7.02859354019165,7.03321218490601,7.03783702850342,7.04246759414673,7.04710483551025,7.05174779891968,7.05639696121216,7.0610523223877,7.06571388244629,7.07038116455078,7.07505512237549,7.07973527908325,7.08442115783691,7.08911371231079,7.09381246566772,7.09851694107056,7.1032280921936,7.10794544219971,7.11266899108887,7.11739921569824,7.12213516235352,7.126877784729,7.13162660598755,7.13638162612915,7.14114332199097,7.14591121673584,7.15068531036377,7.15546607971191,7.16025304794312,7.16504621505737,7.16984605789185,7.17465257644653,7.17946529388428,7.18428421020508,7.18910980224609,7.19394207000732,7.19878101348877,7.20362567901611,7.20847749710083,7.2133355140686,7.21820068359375,7.2228422164917,7.2258186340332,7.22879791259766,7.23177909851074,7.23476314544678,7.24099922180176,7.25913238525391,7.27077198028564,7.2778172492981,7.28487586975098,7.29194831848145,7.2990345954895,7.3061351776123,7.31324911117554,7.32037687301636,7.32751846313477,7.33467388153076,7.3418436050415,7.34902715682983,7.35622501373291,7.36343669891357,7.37066268920898,7.37790298461914,7.38515758514404,7.39242601394653,7.39970922470093,7.40700674057007,7.41431856155396,7.42164516448975,7.42898559570312,7.43634080886841,7.4437108039856,7.45109510421753,7.45849466323853,7.46590852737427,7.47333717346191,7.48078060150146,7.48823881149292,7.49571180343628,7.50319957733154,7.51070308685303,7.51822090148926,7.52575445175171,7.53330278396606,7.54086589813232,7.5484447479248,7.55603837966919,7.56364774703979,7.5712718963623,7.57891178131104,7.58656740188599,7.59423780441284,7.60192441940308,7.60962629318237,7.61734390258789,7.62507677078247,7.63282585144043,7.64059066772461,7.64837121963501,7.65616750717163,7.66398000717163,7.67180824279785,7.67965221405029,7.68751239776611,7.69538879394531,7.70328140258789,7.71119022369385,7.71911525726318,7.7270565032959,7.73501396179199,7.74298810958862,7.75097894668579,7.75898599624634,7.76700973510742,7.77504968643188,7.78310680389404,7.79118061065674,7.79927062988281,7.80737781524658,7.81550216674805,7.82364320755005,7.83180093765259,7.83997583389282,7.84816789627075,7.85637712478638,7.8646035194397,7.87284755706787,7.88110828399658,7.88938665390015,7.89768266677856,7.90599536895752,7.91432619094849,7.92267465591431,7.93104028701782,7.93942403793335,7.94782543182373,7.95624446868896,7.96468162536621,7.97313642501831,7.98160934448242,7.99010038375854,7.99860954284668,8.00713634490967,8.01568126678467,8.024245262146,8.03282737731934,8.04142761230469,8.05004596710205,8.05868339538574,8.06733894348145,8.07601356506348,8.08470630645752,8.09341812133789,8.10214900970459,8.11089897155762,8.11966705322266,8.12845420837402,8.13726043701172,8.14608573913574,8.15493106842041,8.16379451751709,8.17267799377441,8.18158054351807,8.19050216674805,8.19944381713867,8.20840454101562,8.21738529205322,8.22638511657715,8.23540592193604,8.24444484710693,8.25350475311279,8.2625846862793,8.27168369293213,8.28080368041992,8.28994369506836,8.29910373687744,8.30828380584717,8.31748390197754,8.32670497894287,8.33594608306885,8.3452091217041,8.35449123382568,8.36379432678223,8.37311840057373,8.3824634552002,8.3918285369873,8.40121555328369,8.41062355041504,8.42005157470703,8.4295015335083,8.43897342681885,8.44846534729004,8.45797920227051,8.46751499176025,8.47707176208496,8.48664951324463,8.49847412109375,8.51215076446533,8.52587223052979,8.53963756561279,8.55344772338867,8.56730270385742,8.58120155334473,8.59514713287354,8.6091365814209,8.62317276000977,8.63725471496582,8.65138244628906,8.66555595397949,8.67977714538574,8.69404411315918,8.70835876464844,8.7227201461792,8.73712921142578,8.75158596038818,8.76609039306641,8.78064250946045,8.79524421691895,8.80989360809326,8.82459259033203,8.83934020996094,8.8541374206543,8.86898422241211,8.88388061523438,8.89882755279541,8.91382503509521,8.92887306213379,8.94397163391113,8.95912075042725,8.97432231903076,8.98957538604736,9.00279426574707,9.01514339447021,9.02752590179443,9.03994274139404,9.05239391326904,9.06487941741943,9.07739925384521,9.0899543762207,9.10254383087158,9.11516761779785,9.12782669067383,9.14052104949951,9.15325164794922,9.16601657867432,9.17881774902344,9.19165515899658,9.20452785491943,9.21743679046631,9.23038196563721,9.24336338043213,9.25638103485107,9.26943588256836,9.28252792358398,9.29565715789795,9.30882263183594,9.32202625274658,9.33526706695557,9.34854602813721,9.36186218261719,9.37521648406982,9.38860893249512,9.40203952789307,9.41550922393799,9.42901706695557,9.4425630569458,9.45614910125732,9.46977424621582,9.48343849182129,9.49714183807373,9.51088523864746,9.52466869354248,9.53849124908447,9.55235481262207,9.56625843048096,9.58020305633545,9.59418773651123,9.60821342468262,9.62228107452393,9.63638877868652,9.65053844451904,9.65865993499756,9.66542911529541,9.67220783233643,9.67899703979492,9.68579483032227,9.69260215759277,9.69941902160645,9.70253944396973,9.7024974822998,9.70245170593262,9.70241165161133,9.70236778259277,9.70232391357422,9.70228004455566,9.70223999023438,9.70219421386719,9.70215225219727
6.99537563323975,6.99995088577271,7.00453186035156,7.00911903381348,7.01371192932129,7.01831150054932,7.02291631698608,7.02752780914307,7.03214502334595,7.03676843643188,7.04139757156372,7.04603338241577,7.05067491531372,7.05532264709473,7.05997657775879,7.06463670730591,7.06930303573608,7.07397508621216,7.07865381240845,7.08333873748779,7.08802938461304,7.0927267074585,7.09743022918701,7.10213994979858,7.10685586929321,7.1115779876709,7.11630630493164,7.1210412979126,7.12578201293945,7.13052940368652,7.13528299331665,7.14004325866699,7.14480924606323,7.14958238601685,7.15436124801636,7.15914678573608,7.16393899917603,7.16873693466187,7.17354202270508,7.17835330963135,7.18317079544067,7.18799495697021,7.19282579421997,7.19766283035278,7.20250654220581,7.20735645294189,7.21221351623535,7.21633958816528,7.21931076049805,7.22228479385376,7.22526073455811,7.22823905944824,7.23122024536133,7.23420381546021,7.25003290176392,7.26821136474609,7.27883815765381,7.28589916229248,7.29297399520874,7.30006217956543,7.30716419219971,7.31428003311157,7.32140970230103,7.32855367660522,7.33571100234985,7.34288263320923,7.35006856918335,7.35726833343506,7.36448192596436,7.37171030044556,7.3789529800415,7.38620901107788,7.39347982406616,7.40076494216919,7.40806436538696,7.41537857055664,7.42270660400391,7.43004941940308,7.43740701675415,7.44477891921997,7.4521656036377,7.45956707000732,7.4669828414917,7.47441387176514,7.48185968399048,7.48931980133057,7.49679517745972,7.50428533554077,7.51179075241089,7.51931095123291,7.52684593200684,7.53439664840698,7.54196214675903,7.54954290390015,7.55713891983032,7.56475067138672,7.57237720489502,7.58001947402954,7.58767700195312,7.59535026550293,7.6030387878418,7.61074304580688,7.61846256256104,7.62619781494141,7.63394927978516,7.64171600341797,7.64949893951416,7.65729761123657,7.66511201858521,7.67294263839722,7.68078899383545,7.68865156173706,7.69653034210205,7.70442533493042,7.71233701705933,7.72026395797729,7.7282075881958,7.73616790771484,7.74414396286011,7.75213718414307,7.7601466178894,7.76817274093628,7.77621555328369,7.78427457809448,7.79235076904297,7.80044364929199,7.80855321884155,7.81667947769165,7.8248233795166,7.83298349380493,7.84116125106812,7.84935569763184,7.85756731033325,7.86579608917236,7.87404251098633,7.88230609893799,7.89058685302734,7.89888477325439,7.90720081329346,7.91553401947021,7.92388439178467,7.93225288391113,7.94063901901245,7.94904327392578,7.95746517181396,7.965904712677,7.97436237335205,7.98283767700195,7.99133110046387,7.99984264373779,8.00837230682373,8.01692008972168,8.02548694610596,8.03407096862793,8.04267406463623,8.05129528045654,8.05993556976318,8.06859397888184,8.07727146148682,8.08596706390381,8.09468078613281,8.10341453552246,8.11216735839844,8.12093830108643,8.12972831726074,8.13853740692139,8.14736557006836,8.15621280670166,8.16507911682129,8.17396545410156,8.18287086486816,8.19179534912109,8.20073986053467,8.20970344543457,8.21868705749512,8.22768974304199,8.23671340942383,8.24575614929199,8.25481796264648,8.26390075683594,8.27300357818604,8.28212547302246,8.29126834869385,8.30043125152588,8.30961418151855,8.31881809234619,8.32804203033447,8.3372859954834,8.34655094146729,8.35583686828613,8.36514282226562,8.37446975708008,8.38381767272949,8.39318656921387,8.4025764465332,8.4119873046875,8.42141914367676,8.43087196350098,8.44034576416016,8.44984149932861,8.45935821533203,8.46889686584473,8.47982215881348,8.49343872070312,8.50710010528564,8.52080535888672,8.53455352783203,8.54834747314453,8.56218528747559,8.57606887817383,8.58999729156494,8.60397052764893,8.6179895401001,8.63205432891846,8.646164894104,8.66032123565674,8.67452526092529,8.68877506256104,8.7030725479126,8.71741580963135,8.73180770874023,8.74624633789062,8.76073360443115,8.7752685546875,8.78985214233398,8.80448341369629,8.81916427612305,8.83389377593994,8.84867286682129,8.86350059509277,8.87837886810303,8.89330768585205,8.90828609466553,8.92331504821777,8.93839550018311,8.95352554321289,8.96836280822754,8.98061752319336,8.99290561676025,9.00522708892822,9.01758289337158,9.02997303009033,9.04239654541016,9.05485439300537,9.06734657287598,9.07987308502197,9.09243488311768,9.10503101348877,9.11766147613525,9.13032817840576,9.14302921295166,9.15576648712158,9.16853904724121,9.18134689331055,9.19419097900391,9.20707130432129,9.21998691558838,9.23293972015381,9.24592781066895,9.25895309448242,9.27201557159424,9.28511428833008,9.29825115203857,9.31142425537109,9.32463455200195,9.33788299560547,9.35116958618164,9.36449337005615,9.377854347229,9.39125442504883,9.40469360351562,9.41816997528076,9.43168544769287,9.44524002075195,9.45883369445801,9.47246646881104,9.48613834381104,9.49984931945801,9.51360034942627,9.52739143371582,9.54122257232666,9.55509376525879,9.56900596618652,9.58295822143555,9.59695148468018,9.61098480224609,9.62506008148193,9.63917636871338,9.64969730377197,9.65392780303955,9.653883934021,9.65384483337402,9.65379905700684,9.65375804901123,9.65371227264404,9.65367126464844,9.6536283493042,9.65358448028564,9.65354156494141,9.65350151062012,9.65345859527588,9.65341472625732,9.65337181091309
6.98063468933105,6.98519039154053,6.98975229263306,6.99431991577148,6.99889373779297,7.00347328186035,7.00805902481079,7.01265096664429,7.01724863052368,7.02185249328613,7.02646255493164,7.03107833862305,7.03570032119751,7.04032850265503,7.04496240615845,7.04960250854492,7.05424880981445,7.05890130996704,7.06356000900269,7.06822490692139,7.07289600372314,7.07757329940796,7.08225631713867,7.0869460105896,7.09164142608643,7.09634351730347,7.10105180740356,7.10576629638672,7.11048698425293,7.1152138710022,7.11994695663452,7.12468671798706,7.12943267822266,7.13418483734131,7.13894319534302,7.14370822906494,7.14847946166992,7.15325736999512,7.15804147720337,7.16283178329468,7.1676287651062,7.17243194580078,7.17724180221558,7.18205785751343,7.18688058853149,7.19170951843262,7.19654512405396,7.20138740539551,7.20623588562012,7.20984888076782,7.21281480789185,7.21578311920166,7.21875381469727,7.22172689437866,7.22470235824585,7.22768068313599,7.23066139221191,7.24095678329468,7.25908946990967,7.27731323242188,7.28692245483398,7.29399919509888,7.3010892868042,7.30819368362427,7.31531143188477,7.32244300842285,7.32958889007568,7.3367486000061,7.34392261505127,7.35110998153687,7.35831212997437,7.36552810668945,7.37275791168213,7.38000249862671,7.38726091384888,7.39453363418579,7.40182113647461,7.40912246704102,7.41643857955933,7.42376899719238,7.43111419677734,7.43847370147705,7.44584798812866,7.45323657989502,7.46063995361328,7.46805810928345,7.47549104690552,7.48293876647949,7.49040126800537,7.49787855148315,7.50537109375,7.51287841796875,7.5204005241394,7.52793836593628,7.53549098968506,7.5430588722229,7.5506420135498,7.55824041366577,7.5658540725708,7.57348299026489,7.58112716674805,7.58878707885742,7.59646224975586,7.60415315628052,7.61185932159424,7.61958169937134,7.6273193359375,7.63507270812988,7.64284181594849,7.65062713623047,7.65842819213867,7.66624450683594,7.6740779876709,7.68192672729492,7.68979167938232,7.69767284393311,7.70557022094727,7.71348333358765,7.72141313552856,7.72935914993286,7.73732137680054,7.74530029296875,7.7532958984375,7.76130771636963,7.76933622360229,7.77738094329834,7.78544330596924,7.79352140426636,7.80161666870117,7.80972862243652,7.81785774230957,7.82600355148315,7.83416652679443,7.84234619140625,7.85054349899292,7.85875749588013,7.86698913574219,7.87523746490479,7.88350391387939,7.89178705215454,7.90008783340454,7.90840625762939,7.91674184799194,7.92509508132935,7.93346643447876,7.94185495376587,7.95026159286499,7.95868587493896,7.96712779998779,7.97558784484863,7.98406600952148,7.99256229400635,8.00107669830322,8.00960922241211,8.01815986633301,8.02672863006592,8.03531551361084,8.04392147064209,8.05254554748535,8.06118774414062,8.06984901428223,8.07852840423584,8.0872278213501,8.09594440460205,8.10468101501465,8.11343574523926,8.1222095489502,8.13100242614746,8.13981437683105,8.14864540100098,8.15749549865723,8.1663646697998,8.17525386810303,8.18416213989258,8.19308948516846,8.20203685760498,8.21100330352783,8.21998882293701,8.22899532318115,8.23802089691162,8.24706649780273,8.25613212585449,8.26521778106689,8.27432250976562,8.28344821929932,8.29259395599365,8.30175971984863,8.31094551086426,8.32015228271484,8.32937908172607,8.33862686157227,8.3478946685791,8.35718250274658,8.36649227142334,8.37582206726074,8.38517284393311,8.39454460144043,8.40393733978271,8.41335105895996,8.42278575897217,8.43224239349365,8.44171905517578,8.4512186050415,8.46125221252441,8.47480964660645,8.48840999603271,8.50205516815186,8.51574325561523,8.52947616577148,8.54325389862061,8.55707550048828,8.57094192504883,8.58485317230225,8.59881019592285,8.61281204223633,8.62685966491699,8.64095306396484,8.6550931930542,8.66928005218506,8.68351268768311,8.69779205322266,8.71211910247803,8.7264928817749,8.7409143447876,8.75538349151611,8.76990032196045,8.78446578979492,8.79907989501953,8.81374263763428,8.82845401763916,8.8432149887085,8.85802459716797,8.87288475036621,8.88779449462891,8.90275382995605,8.91776466369629,8.93282604217529,8.94635581970215,8.95854949951172,8.97077751159668,8.98303890228271,8.99533367156982,9.00766181945801,9.02002429962158,9.03242015838623,9.04485034942627,9.05731582641602,9.06981468200684,9.08234786987305,9.09491634368896,9.10751914978027,9.12015724182129,9.13283061981201,9.14553928375244,9.15828323364258,9.17106246948242,9.18387794494629,9.19672870635986,9.20961570739746,9.22253894805908,9.23549842834473,9.24849414825439,9.2615270614624,9.27459621429443,9.2877025604248,9.30084609985352,9.31402683258057,9.32724475860596,9.340500831604,9.35379409790039,9.36712551116943,9.38049507141113,9.39390277862549,9.4073486328125,9.42083263397217,9.43435573577881,9.44791793823242,9.46151924133301,9.47515964508057,9.4888391494751,9.50255870819092,9.51631736755371,9.53011703491211,9.54395580291748,9.55783462524414,9.57175445556641,9.58571529388428,9.59971618652344,9.60567378997803,9.60562705993652,9.60558795928955,9.60554695129395,9.60550498962402,9.60546398162842,9.60541820526123,9.60537815093994,9.60533428192139,9.60529232025146,9.60525131225586,9.60520648956299,9.60516357421875,9.60512447357178,9.60507965087891
