7.29885196685791,7.31312894821167,7.32746171951294,7.34185075759888,7.35629653930664,7.37079906463623,7.38535928726196,7.39997673034668,7.4146523475647,7.42938613891602,7.44417905807495,7.45903062820435,7.47394132614136,7.4889121055603,7.50394296646118,7.51903438568115,7.53418636322021,7.54939985275269,7.56467437744141,7.58001136779785,7.59541034698486,7.61087226867676,7.62639713287354,7.64198541641235,7.65763759613037,7.67335414886475,7.68913507461548,7.70498132705688,7.72089290618896,7.73687028884888,7.75291395187378,7.76902437210083,7.78520202636719,7.80144691467285,7.81775999069214,7.83414125442505,7.85059118270874,7.86711072921753,7.88369941711426,7.9003586769104,7.91708850860596,7.93388891220093,7.95076131820679,7.96770524978638,7.98472166061401,8.00181102752686,8.0189733505249,8.03621006011963,8.05352020263672,8.0709056854248,8.08836650848389,8.10590267181396,8.12351512908936,8.14120388031006,8.15896987915039,8.17681407928467,8.19473648071289,8.21273803710938,8.2308177947998,8.24897766113281,8.26721858978271,8.2855396270752,8.30394268035889,8.32242679595947,8.34099388122559,8.35964393615723,8.37837791442871,8.39719581604004,8.41609764099121,8.43508625030518,8.4541597366333,8.4733190536499,8.49256706237793,8.51190185546875,8.53132438659668,8.55083656311035,8.57043838500977,8.59012889862061,8.60991096496582,8.62978458404541,8.64975070953369,8.66980838775635,8.68995952606201,8.71020412445068,8.730544090271,8.75097942352295,8.77151012420654,8.78331470489502,8.79394912719727,8.80461025238037,8.81529712677002,8.82600975036621,8.83674812316895,8.84751319885254,8.85830402374268,8.86912155151367,8.87996578216553,8.89083576202393,8.9017333984375,8.91265678405762,8.92360782623291,8.93458557128906,8.94662284851074,8.96223926544189,8.97791004180908,8.99363613128662,9.00941753387451,9.02525424957275,9.04114723205566,9.05709552764893,9.07310104370117,9.11146640777588,9.18426990509033,9.25824642181396,9.33342456817627,9.40983295440674,9.48750305175781,9.56646633148193,9.64675521850586,9.72840309143066,9.81144428253174,9.89591598510742,9.98185443878174,10.068247795105,10.1554470062256,10.2441711425781,10.3344583511353,10.4263515472412,10.5198936462402,10.6151294708252,10.7121047973633,10.8108692169189,10.911470413208,11.0139627456665,11.1183986663818,11.2744064331055,11.5148611068726,11.7657957077026,11.7943916320801,11.8196935653687,11.845103263855,11.8706226348877,11.8962526321411,11.9219932556152,11.9478454589844,11.9738101959229,11.999888420105,12.0260791778564,12.0523853302002,12.0788068771362,12.1053447723389,12.1319990158081,12.1587715148926,12.1856622695923,12.2126712799072,12.2398014068604,12.2670516967773,12.2944240570068,12.3219184875488,12.349536895752,12.3772783279419,12.4051456451416,12.4331378936768,12.461256980896,12.4895038604736,12.5178785324097,12.5463829040527,12.5750169754028,12.6037826538086,12.63267993927,12.6617097854614,12.6908740997314,12.7201719284058,12.7496061325073,12.7791767120361,12.8088846206665,12.8387317657471,12.8687171936035,12.8988437652588,12.9291114807129,12.9595222473145,12.9900751113892,13.02077293396,13.0516166687012,13.0826063156128,13.1137437820435,13.1450300216675,13.1764650344849,13.2080516815186,13.2397890090942,13.2716808319092,13.3037252426147,13.3359251022339,13.3682813644409,13.4007949829102,13.4334678649902,13.4663000106812,13.4706439971924,13.4704103469849,13.4701766967773,13.4699430465698,13.4697074890137,13.4694728851318,13.4692392349243,13.4690055847168,13.4687719345093,13.4685363769531,13.4683036804199,13.4680700302124,13.4678344726562,13.4676008224487,13.4673690795898,13.4671335220337,13.4668998718262,13.4666662216187,13.4664335250854,13.4661979675293,13.4659624099731,13.4657325744629,13.4654970169067,13.4652633666992,13.4650287628174,13.4647951126099,13.4645614624023,13.4643259048462,13.4640941619873,13.4638586044312,13.4636249542236,13.4633913040161,13.4631567001343,13.4629230499268,13.4626893997192,13.4624538421631,13.4622240066528,13.4619903564453,13.4617567062378,13.461519241333,13.4612865447998,13.4610528945923,13.4608192443848,13.4605865478516,13.4603538513184,13.4601182937622,13.4598846435547,13.4596509933472,13.4594173431396,13.4591836929321,13.4589500427246,13.4587182998657,13.4584827423096,13.4582490921021,13.4580154418945,13.4577808380127,13.4575481414795,13.4573163986206,13.4570827484131,13.4568481445312,13.4566144943237,13.4563808441162,13.4561471939087,13.4559135437012,13.4556798934937,13.4554462432861,13.4552135467529,13.4549789428711,13.4547452926636,13.4545116424561,13.4542760848999,13.454047203064,13.4538125991821,13.4535789489746,13.4533433914185,13.4531097412109,13.4528779983521,13.4526424407959,13.452410697937,13.4521789550781,13.451943397522,13.4517116546631,13.4514780044556,13.451244354248,13.4510107040405,13.4507751464844,13.4505443572998,13.4503107070923,13.4500770568848,13.4498434066772,13.4496088027954,13.4493761062622,13.4491415023804,13.4489107131958,13.4486770629883,13.4484434127808,13.4482097625732,13.4479761123657,13.4477424621582,13.4475107192993,13.4472770690918,13.4470453262329,13.4468097686768,13.4465780258179,13.4463443756104,13.4461088180542,13.4458770751953,13.4456443786621,13.4454126358032,13.4451770782471,13.4449434280396,13.4447116851807,13.4444780349731,13.4442443847656,13.4440126419067,13.4437789916992,13.443546295166,13.4433126449585,13.443078994751,13.4428453445435,13.4426116943359,13.4423799514771,13.4421463012695,13.441915512085,13.4416809082031,13.4414472579956
7.28423261642456,7.29845237731934,7.31272792816162,7.32705879211426,7.34144639968872,7.35589075088501,7.37039184570312,7.38495016098022,7.39956617355347,7.41423988342285,7.4289722442627,7.443763256073,7.45861339569092,7.47352266311646,7.48849153518677,7.50352048873901,7.51861047744751,7.53376054763794,7.54897212982178,7.56424522399902,7.57958030700684,7.59497785568237,7.61043787002563,7.62596082687378,7.64154767990112,7.65719795227051,7.67291259765625,7.68869161605835,7.70453596115112,7.72044610977173,7.73642158508301,7.75246334075928,7.7685718536377,7.78474760055542,7.80099058151245,7.81730175018311,7.83368110656738,7.85012912750244,7.86664628982544,7.88323354721069,7.89989042282104,7.91661834716797,7.93341684341431,7.95028686523438,7.96722888946533,7.98424339294434,8.00133037567139,8.0184907913208,8.03572559356689,8.05303382873535,8.0704174041748,8.08787536621094,8.10540962219238,8.12302017211914,8.14070701599121,8.15847110748291,8.17631340026855,8.19423294067383,8.21223163604736,8.23030948638916,8.24846744537354,8.26670551300049,8.28502464294434,8.30342483520508,8.32190704345703,8.34047222137451,8.3591194152832,8.37785148620605,8.39666652679443,8.41556644439697,8.43455219268799,8.45362377166748,8.47278118133545,8.49202632904053,8.5113582611084,8.5307788848877,8.55028820037842,8.56988716125488,8.58957576751709,8.60935592651367,8.62922668457031,8.64918899536133,8.66924476623535,8.68939304351807,8.70963573455811,8.72997283935547,8.74229526519775,8.75283145904541,8.76339244842529,8.77397918701172,8.78459167480469,8.7952299118042,8.80589389801025,8.81658363342285,8.82729911804199,8.83804130554199,8.84880924224854,8.85960388183594,8.87042427062988,8.88127136230469,8.89214515686035,8.90304565429688,8.91397285461426,8.92508220672607,8.94062328338623,8.95621871948242,8.97186946868896,8.98757457733154,9.00333404541016,9.01914978027344,9.03502082824707,9.05094718933105,9.06693077087402,9.08335971832275,9.15571308135986,9.22922801971436,9.30393409729004,9.37985801696777,9.45703220367432,9.53548717498779,9.61525440216064,9.69636726379395,9.7788610458374,9.86276912689209,9.94813060760498,10.0349826812744,10.1233644485474,10.2122278213501,10.3019504547119,10.3932638168335,10.4862098693848,10.5808343887329,10.6771812438965,10.7752990722656,10.8752374649048,10.9770469665527,11.0807800292969,11.1864929199219,11.40638256073,11.6525621414185,11.733341217041,11.7583808898926,11.7835273742676,11.8087825775146,11.8341455459595,11.8596181869507,11.8852005004883,11.9108924865723,11.9366970062256,11.9626131057739,11.9886417388916,12.0147848129272,12.0410413742065,12.0674123764038,12.093900680542,12.1205043792725,12.1472253799438,12.1740646362305,12.2010231018066,12.2281017303467,12.2552995681763,12.2826194763184,12.3100614547729,12.33762550354,12.3653144836426,12.3931274414062,12.4210653305054,12.4491300582886,12.4773216247559,12.5056409835815,12.5340900421143,12.5626678466797,12.5913772583008,12.6202173233032,12.6491899490356,12.6782960891724,12.7075366973877,12.7369117736816,12.7664232254028,12.7960720062256,12.8258590698242,12.855785369873,12.8858509063721,12.9160575866699,12.9464063644409,12.9768981933594,13.0075330734253,13.0383138656616,13.0692405700684,13.1003141403198,13.1315355300903,13.1629066467285,13.1944284439087,13.2261009216309,13.2579259872437,13.2899036407471,13.3220367431641,13.3543262481689,13.3772201538086,13.3769912719727,13.3767595291138,13.3765258789062,13.3762969970703,13.3760652542114,13.3758363723755,13.3756055831909,13.375373840332,13.3751449584961,13.3749122619629,13.3746824264526,13.3744497299194,13.3742208480835,13.3739910125732,13.3737602233887,13.3735284805298,13.3732976913452,13.3730659484863,13.3728370666504,13.3726062774658,13.3723754882812,13.372145652771,13.3719129562378,13.3716831207275,13.3714504241943,13.3712215423584,13.3709926605225,13.3707609176636,13.370530128479,13.3702993392944,13.3700695037842,13.369836807251,13.3696050643921,13.3693780899048,13.3691473007202,13.3689165115356,13.3686847686768,13.3684539794922,13.3682231903076,13.3679933547974,13.3677625656128,13.3675336837769,13.367301940918,13.3670711517334,13.3668403625488,13.3666105270386,13.366379737854,13.3661470413208,13.3659200668335,13.3656883239746,13.3654594421387,13.3652267456055,13.3649969100952,13.3647661209106,13.3645353317261,13.3643064498901,13.3640756607056,13.3638458251953,13.3636150360107,13.3633842468262,13.3631544113159,13.3629236221313,13.3626928329468,13.3624639511108,13.3622331619263,13.362003326416,13.3617725372314,13.3615407943726,13.3613119125366,13.3610830307007,13.3608522415161,13.3606195449829,13.360390663147,13.3601608276367,13.3599281311035,13.3596992492676,13.359468460083,13.3592395782471,13.3590097427368,13.3587789535522,13.3585500717163,13.3583173751831,13.3580875396729,13.3578567504883,13.357629776001,13.3573989868164,13.3571681976318,13.3569364547729,13.356707572937,13.3564767837524,13.3562479019165,13.3560171127319,13.3557863235474,13.3555564880371,13.3553256988525,13.3550987243652,13.354866027832,13.3546352386475,13.3544082641602,13.3541765213013,13.3539457321167,13.3537168502808,13.3534860610962,13.3532552719116,13.3530244827271,13.3527975082397,13.3525667190552,13.3523349761963,13.3521060943604,13.3518753051758,13.3516445159912,13.3514156341553,13.3511867523193,13.3509578704834,13.3507261276245,13.3504953384399,13.350266456604,13.3500356674194,13.3498067855835,13.3495759963989,13.349347114563,13.3491182327271,13.3488874435425,13.3486585617065
7.26967191696167,7.28383493423462,7.29805278778076,7.31232643127441,7.32665634155273,7.34104204177856,7.35548496246338,7.36998414993286,7.38454103469849,7.3991551399231,7.41382789611816,7.42855834960938,7.44334745407104,7.45819616317749,7.47310352325439,7.48807096481323,7.503098487854,7.51818609237671,7.53333473205566,7.54854488372803,7.56381607055664,7.57914972305298,7.59454536437988,7.61000347137451,7.62552452087402,7.64110946655273,7.65675830841064,7.67247104644775,7.68824863433838,7.70409107208252,7.71999883651733,7.73597240447998,7.75201272964478,7.76811933517456,7.78429317474365,7.80053424835205,7.81684303283691,7.83322048187256,7.84966707229614,7.86618232727051,7.88276720046997,7.89942264556885,7.91614818572998,7.93294477462769,7.94981288909912,7.96675300598145,7.98376512527466,8.00085067749023,8.01800918579102,8.03524112701416,8.05254745483398,8.06992816925049,8.0873851776123,8.1049165725708,8.12252521514893,8.14021015167236,8.15797233581543,8.17581176757812,8.19372940063477,8.21172618865967,8.22980213165283,8.24795722961426,8.26619338989258,8.28450965881348,8.30290794372559,8.32138824462891,8.33995056152344,8.3585958480835,8.3773250579834,8.39613819122314,8.41503524780273,8.4340181350708,8.45308780670166,8.47224235534668,8.49148464202881,8.51081466674805,8.53023242950439,8.54973983764648,8.5693359375,8.58902263641357,8.60879993438721,8.6286678314209,8.64862823486328,8.66868114471436,8.68882656097412,8.70165824890137,8.71209621429443,8.72255897521973,8.73304748535156,8.74356079101562,8.75409984588623,8.76466464996338,8.77525424957275,8.78586959838867,8.79651069641113,8.80717754364014,8.81787109375,8.82858943939209,8.83933448791504,8.85010623931885,8.8609037399292,8.87172698974609,8.88257789611816,8.89345455169678,8.90435791015625,8.91911125183105,8.93463230133057,8.9502067565918,8.96583652496338,8.98151969909668,8.99725914001465,9.01305294036865,9.02890205383301,9.04480743408203,9.06076908111572,9.07678699493408,9.12733268737793,9.20039081573486,9.27462863922119,9.35007381439209,9.42675685882568,9.5047082901001,9.58395862579346,9.66454219818115,9.74649238586426,9.82984447479248,9.91463470458984,10.0009002685547,10.0886793136597,10.1780138015747,10.2689447402954,10.3603849411011,10.4527416229248,10.546760559082,10.642484664917,10.7399635314941,10.839243888855,10.9403772354126,11.0434160232544,11.1484136581421,11.2999296188354,11.5414867401123,11.6729192733765,11.6977014541626,11.7225885391235,11.7475833892822,11.7726831436157,11.7978916168213,11.8232078552246,11.8486328125,11.8741674423218,11.8998126983643,11.9255685806274,11.95143699646,11.9774169921875,12.0035104751587,12.0297174453735,12.0560398101807,12.0824775695801,12.1090316772461,12.1357021331787,12.1624908447266,12.1893978118896,12.2164239883423,12.2435703277588,12.2708377838135,12.2982263565063,12.325737953186,12.3533735275269,12.3811321258545,12.4090166091919,12.4370269775391,12.465163230896,12.4934282302856,12.5218210220337,12.5503425598145,12.5789957046509,12.6077785491943,12.6366949081421,12.6657428741455,12.6949253082275,12.7242431640625,12.7536954879761,12.7832851409912,12.8130121231079,12.8428783416748,12.8728837966919,12.9030294418335,12.9333171844482,12.9637470245361,12.9943199157715,13.0250387191772,13.0559015274048,13.0869121551514,13.1180696487427,13.1493768692017,13.180832862854,13.2124404907227,13.2441997528076,13.2761116027832,13.2848567962646,13.2846298217773,13.2843999862671,13.2841749191284,13.2839469909668,13.2837181091309,13.2834920883179,13.2832632064819,13.2830362319946,13.2828073501587,13.2825794219971,13.2823543548584,13.2821264266968,13.2818975448608,13.2816715240479,13.2814426422119,13.281213760376,13.2809867858887,13.2807607650757,13.2805337905884,13.2803039550781,13.2800788879395,13.2798490524292,13.2796201705933,13.2793951034546,13.2791690826416,13.27894115448,13.278712272644,13.2784833908081,13.2782573699951,13.2780284881592,13.2778015136719,13.2775774002075,13.2773485183716,13.2771224975586,13.2768936157227,13.276665687561,13.2764368057251,13.2762107849121,13.2759838104248,13.2757558822632,13.2755308151245,13.2753028869629,13.275074005127,13.2748470306396,13.2746171951294,13.2743921279907,13.2741661071777,13.2739372253418,13.2737112045288,13.2734823226929,13.2732543945312,13.2730293273926,13.2728004455566,13.2725763320923,13.272346496582,13.2721195220947,13.2718915939331,13.2716665267944,13.2714385986328,13.2712097167969,13.2709856033325,13.2707567214966,13.270528793335,13.270302772522,13.270073890686,13.2698488235474,13.2696189880371,13.2693939208984,13.2691659927368,13.2689390182495,13.2687129974365,13.2684841156006,13.268256187439,13.268030166626,13.2678050994873,13.2675771713257,13.2673501968384,13.2671222686768,13.2668952941895,13.2666673660278,13.2664413452148,13.2662143707275,13.2659883499146,13.2657613754272,13.2655334472656,13.2653074264526,13.2650785446167,13.2648515701294,13.2646255493164,13.2643995285034,13.2641725540161,13.2639446258545,13.2637176513672,13.2634897232056,13.2632617950439,13.2630367279053,13.2628107070923,13.2625827789307,13.2623558044434,13.2621278762817,13.2619028091431,13.2616748809814,13.2614479064941,13.2612228393555,13.2609958648682,13.2607698440552,13.2605409622192,13.2603130340576,13.2600879669189,13.2598600387573,13.259635925293,13.2594079971313,13.259181022644,13.2589530944824,13.2587280273438,13.2585000991821,13.2582731246948,13.2580471038818,13.2578229904175,13.2575931549072,13.2573680877686,13.2571401596069
7.25516939163208,7.2692756652832,7.28343677520752,7.29765319824219,7.31192541122437,7.32625389099121,7.34063816070557,7.35507917404175,7.36957693099976,7.38413190841675,7.39874458312988,7.41341543197632,7.42814445495605,7.44293212890625,7.45777893066406,7.47268486022949,7.4876503944397,7.50267601013184,7.51776218414307,7.53290939331055,7.54811763763428,7.56338739395142,7.57871866226196,7.59411239624023,7.60956907272339,7.62508869171143,7.6406717300415,7.65631866455078,7.67202949523926,7.68780517578125,7.70364570617676,7.7195520401001,7.73552370071411,7.75156211853027,7.76766681671143,7.78383827209473,7.80007791519165,7.81638479232788,7.83276033401489,7.84920501708984,7.86571836471558,7.88230133056641,7.89895439147949,7.91567802429199,7.93247270584106,7.94933891296387,7.96627712249756,7.98328733444214,8.00037002563477,8.01752662658691,8.03475666046143,8.05206108093262,8.06943988800049,8.08689403533936,8.10442447662354,8.12203025817871,8.13971328735352,8.15747261047363,8.1753101348877,8.1932258605957,8.21122074127197,8.22929382324219,8.24744701385498,8.26568126678467,8.28399562835693,8.30239105224609,8.32086849212646,8.33942890167236,8.35807132720947,8.37679862976074,8.39560890197754,8.41450500488281,8.43348503112793,8.45255184173584,8.47170448303223,8.49094390869141,8.5102710723877,8.52968692779541,8.54919147491455,8.56878566741943,8.58846950531006,8.60824394226074,8.62810897827148,8.64806747436523,8.66139698028564,8.67173862457275,8.68210506439209,8.69249629974365,8.70291233062744,8.71335315704346,8.7238187789917,8.73431015014648,8.74482727050781,8.75536918640137,8.76593685150146,8.77652931213379,8.78714752197266,8.79779243469238,8.80846214294434,8.81915855407715,8.8298807144165,8.8406286239624,8.85140323638916,8.86220359802246,8.87303066253662,8.88388442993164,8.89770317077637,8.91314888000488,8.92864894866943,8.94420337677002,8.95981121063232,8.97547340393066,8.99119186401367,9.0069637298584,9.02279281616211,9.03867626190186,9.05461597442627,9.07061195373535,9.09912776947021,9.17173385620117,9.24550819396973,9.32047843933105,9.39667415618896,9.4741268157959,9.55286598205566,9.63292598724365,9.7143383026123,9.79713916778564,9.88136291503906,9.96704769134521,10.0542316436768,10.142954826355,10.2332572937012,10.3251819610596,10.4187726974487,10.5129051208496,10.6080131530762,10.7048587799072,10.8034887313843,10.9039525985718,11.0063028335571,11.1105918884277,11.2168769836426,11.4325084686279,11.6131162643433,11.6376447677612,11.6622772216797,11.6870145797729,11.711856842041,11.7368049621582,11.7618589401245,11.7870206832886,11.8122901916504,11.8376684188843,11.8631563186646,11.8887529373169,11.9144620895386,11.9402809143066,11.9662132263184,11.9922580718994,12.0184154510498,12.0446882247925,12.0710763931274,12.0975799560547,12.1241998672485,12.1509380340576,12.1777935028076,12.2047681808472,12.2318630218506,12.2590780258179,12.2864151000977,12.3138732910156,12.3414554595947,12.3691606521606,12.396990776062,12.4249467849731,12.453028678894,12.4812383651733,12.509575843811,12.5380420684814,12.5666379928589,12.595365524292,12.6242237091064,12.6532154083252,12.6823396682739,12.7115983963013,12.7409934997559,12.7705240249634,12.8001918792725,12.8299980163574,12.8599424362183,12.8900279998779,12.9202547073364,12.9506225585938,12.9820699691772,13.0143175125122,13.0467262268066,13.0792970657349,13.1120309829712,13.1449279785156,13.1779918670654,13.1939840316772,13.1937580108643,13.1935338973999,13.1933107376099,13.1930866241455,13.1928625106812,13.1926364898682,13.1924123764038,13.1921863555908,13.1919641494751,13.1917390823364,13.1915130615234,13.1912889480591,13.1910667419434,13.190842628479,13.190616607666,13.190390586853,13.1901693344116,13.1899433135986,13.1897211074829,13.1894950866699,13.1892690658569,13.1890449523926,13.1888208389282,13.1885995864868,13.1883735656738,13.1881475448608,13.1879253387451,13.1876993179321,13.1874742507935,13.1872501373291,13.1870279312134,13.186803817749,13.1865787506104,13.186354637146,13.1861305236816,13.1859045028687,13.1856803894043,13.1854562759399,13.1852331161499,13.1850090026855,13.1847829818726,13.1845607757568,13.1843347549438,13.1841115951538,13.1838855743408,13.1836633682251,13.1834383010864,13.1832141876221,13.1829919815063,13.1827659606934,13.1825399398804,13.1823167800903,13.1820945739746,13.1818704605103,13.1816453933716,13.1814193725586,13.1811971664429,13.1809730529785,13.1807489395142,13.1805257797241,13.1803016662598,13.1800775527954,13.1798515319824,13.1796283721924,13.179404258728,13.179178237915,13.1789588928223,13.1787309646606,13.1785087585449,13.1782836914062,13.1780576705933,13.1778354644775,13.1776113510132,13.1773900985718,13.1771659851074,13.1769399642944,13.1767168045044,13.17649269104,13.1762685775757,13.176043510437,13.1758193969727,13.1755981445312,13.1753721237183,13.1751499176025,13.1749238967896,13.1746997833252,13.1744766235352,13.1742506027222,13.1740293502808,13.1738052368164,13.1735811233521,13.173357963562,13.173131942749,13.1729097366333,13.1726837158203,13.1724624633789,13.1722393035889,13.1720132827759,13.1717910766602,13.1715669631958,13.1713418960571,13.1711177825928,13.1708955764771,13.170672416687,13.1704483032227,13.1702222824097,13.1700010299683,13.1697750091553,13.1695518493652,13.1693296432495,13.1691055297852,13.1688823699951,13.1686582565308,13.1684350967407,13.1682090759277,13.167986869812,13.167763710022,13.1675405502319,13.1673164367676,13.1670923233032,13.1668682098389
7.24072456359863,7.25477457046509,7.26887941360474,7.28303909301758,7.29725408554077,7.31152439117432,7.32585096359253,7.34023380279541,7.35467338562012,7.36916971206665,7.38372325897217,7.39833402633667,7.41300344467163,7.42773056030273,7.44251680374146,7.45736169815063,7.47226572036743,7.48722982406616,7.50225400924683,7.51733827590942,7.53248357772827,7.54768991470337,7.56295824050903,7.57828807830811,7.59367990493774,7.60913467407227,7.62465238571167,7.64023399353027,7.65587902069092,7.67158794403076,7.68736171722412,7.70320081710815,7.7191047668457,7.73507499694824,7.75111150741577,7.76721429824829,7.78338384628296,7.79962158203125,7.81592655181885,7.83230018615723,7.84874296188354,7.86525440216064,7.88183546066284,7.89848661422729,7.91520833969116,7.9320011138916,7.94886493682861,7.96580123901367,7.98280906677246,7.99989032745361,8.01704502105713,8.03427219390869,8.05157470703125,8.06895160675049,8.08640384674072,8.10393142700195,8.1215353012085,8.13921546936035,8.15697383880615,8.17480945587158,8.19272232055664,8.21071434020996,8.22878551483154,8.2469367980957,8.26516819000244,8.28348064422607,8.3018741607666,8.32034969329834,8.33890724182129,8.35754776000977,8.37627220153809,8.39508056640625,8.41397380828857,8.43295192718506,8.45201587677002,8.47116565704346,8.490403175354,8.50972843170166,8.52914142608643,8.54864311218262,8.56823444366455,8.58791637420654,8.60768795013428,8.62150573730469,8.63175296783447,8.64202404022217,8.65231895446777,8.66263866424561,8.67298316955566,8.68335247039795,8.69374752044678,8.70416641235352,8.71461009979248,8.72507953643799,8.73557376861572,8.74609375,8.7566385269165,8.76720905303955,8.77780532836914,8.78842639923096,8.79907417297363,8.80974674224854,8.8204460144043,8.83117198944092,8.84192276000977,8.85270023345947,8.86350440979004,8.87639713287354,8.89176940917969,8.90719509124756,8.92267417907715,8.93820667266846,8.95379447937012,8.9694356918335,8.98513221740723,9.00088405609131,9.01669025421143,9.03255271911621,9.04847145080566,9.06444549560547,9.08047676086426,9.14325428009033,9.21656894683838,9.29106903076172,9.36678314208984,9.44374179840088,9.52197456359863,9.60151481628418,9.68239593505859,9.76465034484863,9.84831428527832,9.93342399597168,10.0200185775757,10.108136177063,10.1978168487549,10.2891025543213,10.3820381164551,10.4766674041748,10.5730381011963,10.6699819564819,10.7679672241211,10.867769241333,10.9694375991821,11.0730266571045,11.1785907745361,11.3255701065063,11.5539226531982,11.5782012939453,11.6025829315186,11.627067565918,11.6516551971436,11.6763467788696,11.7011432647705,11.7260456085205,11.7510547637939,11.7761697769165,11.8013925552368,11.8267240524292,11.8521642684937,11.8777151107788,11.9033756256104,11.9291467666626,11.9550294876099,11.9810256958008,12.0071353912354,12.0333585739136,12.0596961975098,12.0861501693726,12.1127195358276,12.1394071578979,12.1662120819092,12.1931352615356,12.220178604126,12.2473411560059,12.2746257781982,12.3020315170288,12.3295602798462,12.3572120666504,12.38498878479,12.4128904342651,12.44091796875,12.4690723419189,12.4973545074463,12.5257654190063,12.5543050765991,12.5829763412476,12.6117782592773,12.6418695449829,12.6724481582642,12.7031745910645,12.7340497970581,12.7650766372681,12.79625415802,12.8275842666626,12.8590688705444,12.8907079696655,12.9225025177002,12.9544553756714,12.9865665435791,13.0188369750977,13.0512676239014,13.0838613510132,13.1043462753296,13.1041240692139,13.1039037704468,13.1036815643311,13.1034603118896,13.1032409667969,13.1030178070068,13.1027965545654,13.1025733947754,13.1023530960083,13.1021327972412,13.1019105911255,13.1016893386841,13.101466178894,13.1012449264526,13.1010236740112,13.1008024215698,13.1005811691284,13.100359916687,13.1001377105713,13.0999183654785,13.0996952056885,13.0994739532471,13.0992546081543,13.0990314483643,13.0988121032715,13.0985889434814,13.09836769104,13.0981464385986,13.0979242324829,13.0977058410645,13.0974826812744,13.0972623825073,13.0970411300659,13.0968179702759,13.0965967178345,13.0963754653931,13.0961561203003,13.0959348678589,13.0957136154175,13.0954923629761,13.095269203186,13.0950479507446,13.0948266983032,13.0946054458618,13.0943880081177,13.094162940979,13.0939416885376,13.0937223434448,13.0935010910034,13.0932788848877,13.0930576324463,13.0928373336792,13.0926179885864,13.0923948287964,13.092173576355,13.0919523239136,13.0917301177979,13.0915107727051,13.091290473938,13.0910711288452,13.0908470153809,13.0906257629395,13.0904054641724,13.0901832580566,13.0899629592896,13.0897436141968,13.0895204544067,13.089301109314,13.0890779495239,13.0888586044312,13.0886354446411,13.0884141921997,13.0881967544556,13.0879735946655,13.0877542495728,13.0875310897827,13.0873117446899,13.0870904922485,13.0868692398071,13.0866479873657,13.0864286422729,13.0862073898315,13.0859861373901,13.085765838623,13.0855445861816,13.0853223800659,13.0851011276245,13.0848827362061,13.0846614837646,13.0844402313232,13.0842189788818,13.0839977264404,13.083776473999,13.0835552215576,13.0833377838135,13.0831165313721,13.082893371582,13.0826749801636,13.0824527740479,13.0822305679321,13.0820112228394,13.0817899703979,13.0815706253052,13.0813493728638,13.0811281204224,13.080906867981,13.0806875228882,13.0804653167725,13.0802459716797,13.0800266265869,13.0798053741455,13.0795822143555,13.0793628692627,13.0791416168213,13.0789213180542,13.0787000656128,13.0784788131714,13.0782613754272,13.0780382156372,13.0778188705444
7.22633695602417,7.24033117294312,7.2543797492981,7.26848316192627,7.28264141082764,7.2968544960022,7.31112384796143,7.32544851303101,7.33982992172241,7.35426759719849,7.36876249313354,7.38331413269043,7.39792394638062,7.41259098052979,7.42731666564941,7.4421010017395,7.45694446563721,7.47184705734253,7.48680973052979,7.50183200836182,7.51691484451294,7.53205823898315,7.54726314544678,7.56252908706665,7.57785701751709,7.59324741363525,7.6087007522583,7.62421655654907,7.63979578018188,7.65543937683105,7.67114686965942,7.68691873550415,7.70275545120239,7.71865797042847,7.73462629318237,7.75066089630127,7.76676177978516,7.78292989730835,7.79916524887085,7.81546878814697,7.83184051513672,7.84828090667725,7.86479043960571,7.88136959075928,7.8980188369751,7.91473817825317,7.93152904510498,7.94839096069336,7.96532487869263,7.98233127593994,7.9994101524353,8.01656246185303,8.03378868103027,8.05108833312988,8.06846332550049,8.08591365814209,8.10343933105469,8.12104034423828,8.13871955871582,8.15647506713867,8.17430782318115,8.19221878051758,8.21020889282227,8.22827816009521,8.24642658233643,8.26465606689453,8.28296566009521,8.30135726928711,8.3198299407959,8.33838558197021,8.35702419281006,8.37574577331543,8.39455223083496,8.41344261169434,8.43241786956787,8.4514799118042,8.470627784729,8.4898624420166,8.50918483734131,8.52859592437744,8.548095703125,8.56768417358398,8.58198165893555,8.59213447570801,8.60231113433838,8.61251163482666,8.62273693084717,8.63298606872559,8.64326000213623,8.6535587310791,8.66388130187988,8.67422866821289,8.68460178375244,8.6949987411499,8.70542049407959,8.71586799621582,8.72634029388428,8.73683738708496,8.74736022949219,8.75790786743164,8.76848125457764,8.77908039093018,8.78970527648926,8.80035591125488,8.81103229522705,8.82173442840576,8.83246326446533,8.84321784973145,8.85519313812256,8.87049198150635,8.88584327697754,8.90124797821045,8.91670703887939,8.93221950531006,8.94778537750244,8.96340560913086,8.97908115386963,8.99481201171875,9.01059722900391,9.02643775939941,9.04233455657959,9.05828762054443,9.07429695129395,9.11495113372803,9.18781089782715,9.26184463500977,9.33708190917969,9.41355037689209,9.49128246307373,9.57030868530273,9.65066242218018,9.73237609863281,9.81548595428467,9.90002727508545,9.9860372543335,10.0735549926758,10.1626205444336,10.2532749176025,10.3455610275269,10.4395236968994,10.5352096557617,10.632664680481,10.7319402694702,10.8318252563477,10.9328193664551,11.0357141494751,11.1405649185181,11.2474269866943,11.4587545394897,11.5193634033203,11.5434970855713,11.5677318572998,11.5920686721802,11.6165084838867,11.6410522460938,11.665699005127,11.690450668335,11.7153072357178,11.7402696609497,11.7653388977051,11.7905158996582,11.8158006668091,11.841194152832,11.8666963577271,11.8923091888428,11.9180326461792,11.9438676834106,11.9698152542114,11.9958753585815,12.0220499038696,12.0483379364014,12.0747413635254,12.1012620925903,12.1278982162476,12.1546516418457,12.1815242767334,12.2085151672363,12.2356271743774,12.2628583908081,12.2902126312256,12.3190450668335,12.3480796813965,12.3772506713867,12.4065608978271,12.4360103607178,12.4655990600586,12.4953298568726,12.5252017974854,12.5552177429199,12.585376739502,12.6156826019287,12.6461334228516,12.6767320632935,12.7074794769287,12.7383766174316,12.7694234848022,12.8006229400635,12.831974029541,12.8634796142578,12.8951406478882,12.9269580841064,12.9589328765869,12.9910659790039,13.0159168243408,13.0157022476196,13.0154819488525,13.0152645111084,13.0150442123413,13.0148267745972,13.0146083831787,13.0143871307373,13.0141725540161,13.013952255249,13.0137329101562,13.0135145187378,13.013295173645,13.0130786895752,13.0128583908081,13.012640953064,13.0124244689941,13.0122041702271,13.0119867324829,13.0117683410645,13.011547088623,13.0113306045532,13.0111122131348,13.0108938217163,13.0106763839722,13.0104560852051,13.0102396011353,13.0100183486938,13.009801864624,13.0095844268799,13.0093660354614,13.009147644043,13.0089282989502,13.0087118148804,13.0084915161133,13.0082740783691,13.0080575942993,13.0078372955322,13.0076208114624,13.0074014663696,13.0071811676025,13.0069646835327,13.0067453384399,13.0065269470215,13.0063104629517,13.0060930252075,13.0058727264404,13.005654335022,13.0054388046265,13.0052165985107,13.0049991607666,13.0047836303711,13.0045642852783,13.0043478012085,13.00412940979,13.0039081573486,13.0036916732788,13.003472328186,13.0032567977905,13.0030393600464,13.0028190612793,13.0026025772095,13.0023832321167,13.0021667480469,13.0019464492798,13.00172996521,13.0015106201172,13.0012941360474,13.0010738372803,13.0008573532104,13.0006380081177,13.0004215240479,13.0002031326294,12.9999866485596,12.9997673034668,12.9995489120483,12.9993305206299,12.9991111755371,12.9988946914673,12.9986782073975,12.998459815979,12.9982414245605,12.9980230331421,12.9978055953979,12.9975872039795,12.997368812561,12.9971504211426,12.9969329833984,12.9967164993286,12.9964981079102,12.9962778091431,12.9960613250732,12.9958438873291,12.9956254959106,12.9954090118408,12.9951906204224,12.9949722290039,12.9947547912598,12.9945383071899,12.9943180084229,12.9940996170044,12.9938850402832,12.9936666488647,12.9934482574463,12.9932308197021,12.9930105209351,12.9927940368652,12.9925756454468,12.992359161377,12.9921417236328,12.9919233322144,12.9917068481445,12.9914884567261,12.9912700653076,12.9910516738892,12.9908351898193,12.9906177520752,12.9904012680054,12.9901828765869,12.9899644851685
7.21200656890869,7.22594499588013,7.23993825912476,7.2539849281311,7.2680869102478,7.28224325180054,7.29645538330078,7.31072282791138,7.32504606246948,7.33942556381226,7.35386180877686,7.36835479736328,7.38290548324585,7.3975133895874,7.4121789932251,7.42690324783325,7.44168567657471,7.45652770996094,7.47142839431763,7.48638916015625,7.50141000747681,7.5164909362793,7.53163290023804,7.54683589935303,7.56209993362427,7.57742643356323,7.59281492233276,7.60826635360718,7.62378072738647,7.63935804367065,7.65499973297119,7.67070531845093,7.68647527694702,7.70231056213379,7.71821117401123,7.7341775894165,7.75021028518677,7.76630926132202,7.78247547149658,7.79870891571045,7.81501054763794,7.83138036727905,7.84781885147095,7.86432647705078,7.88090372085571,7.8975510597229,7.91426849365234,7.93105745315552,7.94791746139526,7.9648494720459,7.98185348510742,7.99893045425415,8.01608085632324,8.03330421447754,8.05060195922852,8.06797504425049,8.08542346954346,8.10294628143311,8.12054634094238,8.13822269439697,8.15597534179688,8.17380619049072,8.19171524047852,8.20970344543457,8.22777080535889,8.24591732025146,8.26414394378662,8.28245162963867,8.30084037780762,8.31931114196777,8.33786392211914,8.35649967193604,8.37521934509277,8.39402294158936,8.4129114151001,8.431884765625,8.45094394683838,8.47008991241455,8.48932266235352,8.50864219665527,8.52805042266846,8.54281711578369,8.55287742614746,8.56296157836914,8.57306957244873,8.58320045471191,8.59335613250732,8.60353660583496,8.61373996734619,8.62396812438965,8.63422012329102,8.64449691772461,8.65479850769043,8.66512489318848,8.67547512054443,8.68585014343262,8.69625091552734,8.70667552947998,8.71712589263916,8.72760105133057,8.7381010055542,8.74862670898438,8.75917816162109,8.76975440979004,8.78035736083984,8.79098510742188,8.80163860321045,8.81231784820557,8.82302379608154,8.8340892791748,8.84931564331055,8.86459445953369,8.87992572784424,8.89530944824219,8.91074752807617,8.92623901367188,8.94178485870361,8.95738410949707,8.97303867340088,8.98874759674072,9.00451183319092,9.02033138275146,9.03620624542236,9.05213737487793,9.06812572479248,9.08682346343994,9.1592321395874,9.23280429840088,9.30756759643555,9.38355255126953,9.46078777313232,9.53930473327637,9.61913585662842,9.70031452178955,9.78287506103516,9.86685371398926,9.95228576660156,10.039210319519,10.127667427063,10.2176961898804,10.3093404769897,10.4026432037354,10.4976501464844,10.5944089889526,10.692967414856,10.7933778762817,10.8956909179688,10.9986524581909,11.1027965545654,11.2089319229126,11.3513259887695,11.4611186981201,11.4850091934204,11.5089988708496,11.5330896377563,11.5572814941406,11.5815744400024,11.6059694290161,11.6304683685303,11.6550703048706,11.6797761917114,11.7045879364014,11.7295045852661,11.7545280456543,11.7796583175659,11.8048963546753,11.8302431106567,11.8556985855103,11.8812637329102,11.9069395065308,11.9327268600464,11.9586248397827,11.9848184585571,12.0122966766357,12.0399017333984,12.0676336288452,12.0954942703247,12.1234827041626,12.1516017913818,12.1798515319824,12.2082328796387,12.2367467880249,12.2653942108154,12.2941761016846,12.3230934143066,12.352147102356,12.3813381195068,12.4106674194336,12.4401359558105,12.469744682312,12.4994945526123,12.5293874740601,12.559422492981,12.5896024703979,12.6199283599854,12.6504001617432,12.68101978302,12.7117872238159,12.7427053451538,12.7737731933594,12.8049936294556,12.8363676071167,12.8678941726685,12.8995771408081,12.9286775588989,12.9284610748291,12.9282445907593,12.9280281066895,12.9278116226196,12.9275979995728,12.9273834228516,12.9271678924561,12.9269514083862,12.9267330169678,12.9265203475952,12.9263048171997,12.9260883331299,12.9258718490601,12.9256582260132,12.9254446029663,12.9252271652222,12.925009727478,12.9247951507568,12.924578666687,12.9243650436401,12.9241514205933,12.9239339828491,12.9237184524536,12.9235019683838,12.9232883453369,12.9230718612671,12.9228553771973,12.9226417541504,12.9224252700806,12.9222116470337,12.9219951629639,12.9217805862427,12.9215641021729,12.9213466644287,12.9211349487305,12.9209203720093,12.9207019805908,12.9204874038696,12.9202718734741,12.9200572967529,12.9198417663574,12.9196252822876,12.9194107055664,12.9191951751709,12.9189825057983,12.9187650680542,12.918550491333,12.9183320999146,12.918116569519,12.9179067611694,12.917688369751,12.9174737930298,12.91725730896,12.9170417785645,12.9168272018433,12.9166116714478,12.9163990020752,12.9161815643311,12.9159669876099,12.9157514572144,12.9155368804932,12.9153203964233,12.9151039123535,12.9148902893066,12.9146785736084,12.9144620895386,12.9142446517944,12.9140300750732,12.9138135910034,12.9136018753052,12.9133863449097,12.9131717681885,12.9129552841187,12.9127378463745,12.9125261306763,12.9123096466064,12.9120931625366,12.9118795394897,12.9116630554199,12.9114513397217,12.9112348556519,12.9110174179077,12.9108047485352,12.910587310791,12.9103746414185,12.9101610183716,12.9099445343018,12.9097270965576,12.9095144271851,12.9093008041382,12.9090843200684,12.9088668823242,12.908655166626,12.9084386825562,12.9082250595093,12.9080085754395,12.9077949523926,12.9075784683228,12.9073638916016,12.9071521759033,12.9069366455078,12.906720161438,12.9065046310425,12.9062881469727,12.9060745239258,12.9058599472046,12.9056463241577,12.9054317474365,12.905216217041,12.9050025939941,12.9047861099243,12.9045705795288,12.904354095459,12.9041423797607,12.9039287567139,12.9037141799927,12.9034976959229,12.9032821655273
7.19773292541504,7.21161651611328,7.22555351257324,7.23954486846924,7.25359058380127,7.26769065856934,7.2818455696106,7.29605627059937,7.31032180786133,7.32464361190796,7.33902168273926,7.35345649719238,7.36794805526733,7.38249635696411,7.39710283279419,7.41176700592041,7.42648935317993,7.44127035140991,7.45611047744751,7.47100973129272,7.48596858978271,7.5009880065918,7.51606702804565,7.53120708465576,7.54640865325928,7.56167125701904,7.57699584960938,7.59238290786743,7.60783243179321,7.62334489822388,7.63892030715942,7.65456008911133,7.67026376724243,7.68603229522705,7.70186567306519,7.71776437759399,7.73372888565063,7.74975967407227,7.76585674285889,7.78202104568481,7.79825305938721,7.81455230712891,7.83092021942139,7.84735679626465,7.86386251449585,7.88043785095215,7.8970832824707,7.91379880905151,7.9305853843689,7.94744348526001,7.96437358856201,7.9813756942749,7.998450756073,8.01559829711914,8.03282070159912,8.05011653900146,8.06748676300049,8.08493232727051,8.10245418548584,8.12005138397217,8.13772583007812,8.15547657012939,8.17330551147461,8.19121265411377,8.20919799804688,8.22726249694824,8.24540710449219,8.26363182067871,8.28193664550781,8.30032348632812,8.31879234313965,8.33734226226807,8.35597610473633,8.37469387054443,8.39349460601807,8.41238117218018,8.43135166168213,8.45040893554688,8.4695520401001,8.48878192901611,8.50400924682617,8.51397800445557,8.52397060394287,8.53398609161377,8.54402542114258,8.5540885925293,8.56417560577393,8.57428646087646,8.58442115783691,8.59457969665527,8.60476207733154,8.61496829986572,8.62519931793213,8.63545513153076,8.6457347869873,8.65603923797607,8.66636753082275,8.67672157287598,8.68709945678711,8.69750308990479,8.70793056488037,8.7183837890625,8.72886276245117,8.73936557769775,8.74989414215088,8.76044845581055,8.77102851867676,8.7816333770752,8.79226493835449,8.80292129516602,8.81360340118408,8.82824039459229,8.84344577789307,8.85870456695557,8.87401485443115,8.88937950134277,8.9047966003418,8.92026710510254,8.93579196929932,8.95137119293213,8.96700382232666,8.98269176483154,8.99843502044678,9.01423263549805,9.03008651733398,9.04599666595459,9.06196212768555,9.07798480987549,9.13082981109619,9.20394515991211,9.27824020385742,9.35374450683594,9.43048763275146,9.50850105285645,9.587815284729,9.66846370697021,9.75048065185547,9.83390140533447,9.91876125335693,10.0050992965698,10.0929527282715,10.1823635101318,10.2733716964722,10.3660221099854,10.4603586196899,10.5564279556274,10.6542778015137,10.7539587020874,10.855523109436,10.959023475647,11.0645170211792,11.1707000732422,11.2781438827515,11.4034614562988,11.4271116256714,11.4508600234985,11.4747076034546,11.4986543655396,11.5227012634277,11.5468492507935,11.5710983276367,11.5954494476318,11.6199035644531,11.6444606781006,11.6691226959229,11.6942930221558,11.7204532623291,11.7467317581177,11.7731285095215,11.7996444702148,11.8262796401978,11.8530349731445,11.8799114227295,11.9069108963013,11.9340333938599,11.9612789154053,11.9886503219604,12.0161466598511,12.0437688827515,12.0715188980103,12.0993967056274,12.1274042129517,12.1555414199829,12.1838092803955,12.2122087478638,12.2407417297363,12.2694082260132,12.2982082366943,12.3271446228027,12.3562173843384,12.3854274749756,12.414776802063,12.4442644119263,12.4738931655884,12.5036630630493,12.5335750579834,12.5636310577393,12.5938310623169,12.6241769790649,12.6546697616577,12.6853094100952,12.7160987854004,12.7470369338989,12.7781267166138,12.8093681335449,12.840763092041,12.842381477356,12.8421688079834,12.8419561386108,12.8417434692383,12.8415298461914,12.8413190841675,12.8411054611206,12.8408937454224,12.8406820297241,12.8404684066772,12.8402547836304,12.8400402069092,12.8398313522339,12.839617729187,12.8394041061401,12.8391923904419,12.838978767395,12.8387670516968,12.8385534286499,12.8383417129517,12.8381280899048,12.8379163742065,12.8377056121826,12.8374910354614,12.8372774124146,12.8370656967163,12.8368530273438,12.8366432189941,12.8364276885986,12.8362159729004,12.8360023498535,12.8357887268066,12.835578918457,12.8353672027588,12.8351554870605,12.834939956665,12.8347282409668,12.8345174789429,12.8343029022217,12.8340902328491,12.8338785171509,12.833664894104,12.8334550857544,12.8332395553589,12.8330278396606,12.8328161239624,12.8326005935669,12.8323907852173,12.8321800231934,12.8319664001465,12.8317527770996,12.8315391540527,12.8313293457031,12.8311157226562,12.830904006958,12.8306922912598,12.8304786682129,12.8302698135376,12.8300542831421,12.8298425674438,12.829628944397,12.8294172286987,12.8292064666748,12.8289947509766,12.8287811279297,12.8285675048828,12.8283538818359,12.8281402587891,12.8279323577881,12.8277215957642,12.8275060653687,12.8272933959961,12.8270807266235,12.8268709182739,12.8266572952271,12.8264455795288,12.8262329101562,12.826021194458,12.8258094787598,12.8255958557129,12.8253841400146,12.8251705169678,12.8249568939209,12.8247480392456,12.8245363235474,12.8243246078491,12.8241109848022,12.8238973617554,12.8236865997314,12.8234748840332,12.8232612609863,12.8230504989624,12.8228387832642,12.8226289749146,12.8224153518677,12.8222017288208,12.8219881057739,12.8217763900757,12.8215675354004,12.8213539123535,12.8211431503296,12.8209295272827,12.8207159042358,12.8205060958862,12.8202924728394,12.8200836181641,12.8198699951172,12.8196582794189,12.8194456100464,12.8192338943481,12.8190202713013,12.818808555603,12.8185977935791,12.8183879852295,12.8181762695312,12.8179626464844,12.8177490234375
7.18351554870605,7.1973443031311,7.21122646331787,7.22516202926636,7.23915195465088,7.25319576263428,7.26729440689087,7.28144788742065,7.29565668106079,7.30992126464844,7.32424116134644,7.33861780166626,7.35305070877075,7.36754083633423,7.38208770751953,7.39669227600098,7.41135501861572,7.42607593536377,7.44085502624512,7.45569372177124,7.47059106826782,7.48554849624634,7.50056552886963,7.51564359664917,7.53078174591064,7.54598140716553,7.56124258041382,7.57656526565552,7.59195041656494,7.60739803314209,7.62290906906128,7.63848304748535,7.65412092208862,7.66982269287109,7.68558931350708,7.70142078399658,7.71731758117676,7.73328018188477,7.74930906295776,7.76540470123291,7.78156709671021,7.79779672622681,7.81409454345703,7.83046054840088,7.84689474105835,7.86339855194092,7.87997198104858,7.89661550521851,7.91332912445068,7.93011379241943,7.94696998596191,7.96389770507812,7.98089790344238,7.99797058105469,8.01511669158936,8.03233623504639,8.0496301651001,8.06699848175049,8.08444213867188,8.10196208953857,8.11955738067627,8.13722896575928,8.15497779846191,8.1728048324585,8.19070911407471,8.20869255065918,8.22675514221191,8.24489688873291,8.2631196975708,8.28142261505127,8.29980659484863,8.31827259063721,8.33682155609131,8.35545253753662,8.37416744232178,8.39296627044678,8.41184997558594,8.43081855773926,8.44987297058105,8.46555137634277,8.47543048858643,8.48533248901367,8.49525833129883,8.50520610809326,8.51517868041992,8.52517318725586,8.53519248962402,8.54523468017578,8.55530071258545,8.56539058685303,8.5755033493042,8.5856409072876,8.59580230712891,8.60598754882812,8.61619758605957,8.62643146514893,8.63669013977051,8.64697265625,8.65727996826172,8.66761112213135,8.67796802520752,8.68834972381592,8.69875526428223,8.70918655395508,8.71964263916016,8.73012447357178,8.74063014984131,8.7511625289917,8.76171970367432,8.77230262756348,8.78291034698486,8.79354476928711,8.80726528167725,8.8223991394043,8.83758449554443,8.85282230377197,8.86811256408691,8.88345623016357,8.89885330200195,8.91430377960205,8.92980766296387,8.9453649520874,8.96097755432129,8.97664451599121,8.99236583709717,9.00814247131348,9.02397537231445,9.03986358642578,9.05580711364746,9.07180786132812,9.10260391235352,9.17526531219482,9.24909687042236,9.32412528991699,9.40038108825684,9.47789478302002,9.55669784545898,9.63682174682617,9.71830081939697,9.80116844177246,9.88546276092529,9.97121906280518,10.0584764480591,10.147274017334,10.2376537322998,10.3296575546265,10.4233303070068,10.5187177658081,10.6158666610718,10.7148265838623,10.8156499862671,10.9183883666992,11.023097038269,11.1298332214355,11.2386569976807,11.3463802337646,11.3697938919067,11.3933048248291,11.4175186157227,11.442455291748,11.4675006866455,11.4926557540894,11.5179214477539,11.5432987213135,11.5687875747681,11.5943899154663,11.6201047897339,11.6459350585938,11.6718797683716,11.697940826416,11.7241182327271,11.750412940979,11.7768259048462,11.8033580780029,11.8300104141235,11.856782913208,11.883677482605,11.9106931686401,11.9378328323364,11.9650964736938,11.9924840927124,12.019998550415,12.0476388931274,12.0754060745239,12.1033029556274,12.1313276290894,12.1594829559326,12.1877698898315,12.2161874771118,12.2447395324707,12.2734241485596,12.3022432327271,12.3311986923218,12.3602905273438,12.3895206451416,12.418888092041,12.4483957290649,12.4780445098877,12.507833480835,12.537766456604,12.5678424835205,12.5980625152588,12.6284284591675,12.6589422225952,12.6896028518677,12.7204122543335,12.7513723373413,12.7574424743652,12.7572336196899,12.757022857666,12.7568130493164,12.7566041946411,12.7563915252686,12.7561845779419,12.7559747695923,12.7557621002197,12.7555522918701,12.7553396224976,12.7551345825195,12.7549238204956,12.754714012146,12.7545032501221,12.7542924880981,12.7540836334229,12.7538738250732,12.7536649703979,12.7534561157227,12.7532444000244,12.7530355453491,12.7528247833252,12.7526140213013,12.7524042129517,12.752197265625,12.7519884109497,12.7517757415771,12.7515668869019,12.7513570785522,12.7511463165283,12.750937461853,12.7507286071777,12.7505187988281,12.7503080368042,12.7500972747803,12.749888420105,12.7496786117554,12.7494697570801,12.7492609024048,12.7490482330322,12.7488412857056,12.748631477356,12.748420715332,12.7482099533081,12.7480001449585,12.7477912902832,12.7475833892822,12.7473735809326,12.7471647262573,12.7469520568848,12.7467451095581,12.7465333938599,12.7463245391846,12.7461156845093,12.7459049224854,12.7456979751587,12.7454862594604,12.7452774047852,12.7450666427612,12.7448558807373,12.7446508407593,12.7444381713867,12.7442302703857,12.7440195083618,12.7438087463379,12.7435998916626,12.7433910369873,12.7431840896606,12.7429723739624,12.7427635192871,12.7425546646118,12.7423458099365,12.742133140564,12.7419233322144,12.7417154312134,12.7415084838867,12.7412977218628,12.7410879135132,12.7408771514893,12.7406663894653,12.7404594421387,12.7402505874634,12.7400417327881,12.7398309707642,12.7396211624146,12.7394142150879,12.739203453064,12.73899269104,12.7387838363647,12.7385749816895,12.7383680343628,12.7381572723389,12.7379465103149,12.7377376556396,12.73752784729,12.7373189926147,12.7371120452881,12.7369012832642,12.7366905212402,12.7364797592163,12.7362747192383,12.7360639572144,12.7358531951904,12.7356462478638,12.7354354858398,12.7352285385132,12.7350177764893,12.7348079681396,12.7345991134644,12.7343883514404,12.7341823577881,12.7339725494385,12.7337636947632,12.7335529327393,12.7333421707153
7.16935396194458,7.18312835693359,7.19695568084717,7.21083641052246,7.22477054595947,7.23875856399536,7.25280141830444,7.2668981552124,7.28105020523071,7.29525756835938,7.30952024459839,7.32383918762207,7.33821392059326,7.35264539718628,7.36713361740112,7.38167905807495,7.39628219604492,7.41094303131104,7.42566204071045,7.44044017791748,7.45527648925781,7.47017240524292,7.48512840270996,7.50014400482178,7.51521968841553,7.53035640716553,7.54555416107178,7.56081390380859,7.57613468170166,7.59151792526245,7.60696411132812,7.62247323989868,7.63804531097412,7.65368127822876,7.66938161849976,7.68514633178711,7.70097589492798,7.71687126159668,7.73283195495605,7.74885892868042,7.76495218276978,7.78111267089844,7.79734086990356,7.813636302948,7.83000040054321,7.84643316268921,7.86293506622314,7.87950611114502,7.89614772796631,7.91285943984985,7.92964220046997,7.94649600982666,7.96342182159424,7.98042011260986,7.99749088287354,8.01463508605957,8.03185272216797,8.04914474487305,8.0665111541748,8.08395195007324,8.10146903991699,8.11906242370605,8.13673210144043,8.15447902679443,8.17230319976807,8.19020557403564,8.20818710327148,8.22624778747559,8.24438762664795,8.26260757446289,8.28090858459473,8.29929065704346,8.31775379180908,8.33629989624023,8.35492897033691,8.37364196777344,8.39243793487549,8.4113187789917,8.42744064331055,8.43723106384277,8.44704437255859,8.45687961578369,8.4667387008667,8.4766206741333,8.4865255355835,8.49645328521729,8.50640392303467,8.51637935638428,8.52637672424316,8.53639888763428,8.54644393920898,8.5565128326416,8.56660461425781,8.57672119140625,8.5868616104126,8.59702587127686,8.60721397399902,8.61742687225342,8.62766361236572,8.63792514801025,8.6482105255127,8.65852069854736,8.66885566711426,8.67921543121338,8.68959903717041,8.70000839233398,8.71044254302979,8.72090148925781,8.73138618469238,8.74189567565918,8.75243091583252,8.76299095153809,8.7735767364502,8.78638935089111,8.80145168304443,8.81656455993652,8.83173084259033,8.84694862365723,8.86221885681152,8.87754154205322,8.89291763305664,8.90834712982178,8.92383098602295,8.93936729431152,8.95495891571045,8.97060489654541,8.98630523681641,9.00206089019775,9.01787185668945,9.0337381362915,9.04966068267822,9.06563949584961,9.08167457580566,9.14676475524902,9.22013568878174,9.29469299316406,9.37046718597412,9.44748592376709,9.52578163146973,9.60538578033447,9.6863317489624,9.76865291595459,9.85238647460938,9.93756771087646,10.0242338180542,10.1124258041382,10.2021827697754,10.2935476303101,10.3865633010864,10.4812755584717,10.5777311325073,10.6759786605835,10.776068687439,10.8780527114868,10.9819850921631,11.0879230499268,11.1959247589111,11.2762861251831,11.2999038696289,11.346791267395,11.3714189529419,11.3961534500122,11.4209966659546,11.4459476470947,11.4710083007812,11.4961795806885,11.5214605331421,11.5468530654907,11.5723581314087,11.597975730896,11.623706817627,11.6495532989502,11.6755142211914,11.7015914916992,11.7277851104736,11.7540969848633,11.7805261611938,11.8070755004883,11.8337440490723,11.8605337142944,11.8874444961548,11.914478302002,11.9416351318359,11.9689159393311,11.9963216781616,12.0238523483276,12.0515108108521,12.0792961120605,12.1072101593018,12.13525390625,12.1634273529053,12.1917324066162,12.2201690673828,12.2487392425537,12.2774429321289,12.3062810897827,12.3352556228638,12.3643665313721,12.3936157226562,12.4230031967163,12.4525299072266,12.4821977615356,12.5120077133179,12.5419597625732,12.5720558166504,12.6022968292236,12.6326837539673,12.6632175445557,12.6736192703247,12.673412322998,12.6732034683228,12.6729974746704,12.6727914810181,12.6725826263428,12.6723775863647,12.6721696853638,12.6719608306885,12.6717557907104,12.6715497970581,12.6713409423828,12.6711330413818,12.6709260940552,12.6707201004028,12.6705131530762,12.6703042984009,12.6700983047485,12.6698913574219,12.6696853637695,12.6694784164429,12.6692695617676,12.6690616607666,12.6688547134399,12.6686506271362,12.6684436798096,12.6682357788086,12.6680269241333,12.6678199768066,12.6676139831543,12.667405128479,12.6672010421753,12.6669921875,12.6667852401733,12.666579246521,12.6663722991943,12.6661643981934,12.6659574508667,12.6657514572144,12.6655445098877,12.6653366088867,12.6651296615601,12.6649227142334,12.6647148132324,12.6645097732544,12.6643018722534,12.6640958786011,12.6638889312744,12.6636819839478,12.663477897644,12.6632690429688,12.6630611419678,12.6628541946411,12.6626482009888,12.6624422073364,12.6622352600098,12.6620283126831,12.6618185043335,12.6616115570068,12.6614074707031,12.6612014770508,12.6609926223755,12.6607856750488,12.6605796813965,12.6603727340698,12.6601667404175,12.6599597930908,12.6597518920898,12.6595449447632,12.6593408584595,12.6591329574585,12.6589260101318,12.6587171554565,12.6585092544556,12.6583070755005,12.6581001281738,12.6578922271729,12.6576852798462,12.6574773788452,12.6572732925415,12.6570644378662,12.6568603515625,12.6566514968872,12.6564455032349,12.6562404632568,12.6560325622559,12.6558256149292,12.6556177139282,12.6554088592529,12.6552085876465,12.6549997329712,12.6547937393188,12.6545848846436,12.6543788909912,12.6541728973389,12.6539678573608,12.6537599563599,12.6535539627075,12.6533451080322,12.6531429290771,12.6529340744019,12.6527261734009,12.6525211334229,12.6523132324219,12.6521110534668,12.6519021987915,12.6516942977905,12.6514883041382,12.6512794494629,12.6510753631592,12.6508703231812,12.6506624221802,12.6504554748535,12.6502494812012,12.6500434875488
7.15524864196777,7.16896867752075,7.18274116516113,7.19656705856323,7.21044635772705,7.22437906265259,7.238365650177,7.25240659713745,7.26650238037109,7.28065299987793,7.29485845565796,7.3091197013855,7.32343673706055,7.33781003952026,7.35223960876465,7.36672639846802,7.38127040863037,7.39587163925171,7.41053104400635,7.42524862289429,7.44002485275269,7.45485973358154,7.46975421905518,7.48470783233643,7.49972200393677,7.51479625701904,7.52993106842041,7.54512739181519,7.56038475036621,7.5757040977478,7.59108591079712,7.60653018951416,7.62203741073608,7.63760757446289,7.65324211120605,7.66894054412842,7.68470335006714,7.70053100585938,7.71642446517944,7.73238325119019,7.74840831756592,7.7645001411438,7.78065872192383,7.79688453674316,7.81317853927612,7.82954072952271,7.84597158432007,7.86247110366821,7.87904071807861,7.89567995071411,7.91238975524902,7.92917060852051,7.94602251052856,7.96294641494751,7.97994232177734,7.99701118469238,8.01415348052979,8.03136825561523,8.04865837097168,8.0660228729248,8.08346271514893,8.10097694396973,8.11856842041016,8.1362361907959,8.15398025512695,8.17180252075195,8.1897029876709,8.20768165588379,8.22573947906494,8.24387741088867,8.26209545135498,8.28039360046387,8.29877376556396,8.31723499298096,8.33577919006348,8.35440540313721,8.37311553955078,8.38967132568359,8.39937400817871,8.40909862518311,8.41884708404541,8.42861652374268,8.43840980529785,8.4482250213623,8.45806407928467,8.46792507171631,8.47780990600586,8.487717628479,8.49764823913574,8.50760269165039,8.51758003234863,8.52758121490479,8.53760528564453,8.54765319824219,8.55772495269775,8.56782054901123,8.57793998718262,8.5880823135376,8.5982494354248,8.60844135284424,8.61865711212158,8.62889671325684,8.63916015625,8.64944934844971,8.65976238250732,8.67010021209717,8.68046283721924,8.69084930419922,8.70126152038574,8.71169853210449,8.72216129302979,8.7326488494873,8.74316120147705,8.75369930267334,8.76561260223389,8.78060340881348,8.79564571380615,8.8107385635376,8.82588481903076,8.8410816192627,8.85633182525635,8.8716344833374,8.88699054718018,8.90239906311035,8.91786193847656,8.93337821960449,8.94894886016846,8.96457290649414,8.98025226593018,8.99598693847656,9.0117769241333,9.02762222290039,9.04352283477783,9.05947971343994,9.07549285888672,9.11843967437744,9.19135570526123,9.26544666290283,9.34074211120605,9.41727066040039,9.4950647354126,9.57415390014648,9.65457248687744,9.73635292053223,9.81953048706055,9.90414237976074,9.99022388458252,10.0778160095215,10.1669569015503,10.2576885223389,10.3500547409058,10.4440994262695,10.5398693084717,10.6374111175537,10.7367753982544,10.8380136489868,10.9411792755127,11.0463275909424,11.1535167694092,11.2017583847046,11.2250642776489,11.2484674453735,11.3101110458374,11.3502254486084,11.3748683929443,11.399619102478,11.4244766235352,11.4494428634644,11.4745187759399,11.4997053146362,11.5250015258789,11.5504102706909,11.5759305953979,11.6015644073486,11.627311706543,11.6531734466553,11.6791505813599,11.7052440643311,11.7314548492432,11.7577829360962,11.7842283248901,11.8107938766479,11.8374795913696,11.8642864227295,11.8912143707275,11.9182653427124,11.9454393386841,11.9727373123169,12.0001602172852,12.0277090072632,12.0553855895996,12.0831890106201,12.1111211776733,12.1391830444336,12.1673746109009,12.1956977844238,12.2241535186768,12.2527418136597,12.2814636230469,12.3103218078613,12.3393144607544,12.3684453964233,12.3977136611938,12.4271202087402,12.4566669464111,12.4863548278809,12.5161838531494,12.5461568832397,12.5762729644775,12.5908880233765,12.59068775177,12.5904836654663,12.590277671814,12.5900716781616,12.5898656845093,12.5896635055542,12.5894594192505,12.5892534255981,12.5890522003174,12.588846206665,12.588641166687,12.5884380340576,12.5882320404053,12.5880260467529,12.5878219604492,12.5876178741455,12.5874156951904,12.5872116088867,12.5870056152344,12.5868015289307,12.5865955352783,12.5863933563232,12.5861902236938,12.5859842300415,12.5857791900635,12.5855741500854,12.5853719711304,12.5851678848267,12.5849618911743,12.5847597122192,12.5845537185669,12.5843505859375,12.5841455459595,12.5839405059814,12.5837354660034,12.5835304260254,12.5833301544189,12.5831241607666,12.5829200744629,12.5827140808105,12.5825099945068,12.5823068618774,12.5821018218994,12.5818967819214,12.5816946029663,12.581488609314,12.5812864303589,12.5810823440552,12.5808763504028,12.5806722640991,12.5804681777954,12.5802669525146,12.5800628662109,12.5798568725586,12.5796527862549,12.5794486999512,12.5792455673218,12.5790395736694,12.5788373947144,12.578631401062,12.5784273147583,12.5782241821289,12.5780200958252,12.5778160095215,12.5776119232178,12.5774078369141,12.5772047042847,12.577000617981,12.5767946243286,12.5765905380249,12.5763845443726,12.5761842727661,12.5759792327881,12.5757751464844,12.5755710601807,12.5753650665283,12.5751638412476,12.5749597549438,12.5747556686401,12.5745534896851,12.5743474960327,12.5741443634033,12.5739402770996,12.5737342834473,12.5735301971436,12.5733261108398,12.5731229782104,12.5729207992554,12.5727167129517,12.5725107192993,12.5723066329956,12.5721054077148,12.5718994140625,12.5716953277588,12.5714931488037,12.5712871551514,12.5710859298706,12.5708818435669,12.5706758499146,12.5704727172852,12.5702667236328,12.5700674057007,12.569863319397,12.5696573257446,12.5694532394409,12.5692491531372,12.5690460205078,12.5688419342041,12.568639755249,12.5684337615967,12.5682306289673,12.5680284500122,12.5678243637085
7.14119815826416,7.15486478805542,7.16858339309692,7.18235445022583,7.19617891311646,7.21005630493164,7.2239875793457,7.23797273635864,7.25201225280762,7.26610612869263,7.28025531768799,7.29445934295654,7.30871915817261,7.32303428649902,7.33740615844727,7.35183429718018,7.36631965637207,7.38086175918579,7.39546155929565,7.41011905670166,7.42483520507812,7.43960952758789,7.45444297790527,7.46933555603027,7.48428773880005,7.49930000305176,7.51437282562256,7.52950620651245,7.54470014572144,7.55995607376099,7.5752739906311,7.59065389633179,7.6060962677002,7.62160158157349,7.63717031478882,7.65280294418335,7.66849946975708,7.68426036834717,7.70008659362793,7.71597766876221,7.73193502426147,7.74795818328857,7.76404809951782,7.78020477294922,7.79642868041992,7.81272077560425,7.8290810585022,7.84550952911377,7.86200761795044,7.87857484817505,7.89521265029907,7.91192054748535,7.92869901657104,7.94554901123047,7.96247053146362,7.97946500778198,7.99653148651123,8.013671875,8.03088474273682,8.04817295074463,8.0655345916748,8.08297252655029,8.10048484802246,8.11807346343994,8.13573932647705,8.15348148345947,8.17130184173584,8.18919944763184,8.20717620849609,8.22523212432861,8.24336814880371,8.26158332824707,8.27987957000732,8.29825687408447,8.31671619415283,8.3352575302124,8.35223865509033,8.36185550689697,8.37149333953857,8.38115406036377,8.39083671569824,8.40054225921631,8.41026973724365,8.42002010345459,8.42979335784912,8.43958854675293,8.44940757751465,8.45924854278564,8.46911334991455,8.47900009155273,8.48891067504883,8.49884414672852,8.50880146026611,8.5187816619873,8.52878475189209,8.5388126373291,8.54886341094971,8.55893802642822,8.56903553009033,8.57915782928467,8.58930397033691,8.59947395324707,8.60966873168945,8.61988639831543,8.63012981414795,8.64039611816406,8.65068817138672,8.66100406646729,8.67134475708008,8.6817102432251,8.69210052490234,8.70251560211182,8.71295547485352,8.72342109680176,8.73391151428223,8.74493408203125,8.75985431671143,8.77482509613037,8.78984642028809,8.8049201965332,8.82004642486572,8.83522319793701,8.85045337677002,8.86573600769043,8.88107109069824,8.89645957946777,8.91190147399902,8.92739677429199,8.942946434021,8.95855045318604,8.97420883178711,8.98992156982422,9.00568962097168,9.02151393890381,9.03739261627197,9.05332851409912,9.06931972503662,9.09029006958008,9.16275405883789,9.23638343811035,9.31120491027832,9.38724899291992,9.46454524993896,9.54312515258789,9.62302112579346,9.70426559448242,9.78689384460449,9.87094116210938,9.95644474029541,10.0434417724609,10.1319732666016,10.2220792770386,10.3138027191162,10.4071865081787,10.5022773742676,10.59912109375,10.6977682113647,10.7982692718506,10.9006757736206,11.0050430297852,11.1053028106689,11.1282091140747,11.1512098312378,11.1743059158325,11.1974983215332,11.2207870483398,11.320481300354,11.3536624908447,11.3783206939697,11.4030847549438,11.4279584884644,11.4529399871826,11.4780311584473,11.5032329559326,11.5285453796387,11.5539693832397,11.5795059204102,11.6051549911499,11.6309185028076,11.6567964553833,11.6827898025513,11.7088994979858,11.7351264953613,11.7614707946777,11.7879333496094,11.8145160675049,11.8412179946899,11.8680419921875,11.8949871063232,11.9220542907715,11.9492454528809,11.9765615463257,12.004002571106,12.0315685272217,12.0592622756958,12.0870838165283,12.1150341033936,12.1431140899658,12.1713247299194,12.1996660232544,12.2281398773193,12.2567462921143,12.2854881286621,12.3143644332886,12.3433771133423,12.3725261688232,12.4018135070801,12.4312400817871,12.4608068466187,12.4905138015747,12.5092372894287,12.5090351104736,12.5088319778442,12.5086297988892,12.5084266662598,12.508225440979,12.5080242156982,12.5078220367432,12.5076208114624,12.5074186325073,12.5072183609009,12.5070161819458,12.5068120956421,12.5066108703613,12.5064077377319,12.5062103271484,12.506007194519,12.505805015564,12.5056018829346,12.5053997039795,12.505199432373,12.504997253418,12.5047979354858,12.5045948028564,12.5043907165527,12.5041923522949,12.5039901733398,12.5037860870361,12.5035848617554,12.5033836364746,12.5031843185425,12.5029811859131,12.502779006958,12.5025758743286,12.5023746490479,12.5021753311157,12.501974105835,12.5017728805542,12.5015707015991,12.5013656616211,12.501166343689,12.5009651184082,12.5007629394531,12.5005617141724,12.500358581543,12.5001611709595,12.4999580383301,12.499755859375,12.4995527267456,12.4993505477905,12.4991502761841,12.498950958252,12.4987487792969,12.4985456466675,12.4983425140381,12.498143196106,12.4979410171509,12.4977397918701,12.4975385665894,12.4973373413086,12.4971361160278,12.4969348907471,12.496732711792,12.4965295791626,12.4963264465332,12.4961309432983,12.4959278106689,12.4957265853882,12.4955244064331,12.4953212738037,12.4951219558716,12.4949207305908,12.4947195053101,12.4945163726807,12.4943161010742,12.4941158294678,12.4939136505127,12.4937105178833,12.4935092926025,12.4933080673218,12.4931087493896,12.4929075241089,12.4927053451538,12.492504119873,12.4923009872437,12.4921016693115,12.4919023513794,12.49169921875,12.4914979934692,12.4912958145142,12.4910945892334,12.4908933639526,12.4906902313232,12.4904890060425,12.4902896881104,12.4900903701782,12.4898872375488,12.4896860122681,12.4894847869873,12.4892807006836,12.4890832901001,12.4888820648193,12.4886808395386,12.4884796142578,12.4882764816284,12.4880771636963,12.4878740310669,12.4876728057861,12.487473487854,12.4872713088989,12.4870710372925,12.4868698120117,12.4866676330566
7.12720346450806,7.14081573486328,7.15448045730591,7.16819763183594,7.18196773529053,7.19579029083252,7.20966625213623,7.22359609603882,7.23757982254028,7.25161790847778,7.26571035385132,7.27985763549805,7.29406023025513,7.30831813812256,7.32263231277466,7.33700227737427,7.3514289855957,7.36591243743896,7.38045310974121,7.3950514793396,7.40970754623413,7.42442178726196,7.43919467926025,7.454026222229,7.46891736984253,7.48386764526367,7.49887847900391,7.51394939422607,7.52908086776733,7.54427337646484,7.55952739715576,7.57484340667725,7.5902214050293,7.60566234588623,7.62116575241089,7.63673305511475,7.65236330032349,7.66805839538574,7.6838173866272,7.69964170455933,7.71553134918213,7.73148679733276,7.74750804901123,7.76359605789185,7.77975082397461,7.79597282409668,7.81226301193237,7.82862138748169,7.84504795074463,7.86154413223267,7.87810945510864,7.89474487304688,7.91145086288452,7.92822742462158,7.94507551193237,7.96199512481689,7.97898721694946,7.99605178833008,8.01319026947021,8.0304012298584,8.04768657684326,8.06504726409912,8.08248233795166,8.0999927520752,8.11757946014404,8.1352424621582,8.15298366546631,8.17080116271973,8.18869686126709,8.20667171478271,8.22472476959229,8.24285793304443,8.26107120513916,8.27936553955078,8.2977409362793,8.3151388168335,8.32466983795166,8.3342227935791,8.34379768371582,8.35339450836182,8.36301326751709,8.37265396118164,8.38231754302979,8.39200305938721,8.40171051025391,8.4114408493042,8.42119407653809,8.43097019195557,8.44076824188232,8.45058917999268,8.46043395996094,8.47030067443848,8.48019027709961,8.49010372161865,8.50004005432129,8.51000022888184,8.51998329162598,8.52998924255371,8.54001998901367,8.55007362365723,8.56015014648438,8.57025146484375,8.58037662506104,8.59052562713623,8.60069847106934,8.61089611053467,8.62111759185791,8.63136291503906,8.64163303375244,8.65192699432373,8.66224670410156,8.6725902557373,8.68295860290527,8.69335174560547,8.70376968383789,8.71421241760254,8.72468090057373,8.73920249938965,8.75410270690918,8.76905345916748,8.78405570983887,8.79910945892334,8.81421566009521,8.82937240600586,8.84458255767822,8.85984420776367,8.87515926361084,8.89052772521973,8.90594863891602,8.92142295837402,8.93695163726807,8.95253467559814,8.96817207336426,8.98386383056641,8.99961090087891,9.01541328430176,9.03127098083496,9.04718494415283,9.06315517425537,9.07918167114258,9.13433074951172,9.20750141143799,9.2818546295166,9.35741806030273,9.4342212677002,9.51229667663574,9.5916748046875,9.67238903045654,9.75447273254395,9.83796215057373,9.92289257049561,10.0093021392822,10.0972299575806,10.1867160797119,10.2778034210205,10.370532989502,10.4649524688721,10.5611066818237,10.6590433120728,10.7588148117065,10.8604707717896,10.9640665054321,11.0330104827881,11.0556192398071,11.0783214569092,11.1011161804199,11.124005317688,11.1469888687134,11.1700668334961,11.2304563522339,11.3308696746826,11.3571014404297,11.3817739486694,11.4065542221069,11.4314422607422,11.4564399719238,11.4815464019775,11.5067625045776,11.5320911407471,11.5575304031372,11.583083152771,11.6087484359741,11.6345272064209,11.66042137146,11.6864309310913,11.7125568389893,11.7388000488281,11.7651605606079,11.7916402816772,11.8182392120361,11.8449592590332,11.8717994689941,11.8987617492676,11.9258460998535,11.9530553817749,11.9803876876831,12.0078458786011,12.0354309082031,12.0631427764893,12.0909814834595,12.1189498901367,12.147047996521,12.1752767562866,12.2036361694336,12.2321290969849,12.2607545852661,12.289514541626,12.3184099197388,12.3474416732788,12.3766098022461,12.4059171676636,12.4286327362061,12.4284315109253,12.4282321929932,12.428035736084,12.4278354644775,12.4276342391968,12.4274349212646,12.4272375106812,12.4270391464233,12.4268379211426,12.4266386032104,12.426438331604,12.4262390136719,12.4260416030884,12.4258432388306,12.4256439208984,12.425443649292,12.4252443313599,12.4250459671021,12.4248466491699,12.4246454238892,12.42444896698,12.4242496490479,12.4240484237671,12.4238519668579,12.4236507415771,12.423451423645,12.4232511520386,12.4230537414551,12.4228572845459,12.4226579666138,12.422456741333,12.4222564697266,12.4220571517944,12.4218606948853,12.4216632843018,12.421462059021,12.4212636947632,12.4210624694824,12.4208660125732,12.4206647872925,12.4204664230347,12.4202690124512,12.4200677871704,12.4198694229126,12.4196720123291,12.4194707870483,12.4192724227905,12.4190711975098,12.4188747406006,12.4186763763428,12.4184770584106,12.4182777404785,12.4180774688721,12.4178800582886,12.4176816940308,12.41748046875,12.4172840118408,12.4170846939087,12.4168863296509,12.4166870117188,12.4164876937866,12.4162864685059,12.416088104248,12.4158916473389,12.4156942367554,12.4154939651489,12.4152927398682,12.4150953292847,12.4148969650269,12.4146976470947,12.4145011901855,12.4142999649048,12.4140996932983,12.4139051437378,12.413703918457,12.4135046005249,12.4133062362671,12.4131078720093,12.4129104614258,12.4127101898193,12.4125127792358,12.4123125076294,12.4121112823486,12.4119148254395,12.4117193222046,12.4115190505981,12.4113178253174,12.4111185073853,12.4109220504761,12.4107236862183,12.4105243682861,12.4103240966797,12.4101266860962,12.4099283218384,12.4097290039062,12.4095306396484,12.4093313217163,12.4091310501099,12.4089345932007,12.4087371826172,12.4085369110107,12.4083395004272,12.4081392288208,12.4079437255859,12.4077434539795,12.4075441360474,12.4073457717896,12.4071464538574,12.4069499969482,12.4067497253418,12.4065504074097
7.11326313018799,7.12682247161865,7.1404333114624,7.15409660339355,7.16781234741211,7.18158054351807,7.19540214538574,7.20927667617798,7.22320508956909,7.23718690872192,7.25122356414795,7.26531457901001,7.27946043014526,7.29366111755371,7.30791759490967,7.32223033905029,7.33659887313843,7.35102367401123,7.36550569534302,7.38004446029663,7.39464139938354,7.40929555892944,7.4240083694458,7.43877935409546,7.45360946655273,7.46849870681763,7.48344755172729,7.4984564781189,7.51352596282959,7.52865552902222,7.54384660720825,7.5590991973877,7.57441329956055,7.58978939056396,7.60522842407227,7.62073040008545,7.63629531860352,7.65192413330078,7.6676173210144,7.68337488174438,7.69919729232788,7.71508502960205,7.73103809356689,7.74705791473389,7.76314401626587,7.779296875,7.79551696777344,7.8118052482605,7.82816171646118,7.84458637237549,7.86108064651489,7.87764406204224,7.89427757263184,7.91098165512085,7.92775630950928,7.94460201263428,7.96152019500732,7.9785099029541,7.99557256698608,8.01270866394043,8.02991771697998,8.04720115661621,8.06455898284912,8.08199214935303,8.09950065612793,8.11708545684814,8.13474655151367,8.15248489379883,8.17030048370361,8.18819427490234,8.20616626739502,8.22421741485596,8.24234867095947,8.26056003570557,8.27836799621582,8.28781414031982,8.29728221893311,8.30677223205566,8.3162841796875,8.32581806182861,8.33537292480469,8.34494972229004,8.35454940795898,8.36417102813721,8.37381458282471,8.3834810256958,8.39316940307617,8.40287971496582,8.41261291503906,8.42236804962158,8.43214702606201,8.44194793701172,8.45177173614502,8.46161842346191,8.47148895263672,8.4813814163208,8.49129772186279,8.50123691558838,8.51119899749756,8.52118492126465,8.53119468688965,8.54122734069824,8.55128383636475,8.56136417388916,8.57146835327148,8.5815954208374,8.59174728393555,8.60192394256592,8.61212348937988,8.62234783172607,8.63259601593018,8.6428689956665,8.65316677093506,8.66348838806152,8.67383575439453,8.68420696258545,8.69460296630859,8.70502376556396,8.71864795684814,8.73347759246826,8.74835872650146,8.76329040527344,8.77827262878418,8.79330635070801,8.80839252471924,8.82352924346924,8.83871936798096,8.85396099090576,8.86925601959229,8.88460254669189,8.90000343322754,8.9154577255249,8.93096542358398,8.9465274810791,8.96214389801025,8.97781467437744,8.99354076385498,9.00932216644287,9.0251579284668,9.04105091094971,9.05699920654297,9.0730037689209,9.10608291625977,9.17879962921143,9.25268840789795,9.32777500152588,9.40409183502197,9.48166656494141,9.56053256988525,9.64072036743164,9.72226524353027,9.80520248413086,9.88956546783447,9.97539329528809,10.0627241134644,10.1515970230103,10.2420539855957,10.3341379165649,10.4278917312622,10.5233631134033,10.6205978393555,10.7196474075317,10.8205614089966,10.9233932495117,10.9616537094116,10.9839706420898,11.0063791275024,11.0288782119751,11.0514698028564,11.0741548538208,11.0969324111938,11.1198043823242,11.1427698135376,11.2406806945801,11.3359613418579,11.3605422973633,11.3852300643921,11.4100255966187,11.434928894043,11.4599409103394,11.4850625991821,11.5102949142456,11.5356388092041,11.5610942840576,11.5866622924805,11.6123428344727,11.6381387710571,11.6640491485596,11.6900749206543,11.7162170410156,11.7424764633179,11.7688541412354,11.7953500747681,11.8219661712646,11.8487014770508,11.8755588531494,11.9025382995605,11.9296407699585,11.9568662643433,11.9842166900635,12.0116930007935,12.0392951965332,12.067024230957,12.0948820114136,12.1228685379028,12.1509838104248,12.1792306900024,12.2076091766357,12.236120223999,12.2647647857666,12.2935438156128,12.3224582672119,12.3490600585938,12.3488616943359,12.3486671447754,12.3484687805176,12.3482704162598,12.3480777740479,12.34787940979,12.3476848602295,12.3474864959717,12.3472900390625,12.3470916748047,12.3468933105469,12.3466987609863,12.3465042114258,12.346305847168,12.3461074829102,12.345911026001,12.3457164764404,12.3455181121826,12.3453216552734,12.3451251983643,12.3449287414551,12.3447341918945,12.3445358276367,12.3443393707275,12.3441410064697,12.3439445495605,12.3437519073486,12.3435535430908,12.3433570861816,12.3431606292725,12.3429622650146,12.3427677154541,12.3425712585449,12.3423767089844,12.3421783447266,12.3419818878174,12.3417863845825,12.341588973999,12.3413906097412,12.341194152832,12.3409996032715,12.3408041000366,12.3406076431274,12.3404092788696,12.3402118682861,12.340015411377,12.3398199081421,12.3396234512329,12.3394289016724,12.3392324447632,12.3390321731567,12.3388395309448,12.3386430740356,12.3384447097778,12.33824634552,12.3380517959595,12.3378582000732,12.3376598358154,12.3374633789062,12.3372650146484,12.3370685577393,12.3368759155273,12.3366804122925,12.336483001709,12.3362865447998,12.3360891342163,12.3358926773071,12.3356962203979,12.3354997634888,12.3353052139282,12.3351068496704,12.3349142074585,12.3347158432007,12.3345193862915,12.3343229293823,12.3341245651245,12.3339328765869,12.3337364196777,12.3335380554199,12.3333415985107,12.3331432342529,12.3329496383667,12.3327531814575,12.3325567245483,12.3323602676392,12.3321619033813,12.3319692611694,12.3317728042603,12.3315763473511,12.3313789367676,12.3311815261841,12.3309898376465,12.3307914733887,12.3305950164795,12.3303985595703,12.3302021026611,12.3300065994263,12.3298101425171,12.3296136856079,12.3294191360474,12.3292207717896,12.3290271759033,12.3288288116455,12.328634262085,12.3284358978271,12.3282432556152,12.3280477523804,12.3278493881226,12.3276529312134,12.3274564743042
7.09937715530396,7.11288356781006,7.12644147872925,7.14005088806152,7.1537127494812,7.16742706298828,7.18119382858276,7.19501352310181,7.20888662338257,7.22281360626221,7.23679399490356,7.25082921981812,7.26491832733154,7.27906274795532,7.29326248168945,7.30751705169678,7.32182788848877,7.33619499206543,7.35061836242676,7.36509847640991,7.37963628768921,7.39423131942749,7.40888404846191,7.42359495162964,7.43836450576782,7.45319271087646,7.46808052062988,7.48302745819092,7.49803495407104,7.51310253143311,7.52823066711426,7.54341983795166,7.55867052078247,7.57398271560669,7.58935737609863,7.6047945022583,7.62029457092285,7.63585805892944,7.65148496627808,7.66717624664307,7.68293190002441,7.69875240325928,7.71463823318481,7.73058986663818,7.74660778045654,7.76269197463989,7.77884292602539,7.7950611114502,7.81134748458862,7.82770204544067,7.84412479400635,7.86061716079712,7.87717866897583,7.8938102722168,7.91051197052002,7.92728471755981,7.94412899017334,7.96104431152344,7.97803258895874,7.99509286880493,8.01222705841064,8.02943420410156,8.04671573638916,8.06407165527344,8.08150196075439,8.09900856018066,8.11659145355225,8.13424968719482,8.15198612213135,8.1697998046875,8.1876916885376,8.20566177368164,8.22371006011963,8.24183940887451,8.25128364562988,8.26066780090332,8.27007484436035,8.27950286865234,8.2889518737793,8.29842281341553,8.30791473388672,8.3174295425415,8.32696533203125,8.33652305603027,8.34610366821289,8.35570526123047,8.36532974243164,8.37497615814209,8.38464450836182,8.39433574676514,8.40404891967773,8.41378498077393,8.42354297637939,8.43332386016846,8.44312858581543,8.45295524597168,8.46280479431152,8.47267723083496,8.48257255554199,8.49249172210693,8.50243377685547,8.5123987197876,8.52238750457764,8.53239917755127,8.54243564605713,8.55249500274658,8.56257724761963,8.5726842880249,8.58281517028809,8.59296989440918,8.60314846038818,8.61335182189941,8.62357902526855,8.63383007049561,8.64410591125488,8.65440654754639,8.66473197937012,8.67508125305176,8.68545532226562,8.6981897354126,8.71294975280762,8.72776126861572,8.74262237548828,8.75753402709961,8.77249717712402,8.78751182556152,8.80257701873779,8.81769466400146,8.83286380767822,8.84808540344238,8.86335945129395,8.87868690490723,8.89406681060791,8.90950012207031,8.92498779296875,8.94052886962891,8.9561243057251,8.97177410125732,8.98747825622559,9.0032377243042,9.01905345916748,9.0349235534668,9.0508508682251,9.06683349609375,9.08287334442139,9.15027713775635,9.22370433807373,9.29832077026367,9.37415313720703,9.45123291015625,9.52959156036377,9.60925960540771,9.69027042388916,9.77266025543213,9.85646152496338,9.94171333312988,10.02845287323,10.1167192459106,10.2065525054932,10.2979965209961,10.3910932540894,10.4858884811401,10.5824289321899,10.6807641983032,10.7809438705444,10.8692722320557,10.8912143707275,10.9132452011108,10.9353647232056,10.9575748443604,10.9798746109009,11.0022659301758,11.0247488021851,11.047324180603,11.0699911117554,11.0927515029907,11.1519165039062,11.2509241104126,11.3393898010254,11.3639850616455,11.3886880874634,11.4134979248047,11.4384164810181,11.4634447097778,11.4885816574097,11.5138292312622,11.5391883850098,11.5646600723267,11.5902433395386,11.6159410476685,11.641752243042,11.6676778793335,11.6937208175659,11.7198791503906,11.7461547851562,11.7725486755371,11.7990617752075,11.8256940841675,11.8524475097656,11.8793210983276,11.9063177108765,11.9334373474121,11.9606809616089,11.9880485534668,12.0155420303345,12.0431623458862,12.0709095001221,12.0987844467163,12.1267890930176,12.1549234390259,12.1831884384155,12.2115850448608,12.2401151657104,12.26877784729,12.2703046798706,12.2701110839844,12.2699165344238,12.2697229385376,12.26953125,12.2693367004395,12.2691402435303,12.268946647644,12.2687501907349,12.2685594558716,12.2683629989624,12.2681713104248,12.2679748535156,12.2677812576294,12.2675876617432,12.2673931121826,12.2671995162964,12.2670030593872,12.2668113708496,12.2666177749634,12.2664241790771,12.2662296295166,12.2660331726074,12.2658395767212,12.265645980835,12.265453338623,12.2652597427368,12.265064239502,12.2648696899414,12.2646780014038,12.2644824981689,12.2642860412598,12.2640943527222,12.2638998031616,12.2637071609497,12.2635145187378,12.2633171081543,12.2631225585938,12.2629270553589,12.2627372741699,12.2625436782837,12.2623491287231,12.262152671814,12.2619571685791,12.2617673873901,12.2615718841553,12.2613792419434,12.2611837387085,12.2609901428223,12.2607984542847,12.2606039047241,12.2604084014893,12.2602138519287,12.2600183486938,12.2598285675049,12.25963306427,12.2594385147095,12.2592449188232,12.2590503692627,12.2588567733765,12.2586612701416,12.2584714889526,12.2582759857178,12.2580814361572,12.2578897476196,12.2576942443848,12.2574996948242,12.2573041915894,12.2571125030518,12.2569189071655,12.2567262649536,12.2565326690674,12.2563371658325,12.256142616272,12.2559509277344,12.2557592391968,12.2555637359619,12.2553682327271,12.2551755905151,12.2549819946289,12.2547883987427,12.2545938491821,12.2544012069702,12.2542066574097,12.2540149688721,12.2538194656372,12.253625869751,12.2534313201904,12.2532358169556,12.2530479431152,12.2528524398804,12.2526559829712,12.252462387085,12.2522678375244,12.2520751953125,12.2518825531006,12.2516870498657,12.2514953613281,12.2513017654419,12.2511100769043,12.2509155273438,12.2507200241089,12.250524520874,12.2503318786621,12.2501411437988,12.2499475479126,12.2497529983521,12.2495574951172,12.249363899231
7.0855450630188,7.0989990234375,7.11250400543213,7.12606048583984,7.1396689414978,7.15332889556885,7.16704177856445,7.18080711364746,7.19462537765503,7.20849704742432,7.22242212295532,7.23640155792236,7.25043487548828,7.26452255249023,7.27866554260254,7.29286336898804,7.30711650848389,7.3214259147644,7.33579111099243,7.35021305084229,7.36469173431396,7.37922763824463,7.39382123947144,7.40847206115723,7.42318153381348,7.43794918060303,7.4527759552002,7.46766233444214,7.4826078414917,7.49761343002319,7.51267910003662,7.52780532836914,7.54299306869507,7.55824184417725,7.57355260848999,7.5889253616333,7.60436105728149,7.61985921859741,7.63542079925537,7.65104579925537,7.66673564910889,7.6824893951416,7.69830799102783,7.71419191360474,7.73014163970947,7.7461576461792,7.76223993301392,7.77838897705078,7.79460573196411,7.81088972091675,7.82724237442017,7.84366369247437,7.86015367507935,7.87671327590942,7.89334297180176,7.91004276275635,7.92681360244751,7.94365549087524,7.96056938171387,7.97755527496338,7.99461364746094,8.01174545288086,8.02895069122314,8.04622936248779,8.06358337402344,8.08101272583008,8.0985164642334,8.11609745025635,8.13375377655029,8.15148735046387,8.16929912567139,8.18718814849854,8.20515632629395,8.21507263183594,8.22437572479248,8.23369979858398,8.24304485321045,8.25241088867188,8.26179790496826,8.27120685577393,8.28063774108887,8.29008960723877,8.29956245422363,8.30905818939209,8.31857490539551,8.3281135559082,8.33767414093018,8.34725666046143,8.35686206817627,8.36648845672607,8.37613773345947,8.38580894470215,8.3955020904541,8.40521812438965,8.41495704650879,8.42471790313721,8.43450164794922,8.44430828094482,8.45413780212402,8.46399021148682,8.4738655090332,8.48376369476318,8.49368572235107,8.50363063812256,8.51359844207764,8.52359008789062,8.53360462188721,8.54364395141602,8.55370616912842,8.56379222869873,8.57390117645264,8.58403491973877,8.59419250488281,8.60437393188477,8.61458015441895,8.62481021881104,8.63506507873535,8.64534378051758,8.65564727783203,8.66597461700439,8.67782688140869,8.69251918792725,8.70726013183594,8.7220516204834,8.73689365386963,8.75178623199463,8.7667293548584,8.78172397613525,8.79676914215088,8.81186676025391,8.82701587677002,8.84221744537354,8.85747146606445,8.87277793884277,8.88813781738281,8.90355110168457,8.91901779174805,8.93453788757324,8.95011234283447,8.96574115753174,8.98142433166504,8.99716281890869,9.0129566192627,9.02880573272705,9.04471111297607,9.06067180633545,9.07668972015381,9.12193012237549,9.19490242004395,9.26905059814453,9.34440517425537,9.42099475860596,9.49884986877441,9.5780029296875,9.65848541259766,9.74033260345459,9.82357883453369,9.90826034545898,9.99441432952881,10.0820798873901,10.1712970733643,10.2621068954468,10.3545532226562,10.4486799240112,10.5445337295532,10.642162322998,10.7416162490845,10.8000106811523,10.8216733932495,10.8434238433838,10.8652610778809,10.8871870040894,10.9092016220093,10.9313049316406,10.953498840332,10.9757823944092,10.9981565475464,11.020622253418,11.0431804656982,11.0658311843872,11.1619987487793,11.2611856460571,11.3428201675415,11.3674306869507,11.3921480178833,11.4169731140137,11.4419069290161,11.4669504165649,11.4921026229858,11.5173664093018,11.5427408218384,11.5682277679443,11.5938272476196,11.6195402145386,11.6453676223755,11.6713104248047,11.6973686218262,11.7235431671143,11.7498359680176,11.7762460708618,11.8027753829956,11.8294248580933,11.8561944961548,11.8830862045288,11.9100999832153,11.9372367858887,11.9644966125488,11.9918823242188,12.0193939208984,12.0470314025879,12.0747966766357,12.102689743042,12.1307125091553,12.1588649749756,12.1871480941772,12.1927404403687,12.1925487518311,12.1923599243164,12.1921682357788,12.1919746398926,12.191782951355,12.1915912628174,12.1914005279541,12.1912088394165,12.1910171508789,12.1908273696899,12.1906337738037,12.1904411315918,12.1902494430542,12.1900577545166,12.189866065979,12.1896743774414,12.1894855499268,12.1892938613892,12.1891002655029,12.1889085769653,12.1887159347534,12.1885261535645,12.1883344650269,12.1881418228149,12.1879501342773,12.1877584457397,12.1875686645508,12.1873750686646,12.1871824264526,12.186990737915,12.1868009567261,12.1866121292114,12.1864166259766,12.1862268447876,12.18603515625,12.1858396530151,12.1856508255005,12.1854610443115,12.1852684020996,12.1850748062134,12.1848831176758,12.1846952438354,12.1845016479492,12.1843090057373,12.1841192245483,12.1839275360107,12.1837368011475,12.1835451126099,12.1833534240723,12.1831607818604,12.1829690933228,12.1827793121338,12.1825885772705,12.1823949813843,12.1822032928467,12.1820125579834,12.1818208694458,12.1816310882568,12.1814374923706,12.1812467575073,12.1810569763184,12.1808643341064,12.1806745529175,12.1804809570312,12.1802892684937,12.1800975799561,12.1799097061157,12.1797161102295,12.1795244216919,12.1793327331543,12.1791410446167,12.1789503097534,12.1787586212158,12.1785678863525,12.1783761978149,12.1781845092773,12.1779956817627,12.1778020858765,12.1776123046875,12.1774187088013,12.1772298812866,12.1770391464233,12.1768455505371,12.1766557693481,12.1764621734619,12.1762714385986,12.1760816574097,12.175892829895,12.1756992340088,12.1755075454712,12.1753149032593,12.1751270294189,12.1749334335327,12.1747426986694,12.1745491027832,12.1743583679199,12.1741704940796,12.1739778518677,12.1737861633301,12.1735944747925,12.1734027862549,12.1732120513916,12.173023223877,12.1728315353394,12.1726398468018,12.1724472045898,12.1722593307495
7.07176733016968,7.08516883850098,7.09862089157104,7.1121244430542,7.12567949295044,7.13928651809692,7.15294504165649,7.16665649414062,7.18042039871216,7.19423723220825,7.20810747146606,7.2220311164856,7.236008644104,7.25004053115845,7.26412677764893,7.2782678604126,7.29246425628662,7.30671644210815,7.32102394104004,7.33538770675659,7.34980821609497,7.36428499221802,7.37881946563721,7.39341115951538,7.4080605506897,7.42276811599731,7.43753433227539,7.45235967636108,7.46724367141724,7.48218774795532,7.49719142913818,7.51225566864014,7.52738046646118,7.54256629943848,7.55781364440918,7.57312250137329,7.58849334716797,7.60392713546753,7.61942386627197,7.6349835395813,7.65060710906982,7.66629457473755,7.68204641342163,7.69786357879639,7.71374559402466,7.72969341278076,7.74570751190186,7.76178789138794,7.77793502807617,7.79414987564087,7.81043243408203,7.82678270339966,7.84320211410522,7.85969018936157,7.87624788284302,7.89287567138672,7.90957355499268,7.92634201049805,7.94318199157715,7.96009397506714,7.97707796096802,7.99413442611694,8.01126384735107,8.02846717834473,8.04574394226074,8.06309604644775,8.08052253723145,8.09802532196045,8.11560344696045,8.13325786590576,8.1509895324707,8.16879844665527,8.17917919158936,8.18840026855469,8.1976432800293,8.20690631866455,8.21619033813477,8.22549533843994,8.23482227325439,8.24416923522949,8.25353813171387,8.2629280090332,8.27233982086182,8.28177261352539,8.29122734069824,8.30070304870605,8.31020069122314,8.31972026824951,8.32926177978516,8.33882522583008,8.34841060638428,8.35801792144775,8.36764717102051,8.37729930877686,8.38697338104248,8.39666938781738,8.40638828277588,8.41612911224365,8.42589378356934,8.4356803894043,8.44548892974854,8.45532131195068,8.46517658233643,8.47505474090576,8.48495578765869,8.49488067626953,8.50482749938965,8.51479911804199,8.52479267120361,8.53481101989746,8.5448522567749,8.55491733551025,8.56500625610352,8.57511901855469,8.58525562286377,8.59541606903076,8.60560035705566,8.61580944061279,8.62604236602783,8.63629913330078,8.64658164978027,8.65756034851074,8.6721830368042,8.68685531616211,8.70157718658447,8.71634960174561,8.73117256164551,8.74604511260986,8.7609691619873,8.77594375610352,8.7909688949585,8.80604648590088,8.82117652893066,8.83635711669922,8.85159111022949,8.86687755584717,8.88221645355225,8.89760971069336,8.91305541992188,8.92855453491211,8.94410800933838,8.95971584320068,8.97537803649902,8.99109554290771,9.00686836242676,9.02269554138184,9.0385799407959,9.054518699646,9.07051467895508,9.09375953674316,9.16627883911133,9.23996448516846,9.31484508514404,9.39094829559326,9.46830654144287,9.54694843292236,9.62690830230713,9.70821952819824,9.79091453552246,9.87503147125244,9.96060657501221,10.0476770401001,10.1362838745117,10.226466178894,10.3182687759399,10.4117345809937,10.506908416748,10.6038379669189,10.7025737762451,10.7316265106201,10.7530155181885,10.7744903564453,10.7960510253906,10.8176984786987,10.8394317626953,10.8612537384033,10.8831634521484,10.9051609039307,10.9272489547729,10.9494256973267,10.9716920852661,10.9940500259399,11.0164995193481,11.0744676589966,11.17209815979,11.271466255188,11.3462524414062,11.3708782196045,11.3956108093262,11.4204511642456,11.4454002380371,11.4704580307007,11.495626449585,11.5209045410156,11.5462951660156,11.5717973709106,11.5974130630493,11.6231422424316,11.6489858627319,11.6749439239502,11.7010183334351,11.7272100448608,11.7535190582275,11.7799453735352,11.8064918518066,11.833158493042,11.8599452972412,11.8868532180786,11.9138841629028,11.9410381317139,11.968316078186,11.9957189559937,12.023247718811,12.0509033203125,12.078685760498,12.1065969467163,12.1161546707153,12.1159658432007,12.115777015686,12.1155853271484,12.1153945922852,12.1152076721191,12.1150169372559,12.1148281097412,12.1146392822266,12.1144495010376,12.1142625808716,12.1140718460083,12.113881111145,12.1136922836304,12.1135005950928,12.1133136749268,12.1131267547607,12.1129360198975,12.1127452850342,12.1125564575195,12.1123676300049,12.1121778488159,12.1119890213013,12.1118001937866,12.1116094589233,12.111424446106,12.111231803894,12.1110420227051,12.1108512878418,12.1106643676758,12.1104774475098,12.1102867126465,12.1100959777832,12.1099071502686,12.1097173690796,12.1095304489136,12.1093397140503,12.1091508865356,12.108962059021,12.1087732315063,12.1085844039917,12.1083936691284,12.1082038879395,12.1080150604248,12.1078281402588,12.1076402664185,12.1074504852295,12.1072597503662,12.1070690155029,12.106879234314,12.1066913604736,12.1065044403076,12.106315612793,12.106125831604,12.1059350967407,12.1057481765747,12.1055574417114,12.1053686141968,12.1051778793335,12.1049909591675,12.1048021316528,12.1046133041382,12.1044225692749,12.1042327880859,12.1040458679199,12.1038579940796,12.1036691665649,12.1034803390503,12.1032905578613,12.1031017303467,12.1029109954834,12.1027240753174,12.1025333404541,12.1023464202881,12.1021575927734,12.1019668579102,12.1017799377441,12.1015872955322,12.1013994216919,12.1012105941772,12.1010217666626,12.1008338928223,12.1006450653076,12.1004552841187,12.100266456604,12.1000776290894,12.099889755249,12.099702835083,12.0995121002197,12.0993232727051,12.0991315841675,12.0989456176758,12.0987558364868,12.0985670089722,12.0983781814575,12.0981893539429,12.0980033874512,12.0978116989136,12.0976228713989,12.0974340438843,12.0972452163696,12.0970582962036,12.096869468689,12.0966806411743,12.096489906311,12.0963010787964,12.0961151123047
