6.26609992980957,6.26808404922485,6.27006959915161,6.27205657958984,6.27404451370239,6.27603387832642,6.27802467346191,6.28001642227173,6.28200960159302,6.28400373458862,6.28599977493286,6.28799629211426,6.28999471664429,6.29199409484863,6.29399490356445,6.29599714279175,6.29800033569336,6.30000448226929,6.30201053619385,6.30401802062988,6.30602598190308,6.3080358505249,6.31004667282104,6.31205892562866,6.31407260894775,6.31608724594116,6.31810331344604,6.3201208114624,6.32213973999023,6.32415962219238,6.32618093490601,6.32820320129395,6.33022737503052,6.33225202560425,6.33427858352661,6.33630657196045,6.3383355140686,6.34036588668823,6.34239721298218,6.34443044662476,6.34646463394165,6.34850025177002,6.35053682327271,6.35257530212402,6.35461473464966,6.35665512084961,6.35869741439819,6.36074066162109,6.36278581619263,6.36483144760132,6.36687898635864,6.36892747879028,6.3709774017334,6.37302875518799,6.37508153915405,6.37713527679443,6.37919044494629,6.38124752044678,6.38330507278442,6.3853645324707,6.3874249458313,6.38948678970337,6.39155006408691,6.39361476898193,6.39568090438843,6.39774799346924,6.39981651306152,6.40188646316528,6.40395736694336,6.40603017807007,6.40810394287109,6.41017913818359,6.41225576400757,6.41433429718018,6.41641330718994,6.41849422454834,6.42057609558105,6.42265939712524,6.42474412918091,6.42683029174805,6.4289174079895,6.43100643157959,6.43309640884399,6.43518829345703,6.43728113174438,6.43937540054321,6.44147062301636,6.44356775283813,6.44566583633423,6.44776582717896,6.449866771698,6.45196914672852,6.45407295227051,6.45617818832397,6.45828437805176,6.46039247512817,6.46250152587891,6.46461248397827,6.46672439575195,6.46883773803711,6.4709529876709,6.47306871414185,6.47518634796143,6.47730541229248,6.47942590713501,6.48154735565186,6.48367071151733,6.48579502105713,6.48792123794556,6.4900484085083,6.49217700958252,6.49430751800537,6.49643898010254,6.49857187271118,6.50070571899414,6.50284147262573,6.5049786567688,6.50711727142334,6.50925731658936,6.51139831542969,6.51354122161865,6.51568555831909,6.51783084869385,6.51997804641724,6.52212619781494,6.52427625656128,6.52642726898193,6.52858018875122,6.53073406219482,6.5328893661499,6.53504657745361,6.53720474243164,6.53936433792114,6.54152584075928,6.54368829727173,6.54585218429565,6.54801797866821,6.55018472671509,6.55235290527344,6.55452251434326,6.55669403076172,6.55886650085449,6.5610408782959,6.56321620941162,6.56539344787598,6.56757164001465,6.56975173950195,6.57193279266357,6.57411575317383,6.5762996673584,6.5784854888916,6.58067274093628,6.58286142349243,6.5850510597229,6.587242603302,6.58943557739258,6.59162998199463,6.59382581710815,6.59602308273315,6.59822225570679,6.60042238235474,6.60262393951416,6.60482740402222,6.60703229904175,6.6092381477356,6.61144590377808,6.61365461349487,6.6158652305603,6.61807727813721,6.62029123306274,6.6225061416626,6.62472248077393,6.62694072723389,6.62915992736816,6.63138103485107,6.6336030960083,6.63582754135132,6.63941955566406,6.64335680007935,6.64729928970337,6.65124607086182,6.65519762039185,6.65915393829346,6.66311502456665,6.66708040237427,6.67105102539062,6.67502593994141,6.67900609970093,6.68299055099487,6.6869797706604,6.69097423553467,6.69497299194336,6.69897651672363,6.70298528671265,6.70699834823608,6.71101665496826,6.71503973007202,6.71906709671021,6.72309970855713,6.72713708877563,6.73117971420288,6.73522663116455,6.73927879333496,6.74333572387695,6.7503457069397,6.76331996917725,6.77634429931641,6.78941917419434,6.80254411697388,6.81572008132935,6.8289475440979,6.84222602844238,6.85555648803711,6.86893892288208,6.88237380981445,6.89586114883423,6.91147565841675,6.93104887008667,6.95073366165161,6.97053050994873,6.99043989181519,7.01046419143677,7.03060293197632,7.05085802078247,7.07122945785522,7.09171962738037,7.11232900619507,7.13305807113647,7.15390872955322,7.17488145828247,7.19597721099854,7.21719789505005,7.23854398727417,7.26001644134521,7.28161668777466,7.30334615707397,7.32520532608032,7.34719610214233,7.36931943893433,7.39157581329346,7.41396760940552,7.43649530410767,7.45916032791138,7.48196363449097,7.50490713119507,7.52799129486084,7.55121850967407,7.57458925247192,7.59810495376587,7.62176752090454,7.6455774307251,7.66953706741333,7.6936469078064,7.71790933609009,7.74232482910156,7.76689529418945,7.79162216186523,7.81650733947754,7.84155178070068,7.8667573928833,7.89212512969971,7.91765737533569,7.94335508346558,7.96922016143799,7.99525451660156,8.02145957946777,8.04783630371094,8.074387550354,8.10111522674561,8.12801933288574,8.15510368347168,8.18236827850342,8.20981597900391,8.23744869232178,8.26526832580566,8.29327583312988,8.32147407531738,8.3498649597168,8.37845039367676,8.40723133087158,8.43621158599854,8.46539211273193,8.49477481842041,8.52436256408691,8.55415725708008,8.72270011901855,8.90077590942383,9.08627414703369,9.2796630859375,9.48137378692627,9.56343555450439,9.60526371002197,9.67793464660645,9.75171375274658,9.82662677764893,9.90269947052002,9.97995853424072,10.0584335327148,10.1381521224976,10.2191438674927,10.3014097213745,10.3831214904785,10.4549779891968,10.5278377532959,10.6017189025879,10.6766452789307,10.7526378631592,10.829719543457,10.9079151153564,10.987247467041,11.0677423477173,11.1522960662842,11.2473459243774,11.3757925033569,19.8942127227783,19.894063949585
6.25069856643677,6.25267314910889,6.25464868545532,6.25662565231323,6.25860404968262,6.26058387756348,6.26256465911865,6.26454639434814,6.26652956008911,6.26851463317871,6.27050018310547,6.2724871635437,6.27447557449341,6.27646541595459,6.27845621109009,6.28044843673706,6.28244161605835,6.28443622589111,6.28643226623535,6.28842973709106,6.29042816162109,6.29242753982544,6.29442882537842,6.29643106460571,6.29843473434448,6.30043935775757,6.30244541168213,6.30445289611816,6.30646181106567,6.3084716796875,6.3104829788208,6.31249570846558,6.31450891494751,6.31652402877808,6.31854057312012,6.32055807113647,6.32257747650146,6.32459735870361,6.32661914825439,6.32864189147949,6.33066606521606,6.33269166946411,6.33471822738647,6.33674621582031,6.33877563476562,6.34080600738525,6.34283781051636,6.34487104415894,6.34690570831299,6.34894180297852,6.35097885131836,6.35301733016968,6.35505676269531,6.35709810256958,6.35914039611816,6.36118412017822,6.3632287979126,6.36527538299561,6.36732292175293,6.36937189102173,6.371422290802,6.37347364425659,6.37552642822266,6.37758111953735,6.37963628768921,6.3816933631897,6.3837513923645,6.38581085205078,6.38787174224854,6.38993406295776,6.39199781417847,6.39406251907349,6.39612865447998,6.39819622039795,6.40026473999023,6.40233516693115,6.40440702438354,6.40647983551025,6.40855407714844,6.41062927246094,6.41270637512207,6.41478490829468,6.41686391830444,6.4189453125,6.42102766036987,6.42311143875122,6.42519617080688,6.42728281021118,6.42937040328979,6.43145942687988,6.43354988098145,6.43564128875732,6.43773460388184,6.43982934951782,6.44192504882812,6.4440221786499,6.44612073898315,6.44822120666504,6.45032262802124,6.45242500305176,6.45452928543091,6.45663452148438,6.45874118804932,6.46084976196289,6.46295881271362,6.46507024765015,6.46718263626099,6.46929597854614,6.47141122817993,6.4735279083252,6.47564601898193,6.47776508331299,6.47988557815552,6.48200750350952,6.48413133621216,6.48625612258911,6.48838186264038,6.49050998687744,6.49263858795166,6.49476909637451,6.49690103530884,6.49903440475464,6.50116872787476,6.50330495834351,6.50544214248657,6.50758075714111,6.50972127914429,6.51186275482178,6.5140061378479,6.51615047454834,6.51829624176025,6.52044343948364,6.52259206771851,6.524742603302,6.52689361572266,6.5290470123291,6.53120088577271,6.5333571434021,6.53551387786865,6.537672996521,6.5398325920105,6.54199409484863,6.54415702819824,6.54632139205933,6.54848718643188,6.55065441131592,6.55282306671143,6.55499315261841,6.55716466903687,6.5593376159668,6.5615119934082,6.56368780136108,6.5658655166626,6.56804418563843,6.57022428512573,6.57240581512451,6.57458877563477,6.57677364349365,6.57895946502686,6.58114671707153,6.58333587646484,6.58552598953247,6.58771800994873,6.58991098403931,6.59210586547852,6.5943021774292,6.59649991989136,6.59869861602783,6.6008996963501,6.60310125350952,6.60530519485474,6.60751008987427,6.61070966720581,6.61461305618286,6.61852121353149,6.62243413925171,6.62635135650635,6.63027334213257,6.63420009613037,6.63813161849976,6.64206743240356,6.64600801467896,6.64995336532593,6.65390348434448,6.65785837173462,6.66181755065918,6.66578197479248,6.66975069046021,6.67372417449951,6.6777024269104,6.68168592453003,6.68567371368408,6.68966627120972,6.69366359710693,6.69766569137573,6.70167255401611,6.70568418502808,6.70970106124878,6.71372222900391,6.71774816513062,6.72177934646606,6.7258152961731,6.72985601425171,6.7339015007019,6.73795175552368,6.75000667572021,6.76297950744629,6.77600288391113,6.78907632827759,6.80219984054565,6.81537485122681,6.82860040664673,6.84187793731689,6.85520696640015,6.86858797073364,6.88202142715454,6.89550733566284,6.9090461730957,6.92263841629028,6.94013643264771,6.95987224578857,6.9797215461731,6.99968385696411,7.0197606086731,7.03995323181152,7.06026220321655,7.0806884765625,7.10123348236084,7.12189817428589,7.1426830291748,7.16359043121338,7.18461942672729,7.2057728767395,7.22705125808716,7.24845600128174,7.2699875831604,7.29164743423462,7.31343650817871,7.33535623550415,7.35740804672241,7.37959289550781,7.40191221237183,7.42436647415161,7.44695711135864,7.46968603134155,7.49255418777466,7.51556253433228,7.53871297836304,7.5620059967041,7.58544397354126,7.60902738571167,7.63275766372681,7.6566367149353,7.68066549301147,7.70484590530396,7.7291784286499,7.75366544723511,7.77830839157104,7.80310821533203,7.8280668258667,7.85318517684937,7.87846565246582,7.90390968322754,7.92951822280884,7.95529317855835,7.98123645782471,8.00734901428223,8.0336332321167,8.06009101867676,8.08672332763672,8.11353206634521,8.14051914215088,8.16768646240234,8.19503593444824,8.22256946563721,8.25028800964355,8.27819442749023,8.30628967285156,8.33457660675049,8.36305713653564,8.39173316955566,8.42060565948486,8.44967842102051,8.47895240783691,8.50842952728271,8.53811264038086,8.65056610107422,8.82567882537842,9.00802803039551,9.19807147979736,9.39625644683838,9.60312461853027,9.64829349517822,9.68474674224854,9.75862979888916,9.83364963531494,9.90983200073242,9.98720264434814,10.0657920837402,10.1456279754639,10.2267398834229,10.3091421127319,10.3928680419922,10.4666481018066,10.5396709442139,10.6137189865112,10.6888160705566,10.7649822235107,10.8422422409058,10.9206190109253,11.0001373291016,11.0808219909668,11.1626987457275,11.2553253173828,11.379017829895,19.6930084228516
6.2353720664978,6.23733758926392,6.23930311203003,6.24127054214478,6.243239402771,6.24520921707153,6.24718046188354,6.24915266036987,6.25112628936768,6.25310134887695,6.25507736206055,6.25705432891846,6.259033203125,6.26101303100586,6.26299381256104,6.26497650146484,6.26696014404297,6.26894474029541,6.27093076705933,6.27291822433472,6.27490711212158,6.27689695358276,6.27888774871826,6.28088045120239,6.28287410736084,6.2848687171936,6.286865234375,6.28886270523071,6.2908616065979,6.2928614616394,6.29486274719238,6.29686546325684,6.29886913299561,6.30087423324585,6.30288076400757,6.3048882484436,6.30689716339111,6.3089075088501,6.3109188079834,6.31293153762817,6.31494569778442,6.31696128845215,6.31897783279419,6.32099580764771,6.3230152130127,6.325035572052,6.32705736160278,6.32908058166504,6.33110523223877,6.33313083648682,6.33515787124634,6.33718585968018,6.33921575546265,6.34124660491943,6.34327840805054,6.34531211853027,6.34734678268433,6.34938335418701,6.35142040252686,6.35345935821533,6.35549926757812,6.35754060745239,6.35958337783813,6.36162710189819,6.36367273330688,6.36571884155273,6.36776685714722,6.36981630325317,6.37186670303345,6.3739185333252,6.37597179412842,6.37802648544312,6.38008213043213,6.38213920593262,6.38419771194458,6.38625764846802,6.38831853866577,6.39038133621216,6.39244508743286,6.39451026916504,6.39657688140869,6.39864444732666,6.4007134437561,6.40278387069702,6.40485620498657,6.40692901611328,6.40900373458862,6.41107940673828,6.41315698623657,6.41523551940918,6.4173150062561,6.41939640045166,6.42147874832153,6.42356300354004,6.42564821243286,6.42773485183716,6.42982292175293,6.43191242218018,6.4340033531189,6.43609523773193,6.43818855285645,6.44028329849243,6.44237947463989,6.44447708129883,6.44657611846924,6.44867658615112,6.45077800750732,6.452880859375,6.45498561859131,6.45709133148193,6.45919847488403,6.46130704879761,6.4634165763855,6.46552801132202,6.46764087677002,6.46975469589233,6.47186994552612,6.47398662567139,6.47610473632812,6.47822427749634,6.48034524917603,6.48246765136719,6.48459148406982,6.48671674728394,6.48884344100952,6.49097108840942,6.4931001663208,6.49523115158081,6.49736309051514,6.4994969367981,6.50163173675537,6.50376796722412,6.50590562820435,6.50804471969604,6.51018524169922,6.51232719421387,6.51447057723999,6.51661491394043,6.51876163482666,6.52090883255005,6.52305793762207,6.52520847320557,6.52736043930054,6.52951383590698,6.53166818618774,6.53382444381714,6.53598213195801,6.53814077377319,6.54030132293701,6.54246282577515,6.54462623596191,6.54679107666016,6.54895734786987,6.55112457275391,6.55329322814941,6.55546379089355,6.55763578414917,6.5598087310791,6.56198358535767,6.56415987014771,6.56633758544922,6.56851673126221,6.57069683074951,6.57287931442261,6.57506227493286,6.57724714279175,6.57943344116211,6.58224725723267,6.58611726760864,6.58999156951904,6.59387063980103,6.59775447845459,6.60164260864258,6.60553550720215,6.60943269729614,6.61333513259888,6.61724138259888,6.62115287780762,6.62506866455078,6.62898921966553,6.63291454315186,6.63684415817261,6.64077854156494,6.64471769332886,6.64866161346436,6.65260982513428,6.65656328201294,6.66052103042603,6.66448354721069,6.66845083236694,6.67242288589478,6.67639970779419,6.68038129806519,6.68436765670776,6.68835878372192,6.69235467910767,6.69635486602783,6.70036029815674,6.70437049865723,6.7083854675293,6.71240520477295,6.71642971038818,6.72045946121216,6.72449350357056,6.7285327911377,6.73674535751343,6.74966764450073,6.76263952255249,6.7756609916687,6.78873300552368,6.80185556411743,6.81502914428711,6.82825374603271,6.84152936935425,6.85485696792603,6.86823701858521,6.88166904449463,6.89515352249146,6.90869092941284,6.92228174209595,6.93592643737793,6.94962453842163,6.96903610229492,6.98893690109253,7.00895214080811,7.02908229827881,7.04932832717896,7.06969165802002,7.09017276763916,7.11077308654785,7.13149309158325,7.15233421325684,7.17329788208008,7.19438457489014,7.21559572219849,7.23693227767944,7.25839519500732,7.2799859046936,7.30170583724976,7.32355499267578,7.34553575515747,7.36764907836914,7.38989543914795,7.41227674484253,7.4347939491272,7.45744895935059,7.4802417755127,7.50317478179932,7.52624845504761,7.5494647026062,7.57282447814941,7.59632921218872,7.61998081207275,7.64377975463867,7.66772794723511,7.69182634353638,7.71607732772827,7.74048089981079,7.76503992080688,7.78975486755371,7.81462812423706,7.83966064453125,7.86485385894775,7.89020967483521,7.91572904586792,7.94141435623169,7.96726703643799,7.99328851699829,8.01948070526123,8.04584503173828,8.07238292694092,8.09909629821777,8.1259880065918,8.15305805206299,8.1803092956543,8.20774364471436,8.23536205291748,8.26316738128662,8.29116058349609,8.31934452056885,8.34772109985352,8.37629127502441,8.40505790710449,8.43402290344238,8.46318817138672,8.49255561828613,8.52212715148926,8.57961463928223,8.75183868408203,8.93111896514893,9.11789703369141,9.31265354156494,9.51581764221191,9.71562480926514,9.73467063903809,9.76555633544922,9.84068298339844,9.91697406768799,9.99445724487305,10.0731611251831,10.1531143188477,10.2343463897705,10.3168859481812,10.4007377624512,10.4783449172974,10.5515308380127,10.6257467269897,10.7010135650635,10.7773551940918,10.854793548584,10.9333524703979,11.0130567550659,11.0939321517944,11.1760034561157,11.2633428573608,19.4959735870361
6.22012138366699,6.22207641601562,6.22403335571289,6.22599077224731,6.22794961929321,6.22991037368774,6.23187160491943,6.2338342666626,6.23579788208008,6.23776340484619,6.23972988128662,6.24169731140137,6.24366664886475,6.24563646316528,6.24760770797729,6.24958038330078,6.25155448913574,6.25352954864502,6.25550556182861,6.25748300552368,6.25946235656738,6.2614426612854,6.26342391967773,6.26540613174438,6.26739025115967,6.26937532424927,6.27136135101318,6.27334928512573,6.2753381729126,6.27732849121094,6.27931976318359,6.28131246566772,6.28330612182617,6.28530168533325,6.28729820251465,6.28929567337036,6.29129457473755,6.29329490661621,6.29529666900635,6.29729986190796,6.29930353164673,6.30130910873413,6.30331563949585,6.30532360076904,6.30733299255371,6.3093433380127,6.31135511398315,6.31336832046509,6.31538248062134,6.31739807128906,6.31941509246826,6.32143354415894,6.32345294952393,6.32547378540039,6.32749605178833,6.32951927185059,6.33154392242432,6.33357000350952,6.3355975151062,6.3376259803772,6.33965539932251,6.34168672561646,6.34371900558472,6.34575319290161,6.34778833389282,6.34982490539551,6.35186243057251,6.35390138626099,6.35594177246094,6.35798311233521,6.36002635955811,6.36207056045532,6.36411619186401,6.36616277694702,6.36821126937866,6.37026071548462,6.37231111526489,6.37436389923096,6.37641716003418,6.37847185134888,6.38052749633789,6.3825855255127,6.38464403152466,6.3867039680481,6.38876581192017,6.39082860946655,6.39289283752441,6.39495801925659,6.3970251083374,6.39909267425537,6.40116214752197,6.40323305130005,6.4053053855896,6.40737867355347,6.40945339202881,6.41152954101562,6.41360712051392,6.41568613052368,6.41776609420776,6.41984796524048,6.42193078994751,6.42401504516602,6.426100730896,6.42818737030029,6.43027591705322,6.43236541748047,6.43445634841919,6.43654870986938,6.43864250183105,6.4407377243042,6.44283390045166,6.44493198394775,6.44703102111816,6.44913196563721,6.45123386383057,6.4533371925354,6.45544147491455,6.45754766464233,6.45965480804443,6.46176433563232,6.46387386322021,6.4659857749939,6.46809864044189,6.47021293640137,6.47232866287231,6.47444581985474,6.47656440734863,6.47868394851685,6.48080539703369,6.48292779922485,6.48505210876465,6.48717784881592,6.4893045425415,6.49143266677856,6.4935622215271,6.49569320678711,6.49782562255859,6.49995946884155,6.50209426879883,6.50423097610474,6.50636911392212,6.50850868225098,6.51064968109131,6.51279163360596,6.51493549346924,6.51708030700684,6.51922702789307,6.52137470245361,6.52352428436279,6.52567481994629,6.52782678604126,6.52998065948486,6.53213548660278,6.53429222106934,6.53644990921021,6.53860902786255,6.54076957702637,6.54293203353882,6.54509544372559,6.54726028442383,6.54942655563354,6.55159473419189,6.55402851104736,6.55786561965942,6.56170701980591,6.56555271148682,6.56940317153931,6.57325792312622,6.57711744308472,6.58098125457764,6.58484983444214,6.58872270584106,6.59260034561157,6.59648275375366,6.60036945343018,6.60426092147827,6.60815668106079,6.61205720901489,6.61596250534058,6.61987209320068,6.62378644943237,6.62770557403564,6.63162899017334,6.63555717468262,6.63949012756348,6.64342784881592,6.64736986160278,6.65131711959839,6.65526866912842,6.65922498703003,6.66318607330322,6.667151927948,6.67112255096436,6.67509746551514,6.67907762527466,6.6830620765686,6.68705177307129,6.6910457611084,6.69504499435425,6.69904899597168,6.70305728912354,6.70707082748413,6.71108913421631,6.71511173248291,6.71913957595825,6.72353649139404,6.73640775680542,6.74932861328125,6.76229906082153,6.77531957626343,6.78839015960693,6.80151176452637,6.81468343734741,6.82790660858154,6.84118127822876,6.85450744628906,6.86788606643677,6.88131666183472,6.89479970932007,6.90833616256714,6.92192554473877,6.93556833267212,6.9492654800415,6.96301651000977,6.97822284698486,6.99817657470703,7.01824522018433,7.03842878341675,7.05872917175293,7.07914638519287,7.09968233108521,7.12033796310425,7.14111375808716,7.16201162338257,7.18303203582764,7.20417594909668,7.22544527053833,7.24683952331543,7.26836204528809,7.29001188278198,7.31179141998291,7.33370161056519,7.35574340820312,7.3779182434082,7.40022659301758,7.42267084121704,7.44525146484375,7.46796989440918,7.4908275604248,7.51382541656494,7.53696489334106,7.56024694442749,7.58367395401001,7.60724639892578,7.63096570968628,7.65483331680298,7.67885112762451,7.70301961898804,7.72734117507935,7.75181674957275,7.77644729614258,7.80123519897461,7.82618188858032,7.85128831863403,7.87655687332153,7.90198802947998,7.92758417129517,7.95334672927856,7.97927713394165,8.0053768157959,8.03164863586426,8.05809307098389,8.08471202850342,8.11150741577148,8.13848114013672,8.16563510894775,8.19297027587891,8.22048950195312,8.24819469451904,8.27608680725098,8.30416774749756,8.33244037628174,8.36090564727783,8.38956642150879,8.41842460632324,8.44748210906982,8.47674083709717,8.50620269775391,8.53587055206299,8.67922401428223,8.85551071166992,9.03910827636719,9.23047828674316,9.43008327484131,9.63846015930176,9.8032169342041,9.82260799407959,9.8477258682251,9.92412757873535,10.0017223358154,10.0805416107178,10.1606121063232,10.2419652938843,10.324631690979,10.4086198806763,10.4900674819946,10.5634183883667,10.6378011703491,10.7132406234741,10.7897567749023,10.8673734664917,10.9461154937744,11.0260066986084,11.1070728302002,11.1893396377563,11.272834777832
6.2049446105957,6.20689058303833,6.20883798599243,6.21078586578369,6.21273517608643,6.21468591690063,6.21663761138916,6.21859073638916,6.22054529190063,6.22250080108643,6.22445774078369,6.22641563415527,6.22837448120117,6.2303352355957,6.23229694366455,6.23426008224487,6.23622417449951,6.23818969726562,6.2401556968689,6.24212408065796,6.24409341812134,6.24606370925903,6.2480354309082,6.25000810623169,6.25198221206665,6.25395774841309,6.25593423843384,6.25791215896606,6.25989151000977,6.26187181472778,6.26385307312012,6.26583623886108,6.26782035827637,6.26980590820312,6.2717924118042,6.27378034591675,6.27576923370361,6.27775955200195,6.27975177764893,6.28174448013306,6.28373861312866,6.28573417663574,6.2877311706543,6.28972911834717,6.29172801971436,6.29372882843018,6.29573106765747,6.29773378372192,6.29973840713501,6.30174398422241,6.30375099182129,6.30575895309448,6.30776882171631,6.30977964401245,6.31179141998291,6.31380462646484,6.31581974029541,6.31783533096313,6.31985282897949,6.32187080383301,6.32389116287231,6.32591199874878,6.32793426513672,6.32995796203613,6.33198308944702,6.33400917053223,6.33603668212891,6.33806562423706,6.34009599685669,6.34212732315063,6.34416007995605,6.34619426727295,6.34822940826416,6.35026597976685,6.35230398178101,6.35434341430664,6.35638427734375,6.35842609405518,6.36046934127808,6.36251354217529,6.36455965042114,6.36660623550415,6.36865520477295,6.37070512771606,6.3727560043335,6.37480878829956,6.37686204910278,6.3789176940918,6.38097381591797,6.38303136825562,6.38509082794189,6.38715076446533,6.3892126083374,6.39127588272095,6.39334011077881,6.39540576934814,6.39747285842896,6.39954137802124,6.40161085128784,6.40368223190308,6.40575456619263,6.40782833099365,6.40990352630615,6.41198015213013,6.41405773162842,6.41613674163818,6.41821718215942,6.42029905319214,6.42238235473633,6.42446708679199,6.42655277252197,6.42863988876343,6.43072891235352,6.43281841278076,6.43490982055664,6.43700265884399,6.43909645080566,6.44119167327881,6.44328880310059,6.44538688659668,6.44748640060425,6.44958734512329,6.45168972015381,6.45379304885864,6.45589828491211,6.45800447463989,6.46011209487915,6.46222114562988,6.46433210372925,6.46644353866577,6.46855688095093,6.47067165374756,6.47278785705566,6.47490501403809,6.47702407836914,6.47914409637451,6.48126554489136,6.48338842391968,6.48551273345947,6.48763847351074,6.48976564407349,6.49189424514771,6.49402379989624,6.49615526199341,6.49828815460205,6.50042200088501,6.5025577545166,6.50469446182251,6.50683307647705,6.50897264480591,6.51111364364624,6.51325607299805,6.51540040969849,6.51754522323608,6.51969242095947,6.52184057235718,6.52399015426636,6.52614116668701,6.52985525131226,6.53366374969482,6.53747701644897,6.54129457473755,6.54511642456055,6.54894256591797,6.55277347564697,6.55660915374756,6.56044912338257,6.564293384552,6.56814241409302,6.57199573516846,6.57585334777832,6.57971620559692,6.58358287811279,6.5874547958374,6.59133052825928,6.59521150588989,6.59909677505493,6.60298633575439,6.60688066482544,6.61077976226807,6.61468362808228,6.61859178543091,6.62250471115112,6.62642192840576,6.63034391403198,6.63427066802979,6.63820219039917,6.64213848114014,6.64607906341553,6.6500244140625,6.65397453308105,6.65792942047119,6.66188907623291,6.66585302352905,6.66982221603394,6.67379570007324,6.67777442932129,6.68175745010376,6.68574523925781,6.68973779678345,6.69373559951782,6.69773769378662,6.701744556427,6.70575666427612,6.70977306365967,6.71379470825195,6.72320032119751,6.73607015609741,6.74898958206177,6.76195907592773,6.77497816085815,6.78804731369019,6.80116748809814,6.81433820724487,6.82755994796753,6.84083318710327,6.8541579246521,6.86753511428833,6.8809642791748,6.89444637298584,6.90798091888428,6.92156887054443,6.93521070480347,6.94890594482422,6.96265602111816,6.97645998001099,6.99031925201416,7.00744104385376,7.02756261825562,7.04780006408691,7.06815433502197,7.08862638473511,7.10921764373779,7.12992858886719,7.15076065063477,7.171715259552,7.1927924156189,7.21399402618408,7.23532104492188,7.25677442550659,7.27835559844971,7.30006551742554,7.32190561294556,7.34387636184692,7.36597919464111,7.38821601867676,7.41058683395386,7.4330940246582,7.45573806762695,7.47852087020874,7.50144290924072,7.52450609207153,7.54771184921265,7.57106065750122,7.59455442428589,7.61819458007812,7.6419825553894,7.66591930389404,7.69000673294067,7.71424579620361,7.73863792419434,7.76318502426147,7.7878885269165,7.8127498626709,7.83776998519897,7.86295127868652,7.88829469680786,7.91380214691162,7.93947458267212,7.9653148651123,7.99132347106934,8.017502784729,8.04385375976562,8.07037830352783,8.09707927703857,8.12395668029785,8.15101337432861,8.17825126647949,8.2056713104248,8.2332763671875,8.26106739044189,8.28904628753662,8.31721591949463,8.34557723999023,8.37413311004639,8.4028844833374,8.43183517456055,8.46098518371582,8.49033737182617,8.51989364624023,8.60780429840088,8.78117275238037,8.96166896820068,9.14974021911621,9.34587574005127,9.55051231384277,9.76430511474609,9.89240264892578,9.91214847564697,9.93197250366211,10.0089988708496,10.0879325866699,10.1681213378906,10.2495946884155,10.3323850631714,10.4165143966675,10.5018157958984,10.5753316879272,10.649884223938,10.7254943847656,10.8021860122681,10.8799829483032,10.9589080810547,11.038987159729,11.1202449798584,11.2027082443237
6.18984222412109,6.19177865982056,6.19371604919434,6.19565486907959,6.19759464263916,6.19953584671021,6.20147800445557,6.2034215927124,6.20536661148071,6.20731258392334,6.20925998687744,6.21120834350586,6.21315813064575,6.21510887145996,6.21706104278564,6.21901416778564,6.22096920013428,6.22292518615723,6.22488212585449,6.22684001922607,6.22879934310913,6.23076057434082,6.23272228240967,6.23468542098999,6.23664951324463,6.2386155128479,6.24058246612549,6.24255084991455,6.24452066421509,6.24649095535278,6.24846267700195,6.2504358291626,6.25241041183472,6.25438594818115,6.25636291503906,6.25834083557129,6.26032018661499,6.26230144500732,6.26428270339966,6.26626634597778,6.26825046539307,6.27023649215698,6.27222299575806,6.27421140670776,6.27620077133179,6.27819156646729,6.2801833152771,6.28217649459839,6.28417110443115,6.28616714477539,6.28816366195679,6.29016208648682,6.29216194152832,6.29416275024414,6.29616498947144,6.29816818237305,6.30017280578613,6.30217885971069,6.30418586730957,6.30619478225708,6.30820417404175,6.31021547317505,6.31222772598267,6.31424140930176,6.31625652313232,6.31827259063721,6.32029008865356,6.32230854034424,6.32432889938354,6.32635021209717,6.32837295532227,6.33039712905884,6.33242225646973,6.33444881439209,6.33647632598877,6.33850574493408,6.34053611755371,6.34256792068481,6.34460067749023,6.34663534164429,6.34867095947266,6.3507080078125,6.35274600982666,6.35478544235229,6.35682678222656,6.35886859893799,6.36091232299805,6.36295700073242,6.36500310897827,6.3670506477356,6.36909914016724,6.37114953994751,6.3732008934021,6.37525367736816,6.37730741500854,6.37936305999756,6.38141965866089,6.38347768783569,6.38553714752197,6.38759756088257,6.3896598815918,6.39172315597534,6.39378786087036,6.39585399627686,6.39792108535767,6.39999008178711,6.40206003189087,6.40413093566895,6.40620422363281,6.40827798843384,6.4103536605835,6.41243028640747,6.41450834274292,6.41658782958984,6.41866827011108,6.42075061798096,6.42283391952515,6.42491912841797,6.42700529098511,6.42909240722656,6.43118143081665,6.43327188491821,6.43536376953125,6.4374566078186,6.43955087661743,6.44164609909058,6.44374322891235,6.44584178924561,6.44794178009033,6.45004272460938,6.45214557647705,6.45424938201904,6.45635461807251,6.45846128463745,6.46056938171387,6.46267890930176,6.46478939056396,6.4669017791748,6.46901512145996,6.47112989425659,6.47324657440186,6.47536420822144,6.47748327255249,6.47960376739502,6.48172569274902,6.48384857177734,6.4859733581543,6.48809957504272,6.49022674560547,6.49235582351685,6.49448585510254,6.49661731719971,6.49875068664551,6.50208330154419,6.505859375,6.50964021682739,6.51342535018921,6.51721477508545,6.52100849151611,6.52480697631836,6.52860927581787,6.53241682052612,6.53622817993164,6.54004430770874,6.54386472702026,6.54768991470337,6.5515193939209,6.55535316467285,6.55919170379639,6.56303453445435,6.56688165664673,6.57073354721069,6.57459020614624,6.57845115661621,6.58231687545776,6.58618688583374,6.59006118774414,6.59394073486328,6.59782409667969,6.60171270370483,6.6056056022644,6.60950326919556,6.61340522766113,6.61731195449829,6.62122344970703,6.6251392364502,6.62905979156494,6.63298511505127,6.63691473007202,6.64084959030151,6.64478874206543,6.64873266220093,6.65268135070801,6.65663433074951,6.66059255599976,6.66455507278442,6.66852235794067,6.67249441146851,6.67647123336792,6.68045330047607,6.68443918228149,6.68843030929565,6.6924262046814,6.69642686843872,6.70043230056763,6.70444297790527,6.71004390716553,6.72286367416382,6.7357325553894,6.74865102767944,6.76161909103394,6.77463674545288,6.7877049446106,6.80082321166992,6.81399250030518,6.82721328735352,6.84048509597778,6.85380840301514,6.86718416213989,6.88061189651489,6.89409255981445,6.90762615203857,6.92121267318726,6.93485307693481,6.94854688644409,6.9622950553894,6.97609806060791,6.98995542526245,7.0038685798645,7.01783657073975,7.03690481185913,7.05719614028931,7.0776047706604,7.09813213348389,7.11877870559692,7.13954544067383,7.16043376922607,7.18144512176514,7.20257997512817,7.2238392829895,7.2452244758606,7.26673698425293,7.28837728500366,7.31014728546143,7.33204746246338,7.354079246521,7.37624359130859,7.3985424041748,7.42097616195679,7.44354677200317,7.46625423431396,7.48910140991211,7.51208877563477,7.53521728515625,7.55848932266235,7.58190488815308,7.60546636581421,7.62917470932007,7.65303134918213,7.67703723907471,7.70119476318359,7.72550439834595,7.74996852874756,7.77458763122559,7.79936361312866,7.82429790496826,7.84939241409302,7.8746485710144,7.90006732940674,7.92565107345581,7.95140075683594,7.97731876373291,8.00340557098389,8.02966403961182,8.05609607696533,8.08270168304443,8.10948371887207,8.13644409179688,8.16358375549316,8.19090557098389,8.21841144561768,8.24610233306885,8.27398014068604,8.30204677581787,8.3303050994873,8.35875606536865,8.38740158081055,8.41624546051025,8.44528770446777,8.47453022003174,8.50397682189941,8.53754997253418,8.70807266235352,8.8855447769165,9.07040214538574,9.26311492919922,9.46415424346924,9.67405605316162,9.89348030090332,9.98322677612305,10.0033359527588,10.0235271453857,10.0953340530396,10.1756410598755,10.2572355270386,10.3401498794556,10.4244146347046,10.5100374221802,10.5872716903687,10.6619930267334,10.7377767562866,10.8146448135376,10.8926219940186,10.9717311859131,11.0519981384277,11.133448600769
6.17481279373169,6.17673969268799,6.17866802215576,6.18059730529785,6.18252754211426,6.18445920944214,6.18639230728149,6.18832635879517,6.19026184082031,6.19219827651978,6.19413614273071,6.19607496261597,6.1980152130127,6.19995641708374,6.20189905166626,6.20384311676025,6.20578813552856,6.20773458480835,6.20968198776245,6.21163082122803,6.21358060836792,6.21553182601929,6.21748447418213,6.21943807601929,6.22139310836792,6.22334909439087,6.22530603408813,6.22726488113403,6.22922468185425,6.23118543624878,6.23314762115479,6.23511123657227,6.23707580566406,6.23904228210449,6.24100923538208,6.24297761917114,6.24494743347168,6.24691820144653,6.24889039993286,6.25086355209351,6.25283861160278,6.25481414794922,6.25679159164429,6.25876998901367,6.26074981689453,6.26273059844971,6.26471281051636,6.26669645309448,6.26868057250977,6.27066707611084,6.27265405654907,6.27464246749878,6.27663230895996,6.27862310409546,6.28061532974243,6.28260898590088,6.28460359573364,6.28659963607788,6.28859710693359,6.29059553146362,6.29259538650513,6.29459667205811,6.2965989112854,6.29860258102417,6.30060768127441,6.30261373519897,6.30462121963501,6.30663013458252,6.30864000320435,6.31065130233765,6.31266403198242,6.31467819213867,6.31669330596924,6.31870985031128,6.32072782516479,6.32274675369263,6.32476711273193,6.32678842544556,6.32881164550781,6.33083581924438,6.33286142349243,6.33488845825195,6.33691644668579,6.3389458656311,6.34097623825073,6.34300851821899,6.34504175186157,6.34707641601562,6.34911251068115,6.351149559021,6.35318803787231,6.35522794723511,6.35726881027222,6.35931158065796,6.36135530471802,6.36340045928955,6.36544704437256,6.36749458312988,6.36954355239868,6.37159395217896,6.3736457824707,6.37569904327393,6.37775325775146,6.37980890274048,6.38186550140381,6.38392400741577,6.38598394393921,6.38804483413696,6.39010715484619,6.39217042922974,6.39423561096191,6.39630174636841,6.39836931228638,6.40043830871582,6.4025092124939,6.40458059310913,6.40665340423584,6.40872764587402,6.41080331802368,6.41288089752197,6.41495895385742,6.4170389175415,6.4191198348999,6.42120218276978,6.42328596115112,6.42537117004395,6.42745780944824,6.42954540252686,6.43163442611694,6.43372488021851,6.4358172416687,6.43791007995605,6.44000482559204,6.4421010017395,6.44419813156128,6.44629716873169,6.44839715957642,6.45049858093262,6.45260143280029,6.45470571517944,6.45681095123291,6.45891809463501,6.46102666854858,6.46313619613647,6.46524715423584,6.46735954284668,6.46947336196899,6.47158861160278,6.47454643249512,6.47829055786133,6.48203945159912,6.48579263687134,6.48954963684082,6.49331140518188,6.49707746505737,6.50084829330444,6.50462293624878,6.5084023475647,6.51218557357788,6.51597356796265,6.51976633071899,6.52356290817261,6.5273642539978,6.53116989135742,6.53498029708862,6.53879451751709,6.54261350631714,6.54643726348877,6.55026531219482,6.5540976524353,6.55793476104736,6.56177616119385,6.56562185287476,6.56947231292725,6.57332754135132,6.57718706130981,6.58105087280273,6.58491945266724,6.58879280090332,6.59267044067383,6.59655237197876,6.60043954849243,6.60433053970337,6.60822677612305,6.61212730407715,6.61603260040283,6.61994218826294,6.62385702133179,6.62777614593506,6.63169956207275,6.63562774658203,6.63956117630005,6.64349889755249,6.64744091033936,6.65138816833496,6.65533971786499,6.65929651260376,6.66325759887695,6.66722345352173,6.67119407653809,6.67516899108887,6.67914915084839,6.68313407897949,6.68712377548218,6.69111776351929,6.69511699676514,6.69912099838257,6.70970916748047,6.72252750396729,6.7353949546814,6.74831199645996,6.76127862930298,6.77429533004761,6.78736209869385,6.80047941207886,6.81364727020264,6.8268666267395,6.84013700485229,6.85345935821533,6.86683320999146,6.88025999069214,6.89373874664307,6.90727090835571,6.92085647583008,6.934494972229,6.94818782806396,6.9619345664978,6.97573614120483,6.9895920753479,7.00350332260132,7.01747035980225,7.03149318695068,7.04627227783203,7.06661796569824,7.08708095550537,7.10766315460205,7.12836503982544,7.14918804168701,7.17013311386108,7.19120121002197,7.21239328384399,7.23371076583862,7.25515508651733,7.27672624588013,7.29842662811279,7.32025623321533,7.34221744537354,7.3643102645874,7.38653707504272,7.4088978767395,7.43139457702637,7.45402860641479,7.47680044174194,7.49971199035645,7.52276468276978,7.54595947265625,7.56929731369019,7.59278059005737,7.61640977859497,7.64018630981445,7.66411209106445,7.68818759918213,7.71241521835327,7.73679637908936,7.76133155822754,7.78602313995361,7.81087207794189,7.83588075637817,7.86104965209961,7.88638067245483,7.91187572479248,7.93753576278687,7.96336317062378,7.98935890197754,8.01552486419678,8.04186344146729,8.06837558746338,8.09506225585938,8.12192630767822,8.14896965026855,8.176194190979,8.20359992980957,8.23119068145752,8.25896835327148,8.28693294525146,8.31508827209473,8.34343528747559,8.37197589874268,8.40071296691895,8.42964839935303,8.45878314971924,8.48812007904053,8.51766109466553,8.63617897033691,8.81070423126221,8.99242877960205,9.18180751800537,9.37933444976807,9.5854606628418,9.80083847045898,10.0261182785034,10.0757331848145,10.0962181091309,10.1167860031128,10.1831722259521,10.2648887634277,10.3479261398315,10.432318687439,10.5180864334106,10.5992393493652,10.6741304397583,10.7500867843628,10.8271322250366,10.9052906036377,10.9845848083496,11.0650405883789
6.15985631942749,6.16177368164062,6.16369247436523,6.16561269760132,6.16753387451172,6.16945600509644,6.17137956619263,6.17330455780029,6.17523050308228,6.17715740203857,6.17908620834351,6.1810154914856,6.18294620513916,6.1848783493042,6.18681144714355,6.18874597549438,6.19068145751953,6.19261837005615,6.19455623626709,6.1964955329895,6.19843578338623,6.20037746429443,6.20232057571411,6.20426464080811,6.20621013641357,6.20815658569336,6.21010446548462,6.2120532989502,6.21400356292725,6.21595478057861,6.21790790557861,6.21986150741577,6.2218165397644,6.22377300262451,6.22573041915894,6.22768926620483,6.22964954376221,6.2316107749939,6.23357343673706,6.23553705215454,6.2375020980835,6.23946809768677,6.24143600463867,6.24340486526489,6.24537467956543,6.24734592437744,6.24931812286377,6.25129175186157,6.25326681137085,6.2552433013916,6.25722026824951,6.25919914245605,6.26117897033691,6.26316022872925,6.2651424407959,6.26712656021118,6.26911115646362,6.27109718322754,6.27308511734009,6.27507400512695,6.27706384658813,6.27905464172363,6.28104734420776,6.28304100036621,6.28503608703613,6.28703260421753,6.28903007507324,6.29102897644043,6.29302930831909,6.29503059387207,6.29703330993652,6.29903697967529,6.3010425567627,6.30304861068726,6.30505657196045,6.30706596374512,6.3090763092041,6.3110876083374,6.31310081481934,6.31511497497559,6.31713056564331,6.31914710998535,6.32116508483887,6.32318449020386,6.32520532608032,6.3272271156311,6.32925033569336,6.33127498626709,6.33330059051514,6.33532762527466,6.33735609054565,6.33938598632812,6.34141683578491,6.34344911575317,6.34548234939575,6.34751749038696,6.34955406188965,6.35159111022949,6.35363006591797,6.35567045211792,6.35771179199219,6.35975408554077,6.36179876327515,6.36384391784668,6.36589050292969,6.36793851852417,6.36998796463013,6.37203884124756,6.37409067153931,6.37614393234253,6.37819862365723,6.3802547454834,6.38231182098389,6.38437032699585,6.38643026351929,6.3884916305542,6.39055442810059,6.39261817932129,6.39468336105347,6.39674997329712,6.39881801605225,6.40088701248169,6.40295791625977,6.40502977371216,6.40710306167603,6.40917778015137,6.41125345230103,6.41333103179932,6.41540956497192,6.41748952865601,6.41957092285156,6.42165374755859,6.4237380027771,6.42582321166992,6.42790985107422,6.42999792098999,6.43208742141724,6.43417835235596,6.43627071380615,6.43836402893066,6.44045925140381,6.44255542755127,6.44465303421021,6.44724178314209,6.45095491409302,6.45467185974121,6.45839309692383,6.46211910247803,6.46584892272949,6.46958303451538,6.47332191467285,6.47706460952759,6.48081207275391,6.48456335067749,6.48831939697266,6.49207973480225,6.49584436416626,6.4996132850647,6.50338697433472,6.507164478302,6.51094675064087,6.51473331451416,6.51852416992188,6.52231979370117,6.52611970901489,6.52992391586304,6.53373241424561,6.53754568099976,6.54136323928833,6.54518508911133,6.54901170730591,6.55284261703491,6.5566782951355,6.56051826477051,6.56436252593994,6.56821155548096,6.5720648765564,6.57592296600342,6.57978534698486,6.58365249633789,6.5875244140625,6.59140062332153,6.59528112411499,6.59916639328003,6.60305643081665,6.6069507598877,6.61084985733032,6.61475372314453,6.61866188049316,6.62257480621338,6.62649250030518,6.63041496276855,6.63434171676636,6.63827323913574,6.64220905303955,6.6461501121521,6.65009546279907,6.65404558181763,6.65800046920776,6.66196012496948,6.66592454910278,6.66989374160767,6.67386722564697,6.67784595489502,6.68182897567749,6.6858172416687,6.68980979919434,6.69660568237305,6.70937395095825,6.72219133377075,6.73505783081055,6.74797344207764,6.76093864440918,6.77395391464233,6.7870192527771,6.80013513565063,6.8133020401001,6.82651948928833,6.83978891372681,6.85310983657837,6.86648273468018,6.87990760803223,6.89338541030884,6.90691614151001,6.92049980163574,6.93413734436035,6.94782876968384,6.9615740776062,6.9753737449646,6.98922872543335,7.00313854217529,7.01710414886475,7.03112506866455,7.04520225524902,7.05933618545532,7.07606410980225,7.09658241271973,7.11721992492676,7.13797760009766,7.1588568687439,7.17985868453979,7.20098400115967,7.22223424911499,7.24360990524292,7.26511287689209,7.28674364089966,7.3085036277771,7.33039379119873,7.35241556167603,7.37457036972046,7.39685869216919,7.41928243637085,7.4418420791626,7.46454000473022,7.48737621307373,7.51035308837891,7.53347110748291,7.55673217773438,7.58013677597046,7.60368728637695,7.62738418579102,7.65122985839844,7.67522478103638,7.69937038421631,7.72366905212402,7.74812078475952,7.77272844314575,7.79749250411987,7.82241535186768,7.84749746322632,7.87274122238159,7.89814805984497,7.92371892929077,7.94945621490479,7.97536134719849,8.00143527984619,8.02768135070801,8.05409908294678,8.08069229125977,8.10746097564697,8.13440799713135,8.16153430938721,8.1888427734375,8.21633338928223,8.24400997161865,8.27187442779541,8.2999267578125,8.32817077636719,8.35660743713379,8.38523864746094,8.41406631469727,8.44309329986572,8.47232151031494,8.50175285339355,8.56546306610107,8.7371129989624,8.91578388214111,9.10191440582275,9.29598331451416,9.49847221374512,9.70991611480713,9.93098831176758,10.1491851806641,10.1699705123901,10.1908397674561,10.2117958068848,10.2725524902344,10.3557147979736,10.4402351379395,10.5261468887329,10.611234664917,10.6862955093384,10.7624254226685,10.8396492004395,10.9179878234863,10.9974679946899
6.14497232437134,6.14688014984131,6.14878988265991,6.15070056915283,6.15261220932007,6.15452575683594,6.15643978118896,6.15835523605347,6.16027164459229,6.16218996047974,6.16410875320435,6.16602897644043,6.16795015335083,6.16987276077271,6.17179679870605,6.17372179031372,6.17564821243286,6.17757511138916,6.17950439453125,6.18143367767334,6.18336534500122,6.1852970123291,6.18723058700562,6.18916511535645,6.19110107421875,6.19303846359253,6.19497632980347,6.19691610336304,6.19885635375977,6.20079851150513,6.20274209976196,6.20468616485596,6.20663213729858,6.20857858657837,6.21052694320679,6.21247577667236,6.21442651748657,6.2163782119751,6.2183313369751,6.22028541564941,6.22224044799805,6.22419738769531,6.22615528106689,6.22811412811279,6.23007440567017,6.23203611373901,6.23399877548218,6.23596286773682,6.23792839050293,6.23989486694336,6.24186229705811,6.24383115768433,6.24580192565918,6.24777317047119,6.24974584579468,6.25171947479248,6.25369501113892,6.25567150115967,6.25764894485474,6.25962829589844,6.2616081237793,6.26358985900879,6.2655725479126,6.26755619049072,6.26954126358032,6.27152824401855,6.2735161781311,6.27550506591797,6.27749538421631,6.27948665618896,6.2814793586731,6.2834734916687,6.28546857833862,6.28746509552002,6.28946352005005,6.29146242141724,6.2934627532959,6.29546451568604,6.29746770858765,6.29947185516357,6.30147743225098,6.3034839630127,6.30549192428589,6.30750131607056,6.3095121383667,6.31152391433716,6.31353712081909,6.3155517578125,6.31756734848022,6.31958436965942,6.3216028213501,6.32362222671509,6.32564353942871,6.32766580581665,6.32968902587891,6.33171367645264,6.33373975753784,6.33576726913452,6.33779573440552,6.33982610702515,6.34185695648193,6.34388971328735,6.34592390060425,6.34795904159546,6.34999513626099,6.35203313827515,6.35407209396362,6.35611248016357,6.358154296875,6.36019706726074,6.36224174499512,6.36428737640381,6.36633443832397,6.36838293075562,6.37043237686157,6.37248373031616,6.37453556060791,6.37658929824829,6.37864398956299,6.38070011138916,6.38275814056396,6.38481664657593,6.38687705993652,6.38893842697144,6.39100122451782,6.39306592941284,6.39513111114502,6.39719820022583,6.39926624298096,6.40133619308472,6.40340662002563,6.40547895431519,6.40755271911621,6.40962743759155,6.41170358657837,6.41378164291382,6.41586017608643,6.41794061660767,6.42016649246216,6.4238486289978,6.42753410339355,6.43122434616089,6.43491888046265,6.43861770629883,6.44232034683228,6.44602727890015,6.4497389793396,6.45345449447632,6.45717477798462,6.46089887619019,6.46462726593018,6.46836042404175,6.47209739685059,6.47583913803101,6.47958469390869,6.48333501815796,6.48708963394165,6.49084854125977,6.4946117401123,6.49837923049927,6.50215101242065,6.50592756271362,6.50970840454102,6.51349353790283,6.51728296279907,6.52107667922974,6.52487516403198,6.52867794036865,6.53248500823975,6.53629684448242,6.54011297225952,6.54393339157104,6.54775857925415,6.55158805847168,6.55542230606079,6.55926084518433,6.56310367584229,6.56695127487183,6.57080316543579,6.57465982437134,6.57852077484131,6.58238649368286,6.58625650405884,6.5901312828064,6.59401035308838,6.59789419174194,6.60178279876709,6.60567569732666,6.60957336425781,6.61347532272339,6.61738204956055,6.62129354476929,6.62520980834961,6.62913036346436,6.63305568695068,6.63698577880859,6.64092016220093,6.644859790802,6.6488037109375,6.65275239944458,6.65670537948608,6.66066360473633,6.66462659835815,6.6685938835144,6.67256593704224,6.67654323577881,6.6805248260498,6.68451118469238,6.6962718963623,6.70903921127319,6.72185516357422,6.73472023010254,6.74763441085815,6.76059865951538,6.77361249923706,6.78667640686035,6.79979133605957,6.8129563331604,6.82617282867432,6.83944082260132,6.85276031494141,6.86613178253174,6.87955570220947,6.89303207397461,6.90656137466431,6.92014360427856,6.9337797164917,6.94746971130371,6.9612135887146,6.97501182556152,6.9888653755188,7.00277376174927,7.01673746109009,7.03075742721558,7.04483318328857,7.0589656829834,7.07315492630005,7.08740091323853,7.10610914230347,7.12680244445801,7.14761590957642,7.16855192184448,7.18961048126221,7.21079349517822,7.23210144042969,7.25353622436523,7.27509784698486,7.29678821563721,7.31860828399658,7.34055948257446,7.36264228820801,7.38485860824585,7.4072093963623,7.42969608306885,7.45231914520264,7.47508096694946,7.49798202514648,7.52102422714233,7.54420804977417,7.56753540039062,7.59100723266602,7.61462545394897,7.63839101791382,7.66230535507202,7.68636989593506,7.71058559417725,7.73495531082153,7.75947856903076,7.78415870666504,7.80899572372437,7.83399200439453,7.85914897918701,7.88446760177612,7.90995025634766,7.93559789657593,7.96141290664673,7.98739576339722,8.01354885101318,8.03987407684326,8.06637287139893,8.09304714202881,8.11989784240723,8.14692783355713,8.17413806915283,8.20153045654297,8.22910690307617,8.25687026977539,8.28482055664062,8.31296157836914,8.34129428863525,8.3698205947876,8.3985424041748,8.42746257781982,8.45658206939697,8.4859037399292,8.51542949676514,8.66474151611328,8.84043502807617,9.02340030670166,9.2140998840332,9.4130334854126,9.62066555023193,9.837646484375,10.0646409988403,10.2448081970215,10.2659864425659,10.2872533798218,10.3086080551147,10.3635149002075,10.4481630325317,10.5342054367065,10.6216583251953,10.6984872817993,10.7747926712036,10.8521938323975,10.9307155609131
6.13015937805176,6.13205862045288,6.13395881652832,6.13586044311523,6.13776302337646,6.13966703414917,6.14157199859619,6.14347791671753,6.14538526535034,6.14729404449463,6.14920377731323,6.15111494064331,6.15302705764771,6.15494060516357,6.1568546295166,6.15877056121826,6.16068744659424,6.16260528564453,6.16452503204346,6.16644525527954,6.1683669090271,6.17028999328613,6.17221403121948,6.17413902282715,6.17606592178345,6.1779932975769,6.17992258071899,6.18185234069824,6.18378353118896,6.18571615219116,6.18764972686768,6.18958520889282,6.19152116775513,6.19345855712891,6.195396900177,6.19733667373657,6.19927787780762,6.20121955871582,6.20316314697266,6.20510768890381,6.20705366134644,6.20900058746338,6.21094942092896,6.21289873123169,6.2148494720459,6.21680164337158,6.21875476837158,6.22070932388306,6.22266483306885,6.22462177276611,6.2265796661377,6.22853899002075,6.23049974441528,6.23246145248413,6.23442459106445,6.23638868331909,6.23835420608521,6.24032115936279,6.2422890663147,6.24425840377808,6.24622869491577,6.24820041656494,6.25017356872559,6.25214767456055,6.25412321090698,6.25610017776489,6.25807809829712,6.26005744934082,6.26203775405884,6.26401948928833,6.26600217819214,6.26798677444458,6.26997232437134,6.27195882797241,6.27394676208496,6.27593612670898,6.27792692184448,6.2799186706543,6.28191184997559,6.28390598297119,6.28590154647827,6.28789806365967,6.2898964881897,6.29189586639404,6.29389667510986,6.29589891433716,6.29790163040161,6.29990673065186,6.30191230773926,6.30391931533813,6.30592775344849,6.30793714523315,6.3099479675293,6.31196022033691,6.31397390365601,6.31598854064941,6.3180046081543,6.3200216293335,6.32204055786133,6.32406044006348,6.3260817527771,6.32810401916504,6.33012771606445,6.33215284347534,6.33417892456055,6.33620691299438,6.33823585510254,6.34026622772217,6.34229755401611,6.34433031082153,6.34636497497559,6.3484001159668,6.35043716430664,6.3524751663208,6.35451459884644,6.35655498504639,6.35859727859497,6.36064052581787,6.36268520355225,6.3647313117981,6.36677837371826,6.36882734298706,6.37087678909302,6.37292814254761,6.37498044967651,6.37703466415405,6.37908983230591,6.38114643096924,6.38320398330688,6.38526344299316,6.38732385635376,6.38938570022583,6.39144897460938,6.39351320266724,6.39696884155273,6.40062427520752,6.40428352355957,6.40794706344604,6.41161441802979,6.41528654098511,6.4189624786377,6.42264270782471,6.42632722854614,6.430016040802,6.43370914459229,6.43740653991699,6.44110774993896,6.44481372833252,6.44852352142334,6.45223808288574,6.45595645904541,6.4596791267395,6.46340656280518,6.46713781356812,6.47087383270264,6.47461366653442,6.47835826873779,6.48210716247559,6.48585987091064,6.48961734771729,6.49337911605835,6.497145652771,6.50091600418091,6.50469064712524,6.50847005844116,6.5122537612915,6.51604175567627,6.51983451843262,6.52363109588623,6.52743244171143,6.5312385559082,6.53504848480225,6.53886318206787,6.54268264770508,6.54650592803955,6.55033397674561,6.55416679382324,6.55800342559814,6.56184530258179,6.5656909942627,6.56954193115234,6.57339668273926,6.57725620269775,6.58112049102783,6.58498907089233,6.58886241912842,6.59274005889893,6.59662246704102,6.60050916671753,6.60440063476562,6.6082968711853,6.6121973991394,6.61610269546509,6.62001276016235,6.62392711639404,6.62784624099731,6.63177013397217,6.6356987953186,6.63963174819946,6.6435694694519,6.64751195907593,6.65145921707153,6.65541076660156,6.65936756134033,6.66332864761353,6.6672945022583,6.67126512527466,6.6752405166626,6.68322086334229,6.69593858718872,6.70870447158813,6.72151899337769,6.73438262939453,6.74729585647583,6.76025867462158,6.77327108383179,6.78633403778076,6.79944705963135,6.81261110305786,6.8258261680603,6.83909273147583,6.85241079330444,6.86578130722046,6.87920331954956,6.89267826080322,6.90620613098145,6.91978740692139,6.93342208862305,6.94711065292358,6.960853099823,6.97464990615845,6.98850202560425,7.00240898132324,7.01637125015259,7.0303897857666,7.04446411132812,7.05859470367432,7.07278251647949,7.08702754974365,7.1013298034668,7.11568975448608,7.1364107131958,7.15728044509888,7.17827320098877,7.19938898086548,7.22062969207764,7.24199628829956,7.26348924636841,7.28511047363281,7.30686044692993,7.3287410736084,7.35075283050537,7.37289762496948,7.39517593383789,7.41758918762207,7.4401388168335,7.46282625198364,7.48565196990967,7.50861787796021,7.53172540664673,7.55497550964355,7.57836961746216,7.60190916061401,7.62559509277344,7.64942932128906,7.67341279983521,7.69754695892334,7.7218337059021,7.74627447128296,7.77087020874023,7.7956223487854,7.82053279876709,7.84560346603394,7.8708348274231,7.89622926712036,7.92178773880005,7.94751262664795,7.97340488433838,7.99946641921997,8.0256986618042,8.05210399627686,8.07868385314941,8.10543918609619,8.13237285614014,8.15948581695557,8.18677997589111,8.21425724029541,8.24192047119141,8.2697696685791,8.29780769348145,8.32603740692139,8.35445880889893,8.38307571411133,8.41188907623291,8.4409008026123,8.47011375427246,8.49952983856201,8.5935583114624,8.76634788513184,8.94622898101807,9.13364696502686,9.3290843963623,9.53304004669189,9.74604320526123,9.96878242492676,10.201940536499,10.3422498703003,10.3638334274292,10.3855075836182,10.4072723388672,10.4561033248901,10.5422763824463,10.6298789978027,10.7107086181641,10.7871885299683,10.8647680282593
6.11541843414307,6.11730861663818,6.11919927597046,6.12109184265137,6.12298488616943,6.12487983703613,6.12677574157715,6.12867307662964,6.13057088851929,6.13247060775757,6.13437128067017,6.13627290725708,6.13817596435547,6.14007949829102,6.1419849395752,6.14389133453369,6.14579916000366,6.14770793914795,6.14961814880371,6.15152931213379,6.15344142913818,6.15535545349121,6.1572699546814,6.15918588638306,6.16110277175903,6.16302156448364,6.16494131088257,6.16686153411865,6.16878366470337,6.1707067489624,6.17263126373291,6.17455673217773,6.17648363113403,6.17841148376465,6.18034029006958,6.18227100372314,6.18420267105103,6.18613529205322,6.18806934356689,6.19000434875488,6.19194078445435,6.19387865066528,6.19581747055054,6.19775724411011,6.19969844818115,6.20164108276367,6.20358467102051,6.20552968978882,6.20747566223145,6.20942306518555,6.21137189865112,6.21332120895386,6.21527242660522,6.21722459793091,6.21917819976807,6.22113275527954,6.22308874130249,6.22504615783691,6.2270040512085,6.22896385192871,6.23092460632324,6.23288679122925,6.23485040664673,6.23681449890137,6.23878049850464,6.24074745178223,6.24271583557129,6.24468564987183,6.24665641784668,6.24862813949585,6.25060129165649,6.25257587432861,6.25455141067505,6.25652885437012,6.25850677490234,6.2604866027832,6.26246690750122,6.26444911956787,6.26643228530884,6.26841688156128,6.2704029083252,6.27238988876343,6.27437829971313,6.27636766433716,6.27835845947266,6.28035020828247,6.28234386444092,6.28433847427368,6.28633451461792,6.28833150863647,6.2903299331665,6.29232978820801,6.29433059692383,6.29633283615112,6.29833602905273,6.30034112930298,6.30234670639038,6.30435466766357,6.30636310577393,6.30837297439575,6.31038427352905,6.31239652633667,6.31441020965576,6.31642532348633,6.31844186782837,6.32045936584473,6.32247829437256,6.32449817657471,6.32651996612549,6.32854270935059,6.33056640625,6.33259201049805,6.33461856842041,6.33664655685425,6.33867597579956,6.34070634841919,6.34273815155029,6.34477138519287,6.34680604934692,6.34884166717529,6.35087871551514,6.35291719436646,6.35495662689209,6.3569974899292,6.35903978347778,6.36108350753784,6.36312866210938,6.36517477035522,6.36722230911255,6.37031364440918,6.37393808364868,6.37756681442261,6.38119983673096,6.38483715057373,6.38847827911377,6.39212369918823,6.39577341079712,6.39942693710327,6.40308523178101,6.40674734115601,6.41041326522827,6.41408395767212,6.41775894165039,6.42143774032593,6.42512083053589,6.42880821228027,6.43249988555908,6.43619585037231,6.43989562988281,6.44360017776489,6.44730854034424,6.45102167129517,6.45473861694336,6.45846033096313,6.46218585968018,6.4659161567688,6.46965026855469,6.47338914871216,6.47713184356689,6.48087930679321,6.48463106155396,6.48838710784912,6.49214744567871,6.49591207504272,6.49968147277832,6.50345468521118,6.50723266601562,6.51101493835449,6.51480150222778,6.5185923576355,6.52238798141479,6.52618789672852,6.52999210357666,6.53380107879639,6.53761434555054,6.54143190383911,6.54525375366211,6.54908037185669,6.55291175842285,6.55674695968628,6.56058740615845,6.56443166732788,6.5682806968689,6.57213449478149,6.57599258422852,6.57985496520996,6.58372211456299,6.5875940322876,6.59147024154663,6.59535121917725,6.59923648834229,6.60312652587891,6.60702085494995,6.61092042922974,6.61482381820679,6.61873245239258,6.62264537811279,6.62656307220459,6.63048553466797,6.63441228866577,6.63834381103516,6.64228010177612,6.64622116088867,6.65016651153564,6.65411710739136,6.65807199478149,6.66203165054321,6.66599607467651,6.67022085189819,6.68288898468018,6.69560480117798,6.70836973190308,6.72118282318115,6.73404550552368,6.74695730209351,6.75991868972778,6.77292966842651,6.78599119186401,6.79910326004028,6.81226587295532,6.82547950744629,6.83874464035034,6.85206174850464,6.86543035507202,6.87885141372681,6.89232492446899,6.90585136413574,6.91943120956421,6.93306446075439,6.94675159454346,6.9604926109314,6.97428798675537,6.9881386756897,7.00204420089722,7.01600503921509,7.03002214431763,7.04409503936768,7.05822420120239,7.07241058349609,7.08665370941162,7.10095453262329,7.1153130531311,7.12972974777222,7.14604473114014,7.16697120666504,7.18802070617676,7.20919418334961,7.23049306869507,7.25191783905029,7.27346992492676,7.29515027999878,7.31696081161499,7.33890199661255,7.36097478866577,7.38318109512329,7.40552186965942,7.42799806594849,7.45061111450195,7.4733624458313,7.49625301361084,7.51928424835205,7.54245758056641,7.56577396392822,7.58923482894897,7.61284208297729,7.63659620285034,7.66049909591675,7.68455266952515,7.7087574005127,7.73311471939087,7.75762701034546,7.78229475021362,7.80712032318115,7.83210420608521,7.85724925994873,7.88255548477173,7.90802574157715,7.93366098403931,7.95946311950684,7.98543357849121,8.01157379150391,8.03788566589355,8.06437206268311,8.09103202819824,8.11786937713623,8.1448860168457,8.17208290100098,8.19946098327637,8.22702407836914,8.25477313995361,8.28271007537842,8.31083583831787,8.33915424346924,8.36766529083252,8.39637279510498,8.42527770996094,8.45438289642334,8.4836893081665,8.52353572845459,8.6934928894043,8.87036609649658,9.05458641052246,9.24662017822266,9.44697570800781,9.65612983703613,9.87473201751709,10.103461265564,10.34303855896,10.4415626525879,10.4635629653931,10.4856567382812,10.5078439712524,10.5503606796265,10.6381015777588,10.7229566574097,10.7996120452881
6.10074758529663,6.10262870788574,6.10451078414917,6.10639381408691,6.10827875137329,6.11016416549683,6.11205101013184,6.11393880844116,6.11582803726196,6.11771821975708,6.11960935592651,6.12150192260742,6.1233959197998,6.1252908706665,6.12718677520752,6.12908411026001,6.13098287582397,6.1328821182251,6.13478326797485,6.13668489456177,6.13858842849731,6.14049243927002,6.14239835739136,6.14430522918701,6.14621257781982,6.14812183380127,6.15003204345703,6.15194368362427,6.15385627746582,6.15577030181885,6.15768480300903,6.15960121154785,6.16151905059814,6.1634373664856,6.16535758972168,6.16727828979492,6.16920042037964,6.17112398147583,6.17304849624634,6.17497396469116,6.17690134048462,6.17882966995239,6.18075895309448,6.18268966674805,6.18462133407593,6.18655443191528,6.18848848342896,6.1904239654541,6.19236087799072,6.19429874420166,6.19623756408691,6.19817781448364,6.20011949539185,6.20206212997437,6.20400619506836,6.20595121383667,6.20789766311646,6.20984554290771,6.21179437637329,6.21374416351318,6.21569538116455,6.21764850616455,6.21960163116455,6.22155666351318,6.22351264953613,6.22547054290771,6.22742891311646,6.22938871383667,6.23134994506836,6.23331212997437,6.235276222229,6.2372407913208,6.23920679092407,6.24117422103882,6.24314260482788,6.24511241912842,6.24708366394043,6.24905586242676,6.25102949142456,6.25300407409668,6.25498008728027,6.25695753097534,6.25893592834473,6.26091575622559,6.26289653778076,6.26487874984741,6.26686239242554,6.26884746551514,6.27083349227905,6.27282047271729,6.27480936050415,6.27679920196533,6.27878999710083,6.28078269958496,6.28277587890625,6.28477096557617,6.28676700592041,6.28876447677612,6.29076337814331,6.29276323318481,6.29476451873779,6.29676723480225,6.29877090454102,6.3007755279541,6.30278205871582,6.30478954315186,6.30679845809937,6.30880880355835,6.31082010269165,6.31283283233643,6.31484699249268,6.31686210632324,6.31887865066528,6.3208966255188,6.32291603088379,6.32493686676025,6.32695817947388,6.32898139953613,6.33100557327271,6.33303117752075,6.33505821228027,6.33708620071411,6.33911609649658,6.34114646911621,6.34387922286987,6.34747409820557,6.35107278823853,6.35467529296875,6.35828256607056,6.36189365386963,6.36550855636597,6.36912775039673,6.37275123596191,6.37637853622437,6.3800106048584,6.38364601135254,6.38728618621826,6.39093017578125,6.39457845687866,6.39823055267334,6.4018874168396,6.40554809570312,6.40921306610107,6.41288185119629,6.41655540466309,6.42023277282715,6.42391490936279,6.4276008605957,6.43129110336304,6.43498516082764,6.43868398666382,6.44238710403442,6.44609403610229,6.44980573654175,6.45352172851562,6.45724153518677,6.46096611022949,6.46469449996948,6.46842765808105,6.47216463088989,6.47590637207031,6.47965240478516,6.48340225219727,6.48715686798096,6.49091577529907,6.49467945098877,6.49844694137573,6.50221920013428,6.50599527359009,6.50977611541748,6.5135612487793,6.5173511505127,6.52114486694336,6.52494335174561,6.52874660491943,6.53255367279053,6.5363655090332,6.5401816368103,6.54400253295898,6.54782724380493,6.55165719985962,6.55549097061157,6.55932950973511,6.56317281723022,6.56702041625977,6.57087230682373,6.57472896575928,6.57859039306641,6.58245611190796,6.58632612228394,6.59020090103149,6.59408044815063,6.5979642868042,6.60185241699219,6.60574579238892,6.60964345932007,6.6135458946228,6.61745262145996,6.6213641166687,6.62528038024902,6.62920093536377,6.6331262588501,6.63705635070801,6.6409912109375,6.64493036270142,6.64887475967407,6.65282344818115,6.65677690505981,6.6607346534729,6.6698899269104,6.68255662918091,6.69527149200439,6.70803499221802,6.72084712982178,6.73370790481567,6.74661874771118,6.75957870483398,6.7725887298584,6.78564882278442,6.79875946044922,6.81192064285278,6.82513332366943,6.83839702606201,6.85171222686768,6.86507987976074,6.87849950790405,6.89197158813477,6.90549659729004,6.91907501220703,6.93270683288574,6.94639253616333,6.96013212203979,6.97392654418945,6.98777532577515,7.00167942047119,7.01563882827759,7.02965450286865,7.04372549057007,7.05785369873047,7.07203817367554,7.08627986907959,7.10057926177979,7.11493635177612,7.12935161590576,7.14382553100586,7.15835809707642,7.1766881942749,7.19779491424561,7.2190260887146,7.2403826713562,7.26186656951904,7.28347778320312,7.30521821975708,7.32708883285522,7.34909105300903,7.37122535705566,7.39349365234375,7.41589689254761,7.43843650817871,7.46111297607422,7.48392868041992,7.50688409805298,7.52998065948486,7.55322027206421,7.57660293579102,7.60013151168823,7.62380647659302,7.64762926101685,7.67160177230835,7.69572496414185,7.71999979019165,7.74442863464355,7.76901292800903,7.79375314712524,7.81865167617798,7.84370994567871,7.86892938613892,7.89431142807007,7.91985750198364,7.94556999206543,7.97144937515259,7.99749851226807,8.02371788024902,8.05010986328125,8.07667636871338,8.10341835021973,8.13033866882324,8.15743827819824,8.18471813201904,8.21218204498291,8.23983097076416,8.26766586303711,8.29569053649902,8.3239049911499,8.3523120880127,8.38091468811035,8.40971279144287,8.43871021270752,8.46790790557861,8.49730777740479,8.62183952331543,8.79578018188477,8.97688293457031,9.16560077667236,9.36242294311523,9.56786060333252,9.78244018554688,10.0068655014038,10.241828918457,10.4880924224854,10.5428018569946,10.5652313232422,10.5877571105957,10.6103792190552,10.646333694458,10.7352333068848
6.08614730834961,6.08801937103271,6.08989238739014,6.09176683425903,6.09364223480225,6.09551858901978,6.09739637374878,6.0992751121521,6.10115528106689,6.10303640365601,6.10491895675659,6.10680246353149,6.10868740081787,6.11057281494141,6.11245965957642,6.11434841156006,6.11623764038086,6.11812829971313,6.12001943588257,6.12191247940063,6.12380647659302,6.12570190429688,6.12759828567505,6.12949562072754,6.1313943862915,6.13329410552979,6.13519525527954,6.13709735870361,6.13900136947632,6.14090538024902,6.14281129837036,6.14471864700317,6.1466269493103,6.14853620529175,6.15044641494751,6.15235805511475,6.1542706489563,6.15618515014648,6.15810060501099,6.1600170135498,6.1619348526001,6.16385364532471,6.16577386856079,6.16769504547119,6.16961717605591,6.17154121398926,6.17346572875977,6.17539167404175,6.17731904983521,6.17924785614014,6.18117713928223,6.18310832977295,6.18503999710083,6.18697357177734,6.18890810012817,6.19084358215332,6.19278049468994,6.19471883773804,6.19665813446045,6.19859886169434,6.20054054260254,6.20248365402222,6.20442771911621,6.20637321472168,6.20832014083862,6.21026754379272,6.21221685409546,6.21416711807251,6.21611881256104,6.21807146072388,6.22002553939819,6.22198057174683,6.22393703460693,6.22589492797852,6.22785377502441,6.22981405258179,6.23177528381348,6.23373794555664,6.23570203781128,6.23766660690308,6.23963308334351,6.24160099029541,6.24356985092163,6.24553966522217,6.24751091003418,6.24948358535767,6.25145721435547,6.25343227386475,6.2554087638855,6.25738620758057,6.25936508178711,6.26134490966797,6.2633261680603,6.26530885696411,6.26729249954224,6.26927757263184,6.27126407623291,6.2732515335083,6.27524042129517,6.27723026275635,6.27922201156616,6.28121471405029,6.28320837020874,6.28520345687866,6.28719997406006,6.28919792175293,6.29119682312012,6.29319715499878,6.29519844055176,6.29720115661621,6.29920530319214,6.30121040344238,6.30321741104126,6.30522489547729,6.30723428726196,6.30924463272095,6.31125640869141,6.31326961517334,6.31528377532959,6.31766366958618,6.32122850418091,6.32479763031006,6.32837057113647,6.33194780349731,6.33552885055542,6.33911418914795,6.34270334243774,6.34629678726196,6.34989404678345,6.35349559783936,6.35710144042969,6.36071109771729,6.36432504653931,6.36794281005859,6.3715648651123,6.37519073486328,6.37882137298584,6.38245534896851,6.38609409332275,6.38973665237427,6.39338350296021,6.39703464508057,6.40069007873535,6.4043493270874,6.40801286697388,6.41168069839478,6.41535234451294,6.41902875900269,6.4227089881897,6.42639350891113,6.43008232116699,6.43377542495728,6.43747282028198,6.44117450714111,6.44488048553467,6.44859027862549,6.45230484008789,6.45602321624756,6.45974636077881,6.46347332000732,6.46720504760742,6.47094106674194,6.47468090057373,6.4784255027771,6.48217439651489,6.48592758178711,6.48968505859375,6.49344682693481,6.49721336364746,6.50098371505737,6.50475883483887,6.50853824615479,6.51232194900513,6.51610994338989,6.51990270614624,6.52369976043701,6.52750110626221,6.53130674362183,6.53511714935303,6.53893184661865,6.54275131225586,6.54657506942749,6.55040311813354,6.55423545837402,6.55807256698608,6.56191444396973,6.56576061248779,6.56961107254028,6.57346630096436,6.57732582092285,6.58119010925293,6.58505868911743,6.58893203735352,6.59280967712402,6.59669208526611,6.60057926177979,6.60447072982788,6.60836696624756,6.61226797103882,6.6161732673645,6.62008333206177,6.62399768829346,6.62791681289673,6.63184070587158,6.63576936721802,6.63970279693604,6.64364051818848,6.6475830078125,6.65153026580811,6.65694141387939,6.66955900192261,6.68222427368164,6.69493818283081,6.70770025253296,6.72051095962524,6.73337078094482,6.7462797164917,6.75923871994019,6.77224731445312,6.78530597686768,6.79841566085815,6.81157541275024,6.82478666305542,6.83804893493652,6.85136318206787,6.8647289276123,6.8781476020813,6.89161825180054,6.90514183044434,6.91871881484985,6.93234920501709,6.9460334777832,6.95977163314819,6.97356462478638,6.9874119758606,7.00131464004517,7.01527261734009,7.02928686141968,7.04335641860962,7.05748319625854,7.07166624069214,7.08590650558472,7.10020446777344,7.11455965042114,7.12897348403931,7.14344596862793,7.15797710418701,7.17256736755371,7.18721723556519,7.20759582519531,7.22888469696045,7.25029993057251,7.27184247970581,7.29351377487183,7.31531381607056,7.33724498748779,7.35930824279785,7.38150453567505,7.4038348197937,7.42630100250244,7.44890356063843,7.47164440155029,7.49452447891235,7.51754522323608,7.5407075881958,7.56401348114014,7.58746337890625,7.61105966567993,7.63480234146118,7.65869426727295,7.68273639678955,7.7069296836853,7.73127555847168,7.75577592849731,7.78043222427368,7.8052453994751,7.83021783828735,7.85535001754761,7.88064479827881,7.90610218048096,7.931725025177,7.95751476287842,7.98347234725952,8.00959968566895,8.03589916229248,8.06237125396729,8.08901882171631,8.11584281921387,8.14284515380859,8.17002868652344,8.1973934173584,8.22494220733643,8.25267696380615,8.28059959411621,8.30871200561523,8.33701515197754,8.36551189422607,8.39420509338379,8.42309474945068,8.45218467712402,8.48147583007812,8.55135726928711,8.72243690490723,8.90050220489502,9.08598804473877,9.27937126159668,9.48116397857666,9.69185733795166,9.91209888458252,10.1425819396973,10.3840398788452,10.6232481002808,10.6460227966309,10.6688938140869,10.6918649673462,10.7149343490601
6.07161664962769,6.07347965240479,6.07534408569336,6.07720947265625,6.07907581329346,6.08094358444214,6.08281230926514,6.08468198776245,6.08655309677124,6.0884256362915,6.09029865264893,6.09217309951782,6.09404897689819,6.09592580795288,6.09780359268188,6.09968280792236,6.10156297683716,6.10344457626343,6.10532712936401,6.10721111297607,6.10909557342529,6.11098194122314,6.11286926269531,6.1147575378418,6.11664724349976,6.11853790283203,6.12042951583862,6.12232303619385,6.12421703338623,6.12611293792725,6.12800931930542,6.12990713119507,6.13180637359619,6.13370609283447,6.13560771942139,6.13750982284546,6.13941383361816,6.14131879806519,6.14322471618652,6.14513206481934,6.14704036712646,6.14895009994507,6.15086078643799,6.15277290344238,6.15468597412109,6.15659999847412,6.15851545333862,6.1604323387146,6.16235065460205,6.16426944732666,6.1661901473999,6.1681113243103,6.17003440856934,6.17195796966553,6.17388343811035,6.17580938339233,6.17773723602295,6.17966604232788,6.18159580230713,6.18352699279785,6.18545913696289,6.1873927116394,6.18932771682739,6.1912636756897,6.19320058822632,6.19513893127441,6.19707870483398,6.19901943206787,6.20096158981323,6.20290470123291,6.20484924316406,6.20679521560669,6.20874214172363,6.21069002151489,6.21263933181763,6.21459007263184,6.21654176712036,6.21849489212036,6.22044897079468,6.22240495681763,6.22436141967773,6.22631931304932,6.22827863693237,6.23023891448975,6.23220062255859,6.23416328430176,6.23612785339355,6.23809289932251,6.2400598526001,6.24202728271484,6.24399662017822,6.24596691131592,6.24793863296509,6.24991130828857,6.25188541412354,6.25386047363281,6.25583696365356,6.25781488418579,6.25979423522949,6.26177453994751,6.26375579833984,6.26573848724365,6.26772308349609,6.26970815658569,6.27169513702393,6.27368259429932,6.27567195892334,6.27766227722168,6.27965402603149,6.28164672851562,6.28364086151123,6.28563642501831,6.28763294219971,6.28963088989258,6.291663646698,6.29519939422607,6.29873895645142,6.30228281021118,6.30583047866821,6.30938196182251,6.31293773651123,6.31649732589722,6.32006120681763,6.3236289024353,6.32720041275024,6.33077621459961,6.3343563079834,6.33794021606445,6.34152793884277,6.34511995315552,6.34871625900269,6.35231637954712,6.35592079162598,6.3595290184021,6.36314153671265,6.36675786972046,6.3703784942627,6.37400341033936,6.37763214111328,6.38126564025879,6.3849024772644,6.3885440826416,6.39218950271606,6.39583921432495,6.3994927406311,6.40315103530884,6.40681314468384,6.41047954559326,6.41415023803711,6.41782474517822,6.42150402069092,6.42518711090088,6.42887449264526,6.43256616592407,6.4362621307373,6.43996238708496,6.44366693496704,6.44737529754639,6.45108842849731,6.45480585098267,6.45852708816528,6.46225309371948,6.46598291397095,6.46971750259399,6.47345638275146,6.47719955444336,6.48094701766968,6.48469877243042,6.48845481872559,6.49221515655518,6.49597978591919,6.49974918365479,6.50352239608765,6.50730037689209,6.51108312606812,6.51486968994141,6.51866054534912,6.52245616912842,6.52625608444214,6.53006076812744,6.53386974334717,6.53768301010132,6.54150056838989,6.54532289505005,6.54914951324463,6.55298042297363,6.55681610107422,6.56065654754639,6.56450080871582,6.56835031509399,6.57220363616943,6.57606172561646,6.57992458343506,6.58379173278809,6.5876636505127,6.59153985977173,6.59542083740234,6.59930658340454,6.60319662094116,6.60709095001221,6.61099052429199,6.6148943901062,6.61880254745483,6.62271595001221,6.626633644104,6.63055610656738,6.63448286056519,6.63841485977173,6.6423511505127,6.64629173278809,6.65661191940308,6.66922807693481,6.68189191818237,6.69460439682007,6.7073655128479,6.72017478942871,6.73303365707397,6.74594116210938,6.75889873504639,6.77190637588501,6.78496360778809,6.79807186126709,6.81123018264771,6.82444000244141,6.83770132064819,6.85101413726807,6.86437845230103,6.87779569625854,6.89126491546631,6.90478706359863,6.91836261749268,6.93199157714844,6.94567441940308,6.95941162109375,6.9732027053833,6.98704862594604,7.0009503364563,7.01490688323975,7.0289192199707,7.04298734664917,7.05711269378662,7.07129430770874,7.08553314208984,7.09982919692993,7.11418342590332,7.12859535217285,7.14306640625,7.15759563446045,7.17218446731567,7.18683290481567,7.20154142379761,7.21742343902588,7.23877048492432,7.26024436950684,7.28184604644775,7.30357694625854,7.32543754577637,7.34742975234985,7.36955404281616,7.39181232452393,7.4142050743103,7.43673419952393,7.45940065383911,7.48220586776733,7.50515079498291,7.52823686599731,7.55146503448486,7.57483720779419,7.59835481643677,7.62201881408691,7.6458306312561,7.66979169845581,7.69390296936035,7.71816682815552,7.74258422851562,7.76715612411499,7.7918848991394,7.81677150726318,7.84181785583496,7.86702489852905,7.89239454269409,7.91792869567871,7.94362831115723,7.96949529647827,7.99553108215332,8.02173805236816,8.04811668395996,8.07466983795166,8.10139846801758,8.12830543518066,8.15539073944092,8.18265819549561,8.21010780334473,8.23774242401123,8.26556396484375,8.2935733795166,8.32177352905273,8.35016632080078,8.37875366210938,8.40753746032715,8.43651962280273,8.46570205688477,8.49508666992188,8.65030670166016,8.82540988922119,9.00774765014648,9.19777870178223,9.39600086212158,9.60293674468994,9.81910991668701,10.0452404022217,10.2820310592651,10.530255317688,10.7280588150024,10.7512845993042,10.7746114730835
6.05715560913086,6.05900955200195,6.06086492538452,6.06272125244141,6.06457901000977,6.06643772125244,6.06829738616943,6.0701584815979,6.07202053070068,6.07388401031494,6.07574844360352,6.07761383056641,6.07948064804077,6.08134841918945,6.08321714401245,6.08508777618408,6.08695840835571,6.08883142471313,6.09070491790771,6.09257936477661,6.09445571899414,6.09633255004883,6.09821081161499,6.10009002685547,6.10197114944458,6.10385227203369,6.10573530197144,6.1076192855835,6.10950469970703,6.11139106750488,6.11327838897705,6.11516714096069,6.11705684661865,6.11894798278809,6.12084007263184,6.12273359298706,6.1246280670166,6.12652349472046,6.12842035293579,6.1303186416626,6.13221788406372,6.13411808013916,6.13602018356323,6.13792276382446,6.13982677459717,6.14173173904419,6.14363813400269,6.1455454826355,6.14745426177979,6.14936399459839,6.15127515792847,6.15318727493286,6.15510082244873,6.15701532363892,6.15893125534058,6.16084814071655,6.162766456604,6.16468572616577,6.16660642623901,6.16852807998657,6.17045116424561,6.17237520217896,6.17430067062378,6.17622756958008,6.17815542221069,6.18008422851562,6.18201398849487,6.18394565582275,6.18587827682495,6.18781232833862,6.18974733352661,6.19168329238892,6.1936206817627,6.19555950164795,6.19749927520752,6.19944047927856,6.20138263702393,6.20332622528076,6.20527076721191,6.20721673965454,6.20916414260864,6.21111297607422,6.21306228637695,6.21501302719116,6.21696519851685,6.21891832351685,6.22087287902832,6.22282886505127,6.22478580474854,6.22674369812012,6.22870349884033,6.23066425323486,6.23262596130371,6.23458909988403,6.23655366897583,6.23851919174194,6.24048614501953,6.24245405197144,6.24442338943481,6.24639415740967,6.24836587905884,6.25033903121948,6.2523136138916,6.25428915023804,6.25626564025879,6.25824403762817,6.26022338867188,6.26220369338989,6.26418590545654,6.26616859436035,6.26938343048096,6.27289390563965,6.27640867233276,6.27992725372314,6.28345012664795,6.28697633743286,6.2905068397522,6.2940411567688,6.29757976531982,6.30112218856812,6.30466842651367,6.30821895599365,6.3117733001709,6.31533193588257,6.31889390945435,6.32246065139771,6.32603120803833,6.32960557937622,6.33318376541138,6.33676671981812,6.34035301208496,6.34394407272339,6.34753847122192,6.35113763809204,6.35474014282227,6.35834741592407,6.36195850372314,6.36557388305664,6.3691930770874,6.37281656265259,6.37644386291504,6.38007593154907,6.38371133804321,6.38735151290894,6.39099550247192,6.39464378356934,6.39829635620117,6.40195322036743,6.40561389923096,6.40927886962891,6.41294813156128,6.41662168502808,6.42029905319214,6.42398118972778,6.42766714096069,6.43135738372803,6.43505191802979,6.43875074386597,6.44245386123657,6.44616079330444,6.4498724937439,6.45358848571777,6.45730829238892,6.46103286743164,6.46476173400879,6.4684944152832,6.4722318649292,6.47597360610962,6.47971963882446,6.48346996307373,6.48722457885742,6.49098348617554,6.49474716186523,6.4985146522522,6.50228691101074,6.50606346130371,6.5098443031311,6.51362943649292,6.51741933822632,6.52121353149414,6.52501201629639,6.52881479263306,6.53262233734131,6.53643417358398,6.54025030136108,6.54407119750977,6.54789638519287,6.5517258644104,6.55556011199951,6.55939865112305,6.56324195861816,6.56708955764771,6.57094192504883,6.57479858398438,6.57865953445435,6.5825252532959,6.58639574050903,6.59027051925659,6.59415006637573,6.5980339050293,6.60192251205444,6.60581588745117,6.60971355438232,6.61361598968506,6.61752271652222,6.62143421173096,6.62535047531128,6.62927150726318,6.63319683074951,6.63712692260742,6.64371490478516,6.6562819480896,6.66889715194702,6.68156003952026,6.69427108764648,6.70703077316284,6.71983909606934,6.73269605636597,6.74560260772705,6.75855922698975,6.77156496047974,6.7846212387085,6.79772806167603,6.81088542938232,6.82409381866455,6.83735322952271,6.8506646156311,6.86402797698975,6.87744379043579,6.89091157913208,6.90443277359009,6.91800689697266,6.93163442611694,6.94531583786011,6.95905113220215,6.97284078598022,6.98668575286865,7.00058555603027,7.01454067230225,7.02855157852173,7.04261875152588,7.0567421913147,7.07092237472534,7.08515930175781,7.09945440292358,7.11380672454834,7.12821769714355,7.14268684387207,7.15721464157104,7.17180204391479,7.18644905090332,7.20115566253662,7.21592283248901,7.2307505607605,7.24868297576904,7.27021598815918,7.29187726974487,7.3136682510376,7.33558940887451,7.35764265060425,7.37982892990112,7.40214872360229,7.42460441589355,7.44719696044922,7.46992778778076,7.49279689788818,7.51580715179443,7.53895854949951,7.56225347518921,7.58569240570068,7.60927772521973,7.6330099105835,7.65689039230347,7.68092060089111,7.70510244369507,7.72943687438965,7.75392580032349,7.7785701751709,7.80337142944336,7.82833194732666,7.85345220565796,7.87873411178589,7.90418004989624,7.92979001998901,7.95556688308716,7.98151206970215,8.0076265335083,8.03391265869141,8.0603723526001,8.08700656890869,8.11381721496582,8.14080619812012,8.16797542572021,8.19532680511475,8.22286128997803,8.25058269500732,8.27849102020264,8.3065881729126,8.33487701416016,8.36335945129395,8.3920373916626,8.42091274261475,8.44998741149902,8.47926330566406,8.57936000823975,8.75157356262207,8.93084239959717,9.11760902404785,9.31235408782959,9.51560020446777,9.72784996032715,9.94974899291992,10.1820068359375,10.425368309021,10.6806468963623,10.9471788406372
6.04276275634766,6.0446081161499,6.04645442962646,6.0483021736145,6.05015087127686,6.05200099945068,6.05385160446167,6.05570363998413,6.05755710601807,6.05941152572632,6.06126737594604,6.06312370300293,6.06498193740845,6.06684064865112,6.06870079040527,6.07056188583374,6.07242441177368,6.07428789138794,6.07615232467651,6.07801866531372,6.07988548278809,6.08175325393677,6.08362245559692,6.08549308776855,6.0873646736145,6.08923721313477,6.0911111831665,6.09298610687256,6.09486246109009,6.09673976898193,6.0986180305481,6.10049772262573,6.10237884521484,6.10426044464111,6.10614395141602,6.10802793502808,6.10991334915161,6.11180019378662,6.11368751525879,6.11557674407959,6.11746692657471,6.11935806274414,6.12125015258789,6.12314414978027,6.12503910064697,6.12693500518799,6.12883186340332,6.13073015213013,6.13262987136841,6.13453054428101,6.13643217086792,6.13833522796631,6.14023923873901,6.14214515686035,6.14405155181885,6.14595937728882,6.14786815643311,6.14977788925171,6.15168952941895,6.1536021232605,6.15551567077637,6.15743064880371,6.15934658050537,6.16126394271851,6.16318225860596,6.16510200500488,6.16702318191528,6.16894483566284,6.17086839675903,6.17279243469238,6.17471837997437,6.17664527893066,6.17857313156128,6.18050241470337,6.18243265151978,6.18436479568481,6.18629741668701,6.18823146820068,6.19016647338867,6.19210338592529,6.19404125213623,6.19598007202148,6.19791984558105,6.19986152648926,6.20180368423462,6.20374727249146,6.20569276809692,6.20763874053955,6.20958662033081,6.21153497695923,6.21348524093628,6.21543598175049,6.21738862991333,6.21934223175049,6.22129678726196,6.22325277328491,6.22520971298218,6.22716856002808,6.22912836074829,6.23108911514282,6.23305130004883,6.23501491546631,6.23697948455811,6.23894548416138,6.24091243743896,6.24377870559692,6.24726057052612,6.25074672698975,6.25423669815063,6.25773048400879,6.26122808456421,6.26472949981689,6.268235206604,6.27174425125122,6.27525806427002,6.27877521514893,6.2822961807251,6.28582191467285,6.28935098648071,6.29288387298584,6.29642105102539,6.29996204376221,6.30350732803345,6.30705642700195,6.31060934066772,6.31416654586792,6.31772756576538,6.32129287719727,6.32486200332642,6.32843494415283,6.33201217651367,6.33559322357178,6.33917856216431,6.34276819229126,6.34636163711548,6.34995889663696,6.35356044769287,6.3571662902832,6.3607759475708,6.36438989639282,6.36800765991211,6.37162971496582,6.37525606155396,6.37888669967651,6.38252115249634,6.38615942001343,6.3898024559021,6.39344930648804,6.3971004486084,6.40075540542603,6.40441513061523,6.40807867050171,6.41174650192261,6.41541862487793,6.41909503936768,6.42277526855469,6.42645978927612,6.43014907836914,6.43384218215942,6.43753957748413,6.44124126434326,6.44494676589966,6.44865703582764,6.45237159729004,6.45609045028687,6.45981311798096,6.46354055404663,6.46727228164673,6.47100830078125,6.4747486114502,6.47849321365356,6.48224210739136,6.48599529266357,6.48975276947021,6.49351453781128,6.49728107452393,6.501051902771,6.50482654571533,6.50860643386841,6.51239013671875,6.51617813110352,6.51997089385986,6.52376794815063,6.52756977081299,6.53137540817261,6.53518581390381,6.53900051116943,6.54281997680664,6.54664373397827,6.55047178268433,6.55430459976196,6.55814170837402,6.56198358535767,6.56582975387573,6.56968021392822,6.57353544235229,6.57739543914795,6.58125972747803,6.58512830734253,6.58900165557861,6.59287977218628,6.59676218032837,6.60064935684204,6.60454082489014,6.60843706130981,6.61233806610107,6.61624336242676,6.62015342712402,6.62406826019287,6.62798738479614,6.63191175460815,6.64338636398315,6.65595245361328,6.66856622695923,6.681227684021,6.6939377784729,6.70669603347778,6.7195029258728,6.73235893249512,6.74526453018188,6.75821924209595,6.77122402191162,6.78427886962891,6.79738426208496,6.81054019927979,6.82374715805054,6.83700561523438,6.8503155708313,6.86367750167847,6.87709188461304,6.89055824279785,6.90407800674438,6.91765069961548,6.93127679824829,6.94495677947998,6.95869064331055,6.97247934341431,6.9863224029541,7.00022077560425,7.01417446136475,7.02818393707275,7.04224967956543,7.05637168884277,7.07055044174194,7.08478593826294,7.09907913208008,7.11343050003052,7.1278395652771,7.14230728149414,7.15683364868164,7.17141914367676,7.18606472015381,7.20076990127563,7.21553564071655,7.2303614616394,7.24524879455566,7.26019763946533,7.2802152633667,7.30193614959717,7.32378721237183,7.34576940536499,7.36788368225098,7.39013195037842,7.41251420974731,7.43503332138062,7.45768928527832,7.48048400878906,7.50341796875,7.52649354934692,7.54971122741699,7.57307291030884,7.59657907485962,7.62023162841797,7.64403247833252,7.66798210144043,7.69208240509033,7.71633434295654,7.74074029922485,7.76530075073242,7.79001760482788,7.81489229202271,7.83992624282837,7.86512136459351,7.89047861099243,7.91600036621094,7.94168710708618,7.96754169464111,7.99356508255005,8.01975917816162,8.04612445831299,8.07266426086426,8.09938049316406,8.1262731552124,8.15334510803223,8.18059825897217,8.20803451538086,8.23565483093262,8.26346206665039,8.29145812988281,8.3196439743042,8.3480224609375,8.37659454345703,8.40536308288574,8.43432998657227,8.46349811553955,8.5095682144165,8.67896270751953,8.85523986816406,9.03882503509521,9.23018360137939,9.42982006072998,9.63827037811279,9.85605621337891,10.0839109420776,10.3225498199463,10.5727577209473
6.02843856811523,6.03027534484863,6.03211259841919,6.03395128250122,6.03579139709473,6.03763246536255,6.03947496414185,6.04131841659546,6.04316282272339,6.04500818252563,6.04685497283936,6.04870319366455,6.0505518913269,6.05240201950073,6.05425310134888,6.0561056137085,6.05795907974243,6.05981349945068,6.06166934967041,6.06352663040161,6.06538486480713,6.0672435760498,6.06910419464111,6.07096576690674,6.07282829284668,6.0746922492981,6.07655668258667,6.07842302322388,6.08028984069824,6.08215856552124,6.0840277671814,6.08589839935303,6.08777046203613,6.08964347839355,6.09151744842529,6.09339284896851,6.09526920318604,6.09714651107788,6.09902572631836,6.100905418396,6.10278654098511,6.10466909408569,6.10655212402344,6.10843658447266,6.11032199859619,6.11220932006836,6.11409711837769,6.11598634719849,6.1178765296936,6.1197681427002,6.1216607093811,6.12355470657349,6.12544965744019,6.1273455619812,6.12924337387085,6.13114166259766,6.1330418586731,6.13494253158569,6.13684463500977,6.13874816894531,6.14065217971802,6.14255809783936,6.14446496963501,6.14637279510498,6.14828205108643,6.15019273757935,6.15210390090942,6.15401697158813,6.155930519104,6.15784597396851,6.15976238250732,6.16167974472046,6.16359806060791,6.16551828384399,6.16743946075439,6.16936159133911,6.1712851524353,6.17321014404297,6.17513561248779,6.17706298828125,6.17899131774902,6.18092107772827,6.18285131454468,6.18478345870972,6.18671607971191,6.18865060806274,6.19058656692505,6.19252300262451,6.19446134567261,6.19640016555786,6.19834041595459,6.20028209686279,6.20222520828247,6.20416927337646,6.20611476898193,6.20806121826172,6.21000862121582,6.2119574546814,6.21390771865845,6.21585941314697,6.21838188171387,6.22183561325073,6.22529315948486,6.22875499725342,6.23222017288208,6.23568964004517,6.23916244506836,6.24263954162598,6.24612045288086,6.24960517883301,6.25309371948242,6.2565860748291,6.26008272171021,6.26358270645142,6.26708698272705,6.27059507369995,6.27410745620728,6.27762317657471,6.28114318847656,6.28466749191284,6.28819513320923,6.29172706604004,6.29526281356812,6.29880237579346,6.30234622955322,6.30589437484741,6.30944585800171,6.31300163269043,6.31656122207642,6.32012510299683,6.32369327545166,6.3272647857666,6.33084058761597,6.33442068099976,6.33800458908081,6.34159278869629,6.34518480300903,6.3487811088562,6.35238122940063,6.35598564147949,6.35959386825562,6.36320638656616,6.36682319641113,6.37044382095337,6.37406873703003,6.37769746780396,6.38133096694946,6.38496780395508,6.38860940933228,6.3922553062439,6.39590501785278,6.39955854415894,6.40321683883667,6.40687894821167,6.41054534912109,6.41421604156494,6.41789102554321,6.42157030105591,6.42525339126587,6.42894077301025,6.43263292312622,6.43632888793945,6.44002914428711,6.44373321533203,6.44744205474854,6.45115518569946,6.45487260818481,6.45859432220459,6.46231985092163,6.46605014801025,6.4697847366333,6.47352361679077,6.47726678848267,6.48101425170898,6.48476600646973,6.48852205276489,6.49228286743164,6.49604749679565,6.49981689453125,6.50359058380127,6.50736856460571,6.51115083694458,6.51493787765503,6.5187292098999,6.5225248336792,6.52632474899292,6.53012895584106,6.53393793106079,6.5377516746521,6.54156923294067,6.54539155960083,6.54921817779541,6.55304956436157,6.55688524246216,6.56072521209717,6.56456995010376,6.56841945648193,6.57227325439453,6.57613134384155,6.57999420166016,6.58386135101318,6.58773326873779,6.59160995483398,6.5954909324646,6.59937620162964,6.60326671600342,6.60716152191162,6.61106061935425,6.61496448516846,6.61887311935425,6.62278652191162,6.63054037094116,6.64305782318115,6.65562295913696,6.66823530197144,6.68089580535889,6.69360446929932,6.70636129379272,6.71916723251343,6.73202180862427,6.74492597579956,6.75787925720215,6.77088260650635,6.78393650054932,6.7970404624939,6.81019496917725,6.82340097427368,6.83665800094604,6.84996652603149,6.86332702636719,6.87673997879028,6.89020538330078,6.90372323989868,6.9172945022583,6.93091917037964,6.94459772109985,6.9583306312561,6.97211742401123,6.98595952987671,6.99985647201538,7.0138087272644,7.02781677246094,7.04188060760498,7.05600118637085,7.07017850875854,7.08441257476807,7.09870433807373,7.11305379867554,7.12746143341064,7.14192771911621,7.15645265579224,7.17103672027588,7.1856803894043,7.20038414001465,7.21514797210693,7.22997283935547,7.2448582649231,7.25980567932129,7.27481460571289,7.29024219512939,7.31202268600464,7.33393430709839,7.3559775352478,7.3781533241272,7.40046358108521,7.42290925979614,7.44549131393433,7.46821117401123,7.49107027053833,7.51406955718994,7.53721046447754,7.5604944229126,7.58392286300659,7.60749673843384,7.63121747970581,7.65508699417114,7.67910623550415,7.70327663421631,7.72759962081909,7.75207662582397,7.77670907974243,7.8014988899231,7.82644701004028,7.85155534744263,7.8768253326416,7.90225791931152,7.92785596847534,7.95362043380737,7.97955226898193,8.00565433502197,8.03192710876465,8.05837345123291,8.08499431610107,8.11179256439209,8.13876819610596,8.16592311859131,8.19326114654541,8.22078227996826,8.2484884262085,8.27638244628906,8.30446624755859,8.33274078369141,8.36120891571045,8.38987159729004,8.41873168945312,8.44779109954834,8.47705173492432,8.60754776000977,8.78090572357178,8.96139049530029,9.14945125579834,9.34557342529297,9.5502872467041,9.76411056518555,9.98768615722656,10.2217397689819
