5.79198789596558,5.79510402679443,5.79822397232056,5.80134725570679,5.80447340011597,5.80760335922241,5.81073665618896,5.81387329101562,5.81701326370239,5.82015657424927,5.82330369949341,5.8264536857605,5.82960748672485,5.83276462554932,5.83592510223389,5.83908891677856,5.84225654602051,5.8454270362854,5.84860134124756,5.85177898406982,5.8549599647522,5.85814476013184,5.86133289337158,5.86452436447144,5.8677191734314,5.87091779708862,5.87411975860596,5.8773250579834,5.88053417205811,5.88374662399292,5.88696241378784,5.89018201828003,5.89340496063232,5.89663171768188,5.89986181259155,5.90309524536133,5.90633249282837,5.90957307815552,5.91281747817993,5.91606521606445,5.91931676864624,5.92257165908813,5.92583036422729,5.92909240722656,5.9323582649231,5.93562746047974,5.93890047073364,5.94217729568481,5.94545745849609,5.94874095916748,5.95202875137329,5.95531988143921,5.95861434936523,5.96464443206787,5.97507858276367,5.98554944992065,5.99605703353882,6.00660133361816,6.01718282699585,6.02780151367188,6.03845834732056,6.04915237426758,6.05988454818726,6.07065486907959,6.08146333694458,6.09231090545654,6.10319662094116,6.11412143707275,6.12508583068848,6.13608932495117,6.147132396698,6.15821552276611,6.16933822631836,6.18050146102905,6.19170522689819,6.20294952392578,6.21423482894897,6.22556161880493,6.23692941665649,6.24833869934082,6.25978994369507,6.27128314971924,6.28281879425049,6.29439687728882,6.30601787567139,6.31768178939819,6.32938861846924,6.34113931655884,6.35293340682983,6.36477136611938,6.37665414810181,6.38858079910278,6.40055227279663,6.41256904602051,6.42463064193726,6.43673753738403,6.44889068603516,6.46108913421631,6.47333431243896,6.48562622070312,6.49796438217163,6.5103497505188,6.52278232574463,6.53526258468628,6.54779100418091,6.56036710739136,6.57299184799194,6.58566522598267,6.59838724136353,6.61115884780884,6.6239800453186,6.63685083389282,6.64977169036865,6.66274309158325,6.67576551437378,6.68883848190308,6.70196294784546,6.71513891220093,6.72836685180664,6.74164724349976,6.75498008728027,6.76836538314819,6.78180408477783,6.79529619216919,6.80884218215942,6.82244253158569,6.83609676361084,6.84980630874634,6.86357021331787,6.87739038467407,6.89126586914062,6.90519762039185,6.91918563842773,6.93323040008545,6.94733285903931,6.96149206161499,6.97570943832397,6.98998498916626,7.004319190979,7.01871204376221,7.03316450119019,7.04767608642578,7.06224822998047,7.07688045501709,7.0915732383728,7.10632753372192,7.12114334106445,7.13602113723755,7.15096092224121,7.16596364974976,7.18102931976318,7.19615840911865,7.21135139465332,7.22660875320435,7.24193096160889,7.25731801986694,7.27277088165283,7.28828954696655,7.30387449264526,7.31952619552612,7.33524513244629,7.35103178024292,7.36688661575317,7.38281011581421,7.39880228042603,7.41486406326294,7.43099594116211,7.44719791412354,7.46347045898438,7.47981452941895,7.49623012542725,7.51271820068359,7.52927875518799,7.54591274261475,7.56262016296387,7.57940196990967,7.59625816345215,7.61318969726562,7.63019704818726,7.64559555053711,7.65418291091919,7.6627893447876,7.67141485214233,7.68006038665771,7.68872499465942,7.69740962982178,7.70611381530762,7.71483755111694,7.72358083724976,7.73234415054321,7.74112749099731,7.74993085861206,7.75875377655029,7.76759719848633,7.77646112442017,7.78534460067749,7.79424905776978,7.80317354202271,7.81211853027344,7.82359075546265,7.83619785308838,7.84884548187256,7.86153411865234,7.87426376342773,7.88703489303589,7.89984750747681,7.91270160675049,7.92559766769409,7.93853569030762,7.95151662826538,7.96453952789307,7.99614000320435,8.04308986663818,8.0905933380127,8.13866233825684,8.18730545043945,8.23653316497803,8.28635692596436,8.33678722381592,8.3878345489502,8.4395112991333,8.49182891845703,8.54479885101318,8.59843349456787,8.65274620056152,8.70774936676025,8.76345634460449,8.81988048553467,8.87703609466553,8.93493747711182,8.99359893798828,9.05303573608398,9.11326313018799,9.17429733276367,9.23615455627441,9.29885196685791,9.36240577697754,9.42683506011963,9.49215698242188,9.55838966369629,9.62530040740967,9.69268608093262,9.76102161407471,9.8303279876709,9.90062522888184,9.97193431854248,10.0442790985107,10.1176805496216,10.2096347808838,10.3362617492676,10.3555641174316,10.3745765686035,10.3936595916748,10.4128122329712,10.432035446167,10.4513301849365,10.4706964492798,10.4901342391968,10.5096445083618,10.5292272567749,10.5488834381104,10.5686130523682,10.5884160995483,10.6082944869995,10.6282472610474,10.6482753753662,10.6683788299561,10.6885585784912,10.7088146209717,10.7291479110718,10.7507724761963,10.7725887298584,10.7944927215576,10.8164873123169,10.8385705947876,10.8607444763184,10.8830089569092,10.9053649902344,10.9278135299683,10.9503545761108,10.9729890823364,10.9957160949707,11.0185384750366,11.0414562225342,11.0644683837891,11.0875768661499,11.110782623291,11.1340856552124,11.1574859619141,11.1809854507446,11.2045841217041,11.2282829284668,11.2520818710327,11.2759819030762,11.2999830245972,11.3240871429443,11.3482942581177,11.3726053237915,11.3970203399658,11.4215412139893,11.4461669921875,11.4708995819092,11.4957389831543,11.5206861495972,11.5457420349121,11.5709075927734,11.5961828231812,11.6215686798096,11.6470651626587,11.6677627563477,11.6677141189575
5.78474521636963,5.78785419464111,5.79096603393555,5.79408121109009,5.79720020294189,5.80032205581665,5.80344724655151,5.80657625198364,5.80970811843872,5.81284379959106,5.81598281860352,5.81912517547607,5.82227087020874,5.82541990280151,5.82857227325439,5.83172845840454,5.83488798141479,5.838050365448,5.84121656417847,5.8443865776062,5.84755945205688,5.85073614120483,5.85391616821289,5.85709953308105,5.86028623580933,5.86347675323486,5.86667060852051,5.86986780166626,5.87306880950928,5.8762731552124,5.87948083877563,5.88269233703613,5.88590717315674,5.88912534713745,5.89234733581543,5.89557266235352,5.89880180358887,5.90203380584717,5.90527009963989,5.90850973129272,5.91175270080566,5.91499948501587,5.91824960708618,5.92150354385376,5.92476081848145,5.9280219078064,5.93128633499146,5.93455457687378,5.93782615661621,5.94110155105591,5.94438076019287,5.94766330718994,5.95094966888428,5.95423936843872,5.9643816947937,5.97481489181519,5.98528480529785,5.9957914352417,6.00633478164673,6.0169153213501,6.02753305435181,6.03818893432617,6.04888200759888,6.05961322784424,6.07038259506226,6.08119010925293,6.09203672409058,6.10292148590088,6.11384534835815,6.12480878829956,6.13581132888794,6.14685344696045,6.15793514251709,6.16905736923218,6.18021965026855,6.19142198562622,6.20266532897949,6.21394968032837,6.22527503967285,6.2366418838501,6.24805021286011,6.25950050354004,6.27099275588989,6.28252744674683,6.29410409927368,6.30572414398193,6.31738662719727,6.32909250259399,6.34084224700928,6.35263538360596,6.36447238922119,6.37635374069214,6.3882794380188,6.40024948120117,6.41226482391357,6.42432546615601,6.43643140792847,6.44858312606812,6.46078109741211,6.47302484512329,6.48531532287598,6.49765253067017,6.51003646850586,6.52246809005737,6.53494739532471,6.5474739074707,6.56004905700684,6.57267236709595,6.58534479141235,6.5980658531189,6.61083602905273,6.62365579605103,6.63652563095093,6.64944505691528,6.66241550445557,6.67543649673462,6.68850803375244,6.70163106918335,6.7148060798645,6.72803258895874,6.74131155014038,6.75464296340942,6.76802682876587,6.78146457672119,6.79495525360107,6.80849981307983,6.82209825515747,6.8357515335083,6.84945964813232,6.86322259902954,6.87704086303711,6.89091491699219,6.90484523773193,6.91883182525635,6.93287515640259,6.94697618484497,6.96113395690918,6.97534990310669,6.9896240234375,7.00395679473877,7.0183482170105,7.03279876708984,7.04730939865112,7.06187963485718,7.07651042938232,7.09120178222656,7.10595464706421,7.12076902389526,7.13564491271973,7.15058326721191,7.16558408737183,7.18064832687378,7.19577598571777,7.21096754074097,7.22622299194336,7.24154329299927,7.25692892074585,7.27237987518311,7.28789710998535,7.30348014831543,7.31913042068481,7.33484792709351,7.3506326675415,7.36648559570312,7.38240718841553,7.39839792251587,7.41445779800415,7.43058776855469,7.44678783416748,7.46305894851685,7.47940111160278,7.49581527709961,7.51230144500732,7.52886009216309,7.54549217224121,7.56219816207886,7.57897758483887,7.59583234786987,7.61253976821899,7.62105274200439,7.62958478927612,7.63813591003418,7.64670658111572,7.65529632568359,7.66390514373779,7.67253351211548,7.68118143081665,7.68984889984131,7.69853544235229,7.70724201202393,7.7159686088562,7.72471475601196,7.73348045349121,7.7422661781311,7.7510724067688,7.75989818572998,7.76874399185181,7.77761030197144,7.78649663925171,7.79540348052979,7.80630302429199,7.81885433197021,7.83144617080688,7.844078540802,7.85675144195557,7.86946582794189,7.88222122192383,7.89501810073853,7.90785646438599,7.92073678970337,7.93365907669067,7.94662380218506,7.95963096618652,7.97863960266113,8.02538299560547,8.07267761230469,8.12053298950195,8.16895866394043,8.21796607971191,8.26756477355957,8.31776523590088,8.36857986450195,8.42001914978027,8.47209358215332,8.52481746673584,8.57820129394531,8.63225746154785,8.68699932098389,8.74244022369385,8.79859352111816,8.85547256469727,8.9130916595459,8.97146606445312,9.03060913085938,9.09053802490234,9.15126705169678,9.21281337738037,9.2751932144165,9.33842277526855,9.40252113342285,9.46750545501709,9.53339385986328,9.60020637512207,9.66796112060547,9.73668003082275,9.80636596679688,9.87631988525391,9.94727897644043,10.0192642211914,10.0922994613647,10.166407585144,10.2814111709595,10.3103818893433,10.3292284011841,10.34814453125,10.3671293258667,10.3861846923828,10.405309677124,10.4245052337646,10.443772315979,10.4631099700928,10.4825201034546,10.5020017623901,10.521556854248,10.5411834716797,10.5618839263916,10.5829391479492,10.6040782928467,10.625301361084,10.6466112136841,10.6680059432983,10.6894865036011,10.7110538482666,10.7327079772949,10.7544507980347,10.7762813568115,10.7982015609741,10.8202095031738,10.8423089981079,10.8644981384277,10.8867778778076,10.9091501235962,10.9316139221191,10.9541702270508,10.9768199920654,10.9995641708374,11.0224018096924,11.045334815979,11.0683641433716,11.0914888381958,11.1147108078003,11.1380300521851,11.1614475250244,11.1849641799927,11.2085790634155,11.2322950363159,11.2561101913452,11.2800273895264,11.3040466308594,11.3281679153442,11.3523921966553,11.3767213821411,11.4011545181274,11.4256925582886,11.4503364562988,11.4750871658325,11.4999446868896,11.5249099731445,11.5499839782715,11.5751676559448,11.5985279083252
5.77752113342285,5.78062200546265,5.78372621536255,5.78683376312256,5.78994464874268,5.7930588722229,5.79617643356323,5.79929733276367,5.80242156982422,5.80554914474487,5.80868053436279,5.81181478500366,5.81495237350464,5.81809377670288,5.82123851776123,5.82438659667969,5.82753801345825,5.83069276809692,5.8338508605957,5.83701229095459,5.84017753601074,5.843346118927,5.84651803970337,5.84969329833984,5.85287237167358,5.85605478286743,5.85924053192139,5.86242961883545,5.86562204360962,5.86881828308105,5.87201833724976,5.87522125244141,5.87842798233032,5.88163805007935,5.88485193252563,5.88806915283203,5.89128971099854,5.8945140838623,5.89774179458618,5.90097284317017,5.90420770645142,5.90744638442993,5.91068840026855,5.91393375396729,5.91718292236328,5.92043542861938,5.92369174957275,5.92695140838623,5.93021488189697,5.93348169326782,5.93675231933594,5.94002676010132,5.94330453872681,5.94658613204956,5.95372295379639,5.96411895751953,5.9745512008667,5.98502016067505,5.99552583694458,6.00606822967529,6.01664781570435,6.0272650718689,6.03791952133179,6.04861164093018,6.05934190750122,6.07011032104492,6.08091688156128,6.09176254272461,6.1026463508606,6.11356925964355,6.12453126907349,6.13553285598755,6.14657402038574,6.15765523910522,6.16877603530884,6.1799373626709,6.19113874435425,6.2023811340332,6.21366453170776,6.22498893737793,6.2363543510437,6.24776172637939,6.25921106338501,6.27070236206055,6.28223562240601,6.2938117980957,6.30543041229248,6.3170919418335,6.32879686355591,6.34054517745972,6.35233688354492,6.36417293548584,6.37605333328247,6.38797760009766,6.39994716644287,6.4119610786438,6.42402076721191,6.43612575531006,6.44827604293823,6.46047258377075,6.47271537780762,6.48500442504883,6.4973406791687,6.50972366333008,6.52215385437012,6.53463172912598,6.54715728759766,6.55973100662231,6.57235336303711,6.58502435684204,6.59774398803711,6.61051321029663,6.62333154678345,6.63619995117188,6.64911842346191,6.66208744049072,6.6751070022583,6.68817758560181,6.70129919052124,6.71447277069092,6.72769832611084,6.74097585678101,6.75430583953857,6.7676887512207,6.78112459182739,6.79461431503296,6.80815744400024,6.82175445556641,6.83540630340576,6.84911298751831,6.86287450790405,6.87669134140015,6.89056444168091,6.90449333190918,6.91847848892212,6.93252038955688,6.94661951065063,6.96077585220337,6.9749903678894,6.98926305770874,7.00359439849854,7.01798439025879,7.03243350982666,7.04694223403931,7.06151151657104,7.07614040374756,7.09083080291748,7.10558176040649,7.12039422988892,7.1352686882019,7.15020561218262,7.16520500183105,7.18026733398438,7.19539356231689,7.21058320999146,7.22583723068237,7.24115610122681,7.25653982162476,7.27198934555054,7.28750467300415,7.30308628082275,7.31873464584351,7.33445024490356,7.35023355484009,7.36608505249023,7.382004737854,7.39799356460571,7.41405200958252,7.43018007278442,7.44637823104858,7.46264743804932,7.47898769378662,7.49539995193481,7.5118842124939,7.52844142913818,7.54507160186768,7.56177568435669,7.57855319976807,7.58820819854736,7.59666728973389,7.60514450073242,7.61364126205444,7.62215662002563,7.63069105148315,7.63924503326416,7.64781761169434,7.65641021728516,7.66502141952515,7.67365217208862,7.68230295181274,7.69097280502319,7.69966220855713,7.70837116241455,7.71710014343262,7.72584867477417,7.73461723327637,7.74340581893921,7.75221395492554,7.76104259490967,7.76989126205444,7.77875995635986,7.78909111022949,7.80158710479736,7.81412363052368,7.82669973373413,7.83931684494019,7.85197496414185,7.86467361450195,7.87741327285767,7.8901948928833,7.90301752090454,7.9158821105957,7.92878866195679,7.94173717498779,7.95472812652588,7.96776151657104,8.00775527954102,8.05484104156494,8.10248470306396,8.15069484710693,8.19948196411133,8.24885749816895,8.29883098602295,8.34941291809082,8.40061569213867,8.4524507522583,8.5049295425415,8.55806350708008,8.61186599731445,8.66634845733643,8.72152519226074,8.77740955352783,8.83401393890381,8.89135360717773,8.94944190979004,9.00829410552979,9.06792640686035,9.12835311889648,9.18959045410156,9.25165462493896,9.31456279754639,9.37833309173584,9.4429817199707,9.50852870941162,9.57499122619629,9.64239025115967,9.71074390411377,9.78007411956787,9.85040187835693,9.9217472076416,9.99413394927979,10.0670461654663,10.1407823562622,10.2271394729614,10.2655916213989,10.2842750549316,10.3030261993408,10.3218460083008,10.3407344818115,10.3596925735474,10.3795175552368,10.3998508453369,10.4202642440796,10.4407587051392,10.461332321167,10.4819889068604,10.5027256011963,10.5235452651978,10.5444478988647,10.5654335021973,10.5865030288696,10.6076564788818,10.6288948059082,10.6502180099487,10.6716270446777,10.6931219100952,10.7147045135498,10.7363739013672,10.7581310272217,10.7799768447876,10.8019113540649,10.823935508728,10.8460493087769,10.8682537078857,10.890549659729,10.9129371643066,10.9354162216187,10.9579887390137,10.9806547164917,11.0034141540527,11.0262680053711,11.0492172241211,11.0722627639771,11.0954036712646,11.1186418533325,11.141978263855,11.1654119491577,11.1889448165894,11.2125768661499,11.236310005188,11.260142326355,11.2840766906738,11.3081130981445,11.3322515487671,11.3564939498901,11.3808403015137,11.4052906036377,11.4298467636108,11.4545087814331,11.4792766571045,11.5041532516479
5.77031469345093,5.77340793609619,5.77650451660156,5.77960395812988,5.78270721435547,5.78581380844116,5.7889232635498,5.79203653335571,5.79515314102173,5.79827308654785,5.80139589309692,5.80452251434326,5.80765247344971,5.81078577041626,5.81392288208008,5.81706285476685,5.82020616531372,5.82335329055786,5.82650327682495,5.82965707778931,5.83281421661377,5.83597469329834,5.83913850784302,5.84230613708496,5.84547710418701,5.84865093231201,5.85182905197144,5.85501003265381,5.85819482803345,5.86138296127319,5.86457443237305,5.86776971817017,5.87096786499023,5.87416982650757,5.87737560272217,5.88058471679688,5.88379716873169,5.88701295852661,5.8902325630188,5.89345550537109,5.89668226242065,5.89991235733032,5.90314626693726,5.9063835144043,5.90962409973145,5.91286849975586,5.91611623764038,5.91936779022217,5.92262315750122,5.92588138580322,5.92914390563965,5.93240976333618,5.93567895889282,5.93895196914673,5.94310235977173,5.95346117019653,5.96385622024536,5.97428750991821,5.98475551605225,5.99526023864746,6.00580167770386,6.01638031005859,6.02699661254883,6.0376501083374,6.04834127426147,6.0590705871582,6.06983804702759,6.08064413070679,6.09148836135864,6.10237121582031,6.11329317092896,6.12425422668457,6.13525485992432,6.14629507064819,6.1573748588562,6.1684947013855,6.17965507507324,6.19085597991943,6.20209693908691,6.21337938308716,6.22470283508301,6.23606729507446,6.24747371673584,6.25892162322998,6.2704119682312,6.28194427490234,6.29351902008057,6.30513668060303,6.31679725646973,6.32850074768066,6.34024810791016,6.35203886032104,6.36387395858765,6.3757529258728,6.38767623901367,6.39964437484741,6.41165733337402,6.42371559143066,6.43581962585449,6.44796895980835,6.46016407012939,6.47240591049194,6.48469400405884,6.49702882766724,6.50941038131714,6.52183961868286,6.53431606292725,6.54684066772461,6.55941343307495,6.57203435897827,6.58470392227173,6.59742259979248,6.61019039154053,6.62300777435303,6.63587474822998,6.64879179000854,6.66175937652588,6.67477798461914,6.68784713745117,6.70096778869629,6.71413993835449,6.72736406326294,6.74064016342163,6.75396871566772,6.76735019683838,6.78078508377075,6.79427289962769,6.80781507492065,6.8214111328125,6.83506107330322,6.8487663269043,6.86252641677856,6.87634229660034,6.89021348953247,6.90414094924927,6.91812467575073,6.93216514587402,6.9462628364563,6.96041822433472,6.97463130950928,6.98890209197998,7.0032320022583,7.01762056350708,7.03206825256348,7.04657554626465,7.06114292144775,7.07577085494995,7.09045886993408,7.10520887374878,7.12001943588257,7.13489246368408,7.14982795715332,7.16482591629028,7.17988681793213,7.19501113891602,7.2101993560791,7.22545146942139,7.24076890945435,7.25615119934082,7.27159881591797,7.28711223602295,7.30269241333008,7.3183388710022,7.33405303955078,7.34983444213867,7.36568403244019,7.38160228729248,7.39758920669556,7.41364574432373,7.429771900177,7.44596862792969,7.46223640441895,7.47857475280762,7.49498510360718,7.51146745681763,7.52802276611328,7.54465103149414,7.55564594268799,7.56403207778931,7.57243680953979,7.58086061477661,7.58930253982544,7.59776401519775,7.60624408721924,7.61474275588989,7.62326097488403,7.63179779052734,7.64035415649414,7.64892959594727,7.65752410888672,7.66613817214966,7.67477130889893,7.68342447280884,7.69209671020508,7.70078897476196,7.70950031280518,7.71823167800903,7.72698307037354,7.73575401306152,7.74454498291016,7.75335597991943,7.76218748092651,7.7719554901123,7.78439617156982,7.79687738418579,7.80939817428589,7.82195949554443,7.83456134796143,7.84720373153687,7.85988712310791,7.87261152267456,7.88537740707397,7.89818429946899,7.91103315353394,7.9239239692688,7.93685626983643,7.94983148574829,7.96284914016724,7.99020385742188,8.03708362579346,8.08451652526855,8.13251209259033,8.18108177185059,8.23023509979248,8.27998161315918,8.33033466339111,8.38130283355713,8.43289852142334,8.48513412475586,8.53802013397217,8.5915699005127,8.64579582214355,8.70071029663086,8.75632667541504,8.81265830993652,8.86972045898438,8.92752552032471,8.9860897064209,9.04542636871338,9.10555267333984,9.16648387908936,9.22823524475098,9.29082489013672,9.35426902770996,9.4185848236084,9.48379230499268,9.54990863800049,9.61695289611816,9.68494606018066,9.75390720367432,9.82385730743408,9.89481735229492,9.96681118011475,10.0398597717285,10.1139860153198,10.1892166137695,10.2229900360107,10.242714881897,10.2625150680542,10.2823925018311,10.3023471832275,10.3223791122437,10.3424892425537,10.3626775741577,10.3829460144043,10.4032926559448,10.4237194061279,10.4442272186279,10.4648151397705,10.48548412323,10.506236076355,10.5270690917969,10.5479860305786,10.5689859390259,10.5900688171387,10.6112365722656,10.6324892044067,10.653826713562,10.6752510070801,10.6967611312866,10.718358039856,10.7400417327881,10.7618141174316,10.7836742401123,10.8056240081787,10.8276634216309,10.8497924804688,10.8720121383667,10.894323348999,10.9167261123657,10.9392213821411,10.9618101119995,10.9844913482666,11.007266998291,11.0301370620728,11.0531024932861,11.0761642456055,11.0993213653564,11.122576713562,11.1459283828735,11.169379234314,11.192928314209,11.2165775299072,11.2403268814087,11.2641773223877,11.2881288528442,11.3121824264526,11.3363380432129,11.3605976104736,11.3849611282349,11.4094295501709
5.76312637329102,5.76621198654175,5.76930046081543,5.77239274978638,5.77548789978027,5.77858686447144,5.78168869018555,5.78479433059692,5.78790283203125,5.79101514816284,5.79413032531738,5.79724884033203,5.80037117004395,5.80349636077881,5.80662536621094,5.80975770950317,5.81289339065552,5.81603193283081,5.81917428970337,5.82232046127319,5.82546949386597,5.82862186431885,5.83177804946899,5.83493757247925,5.83809995651245,5.84126663208008,5.84443616867065,5.8476095199585,5.85078573226929,5.85396575927734,5.85714960098267,5.86033630371094,5.86352682113647,5.86672067642212,5.86991834640503,5.87311887741089,5.87632322311401,5.8795313835144,5.88274240493774,5.88595771789551,5.88917589187622,5.8923978805542,5.89562320709229,5.89885234832764,5.9020848274231,5.90532064437866,5.90856027603149,5.91180372238159,5.9150505065918,5.91830062866211,5.92155456542969,5.92481184005737,5.92807292938232,5.93133783340454,5.93460607528687,5.94284152984619,5.95319938659668,5.96359348297119,5.97402381896973,5.98449087142944,5.99499464035034,6.00553512573242,6.01611280441284,6.02672815322876,6.03738069534302,6.04807138442993,6.05879974365234,6.06956577301025,6.08037090301514,6.09121417999268,6.10209608078003,6.11301708221436,6.12397718429565,6.13497686386108,6.14601612091064,6.15709495544434,6.16821384429932,6.17937278747559,6.19057273864746,6.20181274414062,6.21309423446655,6.22441625595093,6.23578023910522,6.24718523025513,6.25863218307495,6.2701210975647,6.28165245056152,6.29322624206543,6.30484294891357,6.3165020942688,6.32820510864258,6.3399510383606,6.35174083709717,6.36357450485229,6.37545251846313,6.38737487792969,6.39934206008911,6.41135406494141,6.42341089248657,6.43551349639893,6.44766187667847,6.4598560333252,6.47209644317627,6.48438310623169,6.49671697616577,6.50909757614136,6.52152538299561,6.53400087356567,6.54652404785156,6.55909538269043,6.57171535491943,6.58438348770142,6.59710121154785,6.60986757278442,6.62268352508545,6.63554954528809,6.64846563339233,6.66143178939819,6.67444896697998,6.68751668930054,6.70063591003418,6.71380662918091,6.72702932357788,6.74030447006226,6.75363159179688,6.76701211929321,6.78044509887695,6.79393196105957,6.80747270584106,6.82106733322144,6.83471584320068,6.84842014312744,6.86217880249023,6.87599277496338,6.88986253738403,6.90378904342651,6.91777086257935,6.93181037902832,6.94590663909912,6.96006011962891,6.97427177429199,6.98854160308838,7.00286960601807,7.01725673675537,7.03170299530029,7.04620885848999,7.06077480316162,7.07540082931519,7.090087890625,7.10483551025391,7.11964511871338,7.13451671600342,7.14945030212402,7.16444635391235,7.17950582504272,7.19462871551514,7.20981502532959,7.22506618499756,7.24038124084473,7.25576210021973,7.2712082862854,7.28672027587891,7.3022985458374,7.31794357299805,7.333655834198,7.34943532943726,7.36528348922729,7.38119983673096,7.3971848487854,7.4132399559021,7.42936420440674,7.44555902481079,7.46182489395142,7.47816181182861,7.49457025527954,7.51105070114136,7.52336168289185,7.53167629241943,7.54000949859619,7.54836082458496,7.5567307472229,7.56511926651001,7.57352685928345,7.5819525718689,7.59039735794067,7.59886074066162,7.6073431968689,7.6158447265625,7.62436532974243,7.63290452957153,7.64146327972412,7.6500415802002,7.65863847732544,7.66725492477417,7.67589092254639,7.68454647064209,7.69322109222412,7.7019157409668,7.71062994003296,7.71936416625977,7.72811794281006,7.73689126968384,7.74568510055542,7.75489473342896,7.76728105545044,7.77970695495605,7.79217290878296,7.80467891693115,7.81722497940063,7.82981157302856,7.84243869781494,7.85510683059692,7.86781549453735,7.88056564331055,7.8933572769165,7.90618991851807,7.91906499862671,7.93198204040527,7.94494104385376,7.95794248580933,7.97272920608521,8.0194034576416,8.06662750244141,8.11441040039062,8.16276359558105,8.21169567108154,8.2612190246582,8.31134223937988,8.3620777130127,8.41343688964844,8.46543025970459,8.51807022094727,8.57136917114258,8.62533950805664,8.67999362945557,8.73534488677979,8.79140663146973,8.84819221496582,8.90571689605713,8.96399402618408,9.02303886413574,9.08286666870117,9.14349269866943,9.20493412017822,9.26720714569092,9.3303279876709,9.39431381225586,9.45918464660645,9.52495670318604,9.59165000915527,9.6592845916748,9.72787952423096,9.79745483398438,9.86803340911865,9.93963623046875,10.0122852325439,10.0860042572021,10.1442737579346,10.1624279022217,10.1927309036255,10.2263154983521,10.2460536956787,10.2658662796021,10.2857570648193,10.3057241439819,10.3257694244385,10.345892906189,10.3660955429077,10.3863763809204,10.4067363739014,10.4271774291992,10.4476976394653,10.4682998657227,10.4889831542969,10.5097484588623,10.5305957794189,10.5515260696411,10.5725402832031,10.5936374664307,10.6148195266724,10.6360864639282,10.6574392318726,10.6788778305054,10.7004022598267,10.7220134735107,10.7437124252319,10.7655000686646,10.7873754501343,10.8093395233154,10.8313941955566,10.8535385131836,10.8757743835449,10.8981008529663,10.9205188751221,10.9430294036865,10.965633392334,10.9883308410645,11.0111227035522,11.034008026123,11.0569896697998,11.0800676345825,11.1032419204712,11.1265125274658,11.1498823165894,11.1733493804932,11.1969156265259,11.2205810546875,11.2443475723267,11.268214225769,11.2921838760376,11.3162546157837
5.75595617294312,5.75903367996216,5.76211500167847,5.76519918441772,5.76828670501709,5.77137804031372,5.7744722366333,5.77756977081299,5.78067064285278,5.78377485275269,5.7868824005127,5.78999328613281,5.79310750961304,5.79622554779053,5.79934644699097,5.80247068405151,5.80559825897217,5.80872964859009,5.81186389923096,5.81500196456909,5.81814336776733,5.82128763198853,5.82443571090698,5.82758712768555,5.83074188232422,5.83390045166016,5.83706188201904,5.8402271270752,5.84339570999146,5.84656810760498,5.84974336624146,5.8529224395752,5.85610437393188,5.859290599823,5.86247968673706,5.86567258834839,5.86886882781982,5.87206840515137,5.87527179718018,5.87847852706909,5.88168859481812,5.8849024772644,5.8881196975708,5.8913402557373,5.89456462860107,5.89779233932495,5.90102386474609,5.90425872802734,5.9074969291687,5.91073894500732,5.91398477554321,5.91723394393921,5.92048645019531,5.92374277114868,5.92700290679932,5.93225955963135,5.9425802230835,5.95293760299683,5.96333074569702,5.97376012802124,5.98422622680664,5.99472904205322,6.00526857376099,6.01584577560425,6.02645969390869,6.03711175918579,6.04780101776123,6.05852842330933,6.06929397583008,6.08009767532349,6.09093999862671,6.10182094573975,6.11274099349976,6.12370014190674,6.13469886779785,6.1457371711731,6.15681505203247,6.16793298721313,6.17909097671509,6.19028949737549,6.20152854919434,6.21280908584595,6.22413015365601,6.23549270629883,6.24689674377441,6.25834274291992,6.26983070373535,6.28136110305786,6.29293394088745,6.30454921722412,6.31620740890503,6.32790899276733,6.33965396881104,6.35144281387329,6.3632755279541,6.37515211105347,6.3870735168457,6.39903926849365,6.41105031967163,6.42310619354248,6.43520736694336,6.44735479354858,6.45954751968384,6.4717869758606,6.4840726852417,6.49640512466431,6.50878429412842,6.52121114730835,6.5336856842041,6.54620742797852,6.55877780914307,6.5713963508606,6.58406352996826,6.59677934646606,6.60954475402832,6.62235975265503,6.63522434234619,6.64813899993896,6.66110372543335,6.67411947250366,6.6871862411499,6.70030450820923,6.71347379684448,6.72669506072998,6.73996877670288,6.75329494476318,6.76667356491089,6.78010559082031,6.79359102249146,6.80713033676147,6.82072353363037,6.8343710899353,6.84807348251343,6.86183071136475,6.87564373016357,6.88951206207275,6.9034366607666,6.91741752624512,6.93145561218262,6.94554996490479,6.95970249176025,6.97391223907471,6.98818063735962,7.00250720977783,7.01689291000366,7.03133773803711,7.04584217071533,7.06040620803833,7.07503080368042,7.08971643447876,7.10446262359619,7.11927080154419,7.1341404914856,7.14907264709473,7.16406726837158,7.17912483215332,7.19424629211426,7.20943117141724,7.22468042373657,7.23999404907227,7.25537347793579,7.27081727981567,7.28632783889771,7.30190420150757,7.31754779815674,7.33325815200806,7.34903621673584,7.36488246917725,7.38079738616943,7.3967809677124,7.41283369064331,7.42895650863647,7.44514989852905,7.46141338348389,7.47774839401245,7.49135208129883,7.499596118927,7.50785827636719,7.51613855361938,7.52443742752075,7.53275442123413,7.54109001159668,7.54944372177124,7.55781602859497,7.56620693206787,7.5746169090271,7.58304500579834,7.59149217605591,7.5999584197998,7.60844326019287,7.61694717407227,7.62547016143799,7.63401222229004,7.64257335662842,7.65115356445312,7.65975332260132,7.66837215423584,7.67701053619385,7.6856689453125,7.69434595108032,7.70304346084595,7.7117600440979,7.7204966545105,7.72925281524658,7.73802900314331,7.75024080276489,7.76261234283447,7.77502346038818,7.78747463226318,7.79996538162231,7.81249618530273,7.8250675201416,7.83767938613892,7.85033178329468,7.86302518844604,7.87575960159302,7.88853549957275,7.90135288238525,7.91421222686768,7.92711305618286,7.94005632400513,7.95304203033447,7.96606969833374,8.00180149078369,8.04881763458252,8.09638977050781,8.14452648162842,8.19324016571045,8.24254035949707,8.29243659973145,8.34294128417969,8.39406394958496,8.4458179473877,8.49821376800537,8.5512638092041,8.60498046875,8.65937614440918,8.71446323394775,8.77025699615479,8.82676887512207,8.88401412963867,8.94200611114502,9.00076103210449,9.06029224395752,9.1206169128418,9.18175029754639,9.24370861053467,9.30650901794434,9.37016773223877,9.4347038269043,9.50013542175293,9.56648063659668,9.63375854492188,9.70199012756348,9.77119541168213,9.84139442443848,9.9126091003418,9.98486232757568,10.0581769943237,10.0879240036011,10.1058769226074,10.123893737793,10.1420888900757,10.2010955810547,10.2296438217163,10.2493934631348,10.2692203521729,10.2891235351562,10.3091039657593,10.3291625976562,10.3492994308472,10.369514465332,10.3898086547852,10.4101829528809,10.4306373596191,10.451171875,10.4717874526978,10.4924840927124,10.5132637023926,10.5341243743896,10.5550689697266,10.5760974884033,10.5972089767456,10.6184053421021,10.6396865844727,10.6610536575317,10.6825065612793,10.7040452957153,10.7256717681885,10.7473859786987,10.7691879272461,10.7910785675049,10.8130578994751,10.8351278305054,10.8572874069214,10.8795375823975,10.9018802642822,10.9243135452271,10.9468402862549,10.9694595336914,10.9921731948853,11.0149803161621,11.0378828048706,11.0608806610107,11.0839748382568,11.1071643829346,11.1304521560669,11.1538381576538,11.1773223876953,11.2009048461914,11.224588394165
5.74880361557007,5.75187349319458,5.7549467086792,5.75802373886108,5.76110363006592,5.76418685913086,5.76727342605591,5.77036333084106,5.77345657348633,5.7765531539917,5.77965307235718,5.78275585174561,5.7858624458313,5.7889723777771,5.79208564758301,5.79520225524902,5.79832220077515,5.80144500732422,5.80457162857056,5.807701587677,5.81083536148071,5.81397199630737,5.81711196899414,5.82025575637817,5.82340240478516,5.8265528678894,5.82970666885376,5.83286380767822,5.83602428436279,5.83918857574463,5.84235572814941,5.84552669525146,5.84870100021362,5.85187864303589,5.85506010055542,5.85824489593506,5.8614330291748,5.86462450027466,5.86781978607178,5.871018409729,5.87422037124634,5.87742567062378,5.88063478469849,5.88384771347046,5.88706350326538,5.89028310775757,5.89350652694702,5.89673280715942,5.89996337890625,5.90319681167603,5.90643405914307,5.90967512130737,5.91291952133179,5.91616725921631,5.9194188117981,5.92267417907715,5.93199968338013,5.94231939315796,5.95267581939697,5.96306800842285,5.97349643707275,5.98396158218384,5.9944634437561,6.00500249862671,6.0155782699585,6.02619171142578,6.03684234619141,6.04753065109253,6.05825710296631,6.06902170181274,6.07982444763184,6.09066581726074,6.10154581069946,6.11246490478516,6.12342309951782,6.13442087173462,6.14545774459839,6.15653467178345,6.16765165328979,6.17880868911743,6.19000625610352,6.20124483108521,6.21252393722534,6.22384405136108,6.23520565032959,6.24660873413086,6.25805330276489,6.26954030990601,6.2810697555542,6.29264116287231,6.30425548553467,6.31591272354126,6.32761335372925,6.33935737609863,6.35114479064941,6.36297655105591,6.37485218048096,6.38677215576172,6.39873695373535,6.41074657440186,6.42280149459839,6.43490171432495,6.4470477104187,6.45923948287964,6.47147750854492,6.48376226425171,6.49609327316284,6.50847148895264,6.52089691162109,6.53337001800537,6.54589080810547,6.55845975875854,6.57107734680176,6.58374309539795,6.59645795822144,6.60922193527222,6.62203550338745,6.6348991394043,6.6478123664856,6.66077613830566,6.6737904548645,6.68685579299927,6.69997262954712,6.71314096450806,6.72636079788208,6.73963308334351,6.75295782089233,6.76633548736572,6.77976608276367,6.79325008392334,6.80678796768188,6.82037973403931,6.83402585983276,6.84772682189941,6.86148309707642,6.87529420852661,6.88916158676147,6.90308475494385,6.91706418991089,6.93110036849976,6.94519376754761,6.95934438705444,6.97355318069458,6.98781967163086,7.00214529037476,7.01652908325195,7.03097248077393,7.04547548294067,7.0600380897522,7.07466125488281,7.08934497833252,7.10408973693848,7.118896484375,7.13376474380493,7.14869499206543,7.16368818283081,7.17874431610107,7.19386386871338,7.20904731750488,7.22429466247559,7.2396068572998,7.2549843788147,7.27042675018311,7.28593587875366,7.30151033401489,7.31715250015259,7.33286094665527,7.34863758087158,7.36448192596436,7.38039493560791,7.39637660980225,7.41242790222168,7.42854881286621,7.44474029541016,7.45961380004883,7.4677882194519,7.47598028182983,7.48419046401978,7.49241876602173,7.50066518783569,7.50892972946167,7.51721239089966,7.52551317214966,7.53383255004883,7.54217052459717,7.55052709579468,7.5589017868042,7.56729507446289,7.57570743560791,7.58413791656494,7.5925874710083,7.60105609893799,7.60954332351685,7.61804962158203,7.62657499313354,7.63511943817139,7.64368343353271,7.65226602554321,7.6608681678772,7.66948986053467,7.67813110351562,7.68679141998291,7.69547128677368,7.7041711807251,7.71289014816284,7.72162961959839,7.73327541351318,7.74559259414673,7.7579493522644,7.77034568786621,7.78278160095215,7.79525709152222,7.80777311325073,7.82032918930054,7.83292579650879,7.84556293487549,7.85824108123779,7.87095975875854,7.88372039794922,7.8965220451355,7.90936517715454,7.92225074768066,7.93517780303955,7.94814729690552,7.96115922927856,7.98427629470825,8.03108596801758,8.07844829559326,8.12637138366699,8.17486763000488,8.22394561767578,8.27361679077148,8.32389163970947,8.37478065490723,8.42629623413086,8.47844982147217,8.53125190734863,8.584716796875,8.63885593414307,8.69368171691895,8.74920845031738,8.80544853210449,8.86241626739502,8.92012691497803,8.97859287261963,9.03783130645752,9.09785556793213,9.15868282318115,9.22032928466797,9.28281116485596,9.34614562988281,9.41034984588623,9.47544288635254,9.54144287109375,9.60836791992188,9.67623901367188,9.74507522583008,9.81489849090576,9.88572883605957,9.9575891494751,10.0145053863525,10.0321979522705,10.049952507019,10.0677700042725,10.0856504440308,10.1035957336426,10.1503715515137,10.2094745635986,10.2329730987549,10.2527360916138,10.2725763320923,10.2924928665161,10.3124856948853,10.3325576782227,10.3527069091797,10.3729362487793,10.3932437896729,10.413631439209,10.4340991973877,10.454647064209,10.4752769470215,10.4959878921509,10.5167808532715,10.5376558303833,10.558614730835,10.5796566009521,10.6007823944092,10.6219930648804,10.6432886123657,10.6646699905396,10.6861371994019,10.707691192627,10.7293329238892,10.7510614395142,10.7728776931763,10.7947835922241,10.8167781829834,10.8388633728027,10.8610382080078,10.8833045959473,10.9056615829468,10.928111076355,10.9506540298462,10.9732885360718,10.9960174560547,11.0188417434692,11.0417594909668,11.0647735595703,11.0878839492798,11.1110906600952,11.1343946456909
5.74166870117188,5.74473094940186,5.7477970123291,5.7508659362793,5.7539381980896,5.75701379776001,5.76009273529053,5.76317501068115,5.76626062393188,5.76934909820557,5.77244138717651,5.77553653717041,5.77863550186157,5.78173780441284,5.78484296798706,5.78795146942139,5.79106378555298,5.79417896270752,5.79729795455933,5.80042028427124,5.8035454750061,5.80667448043823,5.80980682373047,5.81294250488281,5.81608152389526,5.81922388076782,5.82236957550049,5.82551908493042,5.8286714553833,5.83182764053345,5.8349871635437,5.83815002441406,5.84131622314453,5.84448575973511,5.84765911102295,5.8508358001709,5.85401582717896,5.85719966888428,5.86038637161255,5.86357688903809,5.86677074432373,5.86996841430664,5.87316942214966,5.87637376785278,5.87958145141602,5.88279294967651,5.88600778579712,5.88922643661499,5.89244842529297,5.89567375183105,5.89890289306641,5.90213584899902,5.90537166595459,5.90861129760742,5.91185474395752,5.91510152816772,5.92145586013794,5.93173933029175,5.94205856323242,5.95241403579712,5.96280527114868,5.97323274612427,5.98369693756104,5.99419832229614,6.00473594665527,6.01531076431274,6.02592325210571,6.03657293319702,6.04726076126099,6.05798625946045,6.06874942779541,6.07955169677734,6.09039211273193,6.10127115249634,6.11218881607056,6.12314605712891,6.13414287567139,6.14517879486084,6.15625476837158,6.16737079620361,6.17852687835693,6.1897234916687,6.20096063613892,6.21223878860474,6.22355794906616,6.23491811752319,6.24632024765015,6.25776433944702,6.26924991607666,6.28077793121338,6.29234886169434,6.30396175384521,6.31561803817749,6.32731771469116,6.33906030654907,6.35084676742554,6.36267709732056,6.37455177307129,6.38647079467773,6.39843463897705,6.41044282913208,6.4224967956543,6.43459558486938,6.44674062728882,6.45893144607544,6.47116804122925,6.48345136642456,6.49578142166138,6.50815868377686,6.520583152771,6.5330548286438,6.54557466506958,6.55814218521118,6.57075834274292,6.58342313766479,6.59613656997681,6.60889959335327,6.62171173095703,6.6345739364624,6.64748573303223,6.66044855117798,6.67346143722534,6.68652582168579,6.69964122772217,6.71280813217163,6.72602653503418,6.73929738998413,6.75262117385864,6.76599740982056,6.77942657470703,6.79290914535522,6.80644559860229,6.82003593444824,6.83368110656738,6.84738063812256,6.86113500595093,6.87494516372681,6.88881063461304,6.90273237228394,6.91671085357666,6.93074560165405,6.94483757019043,6.95898675918579,6.97319364547729,6.98745918273926,7.00178289413452,7.01616525650024,7.03060722351074,7.04510831832886,7.05966997146606,7.07429122924805,7.08897352218628,7.10371685028076,7.11852216720581,7.13338851928711,7.14831733703613,7.16330909729004,7.17836332321167,7.1934814453125,7.20866298675537,7.22390937805176,7.23921966552734,7.2545952796936,7.2700366973877,7.28554344177246,7.30111694335938,7.31675672531128,7.33246374130249,7.34823846817017,7.36408138275146,7.37999248504639,7.39597272872925,7.41202211380005,7.42814111709595,7.43624877929688,7.44437170028687,7.45251274108887,7.46067142486572,7.46884775161743,7.47704219818115,7.48525476455688,7.49348545074463,7.50173425674438,7.51000118255615,7.51828622817993,7.52658987045288,7.53491163253784,7.54325151443481,7.55161046981812,7.55998754501343,7.56838369369507,7.57679796218872,7.5852313041687,7.59368324279785,7.60215425491333,7.61064386367798,7.61915302276611,7.62768077850342,7.63622760772705,7.64479351043701,7.65337896347046,7.66198396682739,7.67060804367065,7.67925119400024,7.68791437149048,7.6965970993042,7.70529890060425,7.716383934021,7.72864770889282,7.74095010757446,7.75329208374023,7.76567316055298,7.77809429168701,7.79055500030518,7.80305576324463,7.81559658050537,7.82817792892456,7.8407998085022,7.85346221923828,7.86616611480713,7.87891054153442,7.89169692993164,7.90452432632446,7.91739368438721,7.93030500411987,7.94325876235962,7.95625495910645,7.96929359436035,8.01343250274658,8.06058597564697,8.10829734802246,8.15657711029053,8.20543479919434,8.25488185882568,8.30492877960205,8.35558605194092,8.40686511993408,8.45877647399902,8.51133441925049,8.56454849243164,8.61843299865723,8.67299938201904,8.72826099395752,8.78423118591309,8.84092426300049,8.89835357666016,8.95653438568115,9.01548004150391,9.07520771026611,9.13573169708252,9.1970682144165,9.25923442840576,9.32224559783936,9.38612174987793,9.45087814331055,9.51653480529785,9.58310985565186,9.6506233215332,9.71909427642822,9.78854465484619,9.85899353027344,9.93046474456787,9.95958518981934,9.97708320617676,9.99464321136475,10.0122652053833,10.0299491882324,10.0476961135864,10.0655059814453,10.1001491546631,10.1586675643921,10.2166061401367,10.2363061904907,10.2560815811157,10.2759342193604,10.2958631515503,10.3158702850342,10.3359546661377,10.3561182022095,10.3763599395752,10.3966808319092,10.4170818328857,10.4375638961792,10.4581251144409,10.4787683486938,10.4994926452637,10.520299911499,10.5411891937256,10.562162399292,10.5832176208496,10.6043586730957,10.6255836486816,10.6468935012817,10.6682891845703,10.6897716522217,10.7113399505615,10.7329959869385,10.7547388076782,10.7765712738037,10.7984914779663,10.820502281189,10.842601776123,10.8647918701172,10.8870735168457,10.9094467163086,10.9319114685059,10.9544696807861,10.9771203994751,10.9998655319214,11.022705078125,11.0456399917603
5.73232316970825,5.73578882217407,5.73925828933716,5.74273252487183,5.74621057510376,5.74969291687012,5.7529296875,5.75600433349609,5.75908231735229,5.76216316223145,5.76524782180786,5.76833534240723,5.77142667770386,5.77452087402344,5.77761840820312,5.78071928024292,5.78382349014282,5.78693151473999,5.79004240036011,5.79315662384033,5.79627418518066,5.79939556121826,5.80251979827881,5.80564737319946,5.80877876281738,5.81191301345825,5.81505107879639,5.81819248199463,5.82133722305298,5.82448530197144,5.82763671875,5.83079147338867,5.83395004272461,5.83711194992065,5.84027719497681,5.84344577789307,5.84661769866943,5.84979295730591,5.85297203063965,5.8561544418335,5.85934066772461,5.86252975463867,5.86572265625,5.86891889572144,5.87211847305298,5.87532186508179,5.8785285949707,5.88173913955688,5.88495302200317,5.88817024230957,5.89139080047607,5.89461517333984,5.89784288406372,5.90107440948486,5.90430927276611,5.90754795074463,5.91095018386841,5.92119693756104,5.93147945404053,5.94179773330688,5.95215225219727,5.96254253387451,5.97296953201294,5.98343276977539,5.99393272399902,6.004469871521,6.01504373550415,6.0256552696228,6.03630399703979,6.04699039459229,6.05771493911743,6.06847763061523,6.07927846908569,6.09011793136597,6.10099601745605,6.11191320419312,6.12286901473999,6.13386487960815,6.14489984512329,6.15597486495972,6.16708993911743,6.17824459075928,6.18944025039673,6.20067644119263,6.21195363998413,6.22327184677124,6.23463106155396,6.24603223800659,6.25747489929199,6.26895952224731,6.28048658370972,6.2920560836792,6.30366849899292,6.31532335281372,6.32702159881592,6.33876371383667,6.35054874420166,6.36237812042236,6.37425184249878,6.38616943359375,6.39813184738159,6.41013956069946,6.42219209671021,6.43428993225098,6.44643354415894,6.45862293243408,6.47085857391357,6.48314094543457,6.49547004699707,6.50784587860107,6.52026891708374,6.53273963928223,6.54525804519653,6.55782461166382,6.57043933868408,6.58310270309448,6.59581518173218,6.60857677459717,6.62138795852661,6.63424873352051,6.64715957641602,6.66012048721313,6.67313241958618,6.68619537353516,6.69930934906006,6.71247482299805,6.72569274902344,6.73896217346191,6.75228404998779,6.76565885543823,6.77908706665039,6.79256820678711,6.80610322952271,6.81969261169434,6.83333587646484,6.84703397750854,6.8607873916626,6.874596118927,6.88846015930176,6.90238046646118,6.91635704040527,6.93039083480835,6.94448089599609,6.95862913131714,6.97283458709717,6.9870982170105,7.00142049789429,7.01580190658569,7.03024196624756,7.0447416305542,7.05930185317993,7.07392168045044,7.0886025428772,7.10334444046021,7.11814785003662,7.13301277160645,7.14794015884399,7.16293001174927,7.17798280715942,7.19309902191162,7.20827960968018,7.22352361679077,7.23883247375488,7.25420665740967,7.26964616775513,7.28515148162842,7.3007230758667,7.31636142730713,7.33206653594971,7.34783935546875,7.36368083953857,7.37959003448486,7.39556837081909,7.40497446060181,7.41302967071533,7.42110204696655,7.42919206619263,7.43729972839355,7.44542503356934,7.45356845855713,7.46172904968262,7.46990823745728,7.47810506820679,7.48632001876831,7.49455261230469,7.50280380249023,7.51107311248779,7.51936054229736,7.5276665687561,7.53599071502686,7.54433298110962,7.55269432067871,7.56107378005981,7.56947231292725,7.57788896560669,7.58632469177246,7.5947790145874,7.60325241088867,7.61174488067627,7.62025594711304,7.62878656387329,7.63733577728271,7.64590454101562,7.65449237823486,7.66309928894043,7.67172622680664,7.68037223815918,7.68903779983521,7.69956588745117,7.71177625656128,7.7240252494812,7.7363133430481,7.7486400604248,7.7610068321228,7.77341270446777,7.78585863113403,7.79834413528442,7.8108696937561,7.82343578338623,7.8360424041748,7.84868955612183,7.86137771606445,7.87410688400269,7.88687753677368,7.89968919754028,7.91254329681396,7.92543888092041,7.93837642669678,7.95135641098022,7.96437883377075,7.99585628509521,8.04280281066895,8.09030342102051,8.13836860656738,8.18700790405273,8.23623275756836,8.28605270385742,8.33647918701172,8.38752269744873,8.43919563293457,8.49150848388672,8.54447460174561,8.59810638427734,8.65241432189941,8.70741367340088,8.76311588287354,8.81953525543213,8.87668609619141,8.93458271026611,8.99324035644531,9.05267143249512,9.11289501190186,9.17392444610596,9.2357759475708,9.29846858978271,9.36201667785645,9.42644119262695,9.4917573928833,9.55798530578613,9.62514305114746,9.69325256347656,9.76233196258545,9.8324031829834,9.88801574707031,9.90526390075684,9.92257118225098,9.93993949890137,9.95736885070801,9.9748592376709,9.99241161346436,10.0100259780884,10.027702331543,10.0504217147827,10.1083631515503,10.1669769287109,10.2199277877808,10.2396402359009,10.2594289779663,10.2792940139771,10.2992362976074,10.3192567825317,10.3393545150757,10.3595304489136,10.3797855377197,10.4001207351685,10.4205350875854,10.441029548645,10.4616050720215,10.4822626113892,10.5030012130737,10.5238218307495,10.5447254180908,10.5657119750977,10.5867824554443,10.6079368591309,10.6291761398315,10.6505002975464,10.671911239624,10.6934070587158,10.7149906158447,10.7366609573364,10.7584199905396,10.7802667617798,10.8022022247314,10.8242273330688,10.8463430404663,10.8685483932495,10.8908452987671,10.913233757019,10.9357147216797,10.958288192749
5.71927070617676,5.72272062301636,5.72617435455322,5.72963237762451,5.73309469223022,5.73656129837036,5.74003219604492,5.74350690841675,5.746985912323,5.75046920776367,5.75395679473877,5.75744867324829,5.76094484329224,5.76444482803345,5.76794958114624,5.7714581489563,5.77497148513794,5.77848863601685,5.78201055526733,5.78553628921509,5.78902149200439,5.7921347618103,5.79525089263916,5.79837083816528,5.80149412155151,5.80462121963501,5.80775117874146,5.81088447570801,5.81402111053467,5.81716156005859,5.82030487060547,5.82345199584961,5.82660245895386,5.82975625991821,5.83291339874268,5.83607387542725,5.83923816680908,5.84240579605103,5.84557628631592,5.84875106811523,5.8519287109375,5.85511016845703,5.85829496383667,5.86148309707642,5.86467456817627,5.86786985397339,5.87106847763062,5.87427043914795,5.87747621536255,5.88068532943726,5.88389778137207,5.88711404800415,5.89033365249634,5.89355707168579,5.89678382873535,5.90001392364502,5.90324783325195,5.91069173812866,5.92093801498413,5.93121957778931,5.94153690338135,5.95189046859741,5.96227979660034,5.97270584106445,5.98316812515259,5.9936671257019,6.00420331954956,6.0147762298584,6.02538681030273,6.03603458404541,6.04672050476074,6.05744409561157,6.0682053565979,6.07900524139404,6.08984375,6.10072088241577,6.11163711547852,6.12259244918823,6.13358688354492,6.14462089538574,6.15569496154785,6.16680860519409,6.17796277999878,6.18915748596191,6.20039224624634,6.21166849136353,6.22298574447632,6.23434400558472,6.24574375152588,6.25718545913696,6.26866960525513,6.28019523620605,6.29176378250122,6.30337476730347,6.31502866744995,6.32672595977783,6.33846664428711,6.35025119781494,6.36207914352417,6.37395143508911,6.38586807250977,6.39782953262329,6.40983581542969,6.42188739776611,6.43398427963257,6.44612646102905,6.45831489562988,6.47054958343506,6.48283052444458,6.49515819549561,6.50753259658813,6.51995468139648,6.53242444992065,6.54494142532349,6.5575065612793,6.57012033462524,6.58278274536133,6.59549379348755,6.60825395584106,6.62106370925903,6.63392353057861,6.64683294296265,6.65979290008545,6.67280340194702,6.68586492538452,6.69897794723511,6.71214199066162,6.72535848617554,6.73862648010254,6.7519474029541,6.76532077789307,6.77874755859375,6.79222726821899,6.80576133728027,6.81934881210327,6.83299112319946,6.84668779373169,6.86043977737427,6.8742470741272,6.88810968399048,6.90202856063843,6.91600370407104,6.93003606796265,6.94412469863892,6.95827150344849,6.97247552871704,6.9867377281189,7.00105857849121,7.01543807983398,7.02987670898438,7.0443754196167,7.0589337348938,7.07355213165283,7.08823156356812,7.10297155380249,7.11777353286743,7.13263654708862,7.1475625038147,7.1625509262085,7.17760229110718,7.1927170753479,7.20789575576782,7.22313833236694,7.23844575881958,7.25381803512573,7.26925563812256,7.28475904464722,7.30032920837402,7.31596565246582,7.33166933059692,7.34744071960449,7.36327981948853,7.37396240234375,7.38194990158081,7.38995504379272,7.39797687530518,7.40601682662964,7.4140739440918,7.42214870452881,7.43024110794067,7.43835115432739,7.44647836685181,7.45462417602539,7.46278762817383,7.47096872329712,7.47916793823242,7.48738479614258,7.4956202507019,7.50387382507324,7.51214551925659,7.52043533325195,7.52874326705933,7.53706979751587,7.54541492462158,7.55377817153931,7.56216049194336,7.57056093215942,7.57898044586182,7.58741855621338,7.59587526321411,7.60435104370117,7.61284589767456,7.62135982513428,7.62989234924316,7.63844442367554,7.64701557159424,7.65560579299927,7.66421556472778,7.67284488677979,7.68282127380371,7.69497871398926,7.70717430114746,7.71940851211548,7.73168182373047,7.74399423599243,7.75634574890137,7.76873683929443,7.78116750717163,7.79363822937012,7.80614852905273,7.8186993598938,7.83129072189331,7.84392261505127,7.85659551620483,7.86930894851685,7.88206386566162,7.89486026763916,7.90769815444946,7.92057800292969,7.93349981307983,7.94646406173706,7.95947027206421,7.97835731506348,8.02509784698486,8.07238864898682,8.12024021148682,8.16866302490234,8.21766662597656,8.26726150512695,8.31745910644531,8.3682689666748,8.41970443725586,8.47177600860596,8.52449512481689,8.5778751373291,8.63192749023438,8.68666458129883,8.74210166931152,8.79825019836426,8.85512447357178,8.91273975372314,8.97110843658447,9.03024768829346,9.09017181396484,9.1508960723877,9.21243667602539,9.27481174468994,9.33803653717041,9.40212917327881,9.46710777282715,9.53299140930176,9.59979724884033,9.66754722595215,9.73625946044922,9.80595588684082,9.83447074890137,9.85153102874756,9.86865139007568,9.88583183288574,9.90307140350342,9.92037200927734,9.9377326965332,9.95515441894531,9.97263717651367,9.99018096923828,10.0077877044678,10.058554649353,10.1165904998779,10.1753005981445,10.2232513427734,10.2429761886597,10.2627782821655,10.2826566696167,10.3026123046875,10.3226451873779,10.3427562713623,10.3629455566406,10.3832139968872,10.4035625457764,10.4239902496338,10.4444990158081,10.465087890625,10.4857587814331,10.5065116882324,10.5273456573486,10.5482635498047,10.5692644119263,10.5903482437134,10.6115169525146,10.6327714920044,10.654109954834,10.6755352020264,10.6970462799072,10.7186441421509,10.7403297424316,10.7621030807495,10.7839651107788,10.8059158325195,10.827956199646,10.8500862121582,10.8723077774048
5.70627737045288,5.70971155166626,5.71315002441406,5.71659231185913,5.72003889083862,5.72348976135254,5.72694444656372,5.73040342330933,5.73386669158936,5.73733425140381,5.74080610275269,5.74428176879883,5.74776172637939,5.75124597549438,5.7547345161438,5.75822734832764,5.7617244720459,5.76522541046143,5.76873111724854,5.77224063873291,5.77575492858887,5.77927303314209,5.78279542922974,5.78632259368896,5.78985357284546,5.79338932037354,5.79692888259888,5.8004732131958,5.80402183532715,5.80757427215576,5.81113147735596,5.81469297409058,5.81825923919678,5.82182931900024,5.82540416717529,5.82872104644775,5.8318772315979,5.83503675460815,5.83819961547852,5.84136581420898,5.84453582763672,5.84770917892456,5.85088586807251,5.85406589508057,5.85724925994873,5.86043643951416,5.8636269569397,5.8668212890625,5.87001848220825,5.87321949005127,5.87642383575439,5.87963199615479,5.88284349441528,5.88605833053589,5.88927698135376,5.89249897003174,5.89572477340698,5.90022420883179,5.91043376922607,5.92067909240723,5.93095970153809,5.94127607345581,5.95162868499756,5.96201753616333,5.97244215011597,5.98290395736694,5.99340200424194,6.00393676757812,6.0145092010498,6.02511882781982,6.03576564788818,6.04645013809204,6.05717277526855,6.06793355941772,6.07873249053955,6.08957004547119,6.10044622421265,6.11136102676392,6.12231540679932,6.13330888748169,6.14434194564819,6.15541505813599,6.16652774810791,6.17768096923828,6.18887424468994,6.20010852813721,6.21138334274292,6.2226996421814,6.23405694961548,6.24545574188232,6.25689649581909,6.26837921142578,6.27990388870239,6.29147148132324,6.30308151245117,6.31473445892334,6.32643032073975,6.33817005157471,6.34995317459106,6.36178016662598,6.3736515045166,6.38556671142578,6.39752721786499,6.40953207015991,6.42158269882202,6.433678150177,6.44581937789917,6.45800685882568,6.47024011611938,6.48252010345459,6.49484634399414,6.50721979141235,6.51964092254639,6.53210878372192,6.54462480545044,6.55718898773193,6.56980133056641,6.58246231079102,6.59517240524292,6.60793161392212,6.62073993682861,6.63359832763672,6.64650678634644,6.65946531295776,6.67247486114502,6.68553495407104,6.69864654541016,6.7118091583252,6.72502422332764,6.73829126358032,6.75161075592041,6.7649827003479,6.77840805053711,6.79188680648804,6.80541896820068,6.81900548934937,6.83264636993408,6.84634160995483,6.86009216308594,6.87389755249023,6.8877592086792,6.90167665481567,6.91565036773682,6.92968082427979,6.94376850128174,6.95791339874268,6.97211647033691,6.98637723922729,7.00069665908813,7.01507472991943,7.02951192855835,7.04400873184204,7.05856561660767,7.07318258285522,7.08786010742188,7.10259866714478,7.11739921569824,7.13226079940796,7.14718532562256,7.16217184066772,7.17722177505493,7.19233512878418,7.20751190185547,7.22275304794312,7.23805856704712,7.2534294128418,7.26886510848999,7.28436708450317,7.29993534088135,7.31557035446167,7.33127212524414,7.34320878982544,7.35113000869751,7.35906791687012,7.36702346801758,7.37499570846558,7.38298559188843,7.39099264144897,7.39901733398438,7.40705919265747,7.41511869430542,7.42319583892822,7.43129014968872,7.43940258026123,7.44753265380859,7.45568037033081,7.46384572982788,7.47202920913696,7.48023080825806,7.48845052719116,7.49668788909912,7.50494384765625,7.51321792602539,7.52151012420654,7.52982044219971,7.53814935684204,7.54649686813354,7.55486297607422,7.5632472038269,7.57165050506592,7.58007192611694,7.58851289749146,7.59697198867798,7.60545015335083,7.61394739151001,7.62246370315552,7.63099908828735,7.63955354690552,7.64812707901001,7.65671968460083,7.6661491394043,7.67825365066528,7.69039630889893,7.70257759094238,7.7147970199585,7.72705554962158,7.73935317993164,7.75168991088867,7.76406621932983,7.77648210525513,7.78893756866455,7.80143308639526,7.81396865844727,7.82654476165771,7.83916139602661,7.85181856155396,7.86451721191406,7.87725639343262,7.89003705978394,7.90285921096802,7.91572332382202,7.92862939834595,7.94157743453979,7.95456790924072,7.96760082244873,8.00747013092041,8.05455303192139,8.10219383239746,8.15040016174316,8.19918441772461,8.24855518341064,8.29852485656738,8.3491039276123,8.40030288696289,8.45213413238525,8.50460815429688,8.55773830413818,8.61153697967529,8.666015625,8.72118759155273,8.77706718444824,8.83366775512695,8.8910026550293,8.94908618927002,9.0079345703125,9.06756114959717,9.12798309326172,9.18921566009521,9.25127506256104,9.31417846679688,9.37794303894043,9.44258689880371,9.50812721252441,9.5745849609375,9.64197731018066,9.71032619476318,9.76468181610107,9.78150177001953,9.79837894439697,9.81531524658203,9.83230972290039,9.84936332702637,9.86647605895996,9.88364887237549,9.90088081359863,9.91817283630371,9.93552589416504,9.95293998718262,9.97041511535645,10.0092353820801,10.0667009353638,10.124831199646,10.1836366653442,10.2265768051147,10.2463150024414,10.2661294937134,10.2860202789307,10.3059892654419,10.3260354995728,10.3461599349976,10.3663635253906,10.3866453170776,10.4070062637329,10.4274482727051,10.4479703903198,10.4685726165771,10.4892578125,10.5100240707397,10.5308723449707,10.5518035888672,10.5728187561035,10.5939178466797,10.6151008605957,10.6363687515259,10.6577224731445,10.6791620254517,10.7006874084473,10.72230052948,10.7440004348755,10.7657890319824,10.7876653671265
5.69334316253662,5.69676208496094,5.70018482208252,5.70361137390137,5.70704221725464,5.71047735214233,5.71391677856445,5.71736001968384,5.72080755233765,5.72425889968872,5.72771501541138,5.7311749458313,5.73463916778564,5.73810768127441,5.74158000946045,5.74505662918091,5.74853801727295,5.75202322006226,5.75551223754883,5.75900602340698,5.76250410079956,5.7660059928894,5.76951265335083,5.77302312850952,5.77653837203979,5.78005743026733,5.78358125686646,5.78710889816284,5.79064083099365,5.79417753219604,5.7977180480957,5.80126333236694,5.80481290817261,5.8083667755127,5.81192493438721,5.81548738479614,5.8190541267395,5.82262563705444,5.83084106445312,5.83399963378906,5.83716154098511,5.84032678604126,5.84349536895752,5.84666728973389,5.84984302520752,5.85302209854126,5.85620450973511,5.85939073562622,5.86257982254028,5.86577272415161,5.86896896362305,5.87216901779175,5.87537240982056,5.87857913970947,5.88178968429565,5.88500308990479,5.88822078704834,5.89144134521484,5.89996671676636,5.91017580032349,5.92042016983032,5.93069982528687,5.94101572036743,5.95136690139771,5.96175479888916,5.97217893600464,5.98263931274414,5.99313640594482,6.00367069244385,6.01424217224121,6.02485036849976,6.0354962348938,6.0461802482605,6.0569019317627,6.06766128540039,6.0784592628479,6.08929586410522,6.10017108917236,6.11108541488647,6.1220383644104,6.13303089141846,6.14406299591064,6.15513515472412,6.16624689102173,6.17739915847778,6.18859148025513,6.19982433319092,6.21109819412231,6.22241353988647,6.23376989364624,6.24516773223877,6.25660705566406,6.26808881759644,6.27961254119873,6.29117870330811,6.30278778076172,6.31443977355957,6.32613468170166,6.33787298202515,6.34965515136719,6.36148118972778,6.37335109710693,6.38526582717896,6.39722490310669,6.40922880172729,6.42127799987793,6.43337249755859,6.44551277160645,6.45769882202148,6.46993112564087,6.4822096824646,6.49453496932983,6.50690698623657,6.51932668685913,6.53179359436035,6.54430866241455,6.55687141418457,6.56948280334473,6.58214235305786,6.59485101699829,6.60760879516602,6.62041616439819,6.63327312469482,6.64618015289307,6.65913772583008,6.67214584350586,6.68520450592041,6.69831466674805,6.71147680282593,6.72468996047974,6.73795557022095,6.75127363204956,6.76464462280273,6.77806854248047,6.79154586791992,6.80507707595825,6.8186616897583,6.83230113983154,6.84599542617798,6.85974454879761,6.87354850769043,6.88740873336792,6.90132474899292,6.91529703140259,6.92932605743408,6.94341230392456,6.95755624771118,6.97175741195679,6.98601675033569,7.0003342628479,7.01471090316772,7.02914667129517,7.04364204406738,7.05819749832153,7.07281303405762,7.08748912811279,7.10222625732422,7.11702489852905,7.13188505172729,7.14680767059326,7.16179323196411,7.17684125900269,7.1919527053833,7.20712804794312,7.22236728668213,7.23767137527466,7.25304079055786,7.26847505569458,7.28397512435913,7.29954147338867,7.31271123886108,7.32056617736816,7.3284387588501,7.33632755279541,7.34423398971558,7.35215711593628,7.36009740829468,7.36805486679077,7.37602949142456,7.3840217590332,7.39203119277954,7.40005779266357,7.40810203552246,7.41616344451904,7.42424297332764,7.43233966827393,7.44045448303223,7.44858646392822,7.45673656463623,7.46490478515625,7.47309064865112,7.48129415512085,7.48951625823975,7.4977560043335,7.50601434707642,7.51429080963135,7.52258539199829,7.53089809417725,7.53922939300537,7.54757928848267,7.55594778060913,7.56433439254761,7.57274007797241,7.58116436004639,7.58960723876953,7.59806871414185,7.60654973983765,7.61504936218262,7.62356805801392,7.63210582733154,7.6406626701355,7.64954948425293,7.66160154342651,7.6736912727356,7.68581962585449,7.69798612594604,7.71019124984741,7.72243547439575,7.73471832275391,7.74704027175903,7.75940179824829,7.77180242538452,7.78424310684204,7.79672336578369,7.80924415588379,7.82180452346802,7.83440589904785,7.84704780578613,7.85973072052002,7.87245464324951,7.88521957397461,7.89802646636963,7.91087484359741,7.92376470565796,7.93669700622559,7.94967174530029,7.96268844604492,7.9899206161499,8.03679656982422,8.08422660827637,8.1322193145752,8.18078517913818,8.22993469238281,8.27967834472656,8.33002662658691,8.38099098205566,8.43258285522461,8.48481464385986,8.53769683837891,8.59124279022217,8.64546394348145,8.70037460327148,8.75598621368408,8.8123140335083,8.86937141418457,8.92717266082764,8.98573112487793,9.04506397247314,9.10518550872803,9.16611099243164,9.22785758972168,9.29044151306152,9.35388088226318,9.41819190979004,9.48339366912842,9.54950428009033,9.61654281616211,9.68453025817871,9.71245956420898,9.72910022735596,9.7457971572876,9.76255130767822,9.77936363220215,9.79623413085938,9.8131628036499,9.83014965057373,9.84719562530518,9.86430168151855,9.88146591186523,9.89869117736816,9.91597557067871,9.93332099914551,9.96039581298828,10.0173015594482,10.0748615264893,10.1330862045288,10.1919870376587,10.229905128479,10.2496557235718,10.2694835662842,10.2893877029419,10.3093690872192,10.3294286727905,10.3495664596558,10.3697824478149,10.3900785446167,10.4104528427124,10.430908203125,10.4514436721802,10.4720602035522,10.4927587509155,10.51353931427,10.5344009399414,10.555347442627,10.5763759613037,10.5974893569946,10.6186866760254,10.6399688720703,10.6613368988037,10.6827907562256,10.7043313980103
5.68046760559082,5.68387079238892,5.68727827072144,5.69068956375122,5.69410467147827,5.69752407073975,5.70094776153564,5.70437574386597,5.70780754089355,5.71124315261841,5.71468353271484,5.71812772750854,5.72157621383667,5.72502899169922,5.72848558425903,5.73194646835327,5.73541164398193,5.73888063430786,5.74235439300537,5.74583196640015,5.74931383132935,5.75279998779297,5.75629043579102,5.75978517532349,5.76328420639038,5.76678705215454,5.77029466629028,5.77380609512329,5.77732181549072,5.78084230422974,5.78436660766602,5.78789567947388,5.791428565979,5.79496622085571,5.79850769042969,5.80205392837524,5.80560445785522,5.80915927886963,5.81271839141846,5.81628179550171,5.81984949111938,5.83296298980713,5.8361234664917,5.83928775787354,5.84245538711548,5.84562635421753,5.84880065917969,5.85197877883911,5.85516023635864,5.85834503173828,5.86153316497803,5.86472463607788,5.867919921875,5.87111854553223,5.87432098388672,5.87752676010132,5.88073587417603,5.88394832611084,5.88953685760498,5.89970970153809,5.9099178314209,5.92016124725342,5.93043994903564,5.94075489044189,5.95110559463501,5.96149206161499,5.97191524505615,5.98237466812134,5.99287128448486,6.00340461730957,6.01397466659546,6.02458238601685,6.03522729873657,6.0459098815918,6.05663061141968,6.06738948822021,6.07818651199341,6.08902215957642,6.09989643096924,6.11080932617188,6.12176179885864,6.13275337219238,6.1437840461731,6.15485525131226,6.16596603393555,6.17711687088013,6.18830823898315,6.19954061508179,6.21081352233887,6.22212743759155,6.233482837677,6.24487924575806,6.25631809234619,6.26779842376709,6.27932119369507,6.29088640213013,6.30249452590942,6.3141450881958,6.32583904266357,6.33757638931274,6.34935712814331,6.36118221282959,6.37305116653442,6.38496446609497,6.39692258834839,6.40892553329468,6.42097330093384,6.43306684494019,6.44520568847656,6.45739078521729,6.4696216583252,6.48189926147461,6.49422311782837,6.50659418106079,6.51901292800903,6.53147840499878,6.5439920425415,6.55655384063721,6.56916379928589,6.58182239532471,6.59452962875366,6.60728645324707,6.62009239196777,6.63294839859009,6.64585399627686,6.65881013870239,6.6718168258667,6.68487453460693,6.6979832649231,6.7111439704895,6.72435617446899,6.73762035369873,6.75093698501587,6.76430654525757,6.77772903442383,6.79120492935181,6.80473470687866,6.81831836700439,6.83195638656616,6.84564924240112,6.85939693450928,6.87319993972778,6.88705825805664,6.90097284317017,6.91494369506836,6.92897176742554,6.94305610656738,6.95719861984253,6.97139835357666,6.98565626144409,6.99997234344482,7.01434755325317,7.02878189086914,7.04327583312988,7.0578293800354,7.07244348526001,7.08711814880371,7.1018533706665,7.11665058135986,7.13150930404663,7.14643049240112,7.16141414642334,7.17646074295044,7.19157075881958,7.20674419403076,7.2219820022583,7.23728466033936,7.25265216827393,7.26808500289917,7.28246545791626,7.29025554656982,7.29806280136108,7.30588674545288,7.31372737884521,7.32158470153809,7.32945919036865,7.33735084533691,7.34525871276855,7.35318422317505,7.36112689971924,7.36908674240112,7.3770637512207,7.38505792617798,7.39306926727295,7.40109825134277,7.40914487838745,7.41720867156982,7.42529058456421,7.43338966369629,7.44150638580322,7.44964122772217,7.45779371261597,7.46596384048462,7.47415208816528,7.4823579788208,7.49058246612549,7.49882459640503,7.50708532333374,7.5153636932373,7.52366065979004,7.53197622299194,7.54030990600586,7.54866170883179,7.55703258514404,7.56542205810547,7.57382965087891,7.58225631713867,7.59070205688477,7.59916591644287,7.60764932632446,7.61615133285522,7.62467241287231,7.63321256637573,7.64502143859863,7.65705919265747,7.66913461685181,7.6812481880188,7.69340038299561,7.70559120178223,7.71782064437866,7.73008871078491,7.74239587783813,7.75474262237549,7.76712846755981,7.77955389022827,7.79201936721802,7.80452489852905,7.81707048416138,7.82965660095215,7.84228277206421,7.85495042800903,7.8676586151123,7.88040828704834,7.89319944381714,7.9060320854187,7.91890621185303,7.93182277679443,7.94478130340576,7.95778226852417,7.97244739532471,8.019118309021,8.06633853912354,8.1141185760498,8.16246795654297,8.21139717102051,8.26091575622559,8.31103610992432,8.36176776885986,8.41312313079834,8.46511268615723,8.51774883270264,8.57104396820068,8.62500953674316,8.67965984344482,8.73500633239746,8.79106330871582,8.84784507751465,8.90536499023438,8.96363735198975,9.02267742156982,9.08250045776367,9.14312171936035,9.20455837249756,9.26682567596436,9.32994174957275,9.39392280578613,9.45878791809082,9.52455425262451,9.59124279022217,9.64438629150391,9.66079330444336,9.6772575378418,9.69377708435059,9.71035289764404,9.72698497772217,9.74367523193359,9.760422706604,9.7772274017334,9.79409027099609,9.81101131439209,9.8279914855957,9.84502983093262,9.86212730407715,9.87928485870361,9.8965015411377,9.91377925872803,9.96838474273682,10.0253810882568,10.0830335617065,10.1413536071777,10.2003517150879,10.2332344055176,10.2529983520508,10.2728385925293,10.2927570343018,10.3127508163452,10.3328237533569,10.3529748916626,10.3732042312622,10.3935127258301,10.4139022827148,10.4343700408936,10.4549198150635,10.475549697876,10.496262550354,10.5170564651489,10.5379323959351,10.558892250061,10.5799360275269,10.6010627746582,10.6222743988037
5.66765022277832,5.67103815078735,5.67442989349365,5.67782545089722,5.68122577667236,5.68462944030762,5.68803787231445,5.69145011901855,5.69486618041992,5.69828653335571,5.70171117782593,5.70514011383057,5.70857286453247,5.71200942993164,5.71545076370239,5.71889591217041,5.72234535217285,5.72579860687256,5.72925615310669,5.73271799087524,5.73618412017822,5.73965454101562,5.74312877655029,5.74660730361938,5.75009059906006,5.753577709198,5.7570686340332,5.76056432723999,5.7640643119812,5.76756811141968,5.77107667922974,5.77458906173706,5.77810621261597,5.78162717819214,5.78515243530273,5.78868246078491,5.79221630096436,5.79575490951538,5.79929733276367,5.80284452438354,5.80639600753784,5.80995178222656,5.81351184844971,5.81707620620728,5.83508634567261,5.83824920654297,5.8414158821106,5.84458541870117,5.84775876998901,5.85093545913696,5.85411596298218,5.85729932785034,5.86048650741577,5.86367702484131,5.86687135696411,5.87006855010986,5.87327003479004,5.87647438049316,5.87968254089355,5.88928079605103,5.89945268630981,5.90965986251831,5.91990232467651,5.93018007278442,5.94049406051636,5.95084381103516,5.96122980117798,5.97165203094482,5.98211050033569,5.99260568618774,6.00313806533813,6.01370763778687,6.02431392669678,6.03495836257935,6.04563999176025,6.05635976791382,6.06711769104004,6.07791376113892,6.08874797821045,6.09962129592896,6.11053323745728,6.12148475646973,6.13247537612915,6.14350557327271,6.15457534790039,6.16568517684937,6.17683506011963,6.18802547454834,6.1992564201355,6.21052837371826,6.22184133529663,6.23319578170776,6.2445912361145,6.25602865219116,6.2675085067749,6.27902984619141,6.29059410095215,6.30220079421997,6.31385040283203,6.32554340362549,6.33727979660034,6.34905958175659,6.3608832359314,6.37275123596191,6.38466358184814,6.39662027359009,6.4086217880249,6.42066860198975,6.43276071548462,6.44489860534668,6.45708274841309,6.46931266784668,6.48158884048462,6.49391174316406,6.50628185272217,6.51869869232178,6.53116321563721,6.54367589950562,6.55623626708984,6.56884479522705,6.58150243759155,6.59420871734619,6.60696411132812,6.61976861953735,6.63262319564819,6.64552783966064,6.65848255157471,6.67148780822754,6.68454456329346,6.69765186309814,6.71081113815308,6.72402191162109,6.73728513717651,6.75060033798218,6.7639684677124,6.77739000320435,6.79086446762085,6.80439281463623,6.81797504425049,6.83161163330078,6.84530258178711,6.85904932022095,6.87285089492798,6.88670778274536,6.90062141418457,6.91459083557129,6.92861700057983,6.94270038604736,6.95684099197388,6.97103929519653,6.98529577255249,6.99961042404175,7.01398420333862,7.02841663360596,7.04290914535522,7.05746126174927,7.0720739364624,7.08674716949463,7.10148096084595,7.11627626419067,7.13113355636597,7.14605331420898,7.16103506088257,7.17608022689819,7.1911883354187,7.20636081695557,7.22159671783447,7.23689746856689,7.25226354598999,7.26019525527954,7.26793813705444,7.27569723129272,7.28347301483154,7.29126596450806,7.29907512664795,7.30690097808838,7.3147439956665,7.32260370254517,7.33048009872437,7.33837366104126,7.34628438949585,7.35421180725098,7.36215686798096,7.37011861801147,7.37809801101685,7.38609457015991,7.39410829544067,7.40213966369629,7.4101881980896,7.41825437545776,7.42633819580078,7.43443965911865,7.44255876541138,7.45069551467896,7.45885038375854,7.46702337265015,7.47521352767944,7.48342227935791,7.49164867401123,7.49989318847656,7.50815629959106,7.51643705368042,7.52473640441895,7.53305435180664,7.54139041900635,7.54974508285522,7.55811786651611,7.56650972366333,7.57492017745972,7.58334922790527,7.591796875,7.60026359558105,7.60874938964844,7.61725378036499,7.62851285934448,7.64049863815308,7.65252208709717,7.66458320617676,7.676682472229,7.68882036209106,7.70099639892578,7.71321105957031,7.72546482086182,7.73775720596313,7.75008869171143,7.76245975494385,7.7748703956604,7.78732109069824,7.79981136322021,7.81234169006348,7.82491254806519,7.83752393722534,7.85017585754395,7.86286878585815,7.87560272216797,7.88837814331055,7.90119504928589,7.91405344009399,7.92695426940918,7.93989658355713,7.95288181304932,7.96590900421143,8.0015172958374,8.04852962493896,8.09609889984131,8.14423274993896,8.19294261932373,8.24223899841309,8.2921314239502,8.34263229370117,8.3937520980835,8.44550132751465,8.49789333343506,8.55093955993652,8.60465145111084,8.65904331207275,8.71412658691406,8.76991558074951,8.82642364501953,8.88366413116455,8.94165134429932,9.00040149688721,9.05992889404297,9.12024784088135,9.18137645721436,9.24333000183105,9.30612468719482,9.36977863311768,9.4343090057373,9.49973487854004,9.56607437133789,9.59344005584717,9.60967445373535,9.62596416473389,9.64230823516846,9.6587085723877,9.6751651763916,9.69167709350586,9.7082462310791,9.72487163543701,9.74155426025391,9.75829410552979,9.77509212493896,9.79194736480713,9.80886077880859,9.82583332061768,9.84286403656006,9.85995483398438,9.87710475921631,9.91994285583496,9.97638511657715,10.0334739685059,10.0912199020386,10.1496343612671,10.2087297439575,10.2365674972534,10.2563438415527,10.2761974334717,10.2961273193359,10.3161354064941,10.336220741272,10.3563852310181,10.3766279220581,10.3969507217407,10.4173526763916,10.4378347396851,10.4583978652954,10.4790420532227,10.4997682571411,10.5205755233765,10.5414667129517
5.6548900604248,5.65826272964478,5.66163921356201,5.66501998901367,5.6684045791626,5.67179346084595,5.67518615722656,5.67858266830444,5.68198394775391,5.68538856506348,5.68879795074463,5.69221067428589,5.69562816619873,5.69904947280884,5.70247459411621,5.70590448379517,5.70933818817139,5.71277570724487,5.71621799468994,5.71966409683228,5.72311401367188,5.72656869888306,5.7300271987915,5.73348999023438,5.73695707321167,5.74042844772339,5.74390363693237,5.74738311767578,5.75086688995361,5.75435495376587,5.75784730911255,5.76134395599365,5.76484441757202,5.76834964752197,5.77185869216919,5.77537250518799,5.77889013290405,5.7824125289917,5.78593873977661,5.78946924209595,5.79300451278687,5.79654359817505,5.80008745193481,5.803635597229,5.80718803405762,5.81074476242065,5.81430578231812,5.83721113204956,5.84037637710571,5.84354496002197,5.8467173576355,5.84989309310913,5.85307216644287,5.85625457763672,5.85944032669067,5.86262989044189,5.86582279205322,5.86901950836182,5.87221908569336,5.87888860702515,5.88902425765991,5.89919567108154,5.90940189361572,5.91964340209961,5.9299201965332,5.94023323059082,5.9505820274353,5.96096706390381,5.97138833999634,5.98184633255005,5.99234056472778,6.00287199020386,6.01344013214111,6.02404594421387,6.03468942642212,6.04537010192871,6.05608892440796,6.06684541702271,6.07764053344727,6.08847427368164,6.09934663772583,6.11025762557983,6.12120771408081,6.13219738006592,6.14322662353516,6.15429544448853,6.16540431976318,6.17655324935913,6.18774271011353,6.19897270202637,6.21024370193481,6.22155523300171,6.23290872573853,6.24430322647095,6.25573968887329,6.26721811294556,6.2787389755249,6.29030179977417,6.30190753936768,6.31355619430542,6.3252477645874,6.33698320388794,6.34876155853271,6.3605842590332,6.3724513053894,6.38436222076416,6.39631795883179,6.40831851959229,6.42036437988281,6.43245506286621,6.44459199905396,6.45677471160889,6.46900320053101,6.48127841949463,6.49360036849976,6.50596904754639,6.51838493347168,6.53084850311279,6.54335927963257,6.55591869354248,6.56852626800537,6.5811824798584,6.59388732910156,6.60664129257202,6.61944484710693,6.63229846954346,6.64520168304443,6.65815496444702,6.67115926742554,6.68421459197998,6.69732046127319,6.71047830581665,6.72368812561035,6.7369499206543,6.75026369094849,6.76363086700439,6.77705049514771,6.79052352905273,6.80405044555664,6.81763172149658,6.8312668800354,6.84495639801025,6.85870170593262,6.87250185012817,6.88635778427124,6.90026950836182,6.91423749923706,6.92826223373413,6.94234418869019,6.95648336410522,6.97068023681641,6.98493528366089,6.99924850463867,7.01362085342407,7.02805185317993,7.04254293441772,7.05709314346313,7.07170438766479,7.08637571334839,7.10110855102539,7.11590242385864,7.13075828552246,7.14567613601685,7.16065645217896,7.17569971084595,7.19080638885498,7.20597696304321,7.22121143341064,7.23038148880005,7.23806047439575,7.24575662612915,7.25346851348877,7.26119709014893,7.26894187927246,7.27670335769653,7.28448152542114,7.29227638244629,7.30008745193481,7.30791568756104,7.31576061248779,7.32362270355225,7.33150148391724,7.33939743041992,7.34731006622314,7.35523986816406,7.36318683624268,7.37115097045898,7.37913274765015,7.38713121414185,7.3951473236084,7.40318059921265,7.41123199462891,7.41930055618286,7.42738628387451,7.43549013137817,7.44361162185669,7.45175075531006,7.45990800857544,7.46808290481567,7.47627544403076,7.48448657989502,7.49271535873413,7.50096225738525,7.50922775268555,7.51751089096069,7.52581262588501,7.5341329574585,7.54247140884399,7.5508279800415,7.55920362472534,7.56759786605835,7.57601070404053,7.58444213867188,7.59289216995239,7.60136127471924,7.6120753288269,7.62400960922241,7.63598108291626,7.64799022674561,7.66003704071045,7.67212200164795,7.68424558639526,7.69640684127808,7.70860719680786,7.72084617614746,7.73312377929688,7.74544095993042,7.75779724121094,7.77019262313843,7.78262805938721,7.79510354995728,7.80761861801147,7.82017421722412,7.83277034759521,7.84540700912476,7.8580846786499,7.8708028793335,7.88356304168701,7.89636421203613,7.90920686721802,7.92209148406982,7.93501853942871,7.94798755645752,7.96099901199341,7.98399353027344,8.03079986572266,8.07815837860107,8.12607860565186,8.17457103729248,8.22364616394043,8.27331352233887,8.32358455657959,8.37446975708008,8.42598152160645,8.47813034057617,8.53092956542969,8.58438968658447,8.63852500915527,8.69334697723389,8.74886894226074,8.80510425567627,8.86206817626953,8.91977405548096,8.97823524475098,9.03746891021729,9.09748840332031,9.15831089019775,9.21995258331299,9.28242874145508,9.34575843811035,9.40995693206787,9.47504425048828,9.52701854705811,9.54302883148193,9.5590934753418,9.57521152496338,9.591383934021,9.60761165618896,9.62389373779297,9.64023113250732,9.65662479400635,9.67307376861572,9.68957901000977,9.70614051818848,9.72275924682617,9.73943424224854,9.75616645812988,9.77295684814453,9.78980541229248,9.80671119689941,9.82367610931396,9.84070014953613,9.87196922302246,9.92786598205566,9.98439884185791,10.0415802001953,10.099419593811,10.1579294204712,10.2171211242676,10.2399015426636,10.2596912384033,10.2795572280884,10.2995014190674,10.3195219039917,10.33962059021,10.3597984313965,10.380054473877,10.400390625,10.4208059310913,10.4413013458252,10.4618787765503
5.64218759536743,5.64554500579834,5.64890670776367,5.65227174758911,5.65564155578613,5.65901470184326,5.66239213943481,5.66577386856079,5.66915941238403,5.67254877090454,5.67594242095947,5.67934036254883,5.68274211883545,5.68614768981934,5.6895580291748,5.69297170639038,5.69639015197754,5.69981241226196,5.70323848724365,5.70666933059692,5.7101035118103,5.71354246139526,5.71698522567749,5.72043228149414,5.72388362884521,5.72733879089355,5.73079872131348,5.73426198959351,5.73773002624512,5.74120235443115,5.74467849731445,5.74815893173218,5.75164365768433,5.7551326751709,5.75862598419189,5.76212358474731,5.765625,5.76913118362427,5.7726411819458,5.77615594863892,5.7796745300293,5.78319787979126,5.78672504425049,5.7902569770813,5.79379272460938,5.79733324050903,5.80087757110596,5.80442667007446,5.80798006057739,5.81153774261475,5.83933734893799,5.84250497817993,5.84567594528198,5.8488507270813,5.85202836990356,5.8552098274231,5.85839462280273,5.86158323287964,5.86477518081665,5.86853265762329,5.87863302230835,5.88876819610596,5.89893817901611,5.90914392471313,5.91938447952271,5.92966079711914,5.93997287750244,5.95032072067261,5.9607048034668,5.97112512588501,5.98158168792725,5.99207544326782,6.00260591506958,6.01317310333252,6.02377796173096,6.03442001342773,6.04510021209717,6.05581760406494,6.06657361984253,6.07736778259277,6.08820056915283,6.09907150268555,6.10998201370239,6.12093114852905,6.13191986083984,6.14294767379761,6.15401554107666,6.165123462677,6.17627143859863,6.18745994567871,6.19868898391724,6.20995855331421,6.22126960754395,6.23262166976929,6.24401521682739,6.25545072555542,6.26692819595337,6.27844762802124,6.29000949859619,6.30161428451538,6.31326150894165,6.32495212554932,6.33668613433838,6.348464012146,6.36028575897217,6.37215137481689,6.38406133651733,6.39601564407349,6.40801525115967,6.42005968093872,6.4321494102478,6.44428491592407,6.45646667480469,6.46869421005249,6.48096799850464,6.49328851699829,6.50565624237061,6.51807117462158,6.53053331375122,6.54304313659668,6.55560111999512,6.56820726394653,6.58086252212524,6.59356594085693,6.60631895065308,6.61912107467651,6.63197326660156,6.64487504959106,6.65782785415649,6.67083024978638,6.68388414382935,6.69698905944824,6.71014595031738,6.72335386276245,6.73661422729492,6.74992704391479,6.76329278945923,6.77671098709106,6.79018306732178,6.80370855331421,6.81728839874268,6.83092212677002,6.84461069107056,6.85835409164429,6.87215280532837,6.88600730895996,6.89991760253906,6.91388416290283,6.92790794372559,6.94198799133301,6.95612573623657,6.97032117843628,6.98457479476929,6.9988865852356,7.01325702667236,7.02768707275391,7.04217624664307,7.05672550201416,7.07133483886719,7.08600473403931,7.10073614120483,7.11552810668945,7.1303825378418,7.14529895782471,7.16027736663818,7.1753191947937,7.19042444229126,7.2008113861084,7.20842790603638,7.21606063842773,7.22370958328247,7.23137474060059,7.23905658721924,7.24675416946411,7.25446844100952,7.26219892501831,7.26994609832764,7.2777099609375,7.28549003601074,7.29328680038452,7.30110025405884,7.30893087387085,7.3167781829834,7.32464218139648,7.33252286911011,7.34042119979858,7.3483362197876,7.35626792907715,7.36421728134155,7.37218379974365,7.38016748428345,7.38816833496094,7.39618682861328,7.40422248840332,7.41227579116821,7.4203462600708,7.4284348487854,7.43654108047485,7.444664478302,7.45280599594116,7.46096563339233,7.46914291381836,7.47733783721924,7.48555088043213,7.49378252029419,7.5020318031311,7.51029920578003,7.51858520507812,7.52688932418823,7.53521156311035,7.54355239868164,7.5519118309021,7.56028985977173,7.56868600845337,7.57710123062134,7.58553552627563,7.5957088470459,7.60759162902832,7.61951160430908,7.63146877288818,7.64346361160278,7.65549659729004,7.66756725311279,7.6796760559082,7.69182300567627,7.70400905609131,7.716233253479,7.72849607467651,7.74079847335815,7.75313997268677,7.76552057266235,7.77794122695923,7.79040145874023,7.80290174484253,7.81544208526611,7.82802295684814,7.84064388275146,7.85330629348755,7.86600923538208,7.87875366210938,7.89153909683228,7.90436601638794,7.91723489761353,7.93014621734619,7.94309902191162,7.95609474182129,7.96913242340088,8.01314735412598,8.06029796600342,8.10800552368164,8.15628242492676,8.2051362991333,8.2545804977417,8.30462265014648,8.35527610778809,8.40655136108398,8.45845985412598,8.51101303100586,8.56422328948975,8.61810302734375,8.6726655960083,8.7279224395752,8.7838888168335,8.84057712554932,8.89800262451172,8.95617771148682,9.0151195526123,9.07484245300293,9.13536167144775,9.19669246673584,9.25885391235352,9.32186031341553,9.3857307434082,9.45048236846924,9.47730159759521,9.49314498901367,9.50904178619385,9.52499103546143,9.54099464416504,9.55705165863037,9.57316303253174,9.58932876586914,9.60554885864258,9.62182426452637,9.63815498352051,9.654541015625,9.67098331451416,9.68748188018799,9.70403575897217,9.72064685821533,9.73731517791748,9.75404071807861,9.77082347869873,9.78766441345215,9.80456352233887,9.82445812225342,9.87981605529785,9.9358024597168,9.9924259185791,10.0496988296509,10.1076326370239,10.1662378311157,10.2235116958618,10.2432384490967,10.2630405426025,10.282919883728,10.3028764724731,10.3229103088379,10.3430223464966,10.3632135391235,10.3834829330444
5.62954235076904,5.63288450241089,5.63623094558716,5.63958120346069,5.64293527603149,5.64629364013672,5.64965629577637,5.65302228927612,5.6563925743103,5.65976715087891,5.66314554214478,5.66652774810791,5.66991424560547,5.67330455780029,5.67669916152954,5.68009805679321,5.68350076675415,5.68690729141235,5.69031810760498,5.69373321533203,5.69715213775635,5.70057535171509,5.70400285720825,5.70743417739868,5.71086978912354,5.71430921554565,5.7177529335022,5.72120094299316,5.72465324401855,5.72810935974121,5.73156976699829,5.73503446578979,5.73850345611572,5.74197626113892,5.74545383453369,5.74893522262573,5.7524209022522,5.75591087341309,5.7594051361084,5.76290321350098,5.76640605926514,5.76991271972656,5.77342414855957,5.77693939208984,5.7804594039917,5.78398323059082,5.78751182556152,5.79104423522949,5.79458141326904,5.79812240600586,5.80166816711426,5.80521821975708,5.80877208709717,5.84146547317505,5.84463548660278,5.84780883789062,5.85098552703857,5.85416555404663,5.85734939575195,5.86053657531738,5.86827850341797,5.87837791442871,5.888512134552,5.89868116378784,5.90888595581055,5.9191255569458,5.92940092086792,5.9397120475769,5.95005893707275,5.96044206619263,5.97086143493652,5.9813175201416,5.9918098449707,6.00233936309814,6.01290607452393,6.02350997924805,6.03415107727051,6.04483032226562,6.05554676055908,6.06630182266235,6.07709503173828,6.08792638778687,6.09879684448242,6.10970592498779,6.12065410614014,6.13164186477661,6.14266920089722,6.15373611450195,6.16484260559082,6.17598962783813,6.1871771812439,6.19840478897095,6.20967388153076,6.22098350524902,6.23233461380005,6.24372720718384,6.25516176223755,6.26663780212402,6.27815628051758,6.28971719741821,6.30132055282593,6.31296730041504,6.32465696334839,6.33638954162598,6.34816646575928,6.35998678207397,6.37185144424438,6.38375997543335,6.39571332931519,6.40771198272705,6.41975545883179,6.43184375762939,6.44397830963135,6.45615863800049,6.46838521957397,6.48065757751465,6.49297714233398,6.50534343719482,6.51775693893433,6.53021812438965,6.54272699356079,6.55528354644775,6.56788873672485,6.58054256439209,6.59324502944946,6.60599660873413,6.61879777908325,6.63164854049683,6.64454889297485,6.65750026702881,6.67050170898438,6.68355417251587,6.69665813446045,6.70981311798096,6.72302007675171,6.73627901077271,6.7495903968811,6.76295471191406,6.77637195587158,6.78984260559082,6.80336666107178,6.81694459915161,6.83057737350464,6.8442645072937,6.85800647735596,6.87180376052856,6.88565683364868,6.89956569671631,6.91353130340576,6.92755317687988,6.94163227081299,6.95576858520508,6.96996212005615,6.98421430587769,6.99852466583252,7.01289367675781,7.02732229232788,7.04181003570557,7.05635738372803,7.07096576690674,7.08563375473022,7.10036325454712,7.11515426635742,7.13000679016113,7.14492177963257,7.15989875793457,7.1714825630188,7.17903709411621,7.186607837677,7.19419431686401,7.2017970085144,7.20941543579102,7.21705055236816,7.22470140457153,7.23236894607544,7.24005222320557,7.24775218963623,7.25546836853027,7.26320123672485,7.27095031738281,7.27871656417847,7.28649854660034,7.29429769515991,7.30211353302002,7.30994606018066,7.31779527664185,7.32566165924072,7.33354473114014,7.34144496917725,7.34936237335205,7.35729646682739,7.36524820327759,7.37321662902832,7.38120269775391,7.38920593261719,7.39722633361816,7.40526437759399,7.41332006454468,7.42139291763306,7.42948389053345,7.43759202957153,7.44571781158447,7.45386171340942,7.46202325820923,7.47020292282104,7.47840070724487,7.48661613464355,7.49484968185425,7.50310134887695,7.51137113571167,7.51965951919556,7.52796602249146,7.53629064559937,7.54463386535645,7.5529956817627,7.56137609481812,7.56977510452271,7.57941198348999,7.59124374389648,7.60311269760132,7.61501884460449,7.62696218490601,7.63894271850586,7.65096139907837,7.66301774978638,7.67511224746704,7.68724489212036,7.6994161605835,7.71162557601929,7.72387409210205,7.73616170883179,7.7484884262085,7.76085424423218,7.77325963973999,7.78570508956909,7.79819011688232,7.81071519851685,7.82328081130981,7.83588695526123,7.84853363037109,7.86122131347656,7.87395000457764,7.88671970367432,7.89953136444092,7.91238451004028,7.92527961730957,7.93821668624878,7.95119619369507,7.96421813964844,7.99557304382324,8.04251575469971,8.090012550354,8.13807487487793,8.18671035766602,8.23593139648438,8.28574752807617,8.3361701965332,8.38721084594727,8.43887996673584,8.49118900299072,8.54415130615234,8.5977783203125,8.6520824432373,8.70707702636719,8.76277542114258,8.81919097900391,8.8763370513916,8.93422889709473,8.99288082122803,9.05230808258057,9.11252593994141,9.17355060577393,9.2353982925415,9.29808521270752,9.36162853240967,9.41247367858887,9.4281005859375,9.44377994537354,9.45951080322266,9.4752950668335,9.49113178253174,9.50702095031738,9.52296447753906,9.53896045684814,9.55501079559326,9.57111549377441,9.5872745513916,9.60348796844482,9.6197566986084,9.63607978820801,9.65245914459229,9.66889381408691,9.68538475036621,9.70193195343018,9.71853637695312,9.73519706726074,9.75191497802734,9.76869010925293,9.78552436828613,9.83222961425781,9.88767528533936,9.94375038146973,10.0004653930664,10.0578308105469,10.1158590316772,10.1745595932007,10.2268371582031,10.2465763092041,10.2663927078247,10.2862844467163,10.3062543869019
5.61695289611816,5.62028074264526,5.62361192703247,5.6269474029541,5.630286693573,5.63362979888916,5.63697719573975,5.6403284072876,5.64368343353271,5.64704275131226,5.65040588378906,5.65377283096313,5.65714406967163,5.66051959991455,5.66389846801758,5.66728210449219,5.67066955566406,5.6740608215332,5.67745637893677,5.6808557510376,5.68425941467285,5.68766689300537,5.69107866287231,5.69449472427368,5.69791460037231,5.70133876800537,5.70476675033569,5.70819902420044,5.71163558959961,5.71507596969604,5.71852111816406,5.72196960449219,5.72542285919189,5.72887992858887,5.73234128952026,5.73580694198608,5.73927688598633,5.74275064468384,5.74622917175293,5.74971151351929,5.75319814682007,5.75668907165527,5.76018381118774,5.7636833190918,5.76718711853027,5.77069473266602,5.77420711517334,5.77772331237793,5.7812442779541,5.78476905822754,5.7882981300354,5.79183197021484,5.79537010192871,5.79891204833984,5.80245876312256,5.8060097694397,5.84359502792358,5.84676742553711,5.84994268417358,5.85312175750732,5.85796022415161,5.86802434921265,5.87812280654907,5.88825607299805,5.89842414855957,5.90862798690796,5.9188666343689,5.9291410446167,5.93945121765137,5.94979763031006,5.96017980575562,5.9705982208252,5.98105335235596,5.99154472351074,6.00207328796387,6.01263904571533,6.02324199676514,6.03388214111328,6.04456043243408,6.05527591705322,6.06603002548218,6.07682228088379,6.08765268325806,6.0985221862793,6.10943031311035,6.12037754058838,6.13136434555054,6.14239025115967,6.15345621109009,6.16456174850464,6.17570781707764,6.18689441680908,6.19812107086182,6.20938873291016,6.2206974029541,6.23204755783081,6.24343919754028,6.25487279891968,6.26634788513184,6.27786493301392,6.28942489624023,6.30102729797363,6.31267261505127,6.3243613243103,6.33609294891357,6.3478684425354,6.35968780517578,6.37155103683472,6.38345909118652,6.39541149139404,6.40740871429443,6.4194507598877,6.43153810501099,6.44367170333862,6.45585060119629,6.4680757522583,6.48034763336182,6.49266576766968,6.5050311088562,6.51744318008423,6.52990293502808,6.5424108505249,6.55496644973755,6.56757020950317,6.58022260665894,6.59292364120483,6.60567426681519,6.61847400665283,6.63132333755493,6.6442232131958,6.65717267990112,6.67017316818237,6.68322420120239,6.6963267326355,6.70948028564453,6.72268629074097,6.73594379425049,6.74925422668457,6.76261711120605,6.7760329246521,6.78950214385986,6.80302476882935,6.81660175323486,6.83023262023926,6.84391832351685,6.85765933990479,6.87145519256592,6.88530683517456,6.89921426773071,6.91317796707153,6.92719841003418,6.94127607345581,6.95541095733643,6.96960353851318,6.98385381698608,6.99816274642944,7.01253032684326,7.02695751190186,7.04144382476807,7.05598974227905,7.07059621810913,7.0852632522583,7.09999084472656,7.11478042602539,7.12963151931763,7.14239120483398,7.14988470077515,7.15739393234253,7.16491889953613,7.17246007919312,7.18001651763916,7.18758964538574,7.19517803192139,7.20278263092041,7.21040344238281,7.21804046630859,7.22569370269775,7.23336315155029,7.24104833602905,7.24875068664551,7.25646924972534,7.26420402526855,7.2719554901123,7.27972316741943,7.28750801086426,7.29530906677246,7.3031268119812,7.31096172332764,7.31881332397461,7.32668161392212,7.33456707000732,7.34246921539307,7.35038900375366,7.35832548141479,7.36627912521362,7.37424993515015,7.38223791122437,7.39024353027344,7.39826631546021,7.40630674362183,7.41436433792114,7.42243957519531,7.43053293228149,7.43864345550537,7.4467716217041,7.45491790771484,7.46308183670044,7.47126340866089,7.47946357727051,7.48768138885498,7.49591732025146,7.50417137145996,7.51244354248047,7.52073383331299,7.52904272079468,7.53737020492554,7.54571580886841,7.55408000946045,7.5631856918335,7.57496643066406,7.58678436279297,7.59863948822021,7.61053133010864,7.62246036529541,7.63442707061768,7.64643144607544,7.6584734916687,7.67055368423462,7.68267202377319,7.69482851028442,7.70702362060547,7.71925735473633,7.73153018951416,7.74384212493896,7.75619316101074,7.76858377456665,7.78101396560669,7.79348421096802,7.80599451065063,7.81854486465454,7.83113527297974,7.84376668930054,7.85643911361694,7.8691520690918,7.88190650939941,7.89470243453979,7.90753984451294,7.92041921615601,7.93334054946899,7.9463038444519,7.95931005477905,7.97807502746582,8.02481174468994,8.07209968566895,8.119948387146,8.16836738586426,8.21736717224121,8.26695823669434,8.31715202331543,8.36795902252197,8.41938972473145,8.47145748138428,8.52417278289795,8.57754802703857,8.63159656524658,8.68633079528809,8.74176216125488,8.79790687561035,8.85477733612061,8.91238689422607,8.97075176239014,9.02988624572754,9.08980464935303,9.1505241394043,9.21206092834473,9.27443027496338,9.33764934539795,9.36394214630127,9.37940788269043,9.39492511749268,9.41049480438232,9.42611503601074,9.44178771972656,9.45751190185547,9.47328948974609,9.48911952972412,9.50500202178955,9.5209379196167,9.53692817687988,9.55297183990479,9.56906890869141,9.58522129058838,9.60142707824707,9.61768913269043,9.63400554656982,9.65037727355957,9.66680526733398,9.68328952789307,9.6998291015625,9.71642589569092,9.73307991027832,9.74979019165039,9.7850980758667,9.84001350402832,9.89554786682129,9.9517126083374,10.0085182189941,10.0659761428833,10.124098777771,10.1828956604004,10.2301654815674
