5.47573375701904,5.47749137878418,5.47925090789795,5.48101091384888,5.48277235031128,5.484534740448,5.48629856109619,5.4880633354187,5.48982906341553,5.49159574508667,5.49336433410645,5.49513339996338,5.49690389633179,5.49867534637451,5.50044822692871,5.50222206115723,5.50399684906006,5.50577306747437,5.50755071640015,5.50932884216309,5.5111083984375,5.51288938522339,5.51467132568359,5.51645421981812,5.51823854446411,5.52002382278442,5.52181005477905,5.52359819412231,5.52538681030273,5.52717685699463,5.52896785736084,5.53076028823853,5.53255367279053,5.534348487854,5.5361442565918,5.53794097900391,5.53973913192749,5.54153871536255,5.54333925247192,5.54514074325562,5.54694318771362,5.54874753952026,5.55055284500122,5.55235862731934,5.55416631698608,5.55597496032715,5.55778503417969,5.55959606170654,5.56140804290771,5.56322145462036,5.56503629684448,5.56685209274292,5.56866884231567,5.5704870223999,5.57230615615845,5.57412672042847,5.57594871520996,5.57777166366577,5.5795955657959,5.5814208984375,5.58324718475342,5.58507490158081,5.58690404891968,5.58873414993286,5.59056520462036,5.59239768981934,5.59423160552979,5.59606647491455,5.59790229797363,5.59973955154419,5.60157823562622,5.60341787338257,5.60525894165039,5.60710096359253,5.60894393920898,5.61078882217407,5.61263465881348,5.6144814491272,5.61632966995239,5.6181788444519,5.62002992630005,5.62188148498535,5.62373447418213,5.62558889389038,5.62744426727295,5.62930107116699,5.63115930557251,5.63301849365234,5.63487863540649,5.63674020767212,5.64379215240479,5.65469694137573,5.6656436920166,5.67663288116455,5.68766498565674,5.69874000549316,5.70985794067383,5.72101974487305,5.73222494125366,5.74347448348999,5.75476789474487,5.76610612869263,5.77748870849609,5.78891658782959,5.80038976669312,5.81190872192383,5.82347297668457,5.83508396148682,5.84674072265625,5.85844469070435,5.87019538879395,5.88199329376221,5.89383888244629,5.90573215484619,5.91767358779907,5.92966318130493,5.94170141220093,5.95378875732422,5.96592569351196,5.978111743927,5.99034786224365,6.00263452529907,6.0149712562561,6.02735900878906,6.03979778289795,6.05228805541992,6.06482982635498,6.07742404937744,6.0900707244873,6.10276985168457,6.11552238464355,6.1283278465271,6.14118719100952,6.15410089492798,6.16706895828247,6.18009185791016,6.19316959381104,6.20630264282227,6.21949195861816,6.23273754119873,6.24603939056396,6.25939798355103,6.27281379699707,6.28628778457642,6.2998194694519,6.31340932846069,6.3270583152771,6.34076595306396,6.35453367233276,6.36836099624634,6.382248878479,6.3961968421936,6.41020631790161,6.42427778244019,6.43841028213501,6.45260572433472,6.46276092529297,6.46648406982422,6.47021150588989,6.47394323348999,6.47767972946167,6.48142004013062,6.48516464233398,6.48891401290894,6.49266719818115,6.49642515182495,6.50018739700317,6.50395345687866,6.50772476196289,6.51149940490723,6.51527881622314,6.51906251907349,6.52285051345825,6.5266432762146,6.53044033050537,6.53424167633057,6.53804731369019,6.54185771942139,6.54567193984985,6.54949140548706,6.55331468582153,6.55714273452759,6.56097555160522,6.56481266021729,6.56865406036377,6.57249975204468,6.57635021209717,6.58020544052124,6.58406496047974,6.58792877197266,6.59179735183716,6.59567070007324,6.59954833984375,6.60343074798584,6.60731744766235,6.61120891571045,6.61510467529297,6.61900520324707,6.62291049957275,6.62682056427002,6.63073492050171,6.63465404510498,6.63857746124268,6.64250564575195,6.64643859863281,6.65037631988525,6.65431880950928,6.65826559066772,6.66221761703491,6.66617393493652,6.6801438331604,6.71517896652222,6.75058317184448,6.78636312484741,6.82252407073975,6.85907220840454,6.89601469039917,6.93335294723511,6.97109603881836,7.00925207138062,7.04782819747925,7.08683109283447,7.12626838684082,7.16614675521851,7.20647430419922,7.24725818634033,7.28850650787354,7.33022689819336,7.37242698669434,7.41511678695679,7.45508050918579,7.49337768554688,7.53207063674927,7.57116460800171,7.61066722869873,7.65384101867676,7.69859266281128,7.74387073516846,7.7896842956543,7.83604335784912,7.88295745849609,7.93043661117554,7.97849082946777,8.02713108062744,8.07636833190918,8.12621402740479,8.17667770385742,8.22788429260254,8.27983474731445,8.33244514465332,8.38572883605957,8.43969821929932,8.49436664581299,8.54974842071533,8.60585594177246,8.66285419464111,8.73553466796875,8.80944538116455,8.88461685180664,8.96108245849609,9.03688621520996,9.10112476348877,9.16628360748291,9.23238277435303,9.29944133758545,9.36748123168945,9.43652439117432,9.50659275054932,9.57769393920898,9.64984607696533,0,0,0,0,0,0,0,0,0,0,0,0,0,0,0,0,0,0,0,0,0,0,0,0,0,0,0,0,0,0,0,0,0,0,0,0,0,0,0,0,0,0,0,0,0,0,0,0,0,0,0,0,0,0,0,0,0
5.46140432357788,5.46315288543701,5.46490287780762,5.46665382385254,5.46840572357178,5.47015905380249,5.47191333770752,5.47366905212402,5.47542572021484,5.47718334197998,5.47894239425659,5.48070240020752,5.48246335983276,5.48422574996948,5.48598909378052,5.48775386810303,5.48951959609985,5.491286277771,5.49305438995361,5.49482345581055,5.4965934753418,5.49836492538452,5.50013732910156,5.50191116333008,5.50368595123291,5.50546169281006,5.50723886489868,5.50901699066162,5.51079654693604,5.51257705688477,5.51435899734497,5.51614189147949,5.51792573928833,5.51971101760864,5.52149724960327,5.52328443527222,5.52507305145264,5.52686309814453,5.52865409851074,5.53044605255127,5.53223943710327,5.53403377532959,5.53582954406738,5.53762626647949,5.53942394256592,5.54122304916382,5.54302310943604,5.54482460021973,5.54662752151489,5.54843091964722,5.55023622512817,5.55204248428345,5.55384969711304,5.55565786361694,5.55746746063232,5.55927848815918,5.56109046936035,5.562903881073,5.56471824645996,5.56653356552124,5.56835031509399,5.57016849517822,5.57198762893677,5.57380771636963,5.57562923431396,5.57745218276978,5.57927560806274,5.58110094070435,5.58292722702026,5.5847544670105,5.58658313751221,5.58841323852539,5.59024429321289,5.59207677841187,5.593909740448,5.59574460983276,5.59758043289185,5.5994176864624,5.60125589370728,5.60309553146362,5.60493612289429,5.60677814483643,5.60862112045288,5.61046552658081,5.61231088638306,5.61415767669678,5.61600542068481,5.61785507202148,5.61970520019531,5.62155675888062,5.62340974807739,5.62882900238037,5.63967609405518,5.65056467056274,5.66149568557739,5.67246866226196,5.68348455429077,5.69454288482666,5.7056450843811,5.71679019927979,5.72797870635986,5.73921155929565,5.75048828125,5.76180934906006,5.77317523956299,5.78458595275879,5.79604196548462,5.80754375457764,5.81909084320068,5.83068370819092,5.84232330322266,5.8540096282959,5.86574220657349,5.87752246856689,5.88934993743896,5.90122509002686,5.91314792633057,5.92511940002441,5.9371395111084,5.94920825958252,5.96132612228394,5.9734935760498,5.98571109771729,5.99797821044922,6.01029586791992,6.02266454696655,6.03508377075195,6.04755449295044,6.06007671356201,6.07265138626099,6.08527803421021,6.09795713424683,6.11068916320801,6.12347459793091,6.13631391525269,6.14920711517334,6.16215419769287,6.1751561164856,6.18821334838867,6.20132541656494,6.21449327468872,6.22771739959717,6.24099779129028,6.25433492660522,6.26772928237915,6.28118133544922,6.29469108581543,6.30825901031494,6.32188510894775,6.33557081222534,6.34931564331055,6.36312055587769,6.3769850730896,6.39091062545776,6.40489673614502,6.41894483566284,6.43305397033691,6.44722557067871,6.46145963668823,6.47575712203979,6.49011754989624,6.49398517608643,6.4977445602417,6.5015082359314,6.50527620315552,6.50904846191406,6.51282548904419,6.51660633087158,6.52039194107056,6.52418184280396,6.52797651290894,6.53177499771118,6.53557777404785,6.5393853187561,6.54319715499878,6.54701328277588,6.5508337020874,6.55465888977051,6.55848836898804,6.56232261657715,6.56616115570068,6.5700044631958,6.57385206222534,6.57770395278931,6.58156061172485,6.58542156219482,6.58928728103638,6.59315729141235,6.59703207015991,6.60091161727905,6.60479545593262,6.60868358612061,6.61257696151733,6.61647462844849,6.62037658691406,6.62428331375122,6.62819480895996,6.63211107254028,6.63603162765503,6.63995695114136,6.64388704299927,6.6478214263916,6.65176057815552,6.65570449829102,6.6596531867981,6.66360664367676,6.66756439208984,6.67152738571167,6.67549467086792,6.67946672439575,6.68344402313232,6.68742561340332,6.71816730499268,6.75360345840454,6.78941535949707,6.82560873031616,6.86219072341919,6.89916610717773,6.93654251098633,6.97432041168213,7.01251173019409,7.05112409591675,7.09016370773315,7.12963819503784,7.16955423355103,7.20992040634155,7.25074338912964,7.29203128814697,7.33379173278809,7.37603378295898,7.4187650680542,7.46093320846558,7.49929094314575,7.53804492950439,7.57720136642456,7.61676692962646,7.65725326538086,7.70204496383667,7.74736356735229,7.7932186126709,7.8396201133728,7.88657712936401,7.93410015106201,7.98219919204712,8.03088474273682,8.08016872406006,8.13006019592285,8.18057250976562,8.2317476272583,8.28374671936035,8.33640766143799,8.38974189758301,8.44376277923584,8.49848365783691,8.55391979217529,8.61008262634277,8.66698741912842,8.73671054840088,8.81064033508301,8.88583183288574,8.96231842041016,9.04013347625732,9.10661792755127,9.17185592651367,9.23803424835205,9.30517578125,9.37330055236816,9.4424295425415,9.51258563995361,9.58379173278809,9.65603637695312,9.72937870025635,0,0,0,0,0,0,0,0,0,0,0,0,0,0,0,0,0,0,0,0,0,0,0,0,0,0,0,0,0,0,0,0,0,0,0,0,0,0,0,0,0,0,0,0,0,0,0,0,0,0,0,0,0,0,0
5.4471492767334,5.44888925552368,5.45062971115112,5.45237159729004,5.45411491394043,5.45585870742798,5.457603931427,5.4593505859375,5.46109771728516,5.46284627914429,5.46459627151489,5.46634674072266,5.46809864044189,5.46985197067261,5.47160625457764,5.47336149215698,5.47511768341064,5.47687530517578,5.47863388061523,5.48039388656616,5.48215484619141,5.48391675949097,5.485680103302,5.48744440078735,5.48921012878418,5.49097633361816,5.49274444580078,5.49451303482056,5.49628305435181,5.49805450439453,5.49982643127441,5.50160026550293,5.5033745765686,5.50515031814575,5.50692749023438,5.50870561599731,5.51048469543457,5.5122652053833,5.51404666900635,5.51582908630371,5.51761293411255,5.5193977355957,5.52118396759033,5.52297115325928,5.5247597694397,5.52654933929443,5.52833986282349,5.53013181686401,5.53192472457886,5.53371906280518,5.53551483154297,5.53731107711792,5.53910875320435,5.54090785980225,5.54270792007446,5.544508934021,5.546311378479,5.54811477661133,5.54991960525513,5.5517258644104,5.55353260040283,5.55534076690674,5.55715036392212,5.55896091461182,5.56077289581299,5.56258583068848,5.56440019607544,5.56621551513672,5.56803178787231,5.56984949111938,5.57166862487793,5.57348871231079,5.57530975341797,5.57713270187378,5.57895612716675,5.58078098297119,5.58260726928711,5.58443450927734,5.58626270294189,5.58809232711792,5.58992338180542,5.59175539016724,5.59358882904053,5.59542322158813,5.59725856781006,5.59909582138062,5.60093355178833,5.60277271270752,5.60461330413818,5.60645484924316,5.60829782485962,5.61014223098755,5.61394548416138,5.62473487854004,5.63556575775146,5.64643859863281,5.65735340118408,5.66831064224243,5.6793098449707,5.69035243988037,5.70143795013428,5.71256637573242,5.72373867034912,5.73495483398438,5.74621486663818,5.75751924514771,5.76886796951294,5.7802619934082,5.79170083999634,5.8031849861145,5.81471490859985,5.82629060745239,5.83791255950928,5.84958076477051,5.8612961769104,5.8730583190918,5.88486766815186,5.89672470092773,5.90862989425659,5.92058277130127,5.93258428573608,5.94463443756104,5.95673370361328,5.96888256072998,5.98108100891113,5.9933295249939,6.00562810897827,6.01797723770142,6.03037738800049,6.04282855987549,6.05533123016357,6.0678858757019,6.08049297332764,6.09315204620361,6.10586404800415,6.11862945556641,6.13144826889038,6.14432096481323,6.15724754333496,6.17022895812988,6.18326473236084,6.19635629653931,6.20950317382812,6.22270584106445,6.23596477508545,6.24928045272827,6.26265287399292,6.27608299255371,6.28957080841064,6.30311679840088,6.31672096252441,6.33038425445557,6.34410667419434,6.35788869857788,6.3717303276062,6.38563299179077,6.39959621429443,6.41362047195435,6.42770671844482,6.44185447692871,6.45606517791748,6.47033834457397,6.48467493057251,6.49907493591309,6.51353931427002,6.52172088623047,6.5255126953125,6.5293083190918,6.53310871124268,6.53691339492798,6.54072284698486,6.54453659057617,6.5483546257019,6.55217695236206,6.55600357055664,6.5598349571228,6.56367063522339,6.5675106048584,6.57135534286499,6.57520437240601,6.5790581703186,6.58291625976562,6.58677911758423,6.59064626693726,6.59451818466187,6.5983943939209,6.60227537155151,6.60616064071655,6.61005067825317,6.61394548416138,6.617844581604,6.62174844741821,6.62565660476685,6.62957000732422,6.63348770141602,6.63740968704224,6.6413369178772,6.64526844024658,6.64920473098755,6.65314531326294,6.65709114074707,6.66104125976562,6.66499662399292,6.66895580291748,6.67292022705078,6.67688941955566,6.68086338043213,6.68484163284302,6.68882513046265,6.6928129196167,6.69680595397949,6.70080327987671,6.70480585098267,6.72115850448608,6.75662612915039,6.79247045516968,6.82869672775269,6.86531114578247,6.90232086181641,6.93973159790039,6.97754764556885,7.01577472686768,7.0544228553772,7.09349918365479,7.13301086425781,7.17296504974365,7.21336936950684,7.25423192977905,7.29555940628052,7.33736085891724,7.37964391708374,7.42241716384888,7.46568918228149,7.50521326065063,7.54402875900269,7.58324766159058,7.62287664413452,7.66292142868042,7.70550060272217,7.75085973739624,7.79675674438477,7.84319972991943,7.89020013809204,7.93776655197144,7.98591041564941,8.03464221954346,8.08397197723389,8.1339111328125,8.18447113037109,8.23566341400146,8.28766250610352,8.34037303924561,8.39375782012939,8.44783115386963,8.50260543823242,8.55809497833252,8.61431217193604,8.67127418518066,8.73788547515869,8.81183528900146,8.88704776763916,8.96355533599854,9.04139232635498,9.11211681365967,9.17743396759033,9.24369430541992,9.31091785430908,9.37912654876709,9.44834136962891,9.51858615875244,9.58988285064697,9.66223335266113,9.73567008972168,0,0,0,0,0,0,0,0,0,0,0,0,0,0,0,0,0,0,0,0,0,0,0,0,0,0,0,0,0,0,0,0,0,0,0,0,0,0,0,0,0,0,0,0,0,0,0,0,0,0,0,0,0,0
5.43296909332275,5.43469953536987,5.43643140792847,5.43816423416138,5.4398980140686,5.44163274765015,5.44336891174316,5.44510650634766,5.44684457778931,5.44858407974243,5.45032453536987,5.45206642150879,5.45380926132202,5.45555305480957,5.45729827880859,5.45904445648193,5.46079158782959,5.46253967285156,5.46428918838501,5.46604013442993,5.46779155731201,5.46954441070557,5.47129821777344,5.47305345535278,5.4748101234436,5.47656726837158,5.47832584381104,5.4800853729248,5.48184585571289,5.48360776901245,5.48537111282349,5.48713493347168,5.48890066146851,5.49066686630249,5.49243450164795,5.49420309066772,5.49597263336182,5.49774360656738,5.49951601028442,5.50128936767578,5.50306367874146,5.5048394203186,5.50661563873291,5.50839376449585,5.51017284393311,5.51195287704468,5.51373434066772,5.51551675796509,5.51730012893677,5.51908493041992,5.52087068557739,5.52265787124634,5.5244460105896,5.52623558044434,5.52802610397339,5.52981758117676,5.5316104888916,5.53340435028076,5.53520011901855,5.53699636459351,5.53879356384277,5.54059219360352,5.54239225387573,5.54419326782227,5.54599523544312,5.54779863357544,5.54960346221924,5.55140924453735,5.55321598052979,5.55502414703369,5.55683326721191,5.55864381790161,5.56045532226562,5.56226825714111,5.56408214569092,5.56589698791504,5.56771326065063,5.56953096389771,5.57134962081909,5.57316970825195,5.57499074935913,5.57681274414062,5.57863616943359,5.58046102523804,5.5822868347168,5.58411407470703,5.58594226837158,5.58777141571045,5.58960247039795,5.59143400192261,5.59326696395874,5.59510135650635,5.59693670272827,5.59914016723633,5.60987234115601,5.62064599990845,5.63146162033081,5.64231824874878,5.65321731567383,5.6641583442688,5.67514181137085,5.68616819381714,5.69723701477051,5.70834922790527,5.71950531005859,5.73070478439331,5.74194812774658,5.75323534011841,5.76456737518311,5.77594423294067,5.78736591339111,5.79883289337158,5.81034564971924,5.82190418243408,5.83350849151611,5.84515905380249,5.85685682296753,5.86860084533691,5.88039255142212,5.89223146438599,5.90411806106567,5.91605281829834,5.92803621292114,5.94006776809692,5.95214891433716,5.96427869796753,5.97645807266235,5.98868751525879,6.00096702575684,6.01329708099365,6.0256781578064,6.03810977935791,6.05059289932251,6.06312799453735,6.07571506500244,6.08835458755493,6.10104656219482,6.11379146575928,6.12659025192261,6.13944244384766,6.15234851837158,6.16530895233154,6.1783242225647,6.1913948059082,6.20452070236206,6.21770238876343,6.2309398651123,6.24423408508301,6.25758504867554,6.27099323272705,6.28445911407471,6.29798269271851,6.31156492233276,6.32520580291748,6.33890581130981,6.35266494750977,6.36648416519165,6.38036394119263,6.3943042755127,6.40830516815186,6.42236804962158,6.43649244308472,6.45067930221558,6.46492862701416,6.47924137115479,6.49361705780029,6.50805711746216,6.52256155014038,6.53713083267212,6.54969501495361,6.5535192489624,6.55734777450562,6.56118059158325,6.56501817703247,6.56886053085327,6.57270669937134,6.57655763626099,6.58041286468506,6.58427238464355,6.58813667297363,6.59200572967529,6.59587907791138,6.59975719451904,6.60363960266113,6.6075267791748,6.6114182472229,6.61531448364258,6.61921548843384,6.62312078475952,6.62703084945679,6.63094568252563,6.63486480712891,6.63878870010376,6.6427173614502,6.64665079116821,6.65058851242065,6.65453100204468,6.65847826004028,6.66243028640747,6.66638660430908,6.67034816741943,6.67431402206421,6.67828464508057,6.68226003646851,6.68624067306519,6.69022560119629,6.69421529769897,6.69820976257324,6.70220899581909,6.70621299743652,6.71022176742554,6.71423530578613,6.71825361251831,6.72227668762207,6.72630500793457,6.75965213775635,6.79552793502808,6.831787109375,6.86843538284302,6.90547847747803,6.9429235458374,6.9807767868042,7.01904058456421,7.05772495269775,7.09683799743652,7.13638687133789,7.17637920379639,7.21682214736938,7.25772333145142,7.29909133911133,7.34093284606934,7.3832573890686,7.42607307434082,7.46938753128052,7.51114511489868,7.55002212524414,7.58930349349976,7.62899589538574,7.66910552978516,7.70963907241821,7.75435924530029,7.80029773712158,7.84678316116333,7.89382648468018,7.94143676757812,7.98962545394897,8.03840255737305,8.08777809143066,8.1377649307251,8.18837261199951,8.23961448669434,8.29158115386963,8.34434223175049,8.39777851104736,8.45190334320068,8.50673007965088,8.56227397918701,8.6185474395752,8.67556476593018,8.7390604019165,8.81303119659424,8.88826465606689,8.96479320526123,9.04265117645264,9.1176233291626,9.18301868438721,9.24936008453369,9.31666660308838,9.38496017456055,9.45426177978516,9.5245943069458,9.59598159790039,9.66843891143799,9.74197006225586,0,0,0,0,0,0,0,0,0,0,0,0,0,0,0,0,0,0,0,0,0,0,0,0,0,0,0,0,0,0,0,0,0,0,0,0,0,0,0,0,0,0,0,0,0,0,0,0,0,0,0,0,0
5.41886234283447,5.42058372497559,5.42230653762817,5.42403030395508,5.4257550239563,5.42748117446899,5.42920827865601,5.43093633651733,5.43266582489014,5.43439626693726,5.43612766265869,5.4378604888916,5.43959379196167,5.44132900238037,5.44306468963623,5.44480180740356,5.44653987884521,5.44827890396118,5.45001983642578,5.45176124572754,5.45350360870361,5.45524740219116,5.45699214935303,5.45873832702637,5.46048545837402,5.462233543396,5.46398258209229,5.46573305130005,5.46748447418213,5.46923732757568,5.47099113464355,5.47274589538574,5.4745020866394,5.47625923156738,5.47801733016968,5.47977685928345,5.48153734207153,5.48329925537109,5.48506212234497,5.48682594299316,5.48859071731567,5.49035739898682,5.49212455749512,5.49389314651489,5.49566268920898,5.49743318557739,5.49920558929443,5.50097846984863,5.50275278091431,5.5045280456543,5.5063042640686,5.50808191299438,5.50986099243164,5.51164102554321,5.5134220123291,5.51520442962646,5.51698780059814,5.51877212524414,5.52055788040161,5.5223445892334,5.52413272857666,5.52592182159424,5.52771186828613,5.5295033454895,5.53129625320435,5.53309011459351,5.53488492965698,5.53668117523193,5.5384783744812,5.54027700424194,5.542076587677,5.54387760162354,5.54567956924438,5.54748249053955,5.54928684234619,5.55109262466431,5.55289888381958,5.55470705032349,5.55651617050171,5.55832624435425,5.56013774871826,5.56195020675659,5.5637640953064,5.56557893753052,5.56739521026611,5.56921243667603,5.57103061676025,5.57285070419312,5.57467126846313,5.57649374008179,5.5783166885376,5.58014106750488,5.58196687698364,5.58379364013672,5.58562183380127,5.59508848190308,5.60580539703369,5.61656379699707,5.62736320495605,5.6382040977478,5.64908742904663,5.66001224517822,5.67097997665405,5.6819896697998,5.69304275512695,5.70413827896118,5.71527767181396,5.72646045684814,5.73768711090088,5.74895811080933,5.76027345657349,5.77163314819336,5.7830376625061,5.79448747634888,5.80598306655884,5.81752395629883,5.82911062240601,5.84074401855469,5.85242366790771,5.8641505241394,5.8759241104126,5.88774490356445,5.89961385726929,5.91153001785278,5.92349529266357,5.93550825119019,5.94757080078125,5.95968198776245,5.97184276580811,5.98405313491821,5.99631357192993,6.00862455368042,6.02098608016968,6.03339862823486,6.04586219787598,6.05837774276733,6.07094478607178,6.08356428146362,6.09623670578003,6.10896158218384,6.12173986434937,6.13457155227661,6.14745759963989,6.16039752960205,6.17339181900024,6.18644142150879,6.19954633712769,6.21270656585693,6.22592306137085,6.23919582366943,6.25252532958984,6.26591157913208,6.27935552597046,6.29285764694214,6.30641746520996,6.32003593444824,6.33371353149414,6.34745025634766,6.36124706268311,6.37510347366333,6.3890209197998,6.40299892425537,6.41703796386719,6.43113899230957,6.44530248641968,6.45952796936035,6.47381687164307,6.48816871643066,6.50258445739746,6.51706409454346,6.53160905838013,6.54621839523315,6.56089353561401,6.57563495635986,6.58176708221436,6.58562898635864,6.58949518203735,6.59336566925049,6.59724092483521,6.60112047195435,6.60500431060791,6.60889291763306,6.61278629302979,6.6166844367981,6.62058687210083,6.62449359893799,6.62840509414673,6.63232183456421,6.63624238967896,6.64016819000244,6.64409828186035,6.64803314208984,6.65197277069092,6.65591716766357,6.65986585617065,6.66381931304932,6.66777753829956,6.67174053192139,6.67570829391479,6.67968082427979,6.6836576461792,6.68763971328735,6.69162654876709,6.69561767578125,6.69961404800415,6.70361471176147,6.70762062072754,6.71163082122803,6.71564626693726,6.71966648101807,6.7236909866333,6.72772073745728,6.73175573348999,6.73579502105713,6.73983907699585,6.74388837814331,6.76268005371094,6.79858875274658,6.83488035202026,6.8715615272522,6.9086389541626,6.94611835479736,6.98400688171387,7.02230978012085,7.06102991104126,7.10017967224121,7.13976621627808,7.17979621887207,7.22027778625488,7.26121854782104,7.30262613296509,7.34450912475586,7.38687419891357,7.42973184585571,7.47308969497681,7.51695585250854,7.55602502822876,7.5953688621521,7.63512516021729,7.67529916763306,7.71589851379395,7.75786209106445,7.80384159088135,7.85036993026733,7.89745616912842,7.94511079788208,7.99334383010864,8.04216575622559,8.09158897399902,8.14162254333496,8.1922779083252,8.24356842041016,8.29550552368164,8.34831523895264,8.40180206298828,8.455979347229,8.51085948944092,8.56645679473877,8.6227855682373,8.67986011505127,8.74023628234863,8.81422710418701,8.88948059082031,8.96603012084961,9.04391002655029,9.12313556671143,9.18861103057861,9.25503349304199,9.32242298126221,9.39080047607422,9.46018886566162,9.53061103820801,9.60208797454834,9.67464637756348,9.74827861785889,9.82303428649902,0,0,0,0,0,0,0,0,0,0,0,0,0,0,0,0,0,0,0,0,0,0,0,0,0,0,0,0,0,0,0,0,0,0,0,0,0,0,0,0,0,0,0,0,0,0,0,0,0,0,0
5.4048285484314,5.4065408706665,5.40825462341309,5.40996980667114,5.41168546676636,5.41340255737305,5.41512107849121,5.41684007644653,5.41856050491333,5.42028188705444,5.42200469970703,5.42372798919678,5.425452709198,5.42717838287354,5.42890548706055,5.43063354492188,5.43236255645752,5.43409299850464,5.43582391738892,5.43755674362183,5.43929004669189,5.44102478027344,5.4427604675293,5.44449710845947,5.44623517990112,5.44797420501709,5.44971418380737,5.45145559310913,5.45319843292236,5.45494174957275,5.45668649673462,5.4584321975708,5.4601788520813,5.46192693710327,5.46367597579956,5.46542644500732,5.46717739105225,5.46892976760864,5.47068357467651,5.4724383354187,5.47419404983521,5.47595119476318,5.47770929336548,5.47946834564209,5.48122882843018,5.48299026489258,5.4847526550293,5.48651647567749,5.48828172683716,5.49004745483398,5.49181461334229,5.49358320236206,5.49535226821899,5.4971227645874,5.49889469146729,5.50066757202148,5.50244140625,5.50421667098999,5.5059928894043,5.50777053833008,5.50954914093018,5.51132869720459,5.51310968399048,5.51489162445068,5.51667499542236,5.51845932006836,5.52024459838867,5.52203130722046,5.52381896972656,5.52560806274414,5.52739810943604,5.5291895866394,5.53098201751709,5.53277540206909,5.53457021713257,5.53636646270752,5.53816366195679,5.53996181488037,5.54176139831543,5.5435619354248,5.5453634262085,5.54716634750366,5.5489706993103,5.55077600479126,5.55258226394653,5.55438995361328,5.5561990737915,5.55800914764404,5.5598201751709,5.56163263320923,5.56344604492188,5.565260887146,5.56707668304443,5.56889390945435,5.57071208953857,5.57253170013428,5.58038234710693,5.59104299545288,5.60174417495728,5.61248683929443,5.6232705116272,5.63409614562988,5.64496326446533,5.6558723449707,5.66682386398315,5.67781734466553,5.6888542175293,5.6999340057373,5.71105670928955,5.72222280502319,5.73343324661255,5.7446870803833,5.75598526000977,5.7673282623291,5.77871608734131,5.79014873504639,5.80162668228149,5.81315040588379,5.82471990585327,5.8363356590271,5.84799766540527,5.85970640182495,5.87146234512329,5.88326549530029,5.89511585235596,5.9070143699646,5.91896104812622,5.93095588684082,5.94299936294556,5.95509195327759,5.96723413467407,5.97942590713501,5.9916672706604,6.00395917892456,6.01630163192749,6.02869462966919,6.04113864898682,6.05363464355469,6.06618213653564,6.078782081604,6.09143400192261,6.10413885116577,6.11689710617065,6.12970876693726,6.14257383346558,6.15549325942993,6.16846704483032,6.18149566650391,6.19457960128784,6.20771884918213,6.22091436386108,6.23416566848755,6.24747371673584,6.26083850860596,6.27426052093506,6.28774070739746,6.30127859115601,6.31487464904785,6.32852983474731,6.34224414825439,6.35601806640625,6.36985206604004,6.38374614715576,6.39770126342773,6.41171741485596,6.42579507827759,6.43993473052979,6.45413637161255,6.46840143203735,6.48272895812988,6.49712085723877,6.5115761756897,6.52609634399414,6.5406813621521,6.55533170700073,6.5700478553772,6.58482980728149,6.5996789932251,6.61025953292847,6.61415481567383,6.61805438995361,6.62195873260498,6.62586736679077,6.62978076934814,6.63369846343994,6.63762092590332,6.64154815673828,6.64548015594482,6.64941644668579,6.65335750579834,6.65730333328247,6.66125392913818,6.66520929336548,6.66916942596436,6.67313385009766,6.67710304260254,6.681077003479,6.68505620956421,6.68903970718384,6.69302797317505,6.69702100753784,6.70101881027222,6.70502138137817,6.70902872085571,6.71304082870483,6.71705770492554,6.72107934951782,6.72510623931885,6.72913789749146,6.73317384719849,6.73721504211426,6.74126100540161,6.74531173706055,6.74936723709106,6.75342798233032,6.75749349594116,6.76156377792358,6.76571130752563,6.80165195465088,6.83797645568848,6.87469100952148,6.91180229187012,6.94931602478027,6.98723936080933,7.02557897567749,7.06433820724487,7.10352468490601,7.14314842224121,7.18321704864502,7.22373723983765,7.26471710205078,7.30616474151611,7.34808826446533,7.39049530029297,7.43339490890503,7.4767951965332,7.52070569992065,7.56203746795654,7.60144424438477,7.64126396179199,7.68150329589844,7.72216844558716,7.76326608657837,7.80738925933838,7.85395956039429,7.90108919143677,7.94878768920898,7.99706554412842,8.04593372344971,8.09540271759033,8.14548301696777,8.19618797302246,8.24752712249756,8.2995138168335,8.35229206085205,8.40583038330078,8.46005916595459,8.51499271392822,8.57064437866211,8.627028465271,8.68415832519531,8.74205112457275,8.81542301177979,8.89069747924805,8.9672679901123,9.04516887664795,9.12443542480469,9.19421005249023,9.26071357727051,9.32818603515625,9.39664840698242,9.46612358093262,9.53663444519043,9.60820293426514,9.68085384368896,9.75459575653076,9.82944774627686,0,0,0,0,0,0,0,0,0,0,0,0,0,0,0,0,0,0,0,0,0,0,0,0,0,0,0,0,0,0,0,0,0,0,0,0,0,0,0,0,0,0,0,0,0,0,0,0,0,0
5.39086723327637,5.39257097244263,5.3942756652832,5.39598178863525,5.39768934249878,5.39939737319946,5.40110635757446,5.40281677246094,5.40452814102173,5.40624094009399,5.40795421600342,5.40966892242432,5.41138505935669,5.41310167312622,5.41481971740723,5.41653871536255,5.41825914382935,5.4199800491333,5.42170238494873,5.42342567443848,5.4251503944397,5.42687606811523,5.42860269546509,5.43033075332642,5.4320592880249,5.43378925323486,5.4355206489563,5.43725299835205,5.43898630142212,5.4407205581665,5.44245624542236,5.44419288635254,5.44593048095703,5.447669506073,5.44940948486328,5.45115041732788,5.45289278030396,5.45463609695435,5.45638036727905,5.45812606811523,5.45987272262573,5.46162033081055,5.46336936950684,5.46511936187744,5.46687030792236,5.46862268447876,5.47037649154663,5.47213077545166,5.47388648986816,5.47564315795898,5.47740077972412,5.47915983200073,5.48091983795166,5.48268127441406,5.48444366455078,5.48620748519897,5.48797225952148,5.48973798751831,5.49150466918945,5.49327278137207,5.49504232406616,5.49681234359741,5.49858427047729,5.50035667419434,5.50213050842285,5.50390529632568,5.50568151473999,5.50745868682861,5.50923728942871,5.51101684570312,5.51279735565186,5.51457929611206,5.51636219024658,5.51814651489258,5.51993179321289,5.52171802520752,5.52350568771362,5.52529430389404,5.52708435058594,5.52887535095215,5.53066778182983,5.53246116638184,5.53425598144531,5.53605175018311,5.53784847259521,5.5396466255188,5.5414457321167,5.54324626922607,5.54504776000977,5.54685068130493,5.54865455627441,5.55045938491821,5.55226564407349,5.55407333374023,5.55588150024414,5.55769157409668,5.55950260162354,5.56575298309326,5.5763578414917,5.58700323104858,5.59768915176392,5.60841608047485,5.61918449401855,5.62999391555786,5.64084529876709,5.65173864364624,5.66267395019531,5.67365169525146,5.6846718788147,5.69573497772217,5.70684146881104,5.7179913520813,5.72918510437012,5.74042224884033,5.75170373916626,5.76303005218506,5.77440071105957,5.78581619262695,5.79727697372437,5.80878353118896,5.82033586502075,5.83193397521973,5.84357833862305,5.85526943206787,5.8670072555542,5.87879228591919,5.890625,5.90250539779663,5.91443347930908,5.92641019821167,5.93843555450439,5.95050954818726,5.96263265609741,5.97480583190918,5.98702812194824,5.99930095672607,6.01162433624268,6.02399778366089,6.03642272949219,6.04889917373657,6.06142711639404,6.07400703430176,6.08663940429688,6.09932422637939,6.11206197738647,6.12485361099243,6.13769817352295,6.1505970954895,6.16355037689209,6.17655801773071,6.18962097167969,6.20273923873901,6.21591329574585,6.22914361953735,6.24242973327637,6.25577306747437,6.26917362213135,6.28263187408447,6.29614782333374,6.30972194671631,6.32335472106934,6.33704662322998,6.35079765319824,6.36460876464844,6.37848043441772,6.39241218566895,6.40640497207642,6.42045927047729,6.43457555770874,6.44875383377075,6.46299505233765,6.47729873657227,6.49166631698608,6.50609731674194,6.52059316635132,6.53515338897705,6.54977893829346,6.5644702911377,6.57922744750977,6.59405088424683,6.60894155502319,6.62389945983887,6.63892555236816,6.64292860031128,6.6468620300293,6.6508002281189,6.65474319458008,6.65869045257568,6.66264295578003,6.6665997505188,6.67056131362915,6.67452764511108,6.6784987449646,6.68247413635254,6.68645477294922,6.69043970108032,6.69442987442017,6.69842481613159,6.70242404937744,6.70642852783203,6.71043729782104,6.7144513130188,6.71847009658813,6.72249364852905,6.72652149200439,6.73055505752563,6.7345929145813,6.73863554000854,6.74268341064453,6.74673557281494,6.75079298019409,6.75485563278198,6.7589225769043,6.76299476623535,6.76707172393799,6.77115392684937,6.77524042129517,6.77933216094971,6.78342914581299,6.80471801757812,6.84107542037964,6.87782335281372,6.91496849060059,6.95251703262329,6.99047517776489,7.02885007858276,7.06764888763428,7.10687303543091,7.14653396606445,7.18664073944092,7.22719955444336,7.26821899414062,7.30970668792725,7.35167074203491,7.39411926269531,7.43706130981445,7.48050451278687,7.52445888519287,7.56805944442749,7.6075291633606,7.64741277694702,7.68771696090698,7.72844791412354,7.76961326599121,7.81121921539307,7.85755300521851,7.90472555160522,7.952467918396,8.0007905960083,8.04970455169678,8.09922027587891,8.14934825897217,8.20010089874268,8.25148963928223,8.30352687835693,8.35627269744873,8.40986251831055,8.46414375305176,8.51912975311279,8.57483577728271,8.63127517700195,8.68846225738525,8.74641132354736,8.81661987304688,8.89191436767578,8.968505859375,9.04642868041992,9.12571716308594,9.19981575012207,9.26640033721924,9.33395576477051,9.40250396728516,9.47206592559814,9.54266452789307,9.61432456970215,9.68706798553467,9.76091957092285,9.83587074279785,0,0,0,0,0,0,0,0,0,0,0,0,0,0,0,0,0,0,0,0,0,0,0,0,0,0,0,0,0,0,0,0,0,0,0,0,0,0,0,0,0,0,0,0,0,0,0,0,0
5.37697744369507,5.37867259979248,5.38036870956421,5.38206624984741,5.38376426696777,5.38546371459961,5.38716411590576,5.38886594772339,5.39056825637817,5.39227199554443,5.39397668838501,5.39568281173706,5.39738988876343,5.39909791946411,5.40080690383911,5.40251684188843,5.40422821044922,5.40594053268433,5.40765380859375,5.40936851501465,5.41108417510986,5.41280078887939,5.41451835632324,5.41623735427856,5.4179573059082,5.41967821121216,5.42140054702759,5.42312383651733,5.4248480796814,5.42657327651978,5.42829990386963,5.4300274848938,5.43175649642944,5.43348598480225,5.43521738052368,5.43694925308228,5.43868207931519,5.44041633605957,5.44215202331543,5.44388818740845,5.44562578201294,5.44736480712891,5.44910430908203,5.45084524154663,5.45258712768555,5.45433044433594,5.45607471466064,5.45781993865967,5.45956659317017,5.46131420135498,5.46306276321411,5.46481275558472,5.46656370162964,5.46831560134888,5.47006893157959,5.47182321548462,5.47357845306396,5.47533512115479,5.47709274291992,5.47885179519653,5.48061180114746,5.48237276077271,5.48413467407227,5.48589849472046,5.48766279220581,5.48942852020264,5.49119520187378,5.49296283721924,5.49473190307617,5.49650192260742,5.49827337265015,5.50004625320435,5.5018196105957,5.50359439849854,5.50537014007568,5.50714731216431,5.50892543792725,5.51070499420166,5.51248550415039,5.51426696777344,5.51604986190796,5.5178337097168,5.51961898803711,5.52140474319458,5.52319240570068,5.5249810218811,5.52677059173584,5.52856159210205,5.53035354614258,5.53214693069458,5.5339412689209,5.53573656082153,5.53753328323364,5.53933143615723,5.54113054275513,5.54293060302734,5.54473209381104,5.54653453826904,5.55120038986206,5.56174993515015,5.57233953475952,5.58296918869019,5.59363985061646,5.60435152053833,5.61510419845581,5.6258978843689,5.63673305511475,5.64761066436768,5.65852975845337,5.6694917678833,5.68049573898315,5.69154262542725,5.70263290405273,5.71376657485962,5.72494316101074,5.73616409301758,5.74742889404297,5.75873804092407,5.77009153366089,5.78149032592773,5.79293394088745,5.80442333221436,5.81595802307129,5.82753849029541,5.83916568756104,5.85083913803101,5.86255931854248,5.87432622909546,5.88614082336426,5.89800310134888,5.90991306304932,5.92187166213989,5.93387842178345,5.94593381881714,5.95803833007812,5.97019243240356,5.98239612579346,5.99464988708496,6.00695419311523,6.01930856704712,6.03171396255493,6.04417085647583,6.05667924880981,6.06923961639404,6.08185195922852,6.09451675415039,6.10723495483398,6.12000560760498,6.13283014297485,6.1457085609436,6.15864133834839,6.17162847518921,6.18467044830322,6.19776773452759,6.21092081069946,6.22412919998169,6.23739433288574,6.25071620941162,6.26409530639648,6.27753114700317,6.29102516174316,6.30457735061646,6.31818771362305,6.33185720443726,6.34558629989624,6.35937452316284,6.37322330474854,6.38713216781616,6.40110206604004,6.41513299942017,6.4292254447937,6.44338035583496,6.45759725570679,6.47187757492065,6.4862208366394,6.50062799453735,6.5150990486145,6.52963495254517,6.54423570632935,6.5589017868042,6.57363414764404,6.58843278884888,6.6032977104187,6.61823034286499,6.63323020935059,6.64829874038696,6.66343545913696,6.67195415496826,6.67592191696167,6.67989444732666,6.68387174606323,6.68785381317139,6.69184064865112,6.6958327293396,6.6998291015625,6.70383024215698,6.70783615112305,6.71184682846069,6.71586227416992,6.71988248825073,6.72390794754028,6.72793769836426,6.73197269439697,6.73601245880127,6.74005699157715,6.74410629272461,6.74816036224365,6.75221967697144,6.7562837600708,6.76035261154175,6.76442623138428,6.76850509643555,6.7725887298584,6.77667713165283,6.78077077865601,6.78486919403076,6.78897285461426,6.79308128356934,6.797194480896,6.8013129234314,6.80778694152832,6.84417724609375,6.88095855712891,6.918137550354,6.9557204246521,6.99371385574341,7.0321249961853,7.07095956802368,7.11022424697876,7.14992332458496,7.19006776809692,7.23066520690918,7.27172422409058,7.31325244903564,7.35525703430176,7.39774751663208,7.44073152542114,7.48421764373779,7.5282154083252,7.5727334022522,7.61362409591675,7.65357160568237,7.69394111633301,7.73473834991455,7.77597045898438,7.81764459609985,7.86114931106567,7.90836524963379,7.95615196228027,8.00451946258545,8.05347919464111,8.10304069519043,8.15321731567383,8.20401763916016,8.25545597076416,8.30754280090332,8.36029148101807,8.41389751434326,8.46823120117188,8.52327156066895,8.5790319442749,8.63552570343018,8.69277000427246,8.75077724456787,8.81781673431396,8.89313220977783,8.96974468231201,9.04768848419189,9.1269998550415,9.20542812347412,9.2720947265625,9.3397331237793,9.40836620330811,9.4780158996582,9.54870414733887,9.62045478820801,9.69329166412354,9.76723957061768,9.84230136871338,9.91851139068604,0,0,0,0,0,0,0,0,0,0,0,0,0,0,0,0,0,0,0,0,0,0,0,0,0,0,0,0,0,0,0,0,0,0,0,0,0,0,0,0,0,0,0,0,0,0,0
5.36315965652466,5.36484622955322,5.3665337562561,5.3682222366333,5.36991167068481,5.3716025352478,5.37329387664795,5.37498664855957,5.37668085098267,5.37837553024292,5.38007164001465,5.38176870346069,5.38346672058105,5.38516616821289,5.38686609268188,5.38856744766235,5.3902702331543,5.3919734954834,5.39367818832397,5.39538383483887,5.39709043502808,5.39879846572876,5.40050745010376,5.40221738815308,5.40392827987671,5.40564012527466,5.40735340118408,5.40906810760498,5.41078329086304,5.41249990463257,5.41421747207642,5.41593599319458,5.41765594482422,5.41937685012817,5.42109870910645,5.42282152175903,5.4245457649231,5.42627096176147,5.42799711227417,5.42972469329834,5.43145322799683,5.43318319320679,5.43491363525391,5.4366455078125,5.43837833404541,5.44011259078979,5.4418478012085,5.44358396530151,5.44532108306885,5.44705963134766,5.44879961013794,5.45054006576538,5.4522819519043,5.45402479171753,5.45576906204224,5.45751428604126,5.4592604637146,5.46100759506226,5.46275615692139,5.46450567245483,5.46625661849976,5.46800851821899,5.46976137161255,5.47151565551758,5.47327089309692,5.47502708435059,5.47678470611572,5.47854328155518,5.48030281066895,5.48206377029419,5.48382568359375,5.48558902740479,5.48735332489014,5.4891185760498,5.49088525772095,5.49265289306641,5.49442195892334,5.49619197845459,5.49796295166016,5.4997353553772,5.50150871276855,5.50328302383423,5.50505876541138,5.5068359375,5.50861358642578,5.5103931427002,5.51217317581177,5.51395463943481,5.51573705673218,5.51752090454102,5.51930570602417,5.5210919380188,5.52287912368774,5.52466726303101,5.52645683288574,5.52824735641479,5.53003931045532,5.53183269500732,5.53362655639648,5.53672361373901,5.54721784591675,5.55775213241577,5.56832647323608,5.57894134521484,5.58959627151489,5.60029220581055,5.61102962493896,5.62180757522583,5.63262748718262,5.64348888397217,5.65439224243164,5.66533756256104,5.67632579803467,5.68735647201538,5.69843053817749,5.70954751968384,5.72070789337158,5.73191213607788,5.74316024780273,5.75445222854614,5.76578903198242,5.77717065811157,5.78859758377075,5.8000693321228,5.81158685684204,5.82315015792847,5.83475971221924,5.8464150428772,5.85811758041382,5.8698673248291,5.88166379928589,5.8935079574585,5.90539979934692,5.91733980178833,5.92932796478271,5.94136524200439,5.95345115661621,5.96558666229248,5.97777128219604,5.99000644683838,6.00229120254517,6.01462650299072,6.02701282501221,6.03945016860962,6.05193901062012,6.06447982788086,6.07707214355469,6.08971738815308,6.10241508483887,6.11516571044922,6.12797021865845,6.14082813262939,6.15373992919922,6.16670656204224,6.17972803115845,6.19280433654785,6.20593595504761,6.21912336349487,6.23236703872681,6.24566745758057,6.25902462005615,6.27243900299072,6.28591108322144,6.29944133758545,6.31302976608276,6.32667684555054,6.34038305282593,6.35414886474609,6.36797475814819,6.38186073303223,6.39580726623535,6.40981531143188,6.42388439178467,6.43801546096802,6.45220899581909,6.46646547317505,6.48078441619873,6.49516773223877,6.50961446762085,6.52412557601929,6.5387020111084,6.55334329605103,6.56805038452148,6.58282375335693,6.59766387939453,6.61257076263428,6.62754535675049,6.64258766174316,6.65769863128662,6.67287826538086,6.6881275177002,6.70123386383057,6.70523691177368,6.70924425125122,6.7132568359375,6.71727418899536,6.7212963104248,6.72532272338867,6.72935438156128,6.73339128494263,6.7374324798584,6.74147844314575,6.74552965164185,6.74958562850952,6.75364637374878,6.75771236419678,6.76178312301636,6.76585865020752,6.76993894577026,6.77402448654175,6.77811479568481,6.78220987319946,6.78631019592285,6.79041528701782,6.79452562332153,6.79864025115967,6.8027606010437,6.80688571929932,6.81101560592651,6.81515073776245,6.81929111480713,6.82343626022339,6.84728193283081,6.88409662246704,6.92130994796753,6.95892715454102,6.99695587158203,7.03540229797363,7.07427358627319,7.11357688903809,7.15331506729126,7.19349813461304,7.23413467407227,7.27523279190063,7.31680107116699,7.35884666442871,7.4013786315918,7.44440507888794,7.48793458938599,7.53197622299194,7.57653856277466,7.61972856521606,7.65974044799805,7.7001748085022,7.74103879928589,7.78233814239502,7.82408094406128,7.86627388000488,7.91200828552246,7.95983934402466,8.00825214385986,8.05725765228271,8.10686588287354,8.15708923339844,8.2079381942749,8.25942611694336,8.31156349182129,8.36436367034912,8.41793727874756,8.47232341766357,8.52741718292236,8.58323097229004,8.63978099822998,8.69708156585693,8.75514698028564,8.81901359558105,8.89434909820557,8.97098350524902,9.04894924163818,9.12828254699707,9.20901870727539,9.27779579162598,9.34551811218262,9.41423606872559,9.48397254943848,9.55475044250488,9.62659168243408,9.69952201843262,9.77356624603271,9.84874057769775,9.92505073547363,0,0,0,0,0,0,0,0,0,0,0,0,0,0,0,0,0,0,0,0,0,0,0,0,0,0,0,0,0,0,0,0,0,0,0,0,0,0,0,0,0,0,0,0,0,0
5.34941244125366,5.35109043121338,5.35276937484741,5.35444927215576,5.35613012313843,5.35781192779541,5.35949516296387,5.36117935180664,5.36286449432373,5.36455059051514,5.36623764038086,5.36792612075806,5.36961555480957,5.3713059425354,5.37299728393555,5.37469005584717,5.37638378143311,5.37807846069336,5.37977409362793,5.38147115707397,5.38316917419434,5.38486814498901,5.38656806945801,5.38826942443848,5.38997173309326,5.39167499542236,5.39337921142578,5.39508485794067,5.39679145812988,5.39849901199341,5.40020751953125,5.40191745758057,5.4036283493042,5.40534019470215,5.40705299377441,5.40876722335815,5.41048240661621,5.41219902038574,5.41391611099243,5.4156346321106,5.41735410690308,5.41907501220703,5.4207968711853,5.42251968383789,5.42424345016479,5.42596864700317,5.42769479751587,5.42942190170288,5.43115043640137,5.43287944793701,5.43461036682129,5.43634176254272,5.43807458877563,5.43980836868286,5.44154357910156,5.44327974319458,5.44501686096191,5.44675493240356,5.44849443435669,5.45023488998413,5.45197677612305,5.45371913909912,5.45546293258667,5.45720815658569,5.45895433425903,5.46070146560669,5.46244955062866,5.46419906616211,5.46594953536987,5.46770143508911,5.46945428848267,5.47120809555054,5.47296333312988,5.47471904754639,5.47647666931152,5.47823524475098,5.47999429702759,5.48175525665283,5.48351716995239,5.48528003692627,5.48704433441162,5.48880958557129,5.49057579040527,5.49234342575073,5.49411201477051,5.4958815574646,5.49765253067017,5.49942445755005,5.50119781494141,5.50297212600708,5.50474739074707,5.50652408599854,5.50830221176147,5.51008081436157,5.51186084747314,5.51364231109619,5.51542472839355,5.51720809936523,5.51899290084839,5.52077865600586,5.5225658416748,5.53276205062866,5.54324150085449,5.55376052856445,5.5643196105957,5.57491874694824,5.58555889129639,5.59623956680298,5.60696077346802,5.61772346496582,5.62852716445923,5.63937282562256,5.65026044845581,5.66119003295898,5.67216205596924,5.68317699432373,5.69423389434814,5.70533466339111,5.71647882461548,5.72766637802124,5.73889780044556,5.75017309188843,5.76149320602417,5.77285766601562,5.78426742553711,5.79572200775146,5.80722236633301,5.81876802444458,5.8303599357605,5.84199810028076,5.85368299484253,5.8654146194458,5.87719345092773,5.88901948928833,5.90089321136475,5.91281509399414,5.92478513717651,5.93680381774902,5.94887113571167,5.96098756790161,5.97315359115601,5.98536968231201,5.99763536453247,6.00995206832886,6.02231884002686,6.03473663330078,6.04720592498779,6.05972719192505,6.07229995727539,6.08492517471313,6.09760284423828,6.11033344268799,6.12311744689941,6.13595533370972,6.14884662628174,6.16179275512695,6.17479276657104,6.18784856796265,6.20095920562744,6.21412563323975,6.22734785079956,6.2406268119812,6.25396251678467,6.26735496520996,6.28080558776855,6.29431343078613,6.30787992477417,6.32150459289551,6.33518838882446,6.34893178939819,6.3627347946167,6.37659788131714,6.39052152633667,6.40450620651245,6.41855192184448,6.43265962600708,6.4468297958374,6.46106195449829,6.47535753250122,6.48971652984619,6.5041389465332,6.51862573623657,6.53317737579346,6.54779386520386,6.56247615814209,6.57722425460815,6.59203910827637,6.60692071914673,6.6218695640564,6.63688611984253,6.65197134017944,6.66712474822998,6.68234777450562,6.69764041900635,6.71300315856934,6.72843647003174,6.73481035232544,6.73885345458984,6.74290132522583,6.7469539642334,6.75101184844971,6.75507402420044,6.75914192199707,6.76321411132812,6.76729106903076,6.77137327194214,6.77546072006226,6.7795524597168,6.78364944458008,6.7877516746521,6.7918586730957,6.79597043991089,6.80008697509766,6.80420923233032,6.80833578109741,6.81246757507324,6.81660461425781,6.82074642181396,6.82489347457886,6.82904529571533,6.83320236206055,6.8373646736145,6.84153175354004,6.85038900375366,6.88723754882812,6.92448472976685,6.96213674545288,7.0002007484436,7.03868293762207,7.07759046554565,7.11693048477173,7.15671062469482,7.1969313621521,7.2376070022583,7.27874517440796,7.32035350799561,7.36244010925293,7.40501356124878,7.448082447052,7.49165487289429,7.5357403755188,7.58034801483154,7.62548637390137,7.66591930389404,7.70641899108887,7.74734926223755,7.78871631622314,7.83052778244019,7.87279033660889,7.9156551361084,7.96353006362915,8.01198768615723,8.06103897094727,8.11069393157959,8.16096496582031,8.21186256408691,8.26340007781982,8.31558799743652,8.36843872070312,8.42198085784912,8.47641944885254,8.53156566619873,8.58743572235107,8.64404106140137,8.70139789581299,8.75952053070068,8.82021141052246,8.89556789398193,8.97222232818604,9.05020999908447,9.12956523895264,9.21032428741455,9.28350353240967,9.35130977630615,9.4201135635376,9.4899377822876,9.56080436706543,9.632737159729,9.70576095581055,9.77990055084229,9.85518074035645,9.93159770965576,0,0,0,0,0,0,0,0,0,0,0,0,0,0,0,0,0,0,0,0,0,0,0,0,0,0,0,0,0,0,0,0,0,0,0,0,0,0,0,0,0,0,0,0,0
5.33573579788208,5.33740472793579,5.33907508850098,5.34074640274048,5.3424186706543,5.34409236907959,5.34576654434204,5.34744215011597,5.34911870956421,5.35079622268677,5.35247468948364,5.35415458679199,5.35583543777466,5.35751724243164,5.35920000076294,5.36088371276855,5.36256885528564,5.36425495147705,5.36594200134277,5.36763000488281,5.36931943893433,5.37100982666016,5.3727011680603,5.37439346313477,5.37608671188354,5.3777813911438,5.37947702407837,5.38117361068726,5.38287162780762,5.38457012176514,5.38627004623413,5.38797092437744,5.38967323303223,5.39137649536133,5.39308071136475,5.39478588104248,5.39649200439453,5.39819955825806,5.3999080657959,5.40161752700806,5.40332841873169,5.40504026412964,5.4067530632019,5.40846681594849,5.41018199920654,5.41189813613892,5.41361522674561,5.41533327102661,5.41705274581909,5.41877317428589,5.42049503326416,5.42221736907959,5.42394113540649,5.42566633224487,5.42739200592041,5.42911911010742,5.43084716796875,5.43257665634155,5.43430709838867,5.43603849411011,5.43777084350586,5.43950462341309,5.44123935699463,5.44297552108765,5.44471216201782,5.44645023345947,5.44818925857544,5.44992971420288,5.45167112350464,5.45341348648071,5.45515727996826,5.45690202713013,5.45864820480347,5.46039485931396,5.46214294433594,5.46389245986938,5.46564292907715,5.46739435195923,5.46914672851562,5.4709005355835,5.47265529632568,5.47441148757935,5.47616815567017,5.47792673110962,5.47968626022339,5.48144626617432,5.48320817947388,5.48497104644775,5.48673486709595,5.48849964141846,5.49026584625244,5.4920334815979,5.49380159378052,5.49557113647461,5.49734210968018,5.49911403656006,5.50088691711426,5.50266075134277,5.50443649291992,5.50621271133423,5.50799036026001,5.50976896286011,5.51838111877441,5.52880620956421,5.53927040100098,5.54977464675903,5.56031847000122,5.5709023475647,5.58152723312378,5.59219217300415,5.60289812088013,5.61364507675171,5.62443351745605,5.63526296615601,5.64613485336304,5.65704822540283,5.66800451278687,5.67900276184082,5.69004392623901,5.7011284828186,5.71225595474243,5.72342681884766,5.73464155197144,5.74590015411377,5.75720357894897,5.76855134963989,5.77994346618652,5.79138135910034,5.80286407470703,5.81439256668091,5.82596731185913,5.83758783340454,5.84925508499146,5.86096906661987,5.87272977828979,5.88453769683838,5.89639329910278,5.90829706192017,5.92024898529053,5.93224906921387,5.94429779052734,5.95639610290527,5.96854305267334,5.98074007034302,5.99298715591431,6.00528430938721,6.01763200759888,6.03003072738647,6.04248046875,6.05498218536377,6.06753492355347,6.08014059066772,6.09279823303223,6.10550880432129,6.11827278137207,6.13109016418457,6.14396095275879,6.1568865776062,6.16986608505249,6.18290042877197,6.19599056243896,6.20913553237915,6.222336769104,6.23559427261353,6.24890851974487,6.26227951049805,6.27570772171021,6.28919410705566,6.30273818969727,6.31634092330933,6.33000230789185,6.34372329711914,6.35750341415405,6.3713436126709,6.38524436950684,6.39920616149902,6.4132285118103,6.42731285095215,6.44145917892456,6.4556679725647,6.46993970870972,6.48427438735962,6.49867248535156,6.51313495635986,6.52766227722168,6.54225397109985,6.55691146850586,6.5716347694397,6.58642435073853,6.60128021240234,6.61620378494263,6.63119459152222,6.64625358581543,6.66138124465942,6.67657804489136,6.69184398651123,6.70718002319336,6.7225866317749,6.73806428909302,6.75361299514771,6.76464557647705,6.76872444152832,6.77280855178833,6.77689743041992,6.7809910774231,6.78508996963501,6.78919363021851,6.79330205917358,6.7974157333374,6.80153465270996,6.80565786361694,6.80978679656982,6.81392002105713,6.81805896759033,6.82220268249512,6.82635116577148,6.83050489425659,6.83466386795044,6.83882761001587,6.84299659729004,6.84717082977295,6.85134983062744,6.85553407669067,6.85972356796265,6.8639178276062,6.89038133621216,6.92766237258911,6.9653491973877,7.00344800949097,7.04196643829346,7.08091020584106,7.12028741836548,7.16010522842407,7.20036840438843,7.24108266830444,7.28226041793823,7.32390880584717,7.36603689193726,7.40865230560303,7.45176315307617,7.49537897109985,7.53950834274292,7.58416080474854,7.62934494018555,7.6721076965332,7.71267318725586,7.75367021560669,7.79510498046875,7.83698511123657,7.87931776046753,7.92211008071899,7.96722412109375,8.01572704315186,8.06482410430908,8.11452579498291,8.16484451293945,8.21579074859619,8.26737785339355,8.31961536407471,8.37251853942871,8.42609786987305,8.48051929473877,8.535719871521,8.59164333343506,8.64830493927002,8.70571804046631,8.7638988494873,8.82286262512207,8.89678573608398,8.97346210479736,9.05147075653076,9.13084888458252,9.21163082122803,9.28921890258789,9.3571081161499,9.42599773406982,9.49590969085693,9.56686592102051,9.63889026641846,9.71200847625732,9.7862434387207,9.86162185668945,9.93815422058105,0,0,0,0,0,0,0,0,0,0,0,0,0,0,0,0,0,0,0,0,0,0,0,0,0,0,0,0,0,0,0,0,0,0,0,0,0,0,0,0,0,0,0,0
5.3221287727356,5.32378959655762,5.3254508972168,5.32711410522461,5.32877779006958,5.33044242858887,5.33210849761963,5.33377552032471,5.3354434967041,5.33711242675781,5.33878231048584,5.34045362472534,5.342125415802,5.34379863739014,5.34547328948975,5.34714841842651,5.34882497787476,5.35050201416016,5.35218048095703,5.35385990142822,5.35554075241089,5.35722208023071,5.35890483856201,5.36058855056763,5.36227369308472,5.36395931243896,5.36564636230469,5.36733436584473,5.36902332305908,5.37071323394775,5.3724045753479,5.37409687042236,5.37579011917114,5.37748432159424,5.37917995452881,5.38087606430054,5.38257360458374,5.38427257537842,5.38597202301025,5.38767290115356,5.38937473297119,5.39107799530029,5.39278173446655,5.39448690414429,5.39619302749634,5.39790010452271,5.39960861206055,5.40131807327271,5.40302848815918,5.40473985671997,5.40645265579224,5.40816640853882,5.40988111495972,5.41159725189209,5.41331434249878,5.41503238677979,5.41675138473511,5.4184718132019,5.42019319534302,5.42191553115845,5.42363929748535,5.42536354064941,5.42708969116211,5.42881631851196,5.43054437637329,5.43227338790894,5.4340033531189,5.43573474884033,5.43746709823608,5.43920040130615,5.4409351348877,5.44267082214355,5.44440746307373,5.44614553451538,5.44788455963135,5.44962453842163,5.45136594772339,5.45310831069946,5.45485162734985,5.45659637451172,5.4583420753479,5.4600887298584,5.46183681488037,5.46358585357666,5.46533584594727,5.46708726882935,5.46883964538574,5.47059297561646,5.47234773635864,5.47410345077515,5.47586059570312,5.47761821746826,5.47937774658203,5.48113775253296,5.48289918899536,5.48466205596924,5.48642587661743,5.48819017410278,5.48995637893677,5.49172353744507,5.49349164962769,5.49526119232178,5.49703168869019,5.504075050354,5.51444578170776,5.52485609054565,5.53530502319336,5.54579401016235,5.55632305145264,5.56689167022705,5.57750129699707,5.58815050125122,5.59884119033813,5.60957288742065,5.62034511566162,5.63115930557251,5.64201498031616,5.65291261672974,5.66385269165039,5.67483520507812,5.68586015701294,5.69692802429199,5.70803880691528,5.71919345855713,5.73039197921753,5.74163389205933,5.75292015075684,5.76425075531006,5.77562665939331,5.78704690933228,5.79851293563843,5.81002378463745,5.82158136367798,5.83318424224854,5.8448338508606,5.856529712677,5.86827278137207,5.8800630569458,5.89190053939819,5.90378618240356,5.91571950912476,5.92770147323608,5.93973207473755,5.95181131362915,5.96394014358521,5.97611808776855,5.98834609985352,6.00062417984009,6.01295280456543,6.02533197402954,6.03776264190674,6.05024433135986,6.06277799606323,6.07536363601685,6.0880012512207,6.10069179534912,6.11343574523926,6.12623262405396,6.13908338546753,6.15198802947998,6.16494703292847,6.17796087265015,6.19102954864502,6.2041540145874,6.21733379364014,6.23056983947754,6.24386262893677,6.25721216201782,6.27061891555786,6.28408288955688,6.29760503768921,6.31118535995483,6.32482481002808,6.33852291107178,6.35228061676025,6.36609840393066,6.37997627258301,6.39391469955444,6.40791416168213,6.42197513580322,6.43609762191772,6.45028257369995,6.46453046798706,6.47884130477905,6.49321556091309,6.50765371322632,6.52215623855591,6.53672361373901,6.55135631561279,6.56605434417725,6.58081865310669,6.59564971923828,6.61054754257202,6.62551259994507,6.64054584503174,6.65564775466919,6.67081785202026,6.68605804443359,6.70136737823486,6.71674728393555,6.73219776153564,6.74771976470947,6.76331329345703,6.77897882461548,6.79471731185913,6.79886198043823,6.80298233032227,6.80710792541504,6.81123828887939,6.81537342071533,6.81951379776001,6.82365942001343,6.82780981063843,6.83196544647217,6.83612585067749,6.84029150009155,6.84446239471436,6.84863805770874,6.85281944274902,6.85700511932373,6.86119651794434,6.86539268493652,6.86959409713745,6.87380075454712,6.87801218032837,6.88222932815552,6.89352798461914,6.93084335327148,6.96856451034546,7.0066990852356,7.04525279998779,7.08423328399658,7.12364768981934,7.16350317001343,7.20380687713623,7.24456167221069,7.28577899932861,7.32746839523315,7.36963701248169,7.41229391098022,7.45544767379761,7.49910688400269,7.54328012466431,7.58797740936279,7.63320732116699,7.67830657958984,7.71893787384033,7.76000118255615,7.80150413513184,7.8434534072876,7.88585615158081,7.92871952056885,7.9720516204834,8.01946926116943,8.06861305236816,8.1183614730835,8.16872787475586,8.21972274780273,8.27135848999023,8.32364749908447,8.37660121917725,8.4302339553833,8.48462295532227,8.53987693786621,8.59585571289062,8.65257263183594,8.71004295349121,8.76828193664551,8.82730484008789,8.89800453186035,8.97470188140869,9.05273246765137,9.1321325302124,9.2129373550415,9.29494094848633,9.36291408538818,9.43188953399658,9.5018892288208,9.57293510437012,9.64505195617676,9.71826267242432,9.79259395599365,9.86807155609131,9.94472026824951,10.0225305557251,0,0,0,0,0,0,0,0,0,0,0,0,0,0,0,0,0,0,0,0,0,0,0,0,0,0,0,0,0,0,0,0,0,0,0,0,0,0,0,0,0,0
5.30859088897705,5.31024312973022,5.31189632415771,5.31355047225952,5.3152060508728,5.3168625831604,5.31852006912231,5.32017850875854,5.32183742523193,5.32349824905396,5.32516002655029,5.32682228088379,5.32848596572876,5.33015060424805,5.33181619644165,5.33348321914673,5.33515071868896,5.33681964874268,5.3384895324707,5.34016084671021,5.34183263778687,5.34350538253784,5.34517955780029,5.34685468673706,5.34853076934814,5.35020780563354,5.35188627243042,5.35356569290161,5.35524606704712,5.35692739486694,5.35861015319824,5.3602933883667,5.36197805404663,5.36366367340088,5.36535024642944,5.36703824996948,5.36872673034668,5.37041711807251,5.3721079826355,5.3737998008728,5.37549304962158,5.37718725204468,5.37888240814209,5.38057899475098,5.38227605819702,5.38397455215454,5.38567399978638,5.38737487792969,5.38907623291016,5.3907790184021,5.39248275756836,5.39418792724609,5.39589405059814,5.39760065078735,5.3993091583252,5.4010181427002,5.40272855758667,5.40443992614746,5.40615224838257,5.40786600112915,5.40958070755005,5.41129636764526,5.41301298141479,5.4147310256958,5.41645002365112,5.41816997528076,5.41989135742188,5.4216136932373,5.42333698272705,5.42506170272827,5.42678689956665,5.4285135269165,5.43024158477783,5.43197011947632,5.43370008468628,5.43543100357056,5.43716335296631,5.43889665603638,5.44063091278076,5.44236660003662,5.4441032409668,5.44584083557129,5.4475793838501,5.44931983947754,5.45106077194214,5.45280265808105,5.45454597473145,5.45629024505615,5.45803594589233,5.45978260040283,5.46153020858765,5.46327924728394,5.46502876281738,5.46678018569946,5.46853256225586,5.47028589248657,5.4720401763916,5.47379589080811,5.47555255889893,5.47731018066406,5.47906923294067,5.4808292388916,5.482590675354,5.48435306549072,5.48984241485596,5.500159740448,5.51051616668701,5.52091121673584,5.53134536743164,5.54181957244873,5.55233335494995,5.56288719177246,5.57348108291626,5.58411502838135,5.5947904586792,5.60550594329834,5.61626291275024,5.62706136703491,5.63790130615234,5.6487832069397,5.65970706939697,5.67067337036133,5.68168210983276,5.69273376464844,5.70382833480835,5.71496677398682,5.72614812850952,5.73737382888794,5.74864339828491,5.7599573135376,5.771315574646,5.78271913528442,5.79416751861572,5.80566167831421,5.81720161437988,5.82878732681274,5.84041929244995,5.8520975112915,5.86382293701172,5.87559509277344,5.88741445541382,5.89928197860718,5.91119718551636,5.92316055297852,5.93517303466797,5.9472336769104,5.95934343338013,5.97150278091431,5.9837121963501,5.99597120285034,6.00828075408936,6.02064085006714,6.03305196762085,6.04551410675049,6.05802822113037,6.07059383392334,6.08321189880371,6.09588241577148,6.10860586166382,6.12138271331787,6.13421297073364,6.14709711074829,6.16003561019897,6.17302894592285,6.18607664108276,6.19918012619019,6.21233892440796,6.22555351257324,6.23882484436035,6.25215291976929,6.26553773880005,6.27898025512695,6.29248046875,6.30603885650635,6.319655418396,6.33333158493042,6.3470664024353,6.36086130142212,6.37471628189087,6.38863182067871,6.4026083946228,6.41664600372314,6.43074512481689,6.44490671157837,6.45913076400757,6.47341728210449,6.48776769638062,6.50218152999878,6.5166597366333,6.53120231628418,6.54581022262573,6.56048345565796,6.57522296905518,6.59002828598022,6.60490083694458,6.61984062194824,6.63484811782837,6.64992380142212,6.66506814956665,6.68028163909912,6.69556474685669,6.71091794967651,6.72634172439575,6.74183654785156,6.7574028968811,6.77304124832153,6.78875207901001,6.80453634262085,6.82039356231689,6.82926893234253,6.8334264755249,6.83758878707886,6.84175586700439,6.84592866897583,6.85010623931885,6.85428905487061,6.85847663879395,6.86266994476318,6.866868019104,6.87107086181641,6.87527942657471,6.87949323654175,6.88371181488037,6.88793563842773,6.89216470718384,6.89639902114868,6.90063858032227,6.90488338470459,6.93402719497681,6.97178316116333,7.00995254516602,7.04854249954224,7.08755970001221,7.1270112991333,7.16690444946289,7.20724630355835,7.24804449081421,7.28930139541626,7.33103084564209,7.37324094772339,7.41593980789185,7.45913648605347,7.50283861160278,7.54705619812012,7.59179782867432,7.6370735168457,7.68289232254028,7.72521257400513,7.76634311676025,7.8079137802124,7.8499321937561,7.89240503311157,7.93533992767334,7.9787449836731,8.02321624755859,8.0724048614502,8.12220096588135,8.17261505126953,8.22365856170654,8.2753438949585,8.3276834487915,8.38068866729736,8.43437385559082,8.48875045776367,8.54403877258301,8.60007190704346,8.65684413909912,8.71437168121338,8.77266883850098,8.83175086975098,8.89922332763672,8.97594165802002,9.05399417877197,9.13341617584229,9.21424388885498,9.2965145111084,9.368727684021,9.43778896331787,9.5078763961792,9.57901287078857,9.65122127532959,9.72452640533447,9.79895305633545,9.8745288848877,9.95127964019775,10.0292072296143,0,0,0,0,0,0,0,0,0,0,0,0,0,0,0,0,0,0,0,0,0,0,0,0,0,0,0,0,0,0,0,0,0,0,0,0,0,0,0,0,0
5.29512166976929,5.29676580429077,5.29841041564941,5.30005645751953,5.30170345306396,5.30335140228271,5.30500030517578,5.30665016174316,5.30830144882202,5.30995321273804,5.31160640716553,5.31326055526733,5.31491565704346,5.31657218933105,5.31822919845581,5.31988716125488,5.32154655456543,5.32320690155029,5.32486820220947,5.32653093338013,5.32819414138794,5.32985877990723,5.33152437210083,5.33319091796875,5.33485841751099,5.3365273475647,5.33819675445557,5.33986759185791,5.34153938293457,5.34321212768555,5.344886302948,5.34656095504761,5.34823703765869,5.34991407394409,5.35159206390381,5.353271484375,5.35495138168335,5.35663270950317,5.35831499099731,5.35999822616577,5.3616828918457,5.36336803436279,5.36505460739136,5.3667426109314,5.36843109130859,5.37012052536011,5.3718113899231,5.3735032081604,5.37519598007202,5.37689018249512,5.37858533859253,5.38028144836426,5.3819785118103,5.38367700576782,5.3853759765625,5.38707637786865,5.38877820968628,5.39048051834106,5.39218425750732,5.3938889503479,5.39559507369995,5.39730167388916,5.39900970458984,5.40071868896484,5.40242862701416,5.40413999557495,5.40585231781006,5.40756559371948,5.40928030014038,5.41099548339844,5.41271209716797,5.41442966461182,5.41614866256714,5.41786861419678,5.41958951950073,5.42131185531616,5.42303466796875,5.42475891113281,5.42648458480835,5.42821073532104,5.42993879318237,5.43166732788086,5.43339681625366,5.43512773513794,5.43685960769653,5.4385929107666,5.44032716751099,5.44206237792969,5.44379901885986,5.4455361366272,5.44727468490601,5.44901466369629,5.45075559616089,5.4524974822998,5.45424032211304,5.45598459243774,5.45772981643677,5.45947647094727,5.46122360229492,5.46297264099121,5.46472215652466,5.46647310256958,5.46822500228882,5.46997833251953,5.47173261642456,5.47568368911743,5.48594760894775,5.49625015258789,5.506591796875,5.51697206497192,5.52739143371582,5.53785085678101,5.54834938049316,5.55888795852661,5.56946659088135,5.58008575439453,5.590744972229,5.60144567489624,5.61218690872192,5.62296962738037,5.63379383087158,5.64465951919556,5.65556764602661,5.66651773452759,5.67751026153564,5.68854570388794,5.69962406158447,5.7107458114624,5.72191095352173,5.73311996459961,5.74437284469604,5.75567007064819,5.7670111656189,5.77839803695679,5.78982925415039,5.80130624771118,5.812828540802,5.82439661026001,5.83601093292236,5.84767198562622,5.85937929153442,5.87113380432129,5.88293552398682,5.89478492736816,5.90668201446533,5.91862726211548,5.9306206703186,5.94266319274902,5.95475435256958,5.96689510345459,5.97908496856689,5.99132537841797,6.00361585617065,6.01595640182495,6.02834844589233,6.04079103469849,6.05328559875488,6.06583166122437,6.07843017578125,6.09108066558838,6.10378408432007,6.11654090881348,6.12935066223145,6.14221429824829,6.15513229370117,6.16810464859009,6.1811318397522,6.1942138671875,6.20735168457031,6.22054529190063,6.23379516601562,6.24710178375244,6.26046514511108,6.27388572692871,6.28736400604248,6.30089998245239,6.31449508666992,6.32814836502075,6.34186124801636,6.35563325881958,6.36946535110474,6.38335800170898,6.39731121063232,6.41132545471191,6.42540168762207,6.43953943252563,6.45373964309692,6.4680027961731,6.48232889175415,6.49671840667725,6.5111722946167,6.52569055557251,6.54027366638184,6.55492210388184,6.56963634490967,6.58441686630249,6.59926414489746,6.61417818069458,6.62915992736816,6.64420986175537,6.6593279838562,6.67451524734497,6.68977212905884,6.7050986289978,6.72049570083618,6.73596334457397,6.7515025138855,6.76711368560791,6.78279733657837,6.79855346679688,6.81438302993774,6.83028650283813,6.84626483917236,6.85994911193848,6.86414384841919,6.86834383010864,6.87254858016968,6.87675905227661,6.88097429275513,6.88519477844238,6.88942050933838,6.89365148544312,6.89788770675659,6.90212869644165,6.90637540817261,6.91062688827515,6.91488409042358,6.91914653778076,6.92341375350952,6.93721342086792,6.97500467300415,7.01320934295654,7.05183553695679,7.09088897705078,7.13037776947021,7.1703085899353,7.21068906784058,7.25152730941772,7.29282712936401,7.33459711074829,7.3768482208252,7.41958904266357,7.46282815933228,7.50657367706299,7.55083560943604,7.59562253952026,7.64094352722168,7.68680906295776,7.73149728775024,7.77269506454468,7.81433391571045,7.85642147064209,7.89896488189697,7.94197130203247,7.98544931411743,8.02940559387207,8.07620048522949,8.12604331970215,8.17650604248047,8.22759819030762,8.27933311462402,8.3317232131958,8.38477993011475,8.43851757049561,8.49294757843018,8.54820442199707,8.60429191589355,8.66112041473389,8.71870517730713,8.77706050872803,8.83620166778564,8.9004430770874,8.97718238830566,9.05525684356689,9.13470077514648,9.21555137634277,9.2978458404541,9.37454795837402,9.44369602203369,9.51387119293213,9.58509731292725,9.65739822387695,9.73079776763916,9.80532073974609,9.88099575042725,9.95784664154053,10.0358934402466,0,0,0,0,0,0,0,0,0,0,0,0,0,0,0,0,0,0,0,0,0,0,0,0,0,0,0,0,0,0,0,0,0,0,0,0,0,0,0,0
5.28172063827515,5.28335618972778,5.28499269485474,5.28663063049316,5.28826904296875,5.28990888595581,5.29154920578003,5.29319095611572,5.29483366012573,5.29647731781006,5.2981219291687,5.29976797103882,5.30141448974609,5.30306243896484,5.30471134185791,5.30636072158813,5.30801200866699,5.30966377258301,5.31131649017334,5.31297063827515,5.31462574005127,5.31628179550171,5.31793880462646,5.31959676742554,5.32125568389893,5.32291603088379,5.32457733154297,5.32623958587646,5.32790279388428,5.32956695556641,5.33123254776001,5.33289861679077,5.33456611633301,5.33623456954956,5.33790397644043,5.33957481384277,5.34124612808228,5.34291887283325,5.34459257125854,5.34626722335815,5.34794330596924,5.34961986541748,5.3512978553772,5.35297679901123,5.35465669631958,5.3563380241394,5.35802030563354,5.35970306396484,5.36138772964478,5.36307287216187,5.36475896835327,5.36644649505615,5.36813497543335,5.36982440948486,5.37151479721069,5.373206615448,5.37489938735962,5.37659311294556,5.37828826904297,5.37998390197754,5.38168096542358,5.38337898254395,5.38507843017578,5.38677835464478,5.38847970962524,5.39018201828003,5.39188575744629,5.39358997344971,5.3952956199646,5.39700269699097,5.39871025085449,5.40041875839233,5.40212917327881,5.40384006500244,5.40555191040039,5.40726518630981,5.40897941589355,5.41069459915161,5.41241121292114,5.41412878036499,5.41584730148315,5.41756725311279,5.41928768157959,5.42101001739502,5.42273283004761,5.42445659637451,5.42618227005005,5.42790842056274,5.42963552474976,5.43136405944824,5.43309354782104,5.43482446670532,5.43655633926392,5.43828916549683,5.44002294540405,5.44175815582275,5.44349431991577,5.44523191452026,5.44696998596191,5.44870948791504,5.45045042037964,5.4521918296814,5.45393466949463,5.45567893981934,5.4574236869812,5.4591703414917,5.46159744262695,5.47180891036987,5.48205852508545,5.49234628677368,5.50267314910889,5.51303863525391,5.5234432220459,5.53388738632202,5.54437112808228,5.55489444732666,5.56545782089233,5.57606172561646,5.58670568466187,5.59739065170288,5.6081166267395,5.61888360977173,5.62969207763672,5.64054203033447,5.65143442153931,5.6623682975769,5.67334508895874,5.68436431884766,5.69542598724365,5.7065315246582,5.71767997741699,5.72887229919434,5.74010848999023,5.75138902664185,5.76271343231201,5.77408313751221,5.78549718856812,5.79695701599121,5.80846214294434,5.82001304626465,5.83160972595215,5.84325313568115,5.8549427986145,5.86667966842651,5.87846326828003,5.89029455184937,5.90217351913452,5.9141001701355,5.92607545852661,5.93809938430786,5.95017194747925,5.96229410171509,5.97446537017822,5.98668670654297,5.99895811080933,6.01127958297729,6.02365207672119,6.03607559204102,6.04855060577393,6.06107711791992,6.07365560531616,6.0862865447998,6.09896993637085,6.11170625686646,6.12449598312378,6.13733959197998,6.1502366065979,6.16318845748901,6.17619466781616,6.18925619125366,6.20237302780151,6.21554517745972,6.22877359390259,6.24205875396729,6.25540065765381,6.26879930496216,6.28225564956665,6.29577016830444,6.30934238433838,6.32297372817993,6.3366641998291,6.35041379928589,6.36422300338745,6.37809276580811,6.39202308654785,6.40601396560669,6.42006683349609,6.43418121337891,6.44835758209229,6.46259689331055,6.47689914703369,6.49126482009888,6.50569438934326,6.52018785476685,6.5347466468811,6.54937028884888,6.56405973434448,6.57881498336792,6.59363698959351,6.60852575302124,6.62348175048828,6.63850545883179,6.65359783172607,6.66875886917114,6.68398952484131,6.69928932189941,6.71465969085693,6.73010063171387,6.74561309814453,6.76119661331177,6.77685260772705,6.79258155822754,6.80838298797607,6.82425880432129,6.84020853042603,6.8562331199646,6.87341022491455,6.89090633392334,6.89513874053955,6.89937686920166,6.90361976623535,6.90786838531494,6.91212177276611,6.91638088226318,6.92064476013184,6.92491388320923,6.92918872833252,6.93346881866455,6.93775367736816,6.94204425811768,6.94634008407593,6.97822904586792,7.01646947860718,7.05513143539429,7.09422159194946,7.13374757766724,7.17371606826782,7.21413516998291,7.25501251220703,7.29635572433472,7.3381667137146,7.38045883178711,7.42324209213257,7.46652364730835,7.51031303405762,7.55461883544922,7.59945058822632,7.64481782913208,7.69072961807251,7.73719644546509,7.77905702590942,7.82076454162598,7.86292171478271,7.90553569793701,7.9486141204834,7.99216461181641,8.03619480133057,8.08071327209473,8.12989044189453,8.18039989471436,8.23154163360596,8.28332614898682,8.33576679229736,8.38887596130371,8.44266510009766,8.49714946746826,8.5523738861084,8.60851669311523,8.66540145874023,8.72304248809814,8.78145599365234,8.84065723419189,8.90166282653809,8.97842311859131,9.05651950836182,9.13598537445068,9.21685886383057,9.2991771697998,9.38037586212158,9.44960975646973,9.51987361907959,9.59119033813477,9.66358280181885,9.73707675933838,9.81169700622559,9.88747024536133,9.96442222595215,10.0425825119019,10.1219444274902,0,0,0,0,0,0,0,0,0,0,0,0,0,0,0,0,0,0,0,0,0,0,0,0,0,0,0,0,0,0,0,0,0,0,0,0,0,0
5.26838731765747,5.27001476287842,5.27164268493652,5.27327251434326,5.27490282058716,5.27653408050537,5.2781662940979,5.27979946136475,5.28143405914307,5.2830696105957,5.2847056388855,5.28634357452393,5.28798198699951,5.28962135314941,5.29126167297363,5.29290342330933,5.29454565048218,5.2961893081665,5.29783391952515,5.29947900772095,5.30112600326538,5.30277347564697,5.30442190170288,5.30607175827026,5.30772256851196,5.30937433242798,5.31102705001831,5.31268072128296,5.31433534622192,5.31599140167236,5.31764793395996,5.31930637359619,5.32096481323242,5.32262516021729,5.32428598403931,5.32594776153564,5.32761096954346,5.32927513122559,5.33094024658203,5.33260679244995,5.33427381515503,5.33594226837158,5.33761167526245,5.33928203582764,5.34095335006714,5.34262561798096,5.34429931640625,5.34597396850586,5.34764957427979,5.34932613372803,5.35100364685059,5.35268259048462,5.35436248779297,5.35604333877563,5.35772514343262,5.35940837860107,5.36109209060669,5.36277723312378,5.36446332931519,5.36615085601807,5.36783885955811,5.36952829360962,5.37121868133545,5.3729100227356,5.37460279464722,5.37629652023315,5.37799072265625,5.37968683242798,5.38138341903687,5.38308143615723,5.3847804069519,5.3864803314209,5.38818168640137,5.38988399505615,5.3915867805481,5.39329147338867,5.39499664306641,5.39670324325562,5.39841079711914,5.40011930465698,5.4018292427063,5.40354013442993,5.40525197982788,5.40696477890015,5.40867900848389,5.41039419174194,5.41211032867432,5.41382789611816,5.41554594039917,5.41726541519165,5.41898632049561,5.42070770263672,5.42243099212646,5.42415475845337,5.42587947845459,5.42760562896729,5.4293327331543,5.43106126785278,5.43279075622559,5.43452072143555,5.43625259399414,5.43798542022705,5.43971920013428,5.44145393371582,5.44319009780884,5.44492721557617,5.44666528701782,5.44840478897095,5.45774269104004,5.46793985366821,5.47817468643188,5.48844814300537,5.49876022338867,5.50911092758179,5.51950073242188,5.52993011474609,5.54039859771729,5.55090665817261,5.56145524978638,5.57204341888428,5.58267211914062,5.59334182739258,5.60405206680298,5.61480379104614,5.62559652328491,5.63643074035645,5.6473069190979,5.65822505950928,5.66918516159058,5.68018865585327,5.69123411178589,5.7023229598999,5.71345520019531,5.72463083267212,5.73585033416748,5.74711418151855,5.75842189788818,5.76977443695068,5.78117179870605,5.79261445999146,5.80410194396973,5.81563568115234,5.82721519470215,5.83884048461914,5.85051298141479,5.86223173141479,5.87399768829346,5.88581085205078,5.89767169952393,5.90958070755005,5.92153739929199,5.93354272842407,5.94559717178345,5.95770025253296,5.96985292434692,5.98205518722534,5.99430751800537,6.00661039352417,6.01896333694458,6.03136777877808,6.04382276535034,6.05632972717285,6.06888866424561,6.0814995765686,6.094162940979,6.10687971115112,6.11964893341064,6.13247203826904,6.14534902572632,6.15827989578247,6.17126560211182,6.18430614471436,6.19740200042725,6.21055316925049,6.2237606048584,6.23702383041382,6.25034427642822,6.26372146606445,6.27715587615967,6.29064798355103,6.30419874191284,6.31780767440796,6.33147525787354,6.34520244598389,6.35898923873901,6.37283611297607,6.38674354553223,6.40071153640747,6.41474103927612,6.42883157730103,6.44298458099365,6.457200050354,6.47147846221924,6.48582029342651,6.50022554397583,6.51469469070435,6.52922868728638,6.54382801055908,6.5584921836853,6.57322263717651,6.58801889419556,6.60288238525391,6.61781311035156,6.63281154632568,6.64787769317627,6.66301250457764,6.6782169342041,6.69349050521851,6.70883417129517,6.72424840927124,6.73973321914673,6.75529003143311,6.77091836929321,6.78661966323853,6.80239391326904,6.81824111938477,6.83416318893433,6.85015916824341,6.86623048782349,6.884690284729,6.90414762496948,6.92214393615723,6.92641496658325,6.93069171905518,6.93497323989868,6.93926048278809,6.94355249404907,6.94785022735596,6.95215320587158,6.95646142959595,6.96077537536621,6.96509456634521,6.98145627975464,7.01973247528076,7.05843019485474,7.09755706787109,7.13712024688721,7.17712688446045,7.21758460998535,7.25850105285645,7.29988384246826,7.34173965454102,7.38407325744629,7.42689847946167,7.47022247314453,7.51405572891235,7.55840587615967,7.60328245162964,7.64869546890259,7.69465446472168,7.74116897583008,7.78542995452881,7.82720613479614,7.86943292617798,7.91211748123169,7.95526790618896,7.99889135360718,8.04299640655518,8.08759021759033,8.13374042510986,8.18429851531982,8.23548889160156,8.28732299804688,8.33981418609619,8.39297485351562,8.44681739807129,8.50135517120361,8.55660247802734,8.61274528503418,8.66968631744385,8.72738456726074,8.78585624694824,8.84511756896973,8.90518283843994,8.97966480255127,9.05778217315674,9.1372709274292,9.21816730499268,9.30050849914551,9.38433361053467,9.45553112030029,9.52588367462158,9.5972900390625,9.66977596282959,9.74336433410645,9.81808090209961,9.89395332336426,9.97100639343262,10.0492696762085,10.1287546157837,0,0,0,0,0,0,0,0,0,0,0,0,0,0,0,0,0,0,0,0,0,0,0,0,0,0,0,0,0,0,0,0,0,0,0,0,0
5.2551212310791,5.25674057006836,5.25836038589478,5.25998163223267,5.26160383224487,5.2632269859314,5.26485109329224,5.26647615432739,5.26810216903687,5.26972961425781,5.27135753631592,5.27298641204834,5.27461671829224,5.27624797821045,5.27788019180298,5.27951335906982,5.28114748001099,5.28278303146362,5.28441905975342,5.28605604171753,5.28769445419312,5.28933382034302,5.29097414016724,5.29261541366577,5.29425764083862,5.29590082168579,5.29754543304443,5.29919099807739,5.30083703994751,5.3024845123291,5.30413293838501,5.30578279495239,5.30743312835693,5.30908441543579,5.31073713302612,5.31239080429077,5.31404542922974,5.31570100784302,5.31735801696777,5.31901550292969,5.32067441940308,5.32233381271362,5.32399463653564,5.32565689086914,5.32731962203979,5.32898330688477,5.33064842224121,5.33231449127197,5.33398151397705,5.33564949035645,5.33731889724731,5.3389892578125,5.34066009521484,5.34233236312866,5.34400606155396,5.34568023681641,5.34735584259033,5.34903240203857,5.35070943832397,5.35238838195801,5.3540678024292,5.35574865341187,5.35743045806885,5.35911321640015,5.36079692840576,5.36248207092285,5.36416816711426,5.36585521697998,5.36754322052002,5.36923217773438,5.37092256546021,5.37261390686035,5.37430620193481,5.37599945068359,5.37769412994385,5.37938928604126,5.3810863494873,5.38278388977051,5.38448238372803,5.38618230819702,5.38788318634033,5.38958549499512,5.39128828048706,5.39299249649048,5.39469766616821,5.39640426635742,5.39811134338379,5.39981985092163,5.40152931213379,5.40324020385742,5.40495157241821,5.40666437149048,5.40837860107422,5.41009330749512,5.41180944442749,5.41352653503418,5.41524505615234,5.41696405410767,5.41868448257446,5.42040586471558,5.42212867736816,5.42385244369507,5.42557716369629,5.42730283737183,5.42902994155884,5.43075799942017,5.43248748779297,5.43421745300293,5.43594884872437,5.44374895095825,5.45389318466187,5.46407556533813,5.47429656982422,5.4845552444458,5.4948525428772,5.50518846511841,5.51556396484375,5.52597808837891,5.53643178939819,5.54692506790161,5.55745792388916,5.56803131103516,5.57864475250244,5.58929872512817,5.59999370574951,5.61072969436646,5.621506690979,5.63232517242432,5.64318561553955,5.65408754348755,5.66503190994263,5.67601919174194,5.68704843521118,5.69812107086182,5.70923709869385,5.72039604187012,5.73159885406494,5.74284601211548,5.75413703918457,5.76547241210938,5.77685308456421,5.78827810287476,5.79974889755249,5.81126499176025,5.82282686233521,5.83443546295166,5.8460898399353,5.85779094696045,5.8695387840271,5.88133430480957,5.8931770324707,5.90506744384766,5.91700601577759,5.92899322509766,5.94102907180786,5.9531135559082,5.965247631073,5.97743082046509,5.98966455459595,6.00194787979126,6.0142822265625,6.02666664123535,6.03910303115845,6.05158996582031,6.06412935256958,6.07672023773193,6.08936405181885,6.10206031799316,6.11480951309204,6.12761259078979,6.14046907424927,6.15337944030762,6.166344165802,6.17936420440674,6.19243860244751,6.20556879043579,6.21875524520874,6.23199701309204,6.24529600143433,6.25865173339844,6.27206420898438,6.28553485870361,6.29906320571899,6.31264972686768,6.32629537582397,6.34000015258789,6.35376405715942,6.36758852005005,6.38147258758545,6.3954176902771,6.409423828125,6.42349147796631,6.43762063980103,6.45181226730347,6.46606683731079,6.480384349823,6.4947657585144,6.50921058654785,6.52372026443481,6.53829479217529,6.55293416976929,6.56763935089111,6.58241081237793,6.59724903106689,6.61215400695801,6.62712669372559,6.64216709136963,6.65727615356445,6.67245388031006,6.68770122528076,6.70301866531372,6.71840572357178,6.73386383056641,6.74939346313477,6.76499509811401,6.78066873550415,6.79641485214233,6.81223440170288,6.82812833786011,6.84409618377686,6.86013889312744,6.87659740447998,6.90153169631958,6.94506168365479,6.9493613243103,6.95366621017456,6.95797634124756,6.9622917175293,6.96661281585693,6.97093915939331,6.97527074813843,6.97960758209229,6.98395013809204,6.98829793930054,7.02299833297729,7.06173229217529,7.10089588165283,7.14049625396729,7.18054103851318,7.2210373878479,7.26199293136597,7.30341577529907,7.34531402587891,7.38769149780273,7.43055820465088,7.47392559051514,7.51780223846436,7.56219673156738,7.60711860656738,7.65257740020752,7.69858312606812,7.74514532089233,7.79181337356567,7.83365774154663,7.87595462799072,7.91871023178101,7.96193265914917,8.00562953948975,8.04980945587158,8.09447860717773,8.13964653015137,8.18819999694824,8.23943901062012,8.2913236618042,8.3438663482666,8.39707851409912,8.45097351074219,8.50556564331055,8.56086730957031,8.61697769165039,8.67397499084473,8.73173141479492,8.79026126861572,8.84958171844482,8.90970802307129,8.98090553283691,9.05904483795166,9.13855648040771,9.21947479248047,9.30183982849121,9.3856897354126,9.46146011352539,9.53190135955811,9.60339832305908,9.67597579956055,9.74965953826904,9.82447338104248,9.90044403076172,9.97760009765625,10.0559673309326,10.1355743408203,0,0,0,0,0,0,0,0,0,0,0,0,0,0,0,0,0,0,0,0,0,0,0,0,0,0,0,0,0,0,0,0,0,0,0,0
5.24192190170288,5.24353265762329,5.24514484405518,5.24675750732422,5.24837160110474,5.24998664855957,5.25160264968872,5.25321960449219,5.25483751296997,5.25645637512207,5.25807666778564,5.25969743728638,5.26131916046143,5.26294231414795,5.26456642150879,5.26619100570679,5.26781702041626,5.26944398880005,5.27107238769531,5.27270126342773,5.27433109283447,5.27596235275269,5.27759408950806,5.2792272567749,5.28086137771606,5.28249597549438,5.28413200378418,5.28576946258545,5.28740739822388,5.28904628753662,5.29068660736084,5.29232740402222,5.29396963119507,5.29561281204224,5.29725694656372,5.29890251159668,5.3005485534668,5.30219554901123,5.30384397506714,5.30549335479736,5.3071436882019,5.30879497528076,5.31044769287109,5.31210088729858,5.31375551223755,5.31541061401367,5.31706762313843,5.31872510910034,5.32038354873657,5.32204294204712,5.32370376586914,5.32536506652832,5.32702827453613,5.3286919593811,5.33035659790039,5.33202266693115,5.33368921279907,5.33535718917847,5.33702611923218,5.33869600296021,5.34036731719971,5.34203958511353,5.3437123298645,5.34538650512695,5.34706163406372,5.34873819351196,5.35041570663452,5.35209369659424,5.35377359390259,5.3554539680481,5.35713529586792,5.35881805419922,5.36050176620483,5.36218643188477,5.36387205123901,5.36555910110474,5.36724710464478,5.36893606185913,5.3706259727478,5.37231731414795,5.37400960922241,5.37570238113403,5.37739658355713,5.3790922164917,5.38078880310059,5.38248634338379,5.38418483734131,5.38588428497314,5.38758516311646,5.38928699493408,5.39098978042603,5.39269399642944,5.39439868927002,5.39610481262207,5.3978123664856,5.39952039718628,5.40122985839844,5.40294027328491,5.4046516418457,5.40636444091797,5.40807819366455,5.40979290008545,5.41150856018066,5.41322565078735,5.41494369506836,5.41666269302368,5.41838312149048,5.42010450363159,5.42182683944702,5.42355012893677,5.42982625961304,5.43991899490356,5.45004940032959,5.46021747589111,5.47042369842529,5.48066806793213,5.49095058441162,5.50127220153809,5.51163244247437,5.52203178405762,5.53247022628784,5.54294872283936,5.553466796875,5.56402492523193,5.57462310791016,5.58526182174683,5.59594106674194,5.60666131973267,5.61742258071899,5.62822580337524,5.6390700340271,5.64995622634888,5.66088485717773,5.67185544967651,5.68286895751953,5.69392538070679,5.70502471923828,5.71616744995117,5.72735357284546,5.73858404159546,5.74985837936401,5.76117706298828,5.77254009246826,5.78394842147827,5.79540205001831,5.80690097808838,5.81844568252563,5.83003616333008,5.84167337417603,5.85335636138916,5.86508703231812,5.87686443328857,5.8886890411377,5.90056133270264,5.91248178482056,5.92445087432861,5.93646812438965,5.94853401184082,5.96064901351929,5.97281408309937,5.98502826690674,5.99729299545288,6.00960779190063,6.02197313308716,6.03438997268677,6.0468578338623,6.05937719345093,6.07194852828979,6.08457231521606,6.09724855422974,6.10997772216797,6.12276029586792,6.13559675216675,6.14848661422729,6.16143083572388,6.17442989349365,6.18748378753662,6.20059299468994,6.21375799179077,6.22697877883911,6.24025583267212,6.25359010696411,6.26698112487793,6.28042936325073,6.29393625259399,6.3075008392334,6.32112407684326,6.33480596542358,6.34854793548584,6.36234903335571,6.37621068954468,6.39013242721558,6.40411520004272,6.41815948486328,6.4322657585144,6.44643354415894,6.46066427230835,6.47495794296265,6.48931503295898,6.50373601913452,6.51822090148926,6.53277063369751,6.54738569259644,6.56206607818604,6.57681226730347,6.59162521362305,6.60650491714478,6.62145185470581,6.63646650314331,6.65154981613159,6.6667013168335,6.6819224357605,6.69721269607544,6.71257352828979,6.72800493240356,6.74350738525391,6.75908136367798,6.7747278213501,6.79044675827026,6.80623865127563,6.82210397720337,6.83804368972778,6.85545587539673,6.87707233428955,6.93515348434448,6.96813201904297,6.97245979309082,6.97679328918457,6.98113250732422,6.98547649383545,6.98982667922974,6.99418163299561,6.99854230880737,7.00290822982788,7.00727987289429,7.02626705169678,7.0650372505188,7.10423755645752,7.14387559890747,7.18395805358887,7.22449350357056,7.2654881477356,7.30695104598999,7.34888982772827,7.39131307601929,7.43422174453735,7.47763204574585,7.52155208587646,7.56599140167236,7.61095857620239,7.65646362304688,7.70251607894897,7.74912595748901,7.79630279541016,7.84012031555176,7.88248729705811,7.92531394958496,7.96860885620117,8.01237964630127,8.05663299560547,8.10137844085693,8.14662456512451,8.19237804412842,8.24339389801025,8.29532814025879,8.34792137145996,8.40118598937988,8.45513439178467,8.50977993011475,8.56513690948486,8.62121772766113,8.67826843261719,8.73608207702637,8.79467010498047,8.8540506362915,8.91423797607422,8.98214817047119,9.0603084564209,9.13984203338623,9.22078418731689,9.30317211151123,9.38704586029053,9.46739673614502,9.53792572021484,9.6095142364502,9.68218421936035,9.75596332550049,9.8308744430542,9.90694522857666,9.98420238494873,10.0626735687256,10.142388343811,0,0,0,0,0,0,0,0,0,0,0,0,0,0,0,0,0,0,0,0,0,0,0,0,0,0,0,0,0,0,0,0,0,0,0
5.22878837585449,5.23039150238037,5.23199510574341,5.23360013961792,5.23520612716675,5.23681306838989,5.2384204864502,5.24002981185913,5.24163961410522,5.24325037002563,5.24486207962036,5.2464747428894,5.24808883666992,5.2497034072876,5.25131940841675,5.25293588638306,5.25455379486084,5.25617265701294,5.25779247283936,5.25941324234009,5.26103496551514,5.2626576423645,5.26428174972534,5.26590633392334,5.26753234863281,5.26915884017944,5.27078676223755,5.27241563796997,5.27404546737671,5.27567625045776,5.27730798721313,5.27894067764282,5.28057479858398,5.2822093963623,5.2838454246521,5.28548240661621,5.28712034225464,5.28875875473022,5.29039907455444,5.29203987121582,5.29368162155151,5.29532480239868,5.29696893692017,5.29861402511597,5.30026006698608,5.30190706253052,5.30355501174927,5.30520439147949,5.30685424804688,5.30850553512573,5.31015777587891,5.3118109703064,5.3134651184082,5.31512069702148,5.31677675247192,5.31843423843384,5.32009267807007,5.32175207138062,5.32341241836548,5.32507371902466,5.32673645019531,5.32840013504028,5.33006477355957,5.33173036575317,5.33339691162109,5.33506488800049,5.3367338180542,5.33840322494507,5.34007453918457,5.34174633026123,5.34341907501221,5.34509325027466,5.34676837921143,5.34844446182251,5.35012149810791,5.35179996490479,5.35347890853882,5.35515928268433,5.35684061050415,5.35852336883545,5.36020660400391,5.36189126968384,5.36357688903809,5.36526346206665,5.36695146560669,5.36863994598389,5.37032985687256,5.37202072143555,5.37371253967285,5.37540578842163,5.37709999084473,5.37879514694214,5.38049125671387,5.38218879699707,5.38388729095459,5.38558626174927,5.38728713989258,5.38898849487305,5.39069128036499,5.39239501953125,5.39409971237183,5.39580583572388,5.39751291275024,5.39922094345093,5.40092992782593,5.4026403427124,5.40435171127319,5.4060640335083,5.40777730941772,5.40949201583862,5.41120767593384,5.41597509384155,5.42601633071899,5.43609476089478,5.44621086120605,5.45636463165283,5.46655607223511,5.4767861366272,5.48705434799194,5.4973611831665,5.50770664215088,5.51809120178223,5.52851486206055,5.538978099823,5.54948091506958,5.56002378463745,5.57060670852661,5.58123016357422,5.59189414978027,5.60259914398193,5.61334466934204,5.62413215637207,5.63496065139771,5.64583110809326,5.65674352645874,5.6676983833313,5.67869567871094,5.68973541259766,5.70081853866577,5.71194505691528,5.72311449050903,5.7343282699585,5.74558591842651,5.75688791275024,5.76823425292969,5.779625415802,5.79106187820435,5.80254364013672,5.81407070159912,5.82564401626587,5.8372631072998,5.84892892837524,5.86064147949219,5.87240123748779,5.8842077255249,5.89606237411499,5.9079647064209,5.91991519927979,5.93191385269165,5.94396114349365,5.95605802536011,5.96820402145386,5.98039960861206,5.99264526367188,6.0049409866333,6.0172872543335,6.02968454360962,6.04213285446167,6.05463266372681,6.06718444824219,6.07978820800781,6.092444896698,6.10515403747559,6.11791610717773,6.13073205947876,6.1436014175415,6.15652513504028,6.16950368881226,6.18253660202026,6.19562482833862,6.20876836776733,6.22196817398071,6.2352237701416,6.24853658676147,6.26190614700317,6.27533292770386,6.28881740570068,6.30235958099365,6.31596088409424,6.32962083816528,6.34333992004395,6.35711860656738,6.3709568977356,6.38485622406006,6.39881610870361,6.41283702850342,6.42691946029663,6.44106388092041,6.45527076721191,6.4695405960083,6.48387384414673,6.4982705116272,6.51273107528687,6.52725648880005,6.54184627532959,6.55650186538696,6.57122325897217,6.58601093292236,6.60086536407471,6.6157865524292,6.63077592849731,6.64583301544189,6.66095876693726,6.6761531829834,6.69141721725464,6.70675134658813,6.72215604782104,6.73763179779053,6.75317859649658,6.76879739761353,6.78448867797852,6.80425310134888,6.82421255111694,6.84428977966309,6.8644847869873,6.91578912734985,6.97612571716309,6.99135541915894,6.9957127571106,7.000075340271,7.00444316864014,7.00881671905518,7.01319551467896,7.01757955551147,7.02196931838989,7.02636480331421,7.03076553344727,7.06834554672241,7.10758256912231,7.14725828170776,7.18737888336182,7.22795248031616,7.26898670196533,7.31049013137817,7.3524694442749,7.39493417739868,7.43788909912109,7.48134231567383,7.525306224823,7.56978988647461,7.61480236053467,7.66035318374634,7.7064528465271,7.75311040878296,7.8003363609314,7.84659385681152,7.88903045654297,7.93192863464355,7.97529602050781,8.01914024353027,8.06346893310547,8.10829067230225,8.15361404418945,8.1994457244873,8.24735260009766,8.29933738708496,8.3519811630249,8.40529727935791,8.45929908752441,8.51399803161621,8.56941032409668,8.62554740905762,8.68256568908691,8.74043655395508,8.7990837097168,8.85852432250977,8.91877269744873,8.98338985443115,9.06157302856445,9.14112854003906,9.22209358215332,9.30450439453125,9.38840293884277,9.47334098815918,9.54395866394043,9.61563777923584,9.688401222229,9.76227474212646,9.83728313446045,9.91345310211182,9.99081230163574,10.0693883895874,10.1492099761963,10.230297088623,0,0,0,0,0,0,0,0,0,0,0,0,0,0,0,0,0,0,0,0,0,0,0,0,0,0,0,0,0,0,0,0,0
