4.68011999130249,4.68152809143066,4.682936668396,4.68434619903564,4.68575668334961,4.68716812133789,4.68858003616333,4.68999338150024,4.69140720367432,4.69282150268555,4.69423723220825,4.69565391540527,4.69707107543945,4.69848918914795,4.69990825653076,4.70132780075073,4.70274877548218,4.70417022705078,4.7055926322937,4.70701599121094,4.70843982696533,4.7098650932312,4.71129083633423,4.71271753311157,4.71414518356323,4.71557378768921,4.71700286865234,4.71843290328979,4.71986436843872,4.7212963104248,4.72272920608521,4.72416257858276,4.72559690475464,4.72703266143799,4.7284688949585,4.72990608215332,4.7313437461853,4.73278284072876,4.73422288894653,4.73566341400146,4.73710489273071,4.73854732513428,4.739990234375,4.7414345741272,4.74287986755371,4.74432563781738,4.74577236175537,4.74722003936768,4.7486686706543,4.75011825561523,4.75156831741333,4.75381755828857,4.76170587539673,4.76962041854858,4.7775616645813,4.78552913665771,4.79352331161499,4.80154418945312,4.80959224700928,4.81766700744629,4.82576894760132,4.83389806747437,4.84205484390259,4.85023927688599,4.8584508895874,4.86669111251831,4.87495851516724,4.88325452804565,4.89157915115356,4.89993143081665,4.90831279754639,4.91672277450562,4.92516183853149,4.93362951278687,4.94212675094604,4.95065307617188,4.95920896530151,4.96779441833496,4.97640943527222,4.98505449295044,4.99373006820679,5.00243520736694,5.01117134094238,5.01993799209595,5.02873516082764,5.03756284713745,5.04642200469971,5.0553126335144,5.06423425674438,5.07318735122681,5.08217239379883,5.09118938446045,5.10023832321167,5.10931921005249,5.11843299865723,5.12757921218872,5.13675785064697,5.1459698677063,5.15521478652954,5.1644926071167,5.17380428314209,5.18314981460571,5.19252872467041,5.2019419670105,5.21138906478882,5.22087049484253,5.23038673400879,5.2399377822876,5.24952363967896,5.25914478302002,5.26880121231079,5.27849292755127,5.28822088241577,5.29798412322998,5.30778408050537,5.31761980056763,5.32749223709106,5.33740139007568,5.34734773635864,5.35733127593994,5.36735153198242,5.37740993499756,5.38750600814819,5.39763975143433,5.40781211853027,5.41802263259888,5.42827177047729,5.43855953216553,5.44888687133789,5.45925331115723,5.46965932846069,5.48010492324829,5.49059057235718,5.50111627578735,5.51168251037598,5.52228975296021,5.53293752670288,5.54362630844116,5.55435705184937,5.56512880325317,5.5759425163269,5.58679866790771,5.59769678115845,5.60863780975342,5.61962175369263,5.63064861297607,5.64171886444092,5.65283250808716,5.66399049758911,5.67519235610962,5.68643856048584,5.69772958755493,5.70906543731689,5.72044610977173,5.73187255859375,5.74334526062012,5.75486326217651,5.76642799377441,5.77803897857666,5.78969717025757,5.80140209197998,5.81315469741821,5.82495498657227,5.83680295944214,5.84869956970215,5.86064481735229,5.87263870239258,5.88468217849731,5.89677476882935,5.90891742706299,5.92111015319824,5.93335342407227,5.9456467628479,5.95799160003662,5.97038793563843,5.98283576965332,5.99533605575562,6.00788831710815,6.0204930305481,6.03315114974976,6.04586219787598,6.05862712860107,6.07144641876221,6.08431959152222,6.09724760055542,6.11335706710815,6.1298565864563,6.14644575119019,6.16312456130981,6.18760776519775,6.23570156097412,6.27952527999878,6.29853868484497,6.3025484085083,6.30656337738037,6.31058359146118,6.31460905075073,6.31863927841187,6.32267475128174,6.32671546936035,6.33076143264771,6.3348126411438,6.33886909484863,6.357741355896,6.38946914672852,6.42151546478271,6.45388460159302,6.48658180236816,6.51961183547974,6.55297994613647,6.58669185638428,6.62075185775757,6.6551661491394,6.68994045257568,6.72507953643799,6.76058959960938,6.79647779464722,6.83274841308594,6.86940813064575,6.90646362304688,6.94392108917236,6.98178672790527,7.02006816864014,7.05877161026001,7.09790372848511,7.13747262954712,7.17723894119263,7.21326112747192,7.24964666366577,7.28640174865723,7.32353067398071,7.36104011535645,7.39893579483032,7.4372239112854,7.47591018676758,7.51500129699707,7.55450296401978,7.59442234039307,7.63704538345337,7.68173551559448,7.72695112228394,7.77270269393921,7.81899929046631,7.8658504486084,7.91326665878296,7.96125793457031,8.0098352432251,8.05914211273193,8.10908889770508,8.15965843200684,8.21086311340332,8.26271438598633,8.31522464752197,8.37966346740723,8.44628238677979,8.51396751403809,8.58274745941162,8.65264701843262,8.72369480133057,8.79591941833496,8.8681116104126,8.92996120452881,8.99267864227295,9.05628395080566,9.12079524993896,9.1862325668335,9.25261497497559,9.31996440887451,9.38830089569092,9.4576473236084,9.52802658081055,9.59945964813232,9.67197227478027,18.8273448944092,18.826416015625,18.8254890441895,18.8245582580566,18.8236312866211,18.8227024078369,18.8217754364014,18.8208484649658,18.8199195861816,18.8189926147461,18.8180656433105,18.8171367645264,18.8162097930908,18.8152828216553,18.8143558502197,18.8134269714355,18.8125,18.8115730285645,18.8106460571289,18.8097190856934,18.8087921142578,18.8078670501709,18.8069400787354,18.8060131072998,18.8050861358643,18.8041610717773,18.8032341003418,18.8023090362549,18.8013820648193,18.8004570007324,18.7995300292969,18.79860496521,18.797679901123,18.7967529296875,18.7958278656006,18.7949028015137,18.7939758300781,18.7930526733398,18.7921276092529,18.791202545166,18.7902793884277,18.7893524169922,18.7884273529053,18.787504196167,18.7865791320801,18.7856540679932,18.7847290039062,18.783805847168,18.7828807830811,18.7819576263428,18.7810325622559,18.7801074981689,18.7791862487793,18.7782611846924,18.7773380279541,18.7764148712158
4.66868114471436,4.67008209228516,4.67148351669312,4.67288637161255,4.6742901802063,4.67569446563721,4.67709970474243,4.67850589752197,4.67991256713867,4.68132066726685,4.68272924423218,4.68413877487183,4.68554878234863,4.68696022033691,4.68837213516235,4.68978500366211,4.69119882583618,4.69261360168457,4.69402885437012,4.69544506072998,4.69686222076416,4.69828033447266,4.69969892501831,4.70111894607544,4.70253944396973,4.70396089553833,4.70538282394409,4.70680618286133,4.70823001861572,4.70965480804443,4.71108055114746,4.7125072479248,4.71393489837646,4.71536302566528,4.71679210662842,4.71822261810303,4.71965360641479,4.72108507156372,4.72251796722412,4.72395133972168,4.72538566589355,4.72682094573975,4.72825717926025,4.72969436645508,4.73113203048706,4.73257064819336,4.73401069641113,4.73545122146606,4.73689222335815,4.73833465576172,4.73977756500244,4.74122190475464,4.7429895401001,4.75084209442139,4.75872039794922,4.76662540435791,4.77455615997314,4.78251361846924,4.79049777984619,4.798508644104,4.80654621124268,4.81461095809937,4.82270240783691,4.83082151412964,4.83896780014038,4.8471417427063,4.85534334182739,4.86357259750366,4.87182950973511,4.88011503219604,4.88842868804932,4.89677047729492,4.90514087677002,4.91353988647461,4.92196798324585,4.93042469024658,4.93891096115112,4.94742584228516,4.95597076416016,4.96454477310181,4.97314882278442,4.98178291320801,4.9904465675354,4.99914073944092,5.0078649520874,5.01661968231201,5.0254054069519,5.03422164916992,5.04306936264038,5.05194759368896,5.06085777282715,5.06979894638062,5.07877206802368,5.08777666091919,5.09681367874146,5.10588216781616,5.11498355865479,5.12411737442017,5.13328409194946,5.14248323440552,5.15171575546265,5.16098117828369,5.17027997970581,5.17961263656616,5.18897867202759,5.1983790397644,5.20781326293945,5.21728181838989,5.22678518295288,5.23632287979126,5.24589586257935,5.25550317764282,5.26514625549316,5.27482461929321,5.28453874588013,5.29428863525391,5.30407476425171,5.31389713287354,5.32375574111938,5.33365106582642,5.34358310699463,5.35355234146118,5.36355876922607,5.37360286712646,5.38368463516235,5.39380407333374,5.40396165847778,5.41415786743164,5.42439222335815,5.43466567993164,5.44497776031494,5.45532941818237,5.46572065353394,5.47615098953247,5.48662137985229,5.49713230133057,5.50768327713013,5.51827478408813,5.52890682220459,5.53958034515381,5.55029535293579,5.56105136871338,5.57184934616089,5.58268928527832,5.59357166290283,5.60449647903442,5.61546421051025,5.62647438049316,5.63752841949463,5.64862585067749,5.65976667404175,5.67095184326172,5.6821813583374,5.6934552192688,5.70477437973022,5.71613836288452,5.72754764556885,5.7390022277832,5.7505030632019,5.76205015182495,5.7736439704895,5.7852840423584,5.79697132110596,5.80870580673218,5.82048797607422,5.83231830596924,5.84419631958008,5.85612297058105,5.86809873580933,5.88012313842773,5.8921971321106,5.90432071685791,5.91649484634399,5.92871856689453,5.940993309021,5.95331859588623,5.96569538116455,5.97812366485596,5.99060392379761,6.00313663482666,6.01572132110596,6.02835941314697,6.04105043411255,6.0554404258728,6.07162809371948,6.08790302276611,6.10426568984985,6.1207160949707,6.13725566864014,6.15388441085815,6.17060422897339,6.2149543762207,6.26347398757935,6.31061029434204,6.32002544403076,6.32406282424927,6.32810544967651,6.33215284347534,6.33620595932007,6.34026384353638,6.34432697296143,6.34839534759521,6.3524694442749,6.35654830932617,6.36063241958618,6.39218091964722,6.42425394058228,6.45665121078491,6.48937606811523,6.52243518829346,6.55583190917969,6.58957290649414,6.62366342544556,6.65810775756836,6.69291257858276,6.72808361053467,6.76362562179565,6.79954528808594,6.83584880828857,6.87254238128662,6.90963172912598,6.94712352752686,6.98502445220947,7.02334117889404,7.06208086013794,7.10125017166138,7.14085578918457,7.18090629577637,7.21882200241089,7.2552638053894,7.29207563400269,7.32926321029663,7.36683130264282,7.40478706359863,7.4431357383728,7.48188352584839,7.52103710174561,7.56060266494751,7.60058689117432,7.64099597930908,7.68517637252808,7.73043298721313,7.77622556686401,7.82256412506104,7.86945867538452,7.91691827774048,7.96495389938354,8.01357650756836,8.06285858154297,8.1128511428833,8.16346836090088,8.21472072601318,8.26662063598633,8.31918048858643,8.38069915771484,8.44733428955078,8.51503658294678,8.58383369445801,8.65375137329102,8.72481727600098,8.79706001281738,8.87051010131836,8.93526172637939,8.99805450439453,9.06173610687256,9.1263256072998,9.1918420791626,9.2583065032959,9.32573890686035,9.39416027069092,9.46359348297119,9.53406143188477,9.60558605194092,18.6503219604492,18.6494121551514,18.6485023498535,18.647590637207,18.6466808319092,18.6457691192627,18.6448574066162,18.6439476013184,18.6430377960205,18.6421279907227,18.6412162780762,18.6403064727783,18.6393947601318,18.6384868621826,18.6375770568848,18.6366672515869,18.6357574462891,18.6348457336426,18.6339359283447,18.6330280303955,18.6321182250977,18.6312084197998,18.630298614502,18.6293907165527,18.6284809112549,18.6275730133057,18.6266632080078,18.6257553100586,18.6248455047607,18.6239376068115,18.6230278015137,18.6221199035645,18.6212120056152,18.620304107666,18.6193962097168,18.6184883117676,18.6175785064697,18.6166706085205,18.6157646179199,18.6148567199707,18.6139488220215,18.6130409240723,18.6121349334717,18.6112251281738,18.6103191375732,18.609411239624,18.6085052490234,18.6075973510742,18.606689453125,18.6057834625244,18.6048774719238,18.6039714813232,18.603063583374,18.6021556854248,18.6012516021729,18.6003437042236
4.65729761123657,4.65869188308716,4.6600866317749,4.66148233413696,4.6628794670105,4.66427707672119,4.6656756401062,4.66707468032837,4.66847467422485,4.66987562179565,4.67127704620361,4.67267990112305,4.67408323287964,4.67548751831055,4.67689275741577,4.67829847335815,4.67970561981201,4.68111324310303,4.68252182006836,4.68393087387085,4.68534088134766,4.68675231933594,4.68816423416138,4.68957662582397,4.69099044799805,4.69240474700928,4.69381999969482,4.69523620605469,4.69665336608887,4.69807147979736,4.69949007034302,4.70090961456299,4.70233011245728,4.70375108718872,4.70517349243164,4.70659637451172,4.70802021026611,4.70944499969482,4.71087074279785,4.7122974395752,4.7137246131897,4.71515274047852,4.71658182144165,4.71801137924194,4.71944236755371,4.72087430953979,4.72230672836304,4.7237401008606,4.72517442703247,4.72660970687866,4.72804546356201,4.72948217391968,4.73092031478882,4.73235893249512,4.74002742767334,4.74786996841431,4.75573921203613,4.76363372802734,4.77155494689941,4.77950239181519,4.78747653961182,4.79547691345215,4.8035044670105,4.81155872344971,4.81964015960693,4.82774877548218,4.8358850479126,4.84404802322388,4.85223913192749,4.86045789718628,4.8687047958374,4.8769793510437,4.88528203964233,4.89361333847046,4.90197277069092,4.91036128997803,4.91877841949463,4.92722415924072,4.93569898605347,4.94420337677002,4.95273685455322,4.96129989624023,4.96989250183105,4.97851514816284,4.98716735839844,4.99585008621216,5.004563331604,5.01330661773682,5.02208042144775,5.03088521957397,5.03972053527832,5.04858732223511,5.05748558044434,5.06641483306885,5.07537603378296,5.08436870574951,5.09339332580566,5.10244989395142,5.11153888702393,5.12066030502319,5.12981462478638,5.13900136947632,5.14822101593018,5.15747404098511,5.16676044464111,5.17608022689819,5.18543386459351,5.19482135772705,5.20424270629883,5.213698387146,5.22318840026855,5.23271322250366,5.24227237701416,5.25186681747437,5.26149654388428,5.2711615562439,5.28086233139038,5.29059839248657,5.30037069320679,5.31017923355103,5.32002401351929,5.32990550994873,5.33982372283936,5.34977912902832,5.35977125167847,5.36980104446411,5.37986850738525,5.38997364044189,5.40011692047119,5.41029834747314,5.42051839828491,5.43077707290649,5.44107484817505,5.45141124725342,5.46178722381592,5.47220277786255,5.48265838623047,5.49315357208252,5.50368928909302,5.51426553726196,5.52488279342651,5.53554058074951,5.54623937606812,5.55698013305664,5.56776237487793,5.57858610153198,5.58945274353027,5.60036134719849,5.61131238937378,5.62230682373047,5.6333441734314,5.64442491531372,5.6555495262146,5.66671800613403,5.67793083190918,5.68918800354004,5.70048999786377,5.71183681488037,5.723228931427,5.73466634750366,5.74615001678467,5.75767946243286,5.7692551612854,5.78087759017944,5.79254722595215,5.80426406860352,5.81602811813354,5.82783985137939,5.83969974517822,5.85160827636719,5.86356544494629,5.87557125091553,5.88762664794922,5.89973163604736,5.91188621520996,5.92409133911133,5.93634653091431,5.94865274429321,5.96101045608521,5.97341918945312,5.98587942123413,5.998610496521,6.01449584960938,6.03046560287476,6.0465202331543,6.06266021728516,6.07888698577881,6.09520101547241,6.11160278320312,6.12809276580811,6.14467239379883,6.16134166717529,6.19434022903442,6.24254274368286,6.29149484634399,6.3375997543335,6.34165954589844,6.34572458267212,6.34979486465454,6.3538703918457,6.35795116424561,6.36203670501709,6.36612796783447,6.3702244758606,6.37432622909546,6.37843370437622,6.39489459991455,6.42699527740479,6.45941972732544,6.49217319488525,6.52526044845581,6.55868673324585,6.59245729446411,6.62657737731934,6.66105222702026,6.69588804244995,6.73109006881714,6.76666402816772,6.80261611938477,6.83895206451416,6.87567901611328,6.91280221939087,6.9503288269043,6.98826456069946,7.0266170501709,7.06539297103882,7.10459899902344,7.14424276351929,7.18433094024658,7.2243914604187,7.26089000701904,7.29775905609131,7.3350043296814,7.37263154983521,7.41064739227295,7.44905710220337,7.48786640167236,7.52708292007446,7.56671237945557,7.60676097869873,7.64723634719849,7.68862056732178,7.73391771316528,7.77975177764893,7.82613277435303,7.87306976318359,7.92057323455811,7.96865367889404,8.01732158660889,8.0665864944458,8.11661720275879,8.16728115081787,8.218581199646,8.27053070068359,8.32314014434814,8.38173484802246,8.44838619232178,8.51610565185547,8.58491992950439,8.65485572814941,8.72593975067139,8.79820156097412,8.87166976928711,8.94056987762451,9.00343704223633,9.06719493865967,9.13186264038086,9.19745922088623,9.26400470733643,9.33152008056641,9.40002727508545,9.46954822540283,18.4774951934814,18.476598739624,18.4757061004639,18.4748115539551,18.4739170074463,18.4730243682861,18.4721298217773,18.4712352752686,18.4703407287598,18.4694480895996,18.4685554504395,18.4676628112793,18.4667682647705,18.4658737182617,18.4649810791016,18.46409034729,18.4631958007812,18.4623012542725,18.4614086151123,18.4605178833008,18.459623336792,18.4587326049805,18.4578399658203,18.4569454193115,18.4560546875,18.4551639556885,18.4542694091797,18.4533786773682,18.4524879455566,18.4515953063965,18.4507026672363,18.4498100280762,18.4489192962646,18.4480285644531,18.447135925293,18.4462451934814,18.4453544616699,18.4444618225098,18.4435710906982,18.4426784515381,18.4417896270752,18.4408988952637,18.4400081634521,18.4391174316406,18.4382266998291,18.4373359680176,18.4364471435547,18.4355545043945,18.4346656799316,18.4337749481201,18.4328842163086,18.4319953918457,18.4311065673828,18.4302139282227,18.4293270111084,18.4284362792969,18.4275455474854
4.64596939086914,4.64735698699951,4.64874505996704,4.65013408660889,4.65152406692505,4.65291500091553,4.65430641174316,4.65569925308228,4.65709209442139,4.65848636627197,4.65988111495972,4.66127681732178,4.66267347335815,4.66407108306885,4.6654691696167,4.66686868667603,4.66826820373535,4.66966915130615,4.67107057571411,4.67247295379639,4.67387628555298,4.67528057098389,4.67668533325195,4.67809152603149,4.67949819564819,4.68090581893921,4.68231391906738,4.68372344970703,4.68513345718384,4.68654441833496,4.68795585632324,4.689368724823,4.69078207015991,4.69219636917114,4.69361162185669,4.69502782821655,4.69644451141357,4.69786262512207,4.69928073883057,4.70070028305054,4.70212078094482,4.70354175567627,4.70496368408203,4.70638704299927,4.7078104019165,4.70923519134521,4.71066045761108,4.71208715438843,4.71351385116577,4.71494197845459,4.71637105941772,4.71780109405518,4.71923160552979,4.72066307067871,4.72209548950195,4.72926187515259,4.73706912994385,4.74490213394165,4.752760887146,4.76064586639404,4.76855707168579,4.77649450302124,4.78445863723755,4.79244899749756,4.80046653747559,4.80851030349731,4.81658172607422,4.82467985153198,4.83280563354492,4.84095859527588,4.84913921356201,4.85734748840332,4.8655834197998,4.87384748458862,4.88213968276978,4.89046049118042,4.8988094329834,4.90718650817871,4.91559267044067,4.92402744293213,4.93249177932739,4.94098472595215,4.94950723648071,4.95805883407593,4.96664047241211,4.9752516746521,4.98389291763306,4.99256420135498,5.00126552581787,5.00999736785889,5.01875972747803,5.02755260467529,5.03637647628784,5.04523134231567,5.05411767959595,5.06303548812866,5.07198429107666,5.08096504211426,5.08997774124146,5.09902238845825,5.10809898376465,5.11720848083496,5.12634992599487,5.1355242729187,5.14473152160645,5.15397214889526,5.163245677948,5.17255306243896,5.18189382553101,5.19126796722412,5.20067644119263,5.21011924743652,5.21959638595581,5.22910785675049,5.23865413665771,5.24823522567749,5.25785160064697,5.26750326156616,5.27719068527222,5.28691339492798,5.29667186737061,5.30646657943726,5.31629800796509,5.32616567611694,5.33606958389282,5.3460111618042,5.35598945617676,5.36600494384766,5.37605810165405,5.38614892959595,5.3962779045105,5.40644502639771,5.41665029525757,5.42689418792725,5.4371771812439,5.44749879837036,5.45785999298096,5.46826076507568,5.47870063781738,5.48918104171753,5.49970149993896,5.51026248931885,5.52086400985718,5.53150606155396,5.5421895980835,5.5529146194458,5.56368112564087,5.5744891166687,5.58533954620361,5.59623193740845,5.60716724395752,5.61814546585083,5.62916660308838,5.64023065567017,5.65133857727051,5.6624903678894,5.67368650436401,5.68492698669434,5.69621181488037,5.70754146575928,5.71891641616821,5.73033666610718,5.74180269241333,5.75331497192383,5.76487350463867,5.77647829055786,5.78812980651855,5.79982852935791,5.81157493591309,5.82336854934692,5.83521032333374,5.84710073471069,5.85903930664062,5.87102651596069,5.88306331634521,5.89514923095703,5.90728521347046,5.9194712638855,5.93170738220215,5.94399452209473,5.95842838287354,5.97410106658936,5.9898567199707,6.00569581985474,6.02161836624146,6.03762626647949,6.05371904373169,6.06989765167236,6.08616352081299,6.10251665115356,6.11895751953125,6.13548755645752,6.15210676193237,6.17386293411255,6.22174644470215,6.27037620544434,6.31976795196533,6.3593544960022,6.36344242095947,6.36753559112549,6.37163352966309,6.37573719024658,6.37984609603882,6.38396024703979,6.38807964324951,6.39220428466797,6.39633464813232,6.40046977996826,6.42973852157593,6.46219110488892,6.49497270584106,6.52808856964111,6.5615439414978,6.59534406661987,6.62949371337891,6.66399908065796,6.69886589050293,6.7340989112854,6.76970529556274,6.80568981170654,6.84205865859985,6.87881898880005,6.91597604751587,6.95353698730469,6.99150800704956,7.02989625930786,7.0687084197998,7.10795164108276,7.14763259887695,7.1877589225769,7.22833871841431,7.26652431488037,7.30345106124878,7.34075450897217,7.37844133377075,7.41651678085327,7.45498752593994,7.49385929107666,7.53313875198364,7.57283163070679,7.61294555664062,7.65348625183105,7.69446182250977,7.73740577697754,7.78328132629395,7.82970428466797,7.87668466567993,7.924232006073,7.97235631942749,8.02106952667236,8.07038116455078,8.12038707733154,8.17109775543213,8.22244644165039,8.27444458007812,8.32710361480713,8.38277053833008,8.44943809509277,8.51717567443848,8.5860071182251,8.65596008300781,8.7270622253418,8.79934310913086,8.87283039093018,8.94588279724121,9.00882530212402,9.07266044616699,9.13740634918213,9.20308303833008,9.26970958709717,9.33730888366699,9.40590190887451,18.3069610595703,18.3060817718506,18.3052043914795,18.3043270111084,18.3034496307373,18.3025722503662,18.3016948699951,18.300817489624,18.2999401092529,18.2990627288818,18.2981853485107,18.2973098754883,18.2964305877686,18.2955551147461,18.294677734375,18.2938003540039,18.2929248809814,18.2920475006104,18.2911720275879,18.2902946472168,18.2894191741943,18.2885417938232,18.2876682281494,18.2867908477783,18.2859134674072,18.2850379943848,18.2841625213623,18.2832870483398,18.2824115753174,18.2815361022949,18.2806606292725,18.2797870635986,18.2789096832275,18.2780342102051,18.2771587371826,18.2762851715088,18.275411605835,18.2745342254639,18.27366065979,18.2727851867676,18.2719116210938,18.2710380554199,18.2701625823975,18.269287109375,18.2684135437012,18.2675399780273,18.2666645050049,18.2657909393311,18.2649173736572,18.2640438079834,18.2631702423096,18.2622966766357,18.2614231109619,18.2605495452881,18.2596759796143,18.2588024139404,18.2579307556152
4.63469648361206,4.63607692718506,4.63745880126953,4.63884115219116,4.64022397994995,4.64160823822021,4.64299297332764,4.64437866210938,4.64576530456543,4.64715242385864,4.64854049682617,4.64992952346802,4.65131950378418,4.6527099609375,4.65410137176514,4.65549373626709,4.6568865776062,4.65828084945679,4.65967559814453,4.66107130050659,4.66246747970581,4.6638650894165,4.66526317596436,4.66666221618652,4.66806221008301,4.66946268081665,4.67086410522461,4.67226648330688,4.67366981506348,4.67507362365723,4.67647886276245,4.67788410186768,4.67929077148438,4.68069839477539,4.68210649490356,4.68351554870605,4.68492555618286,4.68633651733398,4.68774795532227,4.68916034698486,4.69057416915894,4.69198799133301,4.69340324401855,4.69481897354126,4.69623565673828,4.69765329360962,4.69907188415527,4.70049095153809,4.70191144943237,4.70333242416382,4.70475435256958,4.70617723464966,4.70760059356689,4.70902538299561,4.71045064926147,4.71187686920166,4.71854543685913,4.72631740570068,4.73411464691162,4.7419376373291,4.74978685379028,4.75766181945801,4.76556301116943,4.77349042892456,4.78144454956055,4.78942537307739,4.79743242263794,4.80546617507935,4.81352710723877,4.82161521911621,4.82973051071167,4.83787298202515,4.8460431098938,4.85424089431763,4.86246633529663,4.87071990966797,4.87900161743164,4.88731145858765,4.89564943313599,4.90401601791382,4.91241121292114,4.92083549499512,4.92928838729858,4.9377703666687,4.94628190994263,4.9548225402832,4.96339273452759,4.97199249267578,4.98062229156494,4.98928213119507,4.99797248840332,5.00669240951538,5.01544332504272,5.02422475814819,5.03303718566895,5.04188013076782,5.05075454711914,5.05965995788574,5.06859731674194,5.07756614685059,5.08656644821167,5.09559917449951,5.10466384887695,5.11376047134399,5.12288999557495,5.13205194473267,5.1412467956543,5.15047454833984,5.15973567962646,5.16903018951416,5.17835855484009,5.18772029876709,5.19711589813232,5.20654535293579,5.21600961685181,5.22550773620605,5.23504114151001,5.24460887908936,5.25421190261841,5.26385021209717,5.27352380752563,5.28323316574097,5.29297828674316,5.30275964736938,5.31257677078247,5.32243061065674,5.33232116699219,5.34224843978882,5.35221242904663,5.36221408843994,5.37225294113159,5.38232946395874,5.39244413375854,5.40259647369385,5.41278743743896,5.42301654815674,5.43328475952148,5.4435920715332,5.45393800735474,5.46432399749756,5.47474908828735,5.48521423339844,5.49571943283081,5.50626516342163,5.51685094833374,5.52747774124146,5.53814601898193,5.54885482788086,5.55960559844971,5.57039785385132,5.58123254776001,5.59210920333862,5.60302829742432,5.61398983001709,5.62499475479126,5.63604259490967,5.64713430404663,5.65826940536499,5.6694483757019,5.68067216873169,5.69193983078003,5.7032527923584,5.71461057662964,5.72601413726807,5.73746252059937,5.74895715713501,5.760498046875,5.77208518981934,5.78371953964233,5.79540014266968,5.80712842941284,5.81890439987183,5.83072805404663,5.84259986877441,5.85451984405518,5.86648893356323,5.87850666046143,5.89057445526123,5.90339660644531,5.91878128051758,5.93424606323242,5.949791431427,5.96541881561279,5.98112869262695,5.99692153930664,6.01279783248901,6.02875852584839,6.04480409622192,6.06093502044678,6.07715272903442,6.09345722198486,6.10984945297241,6.12632989883423,6.14289999008179,6.15955972671509,6.201087474823,6.24939632415771,6.29845905303955,6.34829568862915,6.38125944137573,6.38537502288818,6.38949632644653,6.39362335205078,6.39775514602661,6.40189218521118,6.40603494644165,6.41018295288086,6.41433620452881,6.41849517822266,6.43248462677002,6.46496438980103,6.49777460098267,6.53091907501221,6.56440353393555,6.59823274612427,6.63241291046143,6.6669487953186,6.70184659957886,6.73711109161377,6.77274894714355,6.80876588821411,6.8451681137085,6.88196134567261,6.91915273666382,6.95674848556519,6.99475479125977,7.03317832946777,7.07202672958374,7.11130666732788,7.15102529525757,7.19119024276733,7.23180866241455,7.27216768264771,7.3091516494751,7.34651374816895,7.38425970077515,7.42239570617676,7.46092748641968,7.49986124038696,7.53920364379883,7.57896137237549,7.61914014816284,7.65974712371826,7.70078945159912,7.74227428436279,7.78681421279907,7.83327913284302,7.88030242919922,7.92789363861084,7.9760627746582,8.02482128143311,8.07417964935303,8.12415981292725,8.17491817474365,8.22631454467773,8.27836132049561,8.3310718536377,8.38445663452148,8.45049095153809,8.51824474334717,8.5870943069458,8.65706443786621,8.72818565368652,8.8004846572876,8.87399101257324,8.9487361907959,9.01422119140625,9.07813167572021,9.14295673370361,9.20871257781982,9.27542209625244,18.1404075622559,18.1395473480225,18.1386852264404,18.1378211975098,18.1369590759277,18.1360988616943,18.1352386474609,18.1343746185303,18.1335144042969,18.1326522827148,18.1317920684814,18.1309299468994,18.130069732666,18.129207611084,18.1283493041992,18.1274871826172,18.1266250610352,18.1257648468018,18.124906539917,18.124044418335,18.1231842041016,18.1223239898682,18.1214637756348,18.1206035614014,18.119743347168,18.1188831329346,18.1180229187012,18.1171627044678,18.1163024902344,18.115442276001,18.1145839691162,18.1137256622314,18.112865447998,18.1120052337646,18.1111469268799,18.1102867126465,18.1094284057617,18.1085681915283,18.1077117919922,18.1068534851074,18.105993270874,18.1051330566406,18.1042766571045,18.1034183502197,18.1025581359863,18.1016998291016,18.1008415222168,18.099983215332,18.0991268157959,18.0982685089111,18.0974102020264,18.0965518951416,18.0956935882568,18.0948371887207,18.0939788818359,18.0931224822998,18.0922622680664,18.0914077758789
4.62347793579102,4.62485218048096,4.62622690200806,4.62760257720947,4.62897920608521,4.6303563117981,4.6317343711853,4.63311338424683,4.63449335098267,4.63587379455566,4.63725519180298,4.63863754272461,4.6400203704834,4.6414041519165,4.64278888702393,4.64417457580566,4.64556074142456,4.64694786071777,4.64833641052246,4.64972496032715,4.65111446380615,4.65250492095947,4.65389633178711,4.65528869628906,4.65668153762817,4.6580753326416,4.65947008132935,4.66086578369141,4.66226196289062,4.66365909576416,4.66505718231201,4.66645622253418,4.66785573959351,4.66925621032715,4.67065763473511,4.67206001281738,4.67346286773682,4.67486667633057,4.67627143859863,4.67767715454102,4.67908334732056,4.68049097061157,4.68189907073975,4.68330812454224,4.68471765518188,4.68612861633301,4.68754005432129,4.68895244598389,4.6903657913208,4.69177961349487,4.69319438934326,4.69461059570312,4.69602727890015,4.69744443893433,4.69886302947998,4.70028209686279,4.70170211791992,4.70787715911865,4.7156138420105,4.72337579727173,4.7311635017395,4.73897695541382,4.74681615829468,4.75468158721924,4.76257276535034,4.7704906463623,4.77843427658081,4.78640460968018,4.7944016456604,4.80242586135864,4.81047630310059,4.81855440139771,4.82665920257568,4.83479166030884,4.84295129776001,4.85113859176636,4.85935354232788,4.86759614944458,4.87586736679077,4.88416624069214,4.892493724823,4.90084934234619,4.90923404693604,4.91764688491821,4.9260892868042,4.93456029891968,4.94306039810181,4.95159006118774,4.96014928817749,4.96873760223389,4.97735643386841,4.98600482940674,4.99468326568604,5.00339221954346,5.01213121414185,5.02090120315552,5.02970170974731,5.03853321075439,5.04739618301392,5.05628967285156,5.06521511077881,5.07417154312134,5.08315992355347,5.0921802520752,5.10123300552368,5.11031770706177,5.11943435668945,5.12858438491821,5.13776683807373,5.14698219299316,5.15623044967651,5.1655125617981,5.17482805252075,5.18417692184448,5.19355964660645,5.20297622680664,5.21242761611938,5.22191286087036,5.23143291473389,5.24098777770996,5.25057744979858,5.26020240783691,5.26986265182495,5.2795581817627,5.28928995132446,5.2990574836731,5.30886077880859,5.31870126724243,5.32857751846313,5.33849096298218,5.3484411239624,5.35842847824097,5.36845302581787,5.37851524353027,5.38861560821533,5.39875364303589,5.40893030166626,5.41914510726929,5.42939853668213,5.43969058990479,5.45002222061157,5.46039295196533,5.47080326080322,5.48125314712524,5.49174308776855,5.50227355957031,5.51284408569336,5.52345561981201,5.53410768508911,5.54480123519897,5.5555362701416,5.56631278991699,5.5771312713623,5.5879921913147,5.59889507293701,5.60984039306641,5.6208291053772,5.63186073303223,5.64293575286865,5.65405416488647,5.66521692276001,5.6764235496521,5.68767499923706,5.69897079467773,5.71031141281128,5.72169733047485,5.73312902450562,5.74460601806641,5.7561297416687,5.76769924163818,5.77931547164917,5.79097843170166,5.80268907546997,5.81444692611694,5.82625198364258,5.83810567855835,5.8500075340271,5.86447620391846,5.87965774536133,5.89491844177246,5.91025876998901,5.92567873001099,5.94117975234985,5.95676183700562,5.97242593765259,5.98817253112793,6.00400257110596,6.01991653442383,6.0359148979187,6.05199861526489,6.06816864013672,6.08442449569702,6.10076856613159,6.11719989776611,6.13372039794922,6.15033054351807,6.18056535720825,6.22855377197266,6.27729320526123,6.32679462432861,6.37708234786987,6.40331554412842,6.40745973587036,6.4116096496582,6.41576480865479,6.41992568969727,6.42409133911133,6.42826271057129,6.43243980407715,6.43662214279175,6.44080972671509,6.46774053573608,6.5005784034729,6.53375196456909,6.56726551055908,6.60112428665161,6.63533449172974,6.66990089416504,6.70482969284058,6.74012565612793,6.77579545974731,6.81184530258179,6.84827995300293,6.88510704040527,6.92233228683472,6.95996236801147,6.99800395965576,7.03646373748779,7.07534837722778,7.11466550827026,7.15442180633545,7.19462490081787,7.23528242111206,7.27640199661255,7.31486177444458,7.35228204727173,7.39008760452271,7.42828369140625,7.46687698364258,7.50587320327759,7.54527902603149,7.58510065078735,7.62534475326538,7.66601800918579,7.70712804794312,7.74868106842041,7.79068470001221,7.83685731887817,7.88392353057861,7.93155860900879,7.97977304458618,8.02857685089111,8.07798099517822,8.12799739837646,8.17874145507812,8.23018646240234,8.28228282928467,8.33504295349121,8.38847923278809,8.4515438079834,8.51931476593018,8.5881814956665,8.65816974639893,8.72930908203125,8.80162620544434,8.87515258789062,8.94991683959961,9.01962280273438,9.08361053466797,9.14851379394531,17.9768581390381,17.9760131835938,17.9751663208008,17.9743194580078,17.9734745025635,17.9726257324219,17.9717788696289,17.9709339141846,17.9700889587402,17.9692420959473,17.9683971405029,17.96755027771,17.9667053222656,17.9658603668213,17.9650135040283,17.9641704559326,17.9633235931396,17.9624786376953,17.961633682251,17.9607887268066,17.9599437713623,17.959098815918,17.9582538604736,17.9574089050293,17.9565620422363,17.9557189941406,17.9548759460449,17.9540309906006,17.9531860351562,17.9523429870605,17.9514999389648,17.9506530761719,17.9498100280762,17.9489669799805,17.9481220245361,17.9472770690918,17.9464340209961,17.9455909729004,17.9447479248047,17.9439029693604,17.9430599212646,17.9422168731689,17.9413738250732,17.9405288696289,17.9396877288818,17.9388465881348,17.9380016326904,17.9371585845947,17.936315536499,17.935474395752,17.9346313476562,17.9337882995605,17.9329452514648,17.9321041107178,17.9312610626221,17.930419921875,17.9295787811279,17.9287357330322,17.9278926849365
4.61231374740601,4.61368131637573,4.61504936218262,4.61641836166382,4.61778831481934,4.61915874481201,4.62053060531616,4.62190294265747,4.62327575683594,4.62464952468872,4.62602424621582,4.62739992141724,4.62877607345581,4.63015365600586,4.63153123855591,4.63291025161743,4.63428974151611,4.63567018508911,4.63705158233643,4.63843393325806,4.63981676101685,4.64120054244995,4.64258480072021,4.64397048950195,4.64535665512085,4.64674377441406,4.64813137054443,4.64952039718628,4.65090990066528,4.6523003578186,4.65369129180908,4.65508365631104,4.65647649765015,4.65786981582642,4.65926456451416,4.66065979003906,4.66205596923828,4.66345310211182,4.66485118865967,4.66624975204468,4.66764974594116,4.66904973983765,4.67045116424561,4.67185354232788,4.67325639724731,4.67465972900391,4.67606449127197,4.67747020721436,4.6788763999939,4.68028354644775,4.68169164657593,4.68310022354126,4.68450975418091,4.68592071533203,4.68733215332031,4.68874406814575,4.69015741348267,4.69157123565674,4.69725751876831,4.70495891571045,4.71268606185913,4.7204384803772,4.72821664810181,4.7360200881958,4.74384927749634,4.75170516967773,4.75958633422852,4.76749420166016,4.7754282951355,4.78338813781738,4.79137516021729,4.79938888549805,4.80742979049683,4.81549739837646,4.82359170913696,4.83171367645264,4.83986330032349,4.8480396270752,4.8562445640564,4.86447668075562,4.87273693084717,4.88102531433105,4.88934230804443,4.89768743515015,4.90606069564819,4.91446304321289,4.92289400100708,4.93135404586792,4.93984365463257,4.94836187362671,4.95690965652466,4.96548748016357,4.97409439086914,4.98273181915283,4.99139881134033,5.00009632110596,5.00882387161255,5.01758193969727,5.02637100219727,5.03519058227539,5.04404163360596,5.05292367935181,5.06183671951294,5.07078170776367,5.07975816726685,5.08876657485962,5.09780645370483,5.10687923431396,5.1159839630127,5.12512111663818,5.13429164886475,5.14349412918091,5.1527304649353,5.16199970245361,5.171302318573,5.18063831329346,5.19000816345215,5.19941234588623,5.20885038375854,5.21832275390625,5.22782945632935,5.23737096786499,5.24694776535034,5.25655937194824,5.26620626449585,5.27588844299316,5.28560638427734,5.29536056518555,5.30515050888062,5.31497669219971,5.32483911514282,5.33473873138428,5.34467506408691,5.35464811325073,5.36465883255005,5.37470674514771,5.38479280471802,5.39491653442383,5.40507841110229,5.41527843475342,5.42551755905151,5.43579483032227,5.44611167907715,5.45646715164185,5.46686267852783,5.47729778289795,5.4877724647522,5.49828767776489,5.50884294509888,5.51943922042847,5.5300760269165,5.54075384140015,5.55147314071655,5.56223392486572,5.57303619384766,5.58388090133667,5.59476804733276,5.60569763183594,5.61666965484619,5.62768507003784,5.63874340057373,5.64984560012817,5.66099166870117,5.67218160629272,5.68341588973999,5.69469499588013,5.70601844787598,5.71738767623901,5.72880172729492,5.74026155471802,5.75176763534546,5.76331949234009,5.77491807937622,5.78656387329102,5.79825592041016,5.81115818023682,5.82606506347656,5.84104871749878,5.85610914230347,5.8712477684021,5.88646459579468,5.90176105499268,5.91713666915894,5.93259286880493,5.94813013076782,5.96374845504761,5.97944974899292,5.9952335357666,6.01110076904297,6.02705240249634,6.04308891296387,6.05921077728271,6.0754189491272,6.09171438217163,6.10809707641602,6.12456846237183,6.14112854003906,6.16017866134644,6.20784950256348,6.25626420974731,6.30543851852417,6.35538625717163,6.40613174438477,6.42552423477173,6.42969751358032,6.43387651443481,6.43806076049805,6.44225025177002,6.44644546508789,6.45064544677734,6.45485162734985,6.4590630531311,6.47051906585693,6.50338554382324,6.53658723831177,6.57012987136841,6.6040186882019,6.638258934021,6.67285585403442,6.70781517028809,6.74314308166504,6.77884483337402,6.81492710113525,6.85139513015747,6.88825559616089,6.92551469802856,6.96317958831787,7.00125646591187,7.03975200653076,7.07867336273193,7.1180272102356,7.15782117843628,7.19806289672852,7.23875904083252,7.2799186706543,7.32058048248291,7.35805940628052,7.39592456817627,7.43418121337891,7.47283601760864,7.51189470291138,7.55136346817017,7.59124994277954,7.63155937194824,7.6722993850708,7.71347665786743,7.75509834289551,7.7971715927124,7.84043884277344,7.88754844665527,7.935227394104,7.98348617553711,8.03233528137207,8.08178615570068,8.13185024261475,8.18256855010986,8.23406219482422,8.28620719909668,8.33901786804199,8.39250564575195,8.45259761810303,8.52038478851318,8.58926868438721,8.65927505493164,8.73043251037598,8.80276870727539,8.87631416320801,8.95109844207764,9.0250301361084,17.8162307739258,17.8154010772705,17.8145694732666,17.8137378692627,17.8129062652588,17.8120727539062,17.8112449645996,17.8104133605957,17.8095817565918,17.8087501525879,17.8079204559326,17.8070907592773,17.8062610626221,17.8054294586182,17.8045978546143,17.803768157959,17.8029384613037,17.8021087646484,17.8012790679932,17.8004474639893,17.799617767334,17.7987880706787,17.7979583740234,17.7971267700195,17.7962989807129,17.7954692840576,17.7946395874023,17.7938079833984,17.7929821014404,17.7921504974365,17.7913227081299,17.7904930114746,17.7896633148193,17.7888355255127,17.7880077362061,17.7871780395508,17.7863483428955,17.7855205535889,17.7846908569336,17.783863067627,17.7830333709717,17.7822074890137,17.7813777923584,17.7805500030518,17.7797222137451,17.7788925170898,17.7780666351318,17.7772369384766,17.7764091491699,17.7755813598633,17.7747554779053,17.7739276885986,17.773099899292,17.7722721099854,17.7714462280273,17.7706184387207,17.7697906494141,17.7689609527588,17.7681369781494,17.7673110961914
4.60120344161987,4.60256385803223,4.60392570495605,4.60528802871704,4.60665130615234,4.60801553726196,4.60938024520874,4.61074590682983,4.61211252212524,4.61347961425781,4.61484813690186,4.6162166595459,4.61758661270142,4.61895704269409,4.62032842636108,4.62170028686523,4.62307357788086,4.62444686889648,4.62582159042358,4.627197265625,4.62857341766357,4.62995052337646,4.63132858276367,4.63270711898804,4.63408660888672,4.63546705245972,4.63684797286987,4.63822984695435,4.63961267471313,4.64099645614624,4.64238119125366,4.64376640319824,4.64515256881714,4.64653921127319,4.64792728424072,4.64931583404541,4.65070533752441,4.65209531784058,4.65348672866821,4.65487813949585,4.65627098083496,4.65766477584839,4.65905904769897,4.66045427322388,4.6618504524231,4.66324758529663,4.66464519500732,4.66604375839233,4.66744327545166,4.6688437461853,4.6702446937561,4.67164659500122,4.67304944992065,4.6744532585144,4.67585754394531,4.67726278305054,4.67866945266724,4.68007612228394,4.68148422241211,4.68668508529663,4.69435214996338,4.70204448699951,4.70976161956787,4.71750450134277,4.72527313232422,4.73306655883789,4.74088668823242,4.74873208999634,4.75660371780396,4.76450157165527,4.77242517471313,4.78037595748901,4.78835248947144,4.79635620117188,4.80438661575317,4.81244373321533,4.82052850723267,4.82863998413086,4.83677864074707,4.84494543075562,4.85313940048218,4.86136102676392,4.86961078643799,4.87788867950439,4.88619470596313,4.89452886581421,4.90289163589478,4.91128301620483,4.91970300674438,4.92815208435059,4.93663024902344,4.9451379776001,4.95367479324341,4.96224117279053,4.9708366394043,4.97946262359619,4.98811864852905,4.99680471420288,5.00552082061768,5.0142674446106,5.02304458618164,5.03185272216797,5.04069185256958,5.04956197738647,5.05846309661865,5.06739616394043,5.07636070251465,5.08535671234131,5.09438514709473,5.10344552993774,5.11253786087036,5.12166309356689,5.13082075119019,5.14001131057739,5.14923477172852,5.15849113464355,5.16778135299683,5.17710447311401,5.18646192550659,5.19585275650024,5.20527791976929,5.21473741531372,5.22423124313354,5.23375988006592,5.24332332611084,5.25292158126831,5.26255512237549,5.27222394943237,5.28192853927612,5.29166841506958,5.30144500732422,5.31125736236572,5.32110643386841,5.33099174499512,5.34091377258301,5.3508734703064,5.36086988449097,5.37090349197388,5.38097524642944,5.39108467102051,5.40123224258423,5.41141748428345,5.42164182662964,5.43190479278564,5.44220638275146,5.45254755020142,5.46292781829834,5.47334814071655,5.48380756378174,5.49430751800537,5.50484752655029,5.51542806625366,5.52604961395264,5.53671216964722,5.5474157333374,5.55816078186035,5.56894731521606,5.57977628707886,5.59064722061157,5.60156059265137,5.61251640319824,5.62351560592651,5.63455772399902,5.64564323425293,5.65677261352539,5.66794586181641,5.67916345596313,5.69042539596558,5.70173215866089,5.71308422088623,5.72448110580444,5.73592376708984,5.74741220474243,5.75894689559937,5.77344036102295,5.78815412521362,5.80294275283813,5.81780767440796,5.83274841308594,5.84776639938354,5.86286163330078,5.87803506851196,5.89328765869141,5.90861892700195,5.92403078079224,5.9395227432251,5.95509624481201,5.97075176239014,5.98648977279663,6.00231075286865,6.01821565628052,6.03420495986938,6.05027961730957,6.06644010543823,6.08268690109253,6.09902143478394,6.11544370651245,6.13195466995239,6.14855480194092,6.18728256225586,6.23537588119507,6.28422212600708,6.33383703231812,6.38423728942871,6.43544626235962,6.44788789749146,6.4520902633667,6.45629835128784,6.46051168441772,6.46473073959351,6.46895503997803,6.47318506240845,6.47742033004761,6.48166131973267,6.50619459152222,6.53942489624023,6.57299709320068,6.60691547393799,6.64118576049805,6.6758131980896,6.7108039855957,6.7461633682251,6.78189706802368,6.81801176071167,6.8545126914978,6.89140701293945,6.92870044708252,6.96639966964722,7.00451183319092,7.04304361343384,7.08200120925903,7.12139225006104,7.16122388839722,7.20150375366211,7.24223947525024,7.28343820571899,7.32510852813721,7.36384630203247,7.401771068573,7.44008827209473,7.47880458831787,7.51792573928833,7.55745840072632,7.59740877151489,7.63778448104858,7.67859077453613,7.71983575820923,7.76152658462524,7.80366992950439,7.84627342224121,7.89117622375488,7.93889904022217,7.98720264434814,8.03609752655029,8.08559513092041,8.13570594787598,8.18644237518311,8.23794174194336,8.29013633728027,8.34299659729004,8.39653491973877,8.45365047454834,8.52145576477051,8.59035682678223,8.66038131713867,8.7315559387207,8.80391120910645,8.87747573852539,8.95227909088135,17.6576328277588,17.6568183898926,17.6559982299805,17.6551818847656,17.6543655395508,17.6535511016846,17.6527328491211,17.6519184112549,17.65110206604,17.6502857208252,17.6494693756104,17.6486549377441,17.6478385925293,17.6470203399658,17.6462078094482,17.6453914642334,17.6445751190186,17.6437587738037,17.6429443359375,17.6421279907227,17.6413135528564,17.6404972076416,17.639684677124,17.6388683319092,17.638053894043,17.6372375488281,17.6364250183105,17.6356105804443,17.6347942352295,17.6339797973633,17.6331653594971,17.6323509216309,17.6315364837646,17.6307220458984,17.6299076080322,17.6290950775146,17.6282806396484,17.6274642944336,17.626651763916,17.6258373260498,17.6250247955322,17.624210357666,17.6233978271484,17.6225833892822,17.6217708587646,17.6209564208984,17.6201419830322,17.6193313598633,17.6185188293457,17.6177024841309,17.6168918609619,17.6160774230957,17.6152667999268,17.6144523620605,17.6136379241943,17.6128253936768,17.6120147705078,17.6112022399902,17.6103897094727,17.6095771789551
4.5901460647583,4.5915002822876,4.59285545349121,4.59421110153198,4.59556818008423,4.59692525863647,4.5982837677002,4.59964275360107,4.60100269317627,4.60236358642578,4.60372495651245,4.60508728027344,4.60645055770874,4.6078143119812,4.60917901992798,4.61054468154907,4.61191082000732,4.61327838897705,4.61464643478394,4.61601495742798,4.61738443374634,4.61875486373901,4.62012624740601,4.62149810791016,4.62287092208862,4.62424468994141,4.62561941146851,4.62699460983276,4.62837076187134,4.62974739074707,4.63112545013428,4.63250398635864,4.63388347625732,4.63526344299316,4.63664484024048,4.63802623748779,4.63940906524658,4.64079284667969,4.64217710494995,4.64356231689453,4.64494800567627,4.64633512496948,4.64772272109985,4.64911127090454,4.65050029754639,4.65189075469971,4.65328121185303,4.65467309951782,4.65606594085693,4.6574592590332,4.65885353088379,4.66024875640869,4.66164493560791,4.66304159164429,4.66443920135498,4.66583776473999,4.66723680496216,4.6686372756958,4.6700382232666,4.67144012451172,4.67616033554077,4.68379306793213,4.69145059585571,4.69913339614868,4.70684099197388,4.71457433700562,4.72233295440674,4.7301173210144,4.73792695999146,4.74576282501221,4.7536244392395,4.7615122795105,4.7694263458252,4.77736711502075,4.78533363342285,4.79332733154297,4.80134773254395,4.80939435958862,4.81746864318848,4.82557010650635,4.83369874954224,4.84185457229614,4.85003852844238,4.85824966430664,4.86648893356323,4.874755859375,4.8830509185791,4.8913745880127,4.89972639083862,4.9081072807312,4.91651630401611,4.92495441436768,4.93342161178589,4.94191789627075,4.95044374465942,4.95899868011475,4.96758365631104,4.97619819641113,4.98484230041504,4.99351692199707,5.00222206115723,5.01095724105835,5.01972246170044,5.02851915359497,5.03734636306763,5.04620456695557,5.05509424209595,5.06401538848877,5.07296800613403,5.08195209503174,5.09096813201904,5.10001611709595,5.10909652709961,5.11820936203003,5.12735462188721,5.1365327835083,5.14574384689331,5.15498781204224,5.16426515579224,5.17357587814331,5.18292045593262,5.192298412323,5.20171070098877,5.21115732192993,5.22063779830933,5.23015356063843,5.23970365524292,5.24928855895996,5.25890874862671,5.26856422424316,5.27825546264648,5.28798198699951,5.29774475097656,5.30754327774048,5.31737852096558,5.3272500038147,5.33715867996216,5.34710359573364,5.35708618164062,5.36710596084595,5.37716293334961,5.38725805282593,5.3973913192749,5.40756225585938,5.41777181625366,5.42802000045776,5.43830728530884,5.44863367080688,5.4589991569519,5.4694037437439,5.47984838485718,5.49033308029175,5.50085783004761,5.51142358779907,5.52202939987183,5.53267621994019,5.54336404800415,5.55409336090088,5.56486463546753,5.57567739486694,5.58653211593628,5.5974292755127,5.60836935043335,5.61935186386108,5.63037776947021,5.64144706726074,5.65255975723267,5.66371631622314,5.67491722106934,5.68616247177124,5.69745206832886,5.7087869644165,5.72175788879395,5.73620891571045,5.75073337554932,5.76533126831055,5.78000354766846,5.79475069046021,5.80957317352295,5.82447195053101,5.83944702148438,5.85449934005737,5.86962985992432,5.88483810424805,5.9001259803772,5.91549301147461,5.93094062805176,5.9464693069458,5.96207904815674,5.97777128219604,5.99354600906372,6.00940465927124,6.0253472328186,6.04137468338013,6.05748748779297,6.07368659973145,6.08997249603271,6.10634565353394,6.12280750274658,6.13935852050781,6.16685152053833,6.21462631225586,6.26314687728882,6.31243133544922,6.36249256134033,6.41335201263428,6.46503114700317,6.47040796279907,6.47463989257812,6.47887706756592,6.48311996459961,6.4873685836792,6.49162244796753,6.49588203430176,6.50014734268188,6.50900554656982,6.54226541519165,6.57586669921875,6.60981464385986,6.64411497116089,6.67877340316772,6.71379518508911,6.74918603897095,6.78495216369629,6.82109928131104,6.85763359069824,6.89456129074097,6.93188905715942,6.96962308883667,7.00777053833008,7.04633808135986,7.08533239364624,7.12476062774658,7.16462993621826,7.20494842529297,7.24572277069092,7.28696155548096,7.32867240905762,7.36964178085327,7.40762662887573,7.44600439071655,7.48478221893311,7.52396631240845,7.56356287002563,7.60357809066772,7.64401912689209,7.68489265441895,7.72620582580566,7.76796531677246,7.81017875671387,7.85285329818726,7.89599704742432,7.9425745010376,7.9909234046936,8.03986358642578,8.0894079208374,8.13956642150879,8.19035053253174,8.24182415008545,8.29406833648682,8.34697914123535,8.40056896209717,8.45485210418701,8.52252578735352,8.59144496917725,8.66148662567139,8.73268032073975,8.8050537109375,8.87863731384277,8.95346164703369,17.5010318756104,17.5002288818359,17.4994277954102,17.4986248016357,17.49782371521,17.4970207214355,17.4962177276611,17.495418548584,17.4946155548096,17.4938125610352,17.4930114746094,17.4922103881836,17.4914093017578,17.4906063079834,17.4898052215576,17.4890041351318,17.4882049560547,17.4874019622803,17.4866027832031,17.4858016967773,17.4849987030029,17.4841995239258,17.4833984375,17.4825973510742,17.4817981719971,17.4809970855713,17.4801959991455,17.4793930053711,17.4785957336426,17.4777965545654,17.476993560791,17.4761943817139,17.4753952026367,17.4745941162109,17.4737949371338,17.4729957580566,17.4721965789795,17.4713973999023,17.4705963134766,17.4697971343994,17.4689960479736,17.4681987762451,17.467399597168,17.4665985107422,17.465799331665,17.4650020599365,17.4642028808594,17.4634037017822,17.4626045227051,17.4618072509766,17.4610061645508,17.4602088928223,17.4594097137451,17.4586124420166,17.4578132629395,17.4570159912109,17.4562168121338,17.4554176330566,17.4546222686768
4.57914209365845,4.58049011230469,4.58183860778809,4.5831880569458,4.58453798294067,4.58588886260986,4.58724069595337,4.58859348297119,4.58994674682617,4.59130096435547,4.59265565872192,4.59401178359985,4.59536790847778,4.59672546386719,4.59808349609375,4.59944248199463,4.60080242156982,4.60216283798218,4.60352420806885,4.60488653182983,4.60624980926514,4.6076135635376,4.60897779464722,4.61034345626831,4.61170959472656,4.61307668685913,4.61444473266602,4.61581325531006,4.61718273162842,4.61855316162109,4.61992406845093,4.62129592895508,4.62266874313354,4.62404251098633,4.62541675567627,4.62679195404053,4.6281681060791,4.62954473495483,4.63092231750488,4.63230085372925,4.63367986679077,4.63506031036377,4.63644075393677,4.6378231048584,4.63920545578003,4.64058876037598,4.64197301864624,4.64335823059082,4.64474391937256,4.64613056182861,4.64751815795898,4.64890623092651,4.65029573440552,4.65168571472168,4.65307664871216,4.65446805953979,4.65586090087891,4.65725421905518,4.6586480140686,4.66004323959351,4.66143941879272,4.66568279266357,4.67328119277954,4.68090438842773,4.68855237960815,4.69622564315796,4.70392417907715,4.71164751052856,4.71939659118652,4.72717142105103,4.73497152328491,4.74279737472534,4.75064945220947,4.75852727890015,4.76643133163452,4.77436208724976,4.78231859207153,4.79030227661133,4.79831218719482,4.80634880065918,4.81441307067871,4.8225040435791,4.83062219619751,4.83876800537109,4.8469409942627,4.85514163970947,4.86337041854858,4.87162685394287,4.87991189956665,4.88822460174561,4.89656591415405,4.90493535995483,4.91333389282227,4.92176103591919,4.93021726608276,4.93870258331299,4.94721698760986,4.95576095581055,4.96433448791504,4.97293758392334,4.98157072067261,4.99023389816284,4.99892711639404,5.00765085220337,5.01640510559082,5.0251898765564,5.03400564193726,5.04285192489624,5.05172967910767,5.06063890457153,5.06957960128784,5.07855176925659,5.08755588531494,5.09659194946289,5.10565996170044,5.11476039886475,5.12389326095581,5.13305902481079,5.14225769042969,5.1514892578125,5.16075372695923,5.17005205154419,5.17938375473022,5.18874883651733,5.19814825057983,5.20758199691772,5.21704959869385,5.22655200958252,5.23608875274658,5.24566078186035,5.25526762008667,5.2649097442627,5.27458715438843,5.28430032730103,5.29404926300049,5.30383443832397,5.31365585327148,5.32351350784302,5.33340835571289,5.34333944320679,5.35330772399902,5.3633131980896,5.37335634231567,5.38343715667725,5.39355564117432,5.4037127494812,5.41390752792358,5.42414140701294,5.43441343307495,5.44472503662109,5.45507526397705,5.4654655456543,5.47589492797852,5.48636484146118,5.49687433242798,5.50742435455322,5.51801490783691,5.52864599227905,5.53931856155396,5.55003213882446,5.56078767776489,5.57158422470093,5.58242321014404,5.59330463409424,5.60422849655151,5.61519479751587,5.62620449066162,5.63725709915161,5.64835357666016,5.6594934463501,5.67099285125732,5.68518829345703,5.69945478439331,5.71379327774048,5.72820425033569,5.74268770217896,5.75724458694458,5.77187585830688,5.78658151626587,5.80136203765869,5.81621885299683,5.83115148544312,5.84616088867188,5.86124801635742,5.87641334533691,5.89165735244751,5.90698051452637,5.92238330841064,5.93786716461182,5.95343160629272,5.96907806396484,5.98480749130249,6.00061941146851,6.01651525497437,6.03249597549438,6.04856109619141,6.06471252441406,6.08095026016235,6.0972752571106,6.11368799209595,6.13018941879272,6.14678049087524,6.19401454925537,6.24221277236938,6.29116678237915,6.34089469909668,6.39140844345093,6.44273328781128,6.48882961273193,6.4930853843689,6.49734735488892,6.50161457061768,6.50588703155518,6.51016521453857,6.51444959640503,6.51873922348022,6.52303409576416,6.5451078414917,6.57873868942261,6.61271619796753,6.64704704284668,6.68173599243164,6.71678876876831,6.75221157073975,6.78800964355469,6.82418966293335,6.86075687408447,6.89771842956543,6.93508052825928,6.97284936904907,7.01103210449219,7.04963541030884,7.0886664390564,7.12813138961792,7.16803884506226,7.20839595794678,7.2492094039917,7.29048824310303,7.33223915100098,7.37447166442871,7.41349124908447,7.4519305229187,7.49077033996582,7.53001689910889,7.56967735290527,7.60975742340088,7.65026426315308,7.69120502471924,7.73258590698242,7.77441453933716,7.81669855117798,7.8594446182251,7.90266084671021,7.94635486602783,7.99464654922485,8.04363346099854,8.09322357177734,8.14342975616455,8.19426250457764,8.2457332611084,8.29800415039062,8.35096549987793,8.40460681915283,8.45894241333008,8.52359771728516,8.59253311157227,8.66259288787842,8.73380470275879,8.80619716644287,8.87979984283447,8.95464324951172,17.3471832275391,17.3463935852051,17.3456058502197,17.3448162078857,17.344030380249,17.3432426452637,17.3424530029297,17.3416652679443,17.340877532959,17.3400897979736,17.3393020629883,17.3385162353516,17.3377304077148,17.3369426727295,17.3361530303955,17.3353652954102,17.3345794677734,17.3337936401367,17.3330059051514,17.332218170166,17.3314304351807,17.3306446075439,17.3298587799072,17.3290710449219,17.3282852172852,17.3274993896484,17.3267116546631,17.3259239196777,17.3251399993896,17.3243522644043,17.3235683441162,17.3227806091309,17.3219947814941,17.3212070465088,17.3204231262207,17.319637298584,17.3188514709473,17.3180656433105,17.3172817230225,17.3164939880371,17.3157081604004,17.3149223327637,17.3141384124756,17.3133544921875,17.3125667572021,17.3117828369141,17.3109970092773,17.3102130889893,17.3094291687012,17.3086433410645,17.3078575134277,17.3070755004883,17.3062896728516,17.3055057525635,17.3047218322754,17.3039360046387,17.303150177002,17.3023662567139
4.568190574646,4.56953191757202,4.57087421417236,4.57221698760986,4.57356071472168,4.57490539550781,4.5762505531311,4.57759666442871,4.57894372940063,4.58029127120972,4.58163976669312,4.58298921585083,4.5843391418457,4.58569002151489,4.58704137802124,4.58839416503906,4.58974742889404,4.59110116958618,4.59245634078979,4.59381198883057,4.5951681137085,4.5965256690979,4.59788370132446,4.59924221038818,4.60060214996338,4.60196256637573,4.6033239364624,4.60468578338623,4.60604858398438,4.60741233825684,4.60877704620361,4.61014223098755,4.6115083694458,4.61287546157837,4.6142430305481,4.61561155319214,4.6169810295105,4.61835098266602,4.61972236633301,4.62109375,4.62246656417847,4.62383985519409,4.62521409988403,4.62658929824829,4.62796497344971,4.62934160232544,4.63071918487549,4.63209772109985,4.63347673416138,4.63485670089722,4.63623762130737,4.63761901855469,4.63900184631348,4.64038467407227,4.64176893234253,4.64315414428711,4.64453983306885,4.64592599868774,4.64731359481812,4.6487021446228,4.65009069442749,4.65148115158081,4.65525197982788,4.66281652450562,4.67040586471558,4.67801952362061,4.68565797805786,4.6933217048645,4.70101070404053,4.70872449874878,4.71646404266357,4.72422933578491,4.73201942443848,4.73983573913574,4.74767780303955,4.75554609298706,4.76344013214111,4.77136039733887,4.77930736541748,4.78728055953979,4.79528093338013,4.80330753326416,4.81136131286621,4.81944179534912,4.82754993438721,4.83568525314331,4.84384775161743,4.85203838348389,4.86025619506836,4.86850214004517,4.87677621841431,4.88507843017578,4.89340877532959,4.90176773071289,4.91015529632568,4.91857194900513,4.9270167350769,4.93549108505249,4.94399452209473,4.95252752304077,4.96108961105347,4.96968173980713,4.9783034324646,4.98695516586304,4.99563694000244,5.00434923171997,5.01309204101562,5.02186489105225,5.03066921234131,5.0395040512085,5.04836988449097,5.05726718902588,5.06619596481323,5.07515621185303,5.08414793014526,5.09317207336426,5.10222768783569,5.11131620407104,5.120436668396,5.12959003448486,5.13877582550049,5.14799499511719,5.1572470664978,5.16653251647949,5.17585182189941,5.18520450592041,5.19459104537964,5.2040114402771,5.21346616744995,5.22295522689819,5.23247909545898,5.24203777313232,5.25163125991821,5.26126003265381,5.27092409133911,5.28062391281128,5.29035949707031,5.30013084411621,5.30993843078613,5.31978273391724,5.32966327667236,5.33958053588867,5.34953498840332,5.35952615737915,5.36955499649048,5.3796215057373,5.38972568511963,5.39986801147461,5.4100489616394,5.4202675819397,5.43052530288696,5.4408221244812,5.45115756988525,5.46153259277344,5.47194719314575,5.48240184783936,5.49289608001709,5.50343084335327,5.5140061378479,5.52462196350098,5.53527879714966,5.5459771156311,5.55671644210815,5.56749773025513,5.57832050323486,5.58918571472168,5.60009336471558,5.61104393005371,5.62203693389893,5.63506698608398,5.64908266067505,5.66316843032837,5.6773247718811,5.69155216217041,5.70585060119629,5.72022104263306,5.73466444015503,5.74918079376221,5.76377105712891,5.77843523025513,5.79317426681519,5.8079891204834,5.82287931442261,5.83784627914429,5.8528904914856,5.86801242828369,5.88321256637573,5.89849185943604,5.91385078430176,5.9292893409729,5.9448094367981,5.96041059494019,5.97609376907349,5.99185991287231,6.00770950317383,6.02364301681519,6.0396614074707,6.05576515197754,6.07195472717285,6.08823156356812,6.10459566116333,6.12104797363281,6.13758897781372,6.17353916168213,6.22141790390015,6.27004528045654,6.31943845748901,6.36961460113525,6.42058849334717,6.47238492965698,6.51163673400879,6.51592302322388,6.52021455764771,6.52451181411743,6.52881479263306,6.53312349319458,6.53743743896484,6.54175758361816,6.54795360565186,6.58161306381226,6.61562061309814,6.64998149871826,6.68470144271851,6.71978569030762,6.75523948669434,6.79106998443604,6.82728242874146,6.86388349533081,6.90087890625,6.93827533721924,6.97607898712158,7.0142970085144,7.05293607711792,7.09200382232666,7.13150644302368,7.17145156860352,7.21184682846069,7.25269985198975,7.29401826858521,7.33581018447876,7.3780837059021,7.41936492919922,7.4578652381897,7.49676752090454,7.53607749938965,7.57580137252808,7.61594676971436,7.65651988983154,7.69752740859985,7.73897695541382,7.78087472915649,7.82322931289673,7.86604690551758,7.90933609008789,7.9531044960022,7.99837398529053,8.04740619659424,8.09704303741455,8.14729690551758,8.1981782913208,8.24969863891602,8.30194473266602,8.35495567321777,8.40864849090576,8.46303653717041,8.52466869354248,8.59362125396729,8.66369915008545,8.73493003845215,8.80734062194824,8.88096237182617,8.95582580566406,17.1960163116455,17.1952419281006,17.1944675445557,17.1936912536621,17.1929168701172,17.1921443939209,17.191370010376,17.1905956268311,17.1898193359375,17.1890449523926,17.1882724761963,17.1874980926514,17.1867256164551,17.1859531402588,17.1851768493652,17.1844043731689,17.1836318969727,17.1828575134277,17.1820850372314,17.1813087463379,17.1805381774902,17.1797657012939,17.178991317749,17.1782188415527,17.1774444580078,17.1766719818115,17.1758975982666,17.1751270294189,17.1743545532227,17.1735820770264,17.1728096008301,17.1720352172852,17.1712646484375,17.1704902648926,17.1697196960449,17.1689472198486,17.1681747436523,17.1674022674561,17.1666297912598,17.1658592224121,17.1650886535645,17.1643161773682,17.1635437011719,17.1627712249756,17.1620006561279,17.1612281799316,17.1604595184326,17.1596851348877,17.1589164733887,17.1581439971924,17.1573734283447,17.1565990447998,17.1558303833008,17.1550579071045,17.1542892456055,17.1535186767578,17.1527462005615
4.55729150772095,4.55862617492676,4.55996227264404,4.56129884719849,4.56263589859009,4.56397390365601,4.56531286239624,4.56665277481079,4.5679931640625,4.56933450698853,4.57067632675171,4.57201910018921,4.57336282730103,4.57470703125,4.57605266571045,4.5773983001709,4.57874488830566,4.5800929069519,4.58144092559814,4.58279037475586,4.58414030075073,4.58549070358276,4.58684253692627,4.58819484710693,4.58954811096191,4.59090185165405,4.59225654602051,4.59361219406128,4.59496831893921,4.59632539749146,4.59768342971802,4.5990424156189,4.60040187835693,4.60176229476929,4.6031231880188,4.60448503494263,4.60584783554077,4.60721158981323,4.60857582092285,4.60994100570679,4.61130714416504,4.61267375946045,4.61404180526733,4.61540985107422,4.61677932739258,4.6181492805481,4.61952018737793,4.62089204788208,4.62226438522339,4.62363767623901,4.6250114440918,4.62638664245605,4.62776231765747,4.6291389465332,4.63051652908325,4.63189458847046,4.63327360153198,4.63465356826782,4.63603401184082,4.63741540908813,4.63879776000977,4.64018106460571,4.64156484603882,4.64486789703369,4.65239858627319,4.65995359420776,4.66753387451172,4.67513799667358,4.68276739120483,4.69042158126831,4.69810104370117,4.70580530166626,4.71353530883789,4.72129058837891,4.72907114028931,4.73687744140625,4.74470996856689,4.75256824493408,4.76045274734497,4.7683629989624,4.77629995346069,4.78426313400269,4.79225301742554,4.80026960372925,4.80831336975098,4.81638383865356,4.82448148727417,4.83260631561279,4.84075880050659,4.84893846511841,4.85714626312256,4.86538124084473,4.87364482879639,4.88193655014038,4.89025592803955,4.89860439300537,4.90698099136353,4.91538667678833,4.92382097244263,4.93228387832642,4.94077634811401,4.94929790496826,4.95784902572632,4.96643018722534,4.97504043579102,4.98368072509766,4.99235105514526,5.001051902771,5.0097827911377,5.01854467391968,5.02733707427979,5.03615999221802,5.04501438140869,5.05389976501465,5.06281661987305,5.07176494598389,5.08074474334717,5.08975648880005,5.09880018234253,5.10787630081177,5.11698484420776,5.12612581253052,5.13529920578003,5.14450597763062,5.15374517440796,5.16301822662354,5.17232465744019,5.18166446685791,5.19103813171387,5.20044565200806,5.20988750457764,5.21936368942261,5.22887468338013,5.23842000961304,5.2480001449585,5.25761556625366,5.26726627349854,5.27695274353027,5.28667497634888,5.29643249511719,5.30622625350952,5.31605672836304,5.32592344284058,5.3358268737793,5.3457670211792,5.35574436187744,5.36575937271118,5.37581157684326,5.38590145111084,5.39602899551392,5.40619516372681,5.41639995574951,5.42664289474487,5.43692445755005,5.44724559783936,5.45760583877563,5.46800518035889,5.47844457626343,5.48892402648926,5.49944353103638,5.51000308990479,5.5206036567688,5.53124523162842,5.54192781448364,5.55265140533447,5.56341695785522,5.57422399520874,5.5858211517334,5.59959316253662,5.61343288421631,5.62734127044678,5.64131879806519,5.65536594390869,5.66948318481445,5.68367099761963,5.69792985916138,5.71226072311401,5.72666358947754,5.74113988876343,5.75568914413452,5.77031183242798,5.78500986099243,5.79978227615356,5.81463098526001,5.82955551147461,5.84455680847168,5.85963535308838,5.87479257583618,5.89002799987793,5.90534257888794,5.92073678970337,5.93621206283569,5.95176792144775,5.96740579605103,5.98312616348267,5.99892950057983,6.01481628417969,6.03078746795654,6.04684400558472,6.06298589706421,6.07921457290649,6.09553003311157,6.11193370819092,6.12842559814453,6.15319871902466,6.20076131820679,6.24906492233276,6.29812669754028,6.34796524047852,6.39859580993652,6.45003604888916,6.50231027603149,6.53460502624512,6.53892135620117,6.54324340820312,6.54757118225098,6.55190420150757,6.55624341964722,6.56058835983276,6.56493902206421,6.58449029922485,6.61852741241455,6.65291881561279,6.68766927719116,6.72278451919556,6.75827026367188,6.79413318634033,6.83037853240967,6.86701250076294,6.90404176712036,6.94147253036499,6.97931146621704,7.01756477355957,7.05624008178711,7.09534406661987,7.13488435745239,7.17486715316772,7.21530103683472,7.2561936378479,7.29755210876465,7.33938455581665,7.3816990852356,7.42450475692749,7.46380996704102,7.50277423858643,7.54214715957642,7.58193588256836,7.62214612960815,7.66278553009033,7.70386028289795,7.74537801742554,7.78734588623047,7.82977056503296,7.87266063690186,7.91602277755737,7.9598650932312,8.00419616699219,8.05118274688721,8.10086631774902,8.15116786956787,8.20209693908691,8.25366687774658,8.30589008331299,8.35894966125488,8.41269493103027,8.46713447570801,8.5257396697998,8.59471035003662,8.6648063659668,8.73605442047119,8.80848407745361,8.88212585449219,8.95700836181641,17.0474586486816,17.0466976165771,17.045934677124,17.0451755523682,17.0444145202637,17.0436553955078,17.0428924560547,17.0421314239502,17.0413703918457,17.0406112670898,17.0398502349854,17.0390892028809,17.0383281707764,17.0375709533691,17.036808013916,17.0360488891602,17.0352897644043,17.0345268249512,17.0337677001953,17.0330066680908,17.032247543335,17.0314865112305,17.0307292938232,17.0299701690674,17.0292091369629,17.0284481048584,17.0276889801025,17.026927947998,17.0261707305908,17.025411605835,17.0246524810791,17.0238933563232,17.0231342315674,17.0223751068115,17.0216159820557,17.0208568572998,17.0200977325439,17.0193386077881,17.0185794830322,17.017822265625,17.0170631408691,17.0163059234619,17.0155448913574,17.0147876739502,17.0140285491943,17.0132713317871,17.0125122070312,17.011754989624,17.0109977722168,17.0102405548096,17.0094814300537,17.0087242126465,17.0079650878906,17.0072078704834,17.0064506530762,17.0056915283203
4.54644393920898,4.5477728843689,4.54910230636597,4.5504322052002,4.5517635345459,4.55309534072876,4.55442762374878,4.55576086044312,4.55709505081177,4.55842971801758,4.55976533889771,4.56110191345215,4.56243896484375,4.56377696990967,4.56511545181274,4.56645536422729,4.567795753479,4.56913661956787,4.57047843933105,4.57182168960571,4.57316493988037,4.57450914382935,4.57585430145264,4.57719993591309,4.57854652404785,4.57989406585693,4.58124256134033,4.58259153366089,4.5839409828186,4.58529186248779,4.58664321899414,4.5879955291748,4.58934831619263,4.59070205688477,4.59205675125122,4.59341239929199,4.59476852416992,4.59612560272217,4.59748363494873,4.59884214401245,4.60020160675049,4.60156154632568,4.60292291641235,4.60428476333618,4.60564708709717,4.60701084136963,4.60837507247925,4.60973978042603,4.61110591888428,4.61247253417969,4.61384010314941,4.6152081489563,4.61657762527466,4.61794757843018,4.61931800842285,4.62068939208984,4.62206220626831,4.62343502044678,4.62480926513672,4.62618398666382,4.62755966186523,4.62893629074097,4.63031339645386,4.63169145584106,4.63453006744385,4.64202690124512,4.64954853057861,4.65709447860718,4.66466522216797,4.67226028442383,4.67988014221191,4.68752479553223,4.69519472122192,4.70288944244385,4.71060991287231,4.71835565567017,4.7261266708374,4.73392343521118,4.7417459487915,4.74959421157837,4.75746870040894,4.7653694152832,4.77329587936401,4.78124952316284,4.78922939300537,4.79723596572876,4.80526924133301,4.81332921981812,4.8214168548584,4.82953119277954,4.83767318725586,4.84584283828735,4.85403966903687,4.86226463317871,4.87051725387573,4.87879848480225,4.88710737228394,4.89544486999512,4.90381050109863,4.9122052192688,4.92062854766846,4.92908096313477,4.93756246566772,4.94607305526733,4.95461273193359,4.96318244934082,4.97178173065186,4.9804105758667,4.98906993865967,4.99775886535645,5.00647878646851,5.01522874832153,5.02400922775269,5.03282070159912,5.04166316986084,5.05053663253784,5.05944156646729,5.06837797164917,5.0773458480835,5.08634567260742,5.09537744522095,5.10444116592407,5.11353731155396,5.1226658821106,5.13182735443115,5.14102125167847,5.15024852752686,5.15950870513916,5.16880226135254,5.17812967300415,5.18749046325684,5.19688510894775,5.20631408691406,5.21577739715576,5.22527456283569,5.23480701446533,5.24437427520752,5.25397634506226,5.2636137008667,5.27328634262085,5.28299474716187,5.2927393913269,5.30251932144165,5.31233596801758,5.32218885421753,5.33207845687866,5.34200477600098,5.35196781158447,5.36196851730347,5.3720064163208,5.38208246231079,5.39219570159912,5.40234756469727,5.41253709793091,5.42276573181152,5.43303298950195,5.4433388710022,5.45368432998657,5.46406888961792,5.47449350357056,5.48495769500732,5.49546146392822,5.50600624084473,5.51659154891968,5.52721738815308,5.53788423538208,5.55096340179443,5.56456327438354,5.57823038101196,5.59196472167969,5.60576677322388,5.61963701248169,5.63357639312744,5.64758491516113,5.66166305541992,5.67581176757812,5.6900315284729,5.70432233810425,5.71868515014648,5.73312091827393,5.74762916564941,5.76221179962158,5.77686786651611,5.79159927368164,5.80640554428101,5.82128763198853,5.83624649047852,5.85128259658813,5.86639595031738,5.88158798217773,5.89685869216919,5.91220903396606,5.92763948440552,5.94315052032471,5.95874309539795,5.9744176864624,5.99017477035522,6.00601530075073,6.02193975448608,6.0379490852356,6.05404376983643,6.07022428512573,6.08649158477783,6.10284614562988,6.11928939819336,6.1358208656311,6.18024110794067,6.22822427749634,6.27695846557617,6.32646131515503,6.37675094604492,6.4278416633606,6.47975540161133,6.5325140953064,6.55773591995239,6.56208276748657,6.56643533706665,6.57079362869263,6.57515811920166,6.57952785491943,6.58390378952026,6.58828544616699,6.62143707275391,6.65585851669312,6.69063949584961,6.72578620910645,6.76130437850952,6.79719924926758,6.83347702026367,6.87014484405518,6.90720796585083,6.94467306137085,6.98254680633545,7.02083587646484,7.05954742431641,7.09868812561035,7.13826513290405,7.17828607559204,7.21875858306885,7.259690284729,7.30108880996704,7.34296178817749,7.38531827926636,7.42816591262817,7.4697642326355,7.50879049301147,7.54822683334351,7.58807992935181,7.62835597991943,7.6690616607666,7.71020364761353,7.75179004669189,7.79382753372192,7.83632326126099,7.87928485870361,7.92272043228149,7.966637134552,8.01104354858398,8.05594825744629,8.10469341278076,8.15504264831543,8.20602035522461,8.25763988494873,8.30991268157959,8.36294746398926,8.41674423217773,8.47123622894287,8.52681159973145,8.59579944610596,8.66591358184814,8.73717975616455,8.8096284866333,8.8832893371582,8.95819091796875,16.9014492034912,16.9006996154785,16.8999519348145,16.8992042541504,16.8984565734863,16.8977069854736,16.8969612121582,16.8962116241455,16.8954639434814,16.894718170166,16.893970489502,16.8932209014893,16.8924732208252,16.8917255401611,16.8909797668457,16.8902320861816,16.8894863128662,16.8887367248535,16.8879909515381,16.8872451782227,16.88649559021,16.8857498168945,16.8850040435791,16.884256362915,16.8835105895996,16.8827629089355,16.8820152282715,16.8812694549561,16.880521774292,16.8797779083252,16.8790302276611,16.8782825469971,16.8775386810303,16.8767910003662,16.8760471343994,16.875301361084,16.8745536804199,16.8738079071045,16.8730621337891,16.872314453125,16.8715705871582,16.8708248138428,16.870080947876,16.8693351745605,16.8685874938965,16.8678436279297,16.8670978546143,16.8663520812988,16.8656063079834,16.8648643493652,16.8641166687012,16.8633728027344,16.8626289367676,16.8618831634521,16.8611392974854
4.53564834594727,4.53697061538696,4.53829383850098,4.53961753845215,4.54094219207764,4.54226779937744,4.5435938835144,4.54492092132568,4.54624843597412,4.54757690429688,4.54890632629395,4.55023622512817,4.55156707763672,4.55289888381958,4.5542311668396,4.55556440353394,4.55689811706543,4.5582332611084,4.55956888198853,4.56090497970581,4.56224203109741,4.56358003616333,4.56491851806641,4.5662579536438,4.56759786605835,4.56893920898438,4.57028102874756,4.5716233253479,4.57296705245972,4.57431077957153,4.57565593719482,4.57700204849243,4.57834815979004,4.57969570159912,4.58104372024536,4.58239269256592,4.58374214172363,4.58509302139282,4.58644437789917,4.58779621124268,4.5891489982605,4.59050273895264,4.59185743331909,4.59321260452271,4.59456872940063,4.59592580795288,4.59728336334229,4.59864187240601,4.60000133514404,4.60136127471924,4.60272216796875,4.60408401489258,4.60544633865356,4.60680961608887,4.60817384719849,4.60953903198242,4.61090469360352,4.61227130889893,4.61363840103149,4.61500692367554,4.61637544631958,4.6177453994751,4.61911630630493,4.62048768997192,4.62185955047607,4.62423801422119,4.63170194625854,4.63919019699097,4.6467022895813,4.6542387008667,4.66179990768433,4.66938591003418,4.6769962310791,4.68463182449341,4.69229221343994,4.6999773979187,4.707688331604,4.71542406082153,4.72318553924561,4.73097229003906,4.73878526687622,4.74662399291992,4.75448846817017,4.76237916946411,4.77029609680176,4.77823925018311,4.78620910644531,4.79420566558838,4.8022289276123,4.81027889251709,4.81835603713989,4.82646036148071,4.83459186553955,4.84275102615356,4.85093784332275,4.85915184020996,4.8673939704895,4.87566423416138,4.88396263122559,4.89228963851929,4.90064430236816,4.90902853012085,4.91744089126587,4.92588186264038,4.9343523979187,4.94285202026367,4.95138072967529,4.95993900299072,4.96852684020996,4.97714471817017,4.98579263687134,4.99447011947632,5.00317859649658,5.01191711425781,5.02068614959717,5.02948570251465,5.03831672668457,5.04717826843262,5.05607128143311,5.06499576568604,5.07395172119141,5.08293962478638,5.09195899963379,5.10101079940796,5.11009454727173,5.11921072006226,5.1283597946167,5.1375412940979,5.14675617218018,5.15600395202637,5.16528463363647,5.17459917068481,5.18394756317139,5.19332933425903,5.20274543762207,5.21219539642334,5.22168016433716,5.23119926452637,5.24075317382812,5.25034189224243,5.25996589660645,5.26962566375732,5.27932024002075,5.2890510559082,5.29881763458252,5.30862045288086,5.31845951080322,5.32833528518677,5.33824729919434,5.3481969833374,5.35818338394165,5.36820697784424,5.37826871871948,5.38836765289307,5.39850521087646,5.40868043899536,5.41889429092407,5.4291467666626,5.43943786621094,5.44976854324341,5.46013832092285,5.47054767608643,5.48099660873413,5.49148559570312,5.50317049026489,5.51653718948364,5.52996921539307,5.54346656799316,5.55702972412109,5.57065963745117,5.58435678482056,5.59812116622925,5.61195373535156,5.62585496902466,5.63982486724854,5.65386438369751,5.6679744720459,5.68215465545654,5.69640588760376,5.71072912216187,5.72512435913086,5.73959255218506,5.75413370132446,5.76874923706055,5.78343868255615,5.79820346832275,5.81304359436035,5.82796001434326,5.84295320510864,5.85802412033081,5.87317228317261,5.88839912414551,5.90370559692383,5.91909170150757,5.93455791473389,5.9501051902771,5.96573448181152,5.98144578933716,5.99724006652832,6.01311826705933,6.02908039093018,6.04512786865234,6.06126070022583,6.07747983932495,6.09378623962402,6.11018037796021,6.12666273117065,6.15985631942749,6.20752239227295,6.25593185424805,6.30510234832764,6.35505151748657,6.40579891204834,6.45735597610474,6.50974941253662,6.56300020217896,6.58103084564209,6.58540868759155,6.58979225158691,6.59418201446533,6.59857702255249,6.60297870635986,6.60738563537598,6.62434911727905,6.65880107879639,6.69361305236816,6.72879076004028,6.7643404006958,6.80026769638062,6.83657884597778,6.8732795715332,6.91037654876709,6.9478759765625,6.98578500747681,7.02410984039307,7.06285715103149,7.10203456878662,7.14164924621582,7.18170881271362,7.22221946716309,7.26319074630737,7.30462884902954,7.34654331207275,7.38894081115723,7.43183040618896,7.47522115707397,7.51481676101685,7.55431652069092,7.59423398971558,7.63457536697388,7.67534780502319,7.71655797958374,7.75821304321289,7.80032014846802,7.84288692474365,7.88592052459717,7.92942953109741,7.97342109680176,8.01790332794189,8.06288433074951,8.10852432250977,8.15892028808594,8.20994758605957,8.26161575317383,8.31394004821777,8.36695003509521,8.42079734802246,8.47534275054932,8.53059864044189,8.59688949584961,8.66702079772949,8.73830604553223,8.81077289581299,8.8844518661499,8.95937442779541,16.7579193115234,16.7571830749512,16.7564468383789,16.7557125091553,16.754976272583,16.7542419433594,16.7535037994385,16.7527675628662,16.7520351409912,16.7513008117676,16.7505664825439,16.7498302459717,16.7490940093994,16.7483596801758,16.7476253509521,16.7468910217285,16.7461566925049,16.7454204559326,16.7446880340576,16.7439517974854,16.7432174682617,16.7424831390381,16.7417507171631,16.7410144805908,16.7402801513672,16.7395477294922,16.7388134002686,16.7380790710449,16.7373466491699,16.7366104125977,16.7358779907227,16.735143661499,16.7344093322754,16.7336750030518,16.7329444885254,16.7322120666504,16.7314777374268,16.7307415008545,16.7300109863281,16.7292766571045,16.7285442352295,16.7278099060059,16.7270793914795,16.7263450622559,16.7256126403809,16.7248802185059,16.7241477966309,16.7234134674072,16.7226810455322,16.7219486236572,16.7212162017822,16.7204856872559,16.7197513580322,16.7190208435059
4.52490377426147,4.52621984481812,4.52753639221191,4.52885437011719,4.53017234802246,4.53149175643921,4.53281164169312,4.53413248062134,4.53545379638672,4.53677606582642,4.53809881210327,4.53942251205444,4.54074716567993,4.54207229614258,4.54339838027954,4.54472541809082,4.54605293273926,4.54738140106201,4.54871034622192,4.55004024505615,4.5513710975647,4.55270290374756,4.55403470993042,4.55536794662476,4.55670166015625,4.55803632736206,4.55937194824219,4.56070804595947,4.56204509735107,4.56338262557983,4.56472110748291,4.5660605430603,4.56740045547485,4.56874179840088,4.5700831413269,4.57142543792725,4.5727686882019,4.57411289215088,4.57545757293701,4.57680368423462,4.57814979553223,4.57949686050415,4.58084487915039,4.58219385147095,4.58354330062866,4.58489370346069,4.58624505996704,4.58759737014771,4.58894968032837,4.59030342102051,4.5916576385498,4.59301280975342,4.59436893463135,4.59572553634644,4.597083568573,4.59844160079956,4.59980058670044,4.60116100311279,4.60252141952515,4.60388326644897,4.60524559020996,4.60660886764526,4.60797262191772,4.60933780670166,4.61070346832275,4.61206960678101,4.61399173736572,4.621422290802,4.62887716293335,4.63635587692261,4.64385938644409,4.65138673782349,4.65893840789795,4.6665153503418,4.67411613464355,4.6817421913147,4.68939304351807,4.69706869125366,4.7047700881958,4.71249628067017,4.72024822235107,4.72802543640137,4.7358283996582,4.74365758895874,4.75151205062866,4.75939321517944,4.76730012893677,4.77523326873779,4.78319311141968,4.79117918014526,4.79919242858887,4.80723237991333,4.81529903411865,4.82339334487915,4.83151435852051,4.83966302871704,4.84783935546875,4.85604333877563,4.8642749786377,4.87253427505493,4.88082218170166,4.88913822174072,4.89748239517212,4.90585517883301,4.91425704956055,4.92268753051758,4.9311466217041,4.93963527679443,4.94815301895142,4.95669984817505,4.96527671813965,4.97388315200806,4.98251962661743,4.99118614196777,4.99988269805908,5.00860977172852,5.01736736297607,5.02615547180176,5.03497457504272,5.04382419586182,5.05270576477051,5.06161832809448,5.0705623626709,5.07953786849976,5.08854532241821,5.09758472442627,5.10665655136108,5.1157603263855,5.12489700317383,5.13406658172607,5.14326858520508,5.152503490448,5.16177225112915,5.17107391357422,5.18040943145752,5.18977832794189,5.19918155670166,5.20861864089966,5.21809005737305,5.22759628295898,5.23713731765747,5.24671268463135,5.25632333755493,5.26596927642822,5.27565097808838,5.28536796569824,5.29512119293213,5.30491018295288,5.31473541259766,5.32459735870361,5.33449554443359,5.34443092346191,5.35440349578857,5.36441326141357,5.37446022033691,5.38454532623291,5.3946681022644,5.40482902526855,5.41502809524536,5.42526626586914,5.43554258346558,5.44585847854614,5.45621347427368,5.46933317184448,5.48253583908081,5.49580240249634,5.50913333892822,5.52252912521362,5.53598976135254,5.54951667785645,5.56310987472534,5.57676982879639,5.59049654006958,5.6042914390564,5.61815452575684,5.63208627700806,5.64608764648438,5.66015815734863,5.67429971694946,5.68851137161255,5.70279502868652,5.71715021133423,5.73157787322998,5.74607849121094,5.76065301895142,5.77530145645142,5.79002475738525,5.80482292175293,5.81969738006592,5.83464765548706,5.84967565536499,5.86478090286255,5.87996435165405,5.89522647857666,5.91056823730469,5.92599010467529,5.94149255752563,5.95707607269287,5.97274208068848,5.98849058151245,6.00432205200195,6.0202374458313,6.0362377166748,6.05232334136963,6.06849479675293,6.08475255966187,6.10109806060791,6.11753177642822,6.13960599899292,6.18695783615112,6.23504543304443,6.28388690948486,6.33349943161011,6.38390159606934,6.4351110458374,6.48714256286621,6.54002237319946,6.59377145767212,6.6044921875,6.60890102386475,6.61331605911255,6.61773681640625,6.62216377258301,6.62659645080566,6.63103532791138,6.66174554824829,6.69658851623535,6.73179817199707,6.76737976074219,6.8033390045166,6.83968305587769,6.87641763687134,6.91354846954346,6.95108270645142,6.98902654647827,7.02738666534424,7.06617069244385,7.10538482666016,7.14503717422485,7.185133934021,7.22568416595459,7.26669406890869,7.30817270278931,7.35012769699097,7.3925666809082,7.43549871444702,7.47893238067627,7.52085256576538,7.56041622161865,7.60039806365967,7.6408052444458,7.68164443969727,7.72292232513428,7.76464605331421,7.80682325363159,7.84946155548096,7.89256763458252,7.93615007400513,7.98021650314331,8.0247745513916,8.06983375549316,8.11540126800537,8.16280269622803,8.21387767791748,8.26559638977051,8.31797027587891,8.37101268768311,8.42485427856445,8.47945213317871,8.53476333618164,8.59797859191895,8.66812801361084,8.73943138122559,8.81191730499268,8.88561630249023,8.96055793762207,16.6168041229248,16.616081237793,16.6153583526611,16.6146354675293,16.6139125823975,16.613187789917,16.6124649047852,16.6117420196533,16.6110191345215,16.6103000640869,16.6095752716064,16.6088523864746,16.6081295013428,16.6074066162109,16.6066837310791,16.6059627532959,16.6052398681641,16.6045188903809,16.603796005249,16.6030731201172,16.6023502349854,16.6016292572021,16.6009082794189,16.6001853942871,16.5994625091553,16.5987415313721,16.5980205535889,16.5972995758057,16.5965766906738,16.5958557128906,16.5951328277588,16.5944137573242,16.5936908721924,16.5929698944092,16.592248916626,16.5915298461914,16.5908069610596,16.5900859832764,16.5893650054932,16.58864402771,16.5879230499268,16.5872020721436,16.586483001709,16.5857620239258,16.5850410461426,16.584321975708,16.5836009979248,16.582878112793,16.5821590423584,16.5814380645752,16.580717086792,16.5799980163574,16.5792808532715
4.51420974731445,4.51551961898804,4.51683044433594,4.518141746521,4.51945352554321,4.5207667350769,4.52208042144775,4.52339458465576,4.52470970153809,4.52602577209473,4.52734231948853,4.52865982055664,4.52997827529907,4.53129720687866,4.53261709213257,4.53393793106079,4.53525876998901,4.53658103942871,4.53790426254272,4.53922748565674,4.54055213928223,4.54187679290771,4.54320335388184,4.54452991485596,4.54585742950439,4.54718542098999,4.5485143661499,4.54984426498413,4.55117511749268,4.55250644683838,4.5538387298584,4.55517148971558,4.55650520324707,4.55783987045288,4.55917501449585,4.56051111221313,4.56184768676758,4.5631856918335,4.56452417373657,4.56586313247681,4.56720304489136,4.56854391098022,4.56988573074341,4.57122802734375,4.57257080078125,4.57391500473022,4.57525968551636,4.57660531997681,4.57795143127441,4.57929849624634,4.58064651489258,4.58199501037598,4.58334493637085,4.58469486236572,4.58604574203491,4.58739757537842,4.58875036239624,4.59010410308838,4.59145832061768,4.59281301498413,4.59416913986206,4.59552574157715,4.59688329696655,4.59824132919312,4.59960031509399,4.60096025466919,4.6023211479187,4.60379028320312,4.61118841171265,4.61861038208008,4.62605571746826,4.63352584838867,4.64101982116699,4.64853811264038,4.65608072280884,4.66364765167236,4.67123985290527,4.67885589599609,4.68649768829346,4.69416379928589,4.70185565948486,4.70957231521606,4.71731472015381,4.72508239746094,4.73287534713745,4.74069452285767,4.74853944778442,4.75641059875488,4.76430749893188,4.77223110198975,4.78018045425415,4.78815698623657,4.7961597442627,4.80418968200684,4.81224632263184,4.82033014297485,4.82844066619873,4.83657932281494,4.84474468231201,4.85293817520142,4.861159324646,4.86940860748291,4.877685546875,4.88599109649658,4.89432430267334,4.90268659591675,4.91107702255249,4.91949653625488,4.92794513702393,4.93642234802246,4.9449291229248,4.9534649848938,4.96203088760376,4.97062587738037,4.97925090789795,4.98790597915649,4.99659109115601,5.00530672073364,5.0140528678894,5.02282905578613,5.0316367149353,5.0404748916626,5.04934406280518,5.0582447052002,5.06717681884766,5.07614088058472,5.08513641357422,5.09416341781616,5.10322284698486,5.11231470108032,5.12143898010254,5.13059616088867,5.13978576660156,5.14900827407837,5.15826416015625,5.16755342483521,5.17687606811523,5.1862325668335,5.19562244415283,5.20504665374756,5.21450567245483,5.22399854660034,5.2335262298584,5.243088722229,5.25268602371216,5.26231861114502,5.27198648452759,5.28169012069702,5.29142951965332,5.30120515823364,5.31101655960083,5.3208646774292,5.33074903488159,5.34067058563232,5.35062885284424,5.36062431335449,5.37065744400024,5.38072824478149,5.39083623886108,5.40098285675049,5.41116762161255,5.42292976379395,5.43590927124023,5.44895076751709,5.46205520629883,5.47522258758545,5.48845386505127,5.50174903869629,5.51510906219482,5.52853345870972,5.5420241355896,5.55558013916016,5.56920289993286,5.58289289474487,5.59665012359619,5.61047554016113,5.6243691444397,5.6383318901062,5.65236377716064,5.6664662361145,5.68063879013062,5.69488286972046,5.70919847488403,5.7235860824585,5.73804616928101,5.75257968902588,5.76718711853027,5.78186893463135,5.79662561416626,5.81145763397217,5.82636594772339,5.84135055541992,5.85641288757324,5.87155294418335,5.88677167892456,5.90206956863403,5.91744709014893,5.9329047203064,5.94844341278076,5.96406364440918,5.97976636886597,5.99555158615112,6.01142072677612,6.02737426757812,6.04341220855713,6.05953598022461,6.07574605941772,6.09204292297363,6.10842752456665,6.12490081787109,6.16652870178223,6.21429824829102,6.26281404495239,6.31209325790405,6.36215400695801,6.41301488876343,6.46469211578369,6.51720523834229,6.57057857513428,6.62368631362915,6.6281213760376,6.63256168365479,6.63700866699219,6.64146137237549,6.64591979980469,6.65038442611694,6.6646933555603,6.69956731796265,6.73480796813965,6.77042150497437,6.8064136505127,6.84279012680054,6.87955808639526,6.91672277450562,6.95429182052612,6.99227094650269,7.03066682815552,7.06948709487915,7.1087384223938,7.14842796325684,7.18856334686279,7.22915172576904,7.27020120620728,7.31171989440918,7.35371589660645,7.39619636535645,7.43917083740234,7.48264741897583,7.52663516998291,7.56652545928955,7.60657215118408,7.64704513549805,7.68795108795166,7.72929716110229,7.77109003067017,7.8133373260498,7.8560471534729,7.89922571182251,7.94288158416748,7.98702335357666,8.03165817260742,8.0767936706543,8.12244033813477,8.16860580444336,8.21781253814697,8.26958084106445,8.32200527191162,8.37509918212891,8.42891597747803,8.48356628417969,8.53893089294434,8.5990686416626,8.6692361831665,8.74055767059326,8.81306266784668,8.88678073883057,16.478759765625,16.4780464172363,16.4773349761963,16.4766273498535,16.4759140014648,16.4752044677734,16.4744930267334,16.4737815856934,16.4730701446533,16.4723587036133,16.4716472625732,16.4709377288818,16.4702262878418,16.469518661499,16.4688053131104,16.4680957794189,16.4673862457275,16.4666767120361,16.4659633636475,16.4652538299561,16.4645442962646,16.4638347625732,16.4631252288818,16.4624156951904,16.4617042541504,16.460994720459,16.4602851867676,16.4595737457275,16.4588661193848,16.4581565856934,16.457447052002,16.4567375183105,16.4560279846191,16.4553184509277,16.454610824585,16.4538993835449,16.4531898498535,16.4524822235107,16.451774597168,16.4510650634766,16.4503555297852,16.4496479034424,16.4489364624023,16.4482288360596,16.4475193023682,16.4468097686768,16.4461040496826,16.4453945159912,16.4446868896484,16.443977355957,16.4432697296143,16.4425601959229,16.4418506622314
4.50356674194336,4.50486993789673,4.50617456436157,4.50747966766357,4.50878572463989,4.51009225845337,4.51139974594116,4.51270818710327,4.51401710510254,4.51532697677612,4.51663732528687,4.51794862747192,4.51926040649414,4.52057313919067,4.52188682556152,4.52320098876953,4.52451610565186,4.52583169937134,4.52714872360229,4.52846574783325,4.52978420257568,4.53110313415527,4.53242254257202,4.53374290466309,4.53506422042847,4.53638601303101,4.53770923614502,4.53903245925903,4.54035663604736,4.54168176651001,4.54300785064697,4.54433441162109,4.54566144943237,4.54698991775513,4.54831886291504,4.54964828491211,4.55097913742065,4.55231046676636,4.55364227294922,4.5549750328064,4.55630874633789,4.55764293670654,4.55897808074951,4.5603141784668,4.5616512298584,4.56298828125,4.56432676315308,4.56566619873047,4.56700563430786,4.56834650039673,4.56968784332275,4.5710301399231,4.5723729133606,4.57371711730957,4.57506132125854,4.57640695571899,4.5777530670166,4.57910013198853,4.58044767379761,4.58179664611816,4.58314561843872,4.58449602127075,4.58584690093994,4.58719873428345,4.58855104446411,4.58990430831909,4.59125852584839,4.592613697052,4.59396934509277,4.60099935531616,4.60838842391968,4.6158013343811,4.62323808670044,4.63069868087769,4.63818359375,4.64569282531738,4.65322637557983,4.6607837677002,4.66836643218994,4.67597389221191,4.68360567092896,4.69126272201538,4.69894504547119,4.70665216445923,4.71438455581665,4.72214269638062,4.72992610931396,4.73773527145386,4.74557065963745,4.75343179702759,4.76131868362427,4.76923227310181,4.77717208862305,4.78513813018799,4.79313087463379,4.80115079879761,4.80919742584229,4.81727075576782,4.82537126541138,4.83349943161011,4.84165477752686,4.84983777999878,4.85804796218872,4.86628675460815,4.87455320358276,4.88284778594971,4.89117050170898,4.89952182769775,4.90790176391602,4.91631031036377,4.92474746704102,4.93321418762207,4.94170951843262,4.95023441314697,4.95878887176514,4.96737289428711,4.97598695755005,4.9846305847168,4.99330425262451,5.00200843811035,5.01074266433716,5.01950740814209,5.0283031463623,5.0371298789978,5.04598760604858,5.05487632751465,5.06379652023315,5.0727481842041,5.08173179626465,5.09074687957764,5.09979438781738,5.10887384414673,5.11798572540283,5.12713050842285,5.13630771636963,5.14551782608032,5.15476083755493,5.16403722763062,5.17334747314453,5.18269109725952,5.19206857681274,5.2014799118042,5.21092557907104,5.22040557861328,5.22991991043091,5.23946905136108,5.24905347824097,5.2586727142334,5.26832723617554,5.27801752090454,5.28774309158325,5.29750490188599,5.30730295181274,5.31713724136353,5.32700777053833,5.33691549301147,5.34685945510864,5.35684108734131,5.36685991287231,5.37730741500854,5.39006900787354,5.40289163589478,5.41577482223511,5.42871999740601,5.44172716140747,5.4547963142395,5.46792888641357,5.48112487792969,5.494384765625,5.50770854949951,5.52109718322754,5.53455114364624,5.54807138442993,5.5616569519043,5.57530975341797,5.58902978897095,5.60281705856323,5.6166729927063,5.63059759140015,5.64459133148193,5.65865468978882,5.67278814315796,5.68699264526367,5.70126819610596,5.71561574935913,5.73003578186035,5.74452877044678,5.75909519195557,5.77373600006104,5.78845071792603,5.80324125289917,5.81810712814331,5.83304977416992,5.848069190979,5.86316633224487,5.87834119796753,5.89359521865845,5.90892839431763,5.92434167861938,5.93983554840088,5.95541048049927,5.97106742858887,5.98680686950684,6.00262975692749,6.01853656768799,6.03452730178833,6.05060386657715,6.06676626205444,6.08301496505737,6.09935092926025,6.1157751083374,6.1462345123291,6.19368886947632,6.24188184738159,6.29083061218262,6.34055376052856,6.39106845855713,6.44239473342896,6.49454689025879,6.54754781723022,6.60142135620117,6.64745330810547,6.65191984176636,6.6563925743103,6.6608715057373,6.66535615921021,6.66984701156616,6.67434358596802,6.70254850387573,6.73782062530518,6.77346611022949,6.80949068069458,6.84590005874634,6.88270139694214,6.91990089416504,6.95750379562378,6.99551820755005,7.0339503288269,7.0728063583374,7.11209487915039,7.15182209014893,7.19199562072754,7.2326226234436,7.27371168136597,7.31527042388916,7.35730743408203,7.39982938766479,7.44284629821777,7.4863657951355,7.53039789199829,7.57264471054077,7.61275625228882,7.65329504013062,7.69426822662354,7.73568248748779,7.7775444984436,7.81986284255981,7.86264371871948,7.9058952331543,7.94962501525879,7.99384164810181,8.03855323791504,8.08376693725586,8.12949275970459,8.17573833465576,8.22251319885254,8.27356815338135,8.3260440826416,8.37918949127197,8.43301773071289,8.48768424987793,8.5431022644043,8.60015964508057,8.67034435272217,8.74168395996094,8.81420803070068,8.8879451751709,16.3422889709473,16.341588973999,16.3408889770508,16.3401870727539,16.3394908905029,16.3387928009033,16.3380928039551,16.3373928070068,16.3366928100586,16.3359928131104,16.3352947235107,16.3345966339111,16.3338985443115,16.3331985473633,16.3325004577637,16.3318004608154,16.3311042785645,16.3304042816162,16.329704284668,16.329008102417,16.3283081054688,16.3276100158691,16.3269138336182,16.3262138366699,16.3255157470703,16.3248176574707,16.3241195678711,16.3234214782715,16.3227233886719,16.3220252990723,16.3213272094727,16.3206310272217,16.3199329376221,16.3192348480225,16.3185367584229,16.3178386688232,16.3171424865723,16.3164443969727,16.315746307373,16.3150501251221,16.3143520355225,16.3136558532715,16.3129596710205,16.3122615814209,16.3115634918213,16.3108673095703,16.3101692199707,16.3094730377197,16.3087768554688,16.3080806732178,16.3073844909668,16.3066864013672
