0,0,0,0,0,0,0,0,0,0,0,0,0,0,0,0,0,0,0,0,0,0,0,0,0,0,0,0,0,0,0,0,0,0,0,0,0,0,0,0,0,0,0,4.57320404052734,4.58073759078979,4.58829593658447,4.59587907791138,4.60348749160767,4.61112070083618,4.61877965927124,4.62646389007568,4.63417434692383,4.6419095993042,4.64967155456543,4.65745878219604,4.66527271270752,4.6731128692627,4.68097925186157,4.68887186050415,4.69679164886475,4.70473766326904,4.71271133422852,4.72071170806885,4.7287392616272,4.73679399490356,4.74487638473511,4.75298643112183,4.76112413406372,4.76928997039795,4.77748394012451,4.78570604324341,4.79395627975464,4.80223512649536,4.81054258346558,4.81887865066528,4.82724380493164,4.83563804626465,4.84406185150146,4.85251474380493,4.86099720001221,4.86950922012329,4.8780517578125,4.88662338256836,4.8952260017395,4.90385866165161,4.91252183914185,4.92121553421021,4.92993974685669,4.93869543075562,4.94748210906982,4.95630025863647,4.96514987945557,4.9740309715271,4.98294401168823,4.99188947677612,5.00086641311646,5.0098762512207,5.01891803741455,4.82614612579346,4.82883262634277,4.83152151107788,4.8342137336731,4.83690881729126,4.83960723876953,4.84230804443359,4.84501266479492,4.84771966934204,4.85043001174927,4.85314321517944,4.85585975646973,4.8585786819458,4.86130142211914,4.86402702331543,4.86675548553467,4.86948680877686,4.87222099304199,4.87495851516724,4.87769937515259,4.88044309616089,4.88318967819214,4.8859395980835,4.8886923789978,4.89144849777222,4.89420795440674,4.89696979522705,4.89973545074463,4.90250396728516,4.90527582168579,4.90805053710938,4.91082859039307,4.91360950469971,4.91639375686646,4.91918134689331,4.92197179794312,4.92476558685303,4.92756223678589,4.93036222457886,4.93316555023193,4.93597221374512,4.93878173828125,4.94159460067749,4.94441080093384,4.94722986221313,4.95005226135254,4.95287799835205,4.95570707321167,4.9585394859314,4.96137475967407,4.96421337127686,4.96705532073975,4.96990060806274,4.97274875640869,4.97560024261475,4.97845554351807,4.98131370544434,4.98417520523071,4.9870400428772,4.98990821838379,4.99277973175049,4.99565410614014,4.99853229522705,5.00141382217407,5.00429821014404,5.00718641281128,5.01007747650146,5.01297235488892,5.01587009429932,5.01877164840698,5.02167654037476,5.02458477020264,5.02749586105347,5.03041076660156,5.03332901000977,5.03625059127808,5.03917551040649,5.04210424423218,5.04503583908081,5.04797124862671,5.05090999603271,5.05385160446167,5.05679750442505,5.06615352630615,5.08634281158447,5.10669326782227,5.12720727920532,5.14788722991943,5.16873407363892,5.18975067138672,5.21093893051147,5.23230123519897,5.25383853912354,5.27555322647095,5.29744815826416,5.31952571868896,5.34178781509399,5.3642373085022,5.38687610626221,5.40970706939697,5.43273210525513,5.45595407485962,5.47937536239624,5.50299882888794,5.52682638168335,5.55086183547974,5.57510662078857,5.59956455230713,5.62423801422119,5.64912939071655,5.67424249649048,5.69958019256592,5.7251443862915,5.75093936920166,5.77696800231934,5.80323314666748,5.8297381401062,5.85527229309082,5.8796534538269,5.9042387008667,5.929030418396,5.95403099060059,5.98072481155396,6.00824546813965,6.03602075576782,6.06405401229858,6.0923490524292,6.12090921401978,6.14973878860474,6.17884063720703,6.20821952819824,6.23787927627563,6.26782321929932,6.29805660247803,6.32858276367188,6.35940647125244,6.39053153991699,6.42196321487427,6.45370531082153,6.48576307296753,6.51814079284668,6.55084323883057,6.58387565612793,6.61724281311035,6.65100574493408,6.68516778945923,6.71968269348145,6.75455617904663,6.78979301452637,6.82539939880371,6.86138153076172,6.89774513244629,6.93449592590332,6.97164058685303,7.00918531417847,7.0471363067627,7.08550071716309,7.12428522109985,7.16473817825317,7.21246337890625,7.26082897186279,7.30984735488892,7.35953187942505,7.40989685058594,7.46095561981201,7.51050996780396,7.5549750328064,7.59996891021729,7.64550256729126,7.69158458709717,7.73822593688965,7.78543615341187,7.83322620391846,7.88160610198975,7.93058776855469,7.98018217086792,8.03038883209229,8.08123016357422,8.13271999359131,8.18486976623535,0,0,0,0,0,0,0,0,0,0,0,0,0,0,0,0,0,0,0,0,0,0,0,0,0,0,0,0,0,0,0,0,0,0,0,0,0,0,0,0,0,0,0,0,0,0,0,0,0,0,0,0,0,0,0,0,0,0,0,0,0,0,0,0,0,0,0,0,0,0,0,0,0,0,0,0,0,0
0,0,0,0,0,0,0,0,0,0,0,0,0,0,0,0,0,0,0,0,0,0,0,0,0,0,0,0,0,0,0,0,0,0,0,0,0,0,0,4.5259747505188,4.53335332870483,4.54075574874878,4.54818248748779,4.55563354492188,4.56310892105103,4.5706090927124,4.57813405990601,4.58568334579468,4.59325790405273,4.60085773468018,4.60848236083984,4.61613273620605,4.62380838394165,4.63150930404663,4.63923597335815,4.64698886871338,4.65476751327515,4.66257190704346,4.67040300369263,4.6782603263855,4.68614387512207,4.6940541267395,4.70199155807495,4.7099552154541,4.71794605255127,4.72596454620361,4.73400974273682,4.7420825958252,4.75018310546875,4.75831127166748,4.76646757125854,4.77465152740479,4.78286409378052,4.79110431671143,4.79937362670898,4.80767107009888,4.81599712371826,4.8243522644043,4.83273696899414,4.84115028381348,4.84959316253662,4.85806512832642,4.86656713485718,4.87509870529175,4.88366079330444,4.89225244522095,4.90087461471558,4.90952730178833,4.91821050643921,4.92692422866821,4.9356689453125,4.94444513320923,4.95325231552124,4.96209096908569,4.97096109390259,4.97986316680908,4.98879718780518,4.99776315689087,5.00676155090332,5.01579236984253,4.84068012237549,4.84338235855103,4.84608793258667,4.84879636764526,4.85150766372681,4.85422229766846,4.85693979263306,4.85966014862061,4.86238384246826,4.86511039733887,4.86784029006958,4.87057304382324,4.87330913543701,4.87604808807373,4.8787899017334,4.88153505325317,4.8842830657959,4.88703441619873,4.88978862762451,4.89254570007324,4.89530611038208,4.89806985855103,4.90083646774292,4.90360641479492,4.90637922286987,4.90915536880493,4.91193437576294,4.91471672058105,4.91750240325928,4.92029094696045,4.92308282852173,4.92587757110596,4.92867565155029,4.93147706985474,4.93428182601929,4.93708944320679,4.93990039825439,4.94271469116211,4.94553184509277,4.94835233688354,4.95117616653442,4.95400333404541,4.95683336257935,4.95966672897339,4.96250343322754,4.9653434753418,4.968186378479,4.97103309631348,4.9738826751709,4.97673559188843,4.97959232330322,4.98245143890381,4.98531436920166,4.98818063735962,4.99104976654053,4.9939227104187,4.99679899215698,4.99967813491821,5.00256061553955,5.00544691085815,5.00833606719971,5.01122856140137,5.01412487030029,5.01702404022217,5.01992702484131,5.0228328704834,5.02574253082275,5.02865505218506,5.03157138824463,5.03449106216431,5.03741359710693,5.04034042358398,5.04327011108398,5.04620313644409,5.04913949966431,5.05207967758179,5.05502319335938,5.05797004699707,5.06092023849487,5.06387424468994,5.06683111190796,5.06979179382324,5.07275581359863,5.08824634552002,5.10861253738403,5.12914228439331,5.14983749389648,5.17070007324219,5.19173288345337,5.2129373550415,5.23431587219238,5.25587034225464,5.2776026725769,5.29951477050781,5.32160949707031,5.3438892364502,5.36635589599609,5.38901281356812,5.41186189651489,5.43490552902222,5.45814561843872,5.48158597946167,5.5052285194397,5.52907562255859,5.55313014984131,5.57739543914795,5.60187339782715,5.62656688690186,5.65147924423218,5.67661333084106,5.70197200775146,5.72755813598633,5.7533745765686,5.77942514419556,5.80571317672729,5.83224058151245,5.85901165008545,5.88362789154053,5.9082465171814,5.93307161331177,5.95810651779175,5.98335361480713,6.01061630249023,6.03841352462769,6.06646919250488,6.09478664398193,6.1233696937561,6.15222215652466,6.18134784698486,6.21075057983398,6.24043464660645,6.27040338516235,6.30066156387329,6.33121299743652,6.36206245422363,6.39321374893188,6.42467164993286,6.45644092559814,6.48852586746216,6.52093124389648,6.55366182327271,6.5867223739624,6.62011861801147,6.65385723114014,6.68804883956909,6.72259378433228,6.75749683380127,6.79276514053345,6.82840251922607,6.86441659927368,6.90081214904785,6.9375958442688,6.97477388381958,7.01235198974609,7.05033779144287,7.08873748779297,7.12755727767944,7.16680479049683,7.21367025375366,7.26205158233643,7.31108665466309,7.36078834533691,7.4111704826355,7.46224689483643,7.5140323638916,7.55917501449585,7.60421943664551,7.64980411529541,7.69593811035156,7.7426323890686,7.7898964881897,7.83774137496948,7.88617753982544,7.93521642684937,7.98486804962158,8.03514099121094,8.0860424041748,8.13759422302246,8.18980598449707,0,0,0,0,0,0,0,0,0,0,0,0,0,0,0,0,0,0,0,0,0,0,0,0,0,0,0,0,0,0,0,0,0,0,0,0,0,0,0,0,0,0,0,0,0,0,0,0,0,0,0,0,0,0,0,0,0,0,0,0,0,0,0,0,0,0,0,0,0,0,0,0,0,0,0,0,0
0,0,0,0,0,0,0,0,0,0,0,0,0,0,0,0,0,0,0,0,0,0,0,0,0,0,0,0,0,0,0,0,0,0,0,4.47971057891846,4.48693895339966,4.49419069290161,4.50146579742432,4.50876426696777,4.51608657836914,4.52343273162842,4.53080320358276,4.53819704055786,4.54561567306519,4.55305814743042,4.56052541732788,4.56801700592041,4.57553291320801,4.58307409286499,4.5906400680542,4.59823083877563,4.60584688186646,4.61348867416382,4.62115526199341,4.62884759902954,4.63656520843506,4.64430904388428,4.65207862854004,4.6598744392395,4.66769647598267,4.67554426193237,4.68341875076294,4.69131994247437,4.69924783706665,4.70720243453979,4.71518421173096,4.72319316864014,4.73122882843018,4.73929262161255,4.74738359451294,4.75550222396851,4.76364850997925,4.77182292938232,4.78002548217773,4.78825616836548,4.79651498794556,4.80480289459229,4.81311941146851,4.82146453857422,4.82983875274658,4.8382420539856,4.84667444229126,4.85513687133789,4.86362838745117,4.87214994430542,4.88070106506348,4.88928270339966,4.89789438247681,4.90653610229492,4.91520881652832,4.92391204833984,4.93264627456665,4.94141149520874,4.95020818710327,4.95903587341309,4.96789503097534,4.9767861366272,4.98570919036865,4.99466419219971,5.00365114212036,5.01267099380493,4.85530185699463,4.85802030563354,4.86074209213257,4.8634672164917,4.86619472503662,4.86892604827881,4.87165975570679,4.87439680099487,4.87713718414307,4.87988042831421,4.8826265335083,4.8853759765625,4.88812875747681,4.89088439941406,4.89364337921143,4.89640522003174,4.899169921875,4.90193796157837,4.90470886230469,4.90748310089111,4.91026020050049,4.91304063796997,4.91582441329956,4.9186110496521,4.92140102386475,4.9241943359375,4.9269905090332,4.92979001998901,4.93259239196777,4.93539810180664,4.93820714950562,4.9410195350647,4.94383478164673,4.94665336608887,4.94947528839111,4.95230007171631,4.95512866973877,4.95796012878418,4.9607949256897,4.96363306045532,4.9664740562439,4.96931838989258,4.97216653823853,4.97501754760742,4.97787189483643,4.98072910308838,4.9835901260376,4.98645401000977,4.9893217086792,4.99219226837158,4.99506664276123,4.99794387817383,5.00082445144653,5.00370836257935,5.00659561157227,5.00948619842529,5.01238059997559,5.01527786254883,5.01817846298218,5.02108240127563,5.0239896774292,5.02690076828003,5.02981472015381,5.03273248672485,5.03565311431885,5.03857755661011,5.04150533676147,5.04443645477295,5.04737091064453,5.05030870437622,5.05325031280518,5.05619478225708,5.05914306640625,5.06209468841553,5.06505012512207,5.06800842285156,5.07097053527832,5.07393598556519,5.07690477371216,5.0798773765564,5.08285331726074,5.0858325958252,5.0901517868042,5.11053323745728,5.13107824325562,5.15178918838501,5.17266798019409,5.19371652603149,5.21493721008301,5.23633193969727,5.25790309906006,5.27965307235718,5.30158233642578,5.32369422912598,5.34599161148071,5.36847639083862,5.39115142822266,5.41401815414429,5.43708038330078,5.46033954620361,5.48379850387573,5.50746011734009,5.53132677078247,5.55540084838867,5.5796856880188,5.60418367385864,5.62889814376831,5.65383100509644,5.67898607254028,5.70436573028564,5.72997379302979,5.75581216812134,5.78188467025757,5.80819463729858,5.83474540710449,5.86153984069824,5.88760757446289,5.91225957870483,5.93711853027344,5.96218776702881,5.98746967315674,6.01298904418945,6.04080820083618,6.06888628005981,6.09722661972046,6.12583255767822,6.15470838546753,6.18385744094849,6.21328401565552,6.24299240112305,6.27298593521118,6.30326890945435,6.33384561538696,6.36472082138062,6.39589834213257,6.4273829460144,6.45917844772339,6.49129104614258,6.52372407913208,6.55648279190063,6.58957195281982,6.62299680709839,6.65676307678223,6.69093227386475,6.72550678253174,6.76044082641602,6.79573917388916,6.83140850067139,6.86745405197144,6.90388202667236,6.94069862365723,6.97790956497192,7.01552200317383,7.053542137146,7.09197664260864,7.13083219528198,7.17011594772339,7.21487712860107,7.26327514648438,7.31232643127441,7.36204481124878,7.41244411468506,7.463538646698,7.51534175872803,7.56337976455688,7.60847473144531,7.65411043167114,7.7002968788147,7.7470440864563,7.79436206817627,7.84226226806641,7.89075422286987,7.93984985351562,7.98956060409546,8.03989696502686,8.09086132049561,8.1424732208252,8.194748878479,8.24769973754883,0,0,0,0,0,0,0,0,0,0,0,0,0,0,0,0,0,0,0,0,0,0,0,0,0,0,0,0,0,0,0,0,0,0,0,0,0,0,0,0,0,0,0,0,0,0,0,0,0,0,0,0,0,0,0,0,0,0,0,0,0,0,0,0,0,0,0,0,0,0,0,0,0,0,0
0,0,0,0,0,0,0,0,0,0,0,0,0,0,0,0,0,0,0,0,0,0,0,0,0,0,0,0,0,0,0,4.43438291549683,4.44146585464478,4.448570728302,4.45569896697998,4.46284961700439,4.47002363204956,4.47722053527832,4.48444080352783,4.4916844367981,4.49895143508911,4.50624179840088,4.51355600357056,4.52089357376099,4.52825546264648,4.53564167022705,4.54305171966553,4.55048561096191,4.55794429779053,4.56542730331421,4.57293510437012,4.58046770095825,4.58802509307861,4.5956072807312,4.60321474075317,4.61084747314453,4.61850500106812,4.6261887550354,4.63389778137207,4.64163255691528,4.64939308166504,4.6571798324585,4.66499280929565,4.67283153533936,4.68069696426392,4.68858909606934,4.69650793075562,4.7044529914856,4.71242523193359,4.72042465209961,4.72845125198364,4.73650550842285,4.74458694458008,4.75269603729248,4.76083278656006,4.76899719238281,4.77719020843506,4.78541088104248,4.79366016387939,4.8019380569458,4.8102445602417,4.81858015060425,4.82694387435913,4.83533716201782,4.84376001358032,4.85221195220947,4.86069345474243,4.8692045211792,4.87774515151978,4.88631629943848,4.89491748809814,4.90354919433594,4.9122109413147,4.92090368270874,4.92962741851807,4.93838167190552,4.94716739654541,4.95598411560059,4.96483278274536,4.97371292114258,4.98262453079224,4.99156856536865,5.00054454803467,5.00955295562744,4.87001180648804,4.87274694442749,4.87548542022705,4.87822675704956,4.88097143173218,4.88371896743774,4.88646936416626,4.88922357559204,4.89198017120361,4.89474010467529,4.89750337600708,4.90026950836182,4.90303897857666,4.90581130981445,4.90858697891235,4.91136598587036,4.91414785385132,4.91693258285522,4.91972064971924,4.9225115776062,4.92530632019043,4.92810344696045,4.93090438842773,4.93370819091797,4.93651533126831,4.9393253326416,4.94213914871216,4.94495582580566,4.94777536392212,4.95059871673584,4.95342493057251,4.95625448226929,4.95908737182617,4.96192359924316,4.96476268768311,4.96760511398315,4.97045087814331,4.97329998016357,4.97615242004395,4.97900819778442,4.98186683654785,4.98472881317139,4.98759460449219,4.99046325683594,4.99333524703979,4.99621057510376,4.99908924102783,5.00197124481201,5.0048565864563,5.00774526596069,5.0106372833252,5.0135326385498,5.01643133163452,5.01933336257935,5.02223873138428,5.02514743804932,5.02805948257446,5.03097486495972,5.03389406204224,5.03681612014771,5.03974199295044,5.04267072677612,5.04560327529907,5.04853916168213,5.05147838592529,5.05442094802856,5.0573673248291,5.06031703948975,5.0632700920105,5.06622648239136,5.06918668746948,5.07214975357056,5.0751166343689,5.07808685302734,5.08106088638306,5.08403825759888,5.0870189666748,5.090003490448,5.09299087524414,5.09598255157471,5.09897708892822,5.101975440979,5.11245536804199,5.13301563262939,5.15374231338501,5.17463684082031,5.19570159912109,5.21693897247314,5.23834991455078,5.25993776321411,5.28170442581177,5.30365180969238,5.32578134536743,5.34809589385986,5.37059879302979,5.39329147338867,5.41617679595947,5.43925714492798,5.46253490447998,5.48601293563843,5.50969362258911,5.53357934951782,5.55767345428467,5.58197832107544,5.60649633407593,5.63123083114624,5.65618467330933,5.68136072158813,5.70676183700562,5.73239088058472,5.75825166702271,5.78434610366821,5.81067895889282,5.83725214004517,5.86406946182251,5.89113426208496,5.91627788543701,5.94117116928101,5.96627426147461,5.99159097671509,6.01712322235107,6.04320478439331,6.07130527496338,6.09966802597046,6.12829685211182,6.15719604492188,6.18636894226074,6.21581935882568,6.24555206298828,6.27556991577148,6.30587816238403,6.33648061752319,6.36738157272339,6.39858484268188,6.43009614944458,6.46191883087158,6.49405813217163,6.52651929855347,6.55930614471436,6.59242391586304,6.62587785720825,6.65967321395874,6.69381809234619,6.72842264175415,6.76338672637939,6.79871654510498,6.83441686630249,6.87049436569214,6.90695476531982,6.94380378723145,6.98104858398438,7.01869487762451,7.05674934387207,7.09521865844727,7.13410997390747,7.1734299659729,7.21608448028564,7.26449823379517,7.3135666847229,7.36330223083496,7.41371870040894,7.46483039855957,7.51665163040161,7.56758975982666,7.6127347946167,7.65842151641846,7.70466041564941,7.75146055221558,7.79883289337158,7.84678792953491,7.89533615112305,7.94448900222778,7.99425792694092,8.04465389251709,8.09568500518799,8.14735889434814,8.19969749450684,8.25271224975586,0,0,0,0,0,0,0,0,0,0,0,0,0,0,0,0,0,0,0,0,0,0,0,0,0,0,0,0,0,0,0,0,0,0,0,0,0,0,0,0,0,0,0,0,0,0,0,0,0,0,0,0,0,0,0,0,0,0,0,0,0,0,0,0,0,0,0,0,0,0,0,0,0,0
0,0,0,0,0,0,0,0,0,0,0,0,0,0,0,0,0,0,0,0,0,0,0,0,0,0,0,4.38996362686157,4.39690494537354,4.40386772155762,4.41085338592529,4.41786098480225,4.42489051818848,4.4319429397583,4.43901777267456,4.44611501693726,4.45323514938354,4.46037817001343,4.4675440788269,4.47473335266113,4.48194551467896,4.48918056488037,4.4964394569397,4.50372219085693,4.51102781295776,4.51835775375366,4.52571105957031,4.53308868408203,4.54049062728882,4.54791641235352,4.55536651611328,4.56284093856812,4.57034015655518,4.57786417007446,4.58541297912598,4.59298658370972,4.60058546066284,4.60820913314819,4.61585855484009,4.62353324890137,4.63123321533203,4.63895893096924,4.64671087265015,4.6544885635376,4.66229248046875,4.67012214660645,4.677978515625,4.68586111068726,4.69377040863037,4.7017068862915,4.70966958999634,4.71765995025635,4.72567701339722,4.73372173309326,4.74179363250732,4.74989318847656,4.75802040100098,4.76617527008057,4.77435827255249,4.78256940841675,4.7908091545105,4.79907703399658,4.80737352371216,4.81569862365723,4.82405281066895,4.83243608474731,4.84084844589233,4.84929037094116,4.85776138305664,4.86626243591309,4.87479305267334,4.88335371017456,4.89194440841675,4.90056562423706,4.90921688079834,4.9178991317749,4.92661190032959,4.93535566329956,4.94413042068481,4.95293664932251,4.96177434921265,4.97064352035522,4.97954416275024,4.98847723007202,4.99744176864624,5.00643920898438,4.88481140136719,4.88756322860718,4.89031839370728,4.89307641983032,4.89583778381348,4.89860200881958,4.90136957168579,4.90413999557495,4.90691375732422,4.90969085693359,4.91247081756592,4.91525411605835,4.91804027557373,4.92082977294922,4.92362213134766,4.92641830444336,4.92921733856201,4.93201923370361,4.93482446670532,4.93763303756714,4.9404444694519,4.94325923919678,4.9460768699646,4.94889831542969,4.95172262191772,4.95455026626587,4.95738124847412,4.96021509170532,4.96305274963379,4.96589326858521,4.96873712539673,4.9715838432312,4.97443437576294,4.97728776931763,4.98014497756958,4.98300504684448,4.98586845397949,4.98873519897461,4.99160528182983,4.99447870254517,4.99735546112061,5.00023555755615,5.00311851501465,5.00600528717041,5.00889539718628,5.01178884506226,5.01468515396118,5.01758527755737,5.02048873901367,5.02339506149292,5.02630519866943,5.02921867370605,5.03213596343994,5.03505611419678,5.03797960281372,5.04090642929077,5.04383707046509,5.04677104949951,5.04970788955688,5.05264854431152,5.05559301376343,5.05854034423828,5.0614914894104,5.06444549560547,5.06740379333496,5.0703649520874,5.07332944869995,5.07629776000977,5.07926940917969,5.08224487304688,5.08522367477417,5.08820581436157,5.09119129180908,5.09418058395386,5.09717321395874,5.10016965866089,5.10316944122314,5.10617256164551,5.10917949676514,5.11218976974487,5.11520385742188,5.11822080612183,5.13495492935181,5.15569686889648,5.17660760879517,5.19768857955933,5.2189416885376,5.24036931991577,5.26197385787964,5.28375720977783,5.30572175979614,5.32786989212036,5.35020208358765,5.37272214889526,5.39543294906616,5.41833639144897,5.44143533706665,5.46473169326782,5.4882287979126,5.51192855834961,5.53583431243896,5.5599479675293,5.58427238464355,5.60881090164185,5.63356590270996,5.65854072570801,5.68373727798462,5.70915985107422,5.7348108291626,5.76069307327271,5.78680992126465,5.81316518783569,5.83976078033447,5.86660146713257,5.89369010925293,5.92030191421509,5.94522905349731,5.97036695480347,5.99571800231934,6.02128553390503,6.04707193374634,6.07372617721558,6.10211133956909,6.1307635307312,6.15968608856201,6.18888235092163,6.21835708618164,6.24811363220215,6.27815675735474,6.30848979949951,6.33911752700806,6.37004423141479,6.40127372741699,6.43281126022339,6.46466112136841,6.49682807922363,6.52931642532349,6.56213188171387,6.59527826309204,6.62876129150391,6.6625862121582,6.69675827026367,6.73134088516235,6.76633548736572,6.80169582366943,6.83742809295654,6.87353706359863,6.91002988815308,6.94691181182861,6.98418998718262,7.02187061309814,7.05995941162109,7.098464012146,7.13739109039307,7.17674732208252,7.21729183197021,7.26572227478027,7.31480693817139,7.36455965042114,7.41499328613281,7.4661226272583,7.51796245574951,7.57052659988403,7.61699962615967,7.66273784637451,7.70902872085571,7.75588226318359,7.80330896377563,7.85131883621216,7.89992380142212,7.94913387298584,7.99896097183228,8.04941654205322,8.10051345825195,8.15225028991699,8.20465183258057,8.25773143768311,0,0,0,0,0,0,0,0,0,0,0,0,0,0,0,0,0,0,0,0,0,0,0,0,0,0,0,0,0,0,0,0,0,0,0,0,0,0,0,0,0,0,0,0,0,0,0,0,0,0,0,0,0,0,0,0,0,0,0,0,0,0,0,0,0,0,0,0,0,0,0,0,0
0,0,0,0,0,0,0,0,0,0,0,0,0,0,0,0,0,0,0,0,0,0,0,4.34642505645752,4.35322904586792,4.36005449295044,4.36690139770508,4.37376976013184,4.38066005706787,4.38757181167603,4.39450550079346,4.40146112442017,4.40843915939331,4.41543912887573,4.42246103286743,4.42950582504272,4.43657255172729,4.44366216659546,4.45077419281006,4.45790958404541,4.4650673866272,4.47224855422974,4.47945261001587,4.48668003082275,4.49393081665039,4.50120496749878,4.50850296020508,4.51582431793213,4.52316951751709,4.53053903579712,4.53793239593506,4.54534959793091,4.55279159545898,4.56025791168213,4.56774854660034,4.57526350021362,4.58280372619629,4.59036874771118,4.59795904159546,4.60557413101196,4.61321449279785,4.62088060379028,4.6285719871521,4.6362886428833,4.6440315246582,4.65180015563965,4.65959501266479,4.66741609573364,4.67526292800903,4.68313694000244,4.69103670120239,4.69896364212036,4.70691728591919,4.71489810943604,4.7229061126709,4.73094081878662,4.73900365829468,4.74709320068359,4.75521087646484,4.76335668563843,4.77152967453003,4.77973127365112,4.78796100616455,4.79621934890747,4.80450582504272,4.81282138824463,4.82116556167603,4.82953834533691,4.83794069290161,4.84637260437012,4.85483360290527,4.86332416534424,4.87184429168701,4.88039445877075,4.88897514343262,4.89758539199829,4.90622663497925,4.91489791870117,4.92360019683838,4.93233346939087,4.94109725952148,4.94989252090454,4.95871925354004,4.96757745742798,4.97646760940552,4.9853892326355,4.99434328079224,4.89693593978882,4.8997015953064,4.90247011184692,4.90524196624756,4.90801668167114,4.91079521179199,4.91357612609863,4.91636085510254,4.91914844512939,4.9219388961792,4.92473268508911,4.92752981185913,4.93033027648926,4.93313360214233,4.93594026565552,4.93875026702881,4.94156312942505,4.9443793296814,4.94719886779785,4.95002126693726,4.95284700393677,4.95567607879639,4.95850801467896,4.96134328842163,4.96418237686157,4.9670238494873,4.9698691368103,4.97271776199341,4.97556924819946,4.97842407226562,4.98128223419189,4.98414373397827,4.98700857162476,4.98987674713135,4.99274778366089,4.9956226348877,4.99850082397461,5.00138187408447,5.0042667388916,5.00715446472168,5.01004600524902,5.01294040679932,5.01583862304688,5.01873970031738,5.02164459228516,5.02455234527588,5.02746391296387,5.03037881851196,5.03329706192017,5.03621864318848,5.03914356231689,5.04207181930542,5.04500389099121,5.04793882369995,5.05087757110596,5.05381965637207,5.05676507949829,5.05971384048462,5.06266593933105,5.06562185287476,5.06858110427856,5.07154369354248,5.07451009750366,5.07747983932495,5.08045291900635,5.08342933654785,5.08640956878662,5.0893931388855,5.09238004684448,5.09537076950073,5.09836483001709,5.10136222839355,5.10436344146729,5.10736846923828,5.11037635803223,5.11338806152344,5.11640357971191,5.1194224357605,5.12244462966919,5.1254711151123,5.12850046157837,5.1315336227417,5.13689517974854,5.15765333175659,5.17857980728149,5.19967651367188,5.22094631195068,5.24239063262939,5.2640118598938,5.28581190109253,5.30779361724854,5.32995843887329,5.3523097038269,5.37484788894653,5.39757633209229,5.42049837112427,5.44361543655396,5.46693086624146,5.4904465675354,5.5141658782959,5.53809070587158,5.5622239112854,5.58656883239746,5.6111273765564,5.63590288162231,5.66089820861816,5.68611621856689,5.71155977249146,5.73723220825195,5.76313638687134,5.78927564620972,5.8156533241272,5.84227228164673,5.86913585662842,5.89624786376953,5.92361116409302,5.94929265975952,5.97446489334106,5.99985074996948,6.02545356750488,6.05127573013306,6.07732057571411,6.10455703735352,6.13323211669922,6.16217756271362,6.19139814376831,6.22089672088623,6.25067758560181,6.28074550628662,6.31110382080078,6.34175682067871,6.37270927429199,6.40396499633789,6.43552923202515,6.46740627288818,6.49960041046143,6.53211641311646,6.56496000289917,6.59813499450684,6.63164710998535,6.66550159454346,6.69970369338989,6.73426198959351,6.769287109375,6.80467844009399,6.84044170379639,6.87658262252808,6.91310787200928,6.95002317428589,6.98733472824097,7.02504873275757,7.06317234039307,7.10171222686768,7.14067506790161,7.18006753921509,7.21989679336548,7.26694679260254,7.31604814529419,7.36581754684448,7.41626882553101,7.46741580963135,7.51927328109741,7.57185554504395,7.62126922607422,7.66705846786499,7.71340179443359,7.76030921936035,7.80778980255127,7.8558554649353,7.90451669692993,7.95378398895264,8.00366973876953,8.05418491363525,8.10534191131592,8.15714836120605,8.20961284637451,8.26275634765625,8.3165922164917,0,0,0,0,0,0,0,0,0,0,0,0,0,0,0,0,0,0,0,0,0,0,0,0,0,0,0,0,0,0,0,0,0,0,0,0,0,0,0,0,0,0,0,0,0,0,0,0,0,0,0,0,0,0,0,0,0,0,0,0,0,0,0,0,0,0,0,0,0,0,0
0,0,0,0,0,0,0,0,0,0,0,0,0,0,0,0,0,0,4.32032918930054,4.32171392440796,4.32309913635254,4.32448577880859,4.32587337493896,4.33055067062378,4.33730506896973,4.34408044815063,4.35087728500366,4.35769557952881,4.36453485488892,4.3713960647583,4.3782787322998,4.38518333435059,4.39210939407349,4.39905738830566,4.40602731704712,4.41301965713501,4.42003393173218,4.42707109451294,4.43413019180298,4.44121170043945,4.44831609725952,4.45544338226318,4.46259355545044,4.46976661682129,4.47696256637573,4.48418188095093,4.49142456054688,4.49869060516357,4.50598049163818,4.51329374313354,4.52063083648682,4.527991771698,4.53537702560425,4.54278612136841,4.55021953582764,4.55767726898193,4.5651593208313,4.57266616821289,4.58019781112671,4.58775424957275,4.59533548355103,4.60294198989868,4.61057376861572,4.61823081970215,4.62591314315796,4.63362169265747,4.64135551452637,4.64911508560181,4.65690088272095,4.66471290588379,4.67255067825317,4.68041515350342,4.68830633163452,4.69622373580933,4.70416831970215,4.71213960647583,4.72013807296753,4.72816371917725,4.73621654510498,4.74429702758789,4.75240516662598,4.76054096221924,4.76870489120483,4.77689647674561,4.78511667251587,4.79336500167847,4.8016414642334,4.80994701385498,4.81828117370605,4.82664442062378,4.83503675460815,4.84345817565918,4.85190868377686,4.8603892326355,4.86889934539795,4.87743902206421,4.88600921630859,4.89460945129395,4.90323972702026,4.91190052032471,4.92059230804443,4.92931461334229,4.93806791305542,4.946852684021,4.95566844940186,4.96451568603516,4.9733943939209,4.9823055267334,4.99124813079834,4.91189956665039,4.91468238830566,4.91746807098389,4.92025661468506,4.9230489730835,4.92584419250488,4.92864227294922,4.93144369125366,4.93424844741821,4.93705654144287,4.93986749649048,4.94268178939819,4.94549942016602,4.94831991195679,4.95114374160767,4.95397138595581,4.95680141448975,4.95963525772095,4.9624719619751,4.96531200408936,4.96815538406372,4.97100162506104,4.97385168075562,4.97670459747314,4.97956085205078,4.98242044448853,4.98528289794922,4.98814916610718,4.99101829528809,4.99389123916626,4.99676704406738,4.99964666366577,5.00252914428711,5.00541496276855,5.00830411911011,5.01119709014893,5.01409292221069,5.01699209213257,5.01989507675171,5.0228009223938,5.02571058273315,5.02862310409546,5.03153944015503,5.03445863723755,5.03738164901733,5.04030799865723,5.04323768615723,5.04617118835449,5.04910755157471,5.05204725265503,5.05499076843262,5.05793762207031,5.06088781356812,5.06384134292603,5.0667986869812,5.06975936889648,5.07272338867188,5.07569074630737,5.07866191864014,5.08163642883301,5.08461427688599,5.08759593963623,5.09058094024658,5.09356927871704,5.09656143188477,5.0995569229126,5.10255575180054,5.10555839538574,5.10856437683105,5.11157417297363,5.11458730697632,5.11760425567627,5.12062454223633,5.12364816665649,5.12667560577393,5.12970685958862,5.13274145126343,5.13577938079834,5.13882112503052,5.14186668395996,5.14491558074951,5.14796829223633,5.15961074829102,5.1805534362793,5.20166635513306,5.22295236587524,5.24441289901733,5.26605081558228,5.2878680229187,5.3098669052124,5.33204936981201,5.35441780090332,5.37697505950928,5.39972162246704,5.42266178131104,5.44579744338989,5.46913146972656,5.49266624450684,5.51640462875366,5.54034900665283,5.56450223922729,5.58886671066284,5.61344575881958,5.6382417678833,5.66325807571411,5.6884970664978,5.71396207809448,5.7396559715271,5.76558208465576,5.79174375534058,5.81814384460449,5.84478569030762,5.8716721534729,5.89880752563477,5.92619514465332,5.95336151123047,5.9785680770874,6.00398921966553,6.02962732315063,6.05548572540283,6.08156633377075,6.10787296295166,6.13570261001587,6.16467189788818,6.19391584396362,6.22343826293945,6.25324392318726,6.28333616256714,6.31371927261353,6.344398021698,6.37537622451782,6.40665864944458,6.4382495880127,6.47015333175659,6.50237464904785,6.53491878509521,6.56779050827026,6.60099458694458,6.63453578948975,6.66841983795166,6.7026515007019,6.73723649978638,6.77224111557007,6.80766296386719,6.84345769882202,6.87963104248047,6.91618871688843,6.95313692092896,6.99048185348511,7.0282301902771,7.06638860702515,7.1049633026123,7.14396190643311,7.18339061737061,7.22325706481934,7.26817178726196,7.31728982925415,7.36707592010498,7.4175443649292,7.46870899200439,7.52058458328247,7.57318544387817,7.62554311752319,7.67138433456421,7.71778011322021,7.76474046707153,7.81227588653564,7.86039686203003,7.90911436080933,7.95843935012817,8.00838375091553,8.05895900726318,8.11017608642578,8.16204929351807,8.21457862854004,8.26778697967529,8.32168960571289,0,0,0,0,0,0,0,0,0,0,0,0,0,0,0,0,0,0,0,0,0,0,0,0,0,0,0,0,0,0,0,0,0,0,0,0,0,0,0,0,0,0,0,0,0,0,0,0,0,0,0,0,0,0,0,0,0,0,0,0,0,0,0,0,0,0,0,0,0,0
0,0,0,0,0,0,0,0,0,0,0,0,0,0,4.30406045913696,4.3054347038269,4.30680990219116,4.30818605422974,4.30956268310547,4.31094074249268,4.31231927871704,4.31369876861572,4.31507921218872,4.31646060943604,4.32149696350098,4.32822322845459,4.33497047424316,4.3417387008667,4.34852838516235,4.35533905029297,4.3621711730957,4.36902475357056,4.37589979171753,4.38279676437378,4.38971567153931,4.39665603637695,4.40361833572388,4.41060304641724,4.41760969161987,4.42463874816895,4.43169021606445,4.4387640953064,4.44586086273193,4.45298004150391,4.46012210845947,4.46728754043579,4.47447538375854,4.48168659210205,4.48892164230347,4.49617958068848,4.50346088409424,4.51076602935791,4.51809501647949,4.52544784545898,4.53282451629639,4.5402250289917,4.54765033721924,4.55509948730469,4.56257343292236,4.57007169723511,4.57759475708008,4.58514213562012,4.5927152633667,4.60031270980835,4.60793590545654,4.61558437347412,4.62325811386108,4.63095712661743,4.63868236541748,4.64643335342407,4.65420961380005,4.66201257705688,4.66984176635742,4.67769718170166,4.6855788230896,4.6934871673584,4.70142269134521,4.70938444137573,4.71737337112427,4.72538995742798,4.73343324661255,4.74150419235229,4.74960279464722,4.75772905349731,4.76588296890259,4.7740650177002,4.78227519989014,4.79051399230957,4.79878091812134,4.8070764541626,4.81540060043335,4.82375383377075,4.83213567733765,4.84054708480835,4.8489875793457,4.85745811462402,4.86595773696899,4.87448740005493,4.88304710388184,4.89163637161255,4.90025663375854,4.90890693664551,4.9175877571106,4.92629957199097,4.93504238128662,4.94381618499756,4.95262098312378,4.96145725250244,4.9703254699707,4.97922515869141,4.98815679550171,4.92695569992065,4.92975521087646,4.93255805969238,4.93536376953125,4.93817281723022,4.94098520278931,4.9438009262085,4.94661998748779,4.94944190979004,4.95226716995239,4.9550952911377,4.95792722702026,4.96076202392578,4.96360015869141,4.96644163131714,4.96928644180298,4.97213411331177,4.97498559951782,4.97783994674683,4.98069763183594,4.98355865478516,4.98642253875732,4.98929023742676,4.99216079711914,4.99503469467163,4.99791193008423,5.00079298019409,5.0036768913269,5.00656414031982,5.00945472717285,5.01234865188599,5.01524591445923,5.01814651489258,5.02105045318604,5.0239577293396,5.02686882019043,5.02978277206421,5.0327000617981,5.03562116622925,5.03854560852051,5.04147291183472,5.04440402984619,5.04733848571777,5.05027675628662,5.05321788787842,5.05616283416748,5.05911064147949,5.06206226348877,5.06501770019531,5.0679759979248,5.07093811035156,5.07390356063843,5.0768723487854,5.07984495162964,5.08282089233398,5.08580017089844,5.088782787323,5.09176921844482,5.09475898742676,5.09775257110596,5.10074949264526,5.10374975204468,5.10675382614136,5.10976123809814,5.1127724647522,5.11578702926636,5.11880493164062,5.12182664871216,5.12485218048096,5.12788105010986,5.13091325759888,5.13394927978516,5.1369891166687,5.14003229141235,5.14307928085327,5.1461296081543,5.14918375015259,5.15224123001099,5.15530252456665,5.15836763381958,5.16143608093262,5.16450834274292,5.18252849578857,5.20365762710571,5.22495985031128,5.24643707275391,5.26809167861938,5.28992605209351,5.31194162368774,5.33414173126221,5.35652780532837,5.37910270690918,5.40186882019043,5.42482709884644,5.44798135757446,5.4713339805603,5.4948878288269,5.51864528656006,5.54260921478271,5.56678199768066,5.59116649627686,5.6157660484314,5.64058256149292,5.66561937332153,5.69087982177734,5.71636581420898,5.74208164215088,5.76802968978882,5.79421377182007,5.82063627243042,5.84730100631714,5.87421083450317,5.90137004852295,5.92878103256226,5.95644807815552,5.9826774597168,6.00813341140747,6.03380727767944,6.05970144271851,6.08581876754761,6.1121621131897,6.13873434066772,6.16716766357422,6.19643545150757,6.22598218917847,6.25581169128418,6.28592920303345,6.31633758544922,6.34704160690308,6.3780460357666,6.4093542098999,6.44097185134888,6.47290277481079,6.50515174865723,6.53772354125977,6.57062339782715,6.60385608673096,6.63742685317993,6.67134046554565,6.70560216903687,6.74021768569946,6.77519750595093,6.81065034866333,6.84647703170776,6.88268184661865,6.91927194595337,6.95625352859497,6.9936318397522,7.03141450881958,7.06960725784302,7.10821771621704,7.14725208282471,7.18671703338623,7.2266206741333,7.26939678192139,7.31853151321411,7.36833477020264,7.41882038116455,7.4700026512146,7.52189636230469,7.57451581954956,7.62787675857544,7.67571544647217,7.72216367721558,7.76917743682861,7.81676721572876,7.86494398117065,7.91371774673462,7.96310043334961,8.01310348510742,8.0637378692627,8.11501693725586,8.16695213317871,8.2195520401001,8.27282428741455,8.32679271697998,0,0,0,0,0,0,0,0,0,0,0,0,0,0,0,0,0,0,0,0,0,0,0,0,0,0,0,0,0,0,0,0,0,0,0,0,0,0,0,0,0,0,0,0,0,0,0,0,0,0,0,0,0,0,0,0,0,0,0,0,0,0,0,0,0,0,0,0,0
0,0,0,0,0,0,0,0,0,4.28655052185059,4.28791379928589,4.28927755355835,4.29064226150513,4.29200839996338,4.29337501525879,4.29474258422852,4.2961106300354,4.29748010635376,4.29885005950928,4.30022144317627,4.30159330368042,4.30296564102173,4.30433940887451,4.30571413040161,4.30708932876587,4.31248140335083,4.31917953491211,4.32589864730835,4.33263874053955,4.33939933776855,4.34618186950684,4.35298538208008,4.35980987548828,4.36665630340576,4.3735237121582,4.38041305541992,4.38732433319092,4.39425706863403,4.40121221542358,4.40818881988525,4.41518783569336,4.4222092628479,4.42925310134888,4.43631935119629,4.44340801239014,4.45051956176758,4.45765352249146,4.46481084823608,4.47199106216431,4.47919416427612,4.48642110824585,4.49367094039917,4.50094413757324,4.50824117660522,4.51556205749512,4.52290630340576,4.53027486801147,4.5376672744751,4.54508399963379,4.55252456665039,4.55998992919922,4.56748008728027,4.5749945640564,4.58253383636475,4.59009790420532,4.59768676757812,4.60530138015747,4.61294078826904,4.62060546875,4.6282958984375,4.63601207733154,4.64375400543213,4.65152168273926,4.65931558609009,4.66713571548462,4.67498207092285,4.68285465240479,4.69075393676758,4.69867944717407,4.70663261413574,4.71461200714111,4.72261905670166,4.73065328598022,4.73871469497681,4.74680328369141,4.75492000579834,4.76306438446045,4.77123689651489,4.77943754196167,4.78766632080078,4.79592323303223,4.80420875549316,4.81252336502075,4.82086658477783,4.8292384147644,4.83763980865479,4.84607028961182,4.85453033447266,4.8630199432373,4.87153911590576,4.88008832931519,4.88866758346558,4.89727687835693,4.90591669082642,4.91458702087402,4.92328834533691,4.93202018737793,4.94078350067139,4.94957733154297,4.95840311050415,4.96725988388062,4.97614908218384,4.98506927490234,4.94210386276245,4.94492053985596,4.94774055480957,4.95056390762329,4.95339059829712,4.9562201499939,4.95905303955078,4.96188926696777,4.96472883224487,4.96757173538208,4.97041749954224,4.9732666015625,4.97611904144287,4.97897481918335,4.98183393478394,4.98469638824463,4.98756217956543,4.99043083190918,4.9933032989502,4.99617862701416,4.99905729293823,5.00193977355957,5.00482511520386,5.00771331787109,5.0106053352356,5.01350069046021,5.01639938354492,5.01930141448975,5.02220678329468,5.02511548995972,5.02802753448486,5.03094291687012,5.03386163711548,5.03678417205811,5.03970956802368,5.04263877868652,5.04557132720947,5.04850673675537,5.05144643783569,5.05438899993896,5.05733489990234,5.06028461456299,5.06323766708374,5.0661940574646,5.06915378570557,5.0721173286438,5.07508420944214,5.07805442810059,5.08102798461914,5.08400535583496,5.08698606491089,5.08997058868408,5.09295845031738,5.09594964981079,5.09894418716431,5.10194253921509,5.10494422912598,5.10794973373413,5.11095857620239,5.11397123336792,5.11698722839355,5.1200065612793,5.1230297088623,5.12605667114258,5.12908697128296,5.13212060928345,5.1351580619812,5.13819932937622,5.14124393463135,5.14429235458374,5.14734411239624,5.15039968490601,5.15345859527588,5.15652132034302,5.15958786010742,5.16265773773193,5.16573190689087,5.16880893707275,5.17189025878906,5.17497491836548,5.17806339263916,5.18450498580933,5.20565032958984,5.22696876525879,5.24846267700195,5.27013397216797,5.29198551177979,5.31401824951172,5.33623552322388,5.35863924026489,5.38123226165771,5.40401649475098,5.42699384689331,5.45016670227051,5.47353792190552,5.49711084365845,5.52088785171509,5.54487133026123,5.56906366348267,5.59346866607666,5.61808776855469,5.64292526245117,5.66798305511475,5.69326448440552,5.71877193450928,5.74450969696045,5.77047967910767,5.79668569564819,5.82313060760498,5.84981870651245,5.87675189971924,5.90393400192261,5.93136930465698,5.95906066894531,5.98679208755493,6.01228332519531,6.03799295425415,6.06392288208008,6.0900764465332,6.11645698547363,6.14306688308716,6.16990900039673,6.19895696640015,6.22852802276611,6.25838232040405,6.28852415084839,6.31895780563354,6.34968757629395,6.38071775436401,6.41205263137817,6.44369649887085,6.47565460205078,6.50793123245239,6.54053068161011,6.57345914840698,6.60672044754028,6.64032030105591,6.67426347732544,6.70855522155762,6.7432017326355,6.77820730209351,6.81364059448242,6.84949827194214,6.88573551177979,6.92235851287842,6.95937252044678,6.99678516387939,7.03460168838501,7.072829246521,7.11147499084473,7.15054512023926,7.19004678726196,7.22998714447021,7.27062225341797,7.31977367401123,7.36959409713745,7.42009687423706,7.47129678726196,7.52320861816406,7.57584667205811,7.62922620773315,7.68005084991455,7.72655200958252,7.77361917495728,7.82126379013062,7.86949586868286,7.91832637786865,7.96776723861694,8.01782894134521,8.06852340698242,8.11986351013184,8.17186069488525,8.22452831268311,8.27786731719971,8.33190155029297,8.38664531707764,0,0,0,0,0,0,0,0,0,0,0,0,0,0,0,0,0,0,0,0,0,0,0,0,0,0,0,0,0,0,0,0,0,0,0,0,0,0,0,0,0,0,0,0,0,0,0,0,0,0,0,0,0,0,0,0,0,0,0,0,0,0,0,0,0,0,0
0,0,0,0,4.26918268203735,4.27053451538086,4.27188777923584,4.27324151992798,4.27459621429443,4.27595186233521,4.27730846405029,4.27866554260254,4.2800235748291,4.28138256072998,4.28274250030518,4.28410339355469,4.28546476364136,4.28682708740234,4.28819036483765,4.28955507278442,4.2909197807312,4.29228591918945,4.29365301132202,4.29502058029175,4.29638910293579,4.29775857925415,4.30350303649902,4.31017351150513,4.31686449050903,4.3235764503479,4.33030891418457,4.33706283569336,4.34383773803711,4.35063409805298,4.35745096206665,4.3642897605896,4.37115001678467,4.37803220748901,4.38493585586548,4.39186096191406,4.39880847930908,4.40577745437622,4.41276884078979,4.4197826385498,4.42681884765625,4.43387699127197,4.44095802307129,4.44806146621704,4.45518779754639,4.46233749389648,4.46950960159302,4.47670459747314,4.48392343521118,4.49116516113281,4.4984302520752,4.50571918487549,4.51303195953369,4.52036809921265,4.52772808074951,4.53511238098145,4.54252052307129,4.5499529838562,4.55740976333618,4.56489133834839,4.57239723205566,4.57992792129517,4.58748340606689,4.59506368637085,4.60266923904419,4.61030006408691,4.61795663833618,4.62563800811768,4.63334512710571,4.64107799530029,4.64883708953857,4.6566219329834,4.66443252563477,4.67226982116699,4.68013334274292,4.68802356719971,4.6959400177002,4.7038836479187,4.71185398101807,4.71985149383545,4.72787618637085,4.73592805862427,4.74400758743286,4.75211477279663,4.76024961471558,4.7684121131897,4.77660274505615,4.7848219871521,4.79306936264038,4.801344871521,4.80964946746826,4.81798267364502,4.82634449005127,4.83473587036133,4.84315633773804,4.8516058921814,4.86008548736572,4.8685941696167,4.8771333694458,4.88570213317871,4.89430093765259,4.90293025970459,4.91159009933472,4.92028093338013,4.9290018081665,4.93775415420532,4.94653749465942,4.95535230636597,4.96419858932495,4.97307634353638,4.9819860458374,4.95734548568726,4.96017980575562,4.96301746368408,4.9658579826355,4.96870183944702,4.97154951095581,4.97440004348755,4.97725343704224,4.98011064529419,4.98297119140625,4.98583459854126,4.98870182037354,4.99157190322876,4.99444532394409,4.99732208251953,5.00020217895508,5.00308609008789,5.00597286224365,5.00886297225952,5.0117564201355,5.01465320587158,5.01755332946777,5.02045679092407,5.02336359024048,5.02627325057983,5.02918672561646,5.03210353851318,5.03502368927002,5.03794765472412,5.04087448120117,5.04380464553833,5.04673862457275,5.04967594146729,5.05261659622192,5.05556058883667,5.05850791931152,5.06145906448364,5.06441307067871,5.06737089157104,5.07033252716064,5.07329702377319,5.07626533508301,5.07923698425293,5.08221197128296,5.08519077301025,5.08817291259766,5.09115886688232,5.09414768218994,5.09714031219482,5.10013675689697,5.10313653945923,5.10613965988159,5.10914611816406,5.11215686798096,5.1151704788208,5.11818790435791,5.12120866775513,5.12423324584961,5.12726163864136,5.13029336929321,5.13332843780518,5.1363673210144,5.1394100189209,5.1424560546875,5.14550590515137,5.14855909347534,5.15161609649658,5.15467643737793,5.1577410697937,5.16080856323242,5.16388034820557,5.16695547103882,5.17003440856934,5.17311668395996,5.17620325088501,5.17929267883301,5.18238639831543,5.18548393249512,5.18858480453491,5.19168949127197,5.1947979927063,5.20764446258545,5.22897958755493,5.25049018859863,5.27217817306519,5.29404640197754,5.31609630584717,5.33833122253418,5.36075258255005,5.38336324691772,5.406165599823,5.4291615486145,5.45235395431519,5.47574424743652,5.49933576583862,5.52313184738159,5.54713487625122,5.57134771347046,5.59577226638794,5.62041187286377,5.64526987075806,5.67034864425659,5.69565105438232,5.72118043899536,5.74693965911865,5.77293157577515,5.79916000366211,5.82562780380249,5.8523383140564,5.87929487228394,5.90650081634521,5.9339599609375,5.96167516708374,5.98965072631836,6.01643943786621,6.0421838760376,6.06815004348755,6.09434032440186,6.12075805664062,6.14740514755249,6.17428541183472,6.20148086547852,6.23107576370239,6.2609543800354,6.29112148284912,6.32158041000366,6.35233545303345,6.38339138031006,6.41475248336792,6.44642353057861,6.47840881347656,6.51071262359619,6.5433406829834,6.57629728317261,6.6095871925354,6.64321613311768,6.67718935012817,6.71151113510132,6.74618816375732,6.78122520446777,6.8166332244873,6.85252285003662,6.88879203796387,6.92544746398926,6.96249485015869,6.99994087219238,7.03779172897339,7.07605409622192,7.11473512649536,7.15384101867676,7.19337940216064,7.23335695266724,7.27378177642822,7.32101631164551,7.37085342407227,7.42137384414673,7.47259140014648,7.5245213508606,7.57717752456665,7.63057613372803,7.68439149856567,7.73094511032104,7.77806615829468,7.82576560974121,7.87405347824097,7.92294073104858,7.97243881225586,8.02255916595459,8.07331466674805,8.12471580505371,8.1767749786377,8.22950649261475,8.28291702270508,8.33701705932617,8.3918285369873,0,0,0,0,0,0,0,0,0,0,0,0,0,0,0,0,0,0,0,0,0,0,0,0,0,0,0,0,0,0,0,0,0,0,0,0,0,0,0,0,0,0,0,0,0,0,0,0,0,0,0,0,0,0,0,0,0,0,0,0,0,0,0,0,0,0
4.2532958984375,4.25463819503784,4.25598096847534,4.25732469558716,4.25866937637329,4.26001501083374,4.26136112213135,4.26270818710327,4.26405668258667,4.26540565490723,4.26675510406494,4.26810598373413,4.26945734024048,4.27080965042114,4.27216243743896,4.27351665496826,4.27487134933472,4.27622747421265,4.27758407592773,4.27894115447998,4.2802996635437,4.28165864944458,4.28301858901978,4.28437995910645,4.28574132919312,4.28710412979126,4.28846788406372,4.29456233978271,4.30120468139648,4.30786800384521,4.31455183029175,4.32125663757324,4.3279824256897,4.33472871780396,4.34149599075317,4.34828519821167,4.35509490966797,4.36192655563354,4.36877918243408,4.3756537437439,4.38254976272583,4.38946771621704,4.39640712738037,4.40336894989014,4.41035270690918,4.41735887527466,4.42438697814941,4.43143749237061,4.43851089477539,4.44560670852661,4.45272493362427,4.45986652374268,4.46703052520752,4.47421789169312,4.48142862319946,4.4886622428894,4.4959192276001,4.5032000541687,4.51050424575806,4.51783227920532,4.5251841545105,4.53255987167358,4.53995990753174,4.54738426208496,4.55483245849609,4.56230545043945,4.56980276107788,4.57732486724854,4.58487176895142,4.59244394302368,4.60004091262817,4.60766267776489,4.61531019210815,4.6229829788208,4.63068151473999,4.63840532302856,4.64615535736084,4.65393114089966,4.66173315048218,4.66956090927124,4.67741537094116,4.68529605865479,4.69320392608643,4.70113801956177,4.70909929275513,4.71708726882935,4.72510242462158,4.73314476013184,4.74121475219727,4.74931240081787,4.75743770599365,4.76559066772461,4.7737717628479,4.78198099136353,4.79021835327148,4.79848432540894,4.80677890777588,4.81510210037231,4.8234543800354,4.83183526992798,4.84024572372437,4.8486852645874,4.85715436935425,4.8656530380249,4.87418174743652,4.88274002075195,4.89132881164551,4.89994764328003,4.90859699249268,4.91727685928345,4.92598724365234,4.93472909927368,4.94350147247314,4.95230531692505,4.96114063262939,4.97000741958618,4.97890615463257,4.97268152236938,4.9755334854126,4.97838830947876,4.98124694824219,4.98410844802856,4.98697328567505,4.98984146118164,4.9927134513855,4.9955883026123,4.99846601486206,5.00134754180908,5.00423240661621,5.00712060928345,5.01001214981079,5.01290702819824,5.0158052444458,5.01870679855347,5.02161169052124,5.02451992034912,5.02743148803711,5.03034639358521,5.03326463699341,5.03618669509888,5.03911161422729,5.04203987121582,5.04497146606445,5.04790639877319,5.0508451461792,5.05378723144531,5.05673265457153,5.05968141555786,5.06263399124146,5.065589427948,5.06854867935181,5.07151126861572,5.0744776725769,5.07744693756104,5.08042001724243,5.08339643478394,5.08637666702271,5.08936023712158,5.09234714508057,5.09533786773682,5.09833192825317,5.10132932662964,5.10433053970337,5.10733509063721,5.11034345626831,5.11335515975952,5.11637020111084,5.11938905715942,5.12241172790527,5.12543773651123,5.12846708297729,5.13150024414062,5.13453722000122,5.13757753372192,5.14062118530273,5.14366865158081,5.14671993255615,5.14977502822876,5.15283298492432,5.1558952331543,5.15896081924438,5.16203022003174,5.16510343551636,5.16817998886108,5.17125988006592,5.17434406280518,5.17743158340454,5.18052291870117,5.18361806869507,5.18671703338623,5.1898193359375,5.19292545318604,5.19603538513184,5.1991491317749,5.20226621627808,5.20538759231567,5.20851230621338,5.21164083480835,5.23099184036255,5.25251865386963,5.27422380447388,5.29610872268677,5.31817626953125,5.34042835235596,5.36286735534668,5.38549613952637,5.40831613540649,5.43133068084717,5.45454216003418,5.477952003479,5.50156259536743,5.52537822723389,5.549400806427,5.57363319396973,5.59807777404785,5.62273788452148,5.64761638641357,5.67271614074707,5.69803953170776,5.72359037399292,5.74937105178833,5.77538537979126,5.80163621902466,5.82812690734863,5.85486030578613,5.88183975219727,5.90907001495361,5.93655252456665,5.96429204940796,5.9922924041748,6.02055692672729,6.04638147354126,6.07238340377808,6.09861040115356,6.12506484985352,6.15175008773804,6.17866849899292,6.20582342147827,6.23362588882446,6.26352882385254,6.29372072219849,6.32420492172241,6.35498571395874,6.38606786727905,6.41745519638062,6.44915294647217,6.48116493225098,6.51349687576294,6.54615259170532,6.57913732528687,6.61245632171631,6.64611482620239,6.6801176071167,6.71446990966797,6.74917697906494,6.78424549102783,6.81967973709106,6.85554981231689,6.89185094833374,6.92853927612305,6.9656195640564,7.00309944152832,7.04098463058472,7.0792818069458,7.11799812316895,7.15714025497437,7.19671487808228,7.23672962188721,7.27719259262085,7.32225942611694,7.3721137046814,7.42265129089355,7.47388696670532,7.52583456039429,7.57850933074951,7.63192653656006,7.68610239028931,7.73534345626831,7.78251838684082,7.83027219772339,7.87861585617065,7.92756032943726,7.97711658477783,8.02729606628418,8.07811069488525,8.12957382202148,8.18169593811035,8.23449039459229,8.28797149658203,8.34213924407959,8.39701843261719,0,0,0,0,0,0,0,0,0,0,0,0,0,0,0,0,0,0,0,0,0,0,0,0,0,0,0,0,0,0,0,0,0,0,0,0,0,0,0,0,0,0,0,0,0,0,0,0,0,0,0,0,0,0,0,0,0,0,0,0,0,0,0,0,0
4.24286079406738,4.24419641494751,4.24553298950195,4.24687004089355,4.24820804595947,4.24954700469971,4.25088691711426,4.25222730636597,4.25356864929199,4.25491094589233,4.25625371932983,4.25759792327881,4.25894260406494,4.26028823852539,4.26163482666016,4.26298236846924,4.26433038711548,4.26567935943604,4.26702928543091,4.2683801651001,4.2697319984436,4.27108430862427,4.27243757247925,4.27379179000854,4.27514696121216,4.27650260925293,4.27785968780518,4.27921724319458,4.28565835952759,4.29227352142334,4.29890918731689,4.30556535720825,4.31224203109741,4.31893920898438,4.32565784454346,4.33239698410034,4.33915710449219,4.34593868255615,4.35274124145508,4.35956525802612,4.36641073226929,4.37327766418457,4.38016653060913,4.38707685470581,4.39400863647461,4.40096282958984,4.40793895721436,4.4149374961853,4.42195796966553,4.42900085449219,4.43606615066528,4.44315385818481,4.4502649307251,4.45739793777466,4.46455430984497,4.47173404693604,4.47893619537354,4.48616218566895,4.49341106414795,4.50068378448486,4.50797986984253,4.51529979705811,4.52264308929443,4.53001070022583,4.53740215301514,4.54481792449951,4.55225801467896,4.55972242355347,4.56721162796021,4.57472515106201,4.58226346969604,4.5898265838623,4.59741497039795,4.60502815246582,4.61266708374023,4.62033128738403,4.62802076339722,4.63573551177979,4.64347648620605,4.65124368667603,4.65903615951538,4.6668553352356,4.67470073699951,4.68257236480713,4.69047069549561,4.69839572906494,4.70634746551514,4.71432638168335,4.72233200073242,4.73036527633667,4.73842573165894,4.74651336669922,4.75462913513184,4.76277256011963,4.77094411849976,4.77914333343506,4.78737115859985,4.79562711715698,4.8039116859436,4.81222534179688,4.82056713104248,4.82893848419189,4.8373384475708,4.84576797485352,4.85422706604004,4.86271524429321,4.87123346328735,4.87978172302246,4.88836002349854,4.89696836471558,4.90560722351074,4.91427659988403,4.92297649383545,4.93170738220215,4.94046926498413,4.9492621421814,4.9580864906311,4.96694278717041,4.975830078125,4.98474979400635,4.99098253250122,4.99385499954224,4.99673128128052,4.99961090087891,5.0024938583374,5.00537967681885,5.00826930999756,5.01116228103638,5.01405811309814,5.01695775985718,5.01986074447632,5.02276659011841,5.02567625045776,5.02858924865723,5.0315055847168,5.03442525863647,5.03734827041626,5.04027509689331,5.04320478439331,5.04613828659058,5.04907464981079,5.05201482772827,5.05495834350586,5.05790519714355,5.06085538864136,5.06380891799927,5.06676626205444,5.06972694396973,5.07269096374512,5.07565832138062,5.07862949371338,5.08160352706909,5.08458185195923,5.08756303787231,5.09054803848267,5.09353637695312,5.09652853012085,5.09952402114868,5.10252285003662,5.10552549362183,5.10853147506714,5.11154127120972,5.1145544052124,5.1175708770752,5.12059116363525,5.12361478805542,5.12664270401001,5.12967348098755,5.13270807266235,5.13574600219727,5.13878774642944,5.14183330535889,5.14488220214844,5.14793491363525,5.15099096298218,5.15405082702637,5.15711450576782,5.16018152236938,5.16325235366821,5.16632652282715,5.16940498352051,5.17248630523682,5.17557191848755,5.17866086959839,5.18175411224365,5.18485021591187,5.1879506111145,5.19105434417725,5.19416236877441,5.19727373123169,5.20038843154907,5.20350742340088,5.20663022994995,5.20975637435913,5.21288633346558,5.21602010726929,5.21915817260742,5.22229909896851,5.22544431686401,5.23300552368164,5.25454902648926,5.27627086639404,5.29817295074463,5.32025766372681,5.34252738952637,5.36498403549194,5.38763046264648,5.41046905517578,5.43350172042847,5.45673179626465,5.48016119003296,5.50379133224487,5.52762603759766,5.55166816711426,5.57592058181763,5.6003851890564,5.62506580352783,5.64996480941772,5.67508554458618,5.70043039321899,5.72600269317627,5.75180530548096,5.77784156799316,5.804114818573,5.83062791824341,5.8573842048645,5.88438749313354,5.91164064407349,5.93914747238159,5.96691179275513,5.9949369430542,6.02322626113892,6.05058431625366,6.07662296295166,6.10288619995117,6.12937784194946,6.15610074996948,6.18305730819702,6.21025133132935,6.23768520355225,6.26610565185547,6.29632234573364,6.32683181762695,6.35763835906982,6.38874626159668,6.42015981674194,6.45188426971436,6.48392391204834,6.51628303527832,6.54896688461304,6.58198022842407,6.61532831192017,6.6490159034729,6.68304824829102,6.71743059158325,6.75216913223267,6.78726816177368,6.82273435592651,6.85857963562012,6.89491319656372,6.93163394927979,6.96874761581421,7.00626087188721,7.04418039321899,7.08251285552979,7.12126445770264,7.16044235229492,7.20005369186401,7.24010610580444,7.28060626983643,7.32350301742554,7.37337398529053,7.42392921447754,7.47518253326416,7.52714824676514,7.57984161376953,7.63327789306641,7.68747282028198,7.73974657058716,7.78697538375854,7.83478450775146,7.88318395614624,7.93218517303467,7.98179960250854,8.03203773498535,8.08291339874268,8.13443660736084,8.18662166595459,8.23948097229004,8.29302597045898,8.34726810455322,8.40221405029297,8.45788955688477,0,0,0,0,0,0,0,0,0,0,0,0,0,0,0,0,0,0,0,0,0,0,0,0,0,0,0,0,0,0,0,0,0,0,0,0,0,0,0,0,0,0,0,0,0,0,0,0,0,0,0,0,0,0,0,0,0,0,0,0,0,0,0
4.23247671127319,4.23380565643311,4.23513555526733,4.23646640777588,4.23779773712158,4.2391300201416,4.24046325683594,4.24179744720459,4.2431321144104,4.24446773529053,4.24580430984497,4.24714183807373,4.24847984313965,4.24981880187988,4.25115871429443,4.2524995803833,4.25384092330933,4.25518369674683,4.25652694702148,4.25787115097046,4.25921583175659,4.2605619430542,4.26190853118896,4.26325607299805,4.26460456848145,4.265953540802,4.26730394363403,4.26865482330322,4.27022409439087,4.2767915725708,4.28337907791138,4.28998708724976,4.29661560058594,4.30326461791992,4.30993413925171,4.31662464141846,4.32333564758301,4.33006811141968,4.33682060241699,4.34359502792358,4.35039043426514,4.35720682144165,4.36404514312744,4.37090444564819,4.37778568267822,4.38468837738037,4.3916130065918,4.3985595703125,4.40552806854248,4.41251850128174,4.41953134536743,4.42656660079956,4.43362426757812,4.44070434570312,4.44780731201172,4.45493268966675,4.46208095550537,4.46925258636475,4.47644710540771,4.48366451263428,4.49090576171875,4.49816989898682,4.50545787811279,4.51276969909668,4.52010488510132,4.52746438980103,4.53484773635864,4.54225492477417,4.54968643188477,4.55714273452759,4.56462287902832,4.57212829589844,4.57965803146362,4.58721256256104,4.59479236602783,4.60239696502686,4.61002683639526,4.61768198013306,4.62536287307739,4.63306903839111,4.64080095291138,4.64855909347534,4.65634298324585,4.6641526222229,4.67198896408081,4.67985153198242,4.68774080276489,4.69565629959106,4.70359897613525,4.7115683555603,4.71956491470337,4.72758865356445,4.73563957214355,4.74371814727783,4.75182390213013,4.75995779037476,4.76811981201172,4.77630949020386,4.78452730178833,4.79277372360229,4.80104827880859,4.80935192108154,4.81768369674683,4.82604503631592,4.8344349861145,4.84285449981689,4.85130310058594,4.85978126525879,4.86828947067261,4.87682723999023,4.88539505004883,4.89399290084839,4.90262126922607,4.91127967834473,4.91996908187866,4.92868947982788,4.93744039535522,4.94622278213501,4.95503616333008,4.96388149261475,4.97275829315186,4.98166656494141,4.99060726165771,4.99957942962646,5.00858449935913,5.01520967483521,5.01811075210571,5.02101469039917,5.02392244338989,5.02683353424072,5.0297474861145,5.03266525268555,5.0355863571167,5.03851079940796,5.04143857955933,5.0443696975708,5.04730463027954,5.05024290084839,5.05318403244019,5.05612897872925,5.05907773971558,5.06202936172485,5.0649847984314,5.06794309616089,5.07090520858765,5.07387113571167,5.07683992385864,5.07981204986572,5.08278799057007,5.08576726913452,5.08875036239624,5.09173631668091,5.09472608566284,5.09771966934204,5.10071659088135,5.10371685028076,5.10672092437744,5.10972833633423,5.11273908615112,5.11575365066528,5.11877202987671,5.12179374694824,5.12481880187988,5.12784767150879,5.1308798789978,5.13391590118408,5.13695573806763,5.13999891281128,5.14304542541504,5.14609622955322,5.14915037155151,5.15220785140991,5.15526914596558,5.15833377838135,5.16140270233154,5.16447496414185,5.16755056381226,5.17063045501709,5.17371368408203,5.17680025100708,5.17989110946655,5.18298530578613,5.18608331680298,5.18918514251709,5.19229030609131,5.19539928436279,5.19851207733154,5.20162868499756,5.20474910736084,5.20787334442139,5.21100091934204,5.21413278579712,5.2172679901123,5.22040700912476,5.22354984283447,5.22669649124146,5.2298469543457,5.23300123214722,5.23615980148315,5.23932123184204,5.24248695373535,5.25658130645752,5.27831983566284,5.30023908615112,5.322340965271,5.34462785720825,5.36710262298584,5.38976669311523,5.41262340545654,5.4356746673584,5.45892286300659,5.48237085342407,5.50602197647095,5.52987575531006,5.5539379119873,5.57820987701416,5.60269451141357,5.62739562988281,5.65231561660767,5.67745685577393,5.70282316207886,5.72841691970825,5.75424146652222,5.7802996635437,5.80659532546997,5.83313131332397,5.85991048812866,5.88693714141846,5.91421413421631,5.94174528121948,5.96953344345093,5.99758291244507,6.02589750289917,6.05448055267334,6.08086776733398,6.10716819763184,6.13369703292847,6.16045761108398,6.18745279312134,6.21468496322632,6.24215841293335,6.26987552642822,6.29892587661743,6.32946062088013,6.36029291152954,6.3914270401001,6.42286729812622,6.45461845397949,6.48668479919434,6.51907205581665,6.5517840385437,6.58482551574707,6.61820220947266,6.6519193649292,6.68598175048828,6.72039461135864,6.75516319274902,6.79029369354248,6.82579183578491,6.86166286468506,6.89797735214233,6.93473100662231,6.97187805175781,7.00942516326904,7.04737901687622,7.08574628829956,7.12453317642212,7.16374731063843,7.20339584350586,7.24348497390747,7.28402328491211,7.32501792907715,7.37463521957397,7.42520761489868,7.47647857666016,7.52846240997314,7.58117389678955,7.6346287727356,7.68884325027466,7.74383306503296,7.79143810272217,7.83930158615112,7.88775730133057,7.93681526184082,7.986487865448,8.03678607940674,8.08772087097168,8.13930606842041,8.19155406951904,8.24447631835938,8.29808807373047,8.3523998260498,8.40741634368896,8.46316051483154,0,0,0,0,0,0,0,0,0,0,0,0,0,0,0,0,0,0,0,0,0,0,0,0,0,0,0,0,0,0,0,0,0,0,0,0,0,0,0,0,0,0,0,0,0,0,0,0,0,0,0,0,0,0,0,0,0,0,0,0,0,0
4.22214365005493,4.22346591949463,4.22478914260864,4.22611331939697,4.22743844985962,4.22876453399658,4.2300910949707,4.23141860961914,4.23274660110474,4.23407602310181,4.23540592193604,4.23673677444458,4.23806858062744,4.23940086364746,4.2407341003418,4.24206876754761,4.24340343475342,4.2447395324707,4.24607610702515,4.24741363525391,4.24875164031982,4.25009107589722,4.25143098831177,4.25277185440063,4.25411367416382,4.25545644760132,4.25679969787598,4.25814437866211,4.2594895362854,4.26142072677612,4.26796102523804,4.27452182769775,4.28110218048096,4.28770351409912,4.29432487487793,4.30096673965454,4.30762910842896,4.31431245803833,4.32101631164551,4.32774114608765,4.33448696136475,4.34125375747681,4.34804153442383,4.35485076904297,4.36168146133423,4.36853361129761,4.37540721893311,4.38230276107788,4.38921976089478,4.39615869522095,4.4031195640564,4.41010236740112,4.41710758209229,4.42413473129272,4.43118476867676,4.43825721740723,4.44535207748413,4.45246982574463,4.45961046218872,4.46677398681641,4.47396039962769,4.48117017745972,4.48840284347534,4.49565935134888,4.50293922424316,4.5102424621582,4.51756954193115,4.52492094039917,4.53229570388794,4.53969478607178,4.54711818695068,4.5545654296875,4.56203746795654,4.56953430175781,4.57705545425415,4.58460140228271,4.59217262268066,4.59976863861084,4.60738945007324,4.61503601074219,4.62270784378052,4.63040542602539,4.63812875747681,4.64587736129761,4.65365219116211,4.66145324707031,4.66928052902222,4.67713403701782,4.68501377105713,4.69292020797729,4.70085382461548,4.70881366729736,4.71680068969727,4.72481536865234,4.73285675048828,4.74092578887939,4.74902248382568,4.75714635848999,4.76529836654663,4.77347850799561,4.78168678283691,4.78992319107056,4.79818820953369,4.80648183822632,4.81480407714844,4.82315492630005,4.83153486251831,4.83994436264038,4.8483829498291,4.85685110092163,4.86534833908081,4.87387609481812,4.88243341445923,4.89102077484131,4.89963865280151,4.90828704833984,4.91696548461914,4.92567539215088,4.93441581726074,4.94318723678589,4.95198965072632,4.96082401275635,4.96968984603882,4.97858715057373,4.98751640319824,4.99647808074951,5.00547170639038,5.01449823379517,5.02355670928955,5.03264856338501,5.03967380523682,5.04260301589966,5.04553556442261,5.04847145080566,5.05141115188599,5.05435419082642,5.05730009078979,5.06024980545044,5.06320333480835,5.06615972518921,5.06911993026733,5.07208347320557,5.07505035400391,5.07802104949951,5.08099508285522,5.08397245407104,5.08695316314697,5.08993768692017,5.09292554855347,5.09591674804688,5.09891128540039,5.10190963745117,5.10491132736206,5.10791683197021,5.11092567443848,5.11393785476685,5.11695384979248,5.11997365951538,5.12299680709839,5.1260232925415,5.12905359268188,5.13208723068237,5.13512468338013,5.13816595077515,5.14121055603027,5.14425849914551,5.14731073379517,5.15036582946777,5.1534252166748,5.15648794174194,5.15955400466919,5.16262435913086,5.16569805145264,5.16877508163452,5.17185640335083,5.17494106292725,5.17802953720093,5.18112134933472,5.18421745300293,5.18731641769409,5.19041967391968,5.19352674484253,5.19663715362549,5.19975185394287,5.20286989212036,5.20599126815796,5.20911693572998,5.21224641799927,5.21537923812866,5.21851634979248,5.22165679931641,5.2248010635376,5.22794961929321,5.23110151290894,5.23425722122192,5.23741674423218,5.2405800819397,5.24374771118164,5.24691867828369,5.25009346008301,5.25327205657959,5.2564549446106,5.25964117050171,5.28037023544312,5.30230617523193,5.32442569732666,5.34673023223877,5.36922216415405,5.39190483093262,5.41477918624878,5.4378490447998,5.46111631393433,5.48458290100098,5.50825262069702,5.53212785720825,5.55620908737183,5.58050060272217,5.60500621795654,5.62972736358643,5.65466785430908,5.67983055114746,5.70521783828735,5.73083305358887,5.75667953491211,5.78276014328003,5.80907821655273,5.83563661575317,5.86243915557861,5.88948917388916,5.91678953170776,5.94434452056885,5.97215747833252,6.00023174285889,6.02857112884521,6.05717992782593,6.08511924743652,6.11145639419556,6.13802242279053,6.16482067108154,6.19185400009155,6.21912527084351,6.24663782119751,6.27439546585083,6.3024001121521,6.33209180831909,6.36294937133789,6.39410972595215,6.42557668685913,6.45735454559326,6.48944854736328,6.52186298370361,6.554603099823,6.58767366409302,6.62107944488525,6.65482521057129,6.68891763687134,6.72336053848267,6.75816059112549,6.79332208633423,6.8288516998291,6.86475515365601,6.90104484558105,6.93783092498779,6.97501134872437,7.01259279251099,7.05058097839355,7.08898305892944,7.12780523300171,7.16705560684204,7.20674085617065,7.24686765670776,7.2874436378479,7.32847690582275,7.37589645385742,7.42648601531982,7.47777462005615,7.52977657318115,7.58250713348389,7.63598108291626,7.69021463394165,7.74522399902344,7.79590511322021,7.84382390975952,7.89233589172363,7.94145107269287,7.99118185043335,8.04153919219971,8.0925350189209,8.1441822052002,8.19649219512939,8.24947834014893,8.30315494537354,8.35753440856934,8.41262531280518,8.46843910217285,8.52499771118164,0,0,0,0,0,0,0,0,0,0,0,0,0,0,0,0,0,0,0,0,0,0,0,0,0,0,0,0,0,0,0,0,0,0,0,0,0,0,0,0,0,0,0,0,0,0,0,0,0,0,0,0,0,0,0,0,0,0,0,0
4.21186065673828,4.21317672729492,4.21449375152588,4.21581125259399,4.21712970733643,4.21844911575317,4.21976947784424,4.22109031677246,4.222412109375,4.22373485565186,4.22505807876587,4.22638273239136,4.227707862854,4.22903394699097,4.23036050796509,4.23168802261353,4.23301696777344,4.23434638977051,4.23567628860474,4.23700714111328,4.23833894729614,4.23967170715332,4.24100542068481,4.24233961105347,4.24367475509644,4.24501085281372,4.24634742736816,4.24768543243408,4.24902391433716,4.25036334991455,4.2526535987854,4.25916719436646,4.26570081710815,4.2722544670105,4.27882814407349,4.28542232513428,4.29203653335571,4.29867124557495,4.30532646179199,4.31200265884399,4.3186993598938,4.32541704177856,4.33215570449829,4.33891487121582,4.34569549560547,4.35249757766724,4.35932064056396,4.36616516113281,4.37303161621094,4.37991952896118,4.38682889938354,4.39376020431519,4.4007134437561,4.40768909454346,4.41468620300293,4.421706199646,4.42874813079834,4.43581295013428,4.44290018081665,4.45000982284546,4.45714235305786,4.46429777145386,4.47147655487061,4.47867822647095,4.48590278625488,4.49315118789673,4.50042295455933,4.50771856307983,4.51503705978394,4.52237987518311,4.52974653244019,4.53713750839233,4.54455232620239,4.55199146270752,4.55945491790771,4.56694316864014,4.57445573806763,4.58199310302734,4.58955574035645,4.59714317321777,4.60475540161133,4.61239337921143,4.62005615234375,4.62774515151978,4.63545942306519,4.64319896697998,4.65096521377563,4.65875720977783,4.66657495498657,4.67441940307617,4.68229007720947,4.69018745422363,4.69811153411865,4.70606231689453,4.71404027938843,4.72204494476318,4.73007726669312,4.73813676834106,4.74622392654419,4.75433826446533,4.76248073577881,4.77065134048462,4.77884960174561,4.78707647323608,4.7953314781189,4.8036150932312,4.811927318573,4.82026815414429,4.82863855361938,4.83703756332397,4.84546613693237,4.85392379760742,4.86241102218628,4.8709282875061,4.87947559356689,4.88805246353149,4.89665985107422,4.90529775619507,4.91396570205688,4.92266464233398,4.93139457702637,4.94015502929688,4.94894695281982,4.95777034759521,4.96662521362305,4.97551155090332,4.98442983627319,4.99338054656982,5.00236320495605,5.01137781143188,5.02042531967163,5.02950572967529,5.03861904144287,5.04776525497437,5.05694484710693,5.064377784729,5.06733560562134,5.07029724121094,5.07326173782349,5.07623052597046,5.07920217514038,5.08217763900757,5.08515644073486,5.08813858032227,5.09112453460693,5.09411382675171,5.09710693359375,5.1001033782959,5.10310316085815,5.10610628128052,5.10911321640015,5.11212348937988,5.11513757705688,5.11815500259399,5.12117576599121,5.12420034408569,5.12722826004028,5.13025999069214,5.1332950592041,5.13633394241333,5.13937664031982,5.14242267608643,5.14547252655029,5.14852571487427,5.15158271789551,5.15464305877686,5.15770721435547,5.16077518463135,5.16384649276733,5.16692161560059,5.1700005531311,5.17308282852173,5.17616939544678,5.17925882339478,5.1823525428772,5.18544960021973,5.18855047225952,5.19165515899658,5.19476366043091,5.1978759765625,5.2009916305542,5.20411109924316,5.20723438262939,5.21036148071289,5.21349239349365,5.21662664413452,5.21976518630981,5.22290706634521,5.22605323791504,5.22920274734497,5.23235654830933,5.23551368713379,5.23867464065552,5.24183988571167,5.24500846862793,5.24818086624146,5.2513575553894,5.25453805923462,5.25772190093994,5.26091003417969,5.2641019821167,5.26729774475098,5.27049732208252,5.27370071411133,5.28242206573486,5.30437564849854,5.3265118598938,5.34883403778076,5.37134408950806,5.39404439926147,5.41693735122681,5.44002532958984,5.46331071853638,5.48679685592651,5.51048564910889,5.53437995910645,5.55848217010498,5.58279371261597,5.60731935501099,5.63206100463867,5.65702247619629,5.68220567703247,5.70761442184448,5.73325109481812,5.75911951065063,5.78522205352783,5.81156253814697,5.83814382553101,5.8649697303772,5.8920431137085,5.91936731338501,5.94694662094116,5.9747838973999,6.0028829574585,6.03124713897705,6.05988121032715,6.0887885093689,6.11575031280518,6.14235401153564,6.16918992996216,6.19626188278198,6.22357225418091,6.25112390518188,6.27892112731934,6.30696678161621,6.33526372909546,6.36560869216919,6.39679479598999,6.42828845977783,6.46009349822998,6.49221420288086,6.52465677261353,6.55742502212524,6.5905237197876,6.62395858764648,6.65773439407349,6.69185590744019,6.7263298034668,6.76116037368774,6.79635334014893,6.83191442489624,6.8678503036499,6.90416574478149,6.94093370437622,6.97814798355103,7.01576280593872,7.05378532409668,7.09222221374512,7.13108062744141,7.17036724090576,7.2100887298584,7.25025272369385,7.2908673286438,7.33193874359131,7.37715816497803,7.42776536941528,7.47907209396362,7.53109169006348,7.58384037017822,7.63733339309692,7.69158601760864,7.74661493301392,7.80037784576416,7.84835195541382,7.89691925048828,7.94609212875366,7.99588108062744,8.04629802703857,8.0973539352417,8.14906311035156,8.20143604278564,8.25448703765869,8.30822849273682,8.36267471313477,8.41783905029297,8.47372436523438,8.53035354614258,19.972972869873,19.9728889465332,19.9728050231934,19.9727191925049,19.9726371765137,19.9725513458252,19.9724674224854,19.9723815917969,19.9722995758057,19.9722137451172,19.9721298217773,19.9720439910889,19.971960067749,19.9718761444092,19.9717903137207,19.9717063903809,19.971622467041,19.9715385437012,19.9714527130127,19.9713687896729,19.971284866333,19.9711990356445,19.9711151123047,19.9710311889648,19.9709453582764,19.9708614349365,19.9707775115967,19.9706935882568,19.9706077575684,19.9705257415771,19.9704399108887,19.9703559875488,19.9702701568604,19.9701881408691,19.9701023101807,19.9700183868408,19.9699325561523,19.9698505401611,19.9697647094727,19.9696788787842,19.9695949554443,19.9695110321045,19.9694271087646,19.9693412780762,19.9692573547363,19.9691734313965,19.969087600708,19.9690055847168,19.9689197540283,19.9688358306885,19.96875,19.9686660766602,19.9685821533203,19.9684982299805,19.9684143066406,19.9683284759521,19.9682445526123,19.9681606292725,19.9680767059326
4.20162773132324,4.20293712615967,4.20424747467041,4.20555925369263,4.20687103271484,4.20818424224854,4.20949792861938,4.21081256866455,4.21212768554688,4.21344423294067,4.21476125717163,4.21607875823975,4.21739768981934,4.21871709823608,4.22003746032715,4.22135877609253,4.22268104553223,4.22400379180908,4.22532749176025,4.22665166854858,4.22797727584839,4.22930335998535,4.23063039779663,4.23195791244507,4.23328685760498,4.23461627960205,4.23594665527344,4.23727798461914,4.238609790802,4.23994255065918,4.24127626419067,4.2439227104187,4.2504096031189,4.25691604614258,4.2634425163269,4.26998949050903,4.27655601501465,4.28314304351807,4.28975057601929,4.29637813568115,4.30302667617798,4.30969572067261,4.31638479232788,4.32309532165527,4.32982683181763,4.33657884597778,4.34335231781006,4.35014677047729,4.35696268081665,4.36380004882812,4.37065839767456,4.37753915786743,4.38444089889526,4.39136457443237,4.39831066131592,4.40527820587158,4.41226816177368,4.41928005218506,4.42631435394287,4.43337106704712,4.44045066833496,4.44755268096924,4.45467710494995,4.46182489395142,4.46899557113647,4.47618913650513,4.48340606689453,4.49064588546753,4.49790954589844,4.5051965713501,4.51250743865967,4.51984214782715,4.52720069885254,4.53458309173584,4.54198932647705,4.54942035675049,4.55687570571899,4.56435489654541,4.57185935974121,4.57938814163208,4.58694171905518,4.59452056884766,4.60212421417236,4.60975313186646,4.61740779876709,4.62508726119995,4.63279294967651,4.64052391052246,4.64828109741211,4.6560640335083,4.66387271881104,4.67170810699463,4.67956972122192,4.68745803833008,4.69537258148193,4.70331430435181,4.71128273010254,4.71927833557129,4.72730112075806,4.73535108566284,4.7434287071228,4.75153350830078,4.75966644287109,4.76782703399658,4.7760157585144,4.78423261642456,4.79247808456421,4.80075168609619,4.80905437469482,4.81738519668579,4.82574510574341,4.83413410186768,4.84255266189575,4.85100030899048,4.85947751998901,4.86798429489136,4.87652111053467,4.88508796691895,4.89368486404419,4.9023118019104,4.91096973419189,4.91965770721436,4.9283766746521,4.93712711334229,4.9459080696106,4.95472049713135,4.96356439590454,4.97243976593018,4.98134708404541,4.9902868270874,4.99925804138184,5.00826168060303,5.01729822158813,5.0263671875,5.03546857833862,5.04460334777832,5.05377149581909,5.06297302246094,5.07220792770386,5.08147668838501,5.08932495117188,5.09231185913086,5.09530258178711,5.09829711914062,5.10129451751709,5.10429620742798,5.10730075836182,5.11030912399292,5.11332130432129,5.11633682250977,5.11935567855835,5.1223783493042,5.12540435791016,5.12843370437622,5.13146686553955,5.13450384140015,5.13754415512085,5.14058780670166,5.14363527297974,5.14668655395508,5.14974117279053,5.15279960632324,5.15586137771606,5.15892696380615,5.16199636459351,5.16506958007812,5.16814613342285,5.17122650146484,5.17431020736694,5.17739772796631,5.18048906326294,5.18358421325684,5.18668270111084,5.18978548049927,5.1928915977478,5.19600105285645,5.19911479949951,5.20223236083984,5.20535326004028,5.20847797393799,5.21160650253296,5.2147388458252,5.2178750038147,5.22101497650146,5.22415828704834,5.22730588912964,5.23045682907104,5.23361206054688,5.23677062988281,5.23993349075317,5.24309968948364,5.24627017974854,5.24944448471069,5.25262212753296,5.25580406188965,5.2589898109436,5.26217937469482,5.26537275314331,5.26856994628906,5.27177095413208,5.27497625350952,5.27818536758423,5.2813982963562,5.28461503982544,5.28783559799194,5.29105997085571,5.30644607543945,5.32859992980957,5.35093975067139,5.37346744537354,5.39618539810181,5.41909646987915,5.44220304489136,5.46550750732422,5.48901271820068,5.51272010803223,5.53663396835327,5.56075572967529,5.5850887298584,5.60963439941406,5.63439655303955,5.65937900543213,5.68458318710327,5.71001291275024,5.73567152023315,5.76156187057495,5.78768682479858,5.81404972076416,5.84065389633179,5.86750268936157,5.89459943771362,5.92194747924805,5.94955062866211,5.97741222381592,6.00553607940674,6.03392601013184,6.06258535385132,6.09151840209961,6.12005043029785,6.14669132232666,6.17356538772583,6.20067596435547,6.22802495956421,6.25561666488647,6.28345394134521,6.31154012680054,6.33987808227539,6.3684720993042,6.39948225021362,6.43100214004517,6.46283388137817,6.49498271942139,6.52745246887207,6.56024885177612,6.59337663650513,6.62684011459351,6.66064548492432,6.69479703903198,6.72930097579956,6.76416254043579,6.79938697814941,6.83498001098633,6.87094831466675,6.90729665756226,6.9440393447876,6.98128652572632,7.0189356803894,7.05699300765991,7.0954647064209,7.13435888290405,7.17368125915527,7.21343994140625,7.2536416053772,7.29429388046265,7.33540439605713,7.37842082977295,7.4290452003479,7.48036909103394,7.53240728378296,7.58517456054688,7.63868618011475,7.69295835494995,7.74800729751587,7.80384969711304,7.85288429260254,7.90150833129883,7.95073890686035,8.00058650970459,8.05106258392334,8.10217952728271,8.15394973754883,8.20638656616211,8.25950145721436,8.31330871582031,8.36782169342041,8.42305374145508,8.4790153503418,8.53571605682373,19.7745342254639,19.7744522094727,19.7743682861328,19.7742862701416,19.7742023468018,19.7741203308105,19.7740383148193,19.7739543914795,19.7738723754883,19.7737903594971,19.7737064361572,19.7736225128174,19.7735424041748,19.773458480835,19.7733764648438,19.7732925415039,19.7732105255127,19.7731266021729,19.7730445861816,19.7729606628418,19.7728786468506,19.7727966308594,19.7727127075195,19.7726306915283,19.7725467681885,19.7724647521973,19.7723808288574,19.7722988128662,19.772216796875,19.7721328735352,19.7720508575439,19.7719688415527,19.7718849182129,19.7718029022217,19.7717208862305,19.7716369628906,19.7715549468994,19.7714710235596,19.7713890075684,19.7713069915771,19.7712230682373,19.7711410522461,19.7710571289062,19.770975112915,19.7708911895752,19.770809173584,19.7707271575928,19.7706451416016,19.7705612182617,19.7704772949219,19.7703952789307,19.7703132629395,19.7702293395996,19.7701473236084,19.7700634002686,19.7699813842773,19.7698993682861,19.7698154449463
4.19144439697266,4.19274759292603,4.19405174255371,4.19535636901855,4.19666242599487,4.19796895980835,4.19927644729614,4.20058441162109,4.20189380645752,4.20320320129395,4.20451402664185,4.20582580566406,4.20713806152344,4.20845127105713,4.20976495742798,4.21107959747314,4.21239519119263,4.21371173858643,4.21502876281738,4.21634674072266,4.21766567230225,4.21898555755615,4.22030591964722,4.2216272354126,4.22294950485229,4.22427272796631,4.22559642791748,4.22692108154297,4.22824668884277,4.22957277297974,4.23090028762817,4.23222780227661,4.23522758483887,4.2416877746582,4.24816751480103,4.25466728210449,4.2611870765686,4.26772689819336,4.27428674697876,4.2808666229248,4.28746700286865,4.2940878868103,4.3007287979126,4.30739068984985,4.31407308578491,4.32077598571777,4.32750034332275,4.33424520492554,4.34101152420044,4.34779834747314,4.35460710525513,4.36143684387207,4.36828804016113,4.37516117095947,4.38205528259277,4.38897180557251,4.39590978622437,4.40287017822266,4.40985202789307,4.41685676574707,4.42388343811035,4.43093204498291,4.43800401687622,4.44509792327881,4.45221471786499,4.45935440063477,4.46651697158813,4.47370290756226,4.48091173171997,4.48814392089844,4.49539947509766,4.50267839431763,4.50998067855835,4.51730728149414,4.52465724945068,4.53203153610229,4.53942966461182,4.54685211181641,4.55429887771606,4.56176996231079,4.56926536560059,4.57678604125977,4.58433103561401,4.59190130233765,4.59949636459351,4.60711669921875,4.61476230621338,4.62243318557739,4.63012981414795,4.63785171508789,4.64559984207153,4.65337371826172,4.66117382049561,4.66900014877319,4.67685222625732,4.68473148345947,4.69263696670532,4.70056915283203,4.70852851867676,4.71651458740234,4.72452783584595,4.73256874084473,4.74063634872437,4.74873208999634,4.75685548782349,4.76500654220581,4.77318525314331,4.7813925743103,4.78962802886963,4.79789209365845,4.8061842918396,4.8145055770874,4.8228554725647,4.83123445510864,4.8396430015564,4.84808015823364,4.85654735565186,4.86504411697388,4.87357044219971,4.8821268081665,4.89071321487427,4.899329662323,4.90797710418701,4.91665458679199,4.92536306381226,4.9341025352478,4.94287252426147,4.95167446136475,4.9605073928833,4.9693717956543,4.97826814651489,4.98719644546509,4.99615669250488,5.00514936447144,5.01417446136475,5.02323198318481,5.0323224067688,5.0414457321167,5.05060243606567,5.05979204177856,5.06901550292969,5.07827281951904,5.08756351470947,5.09688854217529,5.1062479019165,5.1145191192627,5.11753559112549,5.12055635452271,5.12357997894287,5.12660789489746,5.12963914871216,5.13267374038696,5.13571214675903,5.13875389099121,5.14179944992065,5.14484882354736,5.14790105819702,5.1509575843811,5.15401697158813,5.15708065032959,5.16014766693115,5.16321849822998,5.16629314422607,5.16937112808228,5.17245244979858,5.17553806304932,5.17862701416016,5.18171977996826,5.18481636047363,5.18791675567627,5.19102048873901,5.19412803649902,5.1972393989563,5.20035457611084,5.20347309112549,5.20659589767456,5.20972204208374,5.21285200119019,5.2159857749939,5.21912336349487,5.22226476669312,5.22540998458862,5.2285590171814,5.23171138763428,5.23486804962158,5.23802852630615,5.24119234085083,5.24436044692993,5.2475323677063,5.25070810317993,5.25388765335083,5.25707101821899,5.26025819778442,5.26344919204712,5.26664400100708,5.26984310150146,5.27304553985596,5.27625226974487,5.27946281433105,5.2826771736145,5.28589582443237,5.28911781311035,5.29234409332275,5.29557418823242,5.29880809783936,5.30204629898071,5.30528831481934,5.30853414535522,5.33068943023682,5.35304689407349,5.37559223175049,5.39832878112793,5.42125797271729,5.44438314437866,5.46770620346069,5.49123001098633,5.51495695114136,5.53888988494873,5.5630316734314,5.58738470077515,5.61195135116577,5.63673448562622,5.66173696517944,5.68696260452271,5.7124137878418,5.73809385299683,5.7640061378479,5.79015302658081,5.81653881072998,5.8431658744812,5.87003755569458,5.89715766906738,5.92453002929688,5.95215702056885,5.98004341125488,6.00819206237793,6.03660678863525,6.06529188156128,6.09425067901611,6.12348747253418,6.15103483200073,6.17794752120972,6.20509624481201,6.23248434066772,6.26011562347412,6.28799295425415,6.31611967086792,6.34449911117554,6.37313508987427,6.40217208862305,6.43371868133545,6.46557712554932,6.49775314331055,6.53025102615356,6.56307554244995,6.59623146057129,6.62972450256348,6.66355895996094,6.69774103164673,6.73227548599243,6.76716756820679,6.80242347717285,6.83804845809937,6.87404870986938,6.91042995452881,6.94719839096069,6.98442888259888,7.02211141586304,7.06020307540894,7.09871053695679,7.13763999938965,7.17699909210205,7.21679449081421,7.2570333480835,7.2977237701416,7.33887338638306,7.38048934936523,7.43032503128052,7.48166704177856,7.5337233543396,7.58650875091553,7.64003944396973,7.69433069229126,7.74939918518066,7.80526208877563,7.85742282867432,7.90610313415527,7.95539093017578,8.00529670715332,8.055832862854,8.10701084136963,8.15884304046631,8.21134281158447,8.26452159881592,8.31839466094971,8.37297439575195,8.4282751083374,8.4843111038208,8.5410852432251,8.59862232208252,19.5799179077148,19.5798358917236,19.5797557830811,19.5796737670898,19.5795936584473,19.5795116424561,19.5794315338135,19.5793514251709,19.5792694091797,19.5791893005371,19.5791072845459,19.5790252685547,19.5789432525635,19.5788631439209,19.5787830352783,19.5787010192871,19.5786190032959,19.5785388946533,19.5784568786621,19.5783748626709,19.5782947540283,19.5782146453857,19.5781326293945,19.5780506134033,19.5779685974121,19.5778903961182,19.5778064727783,19.5777263641357,19.5776462554932,19.577564239502,19.5774822235107,19.5774021148682,19.5773220062256,19.5772399902344,19.5771598815918,19.5770778656006,19.5769958496094,19.5769157409668,19.5768337249756,19.5767517089844,19.5766716003418,19.5765914916992,19.576509475708,19.5764274597168,19.5763473510742,19.576265335083,19.5761852264404,19.5761032104492,19.5760231018066,19.5759410858154,19.5758590698242,19.5757789611816,19.5756988525391,19.5756168365479,19.5755348205566,19.5754547119141
4.18131017684937,4.18260717391968,4.18390512466431,4.18520355224609,4.1865029335022,4.18780326843262,4.18910455703735,4.19040632247925,4.19170904159546,4.19301223754883,4.19431686401367,4.19562196731567,4.19692802429199,4.19823455810547,4.19954204559326,4.20085048675537,4.2021598815918,4.20346975326538,4.20478057861328,4.2060923576355,4.20740461349487,4.20871782302856,4.21003198623657,4.21134662628174,4.21266269683838,4.21397924423218,4.21529674530029,4.21661472320557,4.21793365478516,4.21925354003906,4.22057437896729,4.22189569473267,4.22321844100952,4.22656774520874,4.23300170898438,4.2394552230835,4.24592781066895,4.2524209022522,4.25893402099609,4.26546669006348,4.2720193862915,4.27859258651733,4.28518581390381,4.29179954528809,4.29843378067017,4.30508804321289,4.31176376342773,4.31845951080322,4.32517623901367,4.33191394805908,4.33867263793945,4.34545278549194,4.35225391387939,4.35907649993896,4.3659200668335,4.3727855682373,4.37967252731323,4.38658142089844,4.39351177215576,4.40046453475952,4.40743923187256,4.41443586349487,4.42145442962646,4.42849588394165,4.43555974960327,4.44264602661133,4.44975519180298,4.45688676834106,4.4640417098999,4.47121953964233,4.47842025756836,4.48564386367798,4.49289178848267,4.50016260147095,4.50745677947998,4.51477479934692,4.52211666107178,4.5294828414917,4.53687238693237,4.54428672790527,4.55172491073608,4.55918741226196,4.56667470932007,4.5741868019104,4.5817232131958,4.58928489685059,4.5968713760376,4.60448265075684,4.61211967468262,4.61978197097778,4.62746953964233,4.63518285751343,4.64292192459106,4.65068674087524,4.65847778320312,4.66629505157471,4.67413854598999,4.68200826644897,4.68990468978882,4.69782781600952,4.70577764511108,4.71375417709351,4.7217583656311,4.72978925704956,4.73784780502319,4.745934009552,4.75404739379883,4.76218891143799,4.77035856246948,4.77855587005615,4.78678178787231,4.79503536224365,4.80331802368164,4.81162929534912,4.81996917724609,4.82833814620972,4.83673667907715,4.84516382217407,4.8536205291748,4.86210680007935,4.87062311172485,4.87916898727417,4.88774538040161,4.89635133743286,4.90498781204224,4.91365528106689,4.92235279083252,4.93108129501343,4.93984127044678,4.94863176345825,4.95745420455933,4.96630764007568,4.97519302368164,4.9841103553772,4.99305963516235,5.00204086303711,5.01105499267578,5.02010107040405,5.02918004989624,5.0382924079895,5.04743719100952,5.05661582946777,5.06582736968994,5.07507276535034,5.08435201644897,5.09366512298584,5.1030125617981,5.11239433288574,5.12181043624878,5.13126134872437,5.13996362686157,5.14301061630249,5.14606142044067,5.14911556243896,5.15217351913452,5.15523481369019,5.15829992294312,5.16136884689331,5.16444110870361,5.16751670837402,5.17059659957886,5.1736798286438,5.17676639556885,5.17985677719116,5.1829514503479,5.18604946136475,5.1891508102417,5.19225645065308,5.19536542892456,5.19847822189331,5.20159482955933,5.20471477508545,5.207839012146,5.21096658706665,5.21409845352173,5.21723365783691,5.22037267684937,5.22351551055908,5.22666215896606,5.22981262207031,5.23296689987183,5.23612499237061,5.23928689956665,5.2424521446228,5.24562215805054,5.24879503250122,5.25197219848633,5.25515365600586,5.2583384513855,5.2615270614624,5.26471948623657,5.26791620254517,5.27111673355103,5.27432107925415,5.27752923965454,5.2807412147522,5.28395700454712,5.28717708587646,5.29040098190308,5.29362869262695,5.2968602180481,5.30009603500366,5.30333566665649,5.30657911300659,5.30982685089111,5.31307792663574,5.31633377075195,5.31959295272827,5.32285642623901,5.3327808380127,5.35515546798706,5.37771892547607,5.40047311782837,5.42342090606689,5.44656419754028,5.46990633010864,5.49344921112061,5.51719522476196,5.54114770889282,5.56530904769897,5.58968210220337,5.61426973342896,5.63907384872437,5.66409730911255,5.68934392929077,5.71481657028198,5.74051856994629,5.76645231246948,5.79262161254883,5.81902980804443,5.84567975997925,5.87257480621338,5.89971876144409,5.92711448669434,5.95476579666138,5.98267650604248,6.01084995269775,6.03928995132446,6.06800079345703,6.09698534011841,6.12624883651733,6.15538501739502,6.1823353767395,6.20952272415161,6.23695039749146,6.26462125778198,6.2925386428833,6.32070636749268,6.34912729263306,6.37780475616455,6.40674257278442,6.43643712997437,6.46832275390625,6.50052642822266,6.53305196762085,6.56590461730957,6.5990891456604,6.63261127471924,6.66647529602051,6.70068740844727,6.73525190353394,6.77017545700073,6.80546236038208,6.84111976623535,6.87715196609497,6.91356658935547,6.95036840438843,6.98757314682007,7.02529001235962,7.06341648101807,7.10195875167847,7.14092445373535,7.18031930923462,7.22015190124512,7.2604284286499,7.30115699768066,7.34234523773193,7.38400077819824,7.43160581588745,7.48296499252319,7.53503942489624,7.5878438949585,7.64139318466187,7.69570398330688,7.75079202651978,7.80667495727539,7.86196613311768,7.91070318222046,7.96004819869995,8.01001262664795,8.06060791015625,8.11184692382812,8.16374206542969,8.21630477905273,8.2695484161377,8.32348728179932,8.37813377380371,8.43350315093994,8.48960876464844,8.54646110534668,8.60407066345215,19.3891754150391,19.3890953063965,19.3890171051025,19.3889350891113,19.3888568878174,19.3887767791748,19.3886966705322,19.3886165618896,19.3885383605957,19.3884582519531,19.3883800506592,19.3882999420166,19.388219833374,19.3881416320801,19.3880596160889,19.3879814147949,19.3879013061523,19.3878211975098,19.3877410888672,19.3876628875732,19.3875827789307,19.3875045776367,19.3874244689941,19.3873443603516,19.3872623443604,19.387186050415,19.3871059417725,19.3870258331299,19.3869457244873,19.3868675231934,19.3867874145508,19.3867073059082,19.3866271972656,19.3865489959717,19.3864688873291,19.3863887786865,19.3863086700439,19.38623046875,19.3861522674561,19.3860721588135,19.3859920501709,19.3859119415283,19.3858318328857,19.3857517242432,19.3856735229492,19.3855934143066,19.3855152130127,19.3854351043701,19.3853549957275,19.3852729797363,19.3851947784424,19.3851165771484,19.3850364685059,19.3849563598633,19.3848781585693
