4.22799444198608,4.23023080825806,4.23247003555298,4.23471117019653,4.23695468902588,4.23920106887817,4.2414493560791,4.24370050430298,4.24595355987549,4.24820899963379,4.25046730041504,4.25272750854492,4.25499057769775,4.25725603103638,4.25952339172363,4.26179361343384,4.26406621932983,4.26634120941162,4.2686185836792,4.27089834213257,4.27318048477173,4.27546501159668,4.27775239944458,4.28004169464111,4.2823338508606,4.28462839126587,4.28692531585693,4.28922462463379,4.29152631759644,4.29383087158203,4.29613780975342,4.2984471321106,4.30075883865356,4.30307292938232,4.30538988113403,4.30770921707153,4.31003093719482,4.31235504150391,4.31468200683594,4.3170108795166,4.31934309005737,4.32167720794678,4.32401418685913,4.33750104904175,4.3523097038269,4.36721992492676,4.38223123550415,4.39734601974487,4.41256475448608,4.42788934707642,4.44332122802734,4.45886039733887,4.47450923919678,4.49026775360107,4.50613832473755,4.5221209526062,4.53821754455566,4.55442905426025,4.57075691223145,4.58720207214355,4.60376596450806,4.62045001983643,4.63725566864014,4.65418386459351,4.67123603820801,4.68841361999512,4.70571899414062,4.72315454483032,4.74071979522705,4.75841569900513,4.77624464035034,4.79420757293701,5.26072120666504,5.26216411590576,5.2636079788208,5.26505279541016,5.26649808883667,5.2679443359375,5.26939153671265,5.27083969116211,5.27228832244873,5.27373743057251,5.27518796920776,5.27663898468018,5.2780909538269,5.27954339981079,5.28099679946899,5.28245115280151,5.28390598297119,5.28536224365234,5.2868185043335,5.28827619552612,5.28973436355591,5.29119348526001,5.29265356063843,5.294114112854,5.2955756187439,5.31336688995361,5.33513689041138,5.35708570480347,5.37921619415283,5.40153026580811,5.42402982711792,5.44671821594238,5.46959686279297,5.49266815185547,5.51593542098999,5.53940057754517,5.56306600570679,5.5869345664978,5.61100912094116,5.63529205322266,5.65978574752808,5.68449354171753,5.70941781997681,5.73456144332886,5.75992774963379,5.78551959991455,5.81135368347168,5.83748197555542,5.86384630203247,5.89044952392578,5.91729593276978,5.94438743591309,5.97172880172729,5.99932241439819,6.02717256546021,6.05528211593628,6.08365535736084,6.11229562759399,6.14120721817017,6.1703929901123,6.19985771179199,6.22960519790649,6.25963973999023,6.28996515274048,6.32058572769165,6.35150575637817,6.38273000717163,6.41426277160645,6.4461088180542,6.48124504089355,6.51987838745117,6.5589747428894,6.59854316711426,6.63859224319458,6.67763090133667,6.71279430389404,6.74833011627197,6.78424406051636,6.82054233551025,6.85723066329956,6.89431667327881,6.93180561065674,6.9697003364563,7.00800561904907,7.04673433303833,7.08589363098145,7.12549018859863,7.16553211212158,7.20602655410767,7.24698114395142,0,0,0,0,0,0,0,0,0,0,0,0,0,0,0,0,0,0,0,0,0,0,0,0,0,0,0,0,0,0,0,0,0,0,0,0,0,0,0,0,0,0,0,0,0,0,0,0,0,0,0,0,0,0,0,0,0,0,0,0,0,0,0,0,0,0,0,0,0,0,0,0,0,0,0,0,0,0,0,0,0,0,0,0,0,0,0,0,0,0,0,0,0,0,0,0,0,0,0,0,0,0,0,0,0,0,0,0,0,0,0,0,0,0,0,0,0,0,0,0,0,0,0,0,0,0,0,0,0,0,0,0,0,0,0,0,0,0,0,0,0,0,0,0,0,0,0,0,0,0,0,0,0,0,0,0,0,0,0,0,0,0,0,0,0,0,0,0,0,0,0,0,0,0,0,0,0,0
4.23561382293701,4.23785877227783,4.24010562896729,4.24235486984253,4.24460697174072,4.24686098098755,4.24911785125732,4.25137662887573,4.25363826751709,4.25590181350708,4.25816822052002,4.26043701171875,4.26270818710327,4.26498126983643,4.26725721359253,4.26953554153442,4.27181625366211,4.27409982681274,4.27638530731201,4.27867364883423,4.28096389770508,4.28325700759888,4.28555250167847,4.28785037994385,4.29015064239502,4.29245376586914,4.29475879669189,4.2970666885376,4.29937696456909,4.30169010162354,4.30400514602661,4.30632305145264,4.30864334106445,4.31096601486206,4.31329107284546,4.31561899185181,4.31794929504395,4.32028198242188,4.32261753082275,4.32495546340942,4.32729578018188,4.32963848114014,4.33198404312134,4.33433198928833,4.33891534805298,4.3537335395813,4.36865377426147,4.38367652893066,4.39880132675171,4.4140305519104,4.42936563491821,4.4448070526123,4.46035718917847,4.4760160446167,4.49178552627563,4.50766658782959,4.52366018295288,4.53976774215698,4.55599021911621,4.5723295211792,4.58878612518311,4.6053614616394,4.62205743789673,4.63887453079224,4.65581464767456,4.67287874221802,4.69006824493408,4.70738506317139,4.72483015060425,4.74240493774414,4.76011323928833,4.77795457839966,4.7959303855896,4.81404209136963,4.83229112625122,5.25597763061523,5.25741815567017,5.25885915756226,5.26030111312866,5.26174402236938,5.26318788528442,5.26463222503662,5.26607751846313,5.26752376556396,5.26897048950195,5.27041816711426,5.27186632156372,5.27331590652466,5.27476596832275,5.27621650695801,5.27766847610474,5.27912044525146,5.28057384490967,5.28202772140503,5.28348255157471,5.2849383354187,5.28639459609985,5.2936577796936,5.31526613235474,5.33705186843872,5.35901641845703,5.38116264343262,5.40349292755127,5.42600917816162,5.44871377944946,5.47160911560059,5.49469804763794,5.51798248291016,5.54146480560303,5.56514835357666,5.58903455734253,5.6131272315979,5.63742828369141,5.661940574646,5.68666744232178,5.71161079406738,5.73677396774292,5.76215982437134,5.78777170181274,5.81361198425293,5.8397331237793,5.86611795425415,5.89274215698242,5.91960906982422,5.94672203063965,5.97408485412598,6.00170040130615,6.02957248687744,6.05770492553711,6.08610057830811,6.11476421356201,6.14369869232178,6.17290830612183,6.20239734649658,6.23216915130615,6.26222848892212,6.29257917404175,6.3232250213623,6.35417127609253,6.38542175292969,6.41698122024536,6.44885444641113,6.48229360580444,6.52093935012817,6.56004858016968,6.59963035583496,6.63969230651855,6.68024349212646,6.71618223190308,6.75175428390503,6.78770446777344,6.82403993606567,6.86076641082764,6.89789056777954,6.93541860580444,6.9733567237854,7.0117039680481,7.05047369003296,7.08967447280884,7.12931346893311,7.16939878463745,7.20993709564209,7.25093603134155,7.29240417480469,0,0,0,0,0,0,0,0,0,0,0,0,0,0,0,0,0,0,0,0,0,0,0,0,0,0,0,0,0,0,0,0,0,0,0,0,0,0,0,0,0,0,0,0,0,0,0,0,0,0,0,0,0,0,0,0,0,0,0,0,0,0,0,0,0,0,0,0,0,0,0,0,0,0,0,0,0,0,0,0,0,0,0,0,0,0,0,0,0,0,0,0,0,0,0,0,0,0,0,0,0,0,0,0,0,0,0,0,0,0,0,0,0,0,0,0,0,0,0,0,0,0,0,0,0,0,0,0,0,0,0,0,0,0,0,0,0,0,0,0,0,0,0,0,0,0,0,0,0,0,0,0,0,0,0,0,0,0,0,0,0,0,0,0,0,0,0,0,0,0,0,0,0,0,0,0
4.24326133728027,4.24551391601562,4.24776935577393,4.25002670288086,4.25228691101074,4.25454902648926,4.25681400299072,4.25908088684082,4.26135063171387,4.26362276077271,4.26589727401733,4.26817417144775,4.27045345306396,4.27273511886597,4.27501916885376,4.2773060798645,4.27959489822388,4.2818865776062,4.28418064117432,4.28647708892822,4.28877592086792,4.29107761383057,4.29338121414185,4.29568767547607,4.29799652099609,4.3003077507019,4.30262136459351,4.30493783950806,4.3072566986084,4.30957794189453,4.31190156936646,4.31422805786133,4.31655645370483,4.31888818740845,4.32122182846069,4.32355833053589,4.32589721679688,4.32823848724365,4.33058261871338,4.33292865753174,4.33527803421021,4.3376293182373,4.33998346328735,4.34234046936035,4.34469938278198,4.34706115722656,4.35515880584717,4.37008857727051,4.38512086868286,4.4002571105957,4.41549730300903,4.43084239959717,4.44629430770874,4.46185493469238,4.4775242805481,4.49330472946167,4.50919628143311,4.52520084381104,4.54131937026978,4.55755281448364,4.57390308380127,4.59037113189697,4.60695838928223,4.62366533279419,4.64049434661865,4.65744638442993,4.67452239990234,4.69172430038452,4.70905303955078,4.72651052474976,4.74409770965576,4.76181650161743,4.77966785430908,4.79765462875366,4.81577968597412,4.83404159545898,4.85244274139404,4.87098455429077,5.25124216079712,5.25268030166626,5.25411891937256,5.25555849075317,5.25699853897095,5.25843954086304,5.25988149642944,5.26132440567017,5.26276779174805,5.26421165466309,5.2656569480896,5.26710271835327,5.26854944229126,5.26999664306641,5.27144479751587,5.27289390563965,5.27434396743774,5.275794506073,5.27724599838257,5.2786979675293,5.29554319381714,5.31716680526733,5.33896780014038,5.36094856262207,5.38311100006104,5.40545701980591,5.4279899597168,5.45071125030518,5.47362327575684,5.49672889709473,5.52003049850464,5.54353094100952,5.56723165512085,5.59113597869873,5.61524677276611,5.63956642150879,5.66409730911255,5.6888427734375,5.71380567550659,5.73898792266846,5.76439380645752,5.79002523422241,5.81588554382324,5.84198617935181,5.86839151382446,5.89503622055054,5.92192411422729,5.94905853271484,5.97644281387329,6.00408029556274,6.03197479248047,6.06012916564941,6.088547706604,6.1172342300415,6.14619255065918,6.17542600631714,6.2049388885498,6.2347354888916,6.26481962203979,6.29519510269165,6.32586717605591,6.35683917999268,6.38811588287354,6.41970205307007,6.4516019821167,6.48382043838501,6.52200078964233,6.56112289428711,6.60071754455566,6.64079236984253,6.68135738372803,6.71957397460938,6.75518178939819,6.79116916656494,6.82754135131836,6.86430597305298,6.90146827697754,6.93903541564941,6.9770131111145,7.01540613174438,7.05421686172485,7.09345960617065,7.133141040802,7.17326927185059,7.21385145187378,7.25489521026611,7.29640913009644,0,0,0,0,0,0,0,0,0,0,0,0,0,0,0,0,0,0,0,0,0,0,0,0,0,0,0,0,0,0,0,0,0,0,0,0,0,0,0,0,0,0,0,0,0,0,0,0,0,0,0,0,0,0,0,0,0,0,0,0,0,0,0,0,0,0,0,0,0,0,0,0,0,0,0,0,0,0,0,0,0,0,0,0,0,0,0,0,0,0,0,0,0,0,0,0,0,0,0,0,0,0,0,0,0,0,0,0,0,0,0,0,0,0,0,0,0,0,0,0,0,0,0,0,0,0,0,0,0,0,0,0,0,0,0,0,0,0,0,0,0,0,0,0,0,0,0,0,0,0,0,0,0,0,0,0,0,0,0,0,0,0,0,0,0,0,0,0,0,0,0,0,0,0,0
4.25093603134155,4.25319719314575,4.25546026229858,4.25772619247437,4.25999450683594,4.26226472854614,4.2645378112793,4.26681327819824,4.26909112930298,4.27137136459351,4.27365446090698,4.27593946456909,4.27822685241699,4.28051710128784,4.28280973434448,4.28510475158691,4.28740215301514,4.28970193862915,4.29200458526611,4.29430913925171,4.29661655426025,4.29892635345459,4.30123853683472,4.30355358123779,4.30587100982666,4.30819034576416,4.31051301956177,4.31283760070801,4.3151650428772,4.31749486923218,4.31982707977295,4.32216167449951,4.32449913024902,4.32683897018433,4.32918167114258,4.33152675628662,4.33387422561646,4.33622407913208,4.33857679367065,4.34093189239502,4.34328937530518,4.34564971923828,4.34801292419434,4.35037803649902,4.35274600982666,4.35511684417725,4.35749006271362,4.35986566543579,4.37152433395386,4.38656663894653,4.4017128944397,4.41696405410767,4.43232011795044,4.44778251647949,4.46335315704346,4.47903347015381,4.49482440948486,4.51072645187378,4.52674198150635,4.54287147521973,4.55911636352539,4.57547807693481,4.59195756912231,4.60855579376221,4.62527465820312,4.64211511611938,4.65907907485962,4.67616701126099,4.69338130950928,4.71072244644165,4.72819232940674,4.74579191207886,4.7635235786438,4.78138780593872,4.79938650131226,4.81752157211304,4.83579397201538,4.85420799255371,4.87276315689087,4.89146089553833,4.91030263900757,5.24651575088501,5.2479510307312,5.24938726425171,5.25082397460938,5.25226163864136,5.25370025634766,5.25513935089111,5.25657939910889,5.25802040100098,5.25946187973022,5.26090431213379,5.26234769821167,5.26379156112671,5.26523637771606,5.26668214797974,5.26812839508057,5.26957559585571,5.27596569061279,5.29742956161499,5.31906890869141,5.34088563919067,5.36288213729858,5.38506031036377,5.40742301940918,5.42997217178345,5.45270967483521,5.47563886642456,5.49876165390015,5.52208042144775,5.54559803009033,5.56931686401367,5.59323930740356,5.61736822128296,5.64170598983765,5.66625595092773,5.69102001190186,5.71600198745728,5.74120378494263,5.76662921905518,5.79228067398071,5.81816101074219,5.84427404403687,5.87066650390625,5.89733219146729,5.924241065979,5.95139694213867,5.97880268096924,6.00646209716797,6.03437852859497,6.06255578994751,6.09099721908569,6.11970663070679,6.14868831634521,6.17794561386108,6.20748281478882,6.23730373382568,6.2674126625061,6.29781341552734,6.32851076126099,6.35950899124146,6.39081192016602,6.42242479324341,6.45435237884521,6.4865984916687,6.52306270599365,6.5621976852417,6.60180473327637,6.64189338684082,6.68247175216675,6.72296905517578,6.75861310958862,6.79463672637939,6.83104658126831,6.86784887313843,6.9050498008728,6.94265556335449,6.98067378997803,7.01911020278931,7.05796432495117,7.09724903106689,7.13697290420532,7.17714405059814,7.21777009963989,7.25885915756226,7.30041837692261,7.34245586395264,0,0,0,0,0,0,0,0,0,0,0,0,0,0,0,0,0,0,0,0,0,0,0,0,0,0,0,0,0,0,0,0,0,0,0,0,0,0,0,0,0,0,0,0,0,0,0,0,0,0,0,0,0,0,0,0,0,0,0,0,0,0,0,0,0,0,0,0,0,0,0,0,0,0,0,0,0,0,0,0,0,0,0,0,0,0,0,0,0,0,0,0,0,0,0,0,0,0,0,0,0,0,0,0,0,0,0,0,0,0,0,0,0,0,0,0,0,0,0,0,0,0,0,0,0,0,0,0,0,0,0,0,0,0,0,0,0,0,0,0,0,0,0,0,0,0,0,0,0,0,0,0,0,0,0,0,0,0,0,0,0,0,0,0,0,0,0,0,0,0,0,0,0
4.25863885879517,4.26090812683105,4.26317930221558,4.26545333862305,4.26772975921631,4.27000856399536,4.27229022979736,4.274573802948,4.27685976028442,4.2791485786438,4.28143978118896,4.28373289108276,4.28602886199951,4.28832769393921,4.29062843322754,4.29293203353882,4.29523754119873,4.29754590988159,4.29985666275024,4.30217027664185,4.30448579788208,4.30680418014526,4.30912494659424,4.311448097229,4.31377410888672,4.31610250473022,4.31843328475952,4.32076644897461,4.32310247421265,4.32544088363647,4.32778167724609,4.33012533187866,4.33247089385986,4.33481979370117,4.33717060089111,4.339524269104,4.34188032150269,4.34423923492432,4.34660053253174,4.34896469116211,4.35133075714111,4.35370016098022,4.35607147216797,4.35844564437866,4.3608226776123,4.36320209503174,4.36558389663696,4.36796855926514,4.3703556060791,4.37296104431152,4.38801336288452,4.40316963195801,4.4184308052063,4.43379831314087,4.44927167892456,4.46485280990601,4.48054361343384,4.49634504318237,4.51225805282593,4.52828454971313,4.54442501068115,4.56068134307861,4.57705402374268,4.59354448318481,4.61015462875366,4.62688493728638,4.64373731613159,4.66071319580078,4.6778130531311,4.69503927230835,4.71239280700684,4.72987508773804,4.74748754501343,4.76523160934448,4.78310871124268,4.80112075805664,4.81926870346069,4.83755397796631,4.85597944259644,4.87454509735107,4.89325428009033,4.91210985183716,4.93111133575439,4.95026016235352,5.24179744720459,5.24323034286499,5.24466371536255,5.24609804153442,5.24753332138062,5.24896907806396,5.25040578842163,5.25184345245361,5.25328159332275,5.25472068786621,5.25616025924683,5.25760078430176,5.25904226303101,5.26048469543457,5.26192760467529,5.27783870697021,5.29931735992432,5.32097244262695,5.34280443191528,5.36481666564941,5.38701105117798,5.40938997268677,5.43195533752441,5.45471000671387,5.47765588760376,5.50079584121704,5.5241322517395,5.54766702651978,5.57140350341797,5.59534406661987,5.61949110031128,5.64384746551514,5.66841554641724,5.69319915771484,5.71819972991943,5.74342155456543,5.76886606216431,5.79453754425049,5.82043838500977,5.84657192230225,5.87294387817383,5.89963006973267,5.92655992507935,5.95373725891113,5.98116445541382,6.00884580612183,6.03678417205811,6.06498384475708,6.09344816207886,6.12218141555786,6.15118598937988,6.18046760559082,6.21002864837646,6.23987436294556,6.2700080871582,6.30043411254883,6.33115720748901,6.36218118667603,6.39351081848145,6.4251503944397,6.45710468292236,6.48937845230103,6.52412462234497,6.56327247619629,6.60289287567139,6.64299440383911,6.68358612060547,6.72467708587646,6.76204776763916,6.79810810089111,6.83455514907837,6.87139558792114,6.90863466262817,6.94628000259399,6.98433780670166,7.02281475067139,7.06171560287476,7.10104179382324,7.14080858230591,7.18102312088013,7.22169351577759,7.26282691955566,7.30443143844604,7.34651565551758,0,0,0,0,0,0,0,0,0,0,0,0,0,0,0,0,0,0,0,0,0,0,0,0,0,0,0,0,0,0,0,0,0,0,0,0,0,0,0,0,0,0,0,0,0,0,0,0,0,0,0,0,0,0,0,0,0,0,0,0,0,0,0,0,0,0,0,0,0,0,0,0,0,0,0,0,0,0,0,0,0,0,0,0,0,0,0,0,0,0,0,0,0,0,0,0,0,0,0,0,0,0,0,0,0,0,0,0,0,0,0,0,0,0,0,0,0,0,0,0,0,0,0,0,0,0,0,0,0,0,0,0,0,0,0,0,0,0,0,0,0,0,0,0,0,0,0,0,0,0,0,0,0,0,0,0,0,0,0,0,0,0,0,0,0,0,0,0,0,0,0,0
4.26636934280396,4.26864671707153,4.2709264755249,4.27320909500122,4.27549362182617,4.27778053283691,4.28007030487061,4.28236246109009,4.28465700149536,4.28695392608643,4.28925323486328,4.29155540466309,4.29385948181152,4.29616641998291,4.29847574234009,4.30078744888306,4.30310201644897,4.30541849136353,4.30773782730103,4.31005954742432,4.31238412857056,4.31471109390259,4.31703996658325,4.31937217712402,4.32170629501343,4.32404327392578,4.32638263702393,4.32872438430786,4.33106899261475,4.33341598510742,4.33576583862305,4.3381175994873,4.34047222137451,4.34282970428467,4.34518957138062,4.34755182266235,4.34991645812988,4.35228395462036,4.35465431213379,4.35702705383301,4.35940217971802,4.36178016662598,4.36416053771973,4.36654329299927,4.36892890930176,4.3713173866272,4.37370824813843,4.37610149383545,4.37849760055542,4.38089656829834,4.38329792022705,4.38946056365967,4.40462684631348,4.41989850997925,4.43527603149414,4.45076131820679,4.46635341644287,4.48205471038818,4.4978666305542,4.51379108428955,4.52982807159424,4.54597949981689,4.56224679946899,4.57863092422485,4.59513282775879,4.61175441741943,4.6284966468811,4.64536094665527,4.66234827041626,4.6794605255127,4.6966986656189,4.7140645980835,4.73155879974365,4.74918413162231,4.76694107055664,4.78483104705811,4.80285549163818,4.82101678848267,4.83931589126587,4.85775423049927,4.87633371353149,4.89505577087402,4.91392230987549,4.93293476104736,4.95209741592407,4.97140979766846,4.99087381362915,5.23708772659302,5.23851823806763,5.23994922637939,5.24138069152832,5.24281311035156,5.24424648284912,5.245680809021,5.24711561203003,5.24855136871338,5.24998760223389,5.25142478942871,5.25286293029785,5.25839185714722,5.27971220016479,5.30120658874512,5.32287693023682,5.34472513198853,5.36675310134888,5.38896369934082,5.41135835647583,5.43394041061401,5.456711769104,5.47967433929443,5.50283145904541,5.52618503570557,5.54973745346069,5.57349157333374,5.59745025634766,5.62161540985107,5.6459903717041,5.67057752609253,5.69537973403931,5.72039937973022,5.74564075469971,5.77110528945923,5.7967963218689,5.82271766662598,5.84887170791626,5.87526178359985,5.90192985534668,5.92888069152832,5.95607900619507,5.98352813720703,6.01123094558716,6.03919219970703,6.06741428375244,6.09590148925781,6.12465763092041,6.15368604660034,6.18299102783203,6.2125768661499,6.24244689941406,6.27260541915894,6.30305671691895,6.33380556106567,6.36485528945923,6.39621162414551,6.42787790298462,6.4598593711853,6.49216079711914,6.52518701553345,6.56434774398804,6.60398101806641,6.64409589767456,6.68470144271851,6.72580575942993,6.7654857635498,6.80158281326294,6.83806753158569,6.87494564056396,6.91222381591797,6.94990825653076,6.98800563812256,7.02652311325073,7.06546783447266,7.10483932495117,7.14464855194092,7.18490648269653,7.22562074661255,7.2667989730835,7.30844974517822,7.3505802154541,0,0,0,0,0,0,0,0,0,0,0,0,0,0,0,0,0,0,0,0,0,0,0,0,0,0,0,0,0,0,0,0,0,0,0,0,0,0,0,0,0,0,0,0,0,0,0,0,0,0,0,0,0,0,0,0,0,0,0,0,0,0,0,0,0,0,0,0,0,0,0,0,0,0,0,0,0,0,0,0,0,0,0,0,0,0,0,0,0,0,0,0,0,0,0,0,0,0,0,0,0,0,0,0,0,0,0,0,0,0,0,0,0,0,0,0,0,0,0,0,0,0,0,0,0,0,0,0,0,0,0,0,0,0,0,0,0,0,0,0,0,0,0,0,0,0,0,0,0,0,0,0,0,0,0,0,0,0,0,0,0,0,0,0,0,0,0,0,0,0,0
4.27412796020508,4.2764139175415,4.27870225906372,4.28099250793457,4.28328561782837,4.28558111190796,4.28787899017334,4.29017972946167,4.29248237609863,4.29478788375854,4.29709577560425,4.29940605163574,4.30171871185303,4.30403423309326,4.30635166168213,4.30867195129395,4.31099510192871,4.31332015991211,4.31564807891846,4.3179783821106,4.32031106948853,4.3226466178894,4.32498455047607,4.32732486724854,4.32966804504395,4.33201360702515,4.33436155319214,4.33671188354492,4.33906507492065,4.34142065048218,4.34377908706665,4.34613990783691,4.34850311279297,4.35086917877197,4.35323762893677,4.35560894012451,4.35798263549805,4.36035871505737,4.36273765563965,4.36511898040771,4.36750316619873,4.36988973617554,4.37227916717529,4.37467098236084,4.37706565856934,4.37946271896362,4.38186264038086,4.38426494598389,4.38667011260986,4.38907766342163,4.39148807525635,4.39390087127686,4.39631652832031,4.40608549118042,4.42136716842651,4.43675518035889,4.45225048065186,4.46785449981689,4.48356676101685,4.4993896484375,4.51532459259033,4.53137254714966,4.54753541946411,4.56381368637085,4.58020877838135,4.59672260284424,4.61335515975952,4.63010931015015,4.64698505401611,4.66398429870605,4.68110847473145,4.69835901260376,4.71573734283447,4.7332444190979,4.75088167190552,4.76865148544312,4.78655433654785,4.80459213256836,4.82276630401611,4.84107875823975,4.85953092575073,4.87812376022339,4.89685964584351,4.91574001312256,4.93476676940918,4.95394134521484,4.97326517105103,4.99274110794067,5.01237297058105,5.03215932846069,5.23238658905029,5.23381423950195,5.23524284362793,5.23667192459106,5.23810195922852,5.23953247070312,5.24096393585205,5.24239635467529,5.24382925033569,5.24526309967041,5.26025199890137,5.28158760070801,5.30309724807739,5.32478284835815,5.34664678573608,5.36869049072266,5.39091730117798,5.41332864761353,5.43592691421509,5.45871496200562,5.48169469833374,5.50486850738525,5.52823925018311,5.55180978775024,5.57558155059814,5.59955787658691,5.6237416267395,5.64813470840454,5.67274045944214,5.69756174087524,5.72260093688965,5.74786138534546,5.77334594726562,5.79905700683594,5.82499837875366,5.85117292404175,5.8775839805603,5.90423440933228,5.93120288848877,5.95842266082764,5.98589324951172,6.01361846923828,6.04160165786743,6.06984663009644,6.0983567237854,6.12713575363159,6.15618801116943,6.18551683425903,6.21512651443481,6.2450213432312,6.27520513534546,6.30568170547485,6.33645582199097,6.36753177642822,6.3989143371582,6.43060779571533,6.46261644363403,6.49494552612305,6.52759981155396,6.56542348861694,6.60506963729858,6.64519786834717,6.68581676483154,6.72693490982056,6.76856231689453,6.80506134033203,6.84158325195312,6.87849950790405,6.91581630706787,6.95353984832764,6.99167728424072,7.0302357673645,7.06922149658203,7.10864019393921,7.14849281311035,7.18879413604736,7.22955274581909,7.27077579498291,7.31247186660767,7.35464906692505,7.39731550216675,0,0,0,0,0,0,0,0,0,0,0,0,0,0,0,0,0,0,0,0,0,0,0,0,0,0,0,0,0,0,0,0,0,0,0,0,0,0,0,0,0,0,0,0,0,0,0,0,0,0,0,0,0,0,0,0,0,0,0,0,0,0,0,0,0,0,0,0,0,0,0,0,0,0,0,0,0,0,0,0,0,0,0,0,0,0,0,0,0,0,0,0,0,0,0,0,0,0,0,0,0,0,0,0,0,0,0,0,0,0,0,0,0,0,0,0,0,0,0,0,0,0,0,0,0,0,0,0,0,0,0,0,0,0,0,0,0,0,0,0,0,0,0,0,0,0,0,0,0,0,0,0,0,0,0,0,0,0,0,0,0,0,0,0,0,0,0,0,0
4.28191518783569,4.28420925140381,4.28650569915771,4.28880453109741,4.29110622406006,4.29340982437134,4.29571628570557,4.29802513122559,4.3003363609314,4.30265045166016,4.30496644973755,4.30728530883789,4.30960702896118,4.31193065643311,4.31425714492798,4.31658554077148,4.3189172744751,4.32125091552734,4.32358741760254,4.32592630386353,4.3282675743103,4.33061170578003,4.33295822143555,4.33530712127686,4.33765888214111,4.34001302719116,4.342369556427,4.34472894668579,4.34709072113037,4.3494553565979,4.35182237625122,4.35419178009033,4.35656404495239,4.35893869400024,4.36131620407104,4.36369609832764,4.36607837677002,4.36846351623535,4.37085151672363,4.37324142456055,4.37563467025757,4.37803030014038,4.38042831420898,4.38282918930054,4.38523244857788,4.38763856887817,4.39004755020142,4.39245891571045,4.39487314224243,4.39728975296021,4.39970874786377,4.40213108062744,4.4045557975769,4.40698289871216,4.40941286087036,4.4228367805481,4.43823528289795,4.4537410736084,4.46935558319092,4.48507976531982,4.50091361999512,4.51685905456543,4.53291845321655,4.54909181594849,4.56538152694702,4.58178806304932,4.59831285476685,4.61495733261108,4.63172292709351,4.64861059188843,4.66562175750732,4.68275833129883,4.7000207901001,4.71741104125977,4.73493051528931,4.75258111953735,4.77036333084106,4.78827905654907,4.80632972717285,4.82451725006104,4.8428430557251,4.86130809783936,4.87991523742676,4.89866495132446,4.9175591468811,4.93659973144531,4.95578861236572,4.97512722015381,4.99461698532104,5.01426029205322,5.03405904769897,5.05401611328125,5.07413387298584,5.22769403457642,5.22911882400513,5.23054504394531,5.2319712638855,5.23339891433716,5.23482704162598,5.23625612258911,5.24093389511108,5.26211309432983,5.2834644317627,5.30498933792114,5.32669019699097,5.34856986999512,5.37062978744507,5.39287233352661,5.41529989242554,5.43791484832764,5.4607195854187,5.48371601104736,5.50690746307373,5.53029537200928,5.55388307571411,5.57767295837402,5.6016674041748,5.6258692741394,5.65028095245361,5.67490530014038,5.69974565505981,5.72480440139771,5.75008392333984,5.7755880355835,5.80131959915161,5.82728147506714,5.85347652435303,5.87990808486938,5.90657949447632,5.93352746963501,5.96076822280884,5.9882607460022,6.01600790023804,6.04401350021362,6.07228088378906,6.10081386566162,6.12961626052856,6.15869188308716,6.18804502487183,6.21767902374268,6.24759817123413,6.27780675888062,6.30830860137939,6.33910846710205,6.37021064758301,6.40161991119385,6.43334007263184,6.46537590026855,6.49773263931274,6.53041505813599,6.56649923324585,6.60615873336792,6.64630031585693,6.68693256378174,6.72806453704834,6.7697057723999,6.80854368209839,6.84510278701782,6.88205718994141,6.91941261291504,6.95717573165894,6.99535322189331,7.03395175933838,7.07297897338867,7.11244201660156,7.15234088897705,7.19268608093262,7.2334885597229,7.27475690841675,7.31649875640869,7.35872268676758,7.40143632888794,0,0,0,0,0,0,0,0,0,0,0,0,0,0,0,0,0,0,0,0,0,0,0,0,0,0,0,0,0,0,0,0,0,0,0,0,0,0,0,0,0,0,0,0,0,0,0,0,0,0,0,0,0,0,0,0,0,0,0,0,0,0,0,0,0,0,0,0,0,0,0,0,0,0,0,0,0,0,0,0,0,0,0,0,0,0,0,0,0,0,0,0,0,0,0,0,0,0,0,0,0,0,0,0,0,0,0,0,0,0,0,0,0,0,0,0,0,0,0,0,0,0,0,0,0,0,0,0,0,0,0,0,0,0,0,0,0,0,0,0,0,0,0,0,0,0,0,0,0,0,0,0,0,0,0,0,0,0,0,0,0,0,0,0,0,0,0,0
4.28973054885864,4.29203319549561,4.29433822631836,4.29664516448975,4.29895544052124,4.30126762390137,4.30358219146729,4.30589962005615,4.30821943283081,4.31054162979126,4.31286668777466,4.31519412994385,4.31752395629883,4.3198561668396,4.32219076156616,4.32452821731567,4.32686853408813,4.32921075820923,4.33155584335327,4.33390331268311,4.33625364303589,4.3386058807373,4.34096145629883,4.34331893920898,4.34567928314209,4.34804201126099,4.35040760040283,4.35277557373047,4.35514640808105,4.35751962661743,4.3598952293396,4.36227369308472,4.36465454101562,4.36703824996948,4.36942434310913,4.37181329727173,4.37420463562012,4.3765983581543,4.37899494171143,4.3813943862915,4.38379621505737,4.38620090484619,4.3886079788208,4.39101791381836,4.39343023300171,4.39584541320801,4.3982629776001,4.40068340301514,4.40310668945312,4.4055323600769,4.40796089172363,4.41039180755615,4.41282558441162,4.41526222229004,4.41770124435425,4.42014312744141,4.42430734634399,4.43971586227417,4.4552321434021,4.4708571434021,4.48659229278564,4.50243806838989,4.518394947052,4.53446483612061,4.55064964294434,4.56695032119751,4.5833683013916,4.59990453720093,4.61656045913696,4.63333797454834,4.65023708343506,4.66726064682007,4.68440866470337,4.70168352127075,4.71908664703369,4.73661851882935,4.75428104400635,4.77207612991333,4.79000473022461,4.80806875228882,4.82626914978027,4.84460830688477,4.86308717727661,4.88170766830444,4.90047121047974,4.91937971115112,4.93843460083008,4.95763731002808,4.97699069976807,4.99649477005005,5.01615285873413,5.03596639633179,5.05593729019165,5.07606649398804,5.09635734558105,5.11681413650513,5.22300958633423,5.22443199157715,5.22585535049438,5.22727966308594,5.22870445251465,5.24278163909912,5.26397609710693,5.2853422164917,5.30688238143921,5.32859897613525,5.35049438476562,5.3725700378418,5.39482879638672,5.41727256774902,5.43990421295166,5.46272563934326,5.48573923110962,5.50894737243652,5.53235292434692,5.55595827102661,5.57976579666138,5.60377836227417,5.62799835205078,5.65242862701416,5.67707204818726,5.70193099975586,5.72700881958008,5.75230836868286,5.77783250808716,5.80358362197876,5.82956552505493,5.85578155517578,5.8822340965271,5.90892648696899,5.93586254119873,5.96311569213867,5.99063014984131,6.01839923858643,6.04642677307129,6.07471704483032,6.10327291488647,6.13209867477417,6.16119813919067,6.19057464599609,6.22023296356201,6.25017690658569,6.28041076660156,6.31093788146973,6.34176349639893,6.37289190292358,6.40432739257812,6.43607425689697,6.46813774108887,6.50052213668823,6.53323268890381,6.56757545471191,6.60724782943726,6.6474027633667,6.68804883956909,6.72919464111328,6.77084970474243,6.8120288848877,6.84862613677979,6.88561820983887,6.92301273345947,6.96081495285034,6.99903249740601,7.03767251968384,7.07674074172974,7.11624574661255,7.15619325637817,7.19658184051514,7.23742866516113,7.27874231338501,7.32052993774414,7.36280012130737,7.40556192398071,7.44882249832153,0,0,0,0,0,0,0,0,0,0,0,0,0,0,0,0,0,0,0,0,0,0,0,0,0,0,0,0,0,0,0,0,0,0,0,0,0,0,0,0,0,0,0,0,0,0,0,0,0,0,0,0,0,0,0,0,0,0,0,0,0,0,0,0,0,0,0,0,0,0,0,0,0,0,0,0,0,0,0,0,0,0,0,0,0,0,0,0,0,0,0,0,0,0,0,0,0,0,0,0,0,0,0,0,0,0,0,0,0,0,0,0,0,0,0,0,0,0,0,0,0,0,0,0,0,0,0,0,0,0,0,0,0,0,0,0,0,0,0,0,0,0,0,0,0,0,0,0,0,0,0,0,0,0,0,0,0,0,0,0,0,0,0,0,0,0
4.29757499694824,4.29988574981689,4.30219888687134,4.30451488494873,4.30683326721191,4.30915403366089,4.31147718429565,4.31380319595337,4.31613159179688,4.31846237182617,4.32079553604126,4.3231315612793,4.32546997070312,4.32781076431274,4.33015441894531,4.33250045776367,4.33484888076782,4.33720016479492,4.33955383300781,4.34190988540649,4.34426879882812,4.34663009643555,4.34899377822876,4.35136032104492,4.35372972488403,4.35610103607178,4.35847520828247,4.36085224151611,4.36323165893555,4.36561346054077,4.36799812316895,4.37038564682007,4.37277507781982,4.37516784667969,4.37756299972534,4.37996053695679,4.38236093521118,4.38476371765137,4.3871693611145,4.38957738876343,4.3919882774353,4.39440202713013,4.39681816101074,4.39923715591431,4.40165853500366,4.40408277511597,4.40650939941406,4.40893888473511,4.4113712310791,4.41380596160889,4.41624355316162,4.4186840057373,4.42112684249878,4.4235725402832,4.42602109909058,4.42847204208374,4.43092584609985,4.43338203430176,4.44119787216187,4.45672416687012,4.4723596572876,4.48810529708862,4.50396251678467,4.51993179321289,4.53601264953613,4.5522084236145,4.56852054595947,4.5849494934082,4.60149717330933,4.61816501617432,4.63495397567749,4.65186500549316,4.66890048980713,4.68606090545654,4.70334768295288,4.72076272964478,4.7383074760437,4.75598239898682,4.77379035949707,4.79173183441162,4.8098087310791,4.82802295684814,4.84637498855591,4.86486768722534,4.8835015296936,4.90227890014648,4.92120122909546,4.94027042388916,4.9594874382019,4.97885513305664,4.99837446212769,5.01804733276367,5.03787565231323,5.057861328125,5.07800626754761,5.09831237792969,5.11878108978271,5.13941526412964,5.16021871566772,5.21833372116089,5.21975374221802,5.22359180450439,5.24463081359863,5.26584005355835,5.28722143173218,5.30877733230591,5.33050918579102,5.35242033004761,5.37451171875,5.3967866897583,5.41924715042114,5.44189500808716,5.4647331237793,5.48776340484619,5.51098918914795,5.53441190719604,5.55803489685059,5.58186054229736,5.60589075088501,5.63012933731079,5.65457820892334,5.67924022674561,5.70411825180054,5.72921562194824,5.75453472137451,5.78007841110229,5.80584955215454,5.83185195922852,5.85808849334717,5.88456201553345,5.9112753868103,5.93823289871216,5.96546506881714,5.99300098419189,6.02079200744629,6.04884243011475,6.07715511322021,6.10573387145996,6.13458299636841,6.16370582580566,6.19310665130615,6.22278928756714,6.25275802612305,6.28301668167114,6.31356954574585,6.34442090988159,6.37557554244995,6.40703725814819,6.43881130218506,6.47090196609497,6.50331401824951,6.53605270385742,6.56912279129028,6.60833787918091,6.64850568771362,6.68916511535645,6.73032474517822,6.77199411392212,6.8141827583313,6.85215282440186,6.88918352127075,6.92661619186401,6.96445846557617,7.00271606445312,7.0413966178894,7.08050632476807,7.1200532913208,7.16004467010498,7.20048189163208,7.24137353897095,7.2827320098877,7.32456541061401,7.36688280105591,7.40969181060791,7.45300102233887,0,0,0,0,0,0,0,0,0,0,0,0,0,0,0,0,0,0,0,0,0,0,0,0,0,0,0,0,0,0,0,0,0,0,0,0,0,0,0,0,0,0,0,0,0,0,0,0,0,0,0,0,0,0,0,0,0,0,0,0,0,0,0,0,0,0,0,0,0,0,0,0,0,0,0,0,0,0,0,0,0,0,0,0,0,0,0,0,0,0,0,0,0,0,0,0,0,0,0,0,0,0,0,0,0,0,0,0,0,0,0,0,0,0,0,0,0,0,0,0,0,0,0,0,0,0,0,0,0,0,0,0,0,0,0,0,0,0,0,0,0,0,0,0,0,0,0,0,0,0,0,0,0,0,0,0,0,0,0,0,0,0,0,0,0
4.30544757843018,4.30776691436768,4.31008863449097,4.31241321563721,4.31473970413208,4.3170690536499,4.31940126419067,4.32173538208008,4.32407236099243,4.32641172409058,4.32875394821167,4.3310980796814,4.33344554901123,4.3357949256897,4.33814716339111,4.34050178527832,4.34285879135132,4.34521865844727,4.34758138656616,4.34994602203369,4.35231351852417,4.3546838760376,4.35705661773682,4.35943174362183,4.36180973052979,4.36419010162354,4.36657333374023,4.36895895004272,4.37134695053101,4.37373781204224,4.37613153457642,4.37852764129639,4.38092613220215,4.38332748413086,4.38573169708252,4.38813829421997,4.39054775238037,4.39295959472656,4.3953742980957,4.39779138565063,4.40021133422852,4.40263366699219,4.40505933761597,4.40748691558838,4.4099178314209,4.41235065460205,4.41478681564331,4.41722536087036,4.41966676712036,4.42211103439331,4.42455768585205,4.42700719833374,4.42945909500122,4.43191432952881,4.43437194824219,4.43683195114136,4.43929529190063,4.4417610168457,4.44422960281372,4.44670104980469,4.45821762084961,4.47386360168457,4.48961973190308,4.5054874420166,4.52146768569946,4.53756141662598,4.55376863479614,4.57009124755859,4.58653211593628,4.6030912399292,4.61977052688599,4.63657093048096,4.65349388122559,4.67054128646851,4.68771362304688,4.70501279830933,4.72244024276733,4.73999738693237,4.75768518447876,4.77550601959229,4.79346036911011,4.81155061721802,4.82977771759033,4.84814310073853,4.86664915084839,4.88529682159424,4.90408802032471,4.92302465438843,4.94210767745972,4.96133899688721,4.98072099685669,5.00025510787964,5.01994276046753,5.03978633880615,5.05978679656982,5.07994747161865,5.10026884078979,5.1207537651062,5.14140367507935,5.16222095489502,5.18320751190186,5.21224975585938,5.22542762756348,5.24648141860962,5.26770544052124,5.28910207748413,5.31067323684692,5.33242082595825,5.35434770584106,5.37645530700684,5.39874601364136,5.42122268676758,5.44388723373413,5.46674203872681,5.4897894859314,5.51303243637085,5.5364727973938,5.56011295318604,5.58395624160767,5.60800504684448,5.63226175308228,5.65672922134399,5.68141031265259,5.70630741119385,5.73142385482788,5.75676250457764,5.78232574462891,5.80811738967896,5.83414030075073,5.86039686203003,5.88689136505127,5.9136266708374,5.94060516357422,5.9678316116333,5.99537420272827,6.02318716049194,6.05125951766968,6.07959508895874,6.10819721221924,6.13706970214844,6.16621589660645,6.195641040802,6.22534799575806,6.25534105300903,6.28562498092651,6.31620311737061,6.34708023071289,6.37826108932495,6.40974950790405,6.44155025482178,6.47366857528687,6.50610876083374,6.53887510299683,6.57197380065918,6.60942792892456,6.64960908889771,6.69028186798096,6.73145532608032,6.77313899993896,6.81534194946289,6.85568332672119,6.89275217056274,6.93022394180298,6.96810531616211,7.00640344619751,7.04512453079224,7.08427619934082,7.12386560440063,7.16389942169189,7.20438623428345,7.24532222747803,7.2867259979248,7.32860565185547,7.37096977233887,7.41382646560669,7.45718431472778,0,0,0,0,0,0,0,0,0,0,0,0,0,0,0,0,0,0,0,0,0,0,0,0,0,0,0,0,0,0,0,0,0,0,0,0,0,0,0,0,0,0,0,0,0,0,0,0,0,0,0,0,0,0,0,0,0,0,0,0,0,0,0,0,0,0,0,0,0,0,0,0,0,0,0,0,0,0,0,0,0,0,0,0,0,0,0,0,0,0,0,0,0,0,0,0,0,0,0,0,0,0,0,0,0,0,0,0,0,0,0,0,0,0,0,0,0,0,0,0,0,0,0,0,0,0,0,0,0,0,0,0,0,0,0,0,0,0,0,0,0,0,0,0,0,0,0,0,0,0,0,0,0,0,0,0,0,0,0,0,0,0,0,0
4.31334924697876,4.31567716598511,4.31800746917725,4.32034015655518,4.32267570495605,4.32501363754272,4.32735395431519,4.3296971321106,4.3320426940918,4.33439064025879,4.33674144744873,4.33909463882446,4.34145021438599,4.34380865097046,4.34616947174072,4.34853267669678,4.35089874267578,4.35326719284058,4.35563850402832,4.35801219940186,4.36038827896118,4.36276721954346,4.36514902114868,4.3675332069397,4.3699197769165,4.37230920791626,4.37470102310181,4.3770956993103,4.37949275970459,4.38189268112183,4.38429498672485,4.38670015335083,4.3891077041626,4.39151811599731,4.39393091201782,4.39634656906128,4.39876508712769,4.40118598937988,4.40360975265503,4.40603590011597,4.40846490859985,4.41089677810669,4.41333103179932,4.41576814651489,4.41820764541626,4.42065000534058,4.42309522628784,4.42554330825806,4.42799377441406,4.43044710159302,4.43290281295776,4.43536186218262,4.43782329559326,4.4402871131897,4.44275426864624,4.44522380828857,4.44769620895386,4.45017147064209,4.45264911651611,4.45513010025024,4.45761346817017,4.46009969711304,4.47536849975586,4.49113512039185,4.50701332092285,4.52300453186035,4.5391092300415,4.55532932281494,4.57166385650635,4.58811569213867,4.60468626022339,4.62137699127197,4.6381893157959,4.65512418746948,4.6721830368042,4.68936777114868,4.70667934417725,4.72411918640137,4.74168872833252,4.75938940048218,4.77722263336182,4.79518985748291,4.81329298019409,4.83153343200684,4.84991264343262,4.86843204498291,4.88709354400635,4.9058985710144,4.92484903335571,4.94394588470459,4.96319198608398,4.98258829116821,5.00213718414307,5.02183961868286,5.04169797897339,5.06171417236328,5.08189010620117,5.10222721099854,5.12272787094116,5.14339351654053,5.16422748565674,5.18522977828979,5.20640420913696,5.22740411758423,5.24833297729492,5.26957225799561,5.29098415374756,5.31257057189941,5.33433389663696,5.35627603530884,5.37839984893799,5.40070676803589,5.42319965362549,5.44588088989258,5.46875238418579,5.49181699752808,5.51507711410522,5.53853464126587,5.56219291687012,5.5860538482666,5.61012077331543,5.63439607620239,5.65888166427612,5.68358182907104,5.70849800109863,5.73363399505615,5.75899171829224,5.78457498550415,5.810387134552,5.83643007278442,5.86270761489868,5.88922309875488,5.91597938537598,5.94297981262207,5.97022771835327,5.99774885177612,6.02558422088623,6.0536789894104,6.0820369720459,6.11066198348999,6.13955783843994,6.16872835159302,6.19817686080933,6.22790861129761,6.25792646408081,6.28823518753052,6.31883907318115,6.34974193572998,6.38094902038574,6.4124641418457,6.44429206848145,6.47643756866455,6.5089054107666,6.54170036315918,6.57482767105103,6.61051797866821,6.65071296691895,6.69139909744263,6.73258638381958,6.77428388595581,6.81650114059448,6.85921716690063,6.89632415771484,6.93383502960205,6.97175645828247,7.01009464263916,7.04885673522949,7.08804988861084,7.12768125534058,7.16775894165039,7.20828914642334,7.24927520751953,7.2907247543335,7.33265018463135,7.37506103515625,7.41796541213989,7.46137189865112,7.50528955459595,0,0,0,0,0,0,0,0,0,0,0,0,0,0,0,0,0,0,0,0,0,0,0,0,0,0,0,0,0,0,0,0,0,0,0,0,0,0,0,0,0,0,0,0,0,0,0,0,0,0,0,0,0,0,0,0,0,0,0,0,0,0,0,0,0,0,0,0,0,0,0,0,0,0,0,0,0,0,0,0,0,0,0,0,0,0,0,0,0,0,0,0,0,0,0,0,0,0,0,0,0,0,0,0,0,0,0,0,0,0,0,0,0,0,0,0,0,0,0,0,0,0,0,0,0,0,0,0,0,0,0,0,0,0,0,0,0,0,0,0,0,0,0,0,0,0,0,0,0,0,0,0,0,0,0,0,0,0,0,0,0,0
4.32128000259399,4.32361650466919,4.32595539093018,4.32829713821411,4.33064079284668,4.3329873085022,4.33533668518066,4.33768796920776,4.34004259109497,4.34239912033081,4.3447585105896,4.34712028503418,4.34948492050171,4.35185194015503,4.35422134399414,4.3565936088562,4.35896825790405,4.36134576797485,4.36372566223145,4.36610841751099,4.36849355697632,4.37088108062744,4.37327146530151,4.37566423416138,4.37805986404419,4.38045835494995,4.3828592300415,4.38526248931885,4.38766860961914,4.39007759094238,4.39248895645142,4.3949031829834,4.39731979370117,4.39973926544189,4.40216112136841,4.40458583831787,4.40701341629028,4.40944337844849,4.41187620162964,4.41431140899658,4.41674995422363,4.41919040679932,4.42163419723511,4.42408037185669,4.42652940750122,4.42898082733154,4.43143510818481,4.43389225006104,4.43635225296021,4.43881464004517,4.44127988815308,4.44374799728394,4.44621849060059,4.44869232177734,4.45116853713989,4.45364761352539,4.45612907409668,4.45861387252808,4.46110105514526,4.4635910987854,4.46608400344849,4.46857976913452,4.47107839584351,4.47687435150146,4.49265146255493,4.50854063034058,4.52454233169556,4.54065847396851,4.55688953399658,4.57323694229126,4.58970022201538,4.60628223419189,4.62298440933228,4.63980865478516,4.6567554473877,4.67382621765137,4.69102334976196,4.70834684371948,4.72579908370972,4.74338102340698,4.76109457015991,4.77894067764282,4.79692077636719,4.8150372505188,4.83329057693481,4.85168313980103,4.87021589279175,4.88889122009277,4.90771007537842,4.92667436599731,4.9457859992981,4.96504640579224,4.98445749282837,5.00402069091797,5.02373838424683,5.04361152648926,5.06364297866821,5.08383417129517,5.10418701171875,5.12470293045044,5.14538526535034,5.16623497009277,5.18725395202637,5.20844507217407,5.22980976104736,5.25023412704468,5.27144050598145,5.2928671836853,5.31446933746338,5.33624792098999,5.35820627212524,5.38034582138062,5.40266895294189,5.42517852783203,5.4478759765625,5.47076463699341,5.49384593963623,5.51712322235107,5.54059839248657,5.56427431106567,5.58815336227417,5.61223840713501,5.63653182983398,5.66103601455688,5.68575477600098,5.71069049835205,5.7358455657959,5.76122283935547,5.78682613372803,5.81265830993652,5.83872175216675,5.86501979827881,5.89155626296997,5.91833353042603,5.9453558921814,5.97262573242188,6.00014686584473,6.02798271179199,6.05610036849976,6.08448123931885,6.11312913894653,6.14204835891724,6.17124223709106,6.20071506500244,6.23047113418579,6.26051378250122,6.29084777832031,6.32147693634033,6.35240602493286,6.38363933563232,6.41518068313599,6.44703578948975,6.47920894622803,6.51170444488525,6.54452753067017,6.5776834487915,6.61160898208618,6.65181684494019,6.69251680374146,6.733717918396,6.77542972564697,6.81766080856323,6.86042213439941,6.89990043640137,6.93745040893555,6.97541093826294,7.01378965377808,7.05259275436401,7.09182786941528,7.1315016746521,7.17162179946899,7.2121958732605,7.2532320022583,7.29472732543945,7.33669948577881,7.37915706634521,7.42210912704468,7.46556425094604,7.50953149795532,0,0,0,0,0,0,0,0,0,0,0,0,0,0,0,0,0,0,0,0,0,0,0,0,0,0,0,0,0,0,0,0,0,0,0,0,0,0,0,0,0,0,0,0,0,0,0,0,0,0,0,0,0,0,0,0,0,0,0,0,0,0,0,0,0,0,0,0,0,0,0,0,0,0,0,0,0,0,0,0,0,0,0,0,0,0,0,0,0,0,0,0,0,0,0,0,0,0,0,0,0,0,0,0,0,0,0,0,0,0,0,0,0,0,0,0,0,0,0,0,0,0,0,0,0,0,0,0,0,0,0,0,0,0,0,0,0,0,0,0,0,0,0,0,0,0,0,0,0,0,0,0,0,0,0,0,0,0,0,0,0
4.32923984527588,4.33158493041992,4.33393287658691,4.33628273010254,4.33863544464111,4.34099054336548,4.34334850311279,4.3457088470459,4.34807157516479,4.35043716430664,4.35280513763428,4.35517597198486,4.35754919052124,4.35992479324341,4.36230325698853,4.36468410491943,4.36706781387329,4.36945390701294,4.37184286117554,4.37423419952393,4.37662839889526,4.37902498245239,4.38142442703247,4.38382625579834,4.38623094558716,4.38863801956177,4.39104795455933,4.39346027374268,4.39587545394897,4.39829349517822,4.40071392059326,4.40313673019409,4.40556240081787,4.4079909324646,4.41042232513428,4.41285610198975,4.41529273986816,4.41773176193237,4.42017364501953,4.42261838912964,4.42506551742554,4.42751550674438,4.42996835708618,4.43242406845093,4.43488216400146,4.43734312057495,4.43980646133423,4.44227313995361,4.44474220275879,4.44721412658691,4.44968843460083,4.45216608047485,4.45464611053467,4.45712900161743,4.45961475372314,4.46210289001465,4.46459436416626,4.46708822250366,4.46958494186401,4.47208452224731,4.47458696365356,4.47709226608276,4.47960042953491,4.48211097717285,4.4846248626709,4.49416923522949,4.51006889343262,4.52608156204224,4.54220819473267,4.55845069885254,4.57480907440186,4.59128570556641,4.60787916183472,4.62459325790405,4.64142894744873,4.65838766098022,4.67547082901001,4.6926794052124,4.71001577377319,4.72747993469238,4.74507474899292,4.76280069351196,4.78065967559814,4.79865312576294,4.81678247451782,4.83504915237427,4.85345506668091,4.87200164794922,4.89069032669067,4.90952348709106,4.92850160598755,4.94762754440308,4.96690225601196,4.98632764816284,5.00590562820435,5.02563810348511,5.0455265045166,5.06557321548462,5.08577966690063,5.10614824295044,5.12668037414551,5.14737796783447,5.16824388504028,5.18927955627441,5.2104868888855,5.23186874389648,5.25342655181885,5.2733097076416,5.29475212097168,5.31636905670166,5.33816385269165,5.36013746261597,5.38229322433472,5.40463256835938,5.42715835571289,5.44987297058105,5.47277784347534,5.49587678909302,5.5191707611084,5.54266357421875,5.56635713577271,5.59025430679321,5.61435699462891,5.63866901397705,5.66319227218628,5.68792963027954,5.71288442611694,5.73805856704712,5.76345586776733,5.78907918930054,5.81493139266968,5.84101533889771,5.86733436584473,5.89389133453369,5.92069005966187,5.94773387908936,5.97502565383911,6.00256872177124,6.03038358688354,6.05852317810059,6.08692693710327,6.11559820175171,6.14454078674316,6.1737585067749,6.20325565338135,6.23303604125977,6.26310348510742,6.29346227645874,6.3241171836853,6.35507202148438,6.38633155822754,6.41790008544922,6.44978189468384,6.48198270797729,6.5145058631897,6.5473575592041,6.58054208755493,6.61406517028809,6.65292119979858,6.69363498687744,6.73484992980957,6.77657556533813,6.8188214302063,6.86159706115723,6.90348052978516,6.94106912612915,6.97906970977783,7.01748847961426,7.0563325881958,7.09560918807983,7.13532590866089,7.17548894882202,7.21610736846924,7.25718784332275,7.29873466491699,7.34075260162354,7.38325786590576,7.42625761032104,7.46976137161255,7.51377820968628,0,0,0,0,0,0,0,0,0,0,0,0,0,0,0,0,0,0,0,0,0,0,0,0,0,0,0,0,0,0,0,0,0,0,0,0,0,0,0,0,0,0,0,0,0,0,0,0,0,0,0,0,0,0,0,0,0,0,0,0,0,0,0,0,0,0,0,0,0,0,0,0,0,0,0,0,0,0,0,0,0,0,0,0,0,0,0,0,0,0,0,0,0,0,0,0,0,0,0,0,0,0,0,0,0,0,0,0,0,0,0,0,0,0,0,0,0,0,0,0,0,0,0,0,0,0,0,0,0,0,0,0,0,0,0,0,0,0,0,0,0,0,0,0,0,0,0,0,0,0,0,0,0,0,0,0,0,0,0,0
4.33722925186157,4.33958292007446,4.3419394493103,4.34429836273193,4.34665966033936,4.34902334213257,4.35138988494873,4.35375928878784,4.35613059997559,4.35850524902344,4.36088180541992,4.36326122283936,4.36564350128174,4.36802816390991,4.37041521072388,4.37280511856079,4.3751974105835,4.37759256362915,4.37999057769775,4.38239097595215,4.38479375839233,4.38719940185547,4.38960742950439,4.39201831817627,4.39443206787109,4.39684820175171,4.39926719665527,4.40168857574463,4.40411281585693,4.40653991699219,4.40896940231323,4.41140127182007,4.41383647918701,4.41627407073975,4.41871452331543,4.4211573600769,4.42360305786133,4.4260516166687,4.42850255966187,4.43095636367798,4.43341302871704,4.43587207794189,4.4383339881897,4.44079875946045,4.44326639175415,4.44573640823364,4.44820976257324,4.45068550109863,4.45316362380981,4.4556450843811,4.45812892913818,4.46061611175537,4.46310520172119,4.46559762954712,4.468092918396,4.47059059143066,4.47309160232544,4.47559499740601,4.47810125350952,4.48061037063599,4.4831223487854,4.48563718795776,4.48815488815308,4.49067497253418,4.49319839477539,4.49572420120239,4.4982533454895,4.51159811019897,4.52762174606323,4.5437593460083,4.56001281738281,4.57638263702393,4.59287071228027,4.60947751998901,4.62620306015015,4.64305067062378,4.66002130508423,4.67711639404297,4.69433736801147,4.71168565750122,4.72916269302368,4.74676942825317,4.76450824737549,4.78238010406494,4.80038642883301,4.81852865219116,4.8368091583252,4.85522842407227,4.87378835678101,4.89249086380005,4.91133785247803,4.93033027648926,4.94947004318237,4.96875905990601,4.98819923400879,5.0077919960022,5.02753925323486,5.04744291305542,5.0675048828125,5.08772659301758,5.1081109046936,5.12865877151489,5.14937257766724,5.17025470733643,5.19130659103394,5.21253108978271,5.23392915725708,5.25550413131714,5.27652359008789,5.29663801193237,5.31827068328857,5.34008073806763,5.36207056045532,5.38424205780029,5.40659761428833,5.42914009094238,5.45187091827393,5.47479295730591,5.49790859222412,5.52122020721436,5.5447301864624,5.56844139099121,5.59235668182373,5.61647748947144,5.64080810546875,5.66534996032715,5.69010639190674,5.71507978439331,5.74027395248413,5.76569080352783,5.79133367538452,5.81720590591431,5.84331035614014,5.86965036392212,5.89622831344604,5.92304849624634,5.95011377334595,5.97742748260498,6.00499296188354,6.03281402587891,6.06094837188721,6.08937501907349,6.11806917190552,6.14703512191772,6.17627716064453,6.20579814910889,6.23560285568237,6.26569509506226,6.29607915878296,6.32675981521606,6.35774040222168,6.38902616500854,6.42062139511108,6.45253086090088,6.4847583770752,6.51731014251709,6.55018997192383,6.58340358734131,6.61695528030396,6.65402603149414,6.69475317001343,6.73598194122314,6.7777214050293,6.81998157501221,6.8627724647522,6.90610313415527,6.94469165802002,6.98273181915283,7.02119159698486,7.06007671356201,7.09939527511597,7.13915395736694,7.17936086654663,7.22002267837524,7.26114797592163,7.30274486541748,7.344810962677,7.38736295700073,7.43041086196899,7.47396373748779,7.51802968978882,7.56261873245239,0,0,0,0,0,0,0,0,0,0,0,0,0,0,0,0,0,0,0,0,0,0,0,0,0,0,0,0,0,0,0,0,0,0,0,0,0,0,0,0,0,0,0,0,0,0,0,0,0,0,0,0,0,0,0,0,0,0,0,0,0,0,0,0,0,0,0,0,0,0,0,0,0,0,0,0,0,0,0,0,0,0,0,0,0,0,0,0,0,0,0,0,0,0,0,0,0,0,0,0,0,0,0,0,0,0,0,0,0,0,0,0,0,0,0,0,0,0,0,0,0,0,0,0,0,0,0,0,0,0,0,0,0,0,0,0,0,0,0,0,0,0,0,0,0,0,0,0,0,0,0,0,0,0,0,0,0,0
4.34524822235107,4.34761047363281,4.3499755859375,4.35234308242798,4.35471343994141,4.35708618164062,4.35946130752563,4.36183929443359,4.36421966552734,4.36660289764404,4.36898851394653,4.37137699127197,4.3737678527832,4.37616109848022,4.37855768203735,4.38095617294312,4.38335752487183,4.38576173782349,4.38816833496094,4.39057779312134,4.39298963546753,4.39540433883667,4.3978214263916,4.40024137496948,4.40266418457031,4.40508937835693,4.4075174331665,4.40994787216187,4.41238117218018,4.41481733322144,4.41725587844849,4.41969728469849,4.42214155197144,4.42458820343018,4.42703771591187,4.4294900894165,4.43194484710693,4.43440246582031,4.43686294555664,4.43932580947876,4.44179153442383,4.44426012039185,4.44673156738281,4.44920587539673,4.45168256759644,4.45416212081909,4.4566445350647,4.45912981033325,4.4616174697876,4.46410846710205,4.46660184860229,4.46909809112549,4.47159719467163,4.47409868240356,4.47660350799561,4.47911071777344,4.48162126541138,4.48413419723511,4.48664999008179,4.48916864395142,4.49169015884399,4.49421453475952,4.496741771698,4.49927186965942,4.5018048286438,4.50434064865112,4.5068793296814,4.50942087173462,4.51312828063965,4.52916288375854,4.54531145095825,4.5615758895874,4.57795715332031,4.5944561958313,4.61107492446899,4.62781429290771,4.64467334747314,4.66165590286255,4.67876291275024,4.69599628448486,4.71335649490356,4.73084592819214,4.7484655380249,4.76621723175049,4.78410196304321,4.80212116241455,4.82027673721313,4.83857011795044,4.85700273513794,4.87557649612427,4.8942928314209,4.91315364837646,4.93215990066528,4.95131397247314,4.97061777114868,4.99007225036621,5.00967979431152,5.02944183349609,5.04936075210571,5.06943798065186,5.08967542648315,5.11007499694824,5.13063859939575,5.15136861801147,5.17226696014404,5.19333553314209,5.21457624435425,5.23599147796631,5.2575831413269,5.27935409545898,5.29978561401367,5.3201732635498,5.34199905395508,5.36400461196899,5.38619232177734,5.40856456756592,5.43112277984619,5.45387029647827,5.47680950164795,5.49994230270386,5.52327108383179,5.54679870605469,5.57052755355835,5.59446048736572,5.6185998916626,5.64294862747192,5.66750907897949,5.69228458404541,5.71727705001831,5.74249076843262,5.7679271697998,5.79359006881714,5.81948280334473,5.8456072807312,5.87196779251099,5.89856719970703,5.92540884017944,5.95249557495117,5.97983121871948,6.00741910934448,6.03526258468628,6.06337547302246,6.09182500839233,6.12054252624512,6.14953184127808,6.17879724502563,6.20834255218506,6.23817157745361,6.26828908920288,6.29869842529297,6.32940435409546,6.36041116714478,6.39172315597534,6.42334508895874,6.45528173446655,6.48753690719604,6.52011632919312,6.55302476882935,6.58626699447632,6.61984825134277,6.65513134002686,6.69587182998657,6.73711442947388,6.77886819839478,6.82114267349243,6.86394786834717,6.90729379653931,6.94831800460815,6.98639822006226,7.02489805221558,7.06382465362549,7.10318517684937,7.14298629760742,7.18323612213135,7.22394275665283,7.26511287689209,7.30675458908081,7.34887313842773,7.39147281646729,7.43456888198853,7.47817039489746,7.5222864151001,7.56692552566528,0,0,0,0,0,0,0,0,0,0,0,0,0,0,0,0,0,0,0,0,0,0,0,0,0,0,0,0,0,0,0,0,0,0,0,0,0,0,0,0,0,0,0,0,0,0,0,0,0,0,0,0,0,0,0,0,0,0,0,0,0,0,0,0,0,0,0,0,0,0,0,0,0,0,0,0,0,0,0,0,0,0,0,0,0,0,0,0,0,0,0,0,0,0,0,0,0,0,0,0,0,0,0,0,0,0,0,0,0,0,0,0,0,0,0,0,0,0,0,0,0,0,0,0,0,0,0,0,0,0,0,0,0,0,0,0,0,0,0,0,0,0,0,0,0,0,0,0,0,0,0,0,0,0,0,0,0
4.35329675674438,4.35566806793213,4.35804176330566,4.36041831970215,4.36279726028442,4.36517858505249,4.36756277084351,4.36994934082031,4.37233877182007,4.37473106384277,4.37712526321411,4.37952280044556,4.38192224502563,4.38432502746582,4.3867301940918,4.38913774490356,4.39154815673828,4.39396142959595,4.3963770866394,4.39879512786865,4.40121650695801,4.403639793396,4.40606641769409,4.40849542617798,4.41092681884766,4.41336154937744,4.41579866409302,4.41823816299438,4.4206805229187,4.42312574386597,4.42557382583618,4.42802429199219,4.43047761917114,4.43293380737305,4.43539237976074,4.43785381317139,4.44031810760498,4.44278526306152,4.44525480270386,4.44772720336914,4.45020246505737,4.4526801109314,4.45516109466553,4.45764446258545,4.46013069152832,4.46261978149414,4.46511173248291,4.46760606765747,4.47010326385498,4.4726037979126,4.47510671615601,4.47761249542236,4.48012113571167,4.48263216018677,4.48514652252197,4.48766326904297,4.49018335342407,4.49270629882812,4.49523162841797,4.49775981903076,4.50029134750366,4.50282526016235,4.50536203384399,4.50790166854858,4.51044464111328,4.51298999786377,4.51553821563721,4.51808977127075,4.52064371109009,4.52320098876953,4.53070497512817,4.54686498641968,4.56314039230347,4.57953262329102,4.59604358673096,4.61267328262329,4.62942457199097,4.64629745483398,4.66329193115234,4.68041086196899,4.69765615463257,4.71502876281738,4.73253107070923,4.75016307830811,4.7679271697998,4.7858247756958,4.80385684967041,4.82202577590942,4.84033250808716,4.85877847671509,4.877366065979,4.89609622955322,4.91497087478638,4.93399143218994,4.95315980911255,4.97247743606567,4.99194669723511,5.01156902313232,5.03134632110596,5.05128002166748,5.07137250900269,5.09162521362305,5.11204051971436,5.13262033462524,5.15336656570435,5.17428064346313,5.19536590576172,5.21662330627441,5.23805522918701,5.2596640586853,5.28145217895508,5.30307722091675,5.3232536315918,5.343918800354,5.3659405708313,5.38814401626587,5.41053247451782,5.43310737609863,5.45587158203125,5.47882747650146,5.50197696685791,5.52532339096069,5.54886865615845,5.57261514663696,5.59656620025635,5.62072372436523,5.64509057998657,5.66967010498047,5.69446420669556,5.71947622299194,5.74470901489258,5.77016544342041,5.79584836959839,5.82176113128662,5.84790658950806,5.87428760528564,5.90090799331665,5.92777061462402,5.95487928390503,5.98223686218262,6.00984668731689,6.03771305084229,6.06583881378174,6.09427690505981,6.12301731109619,6.15203046798706,6.18131971359253,6.21088933944702,6.24074268341064,6.27088499069214,6.30131959915161,6.33205127716064,6.3630838394165,6.39442253112793,6.42607116699219,6.45803499221802,6.49031782150269,6.52292537689209,6.55586194992065,6.58913326263428,6.62274360656738,6.65669870376587,6.69699096679688,6.73824739456177,6.78001546859741,6.82230424880981,6.8651237487793,6.90848445892334,6.95194816589355,6.99006843566895,7.02860879898071,7.06757640838623,7.10697889328003,7.14682292938232,7.18711614608765,7.22786617279053,7.26908159255981,7.31076908111572,7.35293769836426,7.39558696746826,7.43873119354248,7.48238182067871,7.5265474319458,7.57123756408691,7.61646223068237,0,0,0,0,0,0,0,0,0,0,0,0,0,0,0,0,0,0,0,0,0,0,0,0,0,0,0,0,0,0,0,0,0,0,0,0,0,0,0,0,0,0,0,0,0,0,0,0,0,0,0,0,0,0,0,0,0,0,0,0,0,0,0,0,0,0,0,0,0,0,0,0,0,0,0,0,0,0,0,0,0,0,0,0,0,0,0,0,0,0,0,0,0,0,0,0,0,0,0,0,0,0,0,0,0,0,0,0,0,0,0,0,0,0,0,0,0,0,0,0,0,0,0,0,0,0,0,0,0,0,0,0,0,0,0,0,0,0,0,0,0,0,0,0,0,0,0,0,0,0,0,0,0,0,0
4.36137533187866,4.36375522613525,4.36613798141479,4.36852312088013,4.37091112136841,4.37330150604248,4.37569427490234,4.37808990478516,4.38048839569092,4.38288927078247,4.38529253005981,4.38769865036011,4.39010763168335,4.39251899719238,4.39493322372437,4.39734983444214,4.39976930618286,4.40219163894653,4.404616355896,4.40704345703125,4.40947389602661,4.41190671920776,4.41434192657471,4.4167799949646,4.41922092437744,4.42166471481323,4.42411088943481,4.42655992507935,4.42901134490967,4.43146562576294,4.43392276763916,4.43638277053833,4.43884515762329,4.44131088256836,4.44377851486206,4.44624948501587,4.44872331619263,4.45119953155518,4.45367860794067,4.45616006851196,4.45864486694336,4.46113204956055,4.46362209320068,4.46611499786377,4.4686107635498,4.47110939025879,4.47361087799072,4.47611474990845,4.47862148284912,4.4811315536499,4.48364400863647,4.486159324646,4.48867750167847,4.49119853973389,4.49372243881226,4.49624872207642,4.49877834320068,4.5013108253479,4.50384616851807,4.50638389587402,4.50892496109009,4.5114688873291,4.51401519775391,4.51656484603882,4.51911735534668,4.52167272567749,4.52423095703125,4.52679204940796,4.52935600280762,4.53192281723022,4.53449249267578,4.53706550598145,4.54841899871826,4.56470584869385,4.58110952377319,4.59763145446777,4.61427307128906,4.63103580474854,4.64792060852051,4.6649284362793,4.68205976486206,4.69931745529175,4.71670246124268,4.73421669006348,4.75186157226562,4.7696385383606,4.78754854202271,4.80559396743774,4.82377624511719,4.84209585189819,4.86055564880371,4.87915658950806,4.89790058135986,4.91678905487061,4.93582391738892,4.95500659942627,4.9743390083313,4.99382257461548,5.0134596824646,5.03325176239014,5.05320072174072,5.07330846786499,5.09357690811157,5.1140079498291,5.13460350036621,5.15536546707153,5.17629623413086,5.19739770889282,5.21867179870605,5.24012088775635,5.26174688339233,5.2835521697998,5.30553865432739,5.32657480239868,5.34693050384521,5.36787748336792,5.39009714126587,5.4125018119812,5.43509292602539,5.45787382125854,5.48084688186646,5.5040135383606,5.52737712860107,5.55094003677368,5.57470417022705,5.59867334365845,5.62284898757935,5.64723443984985,5.67183256149292,5.69664573669434,5.72167682647705,5.74692916870117,5.77240514755249,5.79810810089111,5.82404136657715,5.85020732879639,5.87660932540894,5.9032506942749,5.93013477325439,5.95726490020752,5.98464441299438,6.0122766494751,6.04016542434692,6.06831407546997,6.09673070907593,6.12549448013306,6.15453100204468,6.18384408950806,6.21343755722046,6.24331617355347,6.27348327636719,6.30394315719604,6.33470010757446,6.36575937271118,6.39712429046631,6.42879962921143,6.46079015731812,6.49310111999512,6.5257363319397,6.55870199203491,6.59200191497803,6.62564134597778,6.65962648391724,6.69811058044434,6.73938083648682,6.78116273880005,6.8234658241272,6.86630010604858,6.90967607498169,6.95360279083252,6.9937424659729,7.03232336044312,7.0713324546814,7.11077690124512,7.15066385269165,7.19100046157837,7.23179483413696,7.27305459976196,7.31478834152222,7.3570032119751,7.39970588684082,7.44289827346802,7.48659753799438,7.53081369400024,7.57555484771729,7.62083053588867,0,0,0,0,0,0,0,0,0,0,0,0,0,0,0,0,0,0,0,0,0,0,0,0,0,0,0,0,0,0,0,0,0,0,0,0,0,0,0,0,0,0,0,0,0,0,0,0,0,0,0,0,0,0,0,0,0,0,0,0,0,0,0,0,0,0,0,0,0,0,0,0,0,0,0,0,0,0,0,0,0,0,0,0,0,0,0,0,0,0,0,0,0,0,0,0,0,0,0,0,0,0,0,0,0,0,0,0,0,0,0,0,0,0,0,0,0,0,0,0,0,0,0,0,0,0,0,0,0,0,0,0,0,0,0,0,0,0,0,0,0,0,0,0,0,0,0,0,0,0,0,0,0,0
4.36948394775391,4.3718729019165,4.37426424026489,4.37665843963623,4.37905502319336,4.38145446777344,4.38385629653931,4.38626098632812,4.38866806030273,4.39107799530029,4.39349031448364,4.39590549468994,4.39832353591919,4.40074396133423,4.40316724777222,4.405592918396,4.40802145004272,4.41045236587524,4.41288661956787,4.41532278060913,4.4177622795105,4.42020416259766,4.42264890670776,4.42509603500366,4.42754650115967,4.42999887466431,4.43245458602905,4.43491268157959,4.43737363815308,4.43983745574951,4.44230365753174,4.44477272033691,4.44724464416504,4.44971942901611,4.45219707489014,4.45467710494995,4.45715999603271,4.45964574813843,4.46213436126709,4.46462535858154,4.46711921691895,4.46961641311646,4.47211599349976,4.47461843490601,4.47712326049805,4.4796314239502,4.48214244842529,4.48465585708618,4.48717260360718,4.48969173431396,4.4922137260437,4.49473905563354,4.49726676940918,4.49979734420776,4.5023307800293,4.50486707687378,4.50740623474121,4.50994825363159,4.51249313354492,4.51504135131836,4.51759195327759,4.52014541625977,4.52270174026489,4.52526140213013,4.52782344818115,4.53038883209229,4.53295660018921,4.53552770614624,4.53810167312622,4.54067850112915,4.54325819015503,4.54584074020386,4.54842662811279,4.55101490020752,4.56627225875854,4.58268737792969,4.59922075271606,4.61587381362915,4.63264799118042,4.64954471588135,4.66656494140625,4.6837100982666,4.70097970962524,4.71837711334229,4.7359037399292,4.75356149673462,4.7713508605957,4.78927421569824,4.80733251571655,4.82552766799927,4.84386110305786,4.86233425140381,4.88094854354858,4.89970636367798,4.91860866546631,4.93765783309937,4.95685482025146,4.97620153427124,4.99569988250732,5.01535177230835,5.03515911102295,5.05512285232544,5.07524585723877,5.09553003311157,5.11597681045532,5.13658809661865,5.15736627578735,5.17831325531006,5.1994309425354,5.22072172164917,5.24218797683716,5.26383066177368,5.28565359115601,5.30765771865845,5.32984590530396,5.35028123855591,5.37081909179688,5.39205169677734,5.41447257995605,5.43708038330078,5.45987796783447,5.48286771774292,5.50605154037476,5.52943229675293,5.55301284790039,5.57679510116577,5.60078191757202,5.62497615814209,5.64938020706177,5.673996925354,5.69882917404175,5.72387933731079,5.7491512298584,5.7746467590332,5.80037021636963,5.82632303237915,5.85250949859619,5.8789324760437,5.90559530258179,5.9325008392334,5.95965242385864,5.98705387115479,6.01470851898193,6.0426197052002,6.07079124450684,6.09922695159912,6.12797355651855,6.15703344345093,6.18637037277222,6.21598863601685,6.24589157104492,6.27608346939087,6.30656862258911,6.33735179901123,6.36843633651733,6.39982795715332,6.43153047561646,6.46354818344116,6.49588680267334,6.52855014801025,6.5615439414978,6.59487295150757,6.62854194641113,6.66255664825439,6.69923067092896,6.74051475524902,6.78231048583984,6.8246283531189,6.86747694015503,6.91086769104004,6.95480966567993,6.99742031097412,7.03604173660278,7.07509231567383,7.11457872390747,7.15450859069824,7.19488859176636,7.23572731018066,7.27703237533569,7.31881141662598,7.36107349395752,7.4038257598877,7.44707012176514,7.4908185005188,7.53508424758911,7.57987642288208,7.62520408630371,0,0,0,0,0,0,0,0,0,0,0,0,0,0,0,0,0,0,0,0,0,0,0,0,0,0,0,0,0,0,0,0,0,0,0,0,0,0,0,0,0,0,0,0,0,0,0,0,0,0,0,0,0,0,0,0,0,0,0,0,0,0,0,0,0,0,0,0,0,0,0,0,0,0,0,0,0,0,0,0,0,0,0,0,0,0,0,0,0,0,0,0,0,0,0,0,0,0,0,0,0,0,0,0,0,0,0,0,0,0,0,0,0,0,0,0,0,0,0,0,0,0,0,0,0,0,0,0,0,0,0,0,0,0,0,0,0,0,0,0,0,0,0,0,0,0,0,0,0,0,0,0,0
4.37762260437012,4.38002014160156,4.38242053985596,4.3848237991333,4.38722944259644,4.38963747024536,4.39204883575439,4.39446210861206,4.39687824249268,4.39929723739624,4.40171909332275,4.40414333343506,4.40656995773315,4.4089994430542,4.41143178939819,4.41386699676514,4.41630458831787,4.4187445640564,4.42118787765503,4.42363357543945,4.42608213424683,4.42853307723999,4.4309868812561,4.43344354629517,4.43590307235718,4.43836498260498,4.44082975387573,4.44329738616943,4.44576740264893,4.44824028015137,4.45071601867676,4.4531946182251,4.45567607879639,4.45815992355347,4.46064710617065,4.46313667297363,4.46562910079956,4.46812391281128,4.47062206268311,4.47312259674072,4.47562646865845,4.47813272476196,4.48064184188843,4.48315382003784,4.48566865921021,4.48818635940552,4.49070644378662,4.49322986602783,4.49575614929199,4.49828481674194,4.500816822052,4.50335121154785,4.50588893890381,4.50842905044556,4.51097249984741,4.51351833343506,4.51606750488281,4.51861953735352,4.52117395401001,4.52373170852661,4.52629232406616,4.52885580062866,4.53142213821411,4.53399133682251,4.53656339645386,4.53913831710815,4.54171657562256,4.54429769515991,4.54688119888306,4.54946804046631,4.55205774307251,4.55465078353882,4.55724620819092,4.55984497070312,4.56244659423828,4.56783962249756,4.5842661857605,4.60081100463867,4.61747550964355,4.63426160812378,4.6511697769165,4.66820192337036,4.68535947799683,4.70264339447021,4.72005319595337,4.7375922203064,4.75526237487793,4.77306461334229,4.7910008430481,4.80907201766968,4.82728052139282,4.84562730789185,4.86411380767822,4.88274192810059,4.90151357650757,4.92043018341064,4.93949317932129,4.95870447158813,4.97806549072266,4.99757862091064,5.01724529266357,5.03706741333008,5.05704641342163,5.07718515396118,5.09748458862305,5.11794710159302,5.13857412338257,5.15936851501465,5.18033170700073,5.20146608352661,5.22277355194092,5.24425649642944,5.26591682434082,5.28775644302368,5.30977821350098,5.3319845199585,5.35363626480103,5.37419986724854,5.39492177963257,5.41644477844238,5.43906927108765,5.46188354492188,5.48488998413086,5.50809097290039,5.53148937225342,5.55508708953857,5.57888746261597,5.60289239883423,5.62710475921631,5.651526927948,5.67616271972656,5.70101404190063,5.72608375549316,5.7513747215271,5.77689027786255,5.80263328552246,5.82860708236694,5.85481405258179,5.8812575340271,5.90794134140015,5.93486833572388,5.9620418548584,5.98946523666382,6.0171422958374,6.04507637023926,6.07327079772949,6.10172986984253,6.13045644760132,6.15953826904297,6.18889904022217,6.21854114532471,6.24846887588501,6.27868604660034,6.30919647216797,6.34000539779663,6.37111616134644,6.40253400802612,6.43426322937012,6.46630859375,6.4986743927002,6.5313663482666,6.56438875198364,6.5977463722229,6.63144493103027,6.6654896736145,6.70035076141357,6.74164867401123,6.7834587097168,6.8257908821106,6.86865425109863,6.91205978393555,6.9560170173645,7.00053739547729,7.03976440429688,7.07885646820068,7.11838483810425,7.1583571434021,7.19878101348877,7.23966407775879,7.28101396560669,7.32283926010132,7.36514759063721,7.40794801712036,7.45124626159668,7.49504470825195,7.53936004638672,7.58420324325562,7.62958288192749,7.67550897598267,0,0,0,0,0,0,0,0,0,0,0,0,0,0,0,0,0,0,0,0,0,0,0,0,0,0,0,0,0,0,0,0,0,0,0,0,0,0,0,0,0,0,0,0,0,0,0,0,0,0,0,0,0,0,0,0,0,0,0,0,0,0,0,0,0,0,0,0,0,0,0,0,0,0,0,0,0,0,0,0,0,0,0,0,0,0,0,0,0,0,0,0,0,0,0,0,0,0,0,0,0,0,0,0,0,0,0,0,0,0,0,0,0,0,0,0,0,0,0,0,0,0,0,0,0,0,0,0,0,0,0,0,0,0,0,0,0,0,0,0,0,0,0,0,0,0,0,0,0,0,0
4.38579177856445,4.3881983757019,4.3906078338623,4.3930196762085,4.39543437957764,4.39785194396973,4.40027189254761,4.40269422531128,4.4051194190979,4.40754747390747,4.40997838973999,4.4124116897583,4.41484785079956,4.41728639602661,4.41972780227661,4.42217206954956,4.4246187210083,4.42706823348999,4.42952060699463,4.43197536468506,4.43443298339844,4.43689346313477,4.43935680389404,4.44182252883911,4.44429111480713,4.4467625617981,4.44923639297485,4.45171356201172,4.45419311523438,4.45667552947998,4.45916080474854,4.46164846420288,4.46413946151733,4.46663284301758,4.46912908554077,4.47162818908691,4.47413015365601,4.47663450241089,4.47914218902588,4.48165225982666,4.48416566848755,4.48668146133423,4.48920011520386,4.49172163009644,4.49424648284912,4.4967737197876,4.49930381774902,4.50183629989624,4.50437211990356,4.50691080093384,4.50945234298706,4.51199674606323,4.51454401016235,4.51709413528442,4.51964712142944,4.52220296859741,4.52476215362549,4.52732372283936,4.52988815307617,4.5324559211731,4.53502607345581,4.53759956359863,4.5401759147644,4.54275512695312,4.54533720016479,4.54792213439941,4.55050992965698,4.55310106277466,4.55569505691528,4.55829191207886,4.56089162826538,4.56349420547485,4.56610012054443,4.56870889663696,4.57132053375244,4.57393550872803,4.5765528678894,4.58584594726562,4.6024022102356,4.61907863616943,4.63587617874146,4.65279626846313,4.66984033584595,4.68700981140137,4.70430612564087,4.72173023223877,4.73928165435791,4.75696468353271,4.77477979660034,4.79272842407227,4.81081295013428,4.82903480529785,4.8473949432373,4.86589479446411,4.88453674316406,4.90332221984863,4.9222526550293,4.94132947921753,4.96055507659912,4.97993087768555,4.99945878982544,5.01914024353027,5.03897714614868,5.05897188186646,5.07912540435791,5.099440574646,5.11991882324219,5.14056205749512,5.16137218475342,5.18235206604004,5.2035026550293,5.22482681274414,5.24632692337036,5.26800441741943,5.28986120223999,5.31190061569214,5.33412456512451,5.35653495788574,5.37758445739746,5.39833307266235,5.4192419052124,5.44105958938599,5.46389055252075,5.48691368103027,5.51013231277466,5.53354787826538,5.55716323852539,5.58098125457764,5.60500431060791,5.629234790802,5.65367603302002,5.6783299446106,5.703200340271,5.72828960418701,5.75360012054443,5.77913570404053,5.80489873886108,5.83089256286621,5.85712003707886,5.88358449935913,5.9102897644043,5.93723821640015,5.96443319320679,5.99187898635864,6.01957845687866,6.04753494262695,6.07575225830078,6.10423421859741,6.13298463821411,6.16204500198364,6.19142961502075,6.22109651565552,6.25104856491089,6.28129053115845,6.31182670593262,6.34266090393066,6.37379789352417,6.40524244308472,6.43699836730957,6.46907138824463,6.50146484375,6.53418493270874,6.56723546981812,6.60062265396118,6.63435077667236,6.6684250831604,6.70285177230835,6.7427830696106,6.78460741043091,6.82695388793945,6.86983203887939,6.91325235366821,6.95722484588623,7.00176048278809,7.04349088668823,7.0826244354248,7.12219476699829,7.16221046447754,7.20267772674561,7.24360513687134,7.28500032424927,7.32687139511108,7.36922645568848,7.41207408905029,7.45542287826538,7.49927473068237,7.54364109039307,7.58853483200073,7.63396692276001,7.67994546890259,0,0,0,0,0,0,0,0,0,0,0,0,0,0,0,0,0,0,0,0,0,0,0,0,0,0,0,0,0,0,0,0,0,0,0,0,0,0,0,0,0,0,0,0,0,0,0,0,0,0,0,0,0,0,0,0,0,0,0,0,0,0,0,0,0,0,0,0,0,0,0,0,0,0,0,0,0,0,0,0,0,0,0,0,0,0,0,0,0,0,0,0,0,0,0,0,0,0,0,0,0,0,0,0,0,0,0,0,0,0,0,0,0,0,0,0,0,0,0,0,0,0,0,0,0,0,0,0,0,0,0,0,0,0,0,0,0,0,0,0,0,0,0,0,0,0,0,0,0,0
4.39399147033691,4.39640712738037,4.39882564544678,4.40124654769897,4.40367031097412,4.40609645843506,4.40852546691895,4.41095733642578,4.41339159011841,4.41582870483398,4.41826868057251,4.42071104049683,4.42315626144409,4.42560434341431,4.42805480957031,4.43050813674927,4.43296432495117,4.43542289733887,4.43788480758667,4.44034862518311,4.44281578063965,4.44528579711914,4.44775819778442,4.45023345947266,4.45271110534668,4.45519208908081,4.45767545700073,4.4601616859436,4.46265077590942,4.46514272689819,4.46763706207275,4.47013473510742,4.47263479232788,4.47513771057129,4.47764348983765,4.48015213012695,4.48266363143921,4.48517799377441,4.48769474029541,4.49021482467651,4.49273729324341,4.49526309967041,4.4977912902832,4.5003228187561,4.50285673141479,4.50539398193359,4.50793361663818,4.51047611236572,4.51302194595337,4.51557016372681,4.51812124252319,4.52067565917969,4.52323293685913,4.52579259872437,4.52835559844971,4.530921459198,4.53349018096924,4.53606176376343,4.53863620758057,4.54121351242065,4.54379367828369,4.54637718200684,4.54896354675293,4.55155277252197,4.55414485931396,4.55673980712891,4.55933809280396,4.56193876266479,4.56454277038574,4.56714963912964,4.56975984573364,4.57237243652344,4.57498836517334,4.57760763168335,4.58022928237915,4.58285427093506,4.58548212051392,4.58811330795288,4.59074687957764,4.60399484634399,4.62068271636963,4.63749170303345,4.65442371368408,4.67148017883301,4.68866157531738,4.70596981048584,4.72340679168701,4.7409725189209,4.75866794586182,4.77649593353271,4.79445791244507,4.81255531311035,4.8307900428772,4.84916353225708,4.86767721176147,4.88633298873901,4.90513181686401,4.92407655715942,4.9431676864624,4.96240758895874,4.98179769515991,5.00134038925171,5.02103662490845,5.04088878631592,5.0608983039856,5.08106756210327,5.10139799118042,5.12189197540283,5.14255142211914,5.16337776184082,5.18437385559082,5.20554113388062,5.226881980896,5.24839878082275,5.27009344100952,5.29196786880493,5.31402492523193,5.33626651763916,5.3586950302124,5.38097381591797,5.4017481803894,5.42268419265747,5.44378232955933,5.4658989906311,5.48893928527832,5.51217460632324,5.53560781478882,5.55924081802368,5.58307647705078,5.60711765289307,5.63136672973633,5.65582609176636,5.68049955368042,5.70538854598999,5.73049688339233,5.7558274269104,5.78138256072998,5.80716562271118,5.83317995071411,5.85942792892456,5.88591337203979,5.91263961791992,5.93960952758789,5.96682643890381,5.99429416656494,6.0220160484314,6.04999542236328,6.07823610305786,6.10674142837524,6.1355152130127,6.16456174850464,6.19396257400513,6.2236533164978,6.2536301612854,6.28389739990234,6.3144588470459,6.34531879425049,6.37648248672485,6.4079532623291,6.43973636627197,6.47183609008789,6.5042576789856,6.53700590133667,6.57008504867554,6.60350131988525,6.63725900650024,6.67136335372925,6.70582008361816,6.74391794204712,6.78575658798218,6.82811737060547,6.87101030349731,6.91444540023804,6.95843315124512,7.00298452377319,7.04722118377686,7.08639621734619,7.12600946426392,7.16606760025024,7.20657873153687,7.24755096435547,7.28899097442627,7.33090829849243,7.37331008911133,7.41620540618896,7.45960283279419,7.50350999832153,7.54792642593384,7.59287166595459,7.63835525512695,7.68438720703125,7.7309775352478,0,0,0,0,0,0,0,0,0,0,0,0,0,0,0,0,0,0,0,0,0,0,0,0,0,0,0,0,0,0,0,0,0,0,0,0,0,0,0,0,0,0,0,0,0,0,0,0,0,0,0,0,0,0,0,0,0,0,0,0,0,0,0,0,0,0,0,0,0,0,0,0,0,0,0,0,0,0,0,0,0,0,0,0,0,0,0,0,0,0,0,0,0,0,0,0,0,0,0,0,0,0,0,0,0,0,0,0,0,0,0,0,0,0,0,0,0,0,0,0,0,0,0,0,0,0,0,0,0,0,0,0,0,0,0,0,0,0,0,0,0,0,0,0,0,0,0,0
4.4022216796875,4.40464639663696,4.40707397460938,4.40950393676758,4.41193675994873,4.41437244415283,4.41681051254272,4.41925144195557,4.42169523239136,4.42414140701294,4.42659044265747,4.42904186248779,4.43149662017822,4.43395376205444,4.43641328811646,4.43887615203857,4.44134140014648,4.44380950927734,4.44628047943115,4.44875383377075,4.4512300491333,4.45370960235596,4.45619106292725,4.45867586135864,4.46116304397583,4.46365356445312,4.46614646911621,4.46864223480225,4.47114038467407,4.47364187240601,4.47614622116089,4.47865295410156,4.48116254806519,4.48367547988892,4.48619079589844,4.48870897293091,4.49123001098633,4.4937539100647,4.49628019332886,4.49880981445312,4.50134229660034,4.50387763977051,4.50641584396362,4.50895643234253,4.51150035858154,4.51404714584351,4.51659679412842,4.51914930343628,4.52170467376709,4.52426290512085,4.52682399749756,4.52938795089722,4.53195476531982,4.53452444076538,4.53709745407104,4.53967332839966,4.54225158691406,4.54483318328857,4.54741764068604,4.55000495910645,4.55259561538696,4.55518913269043,4.55778503417969,4.56038427352905,4.56298637390137,4.56559181213379,4.56820011138916,4.57081127166748,4.57342529296875,4.57604217529297,4.57866239547729,4.58128547668457,4.58391141891479,4.58654069900513,4.58917284011841,4.59180784225464,4.59444618225098,4.59708738327026,4.59973192214966,4.602379322052,4.60558843612671,4.62228775024414,4.63910865783691,4.6560525894165,4.67312049865723,4.69031429290771,4.70763492584229,4.72508382797241,4.74266290664673,4.76037263870239,4.7782130241394,4.79618835449219,4.81429862976074,4.83254671096802,4.85093355178833,4.86946105957031,4.88813018798828,4.90694332122803,4.92590188980103,4.94500732421875,4.96426105499268,4.98366594314575,5.00322341918945,5.0229344367981,5.04280138015747,5.06282663345337,5.08301115036011,5.10335683822632,5.12386655807495,5.14454221725464,5.1653847694397,5.18639707565308,5.20758104324341,5.22893857955933,5.25047254562378,5.27218389511108,5.29407596588135,5.3161506652832,5.33840990066528,5.3608570098877,5.38349294662476,5.40516805648804,5.4261302947998,5.44725561141968,5.46854639053345,5.49096584320068,5.51421880722046,5.53766918182373,5.56131982803345,5.58517360687256,5.60923290252686,5.63350009918213,5.65797853469849,5.68267011642456,5.70757865905762,5.73270606994629,5.75805616378784,5.78363084793091,5.80943441390991,5.83546876907349,5.8617377281189,5.88824415206909,5.91499185562134,5.94198322296143,5.96922206878662,5.99671173095703,6.02445602416992,6.05245780944824,6.08072137832642,6.10925006866455,6.13804817199707,6.16711854934692,6.19649744033813,6.22621250152588,6.2562141418457,6.28650617599487,6.31709337234497,6.3479790687561,6.37916851043701,6.41066598892212,6.44247627258301,6.4746036529541,6.50705289840698,6.53982925415039,6.57293748855591,6.60638236999512,6.64016962051392,6.67430400848389,6.70879125595093,6.7450532913208,6.78690576553345,6.82928085327148,6.87218856811523,6.91563844680786,6.95964193344116,7.0042085647583,7.04934978485107,7.090172290802,7.12982749938965,7.16992902755737,7.21048402786255,7.25150012969971,7.2929859161377,7.33494901657104,7.3773980140686,7.42034101486206,7.46378707885742,7.50774478912354,7.55221652984619,7.59721326828003,7.64274930953979,7.68883419036865,7.73547887802124,0,0,0,0,0,0,0,0,0,0,0,0,0,0,0,0,0,0,0,0,0,0,0,0,0,0,0,0,0,0,0,0,0,0,0,0,0,0,0,0,0,0,0,0,0,0,0,0,0,0,0,0,0,0,0,0,0,0,0,0,0,0,0,0,0,0,0,0,0,0,0,0,0,0,0,0,0,0,0,0,0,0,0,0,0,0,0,0,0,0,0,0,0,0,0,0,0,0,0,0,0,0,0,0,0,0,0,0,0,0,0,0,0,0,0,0,0,0,0,0,0,0,0,0,0,0,0,0,0,0,0,0,0,0,0,0,0,0,0,0,0,0,0,0,0,0,0
4.41048336029053,4.412917137146,4.41535329818726,4.41779279708862,4.42023468017578,4.42267942428589,4.42512655258179,4.42757701873779,4.43002986907959,4.43248510360718,4.43494319915771,4.4374041557312,4.43986797332764,4.44233465194702,4.4448037147522,4.44727563858032,4.4497504234314,4.45222759246826,4.45470809936523,4.457190990448,4.45967674255371,4.46216535568237,4.46465635299683,4.46715068817139,4.46964740753174,4.47214698791504,4.47464942932129,4.47715473175049,4.47966289520264,4.48217344284058,4.48468732833862,4.48720407485962,4.48972320556641,4.49224519729614,4.49477052688599,4.49729824066162,4.49982881546021,4.50236225128174,4.50489902496338,4.50743818283081,4.50998020172119,4.51252508163452,4.5150728225708,4.51762390136719,4.52017736434937,4.52273368835449,4.52529335021973,4.52785539627075,4.53042078018188,4.53298902511597,4.53555965423584,4.53813362121582,4.54071044921875,4.54329061508179,4.54587316513062,4.54845905303955,4.55104732513428,4.55363893508911,4.55623340606689,4.55883121490479,4.56143140792847,4.56403493881226,4.56664133071899,4.56925058364868,4.57186269760132,4.57447814941406,4.57709646224976,4.5797176361084,4.58234214782715,4.58496952056885,4.5875997543335,4.59023332595825,4.59286975860596,4.59550905227661,4.59815120697021,4.60079669952393,4.60344552993774,4.60609722137451,4.60875177383423,4.61140918731689,4.61406993865967,4.61673402786255,4.62389421463013,4.6407265663147,4.65768241882324,4.67476224899292,4.69196796417236,4.70930099487305,4.72676229476929,4.74435377120972,4.76207685470581,4.77993154525757,4.79791975021362,4.81604337692261,4.83430480957031,4.85270500183105,4.87124586105347,4.88992881774902,4.90875577926636,4.92772817611694,4.94684791564941,4.96611642837524,4.98553562164307,5.00510740280151,5.02483367919922,5.04471588134766,5.06475591659546,5.08495616912842,5.10531759262085,5.1258430480957,5.14653444290161,5.16739320755005,5.18842172622681,5.20962238311768,5.23099708557129,5.25254774093628,5.27427673339844,5.2961859703064,5.31827831268311,5.3405556678772,5.3630199432373,5.38567495346069,5.40852165222168,5.42958116531372,5.45073318481445,5.47205114364624,5.4935359954834,5.51626443862915,5.53973245620728,5.56340074539185,5.58727216720581,5.61134958267212,5.63563537597656,5.66013193130493,5.68484258651733,5.70977020263672,5.73491716384888,5.76028633117676,5.78588151931763,5.81170463562012,5.83775997161865,5.86404943466187,5.89057683944702,5.91734552383423,5.94435834884644,5.97161912918091,5.9991307258606,6.02689743041992,6.05492258071899,6.08320903778076,6.11176109313965,6.14058256149292,6.16967725753784,6.19904899597168,6.22877359390259,6.25880002975464,6.28911733627319,6.31972980499268,6.35064172744751,6.38185739517212,6.41338157653809,6.44521856307983,6.47737312316895,6.50985050201416,6.5426549911499,6.57579183578491,6.60926628112793,6.64308261871338,6.67724704742432,6.71176528930664,6.74664163589478,6.78805541992188,6.83044528961182,6.87336730957031,6.916832447052,6.96085071563721,7.00543308258057,7.05059003829956,7.09395217895508,7.1336498260498,7.17379426956177,7.2143931388855,7.25545454025269,7.2969856262207,7.3389949798584,7.38149070739746,7.42448139190674,7.46797609329224,7.51198291778564,7.55651187896729,7.60156011581421,7.64714813232422,7.69328641891479,7.73998498916626,0,0,0,0,0,0,0,0,0,0,0,0,0,0,0,0,0,0,0,0,0,0,0,0,0,0,0,0,0,0,0,0,0,0,0,0,0,0,0,0,0,0,0,0,0,0,0,0,0,0,0,0,0,0,0,0,0,0,0,0,0,0,0,0,0,0,0,0,0,0,0,0,0,0,0,0,0,0,0,0,0,0,0,0,0,0,0,0,0,0,0,0,0,0,0,0,0,0,0,0,0,0,0,0,0,0,0,0,0,0,0,0,0,0,0,0,0,0,0,0,0,0,0,0,0,0,0,0,0,0,0,0,0,0,0,0,0,0,0,0,0,0,0,0,0,0
4.41877603530884,4.42121887207031,4.42366456985474,4.42611265182495,4.42856407165527,4.43101739883423,4.43347406387329,4.4359335899353,4.43839550018311,4.44086027145386,4.44332790374756,4.44579839706421,4.44827127456665,4.45074701309204,4.45322561264038,4.45570707321167,4.45819091796875,4.46067810058594,4.46316766738892,4.46566009521484,4.46815538406372,4.47065305709839,4.47315406799316,4.47565746307373,4.47816371917725,4.48067331314087,4.48318529129028,4.48569965362549,4.4882173538208,4.49073791503906,4.49326133728027,4.49578762054443,4.49831628799438,4.50084829330444,4.50338315963745,4.50592041015625,4.50846099853516,4.51100397109985,4.51355028152466,4.51609945297241,4.51865100860596,4.52120590209961,4.52376365661621,4.52632427215576,4.52888774871826,4.53145408630371,4.53402328491211,4.53659534454346,4.53917074203491,4.54174852371216,4.54432964324951,4.54691362380981,4.54950046539307,4.55209016799927,4.55468320846558,4.55727863311768,4.55987739562988,4.56247901916504,4.56508350372314,4.5676908493042,4.57030153274536,4.57291507720947,4.57553148269653,4.5781512260437,4.58077383041382,4.58339929580688,4.5860276222229,4.58865928649902,4.5912938117981,4.59393167495728,4.5965723991394,4.59921598434448,4.60186243057251,4.60451221466064,4.60716533660889,4.60982084274292,4.61248016357422,4.61514186859131,4.61780691146851,4.62047529220581,4.62314653396606,4.62582063674927,4.62849807739258,4.631178855896,4.64234590530396,4.6593132019043,4.67640542984009,4.69362306594849,4.71096849441528,4.72844219207764,4.74604606628418,4.76378154754639,4.78165006637573,4.79965257644653,4.81778955459595,4.83606386184692,4.8544774055481,4.8730320930481,4.89172887802124,4.91056966781616,4.92955589294434,4.94868993759155,4.96797275543213,4.98740673065186,5.00699329376221,5.02673435211182,5.04663133621216,5.06668710708618,5.0869026184082,5.10727977752686,5.12782096862793,5.14852809906006,5.16940355300903,5.19044828414917,5.21166563034058,5.23305702209473,5.25462436676025,5.27637052536011,5.29829740524292,5.32040739059448,5.34270238876343,5.36518526077271,5.38785839080811,5.41072368621826,5.43303632736206,5.45421552658081,5.47556066513062,5.49707317352295,5.51875591278076,5.54179668426514,5.56548309326172,5.58937215805054,5.61346769332886,5.63777160644531,5.66228723526001,5.68701696395874,5.71196317672729,5.73712968826294,5.76251888275146,5.78813362121582,5.81397724151611,5.84005260467529,5.86636257171631,5.89291143417358,5.91970109939575,5.94673538208008,5.97401809692383,6.00155210494995,6.02934122085571,6.05738878250122,6.08569860458374,6.11427402496338,6.14311933517456,6.17223834991455,6.20163440704346,6.23133707046509,6.26138830184937,6.2917308807373,6.32236862182617,6.35330629348755,6.38454818725586,6.41609907150269,6.44796323776245,6.48014545440674,6.51265048980713,6.54548311233521,6.57864904403687,6.61215209960938,6.64599847793579,6.68019342422485,6.71474170684814,6.74964904785156,6.78920602798462,6.83160972595215,6.87454652786255,6.9180269241333,6.96206045150757,7.00665807723999,7.05183076858521,7.09758996963501,7.13747644424438,7.17766427993774,7.21830701828003,7.25941276550293,7.30098915100098,7.34304475784302,7.38558769226074,7.428626537323,7.47216987609863,7.51622629165649,7.5608057975769,7.60591173171997,7.65155172348022,7.69774341583252,7.74449634552002,7.79182052612305,0,0,0,0,0,0,0,0,0,0,0,0,0,0,0,0,0,0,0,0,0,0,0,0,0,0,0,0,0,0,0,0,0,0,0,0,0,0,0,0,0,0,0,0,0,0,0,0,0,0,0,0,0,0,0,0,0,0,0,0,0,0,0,0,0,0,0,0,0,0,0,0,0,0,0,0,0,0,0,0,0,0,0,0,0,0,0,0,0,0,0,0,0,0,0,0,0,0,0,0,0,0,0,0,0,0,0,0,0,0,0,0,0,0,0,0,0,0,0,0,0,0,0,0,0,0,0,0,0,0,0,0,0,0,0,0,0,0,0,0,0,0,0,0
4.42710018157959,4.42955255508423,4.43200731277466,4.43446445465088,4.43692493438721,4.43938779830933,4.44185352325439,4.44432210922241,4.44679355621338,4.44926738739014,4.451744556427,4.45422410964966,4.45670652389526,4.45919179916382,4.46167945861816,4.46417045593262,4.46666383743286,4.46916007995605,4.4716591835022,4.47416114807129,4.47666597366333,4.47917366027832,4.4816837310791,4.48419713973999,4.48671293258667,4.4892315864563,4.49175310134888,4.49427795410156,4.49680519104004,4.49933528900146,4.50186824798584,4.50440406799316,4.50694274902344,4.50948429107666,4.51202869415283,4.51457595825195,4.51712608337402,4.51967906951904,4.52223491668701,4.52479410171509,4.52735567092896,4.52992010116577,4.5324878692627,4.53505849838257,4.53763151168823,4.540207862854,4.54278707504272,4.54536914825439,4.54795455932617,4.55054235458374,4.55313348770142,4.55572748184204,4.55832433700562,4.56092405319214,4.56352710723877,4.56613254547119,4.56874132156372,4.5713529586792,4.57396793365479,4.57658576965332,4.5792064666748,4.58183002471924,4.58445692062378,4.58708667755127,4.58971929550171,4.59235525131226,4.59499406814575,4.5976357460022,4.60028076171875,4.60292863845825,4.60557985305786,4.60823392868042,4.61089086532593,4.61355113983154,4.61621427536011,4.61888074874878,4.6215500831604,4.62422275543213,4.62689828872681,4.62957668304443,4.63225841522217,4.63494348526001,4.6376314163208,4.6403226852417,4.64301681518555,4.6457142829895,4.66094541549683,4.67804956436157,4.69527959823608,4.71263694763184,4.7301230430603,4.74773931503296,4.76548767089844,4.78336906433105,4.80138492584229,4.8195366859436,4.83782434463501,4.85625171661377,4.8748197555542,4.89352989196777,4.91238451004028,4.93138551712036,4.95053339004517,4.96983098983765,4.98927927017212,5.00888061523438,5.02863645553589,5.04854869842529,5.06861925125122,5.08885049819946,5.10924339294434,5.12980031967163,5.15052366256714,5.17141485214233,5.19247674942017,5.21371030807495,5.23511838912964,5.25670289993286,5.27846622467041,5.30041074752808,5.32253837585449,5.34485149383545,5.36735248565674,5.39004373550415,5.41292762756348,5.43600654602051,5.45770168304443,5.47907447814941,5.50061464309692,5.52232503890991,5.54420757293701,5.56756687164307,5.5914740562439,5.61558771133423,5.63991022109985,5.66444396972656,5.68919277191162,5.7141580581665,5.73934412002563,5.76475286483765,5.79038763046265,5.81625127792358,5.84234714508057,5.86867809295654,5.89524745941162,5.92205858230591,5.94911479949951,5.97641897201538,6.00397539138794,6.03178691864014,6.05985736846924,6.08819007873535,6.1167893409729,6.14565849304199,6.17480134963989,6.20422172546387,6.23392391204834,6.26397848129272,6.29434633255005,6.3250093460083,6.35597324371338,6.38724136352539,6.41881895065308,6.45071029663086,6.48291969299316,6.51545286178589,6.54831409454346,6.58150815963745,6.61504077911377,6.64891672134399,6.68314170837402,6.71772050857544,6.7526593208313,6.79035663604736,6.83277463912964,6.87572622299194,6.9192214012146,6.96327018737793,7.00788354873657,7.05307197570801,7.09884738922119,7.14130687713623,7.18153810501099,7.22222471237183,7.2633752822876,7.30499744415283,7.34709930419922,7.38968944549561,7.43277597427368,7.47636795043945,7.52047443389893,7.56510400772095,7.610267162323,7.65596103668213,7.70220613479614,7.74901342391968,7.79639291763306,0,0,0,0,0,0,0,0,0,0,0,0,0,0,0,0,0,0,0,0,0,0,0,0,0,0,0,0,0,0,0,0,0,0,0,0,0,0,0,0,0,0,0,0,0,0,0,0,0,0,0,0,0,0,0,0,0,0,0,0,0,0,0,0,0,0,0,0,0,0,0,0,0,0,0,0,0,0,0,0,0,0,0,0,0,0,0,0,0,0,0,0,0,0,0,0,0,0,0,0,0,0,0,0,0,0,0,0,0,0,0,0,0,0,0,0,0,0,0,0,0,0,0,0,0,0,0,0,0,0,0,0,0,0,0,0,0,0,0,0,0,0,0
4.43545579910278,4.43791723251343,4.44038105010986,4.44284820556641,4.44531774520874,4.44779014587402,4.4502649307251,4.45274257659912,4.45522356033325,4.45770692825317,4.46019268035889,4.46268177032471,4.46517372131348,4.4676685333252,4.47016572952271,4.47266578674316,4.47516918182373,4.47767496109009,4.48018360137939,4.48269510269165,4.48520946502686,4.48772621154785,4.49024629592896,4.49276924133301,4.49529457092285,4.4978232383728,4.50035429000854,4.50288820266724,4.50542545318604,4.50796508789062,4.51050806045532,4.51305341720581,4.51560211181641,4.51815319061279,4.52070760726929,4.52326488494873,4.52582454681396,4.52838754653931,4.5309534072876,4.53352212905884,4.53609371185303,4.53866815567017,4.54124593734741,4.54382610321045,4.54640960693359,4.54899549484253,4.55158472061157,4.55417728424072,4.55677223205566,4.55937004089355,4.56197118759155,4.5645751953125,4.56718254089355,4.5697922706604,4.57240533828735,4.57502126693726,4.57764005661011,4.58026218414307,4.58288717269897,4.58551502227783,4.58814573287964,4.59077978134155,4.59341716766357,4.59605693817139,4.59870004653931,4.60134601593018,4.60399532318115,4.60664749145508,4.60930299758911,4.61196136474609,4.61462259292603,4.61728715896606,4.61995458602905,4.62262535095215,4.62529897689819,4.62797594070435,4.63065576553345,4.63333892822266,4.63602495193481,4.63871431350708,4.64140653610229,4.64410209655762,4.64680099487305,4.64950275421143,4.65220737457275,4.65491580963135,4.65762662887573,4.66257858276367,4.67969465255737,4.696937084198,4.71430635452271,4.73180532455444,4.74943399429321,4.76719522476196,4.78508901596069,4.80311822891235,4.82128381729126,4.83958625793457,4.85802698135376,4.87660837173462,4.89533281326294,4.91420125961304,4.9332160949707,4.95237827301025,4.97169017791748,4.99115324020386,5.01076936721802,5.03053998947144,5.0504674911499,5.07055330276489,5.0907998085022,5.11120843887329,5.13178110122681,5.15252065658569,5.17342805862427,5.19450616836548,5.2157564163208,5.23718118667603,5.2587833404541,5.28056383132935,5.30252552032471,5.32467126846313,5.34700202941895,5.36952114105225,5.39223051071167,5.41513347625732,5.43823099136353,5.4611930847168,5.48259258270264,5.50416088104248,5.5258994102478,5.54781055450439,5.56989574432373,5.59357738494873,5.61770915985107,5.64205026626587,5.66660261154175,5.69137001037598,5.71635484695435,5.7415599822998,5.7669882774353,5.79264307022095,5.81852722167969,5.84464311599731,5.87099504470825,5.89758539199829,5.9244179725647,5.95149564743042,5.97882223129272,6.00640058517456,6.03423452377319,6.06232786178589,6.09068393707275,6.11930656433105,6.14819955825806,6.17736625671387,6.20681142807007,6.23653841018677,6.26657104492188,6.29696369171143,6.32765293121338,6.35864210128784,6.38993692398071,6.42154121398926,6.4534592628479,6.48569679260254,6.51825761795044,6.55114698410034,6.58437013626099,6.61793231964111,6.65183782577515,6.68609285354614,6.72070217132568,6.75567197799683,6.79150724411011,6.83394002914429,6.8769063949585,6.92041635513306,6.96448040008545,7.00910949707031,7.05431413650513,7.10010528564453,7.1451416015625,7.18541622161865,7.22614669799805,7.26734256744385,7.30901002883911,7.35115814208984,7.39379549026489,7.43693017959595,7.48057126998901,7.52472734451294,7.56940793991089,7.61462211608887,7.66037511825562,7.70667362213135,7.75353527069092,7.80097055435181,7.84898948669434,0,0,0,0,0,0,0,0,0,0,0,0,0,0,0,0,0,0,0,0,0,0,0,0,0,0,0,0,0,0,0,0,0,0,0,0,0,0,0,0,0,0,0,0,0,0,0,0,0,0,0,0,0,0,0,0,0,0,0,0,0,0,0,0,0,0,0,0,0,0,0,0,0,0,0,0,0,0,0,0,0,0,0,0,0,0,0,0,0,0,0,0,0,0,0,0,0,0,0,0,0,0,0,0,0,0,0,0,0,0,0,0,0,0,0,0,0,0,0,0,0,0,0,0,0,0,0,0,0,0,0,0,0,0,0,0,0,0,0,0,0
4.44384288787842,4.44631338119507,4.44878721237183,4.45126295089722,4.45374202728271,4.45622396469116,4.4587082862854,4.46119546890259,4.46368551254272,4.46617841720581,4.46867370605469,4.47117233276367,4.47367334365845,4.47617721557617,4.478684425354,4.48119401931763,4.4837064743042,4.48622226715088,4.48874044418335,4.49126148223877,4.49378538131714,4.49631214141846,4.49884176254272,4.50137376785278,4.50390911102295,4.50644731521606,4.50898838043213,4.51153230667114,4.51407909393311,4.51662874221802,4.51918125152588,4.52173662185669,4.52429485321045,4.52685594558716,4.52941989898682,4.53198671340942,4.53455686569214,4.53712940216064,4.53970527648926,4.54228401184082,4.54486560821533,4.54745006561279,4.5500373840332,4.55262804031372,4.55522108078003,4.55781745910645,4.56041669845581,4.56301927566528,4.56562423706055,4.56823253631592,4.57084369659424,4.57345771789551,4.57607507705688,4.57869529724121,4.58131837844849,4.58394432067871,4.58657360076904,4.58920574188232,4.59184122085571,4.59447908401489,4.59712028503418,4.59976482391357,4.60241222381592,4.60506248474121,4.60771608352661,4.61037254333496,4.61303186416626,4.61569452285767,4.61836051940918,4.62102937698364,4.62370109558105,4.62637615203857,4.62905406951904,4.63173532485962,4.63441944122314,4.63710689544678,4.63979768753052,4.64249134063721,4.64518785476685,4.64788770675659,4.65059089660645,4.65329694747925,4.65600633621216,4.65871906280518,4.66143465042114,4.66415357589722,4.66687536239624,4.66960048675537,4.67232894897461,4.68134117126465,4.69859552383423,4.71597766876221,4.7334885597229,4.75113010406494,4.7689037322998,4.78681087493896,4.8048529624939,4.82303142547607,4.84134817123413,4.85980319976807,4.87839841842651,4.89713668823242,4.91601943969727,4.93504810333252,4.95422458648682,4.97355079650879,4.99302864074707,5.01265907287598,5.03244495391846,5.05238771438599,5.07248878479004,5.09275054931641,5.11317491531372,5.13376379013062,5.15451908111572,5.17544317245483,5.19653749465942,5.21780443191528,5.2392463684082,5.26086521148682,5.28266286849976,5.30464220046997,5.32680511474609,5.34915447235107,5.37169122695923,5.39441919326782,5.41734075546265,5.44045734405518,5.46377229690552,5.48611545562744,5.50771141052246,5.52947807312012,5.5514178276062,5.57353162765503,5.59582281112671,5.61983203887939,5.64419174194336,5.66876316070557,5.69354915618896,5.71855306625366,5.74377775192261,5.76922607421875,5.79490041732788,5.82080459594727,5.84694147109985,5.87331390380859,5.89992570877075,5.92677927017212,5.95387887954712,5.98122692108154,6.00882768630981,6.03668451309204,6.06480026245117,6.09317970275879,6.12182569503784,6.15074253082275,6.17993354797363,6.2094030380249,6.23915529251099,6.26919364929199,6.29958343505859,6.33029794692993,6.36131381988525,6.39263486862183,6.42426586151123,6.45621109008789,6.48847579956055,6.52106475830078,6.55398273468018,6.58723497390747,6.62082576751709,6.65476131439209,6.68904638290405,6.72368669509888,6.7586874961853,6.79405450820923,6.83510589599609,6.87808704376221,6.92161178588867,6.96569108963013,7.01033592224121,7.05555582046509,7.10136365890503,7.14776992797852,7.18929815292358,7.23007345199585,7.27131366729736,7.31302690505981,7.35522174835205,7.39790630340576,7.44108915328979,7.484778881073,7.52898502349854,7.57371616363525,7.61898231506348,7.66479253768921,7.71114635467529,7.7580623626709,7.8055534362793,7.85362911224365,0,0,0,0,0,0,0,0,0,0,0,0,0,0,0,0,0,0,0,0,0,0,0,0,0,0,0,0,0,0,0,0,0,0,0,0,0,0,0,0,0,0,0,0,0,0,0,0,0,0,0,0,0,0,0,0,0,0,0,0,0,0,0,0,0,0,0,0,0,0,0,0,0,0,0,0,0,0,0,0,0,0,0,0,0,0,0,0,0,0,0,0,0,0,0,0,0,0,0,0,0,0,0,0,0,0,0,0,0,0,0,0,0,0,0,0,0,0,0,0,0,0,0,0,0,0,0,0,0,0,0,0,0,0,0,0,0,0,0,0
