3.02489018440247,3.03211283683777,3.03937005996704,3.04666185379028,3.05398893356323,3.06135129928589,3.06874942779541,3.07618308067322,3.08365321159363,3.09115934371948,3.0987024307251,3.10628223419189,3.11389923095703,3.12155365943909,3.12924575805664,3.13697600364685,3.14474439620972,3.1525514125824,3.16039729118347,3.16828227043152,3.1762068271637,3.18417096138,3.19217538833618,3.20021986961365,3.20830512046814,3.21643137931824,3.22459888458252,3.23280787467957,3.24105906486511,3.24935221672058,3.25768780708313,3.2660665512085,3.27448844909668,3.28295373916626,3.29146289825439,3.30001640319824,3.30861449241638,3.31725740432739,3.32594585418701,3.33467960357666,3.34345960617065,3.35228586196899,3.36115860939026,3.37007880210876,3.37904644012451,3.38806176185608,3.39712524414062,3.40623760223389,3.41539883613586,3.42460942268372,3.4338698387146,3.44318056106567,3.4525420665741,3.46195435523987,3.47141814231873,3.48093390464783,3.49050188064575,3.50012254714966,3.50979661941528,3.51952409744263,3.52930569648743,3.53914189338684,3.54903316497803,3.55897974967957,3.56898212432861,3.57904100418091,3.58915662765503,3.59932994842529,3.60956048965454,3.61984944343567,3.63019728660583,3.64060425758362,3.74953174591064,3.75052261352539,3.75151371955872,3.75250554084778,3.753497838974,3.75449061393738,3.75548386573792,3.75647783279419,3.75747203826904,3.75846695899963,3.75946235656738,3.77013444900513,3.78117895126343,3.79228806495667,3.80346298217773,3.81470370292664,3.82601118087769,3.83738589286804,3.84882855415344,3.86033940315247,3.87191939353943,3.88356924057007,3.89528918266296,3.90708017349243,3.91894292831421,3.93087768554688,3.94288539886475,3.95496678352356,3.96712231636047,3.9793529510498,3.99165916442871,4.00404167175293,4.01650142669678,4.02903890609741,4.04165458679199,4.05434989929199,4.06712532043457,4.07998085021973,4.09291839599609,4.10593843460083,4.11904144287109,4.13222789764404,4.14549970626831,4.15885639190674,4.17229986190796,4.18583059310913,4.19944906234741,4.21315670013428,4.22695398330688,4.24084186553955,4.25482130050659,4.26889324188232,4.28305864334106,4.29731845855713,4.31167316436768,4.32612466812134,4.34067296981812,4.35531949996948,4.37006521224976,4.38491106033325,4.39985799789429,4.41490745544434,4.43006038665771,4.44531726837158,4.46068000793457,4.47614908218384,4.4917254447937,4.50741100311279,4.52320861816406,4.53915023803711,4.55520439147949,4.57137250900269,4.58765554428101,4.60405540466309,4.62057304382324,4.63720941543579,4.65396595001221,4.67084360122681,4.68784475326538,4.70496988296509,4.72222089767456,4.73959827423096,4.75710439682007,4.77474021911621,4.79250764846802,4.81040716171265,4.82844161987305,4.84661149978638,4.86491823196411,4.88336420059204,4.90195035934448,4.92067861557007,4.93955087661743,4.95856809616089,4.97773265838623,4.99704551696777,5.01650905609131,5.03612470626831,5.05589389801025,5.07581949234009,5.09590291976929,5.11614561080933,5.136549949646,5.15939283370972,5.18297672271729,5.20677661895752,5.23079633712769,5.25503921508789,5.27950716018677,5.30420398712158,5.3291335105896,5.35429811477661,5.37970161437988,5.40534734725952,5.43107557296753,5.45440721511841,5.47793960571289,5.50167655944824,5.52561950683594,5.54977178573608,5.57413673400879,5.59871578216553,5.62351274490356,5.64853096008301,5.67377185821533,5.69923973083496,5.72493743896484,5.75086784362793,5.77703475952148,5.80344009399414,5.83008813858032,5.85698127746582,5.88411855697632,5.91150856018066,5.93915462493896,5.96706056594849,5.99522972106934,6.02366638183594,6.0523738861084,6.08135604858398,6.11061763763428,19.3659820556641,19.3674468994141,19.3689117431641,19.3703784942627,19.3718452453613,19.37331199646,19.3747787475586,19.3762454986572,19.3777122497559,19.3791809082031,19.3806476593018,19.382116317749,19.3835830688477,19.3850517272949,19.3865203857422,19.3879890441895,19.3894577026367,19.390926361084,19.3923969268799,19.3938655853271,19.395336151123,19.3968048095703,19.3982753753662,19.3997459411621,19.401216506958,19.4026889801025,19.4041595458984,19.4056301116943,19.4071006774902,19.4085731506348,19.4100437164307,19.4115161895752,19.4129905700684,19.4144630432129,19.4159355163574,19.417407989502,19.4188823699951,19.4203548431396,19.4218292236328,19.4233016967773,19.4247779846191,19.4262523651123,19.4277267456055,19.4292011260986,19.4306774139404,19.4321517944336,19.4336280822754,19.4351024627686,19.4365787506104,19.4380569458008,19.4395332336426,19.4410095214844,19.4424877166748,19.4439640045166,19.4454402923584,19.4469184875488,19.4483966827393,19.4498729705811,19.4513530731201,19.4528312683105,19.454309463501,19.4557876586914,19.4572677612305,19.4587459564209,19.46022605896,19.4617042541504,19.4631862640381,19.4646663665771,19.4661464691162,19.4676284790039,19.469108581543,19.4705905914307,19.4720706939697,19.4735527038574,19.4750347137451,19.4765167236328,19.4779987335205,19.4794826507568,19.4809646606445,19.4824485778809,19.4839305877686,19.4854145050049,19.4868984222412,19.4883804321289,19.4898662567139,19.4913501739502,19.4928359985352,19.4943199157715,19.4958057403564,19.4972896575928,19.4987754821777,19.5002613067627,19.5017471313477,19.5032348632812,19.5047206878662,19.5062084197998,19.5076942443848,19.5091800689697,19.5106678009033,19.5121555328369,19.5136413574219,19.5151309967041,19.5166206359863,19.5181083679199,19.5195960998535,19.5210857391357,19.5225734710693,19.5240631103516,19.5255527496338,19.5270442962646,19.5285339355469,19.5300235748291,19.5315132141113,19.5330047607422,19.5344944000244,19.5359859466553,19.5374774932861,19.538969039917,19.5404605865479,19.5419540405273,19.5434455871582,19.5449390411377,19.5464305877686,19.547924041748,19.5494174957275,19.550910949707,19.5524044036865,19.5538997650146,19.5553932189941,19.5568866729736,19.5583820343018,19.5598773956299,19.5613708496094,19.5628662109375,19.5643615722656,19.5658569335938,19.5673542022705,19.5688495635986,19.5703468322754,19.5718421936035,19.5733394622803,19.574836730957,19.5763339996338,19.5778312683105,19.5793285369873,19.5808277130127,19.5823249816895,19.5838241577148,19.5853233337402,19.5868225097656,19.588321685791,19.5898208618164,19.5913200378418,19.5928192138672,19.5943202972412,19.5958213806152,19.5973205566406,19.5988216400146,19.6003227233887,19.6018238067627,19.6033248901367,19.6048278808594,19.6063289642334,19.6078319549561,19.6093330383301,19.6108360290527,19.6123390197754,19.613842010498,19.6153450012207,19.6168479919434,19.6183528900146,19.6198558807373,19.6213607788086,19.6228656768799,19.6243705749512,19.6258735656738,19.6273784637451,19.628885269165,19.6303901672363,19.6318969726562,19.6334037780762,19.6349086761475,19.6364154815674,19.6379222869873,19.6394290924072,19.6409378051758,19.6424427032471,19.6439514160156,19.6454601287842,19.6469688415527,19.6484756469727,19.6499843597412,19.6514949798584,19.653003692627,19.6545124053955,19.6560230255127,19.6575317382812,19.6590423583984,19.6605529785156,19.6620616912842,19.66357421875,19.6650848388672,19.6665954589844,19.6681060791016,19.6696186065674,19.6711292266846,19.6726417541504,19.6741542816162,19.675666809082,19.6771793365479,19.6786918640137,19.6802043914795,19.6817188262939,19.6832332611084,19.6847476959229,19.6862602233887,19.6877765655518,19.6892910003662,19.6908054351807,19.6923198699951,19.6938362121582,19.6953506469727,19.6968669891357,19.6983833312988,19.6998996734619,19.701416015625,19.7029323577881,19.7044506072998,19.7059669494629,19.7074851989746,19.7090034484863,19.7105197906494,19.7120380401611,19.7135562896729,19.7150764465332,19.7165946960449,19.7181129455566,19.719633102417,19.7211513519287,19.7226715087891,19.7241916656494,19.7257118225098,19.7272319793701,19.7287540435791,19.7302742004395,19.7317943572998,19.7333164215088,19.7348403930664,19.7363605499268,19.7378826141357,19.7394046783447,19.7409286499023,19.7424507141113,19.7439746856689,19.7454967498779,19.7470207214355,19.7485446929932,19.7500686645508,19.7515926361084,19.753116607666,19.7546424865723,19.7561664581299,19.7576923370361,19.7592182159424,19.7607440948486,19.7622699737549,19.7637958526611,19.7653217315674,19.7668476104736,19.7683753967285,19.7699031829834,19.7714290618896,19.7729568481445,19.7744846343994,19.7760143280029,19.7775402069092,19.7790699005127,19.7805976867676,19.7821273803711,19.7836570739746,19.7851848602295,19.786714553833,19.7882461547852,19.7897758483887,19.7913074493408,19.7928371429443,19.7943668365479,19.7958984375,19.7974300384521,19.7989616394043
3.01843047142029,3.02562236785889,3.0328483581543,3.04010915756226,3.04740452766418,3.05473518371582,3.06210136413574,3.06950283050537,3.07694029808044,3.08441400527954,3.09192395210266,3.09947061538696,3.10705423355103,3.11467504501343,3.12233328819275,3.13002920150757,3.13776326179504,3.14553570747375,3.15334677696228,3.16119647026062,3.16908550262451,3.17701411247253,3.18498229980469,3.19299077987671,3.2010395526886,3.20912885665894,3.21725916862488,3.22543096542358,3.23364424705505,3.24189949035645,3.25019693374634,3.25853705406189,3.26692008972168,3.27534627914429,3.28381609916687,3.29232978820801,3.30088782310486,3.309490442276,3.31813812255859,3.32683086395264,3.33556938171387,3.34435415267944,3.35318493843079,3.36206269264221,3.3709876537323,3.37996006011963,3.38898015022278,3.39804863929749,3.40716600418091,3.41633224487305,3.42554783821106,3.43481349945068,3.44412922859192,3.4534957408905,3.46291351318359,3.47238230705261,3.48190331459045,3.4914767742157,3.50110292434692,3.51078224182129,3.52051544189453,3.53030252456665,3.54014420509338,3.55004096031189,3.55999326705933,3.57000136375427,3.58006596565247,3.59018754959106,3.60036659240723,3.61060333251953,3.62089848518372,3.63125252723694,3.64166593551636,3.65213942527771,3.66267275810242,3.67326712608337,3.74706220626831,3.74805164337158,3.74904155731201,3.7500319480896,3.75102305412292,3.75201439857483,3.75300645828247,3.760169506073,3.77115559577942,3.78220582008362,3.79332137107849,3.80450224876404,3.815749168396,3.8270628452301,3.83844375610352,3.84989261627197,3.86141014099121,3.87299656867981,3.88465261459351,3.89637923240662,3.9081768989563,3.92004609107971,3.93198776245117,3.94400238990784,3.95609045028687,3.96825313568115,3.98049068450928,3.99280381202698,4.00519371032715,4.01766014099121,4.03020524978638,4.04282808303833,4.05553102493286,4.06831359863281,4.0811767578125,4.0941219329834,4.10714960098267,4.12026023864746,4.1334547996521,4.1467342376709,4.16009902954102,4.17355060577393,4.18708896636963,4.20071601867676,4.21443176269531,4.22823762893677,4.24213361740112,4.25612163543701,4.27020263671875,4.28437662124634,4.29864501953125,4.3130087852478,4.32746887207031,4.3420262336731,4.35668230056763,4.37143707275391,4.38629245758057,4.40124893188477,4.41630792617798,4.43147039413452,4.44673681259155,4.46210908889771,4.47758817672729,4.49317502975464,4.50887060165405,4.52467632293701,4.5406060218811,4.55667066574097,4.57284927368164,4.5891432762146,4.60555362701416,4.6220817565918,4.63872861862183,4.65549612045288,4.67238569259644,4.68939781188965,4.70653438568115,4.72379636764526,4.74118566513062,4.75870370864868,4.77635145187378,4.79413080215454,4.81204271316528,4.83008909225464,4.84827136993408,4.86659097671509,4.88504934310913,4.90364837646484,4.92238998413086,4.94127511978149,4.96030569076538,4.97948360443115,4.99880981445312,5.01828718185425,5.03791666030884,5.05770063400269,5.07764053344727,5.09773778915405,5.117995262146,5.13841438293457,5.16032934188843,5.18392133712769,5.20773029327393,5.23175859451294,5.25601005554199,5.28048706054688,5.30519342422485,5.33013200759888,5.35530614852905,5.38071918487549,5.40637445449829,5.43227577209473,5.456787109375,5.48034048080444,5.5040979385376,5.52806186676025,5.55223608016968,5.57662200927734,5.60122346878052,5.62604284286499,5.65108299255371,5.67634725570679,5.70183849334717,5.7275595664978,5.7535138130188,5.77970457077026,5.80613470077515,5.83280754089355,5.8597264289856,5.88689279556274,5.91430854797363,5.94198036193848,5.96991300582886,5.99810934066772,6.02657318115234,6.05530834197998,6.08431911468506,6.11360931396484,6.1431827545166,19.1830997467041,19.1845378875732,19.1859741210938,19.1874141693115,19.1888523101807,19.1902904510498,19.1917304992676,19.1931705474854,19.1946086883545,19.1960487365723,19.19748878479,19.1989288330078,19.2003688812256,19.2018089294434,19.2032508850098,19.2046928405762,19.2061328887939,19.2075748443604,19.2090148925781,19.2104587554932,19.2119007110596,19.213342666626,19.214786529541,19.2162284851074,19.2176704406738,19.2191143035889,19.2205581665039,19.2220020294189,19.223445892334,19.2248878479004,19.2263336181641,19.2277774810791,19.2292232513428,19.2306690216064,19.2321128845215,19.2335567474365,19.2350025177002,19.2364482879639,19.2378959655762,19.2393417358398,19.2407875061035,19.2422351837158,19.2436809539795,19.2451286315918,19.2465763092041,19.2480239868164,19.2494697570801,19.250919342041,19.2523670196533,19.2538166046143,19.2552642822266,19.2567138671875,19.2581615447998,19.2596111297607,19.2610607147217,19.2625102996826,19.2639598846436,19.2654113769531,19.2668609619141,19.2683124542236,19.2697620391846,19.2712135314941,19.2726650238037,19.2741165161133,19.2755680084229,19.2770195007324,19.2784729003906,19.2799243927002,19.2813777923584,19.282829284668,19.2842826843262,19.2857341766357,19.2871875762939,19.2886428833008,19.290096282959,19.2915496826172,19.293004989624,19.2944602966309,19.2959136962891,19.2973690032959,19.2988243103027,19.3002796173096,19.3017349243164,19.3031921386719,19.3046474456787,19.3061046600342,19.307559967041,19.3090171813965,19.310474395752,19.3119316101074,19.3133869171143,19.3148460388184,19.3163032531738,19.3177623748779,19.3192195892334,19.3206787109375,19.3221378326416,19.3235969543457,19.3250560760498,19.3265151977539,19.327974319458,19.3294353485107,19.3308944702148,19.3323554992676,19.3338146209717,19.3352756500244,19.3367366790771,19.3381958007812,19.3396587371826,19.341121673584,19.3425827026367,19.3440437316895,19.3455066680908,19.3469696044922,19.3484306335449,19.3498935699463,19.3513584136963,19.352819442749,19.354284286499,19.3557472229004,19.3572120666504,19.3586769104004,19.3601398468018,19.3616046905518,19.3630695343018,19.3645362854004,19.3660011291504,19.3674659729004,19.368932723999,19.370397567749,19.3718643188477,19.3733291625977,19.3747978210449,19.3762645721436,19.3777313232422,19.3791980743408,19.3806667327881,19.3821334838867,19.383602142334,19.3850708007812,19.3865375518799,19.3880062103271,19.3894748687744,19.3909435272217,19.3924140930176,19.3938846588135,19.3953533172607,19.3968238830566,19.3982925415039,19.3997631072998,19.4012355804443,19.4027061462402,19.4041767120361,19.4056491851807,19.4071197509766,19.4085922241211,19.4100646972656,19.4115352630615,19.4130077362061,19.4144802093506,19.4159526824951,19.4174270629883,19.4189014434814,19.420373916626,19.4218482971191,19.4233226776123,19.4247970581055,19.4262714385986,19.4277458190918,19.429220199585,19.4306964874268,19.4321708679199,19.4336471557617,19.4351234436035,19.4365978240967,19.4380741119385,19.4395503997803,19.4410285949707,19.4425048828125,19.4439811706543,19.4454593658447,19.4469375610352,19.448413848877,19.4498920440674,19.4513702392578,19.4528484344482,19.4543266296387,19.4558067321777,19.4572868347168,19.4587650299072,19.4602451324463,19.4617252349854,19.4632053375244,19.4646854400635,19.4661655426025,19.4676475524902,19.4691276550293,19.470609664917,19.4720897674561,19.4735717773438,19.4750537872314,19.4765357971191,19.4780178070068,19.4794998168945,19.4809837341309,19.4824676513672,19.4839496612549,19.4854335784912,19.4869174957275,19.4883995056152,19.4898834228516,19.4913692474365,19.4928531646729,19.4943389892578,19.4958229064941,19.4973087310791,19.4987926483154,19.5002784729004,19.501766204834,19.5032520294189,19.5047378540039,19.5062255859375,19.5077133178711,19.5091991424561,19.5106868743896,19.5121746063232,19.5136623382568,19.5151500701904,19.516637802124,19.5181274414062,19.5196151733398,19.5211048126221,19.5225944519043,19.5240821838379,19.5255718231201,19.5270614624023,19.5285530090332,19.5300426483154,19.5315322875977,19.5330238342285,19.5345153808594,19.5360050201416,19.5374965667725,19.5389881134033,19.5404796600342,19.541971206665,19.5434646606445,19.5449562072754,19.5464496612549,19.5479431152344,19.5494365692139,19.5509300231934,19.5524234771729,19.5539169311523,19.5554122924805,19.55690574646,19.5584011077881,19.5598945617676,19.5613899230957,19.5628852844238,19.564380645752,19.5658760070801,19.5673713684082,19.568868637085,19.5703659057617,19.5718612670898,19.5733585357666,19.5748558044434,19.5763530731201,19.5778503417969,19.5793495178223,19.580846786499,19.5823459625244,19.5838432312012,19.5853424072266,19.586841583252,19.5883407592773,19.5898399353027,19.5913391113281,19.5928382873535,19.5943374633789,19.5958385467529,19.597339630127,19.598840713501,19.600341796875,19.601842880249,19.603343963623,19.6048450469971
3.01199841499329,3.01915955543518,3.02635478973389,3.03358435630798,3.04084849357605,3.04814767837524,3.05548191070557,3.0628514289856,3.07025671005249,3.07769799232483,3.08517527580261,3.092689037323,3.10023927688599,3.10782670974731,3.11545133590698,3.12311339378357,3.13081312179565,3.13855123519897,3.14632749557495,3.15414237976074,3.16199612617493,3.16988921165466,3.17782163619995,3.18579411506653,3.19380640983582,3.20185923576355,3.20995283126831,3.21808743476868,3.22626328468323,3.23448085784912,3.24274039268494,3.25104212760925,3.25938677787781,3.26777410507202,3.27620482444763,3.28467893600464,3.29319715499878,3.30175971984863,3.31036686897278,3.31901907920837,3.327716588974,3.33645987510681,3.34524893760681,3.35408473014832,3.36296725273132,3.37189674377441,3.38087391853333,3.38989925384521,3.39897274971008,3.40809488296509,3.41726613044739,3.42648673057556,3.43575739860535,3.44507837295532,3.45445013046265,3.4638729095459,3.47334718704224,3.48287343978882,3.4924521446228,3.50208377838135,3.51176857948303,3.52150702476501,3.53129982948303,3.54114699363708,3.55104947090149,3.56100726127625,3.57102131843567,3.58109164237976,3.59121894836426,3.60140371322632,3.6116464138031,3.62194776535034,3.63230776786804,3.64272713661194,3.65320682525635,3.66374659538269,3.67434763908386,3.68500995635986,3.69573450088501,3.70652151107788,3.74459600448608,3.74558401107788,3.74657273292542,3.75025725364685,3.76118516921997,3.77217721939087,3.78323364257812,3.7943549156189,3.8055419921875,3.81679511070251,3.82811498641968,3.83950233459473,3.85095739364624,3.86248111724854,3.87407422065735,3.88573694229126,3.89746999740601,3.9092743396759,3.92115020751953,3.93309855461121,3.94511985778809,3.95721483230591,3.96938443183899,3.98162889480591,3.99394917488098,4.00634622573853,4.01881980895996,4.0313720703125,4.04400253295898,4.05671262741089,4.06950235366821,4.08237361907959,4.09532642364502,4.10836124420166,4.12147951126099,4.13468217849731,4.14796924591064,4.16134262084961,4.17480182647705,4.1883487701416,4.20198392868042,4.21570777893066,4.22952175140381,4.24342679977417,4.25742340087891,4.27151250839233,4.28569507598877,4.29997253417969,4.31434535980225,4.32881450653076,4.34338092803955,4.35804557800293,4.37280988693237,4.3876748085022,4.40264081954956,4.41770887374878,4.43288087844849,4.448157787323,4.46353960037231,4.47902870178223,4.49462556838989,4.51033115386963,4.52614736557007,4.54207468032837,4.55813789367676,4.57432699203491,4.59063148498535,4.60705232620239,4.62359094619751,4.64024925231934,4.65702772140503,4.67392826080322,4.69095182418823,4.70809936523438,4.72537326812744,4.74277448654175,4.76030397415161,4.77796363830566,4.79575490951538,4.81367874145508,4.83173751831055,4.8499321937561,4.86826419830322,4.8867359161377,4.90534782409668,4.92410230636597,4.94300031661987,4.96204423904419,4.98123550415039,5.00057601928711,5.02006673812866,5.039710521698,5.05950832366943,5.07946252822876,5.09957456588745,5.11984634399414,5.14028024673462,5.16126537322998,5.18486595153809,5.20868349075317,5.23272132873535,5.25698137283325,5.2814679145813,5.30618333816528,5.33113098144531,5.35631465911865,5.38173723220825,5.40740251541138,5.43331336975098,5.45916938781738,5.48274278640747,5.50652122497559,5.53050661087036,5.55470180511475,5.57911014556885,5.6037335395813,5.62857484817505,5.65363788604736,5.67892503738403,5.70443916320801,5.73018407821655,5.75616216659546,5.78237676620483,5.80883121490479,5.83552885055542,5.862473487854,5.88966751098633,5.91711091995239,5.9448094367981,5.97276878356934,6.00099182128906,6.0294828414917,6.05824613571167,6.08728504180908,6.11660385131836,6.14620637893677,19.0022277832031,19.0036392211914,19.0050506591797,19.006462097168,19.0078735351562,19.0092849731445,19.0106983184814,19.0121097564697,19.013521194458,19.0149345397949,19.0163478851318,19.0177593231201,19.019172668457,19.0205860137939,19.0219993591309,19.0234146118164,19.0248279571533,19.0262432098389,19.0276584625244,19.0290718078613,19.0304870605469,19.0319023132324,19.033317565918,19.0347328186035,19.0361499786377,19.0375652313232,19.0389823913574,19.040397644043,19.0418148040771,19.0432319641113,19.0446491241455,19.0460662841797,19.0474853515625,19.0489025115967,19.0503196716309,19.0517387390137,19.0531558990479,19.0545749664307,19.0559921264648,19.0574131011963,19.0588321685791,19.0602512359619,19.0616703033447,19.0630912780762,19.064510345459,19.0659294128418,19.0673503875732,19.0687713623047,19.0701923370361,19.0716133117676,19.073034286499,19.0744571685791,19.0758781433105,19.0773010253906,19.0787239074707,19.0801448822021,19.0815677642822,19.0829906463623,19.0844135284424,19.0858364105225,19.0872592926025,19.0886840820312,19.0901069641113,19.09153175354,19.0929565429688,19.0943813323975,19.0958061218262,19.0972309112549,19.0986557006836,19.1000804901123,19.1015071868896,19.1029319763184,19.1043586730957,19.105785369873,19.1072120666504,19.1086387634277,19.1100654602051,19.1114921569824,19.1129188537598,19.1143455505371,19.1157722473145,19.1172027587891,19.1186294555664,19.1200580596924,19.1214866638184,19.1229152679443,19.1243457794189,19.1257743835449,19.1272029876709,19.1286334991455,19.1300621032715,19.1314926147461,19.1329231262207,19.1343536376953,19.1357841491699,19.1372146606445,19.1386470794678,19.1400775909424,19.1415100097656,19.1429405212402,19.1443729400635,19.1458053588867,19.14723777771,19.1486701965332,19.1501045227051,19.1515369415283,19.1529693603516,19.1544036865234,19.1558361053467,19.1572704315186,19.1587066650391,19.1601390838623,19.1615734100342,19.1630077362061,19.1644420623779,19.1658782958984,19.1673126220703,19.1687488555908,19.1701850891113,19.1716213226318,19.1730575561523,19.1744937896729,19.1759300231934,19.1773662567139,19.178804397583,19.1802425384521,19.1816787719727,19.1831169128418,19.1845550537109,19.1859931945801,19.1874332427979,19.188871383667,19.1903095245361,19.1917476654053,19.193187713623,19.1946277618408,19.1960678100586,19.1975078582764,19.1989479064941,19.2003879547119,19.2018280029297,19.2032680511475,19.2047100067139,19.2061519622803,19.2075939178467,19.2090358734131,19.2104778289795,19.2119178771973,19.2133617401123,19.2148036956787,19.2162456512451,19.2176876068115,19.2191314697266,19.2205753326416,19.2220191955566,19.2234630584717,19.2249069213867,19.2263526916504,19.2277946472168,19.2292404174805,19.2306861877441,19.2321300506592,19.2335758209229,19.2350215911865,19.2364673614502,19.2379131317139,19.2393608093262,19.2408065795898,19.2422523498535,19.2437000274658,19.2451477050781,19.2465953826904,19.2480411529541,19.2494888305664,19.2509384155273,19.2523860931396,19.253833770752,19.2552814483643,19.2567329406738,19.2581825256348,19.2596302032471,19.261079788208,19.2625274658203,19.2639789581299,19.2654285430908,19.2668781280518,19.2683296203613,19.2697792053223,19.2712326049805,19.2726821899414,19.274133682251,19.2755851745605,19.2770366668701,19.2784900665283,19.2799415588379,19.2813949584961,19.2828483581543,19.2843017578125,19.2857532501221,19.2872085571289,19.2886619567871,19.2901153564453,19.2915687561035,19.2930221557617,19.2944774627686,19.2959327697754,19.2973880767822,19.2988433837891,19.3002986907959,19.3017539978027,19.3032112121582,19.304666519165,19.3061218261719,19.3075790405273,19.3090362548828,19.3104934692383,19.3119506835938,19.3134059906006,19.3148651123047,19.3163223266602,19.3177795410156,19.3192367553711,19.3206977844238,19.3221569061279,19.323616027832,19.3250732421875,19.3265323638916,19.3279933929443,19.3294525146484,19.3309135437012,19.3323726654053,19.333833694458,19.3352947235107,19.3367557525635,19.3382167816162,19.3396778106689,19.3411388397217,19.3425998687744,19.3440628051758,19.3455257415771,19.3469867706299,19.3484497070312,19.3499126434326,19.351375579834,19.3528385162354,19.3543033599854,19.3557662963867,19.3572311401367,19.3586959838867,19.3601589202881,19.3616237640381,19.3630886077881,19.3645534515381,19.3660182952881,19.3674850463867,19.3689498901367,19.3704166412354,19.371883392334,19.373348236084,19.3748168945312,19.3762836456299,19.3777503967285,19.3792171478271,19.3806858062744,19.382152557373,19.3836212158203,19.3850879669189,19.3865566253662,19.3880271911621,19.3894939422607,19.390962600708,19.3924331665039,19.3939018249512,19.3953723907471,19.396842956543,19.3983135223389,19.3997840881348,19.4012546539307,19.4027233123779,19.4041957855225,19.405668258667,19.4071388244629,19.4086112976074,19.410083770752,19.4115543365479,19.4130268096924,19.4145011901855
3.00559425354004,3.01272439956665,3.01988887786865,3.02708768844604,3.03432083129883,3.04158854484558,3.04889106750488,3.05622887611389,3.06360220909119,3.07101106643677,3.07845592498779,3.08593678474426,3.09345412254333,3.10100841522217,3.10859942436218,3.11622786521912,3.12389373779297,3.1315975189209,3.13933920860291,3.14711952209473,3.15493845939636,3.16279602050781,3.17069315910339,3.17862963676453,3.18660616874695,3.19462275505066,3.20267963409424,3.21077728271484,3.21891617774963,3.22709631919861,3.23531794548035,3.24358177185059,3.25188803672791,3.2602367401123,3.26862835884094,3.27706360816956,3.28554224967957,3.29406499862671,3.30263209342957,3.31124377250671,3.31990051269531,3.32860255241394,3.33735036849976,3.34614443778992,3.354984998703,3.36387205123901,3.37280654907227,3.38178873062134,3.39081859588623,3.39989709854126,3.40902423858643,3.41820049285889,3.4274263381958,3.43670201301575,3.44602799415588,3.45540499687195,3.46483302116394,3.47431254386902,3.48384428024292,3.49342823028564,3.50306510925293,3.51275539398193,3.52249932289124,3.53229761123657,3.54215049743652,3.55205845832825,3.5620219707489,3.57204174995422,3.58211779594421,3.59225082397461,3.60244154930115,3.61269021034241,3.62299728393555,3.6333634853363,3.64378905296326,3.65427470207214,3.66482067108154,3.67542791366577,3.68609666824341,3.69682741165161,3.70762085914612,3.71847772598267,3.72939825057983,3.74038290977478,3.75126767158508,3.76220154762268,3.77319955825806,3.78426194190979,3.79538941383362,3.8065824508667,3.81784176826477,3.82916784286499,3.8405613899231,3.85202288627625,3.86355304718018,3.87515234947205,3.88682150840759,3.89856123924255,3.91037225723267,3.92225480079651,3.9342098236084,3.94623804092407,3.95833992958069,3.97051620483398,3.98276782035828,3.99509525299072,4.00749921798706,4.01998043060303,4.03253936767578,4.0451774597168,4.05789470672607,4.07069253921509,4.08357095718384,4.0965313911438,4.10957384109497,4.12270021438599,4.13591051101685,4.14920568466187,4.16258668899536,4.17605400085449,4.18960905075073,4.20325231552124,4.21698474884033,4.23080682754517,4.24472045898438,4.25872564315796,4.27282333374023,4.28701496124268,4.30130100250244,4.31568241119385,4.33016061782837,4.34473609924316,4.35941028594971,4.37418365478516,4.38905763626099,4.40403318405151,4.41911125183105,4.43429279327393,4.4495792388916,4.46497106552124,4.48047018051147,4.49607706069946,4.51179265975952,4.52761936187744,4.54355669021606,4.55960702896118,4.5758056640625,4.59212064743042,4.60855197906494,4.62510204315186,4.64177083969116,4.65856027603149,4.67547178268433,4.69250679016113,4.70966577529907,4.72695112228394,4.74436378479004,4.76190519332886,4.77957677841187,4.79737997055054,4.81531620025635,4.83338737487793,4.8515944480896,4.86993932723999,4.88842344284058,4.90704822540283,4.92581558227539,4.94472694396973,4.96378421783447,4.9829888343811,5.00234317779541,5.02184772491455,5.04150533676147,5.06131744384766,5.08128547668457,5.10141229629517,5.12169885635376,5.14214754104614,5.16275978088379,5.1858115196228,5.20963764190674,5.23368406295776,5.25795316696167,5.28244876861572,5.30717325210571,5.33213043212891,5.35732364654541,5.38275575637817,5.40843057632446,5.43435144424438,5.46052217483521,5.48514795303345,5.50894689559937,5.53295373916626,5.55717039108276,5.58160018920898,5.60624551773071,5.6311092376709,5.65619516372681,5.68150520324707,5.7070426940918,5.73281097412109,5.75881290435791,5.78505182266235,5.81153059005737,5.83825302124023,5.8652229309082,5.89244270324707,5.9199161529541,5.94764089584351,5.97562646865845,6.00387716293335,6.03239583969116,6.06118679046631,6.09025430679321,6.11960124969482,6.14923286437988,18.8247356414795,18.8261184692383,18.8275051116943,18.8288898468018,18.8302745819092,18.8316612243652,18.8330459594727,18.8344326019287,18.8358192443848,18.8372058868408,18.8385925292969,18.8399791717529,18.841365814209,18.842752456665,18.8441410064697,18.8455257415771,18.8469142913818,18.8483028411865,18.8496913909912,18.8510799407959,18.8524684906006,18.8538570404053,18.85524559021,18.8566341400146,18.858024597168,18.8594150543213,18.8608055114746,18.8621959686279,18.8635845184326,18.8649749755859,18.8663654327393,18.8677558898926,18.8691482543945,18.8705387115479,18.8719310760498,18.8733234405518,18.8747158050537,18.876106262207,18.8775005340576,18.8788928985596,18.8802833557129,18.8816776275635,18.8830718994141,18.8844661712646,18.8858585357666,18.8872528076172,18.8886451721191,18.8900394439697,18.8914337158203,18.8928298950195,18.8942222595215,18.8956184387207,18.8970146179199,18.8984088897705,18.8998050689697,18.9012012481689,18.9025974273682,18.9039936065674,18.905387878418,18.9067859649658,18.908182144165,18.9095802307129,18.9109764099121,18.91237449646,18.9137725830078,18.9151706695557,18.9165687561035,18.9179668426514,18.9193668365479,18.9207649230957,18.9221630096436,18.9235610961914,18.9249610900879,18.9263610839844,18.9277610778809,18.9291591644287,18.9305610656738,18.9319629669189,18.9333629608154,18.9347629547119,18.936164855957,18.9375648498535,18.9389667510986,18.9403667449951,18.9417686462402,18.943172454834,18.9445743560791,18.9459762573242,18.9473781585693,18.9487800598145,18.9501838684082,18.951587677002,18.9529914855957,18.9543952941895,18.9557991027832,18.957202911377,18.9586086273193,18.9600124359131,18.9614162445068,18.9628219604492,18.9642276763916,18.965633392334,18.9670391082764,18.9684448242188,18.9698505401611,18.9712562561035,18.9726638793945,18.9740695953369,18.9754753112793,18.9768829345703,18.9782905578613,18.9796981811523,18.9811058044434,18.9825134277344,18.9839210510254,18.985330581665,18.9867382049561,18.9881477355957,18.9895553588867,18.990966796875,18.992374420166,18.9937839508057,18.9951934814453,18.996603012085,18.9980144500732,18.9994239807129,19.0008335113525,19.0022449493408,19.0036563873291,19.0050678253174,19.0064792633057,19.0078907012939,19.0093021392822,19.0107135772705,19.0121269226074,19.0135402679443,19.0149517059326,19.0163650512695,19.0177783966064,19.0191917419434,19.0206050872803,19.0220184326172,19.0234317779541,19.0248470306396,19.0262622833252,19.0276775360107,19.0290908813477,19.0305061340332,19.0319213867188,19.0333366394043,19.0347518920898,19.036169052124,19.0375843048096,19.0389995574951,19.0404167175293,19.0418338775635,19.043249130249,19.0446662902832,19.046085357666,19.0475025177002,19.0489196777344,19.0503368377686,19.0517559051514,19.0531730651855,19.0545921325684,19.0560111999512,19.057430267334,19.0588493347168,19.0602684020996,19.0616874694824,19.0631084442139,19.0645294189453,19.0659484863281,19.0673694610596,19.0687885284424,19.0702114105225,19.0716323852539,19.0730533599854,19.0744743347168,19.0758972167969,19.0773181915283,19.0787410736084,19.0801639556885,19.0815868377686,19.0830097198486,19.0844326019287,19.0858554840088,19.0872783660889,19.0887031555176,19.0901279449463,19.0915508270264,19.0929737091064,19.0943984985352,19.0958232879639,19.0972480773926,19.0986728668213,19.10009765625,19.1015243530273,19.1029510498047,19.1043758392334,19.1058025360107,19.1072292327881,19.1086559295654,19.1100826263428,19.1115093231201,19.1129360198975,19.1143646240234,19.1157932281494,19.1172199249268,19.1186485290527,19.1200771331787,19.1215038299561,19.122932434082,19.1243629455566,19.1257915496826,19.1272220611572,19.1286506652832,19.1300830841064,19.1315116882324,19.132942199707,19.1343727111816,19.1358032226562,19.1372337341309,19.1386642456055,19.1400966644287,19.1415271759033,19.1429576873779,19.1443920135498,19.1458225250244,19.1472549438477,19.1486873626709,19.1501216888428,19.151554107666,19.1529865264893,19.1544208526611,19.155855178833,19.1572895050049,19.1587238311768,19.1601581573486,19.1615905761719,19.1630268096924,19.1644611358643,19.1658973693848,19.1673316955566,19.1687679290771,19.170202255249,19.1716384887695,19.17307472229,19.1745128631592,19.1759490966797,19.1773872375488,19.1788234710693,19.1802597045898,19.181697845459,19.1831359863281,19.1845741271973,19.1860122680664,19.1874504089355,19.1888904571533,19.1903285980225,19.1917667388916,19.1932048797607,19.1946468353271,19.1960849761963,19.1975250244141,19.1989650726318,19.2004051208496,19.201847076416,19.2032871246338,19.2047271728516,19.206169128418,19.2076110839844,19.2090530395508,19.2104949951172,19.2119369506836,19.21337890625,19.214822769165,19.2162647247314,19.2177085876465,19.2191505432129,19.2205944061279,19.222038269043,19.223482131958,19.224925994873,19.2263698577881,19.2278156280518
2.99921751022339,3.00631737709045,3.01345109939575,3.02061891555786,3.02782082557678,3.03505754470825,3.04232883453369,3.04963493347168,3.05697631835938,3.06435322761536,3.07176566123962,3.07921409606934,3.08669877052307,3.09421992301941,3.10177779197693,3.10937261581421,3.11700487136841,3.12467455863953,3.13238215446472,3.14012789726257,3.14791202545166,3.15573477745056,3.16359663009644,3.17149758338928,3.17943811416626,3.18741869926453,3.19543933868408,3.20350027084351,3.21160221099854,3.21974515914917,3.22792959213257,3.23615550994873,3.24442362785339,3.25273418426514,3.26108717918396,3.2694833278656,3.27792286872864,3.28640604019165,3.2949333190918,3.30350470542908,3.31212115287781,3.32078242301941,3.32948923110962,3.33824157714844,3.34704041481018,3.35588550567627,3.36477756500244,3.37371683120728,3.38270378112793,3.39173865318298,3.40082216262817,3.4099543094635,3.41913533210754,3.4283664226532,3.43764710426331,3.44697833061218,3.45636034011841,3.46579360961914,3.47527837753296,3.4848153591156,3.49440479278564,3.50404715538025,3.51374268531799,3.52349209785461,3.53329610824585,3.54315447807312,3.55306792259216,3.56303739547729,3.57306265830994,3.5831446647644,3.5932834148407,3.60348010063171,3.61373472213745,3.62404775619507,3.63441967964172,3.64485144615173,3.6553430557251,3.66589546203613,3.67650866508484,3.68718385696411,3.69792103767395,3.70872092247009,3.7195839881897,3.73051118850708,3.74150252342224,3.7525589466095,3.76323866844177,3.7742223739624,3.78529071807861,3.79642415046692,3.80762338638306,3.81888890266418,3.83022117614746,3.84162092208862,3.85308885574341,3.86462545394897,3.87623119354248,3.88790702819824,3.89965319633484,3.91147065162659,3.92335987091064,3.93532180786133,3.94735670089722,3.95946550369263,3.9716489315033,3.98390746116638,3.99624180793762,4.00865268707275,4.02114152908325,4.03370761871338,4.04635286331177,4.05907773971558,4.07188272476196,4.08476877212524,4.09773683547974,4.1107873916626,4.12392139434814,4.13713932037354,4.15044260025024,4.16383123397827,4.17730712890625,4.19086980819702,4.20452165603638,4.21826219558716,4.23209285736084,4.24601459503174,4.26002836227417,4.27413511276245,4.28833532333374,4.30262994766235,4.31702041625977,4.33150768280029,4.34609222412109,4.36077547073364,4.37555837631226,4.39044189453125,4.40542650222778,4.42051410675049,4.43570566177368,4.45100164413452,4.46640348434448,4.48191213607788,4.49752902984619,4.51325511932373,4.52909183502197,4.54504013061523,4.56110048294067,4.5772852897644,4.5936107635498,4.61005306243896,4.62661361694336,4.6432933807373,4.66009426116943,4.6770167350769,4.69406270980835,4.71123361587524,4.7285304069519,4.7459545135498,4.76350784301758,4.78119134902954,4.79900646209717,4.81695508956909,4.83503818511963,4.85325765609741,4.87161540985107,4.89011192321777,4.90875005722046,4.92753028869629,4.94645500183105,4.96552562713623,4.98474359512329,5.00411128997803,5.02363014221191,5.04330158233643,5.0631275177002,5.08311033248901,5.10325145721436,5.1235523223877,5.14401578903198,5.16464328765869,5.18675708770752,5.21059226989746,5.23464727401733,5.25892543792725,5.28342962265015,5.3081636428833,5.33313035964966,5.35833263397217,5.38377475738525,5.40945911407471,5.43538999557495,5.46157073974609,5.4875545501709,5.51137495040894,5.53540277481079,5.55964088439941,5.58409214019775,5.60875988006592,5.63364601135254,5.65875434875488,5.68408727645874,5.70964813232422,5.73544025421143,5.76146602630615,5.78772878646851,5.81423234939575,5.840980052948,5.86797475814819,5.8952202796936,5.92271995544434,5.95047521591187,5.97848749160767,6.00676488876343,6.03531122207642,6.0641303062439,6.09322595596313,6.12260150909424,6.15226221084595,6.18221139907837,18.6518859863281,18.6532459259033,18.6546058654785,18.6559638977051,18.6573257446289,18.6586837768555,18.6600456237793,18.6614055633545,18.6627674102783,18.6641292572021,18.6654891967773,18.6668510437012,18.668212890625,18.6695747375488,18.6709365844727,18.6722984313965,18.6736621856689,18.6750240325928,18.6763877868652,18.6777496337891,18.6791133880615,18.680477142334,18.6818389892578,18.6832027435303,18.6845684051514,18.6859321594238,18.6872959136963,18.6886596679688,18.6900253295898,18.6913909912109,18.6927547454834,18.6941204071045,18.6954860687256,18.6968517303467,18.6982192993164,18.6995849609375,18.7009525299072,18.7023181915283,18.703685760498,18.7050514221191,18.7064189910889,18.7077865600586,18.7091541290283,18.7105236053467,18.7118911743164,18.7132587432861,18.7146263122559,18.7159957885742,18.7173633575439,18.7187328338623,18.7201023101807,18.7214736938477,18.722843170166,18.7242107391357,18.7255821228027,18.7269515991211,18.7283229827881,18.7296905517578,18.7310619354248,18.7324333190918,18.7338047027588,18.7351760864258,18.7365474700928,18.7379188537598,18.7392921447754,18.740665435791,18.742036819458,18.7434101104736,18.7447814941406,18.7461547851562,18.7475280761719,18.7489032745361,18.7502765655518,18.7516479492188,18.753023147583,18.7543964385986,18.7557716369629,18.7571468353271,18.7585220336914,18.7598972320557,18.7612724304199,18.7626476287842,18.7640228271484,18.7653980255127,18.7667751312256,18.7681522369385,18.7695274353027,18.7709045410156,18.7722816467285,18.7736587524414,18.7750358581543,18.7764129638672,18.7777900695801,18.7791690826416,18.7805461883545,18.781925201416,18.7833042144775,18.7846832275391,18.786060333252,18.7874393463135,18.788818359375,18.7901992797852,18.7915802001953,18.7929592132568,18.794340133667,18.7957191467285,18.7971000671387,18.7984809875488,18.799861907959,18.8012428283691,18.8026237487793,18.8040065765381,18.8053874969482,18.8067684173584,18.8081512451172,18.809534072876,18.8109149932861,18.8122978210449,18.8136806488037,18.8150653839111,18.8164482116699,18.8178310394287,18.8192157745361,18.8206005096436,18.8219833374023,18.8233680725098,18.8247528076172,18.826135635376,18.827522277832,18.8289070129395,18.8302917480469,18.8316783905029,18.8330631256104,18.8344497680664,18.8358345031738,18.8372211456299,18.8386096954346,18.8399963378906,18.8413829803467,18.8427696228027,18.8441581726074,18.8455448150635,18.8469314575195,18.8483200073242,18.8497085571289,18.8510971069336,18.8524856567383,18.8538761138916,18.8552646636963,18.856653213501,18.8580436706543,18.859432220459,18.8608226776123,18.8622131347656,18.8636035919189,18.8649940490723,18.8663845062256,18.8677749633789,18.8691673278809,18.8705577850342,18.8719501495361,18.8733406066895,18.8747329711914,18.8761253356934,18.8775177001953,18.8789100646973,18.8803005218506,18.8816947937012,18.8830890655518,18.8844814300537,18.8858737945557,18.8872699737549,18.8886623382568,18.8900585174561,18.8914527893066,18.8928470611572,18.8942394256592,18.8956356048584,18.8970317840576,18.8984279632568,18.8998241424561,18.9012184143066,18.9026145935059,18.9040107727051,18.9054069519043,18.9068050384521,18.9082012176514,18.9095973968506,18.9109954833984,18.9123935699463,18.9137897491455,18.9151878356934,18.9165859222412,18.9179840087891,18.9193840026855,18.9207820892334,18.9221801757812,18.9235801696777,18.9249782562256,18.9263782501221,18.9277782440186,18.929178237915,18.9305782318115,18.931978225708,18.9333782196045,18.9347801208496,18.9361820220947,18.9375820159912,18.9389839172363,18.9403858184814,18.9417858123779,18.9431896209717,18.9445915222168,18.9459953308105,18.9473972320557,18.9487991333008,18.9502029418945,18.9516067504883,18.953010559082,18.9544143676758,18.9558181762695,18.9572200775146,18.958625793457,18.9600315093994,18.9614353179932,18.9628410339355,18.9642448425293,18.9656505584717,18.9670562744141,18.9684619903564,18.9698677062988,18.9712753295898,18.9726810455322,18.9740867614746,18.9754943847656,18.976900100708,18.978307723999,18.97971534729,18.9811229705811,18.9825305938721,18.9839382171631,18.9853477478027,18.9867553710938,18.9881649017334,18.989574432373,18.9909839630127,18.9923915863037,18.9938011169434,18.9952125549316,18.9966220855713,18.9980316162109,18.9994411468506,19.0008525848389,19.0022640228271,19.0036754608154,19.0050868988037,19.006498336792,19.0079097747803,19.0093212127686,19.0107326507568,19.0121440887451,19.013557434082,19.0149707794189,19.0163841247559,19.0177955627441,19.0192108154297,19.020622253418,19.0220355987549,19.0234508514404,19.0248641967773,19.0262794494629,19.0276947021484,19.0291080474854,19.0305233001709,19.0319385528564,19.0333557128906,19.0347690582275,19.0361862182617,19.0376014709473,19.0390186309814,19.040433883667,19.0418510437012,19.0432682037354,19.0446853637695
2.99286770820618,2.99993753433228,3.00704097747803,3.01417827606201,3.02134943008423,3.02855467796326,3.03579473495483,3.04306936264038,3.05037903785706,3.05772399902344,3.06510448455811,3.07252073287964,3.07997274398804,3.08746123313904,3.09498596191406,3.10254764556885,3.11014628410339,3.11778235435486,3.12545585632324,3.1331672668457,3.14091682434082,3.14870500564575,3.15653157234192,3.16439723968506,3.17230248451233,3.18024706840515,3.18823170661926,3.19625616073608,3.20432162284851,3.21242761611938,3.22057461738586,3.22876334190369,3.23699355125427,3.24526596069336,3.25358057022095,3.26193809509277,3.27033877372742,3.27878260612488,3.28727030754089,3.29580187797546,3.30437803268433,3.31299877166748,3.32166481018066,3.33037614822388,3.33913326263428,3.3479368686676,3.35678672790527,3.36568355560303,3.37462759017944,3.38361954689026,3.39265918731689,3.40174746513367,3.41088461875916,3.42007088661194,3.42930674552917,3.43859267234802,3.44792914390564,3.45731639862061,3.4667546749115,3.47624492645264,3.48578715324402,3.4953818321228,3.50502967834473,3.51473069190979,3.52448558807373,3.53429484367371,3.54415893554688,3.55407810211182,3.56405305862427,3.57408428192139,3.58417201042175,3.59431672096252,3.60451912879944,3.61477947235107,3.62509846687317,3.63547682762146,3.64591455459595,3.65641212463379,3.66697096824646,3.67759037017822,3.68827152252197,3.69901537895203,3.70982146263123,3.72069120407104,3.73162460327148,3.74262285232544,3.75368571281433,3.76481437683105,3.77545237541199,3.78631997108459,3.79745960235596,3.80866503715515,3.81993651390076,3.83127522468567,3.84268116950989,3.85415530204773,3.86569833755493,3.87731051445007,3.88899278640747,3.90074563026428,3.91256976127625,3.9244658946991,3.93643426895142,3.9484760761261,3.9605917930603,3.97278213500977,3.98504757881165,3.99738907814026,4.00980758666992,4.02230310440063,4.03487682342529,4.04752922058105,4.06026124954224,4.07307386398315,4.08596754074097,4.09894323348999,4.11200141906738,4.12514305114746,4.13836908340454,4.15167999267578,4.1650767326355,4.17856073379517,4.19213199615479,4.20579147338867,4.2195405960083,4.23337984085083,4.24731016159058,4.2613320350647,4.27544736862183,4.28965663909912,4.30396032333374,4.318359375,4.33285570144653,4.34744930267334,4.36214160919189,4.37693405151367,4.39182662963867,4.40682077407837,4.42191791534424,4.4371190071106,4.45242500305176,4.46783685684204,4.48335552215576,4.49898242950439,4.51471900939941,4.53056573867798,4.54652404785156,4.56259536743164,4.57878065109253,4.59510183334351,4.61155462265015,4.62812614440918,4.64481687545776,4.66162872314453,4.6785626411438,4.69561958312988,4.71280193328857,4.73011016845703,4.74754619598389,4.76511096954346,4.78280639648438,4.80063390731812,4.81859445571899,4.8366904258728,4.8549222946167,4.87329244613647,4.89180183410645,4.9104528427124,4.9292459487915,4.9481840133667,4.9672679901123,4.98649978637695,5.00588083267212,5.02541351318359,5.04509878158569,5.06493902206421,5.08493614196777,5.10509157180786,5.12540769577026,5.14588594436646,5.16652822494507,5.18770313262939,5.21154689788818,5.23561096191406,5.25989818572998,5.28441143035889,5.30915451049805,5.33413028717041,5.35934257507324,5.38479375839233,5.41048812866211,5.43642902374268,5.46261930465698,5.48906373977661,5.51380443572998,5.53785371780396,5.56211376190186,5.58658695220947,5.61127662658691,5.63618516921997,5.66131591796875,5.68667221069336,5.71225595474243,5.73807144165039,5.76412153244019,5.79040861129761,5.81693696975708,5.84370946884155,5.87072944641113,5.89800071716309,5.92552614212036,5.95331001281738,5.98135137557983,6.00965595245361,6.03822946548462,6.06707620620728,6.09620046615601,6.12560510635376,6.15529489517212,6.18527364730835,18.4808483123779,18.4821834564209,18.4835166931152,18.4848518371582,18.4861869812012,18.4875240325928,18.4888572692871,18.4901943206787,18.4915313720703,18.4928665161133,18.4942035675049,18.4955406188965,18.4968757629395,18.4982128143311,18.4995498657227,18.5008888244629,18.5022258758545,18.5035648345947,18.5049018859863,18.5062389373779,18.5075778961182,18.5089168548584,18.51025390625,18.5115928649902,18.5129337310791,18.5142726898193,18.5156116485596,18.5169506072998,18.5182914733887,18.5196304321289,18.5209693908691,18.5223121643066,18.5236511230469,18.5249919891357,18.5263347625732,18.5276756286621,18.529016494751,18.5303592681885,18.5317001342773,18.5330429077148,18.5343837738037,18.5357265472412,18.5370693206787,18.5384120941162,18.5397548675537,18.5410976409912,18.5424423217773,18.5437850952148,18.5451278686523,18.5464725494385,18.547815322876,18.5491619110107,18.5505046844482,18.551851272583,18.5531959533691,18.5545406341553,18.5558853149414,18.5572299957275,18.5585765838623,18.5599231719971,18.5612697601318,18.562614440918,18.5639629364014,18.5653095245361,18.5666542053223,18.568000793457,18.5693473815918,18.5706958770752,18.5720443725586,18.573392868042,18.5747394561768,18.5760879516602,18.5774364471436,18.578784942627,18.580135345459,18.5814838409424,18.5828323364258,18.5841827392578,18.5855312347412,18.5868797302246,18.5882320404053,18.5895824432373,18.5909328460693,18.5922813415527,18.5936336517334,18.5949840545654,18.5963363647461,18.5976867675781,18.5990390777588,18.6003894805908,18.6017417907715,18.6030941009521,18.6044464111328,18.6058006286621,18.6071529388428,18.6085052490234,18.6098594665527,18.6112117767334,18.6125659942627,18.6139183044434,18.615270614624,18.616626739502,18.6179809570312,18.6193351745605,18.6206893920898,18.6220436096191,18.6233997344971,18.624755859375,18.6261100769043,18.6274662017822,18.6288223266602,18.6301784515381,18.631534576416,18.6328907012939,18.6342487335205,18.6356048583984,18.636962890625,18.6383190155029,18.6396770477295,18.6410331726074,18.6423931121826,18.6437511444092,18.6451091766357,18.6464672088623,18.6478271484375,18.6491851806641,18.6505432128906,18.6519031524658,18.653263092041,18.6546230316162,18.6559829711914,18.6573429107666,18.6587028503418,18.660062789917,18.6614227294922,18.6627826690674,18.6641445159912,18.6655082702637,18.6668682098389,18.6682300567627,18.6695919036865,18.6709537506104,18.6723155975342,18.673677444458,18.6750392913818,18.6764030456543,18.6777667999268,18.6791305541992,18.6804943084717,18.6818580627441,18.6832218170166,18.6845855712891,18.6859493255615,18.687313079834,18.6886787414551,18.6900424957275,18.6914081573486,18.6927738189697,18.6941394805908,18.6955051422119,18.6968688964844,18.6982364654541,18.6996021270752,18.7009696960449,18.702335357666,18.7037029266357,18.7050685882568,18.7064361572266,18.7078037261963,18.709171295166,18.7105388641357,18.7119064331055,18.7132759094238,18.7146434783936,18.7160129547119,18.7173805236816,18.71875,18.7201194763184,18.7214889526367,18.7228584289551,18.7242279052734,18.7255992889404,18.7269687652588,18.7283382415771,18.7297096252441,18.7310810089111,18.7324523925781,18.7338218688965,18.7351932525635,18.7365665435791,18.7379379272461,18.7393093109131,18.7406826019287,18.7420539855957,18.7434272766113,18.7447986602783,18.7461719512939,18.7475471496582,18.7489204406738,18.7502937316895,18.7516670227051,18.7530422210693,18.754415512085,18.7557907104492,18.7571640014648,18.7585391998291,18.7599143981934,18.7612895965576,18.7626647949219,18.7640399932861,18.765417098999,18.7667922973633,18.7681674957275,18.7695446014404,18.7709217071533,18.7722988128662,18.7736759185791,18.775053024292,18.7764301300049,18.7778091430664,18.7791862487793,18.7805652618408,18.7819423675537,18.7833213806152,18.7847003936768,18.7860794067383,18.7874584197998,18.7888374328613,18.7902164459229,18.7915954589844,18.7929763793945,18.7943572998047,18.7957382202148,18.7971172332764,18.7984981536865,18.7998790740967,18.8012599945068,18.802640914917,18.8040237426758,18.8054046630859,18.8067855834961,18.8081684112549,18.809549331665,18.8109340667725,18.8123168945312,18.81369972229,18.8150825500488,18.8164653778076,18.8178482055664,18.8192329406738,18.8206157684326,18.82200050354,18.8233852386475,18.8247699737549,18.8261528015137,18.8275394439697,18.8289241790771,18.8303089141846,18.8316974639893,18.8330821990967,18.8344669342041,18.8358535766602,18.8372402191162,18.8386268615723,18.8400135040283,18.8414001464844,18.8427886962891,18.8441753387451,18.8455638885498,18.8469505310059,18.8483390808105,18.8497276306152,18.8511161804199,18.852502822876,18.8538913726807,18.855281829834,18.8566703796387,18.858060836792,18.8594493865967,18.86083984375,18.8622303009033,18.8636207580566,18.8650093078613
2.98654460906982,2.99358487129211,3.0006582736969,3.00776505470276,3.01490569114685,3.02208042144775,3.02928924560547,3.03653264045715,3.04381060600281,3.05112361907959,3.05847215652466,3.06585621833801,3.07327604293823,3.0807318687439,3.08822393417358,3.09575247764587,3.10331773757935,3.11092019081116,3.11856007575989,3.12623739242554,3.13395285606384,3.14170622825623,3.14949822425842,3.15732884407043,3.16519856452942,3.17310762405396,3.18105626106262,3.18904495239258,3.19707369804382,3.20514297485352,3.21325325965881,3.22140455245972,3.22959733009338,3.23783206939697,3.2461085319519,3.2544276714325,3.26278948783875,3.27119445800781,3.27964282035828,3.28813505172729,3.29667115211487,3.30525159835815,3.31387710571289,3.32254767417908,3.33126378059387,3.34002566337585,3.3488335609436,3.35768842697144,3.36658978462219,3.37553882598877,3.38453555107117,3.39358019828796,3.4026734828949,3.41181540489197,3.42100691795349,3.43024778366089,3.43953895568848,3.44888043403625,3.45827269554138,3.46771645545959,3.47721171379089,3.48675918579102,3.4963595867157,3.50601243972778,3.51571917533875,3.52547955513,3.5352942943573,3.54516410827637,3.55508899688721,3.56506943702698,3.57510638237,3.58519983291626,3.59535050392151,3.60555863380432,3.61582517623901,3.62615013122559,3.63653421401978,3.64697813987732,3.6574821472168,3.66804671287537,3.67867255210876,3.68936038017273,3.70011019706726,3.7109227180481,3.72179889678955,3.73273897171021,3.7437436580658,3.7548131942749,3.76594829559326,3.77714991569519,3.7877459526062,3.79849553108215,3.8097071647644,3.82098484039307,3.83232975006104,3.84374213218689,3.85522270202637,3.86677193641663,3.8783905506134,3.89007949829102,3.90183877944946,3.91366958618164,3.92557215690613,3.93754768371582,3.94959616661072,3.96171879768372,3.97391605377197,3.98618865013123,3.99853706359863,4.01096248626709,4.02346515655518,4.03604602813721,4.0487060546875,4.06144571304321,4.07426595687866,4.08716678619385,4.1001501083374,4.11321592330933,4.12636566162109,4.13959932327271,4.15291833877563,4.16632318496704,4.17981481552124,4.19339418411255,4.20706224441528,4.2208194732666,4.23466730117798,4.24860620498657,4.26263666152954,4.27676057815552,4.29097843170166,4.30529069900513,4.31969928741455,4.33420467376709,4.3488073348999,4.36350870132446,4.37831020355225,4.39321231842041,4.40821599960327,4.42332315444946,4.43853378295898,4.45384931564331,4.46927070617676,4.4847993850708,4.50043678283691,4.51618337631226,4.53204011917114,4.54800891876221,4.56409072875977,4.58028697967529,4.59659814834595,4.6130576133728,4.62963962554932,4.64634132385254,4.66316413879395,4.68010950088501,4.69717788696289,4.71437168121338,4.73169136047363,4.74913883209229,4.76671552658081,4.78442287445068,4.80226230621338,4.82023525238037,4.83834362030029,4.8565878868103,4.87497043609619,4.89349269866943,4.91215658187866,4.93096303939819,4.94991445541382,4.96901178359985,4.98825693130493,5.00765180587769,5.02719783782959,5.04689741134644,5.0667519569397,5.08676338195801,5.10693359375,5.12726402282715,5.14775705337524,5.16841459274292,5.18923902511597,5.21250200271606,5.23657464981079,5.26087093353271,5.28539323806763,5.31014585494995,5.33513116836548,5.36035251617432,5.38581323623657,5.41151762008667,5.4374680519104,5.46366882324219,5.49012327194214,5.51623678207397,5.54030704498291,5.56458854675293,5.58908367156982,5.61379528045654,5.63872623443604,5.66388034820557,5.68925905227661,5.71486663818359,5.7407054901123,5.76677942276001,5.79309129714966,5.8196439743042,5.8464412689209,5.87348699569702,5.90078353881836,5.92833518981934,5.95614528656006,5.98421764373779,6.01254940032959,6.04115056991577,6.07002592086792,6.09917783737183,6.12861156463623,6.15833044052124,6.18833923339844,6.21864175796509,18.31422996521,18.3155384063721,18.3168506622314,18.3181610107422,18.3194732666016,18.3207836151123,18.322093963623,18.3234081268311,18.3247184753418,18.3260326385498,18.3273429870605,18.3286571502686,18.3299674987793,18.3312816619873,18.3325939178467,18.3339080810547,18.3352241516113,18.3365364074707,18.3378505706787,18.3391628265381,18.3404788970947,18.3417911529541,18.3431072235107,18.3444213867188,18.3457355499268,18.3470516204834,18.34836769104,18.3496837615967,18.3509998321533,18.3523139953613,18.3536319732666,18.3549461364746,18.3562641143799,18.3575801849365,18.3588981628418,18.3602142333984,18.3615303039551,18.3628482818604,18.3641662597656,18.3654842376709,18.3668022155762,18.3681201934814,18.3694400787354,18.370756149292,18.3720760345459,18.3733959197998,18.3747138977051,18.376033782959,18.3773536682129,18.3786716461182,18.3799934387207,18.3813133239746,18.3826332092285,18.3839550018311,18.385274887085,18.3865966796875,18.3879165649414,18.3892383575439,18.3905582427979,18.391881942749,18.3932037353516,18.3945255279541,18.3958473205566,18.3971691131592,18.3984909057617,18.3998146057129,18.4011383056641,18.4024600982666,18.4037857055664,18.4051074981689,18.4064311981201,18.4077548980713,18.4090785980225,18.4104022979736,18.4117279052734,18.4130516052246,18.4143772125244,18.4157028198242,18.417028427124,18.4183540344238,18.419677734375,18.4210033416748,18.4223308563232,18.423656463623,18.4249839782715,18.4263095855713,18.4276371002197,18.4289646148682,18.430290222168,18.4316177368164,18.4329471588135,18.4342746734619,18.4356021881104,18.4369297027588,18.4382572174072,18.4395866394043,18.4409160614014,18.4422435760498,18.4435729980469,18.4449024200439,18.446231842041,18.4475612640381,18.4488906860352,18.4502220153809,18.4515533447266,18.4528827667236,18.4542121887207,18.4555435180664,18.4568748474121,18.4582061767578,18.4595375061035,18.4608688354492,18.4622001647949,18.4635314941406,18.464864730835,18.4661960601807,18.467529296875,18.4688625335693,18.4701957702637,18.4715270996094,18.4728622436523,18.4741954803467,18.475528717041,18.4768619537354,18.4781970977783,18.4795303344727,18.4808654785156,18.4822006225586,18.4835338592529,18.4848690032959,18.4862041473389,18.4875411987305,18.4888763427734,18.4902114868164,18.491548538208,18.492883682251,18.4942188262939,18.4955577850342,18.4968929290771,18.4982299804688,18.4995670318604,18.500904083252,18.5022430419922,18.5035781860352,18.5049171447754,18.5062561035156,18.5075950622559,18.5089321136475,18.5102710723877,18.5116100311279,18.5129489898682,18.5142879486084,18.5156269073486,18.5169677734375,18.5183086395264,18.5196475982666,18.5209884643555,18.5223293304443,18.5236701965332,18.5250110626221,18.5263519287109,18.5276927947998,18.5290336608887,18.5303745269775,18.531717300415,18.5330600738525,18.5344009399414,18.5357437133789,18.5370864868164,18.5384292602539,18.5397720336914,18.5411148071289,18.542459487915,18.5438022613525,18.54514503479,18.5464897155762,18.5478324890137,18.5491771697998,18.5505218505859,18.5518665313721,18.5532131195068,18.554557800293,18.5559024810791,18.5572471618652,18.55859375,18.5599384307861,18.5612850189209,18.5626316070557,18.5639781951904,18.5653247833252,18.56667137146,18.5680198669434,18.5693664550781,18.5707130432129,18.5720615386963,18.5734081268311,18.5747566223145,18.5761051177979,18.5774536132812,18.5788021087646,18.5801525115967,18.5815010070801,18.5828495025635,18.5841999053955,18.5855484008789,18.5868988037109,18.588249206543,18.589599609375,18.590950012207,18.5923004150391,18.5936508178711,18.5950012207031,18.5963516235352,18.5977039337158,18.5990562438965,18.6004066467285,18.6017589569092,18.6031112670898,18.6044635772705,18.6058158874512,18.6071681976318,18.6085224151611,18.6098747253418,18.6112289428711,18.6125812530518,18.6139354705811,18.6152896881104,18.6166439056396,18.6179981231689,18.6193523406982,18.6207065582275,18.6220607757568,18.6234169006348,18.6247730255127,18.6261291503906,18.6274852752686,18.6288394927979,18.6301956176758,18.6315517425537,18.6329097747803,18.6342658996582,18.6356220245361,18.6369800567627,18.6383361816406,18.6396942138672,18.6410522460938,18.6424083709717,18.6437664031982,18.6451263427734,18.646484375,18.6478424072266,18.6492023468018,18.6505603790283,18.6519203186035,18.6532783508301,18.6546401977539,18.6560001373291,18.6573581695557,18.6587200164795,18.6600799560547,18.6614418029785,18.6628017425537,18.6641635894775,18.6655235290527,18.6668853759766,18.6682472229004,18.6696090698242,18.670970916748,18.6723327636719,18.6736965179443,18.6750583648682,18.6764221191406,18.6777839660645,18.6791477203369,18.6805114746094,18.6818752288818,18.6832389831543,18.6846027374268,18.6859664916992,18.6873302459717,18.6886959075928
2.98024845123291,2.98725891113281,2.99430227279663,3.00137901306152,3.00848937034607,3.01563358306885,3.02281165122986,3.03002381324768,3.03727078437805,3.04455232620239,3.05186891555786,3.05922079086304,3.06660842895508,3.07403182983398,3.08149123191833,3.08898687362671,3.09651923179626,3.10408854484558,3.11169457435608,3.11933827400208,3.12701940536499,3.13473868370056,3.14249610900879,3.15029191970825,3.15812659263611,3.16600012779236,3.17391324043274,3.18186593055725,3.18985867500305,3.19789147377014,3.20596504211426,3.2140793800354,3.22223496437073,3.23043203353882,3.23867082595825,3.24695181846619,3.2552752494812,3.26364135742188,3.27205085754395,3.28050351142883,3.28900003433228,3.29754066467285,3.30612587928772,3.31475591659546,3.32343101501465,3.33215165138245,3.34091830253601,3.34973096847534,3.35859036445618,3.36749696731567,3.37645053863525,3.38545203208923,3.39450168609619,3.40359997749329,3.41274690628052,3.4219434261322,3.43118929862976,3.44048547744751,3.44983220100403,3.4592297077179,3.46867871284485,3.47817921638489,3.48773217201233,3.49733757972717,3.50699615478516,3.51670813560486,3.52647423744202,3.53629446029663,3.54616975784302,3.55610036849976,3.56608653068542,3.57612919807434,3.5862283706665,3.59638476371765,3.60659909248352,3.61687135696411,3.62720227241516,3.63759255409241,3.64804244041443,3.65855264663696,3.66912341117859,3.67975544929504,3.69044947624207,3.70120573043823,3.71202492713928,3.72290730476379,3.73385381698608,3.74486517906189,3.75594139099121,3.76708340644836,3.77829170227051,3.78947877883911,3.80011963844299,3.81082010269165,3.82203364372253,3.83338475227356,3.84480357170105,3.85629034042358,3.86784601211548,3.87947130203247,3.89116644859314,3.90293264389038,3.91476988792419,3.92667937278748,3.9386613368988,3.95071697235107,3.96284627914429,3.97505044937134,3.98733019828796,3.99968576431274,4.01211833953857,4.02462816238403,4.0372166633606,4.04988384246826,4.06263065338135,4.07545852661133,4.08836698532104,4.10135793685913,4.11443138122559,4.12758874893188,4.14083051681519,4.15415716171265,4.16757011413574,4.18107032775879,4.19465780258179,4.20833396911621,4.22209978103638,4.23595571517944,4.24990272521973,4.2639422416687,4.27807474136353,4.29230117797852,4.30662250518799,4.32103967666626,4.3355541229248,4.35016584396362,4.36487674713135,4.37968730926514,4.39459896087646,4.40961217880249,4.42472839355469,4.43994903564453,4.45527410507202,4.47070598602295,4.48624467849731,4.50189161300659,4.51764869689941,4.53351593017578,4.54949522018433,4.56558752059937,4.58179426193237,4.59811592102051,4.61456155776978,4.63115453720093,4.64786720275879,4.66470098495483,4.68165731430054,4.69873714447021,4.71594190597534,4.73327350616455,4.75073289871216,4.76832151412964,4.78604078292847,4.80389213562012,4.82187747955322,4.8399977684021,4.85825490951538,4.87664985656738,4.8951849937439,4.9138617515564,4.93268156051636,4.95164585113525,4.97075653076172,4.99001502990723,5.00942373275757,5.02898406982422,5.04869747161865,5.06856632232666,5.08859205245972,5.10877656936646,5.12912178039551,5.14962959289551,5.17030239105225,5.19114208221436,5.21345710754395,5.23753881454468,5.26184415817261,5.28637552261353,5.31113719940186,5.33613157272339,5.36136293411255,5.38683366775513,5.41254711151123,5.43850803375244,5.46471834182739,5.49118328094482,5.51790523529053,5.54276275634766,5.56706571578979,5.59158277511597,5.61631631851196,5.64127016067505,5.66644620895386,5.69184827804565,5.71747922897339,5.74334192276001,5.76943969726562,5.79577589035034,5.82235336303711,5.84917593002319,5.87624645233154,5.90356922149658,5.93114709854126,5.95898342132568,5.98708248138428,6.01544570922852,6.04407453536987,6.0729775428772,6.10215854644775,6.13162088394165,6.16136884689331,6.19140720367432,6.22174024581909,18.149299621582,18.1505870819092,18.1518745422363,18.1531620025635,18.1544494628906,18.1557388305664,18.1570262908936,18.1583137512207,18.1596031188965,18.1608905792236,18.1621799468994,18.1634693145752,18.164758682251,18.1660480499268,18.1673355102539,18.1686267852783,18.1699161529541,18.1712074279785,18.1724967956543,18.1737880706787,18.1750793457031,18.1763687133789,18.1776599884033,18.1789512634277,18.1802425384521,18.1815338134766,18.1828269958496,18.184118270874,18.1854095458984,18.1867027282715,18.1879940032959,18.1892871856689,18.190580368042,18.191873550415,18.1931667327881,18.1944618225098,18.1957550048828,18.1970481872559,18.1983413696289,18.1996364593506,18.2009296417236,18.2022247314453,18.203519821167,18.2048149108887,18.2061080932617,18.207405090332,18.2087001800537,18.2099952697754,18.2112903594971,18.2125854492188,18.2138824462891,18.215181350708,18.2164764404297,18.2177734375,18.2190704345703,18.2203674316406,18.2216644287109,18.2229614257812,18.2242584228516,18.2255573272705,18.2268543243408,18.2281532287598,18.2294521331787,18.2307510375977,18.2320499420166,18.2333488464355,18.2346458435059,18.2359466552734,18.2372455596924,18.23854637146,18.2398452758789,18.2411460876465,18.2424468994141,18.243745803833,18.2450466156006,18.2463474273682,18.2476482391357,18.248950958252,18.2502517700195,18.2515506744385,18.2528533935547,18.2541561126709,18.2554569244385,18.2567615509033,18.2580623626709,18.2593650817871,18.2606678009033,18.2619724273682,18.2632751464844,18.2645778656006,18.2658824920654,18.2671852111816,18.2684879302979,18.2697925567627,18.2710990905762,18.2724018096924,18.2737083435059,18.2750110626221,18.2763175964355,18.2776222229004,18.2789287567139,18.2802333831787,18.2815380096436,18.282844543457,18.2841510772705,18.285457611084,18.2867641448975,18.2880706787109,18.289379119873,18.2906856536865,18.2919921875,18.2933006286621,18.2946090698242,18.2959156036377,18.2972240447998,18.2985324859619,18.299840927124,18.3011474609375,18.3024559020996,18.3037662506104,18.3050765991211,18.3063850402832,18.3076953887939,18.3090038299561,18.3103141784668,18.3116245269775,18.3129348754883,18.314245223999,18.3155555725098,18.3168678283691,18.3181781768799,18.3194904327393,18.32080078125,18.3221130371094,18.3234233856201,18.3247375488281,18.3260478973389,18.3273601531982,18.3286743164062,18.3299865722656,18.331298828125,18.332612991333,18.3339252471924,18.3352394104004,18.3365535736084,18.3378658294678,18.3391799926758,18.3404960632324,18.3418102264404,18.3431243896484,18.3444385528564,18.3457546234131,18.3470687866211,18.3483829498291,18.3496990203857,18.3510150909424,18.352331161499,18.3536472320557,18.3549633026123,18.3562812805176,18.3575954437256,18.3589153289795,18.3602313995361,18.3615493774414,18.362865447998,18.3641834259033,18.3655014038086,18.3668193817139,18.3681373596191,18.3694553375244,18.3707733154297,18.3720932006836,18.3734130859375,18.3747310638428,18.3760509490967,18.3773708343506,18.3786907196045,18.3800086975098,18.3813304901123,18.3826503753662,18.3839702606201,18.3852920532227,18.3866138458252,18.3879337310791,18.3892555236816,18.3905754089355,18.3918972015381,18.3932189941406,18.3945407867432,18.3958644866943,18.3971862792969,18.3985080718994,18.399829864502,18.4011554718018,18.4024772644043,18.4038009643555,18.4051246643066,18.4064483642578,18.407772064209,18.4090976715088,18.41042137146,18.4117450714111,18.4130706787109,18.4143943786621,18.4157199859619,18.4170436859131,18.4183692932129,18.4196968078613,18.4210224151611,18.4223480224609,18.4236736297607,18.4249992370605,18.426326751709,18.4276542663574,18.4289798736572,18.4303073883057,18.4316368103027,18.4329643249512,18.4342918395996,18.4356174468994,18.4369449615479,18.4382743835449,18.4396018981934,18.4409313201904,18.4422607421875,18.4435901641846,18.444917678833,18.4462471008301,18.4475784301758,18.4489078521729,18.4502372741699,18.4515686035156,18.4528980255127,18.454231262207,18.4555606842041,18.4568920135498,18.4582233428955,18.4595546722412,18.4608860015869,18.4622173309326,18.4635486602783,18.4648818969727,18.466215133667,18.4675464630127,18.468879699707,18.4702110290527,18.4715442657471,18.4728775024414,18.4742126464844,18.4755439758301,18.4768810272217,18.478214263916,18.479549407959,18.4808826446533,18.4822158813477,18.4835510253906,18.4848861694336,18.4862213134766,18.4875564575195,18.4888935089111,18.4902286529541,18.4915637969971,18.49289894104,18.4942359924316,18.4955730438232,18.4969100952148,18.4982471466064,18.499584197998,18.5009212493896,18.5022602081299,18.5035972595215,18.5049343109131,18.5062732696533,18.5076122283936,18.5089492797852,18.5102882385254,18.5116271972656,18.5129661560059,18.5143070220947,18.515645980835
2.97602295875549,2.98095941543579,2.9879732131958,2.99502015113831,3.00210046768188,3.00921416282654,3.01636171340942,3.02354311943054,3.03075909614563,3.03800940513611,3.04529452323914,3.05261468887329,3.05997014045715,3.0673611164093,3.07478785514832,3.08225107192993,3.08975052833557,3.09728646278381,3.10485935211182,3.11246943473816,3.12011694908142,3.1278018951416,3.13552498817444,3.14328622817993,3.15108609199524,3.15892457962036,3.16680216789246,3.17471933364868,3.18267607688904,3.19067287445068,3.1987099647522,3.20678758621216,3.21490597724915,3.2230658531189,3.23126697540283,3.23951005935669,3.24779534339905,3.25612306594849,3.26449370384216,3.27290749549866,3.28136467933655,3.28986573219299,3.29841089248657,3.30700039863586,3.31563496589661,3.32431483268738,3.33303999900818,3.34181141853333,3.35062885284424,3.35949301719666,3.36840415000916,3.3773627281189,3.38636922836304,3.39542388916016,3.40452694892883,3.41367888450623,3.42288041114807,3.43213129043579,3.44143271446228,3.45078444480896,3.46018719673157,3.46964144706726,3.47914719581604,3.4887056350708,3.49831628799438,3.50798034667969,3.51769781112671,3.52746915817261,3.53729510307312,3.54717588424683,3.55711221694946,3.56710410118103,3.57715249061584,3.58725738525391,3.59741973876953,3.6076397895813,3.61791801452637,3.62825512886047,3.6386513710022,3.64910745620728,3.65962362289429,3.67020058631897,3.68083906173706,3.69153928756714,3.70230174064636,3.71312737464905,3.72401642799377,3.73496961593628,3.74598717689514,3.75707006454468,3.76821899414062,3.77943396568298,3.79071569442749,3.8018639087677,3.81257438659668,3.82334518432617,3.83444046974182,3.84586548805237,3.85735869407654,3.86892080307007,3.8805525302887,3.89225435256958,3.90402698516846,3.91587090492249,3.92778706550598,3.9397759437561,3.95183825492859,3.9639744758606,3.97618579864502,3.98847222328186,4.00083494186401,4.01327466964722,4.02579212188721,4.03838729858398,4.05106210708618,4.0638165473938,4.07665157318115,4.08956813812256,4.10256624221802,4.11564779281616,4.12881278991699,4.14206218719482,4.15539693832397,4.16881799697876,4.18232583999634,4.19592189788818,4.2096061706543,4.22338008880615,4.23724460601807,4.25120067596436,4.26524829864502,4.27938985824585,4.29362487792969,4.30795526504517,4.32238149642944,4.33690452575684,4.35152578353882,4.36624574661255,4.38106536865234,4.39598655700684,4.41100931167603,4.42613506317139,4.44136524200439,4.45670032501221,4.4721417427063,4.48769044876099,4.50334787368774,4.51911497116089,4.53499269485474,4.5509819984436,4.56708526611328,4.58330202102661,4.59963512420654,4.61608457565308,4.6326699256897,4.6493935585022,4.66623878479004,4.68320608139038,4.70029735565186,4.71751356124878,4.73485660552979,4.75232791900635,4.76992797851562,4.78765964508057,4.80552291870117,4.82352018356323,4.84165287017822,4.85992240905762,4.87833070755005,4.89687871932983,4.91556787490845,4.93440055847168,4.95337820053101,4.97250270843506,4.991774559021,5.01119709014893,5.03077125549316,5.05049896240234,5.07038164138794,5.09042167663574,5.11062097549438,5.13098096847534,5.1515040397644,5.17219161987305,5.19304609298706,5.21441316604614,5.23850345611572,5.2628173828125,5.28735828399658,5.31212902069092,5.33713293075562,5.36237335205078,5.38785409927368,5.41357755661011,5.43954801559448,5.46576881408691,5.49224328994751,5.51897621154785,5.54522037506104,5.56954479217529,5.59408378601074,5.61883974075317,5.6438159942627,5.6690149307251,5.69444036483765,5.72009468078613,5.74598121643066,5.77210283279419,5.79846334457397,5.82506561279297,5.85191297531128,5.87900924682617,5.9063572883606,5.93396139144897,5.96182441711426,5.98995018005371,6.0183424949646,6.04700183868408,6.07593250274658,6.10514163970947,6.13463258743286,6.16441059112549,6.1944785118103,6.22484159469604,6.25550317764282,17.9885787963867,17.9898433685303,17.9911098480225,17.992374420166,17.9936389923096,17.9949035644531,17.9961700439453,17.9974346160889,17.9987010955811,17.9999656677246,18.0012321472168,18.002498626709,18.0037651062012,18.0050315856934,18.0062980651855,18.0075664520264,18.0088310241699,18.0100994110107,18.0113677978516,18.0126342773438,18.0139026641846,18.0151710510254,18.0164375305176,18.017707824707,18.0189762115479,18.0202465057373,18.0215129852295,18.0227832794189,18.0240516662598,18.0253219604492,18.0265922546387,18.0278606414795,18.0291309356689,18.0304012298584,18.0316734313965,18.0329418182373,18.0342140197754,18.0354843139648,18.0367565155029,18.0380268096924,18.0392971038818,18.0405693054199,18.041841506958,18.0431137084961,18.0443859100342,18.0456581115723,18.046932220459,18.0482025146484,18.0494766235352,18.0507488250732,18.05202293396,18.053295135498,18.0545692443848,18.0558433532715,18.0571174621582,18.0583915710449,18.0596656799316,18.0609397888184,18.0622138977051,18.0634880065918,18.0647659301758,18.0660400390625,18.0673141479492,18.0685901641846,18.0698661804199,18.0711421966553,18.0724182128906,18.073694229126,18.07497215271,18.0762481689453,18.0775241851807,18.0788021087646,18.0800800323486,18.081356048584,18.082633972168,18.083911895752,18.0851898193359,18.0864677429199,18.0877456665039,18.0890235900879,18.0903034210205,18.0915813446045,18.0928611755371,18.0941410064697,18.0954189300537,18.0966987609863,18.0979785919189,18.0992584228516,18.1005382537842,18.1018180847168,18.1030979156494,18.1043796539307,18.1056594848633,18.1069412231445,18.1082229614258,18.109504699707,18.1107864379883,18.1120681762695,18.1133499145508,18.1146297454834,18.1159133911133,18.1171970367432,18.1184787750244,18.1197624206543,18.1210441589355,18.1223278045654,18.1236114501953,18.1248931884766,18.1261787414551,18.127462387085,18.1287460327148,18.1300315856934,18.1313171386719,18.1326007843018,18.1338844299316,18.1351699829102,18.1364555358887,18.1377410888672,18.1390266418457,18.1403121948242,18.1415977478027,18.1428833007812,18.1441688537598,18.1454563140869,18.1467418670654,18.1480293273926,18.1493148803711,18.1506023406982,18.1518898010254,18.1531791687012,18.1544666290283,18.1557540893555,18.1570415496826,18.1583309173584,18.1596183776855,18.1609077453613,18.1621952056885,18.1634864807129,18.16477394104,18.1660633087158,18.1673545837402,18.168643951416,18.1699333190918,18.1712226867676,18.172513961792,18.1738052368164,18.1750965118408,18.1763858795166,18.177677154541,18.1789684295654,18.1802597045898,18.1815509796143,18.1828422546387,18.1841354370117,18.1854267120361,18.1867198944092,18.1880111694336,18.1893043518066,18.1905975341797,18.1918907165527,18.1931838989258,18.1944751739502,18.1957702636719,18.1970634460449,18.1983585357666,18.1996517181396,18.2009468078613,18.2022399902344,18.2035350799561,18.2048301696777,18.2061252593994,18.2074203491211,18.2087173461914,18.2100124359131,18.2113094329834,18.2126045227051,18.2138996124268,18.2151966094971,18.2164936065674,18.2177886962891,18.219087600708,18.2203845977783,18.2216815948486,18.2229785919189,18.2242755889893,18.2255744934082,18.2268714904785,18.2281703948975,18.2294692993164,18.2307682037354,18.2320652008057,18.2333641052246,18.2346630096436,18.2359619140625,18.2372627258301,18.238561630249,18.239860534668,18.2411613464355,18.2424621582031,18.2437629699707,18.2450637817383,18.2463645935059,18.2476634979248,18.248966217041,18.2502670288086,18.2515678405762,18.2528705596924,18.2541732788086,18.2554759979248,18.2567768096924,18.2580795288086,18.2593822479248,18.260684967041,18.2619876861572,18.2632904052734,18.2645950317383,18.2658977508545,18.2672023773193,18.2685070037842,18.2698097229004,18.2711143493652,18.2724189758301,18.2737236022949,18.2750282287598,18.2763347625732,18.2776393890381,18.2789440155029,18.2802505493164,18.2815551757812,18.2828617095947,18.2841682434082,18.2854747772217,18.2867813110352,18.2880878448486,18.2893943786621,18.2907028198242,18.2920093536377,18.2933158874512,18.2946243286133,18.2959308624268,18.2972393035889,18.298547744751,18.2998580932617,18.3011665344238,18.3024749755859,18.303783416748,18.3050918579102,18.3064022064209,18.3077125549316,18.3090209960938,18.3103313446045,18.3116416931152,18.312952041626,18.3142623901367,18.3155727386475,18.3168849945068,18.3181953430176,18.3195056915283,18.3208179473877,18.3221302032471,18.3234405517578,18.3247528076172,18.3260650634766,18.3273773193359,18.3286895751953,18.3300037384033,18.3313140869141,18.3326282501221,18.3339424133301,18.3352565765381,18.3365688323975,18.3378829956055,18.3391971588135,18.3405113220215,18.3418254852295,18.3431415557861,18.3444557189941,18.3457698822021
2.98102807998657,2.98264217376709,2.98425817489624,2.98868823051453,2.99573826789856,3.00282192230225,3.00993919372559,3.01709008216858,3.02427506446838,3.03149437904358,3.03874826431274,3.04603719711304,3.05336093902588,3.06071972846985,3.06811451911926,3.07554483413696,3.08301138877869,3.09051442146301,3.09805417060852,3.10563087463379,3.11324453353882,3.12089586257935,3.12858462333679,3.13631153106689,3.14407682418823,3.15188050270081,3.15972304344177,3.16760468482971,3.17552590370178,3.18348670005798,3.19148755073547,3.19952845573425,3.20761036872864,3.21573305130005,3.22389698028564,3.232102394104,3.24034976959229,3.24863934516907,3.25697159767151,3.26534652709961,3.27376461029053,3.28222608566284,3.29073166847229,3.29928135871887,3.30787563323975,3.31651473045349,3.32519912719727,3.33392906188965,3.3427050113678,3.35152721405029,3.36039614677429,3.36931204795837,3.3782753944397,3.387286901474,3.3963463306427,3.40545439720154,3.41461133956909,3.42381763458252,3.43307399749756,3.44238042831421,3.45173716545105,3.4611451625824,3.47060465812683,3.48011589050293,3.48967933654785,3.49929571151733,3.50896501541138,3.51868796348572,3.52846479415894,3.53829646110535,3.54818272590637,3.55812454223633,3.56812238693237,3.57817625999451,3.58828711509705,3.59845542907715,3.60868120193481,3.61896562576294,3.62930846214294,3.63971066474915,3.65017294883728,3.66069531440735,3.67127847671509,3.68192315101624,3.69262957572937,3.70339870452881,3.71423053741455,3.72512602806091,3.73608565330505,3.74711012840271,3.75819969177246,3.76935505867004,3.7805769443512,3.79186582565308,3.80322217941284,3.81433010101318,3.82511115074158,3.83595299720764,3.84692811965942,3.85842752456665,3.86999607086182,3.88163423538208,3.89334273338318,3.90512180328369,3.91697263717651,3.92889547348022,3.94089102745056,3.95296025276184,3.96510338783264,3.97732162475586,3.98961520195007,4.0019850730896,4.01443195343018,4.02695608139038,4.03955936431885,4.05224132537842,4.06500291824341,4.07784557342529,4.09076929092407,4.10377550125122,4.1168646812439,4.13003730773926,4.14329481124878,4.15663766860962,4.17006683349609,4.18358278274536,4.19718647003174,4.2108793258667,4.2246618270874,4.23853445053101,4.25249862670898,4.26655530929565,4.28070545196533,4.29494905471802,4.3092885017395,4.32372331619263,4.33825588226318,4.35288572311401,4.36761522293091,4.38244438171387,4.39737462997437,4.41240739822388,4.4275426864624,4.44278240203857,4.45812749862671,4.47357845306396,4.48913764953613,4.50480508804321,4.52058219909668,4.53646993637085,4.55247020721436,4.56858348846436,4.58481168746948,4.60115528106689,4.61761569976807,4.63419437408447,4.65092134475708,4.6677770614624,4.68475580215454,4.70185852050781,4.71908617019653,4.73644113540649,4.75392389297485,4.77153587341309,4.78927898406982,4.8071551322937,4.82516431808472,4.84330940246582,4.86159181594849,4.88001251220703,4.89857292175293,4.91727542877197,4.93612146377563,4.95511198043823,4.97424983978271,4.99353551864624,5.01297187805176,5.03255987167358,5.05230140686035,5.07219839096069,5.0922532081604,5.11246681213379,5.13284158706665,5.15337944030762,5.17408227920532,5.1949520111084,5.21599102020264,5.23946857452393,5.26379156112671,5.2883415222168,5.31312131881714,5.338134765625,5.36338472366333,5.38887453079224,5.41460800170898,5.44058847427368,5.46681928634644,5.49330425262451,5.52004718780518,5.54705142974854,5.57202672958374,5.59658718109131,5.62136554718018,5.64636421203613,5.67158603668213,5.69703435897827,5.72271203994751,5.74862241744995,5.77476835250854,5.8011531829834,5.82777976989746,5.85465240478516,5.88177442550659,5.90914821624756,5.93677806854248,5.96466779708862,5.99282073974609,6.02124071121216,6.04993104934692,6.07889032363892,6.1081280708313,6.13764810562134,6.16745519638062,6.1975531578064,6.22794580459595,6.25863838195801,17.829439163208,17.830680847168,17.8319225311279,17.8331661224365,17.8344078063965,17.8356513977051,17.836893081665,17.8381385803223,17.8393802642822,17.8406238555908,17.841869354248,17.8431129455566,17.8443565368652,17.8456001281738,17.8468437194824,17.8480911254883,17.8493347167969,17.8505802154541,17.8518257141113,17.8530712127686,17.8543148040771,17.855562210083,17.8568077087402,17.8580532073975,17.8592987060547,17.8605442047119,17.8617916107178,17.8630390167236,17.8642864227295,17.8655319213867,17.8667793273926,17.8680267333984,17.8692741394043,17.8705215454102,17.8717708587646,17.8730182647705,17.874267578125,17.8755149841309,17.8767642974854,17.8780136108398,17.8792629241943,17.8805103302002,17.8817615509033,17.8830108642578,17.8842601776123,17.8855094909668,17.8867607116699,17.8880100250244,17.8892612457275,17.890510559082,17.8917617797852,17.8930110931396,17.8942642211914,17.8955154418945,17.8967666625977,17.8980178833008,17.8992710113525,17.9005222320557,17.9017734527588,17.9030246734619,17.9042778015137,17.9055309295654,17.9067821502686,17.9080352783203,17.9092884063721,17.9105434417725,17.9117965698242,17.913049697876,17.9143047332764,17.9155578613281,17.9168128967285,17.9180679321289,17.9193229675293,17.9205760955811,17.9218311309814,17.9230861663818,17.9243412017822,17.9255962371826,17.9268531799316,17.928108215332,17.9293651580811,17.9306221008301,17.9318771362305,17.9331340789795,17.9343910217285,17.9356460571289,17.9369049072266,17.9381618499756,17.9394187927246,17.9406776428223,17.9419345855713,17.9431934356689,17.944450378418,17.945707321167,17.9469661712646,17.9482250213623,17.9494857788086,17.9507427215576,17.9520034790039,17.9532623291016,17.9545211791992,17.9557800292969,17.9570407867432,17.9583015441895,17.9595623016357,17.960823059082,17.9620819091797,17.9633445739746,17.9646034240723,17.9658641815186,17.9671268463135,17.9683876037598,17.9696502685547,17.970911026001,17.9721736907959,17.9734363555908,17.9746990203857,17.975959777832,17.9772243499756,17.9784851074219,17.9797496795654,17.9810123443604,17.9822769165039,17.9835395812988,17.9848041534424,17.9860668182373,17.9873313903809,17.9885959625244,17.9898586273193,17.9911251068115,17.9923896789551,17.9936542510986,17.9949207305908,17.9961853027344,17.9974498748779,17.9987163543701,17.9999809265137,18.0012474060059,18.0025157928467,18.0037803649902,18.0050468444824,18.0063152313232,18.0075817108154,18.0088481903076,18.0101146697998,18.0113830566406,18.0126514434814,18.0139198303223,18.0151882171631,18.0164566040039,18.0177249908447,18.0189914703369,18.0202617645264,18.0215301513672,18.0228004455566,18.0240688323975,18.0253391265869,18.0266094207764,18.0278778076172,18.0291481018066,18.0304183959961,18.0316886901855,18.032958984375,18.0342292785645,18.0354995727539,18.036771774292,18.0380420684814,18.0393142700195,18.0405864715576,18.0418567657471,18.0431289672852,18.0444011688232,18.0456733703613,18.046947479248,18.0482196807861,18.0494937896729,18.0507659912109,18.052038192749,18.0533123016357,18.0545864105225,18.0558586120605,18.0571346282959,18.0584087371826,18.0596809387207,18.0609569549561,18.0622310638428,18.0635051727295,18.0647811889648,18.0660552978516,18.0673313140869,18.0686073303223,18.0698833465576,18.071159362793,18.0724353790283,18.0737113952637,18.074987411499,18.0762634277344,18.0775413513184,18.0788173675537,18.0800952911377,18.081371307373,18.082649230957,18.083927154541,18.085205078125,18.086483001709,18.087760925293,18.0890407562256,18.0903186798096,18.0915985107422,18.0928764343262,18.0941543579102,18.0954360961914,18.096715927124,18.0979957580566,18.0992736816406,18.1005535125732,18.1018352508545,18.1031150817871,18.1043968200684,18.105676651001,18.1069583892822,18.1082401275635,18.1095199584961,18.1108016967773,18.1120834350586,18.1133651733398,18.1146488189697,18.115930557251,18.1172122955322,18.1184959411621,18.1197776794434,18.1210613250732,18.1223430633545,18.1236267089844,18.1249103546143,18.1261940002441,18.127477645874,18.1287612915039,18.1300468444824,18.1313304901123,18.1326160430908,18.1338996887207,18.1351852416992,18.1364707946777,18.1377563476562,18.1390419006348,18.1403274536133,18.1416130065918,18.1429004669189,18.1441860198975,18.145471572876,18.1467609405518,18.1480464935303,18.1493320465088,18.1506195068359,18.1519069671631,18.1531944274902,18.1544818878174,18.1557693481445,18.1570587158203,18.1583461761475,18.1596355438232,18.160924911499,18.1622123718262,18.163501739502,18.1647911071777,18.1660804748535,18.1673717498779,18.1686592102051,18.1699485778809,18.1712398529053,18.1725292205811,18.1738204956055,18.1751117706299,18.1764011383057,18.1776924133301,18.1789836883545
2.98604989051819,2.98766946792603,2.9892909526825,2.99091410636902,2.9925389289856,2.99645686149597,3.00354385375977,3.01066446304321,3.01781892776489,3.02500748634338,3.03223037719727,3.03948760032654,3.04678010940552,3.05410718917847,3.06147003173828,3.0688681602478,3.07630228996277,3.08377242088318,3.09127902984619,3.09882211685181,3.10640239715576,3.11402010917664,3.12167501449585,3.12936782836914,3.13709878921509,3.14486765861511,3.15267539024353,3.16052198410034,3.16840744018555,3.17633271217346,3.18429756164551,3.19230246543884,3.20034766197205,3.20843362808228,3.21656036376953,3.22472858428955,3.23293828964233,3.24118995666504,3.24948382377625,3.25782036781311,3.26619958877563,3.27462220191956,3.28308820724487,3.29159808158875,3.30015230178833,3.30875110626221,3.31739473342896,3.32608366012573,3.3348183631897,3.34359908103943,3.35242605209351,3.36129975318909,3.37022042274475,3.37918877601624,3.38820481300354,3.3972692489624,3.4063823223114,3.41554427146912,3.42475581169128,3.43401694297791,3.4433286190033,3.45269060134888,3.46210384368896,3.47156834602356,3.48108506202698,3.49065375328064,3.50027537345886,3.5099503993988,3.51967859268188,3.529461145401,3.53929829597473,3.54919028282166,3.55913758277893,3.56914114952087,3.57920074462891,3.58931756019592,3.59949135780334,3.60972309112549,3.62001347541809,3.63036251068115,3.64077091217041,3.65123915672302,3.66176748275757,3.67235708236694,3.68300795555115,3.69372081756592,3.70449614524841,3.71533441543579,3.72623658180237,3.73720288276672,3.74823355674744,3.7593297958374,3.7704918384552,3.78172063827515,3.79301643371582,3.80437970161438,3.81581139564514,3.82687854766846,3.83773040771484,3.8486442565918,3.8596203327179,3.8710720539093,3.8827166557312,3.89443159103394,3.90621733665466,3.9180748462677,3.93000435829163,3.94200682640076,3.95408272743225,3.96623301506042,3.97845792770386,3.99075865745544,4.00313568115234,4.01558971405029,4.02812147140503,4.04073143005371,4.05342102050781,4.06619024276733,4.07904005050659,4.09197187423706,4.10498523712158,4.11808204650879,4.13126277923584,4.14452838897705,4.15787887573242,4.17131614685059,4.18484020233154,4.19845247268677,4.21215343475342,4.22594404220581,4.23982524871826,4.25379800796509,4.26786327362061,4.28202152252197,4.29627466201782,4.31062269210815,4.32506656646729,4.33960771560669,4.35424709320068,4.36898565292358,4.38382434844971,4.39876413345337,4.41380596160889,4.42895078659058,4.44420051574707,4.45955514907837,4.47501659393311,4.49058532714844,4.50626277923584,4.52205038070679,4.53794860839844,4.55395936965942,4.5700831413269,4.58632183074951,4.6026759147644,4.61914730072021,4.63573694229126,4.65245008468628,4.66931676864624,4.68630695343018,4.70342063903809,4.72066020965576,4.73802614212036,4.75552082061768,4.77314472198486,4.79090023040771,4.80878782272339,4.82680988311768,4.84496736526489,4.86326217651367,4.88169527053833,4.90026903152466,4.91898441314697,4.93784332275391,4.95684719085693,4.97599840164185,4.99529790878296,5.01474761962891,5.03434944152832,5.05410528182983,5.07401657104492,5.09408521652222,5.11431360244751,5.13470315933228,5.15525579452515,5.17597389221191,5.19685935974121,5.21791362762451,5.24043369293213,5.26476573944092,5.28932476043701,5.31411409378052,5.33913660049438,5.36439609527588,5.38989591598511,5.41563892364502,5.44162940979004,5.46787023544312,5.49436521530151,5.52111864089966,5.54813385009766,5.57451009750366,5.59909296035767,5.62389326095581,5.64891481399536,5.67415952682495,5.69963073730469,5.72533178329468,5.75126600265503,5.77743577957153,5.80384540557861,5.83049726486206,5.85739469528198,5.8845419883728,5.91194152832031,5.93959808349609,5.96751403808594,5.99569368362427,6.02414131164551,6.05285930633545,6.0818510055542,6.11111688613892,6.14066648483276,6.17050266265869,6.20063018798828,6.23105382919312,6.2617769241333,6.29280471801758,17.6743087768555,17.6755294799805,17.6767501831055,17.6779708862305,17.6791934967041,17.6804122924805,17.6816349029541,17.6828575134277,17.6840801239014,17.6853008270264,17.6865234375,17.6877460479736,17.6889686584473,17.6901912689209,17.6914138793945,17.6926364898682,17.6938591003418,17.6950855255127,17.6963081359863,17.69753074646,17.6987552642822,17.6999797821045,17.7012023925781,17.702428817749,17.7036514282227,17.7048778533936,17.7061023712158,17.7073268890381,17.7085514068604,17.7097778320312,17.7110023498535,17.7122287750244,17.7134532928467,17.7146797180176,17.7159061431885,17.7171325683594,17.7183609008789,17.7195873260498,17.7208137512207,17.7220401763916,17.7232666015625,17.724494934082,17.7257232666016,17.7269515991211,17.7281799316406,17.7294082641602,17.7306346893311,17.7318649291992,17.7330913543701,17.7343215942383,17.7355499267578,17.7367782592773,17.7380084991455,17.7392387390137,17.7404689788818,17.7416973114014,17.7429275512695,17.7441577911377,17.7453880310059,17.746618270874,17.7478504180908,17.749080657959,17.7503108978271,17.7515430450439,17.7527751922607,17.7540054321289,17.7552356719971,17.7564678192139,17.7576999664307,17.7589340209961,17.7601661682129,17.7613983154297,17.7626304626465,17.7638626098633,17.7650966644287,17.7663288116455,17.7675628662109,17.7687969207764,17.7700309753418,17.7712650299072,17.7724990844727,17.7737331390381,17.7749691009521,17.7762012481689,17.777437210083,17.7786712646484,17.7799072265625,17.7811431884766,17.7823791503906,17.7836151123047,17.7848510742188,17.7860870361328,17.7873229980469,17.7885589599609,17.789794921875,17.7910308837891,17.7922687530518,17.7935066223145,17.7947425842285,17.7959804534912,17.7972183227539,17.798454284668,17.7996921539307,17.800931930542,17.8021697998047,17.8034076690674,17.8046455383301,17.8058853149414,17.8071250915527,17.8083629608154,17.8096027374268,17.8108406066895,17.8120822906494,17.8133220672607,17.8145599365234,17.8158016204834,17.8170413970947,17.8182811737061,17.819522857666,17.8207626342773,17.8220043182373,17.8232460021973,17.8244876861572,17.8257293701172,17.8269710540771,17.8282108306885,17.8294544219971,17.830696105957,17.831937789917,17.8331813812256,17.8344249725342,17.8356666564941,17.8369102478027,17.8381538391113,17.8393974304199,17.8406391143799,17.8418827056885,17.8431262969971,17.8443717956543,17.8456172943115,17.8468608856201,17.8481063842773,17.8493499755859,17.8505954742432,17.8518390655518,17.853084564209,17.8543319702148,17.8555774688721,17.8568229675293,17.8580684661865,17.8593158721924,17.8605613708496,17.8618087768555,17.8630542755127,17.8643016815186,17.8655490875244,17.8667964935303,17.8680438995361,17.869291305542,17.8705387115479,17.8717861175537,17.8730354309082,17.8742828369141,17.8755302429199,17.8767795562744,17.8780288696289,17.8792781829834,17.8805274963379,17.8817768096924,17.8830261230469,17.8842754364014,17.8855247497559,17.886775970459,17.8880252838135,17.8892765045166,17.8905258178711,17.8917770385742,17.8930282592773,17.8942794799805,17.895528793335,17.8967819213867,17.8980331420898,17.8992862701416,17.9005374908447,17.9017906188965,17.9030418395996,17.9042930603027,17.9055480957031,17.9067993164062,17.908052444458,17.9093055725098,17.9105606079102,17.9118137359619,17.9130668640137,17.9143199920654,17.9155750274658,17.9168300628662,17.918083190918,17.9193382263184,17.9205932617188,17.9218482971191,17.9231033325195,17.9243583679199,17.9256134033203,17.9268703460693,17.9281234741211,17.9293804168701,17.9306373596191,17.9318943023682,17.9331493377686,17.9344062805176,17.9356632232666,17.9369201660156,17.9381771087646,17.9394340515137,17.9406929016113,17.9419498443604,17.943208694458,17.944465637207,17.9457244873047,17.9469833374023,17.9482421875,17.949499130249,17.9507598876953,17.952018737793,17.9532775878906,17.9545383453369,17.9557971954346,17.9570560455322,17.9583168029785,17.9595775604248,17.9608383178711,17.9620990753174,17.9633598327637,17.9646224975586,17.9658813476562,17.9671440124512,17.9684047698975,17.9696674346924,17.9709281921387,17.972188949585,17.9734516143799,17.9747142791748,17.9759769439697,17.977237701416,17.9785022735596,17.9797649383545,17.9810276031494,17.982292175293,17.9835548400879,17.9848194122314,17.986083984375,17.9873466491699,17.9886112213135,17.989875793457,17.9911403656006,17.9924068450928,17.9936695098877,17.9949359893799,17.9962005615234,17.9974670410156,17.9987335205078,17.9999980926514,18.0012645721436,18.0025310516357,18.0037975311279,18.0050640106201,18.0063323974609,18.0075988769531,18.0088653564453,18.0101318359375,18.0114002227783,18.0126686096191,18.0139350891113,18.0152034759521
