3.04967045783997,3.05683732032776,3.06403779983521,3.07127213478088,3.07854080200195,3.08584403991699,3.09318208694458,3.10055494308472,3.10796308517456,3.11540675163269,3.12288618087769,3.13040161132812,3.13795328140259,3.14554142951965,3.1531662940979,3.16082835197449,3.16852760314941,3.17626452445984,3.18403935432434,3.1918523311615,3.19970369338989,3.20759391784668,3.21552300453186,3.22349143028259,3.23149943351746,3.23954749107361,3.24763560295105,3.25576400756836,3.26393342018127,3.27214407920837,3.28039598464966,3.28868961334229,3.29702520370483,3.30540323257446,3.31382393836975,3.32228755950928,3.33079481124878,3.33934545516968,3.34794020652771,3.35657930374146,3.36526322364807,3.37399196624756,3.38277649879456,3.39160990715027,3.40048956871033,3.40941572189331,3.41838908195496,3.42740964889526,3.43647789955139,3.4455943107605,3.45475912094116,3.46397304534912,3.47323608398438,3.48254895210266,3.49191164970398,3.50132513046265,3.51078915596008,3.52030467987061,3.52987194061279,3.5394914150238,3.54916334152222,3.55888819694519,3.56866669654846,3.57849907875061,3.58838558197021,3.59832692146301,3.60832357406616,3.61837577819824,3.62848424911499,3.63864946365356,3.64887166023254,3.65915155410767,3.66948938369751,3.67988586425781,3.69034147262573,3.70085668563843,3.71143198013306,3.72206783294678,3.73276495933533,3.74352359771729,3.75434446334839,3.7652280330658,3.77617478370667,3.78718566894531,3.79826068878174,3.80940079689026,3.82060647010803,3.83187818527222,3.84321665763855,3.85462236404419,3.86609601974487,3.87763810157776,3.88924932479858,3.90093040466309,3.91268181800842,3.92450428009033,3.93639826774597,3.94836473464966,3.96040415763855,3.97251725196838,3.98470449447632,3.99696683883667,4.00930500030518,4.02171945571899,4.03421068191528,4.04678058624268,4.05942821502686,4.07215547561646,4.08496284484863,4.09785127639771,4.11206388473511,4.1264910697937,4.14101982116699,4.1556510925293,4.17038583755493,4.18522596359253,4.20017147064209,4.2152247428894,4.23038578033447,4.24565649032593,4.26103830337524,4.27653121948242,4.29213762283325,4.30785846710205,4.32355260848999,4.33816051483154,4.35286712646484,4.36767435073853,4.38258218765259,4.39759254455566,4.41270589828491,4.42792367935181,4.44324636459351,4.45867586135864,4.47421264648438,4.48985815048218,4.50561332702637,4.52147960662842,4.53745794296265,4.55354976654053,4.56975650787354,4.58607816696167,4.60251760482788,4.61907482147217,4.63575172424316,4.65254926681519,4.6694712638855,4.68651485443115,4.70368337631226,4.72097826004028,4.73840045928955,4.75595235824585,4.77363395690918,4.79144811630249,4.80939531326294,4.82747793197632,4.84569692611694,4.86405372619629,4.88255023956299,4.90118789672852,4.9199686050415,4.93889379501343,4.95796489715576,4.97718381881714,4.99655246734619,19.1534423828125,19.153694152832,19.1539459228516,19.1541976928711,19.1544494628906,19.1547050476074,19.154956817627,19.1552085876465,19.155460357666,19.1557121276855,19.1559658050537,19.1562194824219,19.1564693450928,19.1567230224609,19.1569747924805,19.1572284698486,19.1574802398682,19.1577320098877,19.1579837799072,19.1582355499268,19.1584873199463,19.1587409973145,19.158992767334,19.1592445373535,19.159496307373,19.1597480773926,19.1599998474121,19.1602535247803,19.1605072021484,19.160758972168,19.1610107421875,19.161262512207,19.1615142822266,19.1617679595947,19.1620197296143,19.1622714996338,19.162525177002,19.1627769470215,19.163028717041,19.1632823944092,19.1635341644287,19.1637859344482,19.1640396118164,19.1642913818359,19.1645431518555,19.164794921875,19.1650485992432,19.1653003692627,19.1655540466309,19.1658058166504,19.1660575866699,19.1663093566895,19.1665630340576,19.1668148040771,19.1670684814453,19.1673202514648,19.1675720214844,19.1678256988525,19.1680774688721,19.1683292388916,19.1685829162598,19.1688346862793,19.1690864562988,19.169340133667,19.1695919036865,19.1698436737061,19.1700973510742,19.1703491210938,19.1706027984619,19.1708545684814,19.171106338501,19.1713600158691,19.1716117858887,19.1718654632568,19.1721172332764,19.1723709106445,19.1726226806641,19.1728763580322,19.1731281280518,19.1733798980713,19.1736335754395,19.173885345459,19.1741390228271,19.1743907928467,19.1746444702148,19.1748962402344,19.1751499176025,19.1754016876221,19.1756553649902,19.1759071350098,19.1761589050293,19.1764125823975,19.1766662597656,19.1769180297852,19.1771717071533,19.1774234771729,19.1776752471924,19.1779289245605,19.1781806945801,19.1784343719482,19.1786861419678,19.1789398193359,19.1791934967041,19.1794452667236,19.1796970367432,19.1799507141113,19.1802024841309,19.180456161499,19.1807098388672,19.1809616088867,19.1812152862549,19.1814670562744,19.1817207336426,19.1819744110107,19.1822242736816,19.1824798583984,19.182731628418,19.1829853057861,19.1832370758057,19.1834907531738,19.1837425231934,19.1839962005615,19.1842498779297,19.1845016479492,19.1847553253174,19.1850070953369,19.1852607727051,19.1855144500732,19.1857662200928,19.1860179901123,19.1862716674805,19.1865253448486,19.1867790222168,19.1870307922363,19.1872844696045,19.187536239624,19.1877899169922,19.1880435943604,19.1882972717285,19.188549041748,19.1888027191162,19.1890544891357,19.1893081665039,19.1895599365234,19.1898155212402,19.1900653839111,19.1903209686279,19.1905746459961,19.1908264160156,19.1910800933838,19.191333770752,19.1915855407715,19.1918392181396,19.1920928955078,19.1923446655273,19.1925983428955,19.1928520202637,19.1931037902832,19.1933574676514,19.1936111450195,19.1938629150391,19.1941165924072,19.1943683624268,19.1946239471436,19.1948757171631,19.1951293945312,19.1953811645508,19.1956367492676,19.1958885192871,19.1961421966553,19.1963958740234,19.1966495513916,19.1969013214111,19.1971549987793,19.1974086761475,19.197660446167,19.1979160308838,19.1981678009033,19.1984214782715,19.1986751556396,19.1989288330078,19.1991806030273,19.1994342803955,19.1996879577637,19.1999397277832,19.2001953125,19.2004489898682,19.2007007598877,19.2009544372559,19.201208114624,19.2014617919922,19.2017154693604,19.2019672393799,19.202220916748,19.2024745941162,19.2027282714844,19.2029819488525,19.2032337188721,19.2034873962402,19.203742980957,19.2039947509766,19.2042503356934,19.2045021057129,19.2047557830811,19.2050094604492,19.2052631378174,19.2055149078369,19.2057685852051,19.2060222625732,19.2062759399414,19.2065296173096,19.2067832946777,19.2070369720459,19.2072906494141,19.2075443267822,19.2077960968018,19.2080516815186,19.2083034515381,19.2085571289062,19.2088108062744,19.2090644836426,19.2093181610107,19.2095718383789,19.2098255157471,19.2100791931152,19.2103328704834,19.2105865478516,19.2108402252197,19.2110919952393,19.2113475799561,19.2115993499756,19.2118549346924,19.2121067047119,19.2123603820801,19.2126159667969,19.2128677368164,19.2131214141846,19.2133750915527,19.2136306762695,19.2138843536377,19.2141361236572,19.214391708374,19.2146453857422,19.2148971557617,19.2151508331299,19.2154064178467,19.2156600952148,19.215913772583,19.2161655426025,19.2164211273193,19.2166728973389,19.2169284820557,19.2171802520752,19.217435836792,19.2176876068115,19.2179431915283,19.2181968688965,19.2184505462646,19.2187042236328,19.218957901001,19.2192115783691,19.2194652557373,19.2197189331055,19.2199726104736,19.2202281951904,19.22047996521,19.2207355499268,19.2209892272949,19.2212429046631,19.2214965820312,19.2217502593994,19.2220039367676,19.2222595214844,19.2225131988525,19.2227649688721,19.2230205535889,19.223274230957,19.2235279083252,19.223783493042,19.2240352630615,19.2242889404297,19.2245426177979,19.2247982025146,19.2250499725342,19.225305557251,19.2255592346191,19.2258129119873,19.2260684967041,19.2263221740723,19.2265758514404,19.2268295288086,19.2270832061768,19.2273368835449,19.2275924682617,19.2278442382812,19.2281017303467,19.2283535003662,19.228609085083,19.2288608551025,19.2291164398193,19.2293701171875,19.2296237945557,19.2298774719238,19.2301330566406,19.2303867340088,19.230640411377,19.2308940887451,19.2311496734619,19.2314033508301,19.2316570281982,19.231912612915,19.2321662902832,19.2324199676514,19.2326736450195,19.2329273223877,19.2331809997559,19.2334365844727,19.2336902618408,19.233943939209,19.2341995239258,19.2344532012939,19.2347068786621,19.2349624633789,19.2352161407471,19.2354717254639,19.2357234954834,19.2359790802002,19.2362327575684,19.2364864349365,19.2367420196533,19.2369956970215,19.2372493743896,19.2375049591064,19.2377605438232,19.2380123138428,19.2382678985596,19.2385215759277,19.2387752532959,19.2390308380127,19.2392845153809,19.239538192749,19.2397937774658,19.240047454834,19.2403011322021,19.2405567169189,19.2408103942871,19.2410659790039,19.2413196563721,19.2415733337402
3.04311871528625,3.05025482177734,3.05742430686951,3.06462740898132,3.07186484336853,3.07913637161255,3.08644223213196,3.0937831401825,3.10115885734558,3.10856986045837,3.11601638793945,3.1234986782074,3.13101720809937,3.13857173919678,3.14616298675537,3.15379095077515,3.16145586967468,3.16915822029114,3.17689824104309,3.18467617034912,3.19249248504639,3.20034694671631,3.20824027061462,3.21617245674133,3.22414422035217,3.23215556144714,3.24020671844482,3.24829816818237,3.25642991065979,3.26460266113281,3.27281665802002,3.28107190132141,3.28936886787415,3.29770803451538,3.30608940124512,3.31451368331909,3.32298111915588,3.33149170875549,3.34004592895508,3.3486442565918,3.35728716850281,3.36597466468811,3.37470722198486,3.38348507881165,3.39231896400452,3.40120220184326,3.41013216972351,3.41910934448242,3.42813372612,3.43720579147339,3.44632601737976,3.45549488067627,3.46471261978149,3.47397971153259,3.48329639434814,3.49266338348389,3.50208067893982,3.51154899597168,3.52106857299805,3.53064012527466,3.54026365280151,3.54993987083435,3.55966901779175,3.56945180892944,3.57928824424744,3.58917927742004,3.59912514686584,3.60912609100342,3.6191828250885,3.62929582595825,3.63946557044983,3.64969253540039,3.65997695922852,3.67031955718994,3.68072056770325,3.69118094444275,3.70170092582703,3.71228098869324,3.72292184829712,3.73362374305725,3.74438738822937,3.75521326065063,3.7661018371582,3.77705383300781,3.78806972503662,3.79914999008179,3.81029534339905,3.82150626182556,3.83278322219849,3.84412717819214,3.85553812980652,3.86701726913452,3.87856507301331,3.89018177986145,3.90186858177185,3.91362547874451,3.92545366287231,3.93735361099243,3.94932579994202,3.96137094497681,3.97348999977112,3.98568320274353,3.99795174598694,4.01029586791992,4.0227165222168,4.03521394729614,4.04779005050659,4.06044435501099,4.07317781448364,4.08599185943604,4.09888648986816,4.11245393753052,4.12688398361206,4.14141511917114,4.1560492515564,4.17078733444214,4.18562984466553,4.2005786895752,4.2156343460083,4.23079872131348,4.24607229232788,4.26145696640015,4.27695322036743,4.29256248474121,4.30828619003296,4.32412576675415,4.33948993682861,4.35420608520508,4.36902189254761,4.38393926620483,4.39895868301392,4.41408157348633,4.42930841445923,4.44464111328125,4.46008014678955,4.47562694549561,4.49128246307373,4.50704765319824,4.52292394638062,4.53891277313232,4.55501461029053,4.57123136520386,4.58756446838379,4.60401391983032,4.62058210372925,4.63726997375488,4.6540789604187,4.67101144790649,4.68806648254395,4.70524597167969,4.72255229949951,4.73998641967773,4.75754976272583,4.77524375915527,4.79306983947754,4.8110294342041,4.82912397384644,4.84735536575317,4.86572504043579,4.88423442840576,4.90288496017456,4.92167854309082,4.94061660766602,4.95970153808594,4.97893381118774,4.99831628799438,18.9719848632812,18.9722328186035,18.9724807739258,18.972728729248,18.9729747772217,18.9732227325439,18.9734706878662,18.9737186431885,18.9739685058594,18.974214553833,18.9744625091553,18.9747104644775,18.9749584197998,18.9752063751221,18.9754543304443,18.975700378418,18.9759483337402,18.9761962890625,18.9764423370361,18.9766902923584,18.9769382476807,18.9771862030029,18.9774341583252,18.9776802062988,18.9779281616211,18.9781761169434,18.9784240722656,18.9786701202393,18.9789180755615,18.9791660308838,18.9794120788574,18.9796600341797,18.979907989502,18.9801559448242,18.9804039001465,18.9806499481201,18.9808979034424,18.9811458587646,18.9813938140869,18.9816417694092,18.9818878173828,18.9821357727051,18.9823837280273,18.9826316833496,18.9828796386719,18.9831275939941,18.9833755493164,18.98362159729,18.9838695526123,18.9841175079346,18.9843635559082,18.9846134185791,18.9848594665527,18.985107421875,18.9853553771973,18.9856033325195,18.9858512878418,18.9860992431641,18.9863452911377,18.98659324646,18.9868412017822,18.9870891571045,18.9873352050781,18.987585067749,18.9878311157227,18.9880809783936,18.9883270263672,18.9885749816895,18.9888229370117,18.989070892334,18.9893207550049,18.9895668029785,18.9898166656494,18.990062713623,18.9903106689453,18.9905586242676,18.9908065795898,18.9910526275635,18.9913024902344,18.991548538208,18.9917964935303,18.9920444488525,18.9922924041748,18.9925403594971,18.9927883148193,18.9930362701416,18.9932842254639,18.9935302734375,18.9937801361084,18.994026184082,18.9942760467529,18.9945240020752,18.9947719573975,18.9950199127197,18.995267868042,18.9955158233643,18.9957637786865,18.9960117340088,18.9962596893311,18.9965076446533,18.9967555999756,18.9970035552979,18.9972515106201,18.9974994659424,18.997745513916,18.9979953765869,18.9982433319092,18.9984912872314,18.9987392425537,18.998987197876,18.9992351531982,18.9994831085205,18.9997310638428,18.999979019165,19.0002288818359,19.0004749298096,19.0007247924805,19.0009708404541,19.001220703125,19.0014667510986,19.0017166137695,19.0019645690918,19.0022125244141,19.0024604797363,19.0027084350586,19.0029563903809,19.0032043457031,19.0034523010254,19.0037002563477,19.0039482116699,19.0041961669922,19.0044460296631,19.0046939849854,19.0049419403076,19.0051898956299,19.0054378509521,19.0056858062744,19.0059356689453,19.0061836242676,19.0064315795898,19.0066795349121,19.0069274902344,19.0071754455566,19.0074253082275,19.0076732635498,19.0079212188721,19.0081691741943,19.0084190368652,19.0086650848389,19.0089149475098,19.009162902832,19.0094108581543,19.0096569061279,19.0099067687988,19.0101547241211,19.010404586792,19.0106525421143,19.0109004974365,19.0111484527588,19.0113983154297,19.011646270752,19.0118942260742,19.0121421813965,19.0123920440674,19.0126399993896,19.0128879547119,19.0131359100342,19.0133838653564,19.0136337280273,19.0138816833496,19.0141296386719,19.0143775939941,19.014627456665,19.0148754119873,19.0151233673096,19.0153713226318,19.0156211853027,19.015869140625,19.0161190032959,19.0163650512695,19.0166149139404,19.0168609619141,19.017110824585,19.0173587799072,19.0176086425781,19.0178565979004,19.0181045532227,19.0183544158936,19.0186023712158,19.0188503265381,19.019100189209,19.0193481445312,19.0195960998535,19.0198459625244,19.0200939178467,19.0203418731689,19.0205917358398,19.0208396911621,19.021089553833,19.0213375091553,19.0215854644775,19.0218334197998,19.0220832824707,19.022331237793,19.0225791931152,19.0228271484375,19.0230770111084,19.0233249664307,19.0235748291016,19.0238246917725,19.0240726470947,19.024320602417,19.0245685577393,19.0248184204102,19.0250663757324,19.0253162384033,19.0255641937256,19.0258121490479,19.0260620117188,19.026309967041,19.0265598297119,19.0268077850342,19.0270576477051,19.0273036956787,19.0275535583496,19.0278015136719,19.0280513763428,19.0283012390137,19.0285491943359,19.0287971496582,19.0290470123291,19.029296875,19.0295448303223,19.0297927856445,19.0300426483154,19.0302906036377,19.0305404663086,19.0307884216309,19.0310382843018,19.031286239624,19.0315361022949,19.0317840576172,19.0320339202881,19.0322818756104,19.0325317382812,19.0327796936035,19.0330276489258,19.0332775115967,19.0335254669189,19.0337753295898,19.0340251922607,19.0342750549316,19.0345230102539,19.0347728729248,19.0350208282471,19.0352687835693,19.0355186462402,19.0357666015625,19.0360164642334,19.0362644195557,19.0365142822266,19.0367641448975,19.0370140075684,19.0372619628906,19.0375118255615,19.0377597808838,19.0380096435547,19.038257598877,19.0385074615479,19.0387554168701,19.039005279541,19.0392532348633,19.0395030975342,19.0397510528564,19.0400009155273,19.0402507781982,19.0404987335205,19.0407485961914,19.0409984588623,19.0412483215332,19.0414943695068,19.0417461395264,19.0419940948486,19.0422439575195,19.0424938201904,19.0427417755127,19.0429916381836,19.0432395935059,19.0434894561768,19.0437393188477,19.0439872741699,19.0442371368408,19.0444850921631,19.044734954834,19.0449848175049,19.0452346801758,19.045482635498,19.0457324981689,19.0459804534912,19.0462322235107,19.046480178833,19.0467300415039,19.0469799041748,19.0472278594971,19.047477722168,19.0477256774902,19.0479774475098,19.048225402832,19.0484752655029,19.0487232208252,19.0489749908447,19.049222946167,19.0494728088379,19.0497207641602,19.0499706268311,19.050220489502,19.0504703521729,19.0507183074951,19.050968170166,19.0512180328369,19.0514678955078,19.0517158508301,19.051965713501,19.0522155761719,19.0524635314941,19.0527153015137,19.0529632568359,19.0532131195068,19.0534629821777,19.0537128448486,19.0539608001709,19.0542106628418,19.0544605255127,19.054708480835,19.0549602508545,19.0552082061768,19.0554580688477,19.0557098388672,19.0559558868408,19.0562076568604,19.0564556121826,19.0567054748535,19.0569553375244,19.0572052001953,19.0574531555176,19.0577049255371,19.0579528808594,19.0582027435303
3.03659534454346,3.04370045661926,3.05083918571472,3.05801153182983,3.0652174949646,3.07245755195618,3.07973194122314,3.0870406627655,3.09438443183899,3.10176301002502,3.10917687416077,3.11662650108337,3.12411165237427,3.13163304328918,3.13919043540955,3.14678478240967,3.15441560745239,3.16208386421204,3.16978931427002,3.1775324344635,3.18531346321106,3.19313263893127,3.2009904384613,3.20888686180115,3.21682238578796,3.22479724884033,3.23281168937683,3.24086618423462,3.24896097183228,3.2570960521698,3.26527214050293,3.27348947525024,3.28174805641174,3.29004859924316,3.29839110374451,3.30677604675293,3.31520390510559,3.32367467880249,3.33218884468079,3.34074664115906,3.34934878349304,3.35799503326416,3.36668634414673,3.37542247772217,3.38420438766479,3.39303183555603,3.40191531181335,3.41084909439087,3.41982984542847,3.42885804176331,3.43793392181396,3.44705820083618,3.45623087882996,3.46545267105103,3.47472357749939,3.48404431343079,3.49341535568237,3.50283670425415,3.51230907440186,3.52183294296265,3.53140830993652,3.5410361289978,3.55071663856506,3.56045007705688,3.570237159729,3.58007788658142,3.58997344970703,3.59992361068726,3.60992908477783,3.61999034881592,3.63010787963867,3.64028215408325,3.65051341056824,3.66080260276794,3.67114996910095,3.68155574798584,3.69202089309692,3.70254564285278,3.71313047409058,3.72377610206604,3.73448300361633,3.74525165557861,3.75608253479004,3.76697611808777,3.77793312072754,3.78895425796509,3.80003976821899,3.81119012832642,3.82240629196167,3.83368873596191,3.84503793716431,3.85645461082458,3.86793899536133,3.87949228286743,3.89111471176147,3.90280699729919,3.91456961631775,3.92640352249146,3.93830919265747,3.95028710365295,3.9623384475708,3.97446322441101,3.9866623878479,3.99893689155579,4.01128721237183,4.02371406555176,4.03621768951416,4.04879999160767,4.06146049499512,4.07420063018799,4.08702087402344,4.09992218017578,4.11290502548218,4.12727689743042,4.14181089401245,4.15644788742065,4.17118835449219,4.18603420257568,4.20098543167114,4.21604442596436,4.23121166229248,4.24648857116699,4.26187562942505,4.27737522125244,4.29298782348633,4.30871438980103,4.32455682754517,4.34051656723022,4.35554504394531,4.37037038803101,4.38529682159424,4.40032577514648,4.4154577255249,4.43069458007812,4.44603681564331,4.46148538589478,4.47704172134399,4.49270725250244,4.50848245620728,4.52436923980713,4.54036808013916,4.55648040771484,4.57270765304565,4.58905076980591,4.60551118850708,4.62209033966064,4.63878917694092,4.65560913085938,4.67255115509033,4.68961906433105,4.70680999755859,4.72412776947021,4.74157381057739,4.75914859771729,4.77685451507568,4.7946925163269,4.81266450881958,4.83077144622803,4.84901523590088,4.86739730834961,4.88591957092285,4.90458297729492,4.92338943481445,4.94234085083008,4.96143913269043,4.98068523406982,5.00008106231689,5.01962852478027,18.7941780090332,18.7944221496582,18.7946643829346,18.7949085235596,18.7951507568359,18.7953948974609,18.7956371307373,18.7958812713623,18.7961235046387,18.796365737915,18.79660987854,18.796854019165,18.7970962524414,18.7973384857178,18.7975826263428,18.7978248596191,18.7980690002441,18.7983112335205,18.7985534667969,18.7987957000732,18.7990398406982,18.7992820739746,18.7995262145996,18.799768447876,18.8000106811523,18.8002529144287,18.8004970550537,18.8007392883301,18.8009815216064,18.8012256622314,18.8014678955078,18.8017101287842,18.8019542694092,18.8021965026855,18.8024387359619,18.8026828765869,18.8029251098633,18.8031673431396,18.8034114837646,18.803653717041,18.803897857666,18.8041400909424,18.8043842315674,18.8046264648438,18.8048686981201,18.8051128387451,18.8053550720215,18.8055973052979,18.8058414459229,18.8060836791992,18.8063278198242,18.8065700531006,18.8068141937256,18.807056427002,18.8072986602783,18.8075428009033,18.8077850341797,18.8080272674561,18.8082714080811,18.8085155487061,18.8087577819824,18.8090000152588,18.8092441558838,18.8094863891602,18.8097305297852,18.8099727630615,18.8102149963379,18.8104591369629,18.8107032775879,18.8109455108643,18.8111896514893,18.8114337921143,18.811674118042,18.811918258667,18.8121604919434,18.8124046325684,18.8126468658447,18.8128910064697,18.8131351470947,18.8133773803711,18.8136196136475,18.8138637542725,18.8141078948975,18.8143501281738,18.8145942687988,18.8148365020752,18.8150806427002,18.8153228759766,18.8155670166016,18.8158092498779,18.8160533905029,18.8162956237793,18.8165397644043,18.8167819976807,18.8170261383057,18.8172702789307,18.817512512207,18.817756652832,18.8179988861084,18.8182430267334,18.8184852600098,18.8187294006348,18.8189716339111,18.8192157745361,18.8194599151611,18.8197040557861,18.8199462890625,18.8201904296875,18.8204326629639,18.8206768035889,18.8209190368652,18.8211631774902,18.8214073181152,18.8216514587402,18.8218936920166,18.8221378326416,18.822380065918,18.822624206543,18.822868347168,18.8231105804443,18.8233528137207,18.8235969543457,18.8238410949707,18.8240852355957,18.8243274688721,18.8245716094971,18.8248157501221,18.8250598907471,18.8253040313721,18.8255462646484,18.8257904052734,18.8260326385498,18.8262767791748,18.8265190124512,18.8267631530762,18.8270072937012,18.8272514343262,18.8274936676025,18.8277378082275,18.8279819488525,18.8282260894775,18.8284683227539,18.8287124633789,18.8289566040039,18.8291988372803,18.8294429779053,18.8296871185303,18.8299293518066,18.8301734924316,18.8304176330566,18.8306617736816,18.8309059143066,18.831148147583,18.831392288208,18.831636428833,18.831880569458,18.8321228027344,18.8323669433594,18.8326110839844,18.8328552246094,18.8330974578857,18.8333415985107,18.8335857391357,18.8338298797607,18.8340721130371,18.8343181610107,18.8345603942871,18.8348045349121,18.8350467681885,18.8352928161621,18.8355350494385,18.8357791900635,18.8360233306885,18.8362674713135,18.8365116119385,18.8367538452148,18.8369998931885,18.8372421264648,18.8374862670898,18.8377304077148,18.8379745483398,18.8382167816162,18.8384628295898,18.8387050628662,18.8389492034912,18.8391933441162,18.8394374847412,18.8396816253662,18.8399257659912,18.8401679992676,18.8404121398926,18.8406562805176,18.8409023284912,18.8411426544189,18.8413887023926,18.8416309356689,18.8418769836426,18.8421192169189,18.8423633575439,18.8426094055176,18.8428516387939,18.8430976867676,18.8433399200439,18.8435840606689,18.8438282012939,18.8440723419189,18.8443145751953,18.8445606231689,18.8448028564453,18.8450489044189,18.8452930450439,18.8455371856689,18.8457794189453,18.8460235595703,18.8462677001953,18.8465118408203,18.8467559814453,18.8470001220703,18.8472442626953,18.8474884033203,18.8477325439453,18.8479766845703,18.8482208251953,18.8484668731689,18.8487091064453,18.8489551544189,18.8491973876953,18.8494415283203,18.8496856689453,18.8499298095703,18.8501739501953,18.8504180908203,18.8506622314453,18.8509063720703,18.8511524200439,18.8513946533203,18.8516387939453,18.8518829345703,18.8521270751953,18.8523712158203,18.8526172637939,18.8528594970703,18.8531055450439,18.8533477783203,18.8535938262939,18.8538379669189,18.8540821075439,18.8543262481689,18.8545684814453,18.8548145294189,18.8550586700439,18.8553028106689,18.8555469512939,18.8557910919189,18.8560352325439,18.8562812805176,18.8565254211426,18.8567695617676,18.8570137023926,18.8572559356689,18.8575019836426,18.8577461242676,18.8579902648926,18.8582344055176,18.8584785461426,18.8587226867676,18.8589687347412,18.8592128753662,18.8594570159912,18.8597011566162,18.8599452972412,18.8601913452148,18.8604354858398,18.8606796264648,18.8609237670898,18.8611679077148,18.8614120483398,18.8616561889648,18.8619022369385,18.8621463775635,18.8623905181885,18.8626346588135,18.8628787994385,18.8631229400635,18.8633689880371,18.8636112213135,18.8638572692871,18.8641014099121,18.8643455505371,18.8645896911621,18.8648357391357,18.8650798797607,18.8653240203857,18.8655700683594,18.8658142089844,18.8660583496094,18.8663024902344,18.866548538208,18.8667907714844,18.867036819458,18.867280960083,18.867525100708,18.867769241333,18.8680152893066,18.8682594299316,18.8685035705566,18.8687496185303,18.8689937591553,18.8692378997803,18.8694820404053,18.8697280883789,18.8699722290039,18.8702163696289,18.8704624176025,18.8707046508789,18.8709506988525,18.8711967468262,18.8714408874512,18.8716850280762,18.8719291687012,18.8721733093262,18.8724193572998,18.8726634979248,18.8729095458984,18.8731536865234,18.8733978271484,18.8736438751221,18.8738880157471,18.8741321563721,18.8743762969971,18.8746223449707,18.8748664855957,18.8751125335693,18.8753566741943,18.8756008148193,18.875846862793,18.876091003418,18.876335144043,18.8765811920166,18.8768253326416,18.8770713806152,18.8773155212402,18.8775596618652,18.8778057098389,18.8780498504639,18.8782958984375
3.03009963035583,3.03717446327209,3.04428243637085,3.05142378807068,3.05859875679016,3.06580758094788,3.0730504989624,3.08032774925232,3.08763933181763,3.09498572349548,3.10236740112305,3.10978412628174,3.11723661422729,3.12472486495972,3.13224911689758,3.13980960845947,3.14740681648254,3.1550407409668,3.16271185874939,3.1704204082489,3.17816662788391,3.185950756073,3.19377303123474,3.2016339302063,3.20953369140625,3.21747231483459,3.22545051574707,3.23346829414368,3.24152612686157,3.24962401390076,3.25776267051697,3.26594209671021,3.27416253089905,3.28242468833923,3.29072856903076,3.29907464981079,3.30746293067932,3.31589436531067,3.32436847686768,3.33288621902466,3.3414478302002,3.35005354881287,3.35870361328125,3.36739826202393,3.37613821029663,3.38492369651794,3.39375495910645,3.40263247489929,3.41156625747681,3.42055082321167,3.42958283424377,3.4386625289917,3.44779062271118,3.4569673538208,3.46619296073914,3.47546792030334,3.48479270935059,3.49416756629944,3.50359296798706,3.51306962966919,3.52259755134583,3.53217720985413,3.54180908203125,3.55149364471436,3.5612313747406,3.57102274894714,3.58086800575256,3.5907678604126,3.60072231292725,3.61073231697083,3.62079811096191,3.63092017173767,3.64109897613525,3.65133500099182,3.66162872314453,3.67198061943054,3.68239116668701,3.69286108016968,3.70339059829712,3.71398043632507,3.72463083267212,3.73534274101257,3.74611616134644,3.75695204734802,3.76785087585449,3.77881288528442,3.78983902931213,3.80092978477478,3.81208562850952,3.82330703735352,3.8345947265625,3.84594917297363,3.85737133026123,3.86886119842529,3.88041996955872,3.89204812049866,3.9037458896637,3.91551423072815,3.92735385894775,3.93926525115967,3.95124912261963,3.96330618858337,3.97543692588806,3.98764228820801,3.99992275238037,4.01227903366089,4.02471208572388,4.03722190856934,4.0498104095459,4.06247711181641,4.07522392272949,4.088050365448,4.10095834732056,4.11394739151001,4.12766981124878,4.14220666885376,4.15684604644775,4.17158985137939,4.18643808364868,4.20139265060425,4.21645450592041,4.23162460327148,4.24690437316895,4.26229476928711,4.27779722213745,4.29341268539429,4.30914258956909,4.32498836517334,4.34095096588135,4.35688543319702,4.37171983718872,4.38665533065796,4.40169382095337,4.41683530807495,4.43208122253418,4.44743299484253,4.46289157867432,4.47845792770386,4.49413299560547,4.50991868972778,4.52581548690796,4.54182434082031,4.55794715881348,4.57418489456177,4.59053897857666,4.60700988769531,4.62359952926636,4.64030933380127,4.65714025497437,4.67409372329712,4.69117116928101,4.70837497711182,4.72570419311523,4.74316167831421,4.76074886322021,4.77846670150757,4.79631662368774,4.81430053710938,4.83241987228394,4.8506760597229,4.8690710067749,4.88760566711426,4.90628242492676,4.92510175704956,4.94406652450562,4.96317768096924,4.98243761062622,5.00184726715088,5.02140855789185,5.04112386703491,18.6196727752686,18.6199111938477,18.6201496124268,18.6203880310059,18.620626449585,18.6208667755127,18.6211051940918,18.6213436126709,18.62158203125,18.6218204498291,18.6220588684082,18.6222972869873,18.622537612915,18.6227760314941,18.6230144500732,18.6232528686523,18.6234912872314,18.6237277984619,18.6239681243896,18.6242046356201,18.6244449615479,18.624683380127,18.6249217987061,18.6251583099365,18.6253986358643,18.6256370544434,18.6258735656738,18.6261138916016,18.626350402832,18.6265907287598,18.6268272399902,18.627067565918,18.6273059844971,18.6275444030762,18.6277828216553,18.6280212402344,18.6282577514648,18.6284980773926,18.628734588623,18.6289749145508,18.6292133331299,18.6294498443604,18.6296901702881,18.6299285888672,18.6301670074463,18.6304054260254,18.6306419372559,18.6308822631836,18.6311187744141,18.6313591003418,18.6315975189209,18.6318359375,18.6320743560791,18.6323127746582,18.6325511932373,18.6327896118164,18.6330299377441,18.6332664489746,18.6335067749023,18.6337432861328,18.6339836120605,18.634220123291,18.6344604492188,18.6346988677979,18.634937286377,18.6351757049561,18.6354160308838,18.6356525421143,18.635892868042,18.6361312866211,18.6363697052002,18.6366081237793,18.6368465423584,18.6370849609375,18.6373233795166,18.6375637054443,18.6378021240234,18.6380405426025,18.6382789611816,18.6385173797607,18.6387557983398,18.6389961242676,18.6392345428467,18.6394710540771,18.6397113800049,18.639949798584,18.6401882171631,18.6404266357422,18.6406669616699,18.640905380249,18.6411437988281,18.6413822174072,18.6416206359863,18.6418609619141,18.6420974731445,18.6423377990723,18.6425762176514,18.6428165435791,18.6430549621582,18.6432933807373,18.6435317993164,18.6437702178955,18.6440105438232,18.6442489624023,18.6444892883301,18.6447257995605,18.6449661254883,18.6452026367188,18.6454429626465,18.6456832885742,18.6459197998047,18.6461601257324,18.6463985443115,18.6466369628906,18.6468772888184,18.6471157073975,18.6473541259766,18.6475925445557,18.6478328704834,18.6480731964111,18.6483097076416,18.6485500335693,18.6487884521484,18.6490268707275,18.6492652893066,18.6495056152344,18.6497440338135,18.6499824523926,18.6502208709717,18.6504611968994,18.6506996154785,18.6509380340576,18.6511783599854,18.6514186859131,18.6516551971436,18.6518955230713,18.6521339416504,18.6523723602295,18.6526107788086,18.6528511047363,18.6530895233154,18.6533298492432,18.6535701751709,18.6538066864014,18.6540470123291,18.6542854309082,18.6545257568359,18.654764175415,18.6550045013428,18.6552410125732,18.655481338501,18.6557197570801,18.6559600830078,18.6561985015869,18.6564388275146,18.6566772460938,18.6569156646729,18.6571559906006,18.6573944091797,18.6576347351074,18.6578731536865,18.6581115722656,18.6583518981934,18.6585903167725,18.6588306427002,18.6590690612793,18.659309387207,18.6595478057861,18.6597862243652,18.660026550293,18.6602649688721,18.6605052947998,18.6607437133789,18.660982131958,18.6612224578857,18.6614627838135,18.6617012023926,18.6619415283203,18.6621799468994,18.6624202728271,18.6626586914062,18.6628971099854,18.6631355285645,18.6633777618408,18.6636161804199,18.663854598999,18.6640949249268,18.6643333435059,18.6645736694336,18.6648139953613,18.6650524139404,18.6652908325195,18.6655330657959,18.665771484375,18.6660099029541,18.6662483215332,18.6664886474609,18.6667289733887,18.6669673919678,18.6672077178955,18.6674461364746,18.6676864624023,18.6679248809814,18.6681652069092,18.6684036254883,18.668643951416,18.6688842773438,18.6691226959229,18.6693630218506,18.6696014404297,18.6698417663574,18.6700801849365,18.6703205108643,18.670560836792,18.6707992553711,18.6710376739502,18.6712779998779,18.6715183258057,18.6717567443848,18.6719989776611,18.6722373962402,18.672477722168,18.6727161407471,18.6729545593262,18.6731948852539,18.6734352111816,18.6736736297607,18.6739139556885,18.6741542816162,18.6743927001953,18.674633026123,18.6748733520508,18.6751117706299,18.6753520965576,18.6755905151367,18.6758308410645,18.6760711669922,18.6763095855713,18.676549911499,18.6767902374268,18.6770305633545,18.6772689819336,18.6775093078613,18.6777477264404,18.6779880523682,18.6782283782959,18.6784687042236,18.6787071228027,18.6789474487305,18.6791877746582,18.6794281005859,18.679666519165,18.6799068450928,18.6801452636719,18.6803855895996,18.6806259155273,18.6808662414551,18.6811046600342,18.6813449859619,18.6815853118896,18.6818237304688,18.6820640563965,18.6823043823242,18.682544708252,18.6827831268311,18.6830234527588,18.6832637786865,18.6835041046143,18.6837425231934,18.6839828491211,18.6842231750488,18.6844635009766,18.6847019195557,18.6849422454834,18.6851825714111,18.6854228973389,18.6856632232666,18.6859035491943,18.6861419677734,18.6863822937012,18.6866226196289,18.686861038208,18.6871032714844,18.6873416900635,18.6875820159912,18.6878223419189,18.6880626678467,18.6883029937744,18.6885414123535,18.6887817382812,18.689022064209,18.6892623901367,18.6895027160645,18.6897430419922,18.6899833679199,18.690221786499,18.6904640197754,18.6907024383545,18.6909427642822,18.69118309021,18.6914234161377,18.6916618347168,18.6919021606445,18.6921424865723,18.6923828125,18.6926231384277,18.6928634643555,18.6931037902832,18.6933441162109,18.6935844421387,18.6938228607178,18.6940631866455,18.6943035125732,18.694543838501,18.6947841644287,18.6950244903564,18.6952648162842,18.6955051422119,18.695743560791,18.6959838867188,18.6962261199951,18.6964664459229,18.696704864502,18.6969451904297,18.6971855163574,18.6974258422852,18.6976661682129,18.6979084014893,18.6981468200684,18.6983871459961,18.6986274719238,18.6988677978516,18.6991081237793,18.699348449707,18.6995887756348,18.6998291015625,18.7000675201416,18.700309753418,18.7005500793457,18.7007904052734,18.7010307312012,18.7012710571289,18.7015113830566,18.7017498016357
3.02363157272339,3.03067636489868,3.03775382041931,3.04486465454102,3.05200886726379,3.05918645858765,3.06639814376831,3.07364368438721,3.08092379570007,3.08823823928833,3.09558749198914,3.10297203063965,3.11039161682129,3.11784696578979,3.12533807754517,3.13286542892456,3.1404287815094,3.148029088974,3.15566611289978,3.1633403301239,3.17105174064636,3.1788010597229,3.18658828735352,3.19441390037537,3.20227789878845,3.21018075942993,3.21812272071838,3.22610402107239,3.2341251373291,3.24218606948853,3.25028729438782,3.25842928886414,3.26661205291748,3.27483606338501,3.2831015586853,3.29140877723694,3.29975843429565,3.30815029144287,3.31658506393433,3.32506275177002,3.33358407020569,3.34214925765991,3.35075855255127,3.35941219329834,3.36811065673828,3.37685441970825,3.38564348220825,3.39447855949402,3.40335988998413,3.41228771209717,3.42127203941345,3.43030786514282,3.43939137458801,3.44852328300476,3.45770382881165,3.46693348884583,3.47621250152588,3.48554110527039,3.49492025375366,3.50434970855713,3.51383018493652,3.52336239814758,3.53294610977173,3.54258227348328,3.55227112770081,3.56201314926147,3.57180881500244,3.58165836334229,3.59156250953674,3.60152149200439,3.61153602600098,3.62160611152649,3.63173270225525,3.64191603660583,3.65215682983398,3.6624550819397,3.67281174659729,3.68322706222534,3.69370174407959,3.70423603057861,3.71483063697815,3.72548604011536,3.73620271682739,3.74698114395142,3.75782203674316,3.76872587203979,3.77969312667847,3.79072451591492,3.80182027816772,3.81298136711121,3.82420802116394,3.83550119400024,3.8468611240387,3.85828852653503,3.86978387832642,3.88134813308716,3.89298176765442,3.90468525886536,3.91645932197571,3.92830467224121,3.94022178649902,3.95221161842346,3.96427440643311,3.97641110420227,3.98862242698669,4.00090885162354,4.01327133178711,4.02571058273315,4.03822660446167,4.05082130432129,4.06349468231201,4.07624769210815,4.08908081054688,4.10199499130249,4.11499071121216,4.12806940078735,4.14260244369507,4.15724468231201,4.1719913482666,4.18684244155884,4.20179986953735,4.21686458587646,4.23203754425049,4.2473201751709,4.26271390914917,4.27821922302246,4.2938380241394,4.30957126617432,4.32541990280151,4.34138584136963,4.35747003555298,4.37306976318359,4.388014793396,4.40306234359741,4.41821336746216,4.43346881866455,4.44883060455322,4.46429872512817,4.47987461090088,4.49556016921997,4.51135540008545,4.52726221084595,4.54328155517578,4.55941486358643,4.5756630897522,4.59202766418457,4.60850954055786,4.62510967254639,4.64183044433594,4.65867233276367,4.67563676834106,4.69272565841675,4.70993947982788,4.72728204727173,4.7447509765625,4.7623496055603,4.78007936477661,4.7979416847229,4.81593799591064,4.83406972885132,4.8523383140564,4.87074565887451,4.88929319381714,4.90798234939575,4.92681550979614,4.94579315185547,4.96491813659668,4.98419094085693,5.00361442565918,5.02318954467773,5.04291868209839,18.4481449127197,18.4483776092529,18.4486122131348,18.448844909668,18.4490814208984,18.4493141174316,18.4495506286621,18.4497833251953,18.4500179290771,18.450252532959,18.4504871368408,18.4507217407227,18.4509563446045,18.4511890411377,18.4514236450195,18.45166015625,18.4518947601318,18.452127456665,18.4523601531982,18.4525947570801,18.4528293609619,18.4530639648438,18.453296661377,18.4535312652588,18.453763961792,18.4539985656738,18.4542331695557,18.4544677734375,18.4547004699707,18.4549350738525,18.4551696777344,18.4554023742676,18.4556369781494,18.4558715820312,18.4561042785645,18.4563388824463,18.4565734863281,18.45680809021,18.4570426940918,18.457275390625,18.4575119018555,18.4577445983887,18.4579772949219,18.4582118988037,18.4584465026855,18.4586811065674,18.4589157104492,18.4591484069824,18.4593830108643,18.4596157073975,18.4598503112793,18.4600849151611,18.460319519043,18.4605541229248,18.4607887268066,18.4610214233398,18.4612560272217,18.4614906311035,18.4617252349854,18.4619579315186,18.462194442749,18.4624271392822,18.4626617431641,18.4628944396973,18.4631290435791,18.4633636474609,18.4635982513428,18.4638328552246,18.4640674591064,18.4643020629883,18.4645347595215,18.4647693634033,18.4650039672852,18.465238571167,18.4654712677002,18.4657077789307,18.4659404754639,18.4661769866943,18.4664096832275,18.4666442871094,18.4668788909912,18.467113494873,18.4673461914062,18.4675807952881,18.4678153991699,18.4680500030518,18.4682846069336,18.4685192108154,18.4687538146973,18.4689884185791,18.4692230224609,18.4694557189941,18.469690322876,18.4699249267578,18.4701595306396,18.4703941345215,18.4706287384033,18.4708633422852,18.471097946167,18.4713325500488,18.4715671539307,18.4717998504639,18.4720363616943,18.4722690582275,18.472505569458,18.4727382659912,18.4729747772217,18.4732074737549,18.4734420776367,18.4736747741699,18.4739112854004,18.4741458892822,18.4743804931641,18.4746150970459,18.4748497009277,18.4750843048096,18.4753189086914,18.4755535125732,18.4757881164551,18.4760227203369,18.4762573242188,18.4764919281006,18.4767246246338,18.4769611358643,18.4771938323975,18.4774303436279,18.4776630401611,18.4778995513916,18.4781322479248,18.4783687591553,18.4786014556885,18.4788379669189,18.4790706634521,18.4793071746826,18.4795417785645,18.4797744750977,18.4800109863281,18.48024559021,18.4804801940918,18.4807147979736,18.4809494018555,18.4811840057373,18.4814186096191,18.481653213501,18.4818878173828,18.4821224212646,18.4823570251465,18.4825916290283,18.4828281402588,18.483060836792,18.4832973480225,18.4835300445557,18.4837665557861,18.484001159668,18.4842357635498,18.4844703674316,18.4847049713135,18.4849395751953,18.4851741790771,18.485408782959,18.4856433868408,18.4858798980713,18.4861125946045,18.486349105835,18.4865837097168,18.4868202209473,18.4870529174805,18.4872875213623,18.4875221252441,18.487756729126,18.4879932403564,18.4882278442383,18.4884624481201,18.488697052002,18.4889316558838,18.4891662597656,18.4894027709961,18.4896354675293,18.4898719787598,18.4901065826416,18.4903411865234,18.4905776977539,18.4908123016357,18.4910469055176,18.4912815093994,18.4915161132812,18.4917507171631,18.4919872283936,18.4922199249268,18.4924564361572,18.4926910400391,18.4929256439209,18.4931621551514,18.4933967590332,18.493631362915,18.4938659667969,18.4941024780273,18.4943370819092,18.494571685791,18.4948062896729,18.4950408935547,18.4952754974365,18.495512008667,18.4957466125488,18.4959812164307,18.4962177276611,18.496452331543,18.4966869354248,18.4969215393066,18.4971580505371,18.4973907470703,18.4976272583008,18.4978618621826,18.4980983734131,18.4983329772949,18.4985675811768,18.4988021850586,18.4990386962891,18.4992733001709,18.4995079040527,18.4997444152832,18.499979019165,18.5002136230469,18.5004501342773,18.5006847381592,18.500919342041,18.5011539459229,18.5013904571533,18.5016250610352,18.5018615722656,18.5020961761475,18.5023307800293,18.5025653839111,18.5028018951416,18.5030384063721,18.5032711029053,18.5035076141357,18.5037422180176,18.5039768218994,18.5042114257812,18.5044479370117,18.5046844482422,18.504919052124,18.5051536560059,18.5053901672363,18.5056247711182,18.505859375,18.5060958862305,18.5063304901123,18.5065650939941,18.5068016052246,18.5070362091064,18.5072708129883,18.5075073242188,18.5077419281006,18.5079784393311,18.5082130432129,18.5084495544434,18.5086860656738,18.5089206695557,18.5091552734375,18.509391784668,18.5096263885498,18.5098609924316,18.5100975036621,18.5103321075439,18.5105667114258,18.5108032226562,18.5110378265381,18.5112743377686,18.5115089416504,18.5117454528809,18.5119800567627,18.5122165679932,18.512451171875,18.5126876831055,18.5129222869873,18.5131587982178,18.5133953094482,18.5136280059814,18.5138664245605,18.5140991210938,18.5143375396729,18.5145702362061,18.5148086547852,18.5150413513184,18.5152778625488,18.5155124664307,18.5157489776611,18.515983581543,18.5162200927734,18.5164546966553,18.5166912078857,18.5169258117676,18.517162322998,18.5173988342285,18.5176334381104,18.5178699493408,18.5181045532227,18.5183410644531,18.518575668335,18.5188121795654,18.5190467834473,18.5192832946777,18.5195178985596,18.51975440979,18.5199909210205,18.5202255249023,18.5204620361328,18.5206985473633,18.5209331512451,18.5211696624756,18.5214042663574,18.5216407775879,18.5218753814697,18.5221118927002,18.522346496582,18.5225830078125,18.5228176116943,18.5230541229248,18.5232887268066,18.5235252380371,18.5237636566162,18.523998260498,18.5242347717285,18.5244693756104,18.5247058868408,18.5249404907227,18.5251770019531,18.5254135131836,18.5256481170654,18.5258827209473,18.5261211395264,18.5263557434082,18.5265922546387,18.5268268585205,18.527063369751,18.5272998809814,18.5275344848633,18.5277709960938,18.5280055999756,18.5282421112061,18.5284786224365
3.01719117164612,3.02420592308044,3.03125333786011,3.03833365440369,3.04544711112976,3.05259394645691,3.05977439880371,3.06698870658875,3.07423710823059,3.08152008056641,3.08883738517761,3.09618949890137,3.10357689857483,3.11099934577942,3.11845755577087,3.12595176696777,3.13348197937012,3.14104843139648,3.14865159988403,3.15629172325134,3.16396880149841,3.17168354988098,3.17943596839905,3.18722629547119,3.19505500793457,3.20292210578918,3.21082806587219,3.21877336502075,3.22675776481628,3.23478221893311,3.24284648895264,3.25095105171204,3.25909614562988,3.26728248596191,3.27550983428955,3.28377866744995,3.29208946228027,3.30044221878052,3.30883765220642,3.31727600097656,3.32575726509094,3.3342821598053,3.34285092353821,3.35146379470825,3.36012101173401,3.36882328987122,3.37757062911987,3.38636350631714,3.39520239830017,3.40408754348755,3.41301918029785,3.42199778556824,3.43103313446045,3.44012069702148,3.4492564201355,3.45844078063965,3.46767425537109,3.47695732116699,3.48628997802734,3.49567294120789,3.50510668754578,3.51459145545959,3.52412748336792,3.53371548652649,3.54335594177246,3.55304908752441,3.56279540061951,3.5725953578949,3.58244919776917,3.59235763549805,3.6023211479187,3.61233997344971,3.62241458892822,3.63254570960999,3.64273381233215,3.65297889709473,3.66328191757202,3.6736433506012,3.68406343460083,3.69454264640808,3.70508193969727,3.71568131446838,3.72634148597717,3.73706316947937,3.74784660339355,3.75869250297546,3.76960158348083,3.78057384490967,3.79161024093628,3.80271124839783,3.81387758255005,3.82510948181152,3.83640789985657,3.84777331352234,3.85920596122742,3.8707070350647,3.88227677345276,3.89391589164734,3.90562510490417,3.91740489006042,3.92925596237183,3.94117879867554,3.95317435264587,3.96524310112,3.97738575935364,3.98960304260254,4.00189542770386,4.01426410675049,4.02670955657959,4.03923225402832,4.05183267593384,4.06451272964478,4.07727193832397,4.09011125564575,4.10303211212158,4.11603450775146,4.12911987304688,4.14299821853638,4.15764331817627,4.17239284515381,4.18724679946899,4.20220708847046,4.21727466583252,4.23245096206665,4.24773645401001,4.26313304901123,4.27864170074463,4.29426336288452,4.30999946594238,4.32585144042969,4.34182071685791,4.35790777206421,4.37411499023438,4.38937520980835,4.40443181991577,4.41959238052368,4.4348578453064,4.45022869110107,4.46570682525635,4.48129272460938,4.49698781967163,4.51279306411743,4.52871036529541,4.54473972320557,4.56088352203369,4.57714223861694,4.5935173034668,4.61000967025757,4.62662124633789,4.64335250854492,4.66020584106445,4.67718172073364,4.69428157806396,4.71150684356689,4.72885894775391,4.74634122848511,4.76395177841187,4.78169345855713,4.79956769943237,4.81757640838623,4.83572053909302,4.85400152206421,4.8724217414856,4.89098215103149,4.90968418121338,4.92853021621704,4.9475212097168,4.96665906906128,4.98594617843628,5.00538301467896,5.0249719619751,5.0447154045105,5.06461429595947,18.2799758911133,18.2802066802979,18.2804355621338,18.2806663513184,18.2808971405029,18.2811279296875,18.2813568115234,18.281587600708,18.2818164825439,18.2820491790771,18.2822780609131,18.282506942749,18.2827377319336,18.2829666137695,18.2831974029541,18.2834281921387,18.2836589813232,18.2838878631592,18.2841186523438,18.2843456268311,18.2845764160156,18.2848072052002,18.2850360870361,18.2852668762207,18.2854957580566,18.2857246398926,18.2859554290771,18.2861862182617,18.2864151000977,18.2866439819336,18.2868747711182,18.2871055603027,18.2873344421387,18.2875652313232,18.2877941131592,18.2880229949951,18.2882537841797,18.2884845733643,18.2887115478516,18.2889423370361,18.2891731262207,18.2894039154053,18.2896308898926,18.2898616790771,18.2900924682617,18.2903232574463,18.2905502319336,18.2907810211182,18.2910118103027,18.2912425994873,18.2914714813232,18.2917022705078,18.2919311523438,18.2921619415283,18.2923908233643,18.2926216125488,18.2928524017334,18.2930812835693,18.2933120727539,18.2935409545898,18.2937717437744,18.2940006256104,18.2942314147949,18.2944602966309,18.2946910858154,18.2949199676514,18.2951507568359,18.2953815460205,18.2956104278564,18.295841217041,18.2960720062256,18.2962989807129,18.2965297698975,18.296760559082,18.296989440918,18.2972202301025,18.2974529266357,18.297679901123,18.2979106903076,18.2981414794922,18.2983703613281,18.2986011505127,18.2988319396973,18.2990627288818,18.2992916107178,18.2995204925537,18.2997512817383,18.2999839782715,18.3002128601074,18.3004417419434,18.3006725311279,18.3009033203125,18.3011322021484,18.301362991333,18.3015918731689,18.3018226623535,18.3020515441895,18.3022842407227,18.3025131225586,18.3027439117432,18.3029747009277,18.3032035827637,18.3034343719482,18.3036632537842,18.3038959503174,18.3041248321533,18.3043556213379,18.3045845031738,18.3048152923584,18.305046081543,18.3052768707275,18.3055057525635,18.305736541748,18.3059673309326,18.3061981201172,18.3064270019531,18.3066577911377,18.3068885803223,18.3071174621582,18.3073482513428,18.307580947876,18.3078079223633,18.3080406188965,18.3082695007324,18.308500289917,18.3087310791016,18.3089618682861,18.3091926574707,18.3094215393066,18.3096523284912,18.3098831176758,18.3101139068604,18.3103427886963,18.3105754852295,18.3108043670654,18.31103515625,18.3112640380859,18.3114948272705,18.3117256164551,18.3119564056396,18.3121852874756,18.3124179840088,18.3126468658447,18.3128776550293,18.3131084442139,18.3133392333984,18.3135681152344,18.3137989044189,18.3140296936035,18.3142604827881,18.3144912719727,18.3147201538086,18.3149528503418,18.3151817321777,18.3154125213623,18.3156433105469,18.3158740997314,18.316104888916,18.3163356781006,18.3165645599365,18.3167972564697,18.3170261383057,18.3172569274902,18.3174877166748,18.3177185058594,18.3179473876953,18.3181800842285,18.3184108734131,18.318639755249,18.3188705444336,18.3191013336182,18.3193321228027,18.3195629119873,18.3197937011719,18.3200244903564,18.320255279541,18.3204860687256,18.3207168579102,18.3209476470947,18.3211784362793,18.3214073181152,18.3216400146484,18.3218688964844,18.3220996856689,18.3223304748535,18.3225612640381,18.3227920532227,18.3230228424072,18.3232536315918,18.3234844207764,18.3237152099609,18.3239459991455,18.3241767883301,18.324405670166,18.3246383666992,18.3248691558838,18.3250999450684,18.3253307342529,18.3255615234375,18.3257923126221,18.3260231018066,18.3262538909912,18.3264846801758,18.3267154693604,18.3269443511963,18.3271770477295,18.3274078369141,18.3276386260986,18.3278694152832,18.3281002044678,18.3283309936523,18.3285598754883,18.3287925720215,18.3290214538574,18.3292541503906,18.3294830322266,18.3297157287598,18.3299446105957,18.3301773071289,18.3304080963135,18.330638885498,18.3308696746826,18.3311004638672,18.3313312530518,18.3315620422363,18.3317947387695,18.3320236206055,18.3322563171387,18.3324871063232,18.3327178955078,18.3329486846924,18.333179473877,18.3334102630615,18.3336410522461,18.3338718414307,18.3341026306152,18.3343334197998,18.3345642089844,18.3347949981689,18.3350276947021,18.3352584838867,18.3354892730713,18.3357200622559,18.3359508514404,18.3361835479736,18.3364124298096,18.3366451263428,18.3368759155273,18.3371067047119,18.3373374938965,18.3375682830811,18.3377990722656,18.3380317687988,18.3382625579834,18.338493347168,18.3387222290039,18.3389549255371,18.3391857147217,18.3394184112549,18.3396472930908,18.339879989624,18.3401107788086,18.3403415679932,18.3405723571777,18.3408031463623,18.3410358428955,18.3412647247314,18.3414974212646,18.3417282104492,18.3419609069824,18.3421897888184,18.3424224853516,18.3426532745361,18.3428840637207,18.3431148529053,18.3433475494385,18.343578338623,18.3438091278076,18.3440399169922,18.3442726135254,18.34450340271,18.3447341918945,18.3449649810791,18.3451957702637,18.3454284667969,18.3456592559814,18.345890045166,18.3461227416992,18.3463535308838,18.3465843200684,18.3468151092529,18.3470458984375,18.3472785949707,18.3475093841553,18.3477420806885,18.347972869873,18.3482055664062,18.3484344482422,18.3486671447754,18.34889793396,18.3491287231445,18.3493595123291,18.3495922088623,18.3498229980469,18.3500537872314,18.3502864837646,18.3505172729492,18.3507480621338,18.350980758667,18.3512115478516,18.3514423370361,18.3516750335693,18.3519058227539,18.3521366119385,18.352367401123,18.3526000976562,18.3528308868408,18.353063583374,18.3532943725586,18.3535251617432,18.3537578582764,18.3539886474609,18.3542194366455,18.3544521331787,18.3546829223633,18.3549137115479,18.3551445007324,18.3553771972656,18.3556098937988,18.3558406829834,18.356071472168,18.3563041687012,18.3565349578857,18.3567676544189,18.3569984436035,18.3572311401367,18.3574619293213,18.3576927185059,18.3579254150391,18.3581562042236,18.3583889007568
3.01077818870544,3.01776313781738,3.02478051185608,3.03183054924011,3.03891348838806,3.04602980613708,3.0531792640686,3.06036257743835,3.06757974624634,3.07483077049255,3.08211636543274,3.08943676948547,3.09679174423218,3.10418200492859,3.11160731315613,3.11906862258911,3.12656545639038,3.13409876823425,3.14166808128357,3.14927434921265,3.15691733360291,3.16459774971008,3.1723153591156,3.1800708770752,3.18786430358887,3.19569611549377,3.2035665512085,3.21147584915161,3.21942400932312,3.22741198539734,3.23543953895569,3.24350690841675,3.25161504745483,3.25976347923279,3.26795291900635,3.27618360519409,3.28445601463318,3.29277014732361,3.30112648010254,3.30952548980713,3.31796717643738,3.32645225524902,3.33498072624207,3.34355282783508,3.35216927528381,3.36083030700684,3.36953616142273,3.37828731536865,3.38708400726318,3.3959264755249,3.40481543540955,3.41375088691711,3.42273354530334,3.43176341056824,3.44085001945496,3.44998979568481,3.45917797088623,3.46841549873352,3.47770237922668,3.48703908920288,3.49642634391785,3.505863904953,3.51535272598267,3.52489304542542,3.53448534011841,3.54412984848022,3.5538272857666,3.56357765197754,3.57338190078735,3.58324027061462,3.59315299987793,3.60312104225159,3.6131443977356,3.62322354316711,3.63335919380188,3.64355158805847,3.65380144119263,3.6641092300415,3.67447519302368,3.6849000453949,3.69538402557373,3.7059280872345,3.71653246879578,3.72719740867615,3.73792409896851,3.74871253967285,3.75956344604492,3.77047729492188,3.78145480155945,3.7924964427948,3.80360269546509,3.81477427482605,3.82601141929626,3.83731532096863,3.84868597984314,3.86012411117554,3.87163066864014,3.88320589065552,3.894850730896,3.90656542778015,3.91835069656372,3.93020749092102,3.94213628768921,3.95413756370544,3.96621227264404,3.97836089134216,3.99058413505554,4.0028829574585,4.01525735855103,4.02770900726318,4.04023790359497,4.0528450012207,4.06553077697754,4.07829666137695,4.09114265441895,4.10406970977783,4.11707878112793,4.13017082214355,4.14339399337769,4.15804195404053,4.17279434204102,4.18765115737915,4.20261430740356,4.21768522262573,4.23286390304565,4.24815273284912,4.26355218887329,4.27906370162964,4.29468870162964,4.31042814254761,4.32628297805786,4.34225559234619,4.3583459854126,4.37455606460571,4.39073610305786,4.40580224990845,4.42097234725952,4.43624687194824,4.45162773132324,4.46711540222168,4.48271131515503,4.49841642379761,4.51423215866089,4.53015899658203,4.54619932174683,4.56235313415527,4.57862234115601,4.59500789642334,4.61151123046875,4.62813329696655,4.64487600326538,4.66173982620239,4.67872667312622,4.69583797454834,4.71307516098022,4.73043918609619,4.74793148040771,4.76555490493774,4.78330850601196,4.80119514465332,4.81921577453613,4.83737230300903,4.8556661605835,4.874098777771,4.89267158508301,4.91138696670532,4.93024587631226,4.94925022125244,4.96840190887451,4.98770189285278,5.00715303421021,5.02675580978394,5.04651308059692,5.06642627716064,5.08649682998657,18.1148471832275,18.1150741577148,18.1152992248535,18.1155261993408,18.1157512664795,18.1159782409668,18.1162033081055,18.1164283752441,18.1166553497314,18.1168804168701,18.1171073913574,18.1173324584961,18.1175594329834,18.1177845001221,18.1180114746094,18.118236541748,18.1184635162354,18.118688583374,18.1189155578613,18.119140625,18.1193656921387,18.1195907592773,18.119815826416,18.1200428009033,18.120267868042,18.1204929351807,18.120719909668,18.1209449768066,18.1211719512939,18.1213970184326,18.1216220855713,18.12184715271,18.1220741271973,18.1222972869873,18.1225242614746,18.1227512359619,18.1229763031006,18.1232013702393,18.1234283447266,18.1236534118652,18.1238784790039,18.1241054534912,18.1243305206299,18.1245555877686,18.1247806549072,18.1250076293945,18.1252326965332,18.1254596710205,18.1256847381592,18.1259117126465,18.1261367797852,18.1263618469238,18.1265869140625,18.1268138885498,18.1270389556885,18.1272640228271,18.1274909973145,18.1277160644531,18.1279430389404,18.1281681060791,18.1283950805664,18.1286201477051,18.1288452148438,18.1290721893311,18.1292972564697,18.129524230957,18.1297492980957,18.129976272583,18.1302013397217,18.1304264068604,18.1306533813477,18.1308784484863,18.1311054229736,18.1313304901123,18.1315574645996,18.1317825317383,18.132007598877,18.1322326660156,18.1324596405029,18.1326847076416,18.1329116821289,18.1331367492676,18.1333637237549,18.1335906982422,18.1338157653809,18.1340408325195,18.1342678070068,18.1344928741455,18.1347198486328,18.1349449157715,18.1351699829102,18.1353969573975,18.1356239318848,18.1358489990234,18.1360759735107,18.1363010406494,18.1365280151367,18.136754989624,18.1369800567627,18.1372051239014,18.1374320983887,18.1376571655273,18.1378841400146,18.1381092071533,18.138334274292,18.1385612487793,18.138786315918,18.1390151977539,18.1392402648926,18.1394653320312,18.1396903991699,18.1399192810059,18.1401443481445,18.1403713226318,18.1405963897705,18.1408233642578,18.1410484313965,18.1412754058838,18.1415023803711,18.1417274475098,18.1419544219971,18.1421794891357,18.142406463623,18.1426315307617,18.142858505249,18.1430835723877,18.143310546875,18.1435375213623,18.1437644958496,18.1439895629883,18.1442165374756,18.1444416046143,18.1446666717529,18.1448936462402,18.1451206207275,18.1453456878662,18.1455745697021,18.1457996368408,18.1460266113281,18.1462516784668,18.1464786529541,18.1467037200928,18.1469306945801,18.1471576690674,18.1473827362061,18.1476097106934,18.1478366851807,18.148063659668,18.148286819458,18.1485157012939,18.1487407684326,18.1489677429199,18.1491947174072,18.1494197845459,18.1496467590332,18.1498737335205,18.1500988006592,18.1503257751465,18.1505508422852,18.1507778167725,18.1510047912598,18.1512317657471,18.1514568328857,18.151683807373,18.1519107818604,18.152135848999,18.1523628234863,18.152587890625,18.1528167724609,18.1530418395996,18.1532688140869,18.1534957885742,18.1537227630615,18.1539478302002,18.1541748046875,18.1544017791748,18.1546268463135,18.1548538208008,18.1550807952881,18.1553077697754,18.1555328369141,18.1557598114014,18.1559867858887,18.1562118530273,18.1564388275146,18.156665802002,18.1568927764893,18.1571178436279,18.1573448181152,18.1575717926025,18.1577987670898,18.1580257415771,18.1582508087158,18.1584777832031,18.1587047576904,18.1589317321777,18.1591567993164,18.1593856811523,18.159610748291,18.1598377227783,18.1600646972656,18.1602916717529,18.1605186462402,18.1607456207275,18.1609706878662,18.1611976623535,18.1614246368408,18.1616516113281,18.1618785858154,18.1621055603027,18.16233253479,18.1625576019287,18.1627864837646,18.1630115509033,18.1632385253906,18.1634635925293,18.1636905670166,18.1639175415039,18.1641445159912,18.1643714904785,18.1645984649658,18.1648254394531,18.1650524139404,18.1652774810791,18.1655044555664,18.1657314300537,18.165958404541,18.1661853790283,18.1664123535156,18.1666393280029,18.1668663024902,18.1670913696289,18.1673183441162,18.1675453186035,18.1677722930908,18.1680011749268,18.1682262420654,18.1684551239014,18.1686782836914,18.1689071655273,18.1691341400146,18.169361114502,18.1695880889893,18.1698150634766,18.1700401306152,18.1702671051025,18.1704940795898,18.1707229614258,18.1709480285645,18.1711750030518,18.1714019775391,18.1716289520264,18.1718559265137,18.172082901001,18.1723098754883,18.1725368499756,18.1727638244629,18.1729927062988,18.1732177734375,18.1734447479248,18.1736717224121,18.1738986968994,18.1741256713867,18.174352645874,18.1745796203613,18.1748065948486,18.1750335693359,18.1752605438232,18.1754875183105,18.1757125854492,18.1759414672852,18.1761684417725,18.1763973236084,18.1766204833984,18.1768493652344,18.1770763397217,18.177303314209,18.1775302886963,18.1777572631836,18.1779861450195,18.1782112121582,18.1784381866455,18.1786670684814,18.1788940429688,18.1791191101074,18.1793479919434,18.1795749664307,18.179801940918,18.1800289154053,18.1802558898926,18.1804828643799,18.1807098388672,18.1809368133545,18.1811637878418,18.1813907623291,18.1816177368164,18.1818447113037,18.1820735931396,18.1822986602783,18.1825275421143,18.1827545166016,18.1829814910889,18.1832084655762,18.1834354400635,18.1836624145508,18.1838912963867,18.184118270874,18.1843452453613,18.1845722198486,18.1847991943359,18.1850280761719,18.1852531433105,18.1854820251465,18.1857070922852,18.1859359741211,18.1861629486084,18.1863899230957,18.186616897583,18.1868438720703,18.1870708465576,18.1872997283936,18.1875267028809,18.1877536773682,18.1879806518555,18.1882076263428,18.1884346008301,18.188663482666,18.1888904571533,18.1891174316406,18.1893444061279,18.1895732879639,18.1898002624512,18.1900272369385,18.1902542114258,18.1904830932617,18.190710067749,18.1909370422363,18.1911640167236,18.1913928985596
3.00439238548279,3.01134753227234,3.01833510398865,3.02535510063171,3.0324079990387,3.03949356079102,3.04661250114441,3.05376482009888,3.060950756073,3.06817078590393,3.0754246711731,3.08271312713623,3.09003615379333,3.09739422798157,3.10478711128235,3.11221551895142,3.11967968940735,3.12717962265015,3.13471579551697,3.14228820800781,3.14989733695984,3.15754342079163,3.16522669792175,3.17294764518738,3.1807062625885,3.1885027885437,3.19633769989014,3.20421123504639,3.21212363243103,3.22007513046265,3.22806620597839,3.23609709739685,3.24416780471802,3.25227904319763,3.26043105125427,3.26862382888794,3.27685785293579,3.28513360023499,3.2934513092041,3.30181121826172,3.31021356582642,3.31865882873535,3.3271472454071,3.33567929267883,3.34425520896912,3.35287523269653,3.36153984069824,3.3702495098114,3.37900424003601,3.38780474662781,3.39665102958679,3.40554356575012,3.41448307037354,3.42346930503845,3.43250322341919,3.44158482551575,3.45072340965271,3.45991563796997,3.46915698051453,3.47844791412354,3.48778867721558,3.49717974662781,3.50662159919739,3.5161144733429,3.52565884590149,3.53525519371033,3.54490399360657,3.55460572242737,3.56436061859131,3.57416915893555,3.58403158187866,3.59394884109497,3.60392117500305,3.61394906044006,3.62403273582458,3.63417291641235,3.64437007904053,3.65462446212769,3.66493678092957,3.67530751228333,3.68573689460754,3.69622588157654,3.70677471160889,3.71738386154175,3.72805380821228,3.73878526687622,3.74957871437073,3.76043462753296,3.77135372161865,3.78233623504639,3.7933828830719,3.80449438095093,3.81567120552063,3.82691383361816,3.83822298049927,3.84959888458252,3.86104273796082,3.87255454063416,3.88413548469543,3.89578580856323,3.90750598907471,3.91929721832275,3.93115973472595,3.94309425354004,3.95510149002075,3.96718192100525,3.97933650016785,3.99156594276428,4.00387048721313,4.01625108718872,4.02870893478394,4.04124402999878,4.05385732650757,4.06654977798462,4.07932186126709,4.0921745300293,4.1051082611084,4.11812400817871,4.13122272491455,4.14440488815308,4.15844106674194,4.17319583892822,4.18805599212646,4.20302200317383,4.21809530258179,4.23327732086182,4.24856901168823,4.26397132873535,4.27948617935181,4.29511404037476,4.31085681915283,4.32671499252319,4.34269046783447,4.35878419876099,4.37499761581421,4.39133214950562,4.40717363357544,4.42235279083252,4.43763732910156,4.45302772521973,4.46852540969849,4.484130859375,4.4998459815979,4.5156717300415,4.53160905838013,4.54765892028809,4.56382369995117,4.58010292053223,4.5964994430542,4.61301326751709,4.62964630126953,4.646399974823,4.66327524185181,4.68027353286743,4.69739580154419,4.71464443206787,4.73201990127563,4.74952363967896,4.76715803146362,4.78492498397827,4.80282354354858,4.82085657119751,4.83902502059937,4.85733127593994,4.87577676773071,4.89436292648315,4.91309118270874,4.93196296691895,4.95098066329956,4.97014570236206,4.98945951461792,5.00892400741577,5.02854061126709,5.04831218719482,5.06823921203613,5.08832454681396,17.9524536132812,17.9526748657227,17.9528961181641,17.9531192779541,17.9533405303955,17.9535636901855,17.953784942627,17.9540061950684,17.9542293548584,17.9544525146484,17.9546718597412,17.9548950195312,17.9551162719727,17.9553375244141,17.9555606842041,17.9557819366455,17.9560050964355,17.9562244415283,17.9564476013184,17.9566707611084,17.9568920135498,17.9571132659912,17.9573345184326,17.957555770874,17.9577789306641,17.9580001831055,17.9582214355469,17.9584426879883,17.9586639404297,17.9588851928711,17.9591064453125,17.9593276977539,17.9595508575439,17.9597721099854,17.9599933624268,17.9602146148682,17.9604377746582,17.9606590270996,17.960880279541,17.9611015319824,17.9613246917725,17.9615459442139,17.9617671966553,17.9619884490967,17.9622116088867,17.9624328613281,17.9626541137695,17.9628753662109,17.9630966186523,17.9633197784424,17.9635410308838,17.9637641906738,17.9639835357666,17.9642066955566,17.964427947998,17.9646492004395,17.9648723602295,17.9650936126709,17.9653148651123,17.9655380249023,17.9657592773438,17.9659805297852,17.9662036895752,17.966423034668,17.966646194458,17.9668674468994,17.9670906066895,17.9673118591309,17.9675331115723,17.9677543640137,17.9679775238037,17.9681987762451,17.9684219360352,17.9686431884766,17.968864440918,17.9690856933594,17.9693069458008,17.9695301055908,17.9697532653809,17.9699745178223,17.9701957702637,17.9704170227051,17.9706401824951,17.9708614349365,17.9710826873779,17.971305847168,17.9715270996094,17.9717502593994,17.9719715118408,17.9721927642822,17.9724159240723,17.9726371765137,17.9728584289551,17.9730815887451,17.9733028411865,17.9735260009766,17.973747253418,17.9739685058594,17.9741916656494,17.9744129180908,17.9746341705322,17.9748573303223,17.9750785827637,17.9753017425537,17.9755210876465,17.9757442474365,17.9759674072266,17.976188659668,17.976411819458,17.9766330718994,17.9768562316895,17.9770774841309,17.9772987365723,17.9775218963623,17.9777431488037,17.9779663085938,17.9781875610352,17.9784107208252,17.9786319732666,17.978853225708,17.979076385498,17.9792976379395,17.9795207977295,17.9797420501709,17.9799652099609,17.9801864624023,17.9804096221924,17.9806308746338,17.9808540344238,17.9810752868652,17.9812965393066,17.9815216064453,17.9817428588867,17.9819660186768,17.9821872711182,17.9824104309082,17.982629776001,17.982852935791,17.9830760955811,17.9832973480225,17.9835205078125,17.9837417602539,17.9839630126953,17.9841861724854,17.9844093322754,17.9846305847168,17.9848537445068,17.9850749969482,17.9852981567383,17.9855194091797,17.9857425689697,17.9859638214111,17.9861850738525,17.9864082336426,17.9866313934326,17.9868545532227,17.9870758056641,17.9872989654541,17.9875202178955,17.9877433776855,17.9879665374756,17.988187789917,17.988410949707,17.9886322021484,17.9888553619385,17.9890766143799,17.9892997741699,17.9895210266113,17.98974609375,17.9899654388428,17.9901885986328,17.9904098510742,17.9906349182129,17.9908542633057,17.9910793304443,17.9913005828857,17.9915237426758,17.9917469024658,17.9919681549072,17.9921913146973,17.9924125671387,17.9926357269287,17.9928588867188,17.9930801391602,17.9933032989502,17.9935264587402,17.9937477111816,17.9939708709717,17.9941921234131,17.9944152832031,17.9946384429932,17.9948616027832,17.9950828552246,17.995304107666,17.9955272674561,17.9957504272461,17.9959735870361,17.9961967468262,17.9964179992676,17.9966411590576,17.9968643188477,17.9970855712891,17.9973087310791,17.9975318908691,17.9977531433105,17.9979763031006,17.9981994628906,17.998420715332,17.9986457824707,17.9988670349121,17.9990901947021,17.9993114471436,17.9995346069336,17.9997577667236,17.999979019165,18.0002021789551,18.0004253387451,18.0006484985352,18.0008697509766,18.0010929107666,18.0013160705566,18.001537322998,18.0017604827881,18.0019836425781,18.0022068023682,18.0024299621582,18.0026512145996,18.0028762817383,18.0030956268311,18.0033206939697,18.0035419464111,18.0037651062012,18.0039882659912,18.0042114257812,18.0044326782227,18.0046558380127,18.0048789978027,18.0051021575928,18.0053234100342,18.0055465698242,18.0057697296143,18.0059928894043,18.0062160491943,18.0064392089844,18.0066604614258,18.0068836212158,18.0071048736572,18.0073299407959,18.0075531005859,18.007776260376,18.0079975128174,18.0082206726074,18.0084438323975,18.0086669921875,18.0088901519775,18.0091114044189,18.009334564209,18.009557723999,18.0097808837891,18.0100021362305,18.0102272033691,18.0104484558105,18.0106735229492,18.0108947753906,18.0111179351807,18.0113410949707,18.0115623474121,18.0117874145508,18.0120105743408,18.0122318267822,18.0124549865723,18.0126800537109,18.012903213501,18.0131244659424,18.0133476257324,18.0135707855225,18.0137939453125,18.0140171051025,18.0142402648926,18.0144634246826,18.0146865844727,18.0149078369141,18.0151309967041,18.0153560638428,18.0155773162842,18.0158023834229,18.0160236358643,18.0162467956543,18.0164699554443,18.0166931152344,18.0169162750244,18.0171394348145,18.0173625946045,18.0175857543945,18.0178089141846,18.018030166626,18.0182552337646,18.0184783935547,18.0186996459961,18.0189228057861,18.0191478729248,18.0193691253662,18.0195922851562,18.0198154449463,18.0200386047363,18.0202617645264,18.0204849243164,18.0207099914551,18.0209312438965,18.0211544036865,18.0213775634766,18.0216007232666,18.0218238830566,18.0220470428467,18.0222702026367,18.0224933624268,18.0227184295654,18.0229396820068,18.0231647491455,18.0233879089355,18.023609161377,18.0238342285156,18.024055480957,18.0242805480957,18.0245037078857,18.0247268676758,18.0249500274658,18.0251731872559,18.0253963470459,18.0256195068359,18.025842666626,18.026065826416,18.0262889862061,18.0265121459961,18.0267353057861,18.0269584655762,18.0271816253662,18.0274047851562
2.99803352355957,3.00495934486389,3.01191735267639,3.01890730857849,3.02593016624451,3.03298544883728,3.04007387161255,3.04719567298889,3.05435061454773,3.0615394115448,3.0687620639801,3.0760190486908,3.0833101272583,3.09063601493835,3.09799695014954,3.10539269447327,3.11282396316528,3.12029099464417,3.12779402732849,3.13533306121826,3.14290857315063,3.15052056312561,3.15816974639893,3.16585612297058,3.17357993125916,3.18134164810181,3.18914151191711,3.19697952270508,3.20485615730286,3.21277165412903,3.22072649002075,3.22872090339661,3.23675489425659,3.24482893943787,3.25294351577759,3.26109886169434,3.26929497718811,3.27753257751465,3.28581166267395,3.29413270950317,3.3024959564209,3.31090188026428,3.3193507194519,3.32784271240234,3.33637833595276,3.34495782852173,3.35358142852783,3.36224985122681,3.37096285820007,3.37972140312195,3.38852572441101,3.39737582206726,3.40627217292786,3.41521549224854,3.4242057800293,3.4332435131073,3.44232892990112,3.4514627456665,3.46065354347229,3.46989893913269,3.47919368743896,3.48853850364685,3.49793362617493,3.50737953186035,3.5168764591217,3.52642512321472,3.53602576255798,3.54567861557007,3.55538463592529,3.56514358520508,3.57495641708374,3.58482360839844,3.59474515914917,3.60472178459167,3.61475396156311,3.62484240531921,3.63498687744141,3.64518857002258,3.65544772148132,3.66576457023621,3.67614006996155,3.68657422065735,3.69706797599792,3.70762157440186,3.7182354927063,3.72891044616699,3.73964691162109,3.75044536590576,3.76130628585815,3.77223038673401,3.78321814537048,3.79427003860474,3.80538654327393,3.81656861305237,3.82781648635864,3.83913087844849,3.85051250457764,3.86196160316467,3.87347912788391,3.88506531715393,3.89672112464905,3.908447265625,3.92024421691895,3.93211221694946,3.94405269622803,3.95606565475464,3.96815204620361,3.98031258583069,3.9925479888916,4.00485849380493,4.01724576950073,4.02970933914185,4.04225063323975,4.05487060546875,4.06756925582886,4.08034753799438,4.09320640563965,4.10614681243896,4.11916923522949,4.13227462768555,4.14546346664429,4.15884017944336,4.17359781265259,4.18846035003662,4.20342922210693,4.218505859375,4.23369073867798,4.24898529052734,4.26439094543457,4.27990865707397,4.29553985595703,4.31128549575806,4.32714653015137,4.34312534332275,4.35922241210938,4.37543916702271,4.39177703857422,4.40823745727539,4.42373466491699,4.4390287399292,4.45442867279053,4.46993589401245,4.48555135726929,4.50127649307251,4.51711225509644,4.53305959701538,4.54912042617798,4.56529474258423,4.58158493041992,4.59799194335938,4.6145167350769,4.63116073608398,4.64792537689209,4.66481161117554,4.6818208694458,4.69895458221436,4.71621465682983,4.73360157012939,4.75111722946167,4.76876306533813,4.78654050827026,4.80445289611816,4.8224983215332,4.84067916870117,4.85899829864502,4.8774561882019,4.89605522155762,4.91479635238647,4.93368148803711,4.95271253585815,4.97189044952393,4.99121809005737,5.01069641113281,5.03032732009888,5.05011224746704,5.07005405426025,5.09015369415283,5.11041355133057,17.7931632995605,17.7933826446533,17.7935981750488,17.7938175201416,17.7940349578857,17.7942543029785,17.7944717407227,17.7946891784668,17.7949066162109,17.7951259613037,17.7953433990479,17.795560836792,17.7957782745361,17.7959976196289,17.796215057373,17.7964344024658,17.79665184021,17.7968692779541,17.7970867156982,17.797306060791,17.7975234985352,17.7977409362793,17.7979583740234,17.7981758117676,17.7983932495117,17.7986125946045,17.798828125,17.7990474700928,17.7992649078369,17.7994823455811,17.7996997833252,17.7999172210693,17.8001365661621,17.8003520965576,17.8005714416504,17.8007888793945,17.8010063171387,17.8012237548828,17.801441192627,17.8016586303711,17.8018779754639,17.802095413208,17.8023128509521,17.8025302886963,17.8027477264404,17.8029670715332,17.8031826019287,17.8034019470215,17.8036193847656,17.8038368225098,17.8040542602539,17.8042736053467,17.8044910430908,17.804708480835,17.8049259185791,17.8051452636719,17.805362701416,17.8055801391602,17.8057975769043,17.8060150146484,17.8062343597412,17.8064517974854,17.8066692352295,17.8068866729736,17.8071041107178,17.8073234558105,17.8075408935547,17.8077583312988,17.807975769043,17.8081951141357,17.8084125518799,17.808629989624,17.8088493347168,17.8090648651123,17.8092842102051,17.8095035552979,17.809720993042,17.8099384307861,17.8101558685303,17.8103733062744,17.8105926513672,17.8108100891113,17.8110275268555,17.8112449645996,17.8114643096924,17.8116817474365,17.8118991851807,17.8121166229248,17.8123359680176,17.8125534057617,17.8127708435059,17.8129901885986,17.8132076263428,17.8134250640869,17.8136444091797,17.8138618469238,17.8140811920166,17.8142986297607,17.8145160675049,17.814733505249,17.8149509429932,17.8151702880859,17.8153896331787,17.8156070709229,17.815824508667,17.8160438537598,17.8162612915039,17.816478729248,17.8166961669922,17.816915512085,17.8171329498291,17.8173522949219,17.817569732666,17.8177890777588,17.8180065155029,17.8182239532471,17.8184413909912,17.818660736084,17.8188781738281,17.8190956115723,17.819314956665,17.8195323944092,17.819751739502,17.8199691772461,17.8201885223389,17.820405960083,17.8206253051758,17.8208427429199,17.8210620880127,17.8212795257568,17.821496963501,17.8217163085938,17.8219337463379,17.8221530914307,17.8223705291748,17.8225879669189,17.8228073120117,17.8230247497559,17.8232440948486,17.8234615325928,17.8236808776855,17.8238983154297,17.8241176605225,17.824333190918,17.8245544433594,17.8247718811035,17.8249893188477,17.8252086639404,17.8254261016846,17.8256454467773,17.8258628845215,17.8260822296143,17.8262996673584,17.8265190124512,17.8267364501953,17.8269557952881,17.8271732330322,17.827392578125,17.8276100158691,17.8278293609619,17.8280467987061,17.8282642364502,17.828483581543,17.8287010192871,17.8289203643799,17.8291397094727,17.8293571472168,17.8295745849609,17.8297958374023,17.8300132751465,17.8302326202393,17.8304500579834,17.8306694030762,17.8308868408203,17.8311061859131,17.8313236236572,17.8315410614014,17.8317604064941,17.8319797515869,17.8321971893311,17.8324165344238,17.832633972168,17.8328552246094,17.8330726623535,17.8332901000977,17.8335075378418,17.8337268829346,17.8339443206787,17.8341655731201,17.8343830108643,17.834602355957,17.8348217010498,17.8350391387939,17.8352565765381,17.8354759216309,17.8356952667236,17.8359127044678,17.8361320495605,17.8363494873047,17.8365688323975,17.8367862701416,17.837007522583,17.8372249603271,17.8374443054199,17.8376617431641,17.8378791809082,17.838098526001,17.8383178710938,17.8385372161865,17.8387546539307,17.8389739990234,17.8391914367676,17.8394107818604,17.8396301269531,17.8398494720459,17.84006690979,17.8402862548828,17.8405055999756,17.8407230377197,17.8409423828125,17.8411617279053,17.8413791656494,17.8415985107422,17.841817855835,17.8420352935791,17.8422546386719,17.8424739837646,17.8426914215088,17.8429107666016,17.8431282043457,17.8433494567871,17.8435668945312,17.843786239624,17.8440036773682,17.8442230224609,17.8444423675537,17.8446617126465,17.8448791503906,17.8450984954834,17.8453197479248,17.8455371856689,17.8457565307617,17.8459739685059,17.8461933135986,17.8464107513428,17.8466300964355,17.8468494415283,17.8470687866211,17.8472881317139,17.847505569458,17.8477249145508,17.8479423522949,17.8481616973877,17.8483810424805,17.8486003875732,17.8488178253174,17.8490371704102,17.8492565155029,17.8494758605957,17.8496952056885,17.8499126434326,17.850133895874,17.8503532409668,17.8505706787109,17.8507900238037,17.8510093688965,17.8512268066406,17.8514461517334,17.8516654968262,17.8518848419189,17.8521041870117,17.8523235321045,17.8525409698486,17.8527603149414,17.8529796600342,17.853199005127,17.8534183502197,17.8536357879639,17.8538570404053,17.8540744781494,17.8542938232422,17.854513168335,17.8547306060791,17.8549518585205,17.8551712036133,17.8553905487061,17.8556079864502,17.855827331543,17.8560466766357,17.8562660217285,17.8564853668213,17.8567047119141,17.8569240570068,17.8571434020996,17.8573608398438,17.8575801849365,17.8577995300293,17.8580169677734,17.8582382202148,17.8584575653076,17.8586769104004,17.8588962554932,17.8591136932373,17.8593330383301,17.8595523834229,17.8597717285156,17.8599910736084,17.8602104187012,17.8604297637939,17.8606491088867,17.8608684539795,17.8610877990723,17.861307144165,17.8615264892578,17.8617458343506,17.8619632720947,17.8621826171875,17.8624019622803,17.862621307373,17.8628406524658,17.8630599975586,17.8632793426514,17.8634986877441,17.8637180328369,17.8639373779297,17.8641567230225,17.8643760681152,17.864595413208,17.8648147583008,17.8650341033936,17.8652515411377,17.8654727935791,17.8656921386719,17.8659114837646,17.8661308288574,17.8663501739502
2.99170160293579,2.99859809875488,3.00552654266357,3.01248717308044,3.01947999000549,3.0265052318573,3.03356337547302,3.04065442085266,3.04777884483337,3.05493664741516,3.06212830543518,3.06935358047485,3.07661318778992,3.08390736579895,3.09123611450195,3.0985996723175,3.10599851608276,3.11343264579773,3.12090277671814,3.12840843200684,3.13595056533813,3.14352893829346,3.15114426612854,3.1587963104248,3.16648578643799,3.17421269416809,3.18197751045227,3.18978023529053,3.1976215839386,3.20550131797791,3.21342015266418,3.22137808799744,3.22937560081482,3.23741292953491,3.24549055099487,3.25360822677612,3.26176691055298,3.26996636390686,3.27820730209351,3.28648996353149,3.29481434822083,3.30318117141724,3.31159043312073,3.32004284858704,3.32853841781616,3.33707761764526,3.34566068649292,3.35428786277771,3.36295986175537,3.37167692184448,3.38043904304504,3.38924694061279,3.39810085296631,3.40700101852417,3.41594815254211,3.42494225502014,3.43398380279541,3.44307327270508,3.4522111415863,3.46139740943909,3.47064113616943,3.47993993759155,3.48928880691528,3.49868774414062,3.50813770294189,3.51763892173767,3.52719163894653,3.53679633140564,3.54645371437073,3.5561637878418,3.56592702865601,3.57574415206909,3.58561563491821,3.59554171562195,3.60552287101746,3.61555957794189,3.62565231323242,3.6358015537262,3.64600777626038,3.65627145767212,3.66659307479858,3.67697310447693,3.68741202354431,3.69791054725647,3.70846891403198,3.71908783912659,3.72976756095886,3.74050903320312,3.75131249427795,3.76217842102051,3.77310752868652,3.78410029411316,3.79515743255615,3.80627942085266,3.81746649742126,3.82871985435486,3.84003949165344,3.85142636299133,3.86288094520569,3.87440395355225,3.88599586486816,3.8976571559906,3.90938901901245,3.92119145393372,3.93306541442871,3.94501137733459,3.95703029632568,3.96912288665771,3.98128938674927,3.99353051185608,4.00584745407104,4.01824045181274,4.03071022033691,4.04325771331787,4.05588388442993,4.06858921051025,4.08137369155884,4.09423923492432,4.10718631744385,4.12021541595459,4.1333270072937,4.14652299880981,4.15980291366577,4.17399930953979,4.18886518478394,4.2038369178772,4.21891641616821,4.23410415649414,4.24940204620361,4.26481056213379,4.28033113479614,4.29596519470215,4.31171417236328,4.3275785446167,4.34356021881104,4.35966062545776,4.3758807182312,4.39222192764282,4.4086856842041,4.42511701583862,4.44042062759399,4.45583009719849,4.47134733200073,4.48697280883789,4.50270795822144,4.51855373382568,4.53451108932495,4.55058240890503,4.56676721572876,4.58306789398193,4.59948539733887,4.61602115631104,4.63267612457275,4.64945125579834,4.66634893417358,4.68336963653564,4.700514793396,4.71778583526611,4.73518466949463,4.75271224975586,4.77037000656128,4.78815937042236,4.80608177185059,4.82414102554321,4.84233474731445,4.86066579818726,4.87913656234741,4.8977484703064,4.91650247573853,4.93540096282959,4.95444536209106,4.97363662719727,4.99297761917114,5.01246976852417,5.03211450576782,5.05191421508789,5.07186985015869,5.09198379516602,5.11225843429565,5.13269472122192,17.6366748809814,17.6368885040283,17.6371040344238,17.6373176574707,17.6375312805176,17.6377449035645,17.6379585266113,17.6381740570068,17.6383895874023,17.6386013031006,17.6388168334961,17.639030456543,17.6392459869385,17.6394596099854,17.6396732330322,17.6398868560791,17.640100479126,17.6403160095215,17.6405296325684,17.6407432556152,17.6409587860107,17.6411724090576,17.6413879394531,17.6415996551514,17.6418132781982,17.6420288085938,17.6422424316406,17.6424541473389,17.6426696777344,17.6428833007812,17.6430969238281,17.643310546875,17.6435241699219,17.6437397003174,17.6439533233643,17.6441669464111,17.644380569458,17.6445941925049,17.6448078155518,17.6450233459473,17.6452350616455,17.6454486846924,17.6456642150879,17.6458778381348,17.6460933685303,17.6463069915771,17.646520614624,17.6467342376709,17.6469478607178,17.6471614837646,17.6473770141602,17.6475887298584,17.6478042602539,17.6480178833008,17.6482334136963,17.6484470367432,17.64866065979,17.6488742828369,17.6490879058838,17.6493015289307,17.6495151519775,17.649730682373,17.6499443054199,17.6501579284668,17.6503715515137,17.6505870819092,17.6508026123047,17.6510162353516,17.6512298583984,17.6514434814453,17.6516571044922,17.6518707275391,17.6520862579346,17.6522998809814,17.6525135040283,17.6527271270752,17.6529426574707,17.6531562805176,17.6533699035645,17.6535835266113,17.6537990570068,17.6540126800537,17.6542263031006,17.6544418334961,17.6546535491943,17.6548690795898,17.6550827026367,17.6552982330322,17.6555137634277,17.655725479126,17.6559410095215,17.6561546325684,17.6563682556152,17.6565837860107,17.6567974090576,17.6570110321045,17.6572265625,17.6574401855469,17.6576538085938,17.6578693389893,17.6580829620361,17.658296585083,17.6585121154785,17.6587257385254,17.6589393615723,17.6591529846191,17.659366607666,17.6595821380615,17.659797668457,17.6600093841553,17.6602249145508,17.6604404449463,17.6606540679932,17.6608695983887,17.6610832214355,17.6612968444824,17.6615123748779,17.6617259979248,17.6619396209717,17.6621551513672,17.6623687744141,17.6625823974609,17.6627979278564,17.6630115509033,17.6632270812988,17.6634426116943,17.6636543273926,17.6638698577881,17.664083480835,17.6642990112305,17.6645126342773,17.6647281646729,17.6649417877197,17.6651554107666,17.6653690338135,17.665584564209,17.6658000946045,17.6660137176514,17.6662292480469,17.6664409637451,17.6666564941406,17.6668720245361,17.667085647583,17.6673011779785,17.6675148010254,17.6677303314209,17.6679439544678,17.6681575775146,17.6683731079102,17.668586730957,17.6688022613525,17.6690158843994,17.6692314147949,17.6694450378418,17.6696605682373,17.6698741912842,17.6700897216797,17.6703033447266,17.6705188751221,17.6707324981689,17.6709480285645,17.6711616516113,17.6713771820068,17.6715927124023,17.6718063354492,17.6720199584961,17.6722354888916,17.6724491119385,17.672664642334,17.6728782653809,17.6730918884277,17.6733093261719,17.6735210418701,17.6737365722656,17.6739521026611,17.6741676330566,17.6743812561035,17.674596786499,17.6748104095459,17.6750259399414,17.6752395629883,17.6754531860352,17.6756706237793,17.6758823394775,17.6760997772217,17.6763134002686,17.6765289306641,17.6767425537109,17.6769580841064,17.6771717071533,17.6773872375488,17.6776008605957,17.6778163909912,17.6780319213867,17.6782455444336,17.6784610748291,17.678674697876,17.6788883209229,17.679105758667,17.6793193817139,17.6795349121094,17.6797485351562,17.6799640655518,17.6801776885986,17.6803932189941,17.6806087493896,17.6808223724365,17.6810398101807,17.6812534332275,17.6814670562744,17.6816825866699,17.6818981170654,17.6821117401123,17.6823272705078,17.6825408935547,17.6827564239502,17.6829700469971,17.6831855773926,17.6834030151367,17.6836166381836,17.6838302612305,17.684045791626,17.6842613220215,17.684476852417,17.6846904754639,17.6849060058594,17.6851196289062,17.6853351593018,17.6855506896973,17.6857643127441,17.6859798431396,17.6861953735352,17.6864109039307,17.6866245269775,17.686840057373,17.6870555877686,17.6872692108154,17.6874847412109,17.6877002716064,17.6879138946533,17.6881313323975,17.6883430480957,17.6885604858398,17.6887741088867,17.6889896392822,17.6892032623291,17.6894187927246,17.6896343231201,17.6898498535156,17.6900634765625,17.690279006958,17.6904945373535,17.690710067749,17.6909255981445,17.6911392211914,17.6913547515869,17.6915702819824,17.6917858123779,17.6920013427734,17.6922149658203,17.6924304962158,17.6926460266113,17.6928615570068,17.6930751800537,17.6932907104492,17.6935062408447,17.6937217712402,17.6939373016357,17.6941509246826,17.6943664550781,17.6945819854736,17.6947956085205,17.695011138916,17.6952266693115,17.695442199707,17.6956577301025,17.695873260498,17.6960868835449,17.6963043212891,17.6965179443359,17.6967334747314,17.696949005127,17.6971626281738,17.697380065918,17.6975936889648,17.6978092193604,17.6980247497559,17.6982383728027,17.6984558105469,17.6986713409424,17.6988849639893,17.6991004943848,17.6993160247803,17.6995296478271,17.6997470855713,17.6999626159668,17.7001781463623,17.7003917694092,17.7006072998047,17.7008228302002,17.7010383605957,17.7012538909912,17.7014675140381,17.7016849517822,17.7018985748291,17.7021160125732,17.7023296356201,17.7025451660156,17.7027606964111,17.7029762268066,17.7031917572021,17.7034072875977,17.7036228179932,17.70383644104,17.7040519714355,17.7042694091797,17.7044849395752,17.7046985626221,17.7049140930176,17.7051296234131,17.7053451538086,17.7055606842041,17.7057762145996,17.7059917449951,17.7062072753906,17.7064228057861,17.7066383361816,17.7068538665771,17.7070693969727,17.7072849273682,17.7075004577637,17.7077159881592,17.7079315185547,17.7081451416016
2.98539638519287,2.99226379394531,2.99916291236877,3.00609397888184,3.01305723190308,3.0200526714325,3.02708077430725,3.03414154052734,3.04123520851135,3.04836249351501,3.05552291870117,3.06271719932556,3.06994557380676,3.0772078037262,3.08450484275818,3.09183645248413,3.09920287132263,3.10660457611084,3.11404156684875,3.12151455879211,3.12902331352234,3.13656830787659,3.14414978027344,3.15176796913147,3.15942311286926,3.16711568832397,3.17484569549561,3.18261361122131,3.1904194355011,3.1982638835907,3.20614695549011,3.21406888961792,3.22203016281128,3.23003077507019,3.23807144165039,3.24615216255188,3.25427317619324,3.2624351978302,3.27063822746277,3.27888250350952,3.28716826438904,3.29549622535706,3.30386662483215,3.31227946281433,3.32073521614075,3.32923436164856,3.33777713775635,3.34636378288269,3.35499477386475,3.36367034912109,3.37239098548889,3.38115692138672,3.38996839523315,3.39882612228394,3.40773034095764,3.41668105125427,3.42567920684814,3.43472456932068,3.44381809234619,3.45295977592468,3.46215009689331,3.47138953208923,3.48068642616272,3.49003911018372,3.49944233894348,3.5088963508606,3.51840162277222,3.5279586315155,3.53756737709045,3.54722881317139,3.55694317817688,3.56671094894409,3.5765323638916,3.58640813827515,3.59633851051331,3.60632419586182,3.61636519432068,3.62646245956421,3.63661623001099,3.64682698249817,3.65709543228149,3.66742157936096,3.67780637741089,3.68825030326843,3.69875335693359,3.70931673049927,3.71994042396545,3.73062515258789,3.74137139320374,3.75217986106873,3.76305079460144,3.7739851474762,3.78498291969299,3.79604530334473,3.8071722984314,3.81836485862732,3.82962322235107,3.84094858169556,3.85234069824219,3.86380076408386,3.87532925605774,3.88692665100098,3.89859366416931,3.91033101081848,3.92213916778564,3.93401908874512,3.9459707736969,3.95799565315247,3.9700939655304,3.98226642608643,3.99451375007629,4.00683641433716,4.01923561096191,4.0317120552063,4.04426574707031,4.05689811706543,4.06960916519165,4.08240079879761,4.09527254104614,4.10822629928589,4.12126159667969,4.13438034057617,4.14758253097534,4.16086959838867,4.17440128326416,4.18927001953125,4.20424461364746,4.21932697296143,4.2345175743103,4.24981832504272,4.26523017883301,4.28075361251831,4.29639101028442,4.31214284896851,4.32801055908203,4.34399557113647,4.36009931564331,4.37632274627686,4.39266729354858,4.40913438796997,4.42572546005249,4.44181346893311,4.45723295211792,4.47275972366333,4.48839521408081,4.50413990020752,4.51999616622925,4.535964012146,4.55204486846924,4.56824064254761,4.58455181121826,4.60097980499268,4.61752653121948,4.63419198989868,4.65097856521606,4.66788721084595,4.68491888046265,4.70207548141479,4.71935844421387,4.73676872253418,4.75430774688721,4.77197742462158,4.78977918624878,4.80771350860596,4.82578325271606,4.84399080276489,4.86233520507812,4.88081836700439,4.89944267272949,4.91821002960205,4.93712139129639,4.95617914199829,4.97538423538208,4.99473905563354,5.014244556427,5.0339035987854,5.05371713638306,5.0736870765686,5.09381580352783,5.11410427093506,5.13455533981323,17.4827041625977,17.4829158782959,17.4831256866455,17.4833374023438,17.4835453033447,17.483757019043,17.4839668273926,17.4841766357422,17.4843883514404,17.48459815979,17.4848079681396,17.4850196838379,17.4852294921875,17.4854393005371,17.4856510162354,17.485860824585,17.4860706329346,17.4862823486328,17.4864940643311,17.486701965332,17.4869136810303,17.4871253967285,17.4873332977295,17.4875450134277,17.4877548217773,17.487964630127,17.4881744384766,17.4883861541748,17.4885959625244,17.488805770874,17.4890155792236,17.4892253875732,17.4894371032715,17.4896469116211,17.4898586273193,17.4900665283203,17.4902782440186,17.4904880523682,17.4906978607178,17.4909076690674,17.491117477417,17.4913272857666,17.4915390014648,17.4917488098145,17.4919586181641,17.4921684265137,17.4923801422119,17.4925899505615,17.4927997589111,17.4930095672607,17.493221282959,17.4934310913086,17.4936408996582,17.4938507080078,17.4940624237061,17.4942722320557,17.4944839477539,17.4946918487549,17.4949035644531,17.4951133728027,17.4953231811523,17.4955348968506,17.4957447052002,17.4959564208984,17.4961643218994,17.4963760375977,17.4965858459473,17.4967975616455,17.4970054626465,17.4972171783447,17.4974250793457,17.4976367950439,17.4978466033936,17.4980583190918,17.49827003479,17.4984798431396,17.4986896514893,17.4988994598389,17.4991092681885,17.4993209838867,17.499532699585,17.4997406005859,17.4999523162842,17.5001621246338,17.500373840332,17.5005836486816,17.5007934570312,17.5010032653809,17.5012149810791,17.5014247894287,17.501636505127,17.5018463134766,17.5020561218262,17.5022659301758,17.502477645874,17.5026874542236,17.5028991699219,17.5031089782715,17.5033187866211,17.5035305023193,17.5037422180176,17.5039520263672,17.5041618347168,17.504373550415,17.504581451416,17.5047931671143,17.5050029754639,17.5052146911621,17.5054244995117,17.50563621521,17.5058460235596,17.5060577392578,17.5062675476074,17.506477355957,17.5066871643066,17.5068988800049,17.5071105957031,17.5073204040527,17.5075302124023,17.5077419281006,17.5079517364502,17.5081615447998,17.5083713531494,17.5085830688477,17.5087947845459,17.5090045928955,17.5092144012451,17.5094261169434,17.5096378326416,17.5098476409912,17.5100574493408,17.5102691650391,17.5104789733887,17.5106906890869,17.5109024047852,17.5111122131348,17.511323928833,17.511531829834,17.5117454528809,17.5119552612305,17.5121650695801,17.5123748779297,17.5125865936279,17.5127964019775,17.5130081176758,17.5132179260254,17.5134296417236,17.5136413574219,17.5138511657715,17.5140628814697,17.5142726898193,17.5144844055176,17.5146942138672,17.5149059295654,17.515115737915,17.5153274536133,17.5155372619629,17.5157489776611,17.5159606933594,17.516170501709,17.5163822174072,17.5165920257568,17.5168037414551,17.5170135498047,17.5172252655029,17.5174350738525,17.5176467895508,17.517858505249,17.5180683135986,17.5182781219482,17.5184898376465,17.5187015533447,17.5189113616943,17.5191230773926,17.5193347930908,17.5195446014404,17.5197563171387,17.5199661254883,17.5201778411865,17.5203876495361,17.5205993652344,17.520809173584,17.5210208892822,17.5212326049805,17.5214424133301,17.5216522216797,17.5218639373779,17.5220756530762,17.5222873687744,17.522497177124,17.5227088928223,17.5229187011719,17.5231304168701,17.5233421325684,17.523551940918,17.5237636566162,17.5239753723145,17.5241870880127,17.5243968963623,17.5246086120605,17.5248184204102,17.5250301361084,17.525239944458,17.5254516601562,17.5256633758545,17.5258750915527,17.5260848999023,17.5262966156006,17.5265064239502,17.5267181396484,17.5269298553467,17.5271396636963,17.5273513793945,17.5275630950928,17.5277729034424,17.5279865264893,17.5281944274902,17.5284061431885,17.5286178588867,17.528829574585,17.5290412902832,17.5292510986328,17.5294628143311,17.5296745300293,17.5298862457275,17.5300960540771,17.5303077697754,17.5305194854736,17.5307292938232,17.5309391021729,17.5311527252197,17.5313625335693,17.5315742492676,17.5317859649658,17.5319976806641,17.5322074890137,17.5324192047119,17.5326309204102,17.5328426361084,17.533052444458,17.5332641601562,17.5334758758545,17.5336875915527,17.5338973999023,17.5341091156006,17.5343208312988,17.5345325469971,17.5347442626953,17.5349540710449,17.5351657867432,17.5353775024414,17.5355892181396,17.5357990264893,17.5360107421875,17.5362224578857,17.536434173584,17.5366439819336,17.5368576049805,17.5370674133301,17.5372791290283,17.5374889373779,17.5377006530762,17.5379123687744,17.5381259918213,17.5383338928223,17.5385475158691,17.5387573242188,17.538969039917,17.5391826629639,17.5393924713135,17.5396041870117,17.5398139953613,17.5400276184082,17.5402374267578,17.5404491424561,17.5406589508057,17.5408725738525,17.5410842895508,17.541296005249,17.5415058135986,17.5417175292969,17.5419292449951,17.5421409606934,17.5423526763916,17.5425643920898,17.5427761077881,17.5429878234863,17.5431976318359,17.5434093475342,17.5436210632324,17.5438327789307,17.5440444946289,17.5442562103271,17.5444679260254,17.5446796417236,17.5448913574219,17.5451011657715,17.5453128814697,17.545524597168,17.5457363128662,17.5459480285645,17.5461597442627,17.5463714599609,17.5465831756592,17.5467948913574,17.5470066070557,17.5472164154053,17.5474300384521,17.5476398468018,17.5478515625,17.5480632781982,17.5482749938965,17.5484867095947,17.548698425293,17.5489120483398,17.5491218566895,17.5493335723877,17.5495452880859,17.5497570037842,17.5499687194824,17.5501804351807,17.5503921508789,17.5506038665771,17.5508136749268,17.5510272979736,17.5512371063232,17.5514507293701,17.5516624450684,17.5518741607666,17.5520839691162,17.5522975921631,17.5525074005127,17.5527191162109
