2.97832417488098,2.98513603210449,2.99197912216187,2.99885392189026,3.00576019287109,3.01269817352295,3.01966857910156,3.02667117118835,3.0337061882019,3.04077410697937,3.04787516593933,3.05500936508179,3.06217694282532,3.06937837600708,3.07661366462708,3.08388328552246,3.09118723869324,3.09852576255798,3.10589933395386,3.11330795288086,3.12075209617615,3.1282320022583,3.1357479095459,3.14329981803894,3.15088820457458,3.15851354598999,3.16617560386658,3.17387509346008,3.18161201477051,3.18938684463501,3.19719982147217,3.20505094528198,3.21294093132019,3.22086977958679,3.22883796691895,3.23684549331665,3.24489283561707,3.25298047065735,3.2611083984375,3.26927709579468,3.27748680114746,3.28573775291443,3.29403042793274,3.30236506462097,3.31074213981628,3.31916165351868,3.32762408256531,3.33612990379333,3.34467911720276,3.35327243804932,3.36190986633301,3.37059211730957,3.379319190979,3.38809156417847,3.39690971374512,3.40577363967896,3.41468405723572,3.42364144325256,3.43264579772949,3.44169759750366,3.45079731941223,3.45994520187378,3.46914172172546,3.47838735580444,3.4876823425293,3.49702715873718,3.50642228126526,3.51586771011353,3.5253643989563,3.53491258621216,3.54451251029968,3.55416488647461,3.56386971473694,3.57362794876099,3.58343958854675,3.59330534934998,3.60322546958923,3.61320066452026,3.62323117256165,3.63331747055054,3.6434600353241,3.65365958213806,3.66391611099243,3.67423176765442,3.68461990356445,3.69506669044495,3.70557308197021,3.71613931655884,3.72676610946655,3.73745369911194,3.74820280075073,3.75901389122009,3.76988744735718,3.78082418441772,3.79182457923889,3.80288934707642,3.81401872634888,3.82521319389343,3.83647394180298,3.84780097007751,3.85919499397278,3.87065696716309,3.88218712806702,3.89378619194031,3.90545463562012,3.91719341278076,3.9290030002594,3.94088387489319,3.95283675193787,3.96486258506775,3.97696161270142,3.98913478851318,4.00138282775879,4.01370620727539,4.02610540390015,4.03858184814453,4.05113554000854,4.06376791000366,4.07647943496704,4.08927011489868,4.10214185714722,4.11509466171265,4.12812948226929,4.14124727249146,4.15444850921631,4.16773414611816,4.18110513687134,4.19456243515015,4.20810651779175,4.2217378616333,4.23545837402344,4.24926805496216,4.26316833496094,4.27715969085693,4.29124355316162,4.305419921875,4.32009029388428,4.3359375,4.35190153121948,4.36798334121704,4.38418483734131,4.40050649642944,4.41695070266724,4.43351793289185,4.45020961761475,4.46702814102173,4.48397397994995,4.50104856491089,4.51825380325317,4.53559160232544,4.55306243896484,4.57066869735718,4.58841133117676,4.60629224777222,4.62431335449219,4.64247608184814,4.66078186035156,4.67872905731201,4.69577884674072,4.71295356750488,4.73025369644165,4.74768161773682,4.76523876190186,4.78292560577393,4.80074453353882,4.81869697570801,4.83678388595581,4.85500717163086,4.87336826324463,4.89186906814575,4.91051054000854,4.92929458618164,4.94822311401367,4.96729755401611,4.98651933670044,5.00589084625244,5.02541303634644,5.04508829116821,5.06491851806641,5.08490467071533,5.10504961013794,5.1253547668457,5.14582204818726,5.16645336151123,5.18725061416626,5.20821619033813,5.22935199737549,5.25065994262695,5.27214336395264,5.29380321502686,5.31564140319824,5.33766078948975,5.35986328125,5.38225126266479,5.40482711791992,5.42759275436401,5.45055150985718,5.47370529174805,14.7681941986084,14.7682161331177,14.7682399749756,14.7682590484619,14.7682828903198,14.7683048248291,14.7683267593384,14.7683486938477,14.7683725357056,14.7683925628662,14.7684135437012,14.7684373855591,14.768458366394,14.7684812545776,14.7685031890869,14.7685251235962,14.7685470581055,14.7685699462891,14.7685899734497,14.7686128616333,14.7686357498169,14.7686557769775,14.7686796188354,14.7687015533447,14.768723487854,14.768744468689,14.7687683105469,14.7687892913818,14.7688112258911,14.7688341140747,14.7688550949097,14.7688770294189,14.7688999176025,14.7689208984375,14.7689447402954,14.7689666748047,14.7689876556396,14.7690105438232,14.7690324783325,14.7690525054932,14.7690763473511,14.7690992355347,14.7691202163696,14.7691421508789,14.7691659927368,14.7691850662231,14.7692079544067,14.7692308425903,14.7692518234253,14.7692747116089,14.7692966461182,14.7693185806274,14.7693395614624,14.769362449646,14.7693843841553,14.7694082260132,14.7694292068481,14.7694511413574,14.7694730758667,14.7694940567017,14.7695169448853,14.7695398330688,14.7695617675781,14.7695837020874,14.7696056365967,14.7696266174316,14.7696504592896,14.7696723937988,14.7696943283081,14.7697162628174,14.7697381973267,14.7697591781616,14.7697830200195,14.7698049545288,14.7698278427124,14.7698488235474,14.7698707580566,14.7698936462402,14.7699155807495,14.7699384689331,14.7699604034424,14.7699823379517,14.7700052261353,14.7700271606445,14.7700490951538,14.7700729370117,14.770092010498,14.7701139450073,14.7701377868652,14.7701597213745,14.7701816558838,14.7702054977417,14.770224571228,14.7702484130859,14.7702703475952,14.7702922821045,14.7703161239624,14.7703380584717,14.770357131958,14.7703809738159,14.7704029083252,14.7704248428345,14.7704486846924,14.7704696655273,14.7704916000366,14.7705135345459,14.7705354690552,14.7705583572388,14.770580291748,14.770601272583,14.7706241607666,14.7706460952759,14.7706699371338,14.7706909179688,14.7707138061523,14.7707357406616,14.7707576751709,14.7707796096802,14.7708034515381,14.770824432373,14.7708463668823,14.7708692550659,14.7708902359009,14.7709140777588,14.7709350585938,14.770956993103,14.7709808349609,14.7710018157959,14.7710227966309,14.7710466384888,14.7710676193237,14.7710914611816,14.7711114883423,14.7711334228516,14.7711572647095,14.7711791992188,14.7712001800537,14.7712240219116,14.7712440490723,14.7712659835815,14.7712898254395,14.7713117599487,14.7713346481323,14.7713565826416,14.7713766098022,14.7714004516602,14.7714223861694,14.771445274353,14.7714672088623,14.7714872360229,14.7715110778809,14.7715330123901,14.7715559005737,14.7715787887573,14.7716007232666,14.7716207504272,14.7716445922852,14.7716665267944,14.7716884613037,14.7717113494873,14.7717332839966,14.7717552185059,14.7717761993408,14.7717990875244,14.7718229293823,14.7718439102173,14.7718658447266,14.7718877792358,14.7719097137451,14.7719316482544,14.7719554901123,14.7719764709473,14.7719984054565,14.7720203399658,14.7720422744751,14.772066116333,14.772087097168,14.7721090316772,14.7721309661865,14.7721529006958,14.7721757888794,14.772198677063,14.7722196578979,14.7722434997559,14.7722635269165,14.7722854614258,14.7723093032837,14.772331237793,14.7723531723022,14.7723760604858,14.7723970413208,14.7724199295044,14.7724418640137,14.7724637985229,14.7724866867065,14.7725076675415,14.7725296020508,14.7725534439087,14.772575378418,14.7725982666016,14.7726202011108,14.7726402282715,14.7726640701294,14.7726860046387,14.7727079391479,14.7727308273315,14.7727527618408,14.7727737426758,14.7727966308594,14.7728185653687,14.7728424072266,14.7728633880615,14.7728853225708,14.7729082107544,14.7729291915894,14.7729511260986,14.7729740142822,14.7729959487915,14.7730178833008,14.7730398178101,14.7730617523193,14.7730855941772,14.7731065750122,14.7731285095215,14.7731513977051,14.77317237854,14.7731943130493,14.7732172012329,14.7732391357422,14.7732629776001,14.7732830047607,14.77330493927,14.7733287811279,14.7733497619629,14.7733736038208,14.7733945846558,14.7734155654907,14.7734394073486,14.7734613418579,14.7734842300415,14.7735071182251,14.7735271453857,14.773549079895,14.7735719680786,14.7735948562622,14.7736167907715,14.7736396789551,14.7736597061157,14.7736835479736,14.7737054824829,14.7737274169922,14.7737512588501,14.7737722396851,14.77379322052,14.7738170623779,14.7738380432129,14.7738599777222,14.7738828659058,14.7739038467407,14.7739276885986,14.7739486694336,14.7739706039429,14.7739944458008,14.7740154266357,14.7740364074707,14.7740602493286,14.7740812301636,14.7741050720215,14.7741260528564,14.77414894104,14.7741708755493,14.7741918563843,14.7742137908936,14.7742376327515,14.7742595672607
2.97208833694458,2.97887182235718,2.98568630218506,2.9925320148468,2.99940919876099,3.00631785392761,3.01325869560242,3.02023148536682,3.02723670005798,3.03427457809448,3.04134511947632,3.04844880104065,3.05558562278748,3.06275606155396,3.06996011734009,3.07719802856445,3.08447051048279,3.09177708625793,3.09911847114563,3.10649490356445,3.11390662193298,3.12135362625122,3.12883639335632,3.13635492324829,3.14390993118286,3.15150141716003,3.15912938117981,3.16679453849792,3.17449712753296,3.18223714828491,3.19001507759094,3.19783091545105,3.20568537712097,3.21357846260071,3.22151041030884,3.22948169708252,3.23749232292175,3.24554300308228,3.25363373756409,3.26176500320435,3.26993703842163,3.27815008163452,3.2864043712616,3.29470038414001,3.30303859710693,3.31141877174377,3.31984186172485,3.32830786705017,3.33681702613831,3.34536981582642,3.35396671295166,3.36260771751404,3.37129354476929,3.38002419471741,3.38880038261414,3.39762210845947,3.40648984909058,3.4154040813446,3.42436528205872,3.43337321281433,3.44242906570435,3.45153260231018,3.46068429946899,3.46988487243652,3.47913455963135,3.48843336105347,3.4977822303772,3.50718140602112,3.51663112640381,3.52613186836243,3.53568410873413,3.54528832435608,3.55494475364685,3.56465411186218,3.57441639900208,3.58423256874084,3.59410262107849,3.60402703285217,3.61400675773621,3.62404179573059,3.63413262367249,3.64427971839905,3.65448379516602,3.66474509239197,3.67506432533264,3.68544173240662,3.69589328765869,3.70640444755554,3.71697545051575,3.72760677337646,3.73829936981201,3.74905323982239,3.75986933708191,3.77074790000916,3.78168964385986,3.79269504547119,3.80376482009888,3.8148992061615,3.82609915733337,3.83736491203308,3.84869742393494,3.86009693145752,3.87156391143799,3.88309955596924,3.89470410346985,3.90637803077698,3.91812229156494,3.9299373626709,3.94182395935059,3.95378279685974,3.96581411361694,3.97791910171509,3.99009823799133,4.00235223770142,4.01468133926392,4.02708673477173,4.03956937789917,4.05212926864624,4.06476783752441,4.07748508453369,4.09028244018555,4.10316038131714,4.11611986160278,4.12916088104248,4.14228534698486,4.15549325942993,4.168785572052,4.18216371536255,4.19562768936157,4.20917844772339,4.22281694412231,4.23654460906982,4.25036144256592,4.26426887512207,4.27826738357544,4.2923583984375,4.30654239654541,4.32082033157349,4.33632183074951,4.35228872299194,4.36837339401245,4.38457775115967,4.40090274810791,4.41734933853149,4.43391990661621,4.45061492919922,4.46743583679199,4.48438501358032,4.50146293640137,4.51867151260376,4.53601217269897,4.55348634719849,4.57109546661377,4.58884191513062,4.60672616958618,4.62475061416626,4.64291667938232,4.66122579574585,4.67968034744263,4.69730949401855,4.71449518203735,4.73180723190308,4.74924659729004,4.76681518554688,4.7845139503479,4.80234479904175,4.82030916213989,4.83840799331665,4.85664367675781,4.8750171661377,4.89353036880493,4.912184715271,4.93098163604736,4.94992303848267,4.96901035308838,4.98824596405029,5.00763082504272,5.02716684341431,5.04685544967651,5.06669950485229,5.08669996261597,5.10685873031616,5.12717866897583,5.14766025543213,5.16830682754517,5.1891188621521,5.21009969711304,5.23125076293945,5.25257396697998,5.27407217025757,5.29574775695801,5.31760215759277,5.33963775634766,5.36185693740845,5.38426160812378,5.40685415267944,5.42963743209839,5.45261335372925,5.47578430175781,14.6599035263062,14.6599235534668,14.6599454879761,14.6599674224854,14.6599903106689,14.6600103378296,14.6600341796875,14.6600542068481,14.6600751876831,14.6600980758667,14.6601190567017,14.6601409912109,14.6601619720459,14.6601848602295,14.6602058410645,14.660228729248,14.6602506637573,14.6602716445923,14.6602926254272,14.6603145599365,14.6603364944458,14.6603574752808,14.6603813171387,14.6604013442993,14.6604232788086,14.6604452133179,14.6604671478271,14.6604890823364,14.6605110168457,14.6605319976807,14.6605529785156,14.6605758666992,14.6605958938599,14.6606197357178,14.6606416702271,14.660662651062,14.660683631897,14.6607055664062,14.6607275009155,14.6607484817505,14.6607723236084,14.6607913970947,14.6608142852783,14.6608362197876,14.6608581542969,14.6608791351318,14.6609001159668,14.6609220504761,14.6609439849854,14.6609668731689,14.6609869003296,14.6610097885132,14.6610317230225,14.6610527038574,14.6610727310181,14.661096572876,14.6611175537109,14.6611394882202,14.6611623764038,14.6611833572388,14.661205291748,14.6612272262573,14.661247253418,14.6612710952759,14.6612930297852,14.6613130569458,14.6613368988037,14.6613569259644,14.6613788604736,14.6614027023315,14.6614236831665,14.6614456176758,14.6614665985107,14.66148853302,14.6615114212036,14.6615333557129,14.6615543365479,14.6615762710571,14.6615972518921,14.66162109375,14.661642074585,14.6616630554199,14.6616849899292,14.6617069244385,14.6617288589478,14.6617517471313,14.6617727279663,14.6617946624756,14.6618156433105,14.6618375778198,14.6618604660034,14.6618814468384,14.661904335022,14.6619272232056,14.6619472503662,14.6619682312012,14.6619911193848,14.662013053894,14.662036895752,14.6620569229126,14.6620779037476,14.6621007919312,14.6621217727661,14.6621437072754,14.662166595459,14.6621866226196,14.6622085571289,14.6622314453125,14.6622524261475,14.6622762680054,14.6622972488403,14.6623182296753,14.6623411178589,14.6623620986938,14.6623840332031,14.6624069213867,14.6624279022217,14.6624479293823,14.6624708175659,14.6624927520752,14.6625165939331,14.6625366210938,14.6625595092773,14.6625804901123,14.6626024246216,14.6626234054565,14.6626462936401,14.6626682281494,14.6626901626587,14.6627111434937,14.6627330780029,14.6627559661865,14.6627769470215,14.6627988815308,14.6628198623657,14.662841796875,14.6628637313843,14.6628866195679,14.6629076004028,14.6629314422607,14.6629514694214,14.6629734039307,14.6629962921143,14.6630172729492,14.6630392074585,14.6630620956421,14.6630821228027,14.6631050109863,14.6631269454956,14.6631488800049,14.6631717681885,14.6631908416748,14.6632127761841,14.6632356643677,14.663257598877,14.6632785797119,14.6633014678955,14.6633214950562,14.6633453369141,14.663366317749,14.6633882522583,14.6634111404419,14.6634330749512,14.6634531021118,14.6634759902954,14.6634969711304,14.663519859314,14.6635427474976,14.6635608673096,14.6635856628418,14.6636066436768,14.663628578186,14.6636514663696,14.6636724472046,14.6636934280396,14.6637163162231,14.6637363433838,14.6637601852417,14.663782119751,14.6638031005859,14.6638259887695,14.6638460159302,14.6638689041138,14.6638917922974,14.663911819458,14.6639347076416,14.6639556884766,14.6639776229858,14.6640014648438,14.6640214920044,14.6640434265137,14.6640653610229,14.6640872955322,14.6641082763672,14.6641311645508,14.6641530990601,14.6641759872437,14.6641960144043,14.6642169952393,14.6642408370972,14.6642627716064,14.6642827987671,14.664306640625,14.6643266677856,14.6643486022949,14.6643714904785,14.6643924713135,14.6644153594971,14.6644382476807,14.6644563674927,14.6644811630249,14.6645021438599,14.6645231246948,14.6645469665527,14.6645660400391,14.664589881897,14.6646118164062,14.6646327972412,14.6646556854248,14.6646776199341,14.6646976470947,14.664719581604,14.6647415161133,14.6647634506226,14.6647872924805,14.6648082733154,14.6648292541504,14.6648511886597,14.6648731231689,14.6648950576782,14.6649179458618,14.6649389266968,14.6649608612061,14.664981842041,14.6650047302246,14.6650276184082,14.6650485992432,14.6650695800781,14.6650915145874,14.6651124954224,14.6651363372803,14.6651573181152,14.6651792526245,14.6652002334595,14.6652221679688,14.6652450561523,14.6652669906616,14.6652889251709,14.6653118133545,14.6653318405151,14.6653528213501,14.6653757095337,14.6653985977173,14.6654205322266,14.6654405593872,14.6654624938965,14.6654853820801,14.6655073165894,14.6655282974243,14.6655511856079,14.6655721664429,14.6655931472778,14.6656160354614,14.6656379699707,14.6656608581543,14.6656818389893,14.6657028198242,14.6657257080078,14.6657457351685,14.6657686233521,14.6657915115356,14.6658134460449,14.6658325195312,14.6658554077148
2.96587872505188,2.97263383865356,2.97941970825195,2.98623657226562,2.99308490753174,2.99996471405029,3.00687599182129,3.01381921768188,3.02079486846924,3.02780270576477,3.03484296798706,3.04191613197327,3.04902243614197,3.05616211891174,3.06333518028259,3.07054209709167,3.07778286933899,3.08505797386169,3.09236741065979,3.09971165657043,3.10709095001221,3.11450529098511,3.12195515632629,3.12944078445435,3.13696241378784,3.14452028274536,3.15211462974548,3.15974569320679,3.16741394996643,3.17511940002441,3.1828625202179,3.19064331054688,3.19846248626709,3.20631980895996,3.21421599388123,3.22215127944946,3.23012566566467,3.23813962936401,3.24619340896606,3.25428748130798,3.26242208480835,3.27059721946716,3.27881360054016,3.28707122802734,3.29537081718445,3.3037121295929,3.31209588050842,3.32052230834961,3.32899188995361,3.33750462532043,3.34606099128723,3.35466122627258,3.36330604553223,3.37199544906616,3.38072967529297,3.38950943946838,3.39833498001099,3.40720653533936,3.41612434387207,3.42508935928345,3.43410134315491,3.44316077232361,3.45226812362671,3.46142387390137,3.47062826156616,3.47988176345825,3.48918485641479,3.49853777885437,3.50794076919556,3.51739478111267,3.52689957618713,3.53645610809326,3.54606437683105,3.55572509765625,3.56543874740601,3.57520532608032,3.58502578735352,3.59490013122559,3.60482931137085,3.61481332778931,3.62485265731812,3.63494801521301,3.64509987831116,3.65530848503113,3.66557455062866,3.67589831352234,3.6862804889679,3.69672131538391,3.70723605155945,3.71781182289124,3.72844815254211,3.73914527893066,3.7499041557312,3.76072525978088,3.77160882949829,3.78255558013916,3.79356598854065,3.8046407699585,3.81578040122986,3.82698535919189,3.83825635910034,3.84959411621094,3.86099886894226,3.87247157096863,3.88401246070862,3.89562225341797,3.907301902771,3.91905188560486,3.93087244033813,3.94276475906372,3.9547290802002,3.96676635742188,3.97887706756592,3.99106192588806,4.00332164764404,4.0156569480896,4.02806854248047,4.04055738449097,4.05312347412109,4.06576824188232,4.07849168777466,4.09129524230957,4.10417985916138,4.11714553833008,4.13019323348999,4.14332437515259,4.15653896331787,4.16983795166016,4.18322229385376,4.19669342041016,4.21025085449219,4.22389650344849,4.23763132095337,4.25145530700684,4.2653694152832,4.2793755531311,4.29347372055054,4.30766487121582,4.32195043563843,4.33670616149902,4.3526759147644,4.36876392364502,4.38497066497803,4.40129852294922,4.41774845123291,4.43432188034058,4.45101976394653,4.46784400939941,4.48479604721069,4.50187730789185,4.51908874511719,4.53643274307251,4.55391025543213,4.57152318954468,4.58927249908447,4.60716009140015,4.62518787384033,4.6433572769165,4.66167020797729,4.68012809753418,4.69873237609863,4.71603870391846,4.73336172103882,4.75081253051758,4.76839256286621,4.78610324859619,4.80394601821899,4.82192230224609,4.84003353118896,4.85828161239624,4.87666702270508,4.89519309997559,4.91385984420776,4.93267011642456,4.95162391662598,4.97072458267212,4.98997354507446,5.00937175750732,5.02892112731934,5.04862403869629,5.06848192214966,5.08849620819092,5.10866975784302,5.12900352478027,5.14950037002563,5.17016077041626,5.19098854064941,5.21198463439941,5.23315095901489,5.25448942184448,5.27600336074829,5.29769420623779,5.31956481933594,5.3416166305542,5.36385250091553,5.38627338409424,5.4088830947876,5.43168354034424,5.45467662811279,5.47786569595337,5.50125217437744,14.5532073974609,14.5532312393188,14.5532512664795,14.5532722473145,14.5532941818237,14.5533170700073,14.5533361434937,14.5533580780029,14.5533809661865,14.5534000396729,14.5534238815308,14.5534439086914,14.5534648895264,14.5534858703613,14.5535078048706,14.5535287857056,14.5535497665405,14.5535736083984,14.5535926818848,14.553614616394,14.5536375045776,14.5536575317383,14.5536785125732,14.5537023544312,14.5537214279175,14.5537443161011,14.5537662506104,14.5537853240967,14.553807258606,14.5538282394409,14.5538501739502,14.5538711547852,14.5538940429688,14.5539131164551,14.553936958313,14.5539569854736,14.5539779663086,14.5540008544922,14.5540208816528,14.5540418624878,14.5540637969971,14.5540866851807,14.5541076660156,14.5541296005249,14.5541505813599,14.5541706085205,14.5541934967041,14.5542135238647,14.5542364120483,14.5542554855347,14.5542793273926,14.5542984008789,14.5543203353882,14.5543432235718,14.5543622970581,14.5543832778931,14.554407119751,14.5544271469116,14.5544481277466,14.5544719696045,14.5544910430908,14.5545139312744,14.5545358657837,14.5545568466187,14.5545778274536,14.5545997619629,14.5546207427979,14.5546426773071,14.5546636581421,14.5546855926514,14.554708480835,14.5547285079956,14.5547475814819,14.5547723770142,14.5547924041748,14.5548152923584,14.5548372268677,14.554856300354,14.5548791885376,14.5549011230469,14.5549221038818,14.5549440383911,14.5549650192261,14.554986000061,14.5550079345703,14.5550289154053,14.5550527572632,14.5550737380981,14.5550956726074,14.5551166534424,14.5551376342773,14.555157661438,14.5551805496216,14.5552024841309,14.5552253723145,14.5552444458008,14.5552663803101,14.5552883148193,14.5553092956543,14.5553302764893,14.5553522109985,14.5553731918335,14.5553941726685,14.5554180145264,14.5554389953613,14.5554609298706,14.5554819107056,14.5555028915405,14.5555248260498,14.5555458068848,14.555567741394,14.5555906295776,14.555609703064,14.5556335449219,14.5556535720825,14.5556745529175,14.5556983947754,14.5557193756104,14.5557384490967,14.5557613372803,14.5557832717896,14.5558042526245,14.5558261871338,14.5558471679688,14.555869102478,14.555890083313,14.5559110641479,14.5559349060059,14.5559558868408,14.5559749603271,14.5559988021851,14.55601978302,14.5560398101807,14.5560646057129,14.5560846328735,14.5561056137085,14.5561265945435,14.5561485290527,14.5561714172363,14.556191444397,14.5562143325806,14.5562353134155,14.5562553405762,14.5562782287598,14.556300163269,14.556321144104,14.556342124939,14.5563640594482,14.5563850402832,14.5564069747925,14.5564279556274,14.5564498901367,14.5564708709717,14.5564918518066,14.5565137863159,14.5565366744995,14.5565576553345,14.5565814971924,14.5566005706787,14.5566215515137,14.5566434860229,14.5566654205322,14.5566883087158,14.5567073822021,14.5567293167114,14.556752204895,14.55677318573,14.5567932128906,14.5568161010742,14.5568370819092,14.5568571090698,14.5568799972534,14.5569019317627,14.5569248199463,14.5569448471069,14.5569639205933,14.5569887161255,14.5570087432861,14.5570297241211,14.557053565979,14.557074546814,14.5570955276489,14.5571174621582,14.5571384429932,14.5571603775024,14.5571813583374,14.5572023391724,14.5572242736816,14.5572452545166,14.5572662353516,14.5572900772095,14.5573110580444,14.5573320388794,14.5573539733887,14.5573749542236,14.5573968887329,14.5574197769165,14.5574398040771,14.5574607849121,14.5574817657471,14.5575037002563,14.5575265884399,14.5575475692749,14.5575714111328,14.5575904846191,14.5576114654541,14.5576333999634,14.557656288147,14.5576763153076,14.5576972961426,14.5577201843262,14.5577421188354,14.5577630996704,14.5577840805054,14.5578060150146,14.5578269958496,14.5578479766846,14.5578699111938,14.5578918457031,14.5579128265381,14.5579357147217,14.557954788208,14.5579786300659,14.5579996109009,14.5580196380615,14.5580444335938,14.5580644607544,14.5580854415894,14.5581064224243,14.5581283569336,14.5581512451172,14.5581722259521,14.5581922531128,14.5582151412964,14.5582361221313,14.558256149292,14.5582809448242,14.5583009719849,14.5583200454712,14.5583448410034,14.5583648681641,14.5583877563477,14.5584087371826,14.5584306716919,14.5584516525269,14.5584726333618,14.5584945678711,14.5585174560547,14.5585374832153,14.5585584640503,14.5585794448853,14.5586013793945,14.5586242675781,14.5586452484131,14.5586671829224,14.5586881637573,14.5587091445923,14.5587291717529,14.5587539672852,14.5587739944458,14.5587968826294,14.5588178634644,14.558837890625,14.5588607788086,14.5588817596436,14.5589036941528,14.5589265823364,14.5589456558228,14.5589694976807,14.5589904785156,14.5590105056763,14.5590333938599
2.9596951007843,2.96642184257507,2.97317934036255,2.97996783256531,2.98678731918335,2.99363803863525,3.0005202293396,3.00743436813354,3.01438021659851,3.02135825157166,3.02836871147156,3.0354118347168,3.04248762130737,3.04959654808044,3.05673885345459,3.06391453742981,3.07112407684326,3.07836771011353,3.08564567565918,3.09295773506165,3.10030484199524,3.10768699645996,3.11510419845581,3.12255692481995,3.13004541397095,3.13756990432739,3.14513087272644,3.15272808074951,3.16036224365234,3.16803336143494,3.17574191093445,3.18348789215088,3.19127202033997,3.19909405708313,3.20695471763611,3.2148540019989,3.22279214859009,3.23076987266541,3.23878717422485,3.24684405326843,3.25494146347046,3.26307916641235,3.27125763893127,3.27947735786438,3.28773856163025,3.29604125022888,3.30438613891602,3.31277322769165,3.32120323181152,3.32967615127563,3.33819246292114,3.34675240516663,3.35535621643066,3.36400437355042,3.37269735336304,3.38143539428711,3.39021897315979,3.39904808998108,3.40792322158813,3.41684508323669,3.42581367492676,3.43482947349548,3.44389271736145,3.4530041217804,3.46216368675232,3.47137212753296,3.48062968254089,3.4899365901947,3.49929356575012,3.50870084762573,3.51815867424011,3.527667760849,3.53722834587097,3.54684090614319,3.55650591850281,3.56622362136841,3.57599472999573,3.58581924438477,3.59569811820984,3.60563158988953,3.61562013626099,3.6256639957428,3.6357638835907,3.64592027664185,3.6561336517334,3.66640424728394,3.67673277854919,3.68711948394775,3.69756531715393,3.70807027816772,3.71864867210388,3.72928977012634,3.73999190330505,3.75075554847717,3.76158142089844,3.77246999740601,3.78342175483704,3.79443717002869,3.80551695823669,3.8166618347168,3.82787203788757,3.83914828300476,3.8504912853241,3.86190152168274,3.87337923049927,3.88492560386658,3.89654111862183,3.90822625160217,3.91998171806335,3.93180799484253,3.94370579719543,3.95567584037781,3.96771907806396,3.97983551025391,3.99202632904053,4.00429201126099,4.0166335105896,4.02905082702637,4.04154539108276,4.05411815643311,4.06676864624023,4.07949876785278,4.09230899810791,4.10519933700562,4.11817169189453,4.13122606277466,4.14436340332031,4.15758466720581,4.17089080810547,4.18428182601929,4.1977596282959,4.2113242149353,4.22497701644897,4.23871850967407,4.25254917144775,4.26647090911865,4.28048419952393,4.29458951950073,4.30878829956055,4.32308149337769,4.33746957778931,4.35306358337402,4.36915397644043,4.38536405563354,4.40169477462769,4.41814756393433,4.43472385406494,4.45142507553101,4.46825218200684,4.48520708084106,4.50229167938232,4.51950645446777,4.53685331344604,4.55433416366577,4.57195043563843,4.58970308303833,4.60759401321411,4.6256251335144,4.64379835128784,4.66211414337158,4.68057584762573,4.69918394088745,4.71758270263672,4.73491716384888,4.75237941741943,4.76997137069702,4.7876935005188,4.80554819107056,4.82353639602661,4.8416600227356,4.85992002487183,4.87831830978394,4.89685678482056,4.91553640365601,4.93435907363892,4.95332622528076,4.97244024276733,4.99170207977295,5.01111364364624,5.030677318573,5.05039358139038,5.07026529312134,5.0902943611145,5.11048173904419,5.13083028793335,5.15134143829346,5.17201709747314,5.1928596496582,5.21387052536011,5.23505210876465,5.25640678405762,5.27793598175049,5.29964256286621,5.32152891159058,5.34359693527222,5.36584901809692,5.38828706741333,5.41091346740723,5.43373107910156,5.45674180984497,5.47994804382324,5.50335264205933,5.52695798873901,14.4480562210083,14.4480762481689,14.4480981826782,14.4481191635132,14.4481410980225,14.4481611251831,14.4481811523438,14.448203086853,14.4482250213623,14.4482460021973,14.4482660293579,14.4482879638672,14.4483098983765,14.4483299255371,14.4483509063721,14.4483709335327,14.448392868042,14.4484128952026,14.4484357833862,14.4484548568726,14.4484777450562,14.4484977722168,14.4485197067261,14.4485416412354,14.4485626220703,14.448582649231,14.4486026763916,14.4486265182495,14.4486446380615,14.4486675262451,14.4486875534058,14.448709487915,14.4487295150757,14.4487533569336,14.4487714767456,14.4487934112549,14.4488143920898,14.4488344192505,14.4488582611084,14.448878288269,14.448899269104,14.4489192962646,14.4489431381226,14.4489612579346,14.4489831924438,14.4490051269531,14.4490251541138,14.4490461349487,14.449068069458,14.4490880966187,14.4491100311279,14.4491319656372,14.4491519927979,14.4491729736328,14.4491949081421,14.4492149353027,14.4492349624634,14.4492568969727,14.4492778778076,14.4492998123169,14.4493217468262,14.4493417739868,14.4493637084961,14.4493846893311,14.4494047164917,14.449426651001,14.4494485855103,14.4494686126709,14.4494905471802,14.4495115280151,14.4495334625244,14.4495553970337,14.4495763778687,14.449595451355,14.4496183395386,14.4496383666992,14.4496603012085,14.4496822357178,14.4497022628784,14.4497222900391,14.4497451782227,14.4497652053833,14.4497890472412,14.4498090744019,14.4498291015625,14.4498500823975,14.4498720169067,14.4498920440674,14.4499158859253,14.4499359130859,14.4499568939209,14.4499769210815,14.4499988555908,14.4500207901001,14.4500417709351,14.4500608444214,14.450083732605,14.4501037597656,14.4501256942749,14.4501476287842,14.4501686096191,14.4501886367798,14.4502105712891,14.4502325057983,14.4502544403076,14.4502754211426,14.4502954483032,14.4503173828125,14.4503374099731,14.4503612518311,14.4503812789917,14.4504022598267,14.4504241943359,14.4504442214966,14.4504642486572,14.4504880905151,14.4505081176758,14.4505290985107,14.4505491256714,14.4505710601807,14.4505929946899,14.4506149291992,14.4506349563599,14.4506578445435,14.4506759643555,14.4506978988647,14.450719833374,14.4507417678833,14.4507627487183,14.4507846832275,14.4508028030396,14.4508266448975,14.4508466720581,14.4508686065674,14.4508895874023,14.4509115219116,14.4509315490723,14.4509534835815,14.4509735107422,14.4509963989258,14.4510173797607,14.4510374069214,14.4510583877563,14.4510803222656,14.4511022567749,14.4511241912842,14.4511451721191,14.4511642456055,14.4511871337891,14.4512071609497,14.4512310028076,14.4512510299683,14.4512720108032,14.4512920379639,14.4513139724731,14.4513339996338,14.4513578414917,14.4513778686523,14.4514007568359,14.4514188766479,14.4514408111572,14.4514627456665,14.4514846801758,14.4515047073364,14.4515256881714,14.4515466690063,14.4515676498413,14.4515895843506,14.4516115188599,14.4516334533691,14.4516534805298,14.4516735076904,14.451696395874,14.4517164230347,14.4517383575439,14.4517602920532,14.4517803192139,14.4518013000488,14.4518232345581,14.4518432617188,14.4518671035767,14.4518852233887,14.4519071578979,14.4519290924072,14.4519500732422,14.4519720077515,14.4519939422607,14.4520139694214,14.4520359039307,14.4520568847656,14.4520769119263,14.4520988464355,14.4521207809448,14.4521408081055,14.4521627426147,14.452184677124,14.452205657959,14.4522275924683,14.4522476196289,14.4522695541382,14.4522895812988,14.4523115158081,14.4523324966431,14.4523544311523,14.4523735046387,14.4523963928223,14.4524164199829,14.4524402618408,14.4524602890015,14.4524812698364,14.4525012969971,14.4525232315063,14.452543258667,14.4525671005249,14.4525871276855,14.4526100158691,14.4526290893555,14.4526500701904,14.4526720046997,14.452693939209,14.4527139663696,14.4527359008789,14.4527559280396,14.4527759552002,14.4527988433838,14.4528188705444,14.4528427124023,14.4528608322144,14.4528827667236,14.4529047012329,14.4529266357422,14.4529466629028,14.4529695510864,14.4529876708984,14.4530096054077,14.453031539917,14.4530534744263,14.4530754089355,14.4530963897705,14.4531164169312,14.4531383514404,14.4531602859497,14.4531803131104,14.4532022476196,14.4532241821289,14.4532442092896,14.4532651901245,14.4532871246338,14.4533090591431,14.4533309936523,14.4533491134644,14.4533729553223,14.4533929824829,14.4534139633179,14.4534358978271,14.4534578323364,14.4534778594971,14.4534997940063,14.453519821167,14.4535427093506,14.4535627365112,14.4535827636719,14.4536046981812,14.4536266326904,14.4536485671997,14.453670501709,14.4536905288696,14.4537115097046,14.4537315368652,14.4537525177002
2.95353698730469,2.9602358341217,2.96696519851685,2.97372531890869,2.98051619529724,2.98733806610107,2.99419140815735,3.00107622146606,3.0079927444458,3.01494121551514,3.02192187309265,3.02893495559692,3.03598070144653,3.04305911064148,3.0501708984375,3.05731582641602,3.06449413299561,3.07170653343201,3.07895278930664,3.08623337745667,3.09354853630066,3.1008985042572,3.10828328132629,3.11570334434509,3.12315893173218,3.13065052032471,3.1381778717041,3.14574146270752,3.15334177017212,3.1609787940979,3.16865301132202,3.17636466026306,3.18411374092102,3.19190073013306,3.19972610473633,3.20758962631226,3.21549201011658,3.22343349456787,3.23141431808472,3.23943471908569,3.24749517440796,3.25559568405151,3.26373672485352,3.27191853523254,3.28014135360718,3.28840589523315,3.29671216011047,3.30506038665771,3.31345105171204,3.32188439369202,3.33036065101624,3.33888030052185,3.34744381904602,3.35605144500732,3.36470317840576,3.37339973449707,3.38214159011841,3.3909285068512,3.39976143836975,3.40864038467407,3.41756582260132,3.42653822898865,3.43555784225464,3.44462513923645,3.45374035835266,3.46290373802185,3.47211623191833,3.48137760162354,3.49068856239319,3.50004959106445,3.50946092605591,3.51892304420471,3.52843618392944,3.53800106048584,3.5476176738739,3.55728697776794,3.56700897216797,3.57678437232971,3.58661341667175,3.59649658203125,3.60643434524536,3.61642742156982,3.62647581100464,3.63658022880554,3.64674115180969,3.65695905685425,3.66723418235779,3.67756748199463,3.68795895576477,3.69840931892395,3.70891928672791,3.71948909759521,3.73013162612915,3.74083852767944,3.75160717964172,3.76243805885315,3.7733314037323,3.78428816795349,3.79530882835388,3.80639386177063,3.81754374504089,3.82875919342041,3.84004068374634,3.85138893127441,3.86280417442322,3.87428760528564,3.88583946228027,3.89746046066284,3.90915083885193,3.92091202735901,3.9327437877655,3.94464731216431,3.95662331581116,3.96867203712463,3.98079442977905,3.99299120903015,4.00526285171509,4.0176100730896,4.03003358840942,4.04253435134888,4.05511283874512,4.06777000427246,4.08050632476807,4.09332275390625,4.10621976852417,4.11919832229614,4.13225936889648,4.14540338516235,4.15863132476807,4.17194366455078,4.18534183502197,4.1988263130188,4.21239805221558,4.22605752944946,4.23980617523193,4.25364398956299,4.26757287979126,4.28159332275391,4.29570627212524,4.30991268157959,4.3242130279541,4.3386082649231,4.35345077514648,4.369544506073,4.3857569694519,4.40209102630615,4.41854667663574,4.43512582778931,4.45182991027832,4.46866035461426,4.48561859130859,4.5027060508728,4.51992416381836,4.53727436065674,4.55475854873657,4.57237768173218,4.59013366699219,4.60802793502808,4.62606287002563,4.64423894882202,4.66255855560303,4.68102359771729,4.69963502883911,4.71839570999146,4.73647403717041,4.75394773483276,4.77155065536499,4.78928518295288,4.80715179443359,4.8251519203186,4.84328746795654,4.86155986785889,4.87997055053711,4.89852142333984,4.91721391677856,4.93604946136475,4.95502996444702,4.97415685653687,4.99343204498291,5.01285743713379,5.03243398666382,5.05216455459595,5.07205009460449,5.0920934677124,5.11229515075684,5.13265800476074,5.1531834602356,5.17387437820435,5.19473171234131,5.21575784683228,5.23695516586304,5.25832509994507,5.27987003326416,5.30159282684326,5.32349491119385,5.34557867050171,5.36784696578979,5.3903021812439,5.41294574737549,5.43578004837036,5.45880794525146,5.48203229904175,5.50545454025269,5.52907800674438,14.3443918228149,14.3444128036499,14.3444318771362,14.3444547653198,14.3444738388062,14.3444948196411,14.3445158004761,14.344536781311,14.3445558547974,14.344578742981,14.3445997238159,14.3446187973022,14.3446397781372,14.3446626663208,14.3446817398071,14.3447027206421,14.3447237014771,14.3447437286377,14.3447647094727,14.3447875976562,14.3448066711426,14.3448276519775,14.3448486328125,14.3448677062988,14.3448886871338,14.3449115753174,14.3449306488037,14.3449516296387,14.3449726104736,14.3449935913086,14.3450145721436,14.3450355529785,14.3450555801392,14.3450765609741,14.3450975418091,14.345118522644,14.345139503479,14.345160484314,14.3451814651489,14.3452005386353,14.3452234268188,14.3452425003052,14.3452634811401,14.3452844619751,14.3453035354614,14.345326423645,14.3453464508057,14.3453674316406,14.3453884124756,14.3454103469849,14.3454303741455,14.3454523086548,14.3454723358154,14.3454914093018,14.3455142974854,14.3455333709717,14.3455543518066,14.3455753326416,14.3455963134766,14.3456153869629,14.3456382751465,14.3456592559814,14.3456792831421,14.3457012176514,14.345721244812,14.345742225647,14.3457641601562,14.3457841873169,14.3458061218262,14.3458261489868,14.3458471298218,14.3458681106567,14.3458890914917,14.3459100723267,14.345929145813,14.3459501266479,14.3459730148315,14.3459920883179,14.3460149765015,14.3460359573364,14.3460550308228,14.3460760116577,14.3460969924927,14.346118927002,14.3461399078369,14.3461608886719,14.3461818695068,14.3462028503418,14.3462238311768,14.3462448120117,14.3462657928467,14.3462867736816,14.346305847168,14.3463287353516,14.3463478088379,14.3463687896729,14.3463916778564,14.3464107513428,14.3464317321777,14.3464527130127,14.3464736938477,14.3464965820312,14.3465166091919,14.3465356826782,14.3465585708618,14.3465776443481,14.3466005325317,14.3466215133667,14.346640586853,14.346661567688,14.3466825485229,14.3467035293579,14.3467245101929,14.3467454910278,14.3467655181885,14.3467874526978,14.3468074798584,14.346830368042,14.346851348877,14.3468723297119,14.3468914031982,14.3469123840332,14.3469333648682,14.3469543457031,14.3469753265381,14.3469982147217,14.347017288208,14.347038269043,14.3470592498779,14.3470802307129,14.3471012115479,14.3471221923828,14.3471422195435,14.3471632003784,14.347186088562,14.347207069397,14.3472280502319,14.3472471237183,14.3472681045532,14.3472890853882,14.3473100662231,14.3473310470581,14.3473539352417,14.3473720550537,14.347393989563,14.3474149703979,14.3474349975586,14.3474578857422,14.3474788665771,14.3474960327148,14.3475189208984,14.3475399017334,14.3475608825684,14.347583770752,14.3476028442383,14.3476238250732,14.3476448059082,14.3476648330688,14.3476867675781,14.3477087020874,14.3477277755737,14.3477487564087,14.3477697372437,14.3477907180786,14.3478116989136,14.3478326797485,14.3478536605835,14.3478736877441,14.3478946685791,14.3479166030884,14.3479375839233,14.3479595184326,14.3479785919189,14.3479995727539,14.3480224609375,14.3480415344238,14.3480625152588,14.3480854034424,14.3481044769287,14.3481254577637,14.3481464385986,14.3481674194336,14.3481884002686,14.3482084274292,14.3482294082642,14.3482503890991,14.3482732772827,14.348292350769,14.3483152389526,14.348334312439,14.3483543395996,14.3483762741089,14.3483972549438,14.3484182357788,14.3484401702881,14.3484592437744,14.348482131958,14.348503112793,14.3485221862793,14.3485450744629,14.3485641479492,14.3485841751099,14.3486061096191,14.3486270904541,14.3486499786377,14.3486700057983,14.3486890792847,14.3487119674683,14.3487310409546,14.3487520217896,14.3487749099731,14.3487939834595,14.3488149642944,14.3488359451294,14.34885597229,14.3488788604736,14.3488998413086,14.3489208221436,14.3489398956299,14.3489608764648,14.3489818572998,14.3490047454834,14.3490238189697,14.3490447998047,14.349066734314,14.3490877151489,14.3491086959839,14.3491296768188,14.3491506576538,14.3491697311401,14.3491907119751,14.3492136001587,14.349232673645,14.3492546081543,14.3492765426636,14.3492965698242,14.3493175506592,14.3493385314941,14.3493595123291,14.3493804931641,14.349401473999,14.3494205474854,14.3494424819946,14.3494634628296,14.3494844436646,14.3495073318481,14.3495264053345,14.3495454788208,14.3495683670044,14.3495893478394,14.3496103286743,14.3496313095093,14.3496513366699,14.3496732711792,14.3496952056885,14.3497142791748,14.3497371673584,14.3497581481934,14.3497753143311,14.3497982025146,14.3498191833496,14.3498401641846,14.3498611450195,14.3498811721802,14.3499040603638,14.3499231338501,14.3499441146851,14.3499670028687,14.349986076355
2.94740462303162,2.95407557487488,2.96077704429626,2.9675087928772,2.97427129745483,2.98106455802917,2.98788905143738,2.99474501609802,3.00163221359253,3.00855135917664,3.01550245285034,3.02248573303223,3.02950143814087,3.03654980659485,3.04363107681274,3.05074524879456,3.05789279937744,3.06507420539856,3.07228922843933,3.07953810691833,3.08682155609131,3.09413957595825,3.10149216651917,3.10887980461121,3.11630272865295,3.12376141548157,3.13125562667847,3.13878583908081,3.14635252952576,3.15395593643188,3.16159582138062,3.16927313804626,3.17698764801025,3.18473982810974,3.19252991676331,3.20035815238953,3.20822501182556,3.21613049507141,3.22407507896423,3.23205924034119,3.24008274078369,3.24814629554749,3.25625014305115,3.26439428329468,3.27257943153381,3.28080582618713,3.28907370567322,3.29738306999207,3.30573487281799,3.31412887573242,3.32256579399109,3.33104562759399,3.3395688533783,3.34813570976257,3.35674691200256,3.36540222167969,3.37410235404968,3.38284778594971,3.39163851737976,3.400475025177,3.40935778617859,3.4182870388031,3.4272632598877,3.43628668785095,3.44535779953003,3.45447683334351,3.46364426612854,3.47286057472229,3.48212599754333,3.49144101142883,3.50080609321594,3.51022148132324,3.51968765258789,3.52920484542847,3.53877377510071,3.54839491844177,3.55806827545166,3.56779456138611,3.57757425308228,3.58740758895874,3.59729528427124,3.60723757743835,3.61723494529724,3.62728786468506,3.63739681243896,3.64756226539612,3.65778470039368,3.6680645942688,3.67840242385864,3.68879890441895,3.69925403594971,3.70976877212524,3.72034335136414,3.73097848892212,3.74168586730957,3.75245928764343,3.76329493522644,3.77419352531433,3.78515529632568,3.79618096351624,3.80727100372314,3.81842613220215,3.82964658737183,3.84093332290649,3.85228681564331,3.86370754241943,3.87519645690918,3.88675355911255,3.89838004112244,3.91007614135742,3.92184257507324,3.93368029594421,3.94558954238892,3.95757102966309,3.96962547302246,3.98175382614136,3.99395632743835,4.00623416900635,4.01858711242676,4.03101682662964,4.04352378845215,4.05610847473145,4.06877183914185,4.08151435852051,4.09433698654175,4.10724067687988,4.12022542953491,4.13329315185547,4.14644384384155,4.15967845916748,4.17299747467041,4.18640232086182,4.19989347457886,4.21347236633301,4.22713899612427,4.24089431762695,4.25473976135254,4.26867580413818,4.2827033996582,4.29682350158691,4.31103706359863,4.32534503936768,4.3397479057312,4.35424757003784,4.36993455886841,4.38615036010742,4.40248727798462,4.41894578933716,4.43552827835083,4.45223522186279,4.46906900405884,4.48603010177612,4.50312042236328,4.52034187316895,4.53769540786743,4.55518245697021,4.57280492782593,4.59056425094604,4.6084623336792,4.62650012969971,4.64468002319336,4.66300344467163,4.68147134780884,4.70008659362793,4.71885061264038,4.73776483535767,4.75551652908325,4.77313184738159,4.79087781906128,4.80875587463379,4.82676839828491,4.84491634368896,4.86320066452026,4.88162422180176,4.90018749237061,4.9188928604126,4.93774127960205,4.9567346572876,4.97587442398071,4.99516344070435,5.01460218429565,5.03419256210327,5.05393648147583,5.07383632659912,5.09389352798462,5.1141095161438,5.13448715209961,5.15502738952637,5.17573261260986,5.19660520553589,5.21764659881592,5.23885917663574,5.26024484634399,5.28180551528931,5.30354452133179,5.32546234130859,5.34756231307983,5.3698468208313,5.39231824874878,5.41497898101807,5.43783092498779,5.46087646484375,5.48411798477173,5.50755834579468,5.53119993209839,5.55504512786865,14.242223739624,14.242244720459,14.2422647476196,14.2422847747803,14.2423057556152,14.2423257827759,14.2423477172852,14.2423667907715,14.2423887252808,14.2424087524414,14.2424287796021,14.242449760437,14.2424697875977,14.2424898147583,14.2425107955933,14.2425308227539,14.2425508499146,14.2425727844238,14.2425918579102,14.2426137924194,14.2426338195801,14.242654800415,14.2426748275757,14.2426948547363,14.2427158355713,14.2427358627319,14.2427577972412,14.2427768707275,14.2427988052368,14.2428188323975,14.2428388595581,14.2428598403931,14.2428798675537,14.24289894104,14.2429208755493,14.2429428100586,14.2429618835449,14.2429838180542,14.2430038452148,14.2430229187012,14.2430448532104,14.2430648803711,14.2430839538574,14.2431039810181,14.2431259155273,14.2431449890137,14.2431678771973,14.2431869506836,14.2432069778442,14.2432279586792,14.2432479858398,14.2432680130005,14.2432889938354,14.2433109283447,14.2433290481567,14.243350982666,14.243371963501,14.2433919906616,14.2434120178223,14.2434329986572,14.2434530258179,14.2434730529785,14.2434959411621,14.2435140609741,14.2435359954834,14.2435569763184,14.2435750961304,14.2435989379883,14.2436189651489,14.2436361312866,14.2436599731445,14.2436800003052,14.2437009811401,14.2437210083008,14.2437410354614,14.2437620162964,14.243782043457,14.2438020706177,14.2438249588013,14.2438449859619,14.2438650131226,14.2438859939575,14.2439060211182,14.2439279556274,14.2439479827881,14.243968963623,14.2439889907837,14.2440090179443,14.2440299987793,14.2440500259399,14.2440710067749,14.2440938949585,14.2441110610962,14.2441320419312,14.2441549301147,14.2441740036011,14.2441940307617,14.244215965271,14.2442350387573,14.244255065918,14.2442770004272,14.2442979812622,14.2443199157715,14.2443399429321,14.2443590164185,14.2443809509277,14.2444009780884,14.2444219589233,14.2444438934326,14.2444620132446,14.244481086731,14.2445049285889,14.2445249557495,14.2445459365845,14.2445659637451,14.2445859909058,14.2446069717407,14.2446269989014,14.244647026062,14.2446689605713,14.2446899414062,14.2447099685669,14.2447309494019,14.2447509765625,14.2447729110718,14.2447929382324,14.2448139190674,14.244833946228,14.2448539733887,14.2448749542236,14.2448949813843,14.2449159622192,14.2449359893799,14.2449560165405,14.2449769973755,14.2449989318848,14.2450189590454,14.2450389862061,14.245059967041,14.2450799942017,14.2451019287109,14.2451229095459,14.2451429367065,14.2451648712158,14.2451839447021,14.2452039718628,14.2452259063721,14.2452449798584,14.245265007019,14.245288848877,14.2453060150146,14.2453298568726,14.2453498840332,14.2453689575195,14.2453908920288,14.2454109191895,14.2454299926758,14.2454519271851,14.2454719543457,14.245493888855,14.2455148696899,14.2455339431763,14.2455558776855,14.2455759048462,14.2455959320068,14.2456178665161,14.2456388473511,14.2456569671631,14.2456798553467,14.2456998825073,14.245719909668,14.2457408905029,14.2457609176636,14.2457809448242,14.2458019256592,14.2458219528198,14.2458438873291,14.2458648681641,14.2458829879761,14.2459049224854,14.2459259033203,14.2459478378296,14.2459678649902,14.2459888458252,14.2460069656372,14.2460279464722,14.2460498809814,14.2460699081421,14.2460908889771,14.2461128234863,14.2461309432983,14.2461519241333,14.2461738586426,14.2461938858032,14.2462148666382,14.2462348937988,14.2462549209595,14.2462759017944,14.2462978363037,14.2463178634644,14.2463397979736,14.2463569641113,14.2463779449463,14.2464008331299,14.2464199066162,14.2464408874512,14.2464628219604,14.2464809417725,14.2465028762817,14.2465238571167,14.2465438842773,14.2465658187866,14.2465867996216,14.2466049194336,14.2466268539429,14.2466478347778,14.2466659545898,14.2466897964478,14.2467088699341,14.2467288970947,14.2467517852783,14.246771812439,14.2467918395996,14.2468128204346,14.2468309402466,14.2468528747559,14.2468738555908,14.2468957901001,14.2469158172607,14.2469367980957,14.2469568252563,14.2469778060913,14.246997833252,14.2470178604126,14.2470397949219,14.2470607757568,14.2470788955688,14.2470998764038,14.2471218109131,14.2471418380737,14.2471628189087,14.2471828460693,14.2472038269043,14.2472238540649,14.2472457885742,14.2472658157349,14.2472867965698,14.2473068237305,14.2473278045654,14.2473478317261,14.2473678588867,14.2473888397217,14.247410774231,14.2474298477173,14.2474498748779,14.2474718093872,14.2474927902222,14.2475147247314,14.2475347518921,14.2475538253784,14.2475757598877,14.2475957870483,14.2476167678833,14.2476387023926,14.2476558685303,14.2476758956909,14.2476997375488
2.94129753112793,2.94794106483459,2.95461440086365,2.96131825447083,2.96805262565613,2.97481751441956,2.98161339759827,2.98844051361084,2.9952986240387,3.00218868255615,3.00911021232605,3.01606392860413,3.02304983139038,3.03006815910339,3.03711915016174,3.04420304298401,3.05131983757019,3.05847024917603,3.06565427780151,3.07287192344666,3.08012390136719,3.08740997314453,3.09473061561584,3.10208606719971,3.1094765663147,3.11690235137939,3.12436389923096,3.13186097145081,3.13939428329468,3.14696383476257,3.15457010269165,3.16221308708191,3.16989326477051,3.17761087417603,3.18536591529846,3.19315910339355,3.20099067687988,3.20886039733887,3.21676921844482,3.22471690177917,3.23270416259766,3.24073100090027,3.24879765510559,3.25690484046936,3.265052318573,3.27324080467224,3.28147053718567,3.28974151611328,3.29805445671082,3.30640959739685,3.31480693817139,3.32324743270874,3.33173060417175,3.34025740623474,3.34882783889771,3.35744261741638,3.36610174179077,3.37480545043945,3.38355445861816,3.3923487663269,3.40118908882141,3.41007566452026,3.41900873184204,3.42798852920532,3.43701577186584,3.44609069824219,3.45521378517151,3.46438503265381,3.4736053943634,3.48287463188171,3.49219369888306,3.50156283378601,3.51098227500916,3.52045249938965,3.52997398376465,3.53954720497131,3.54917240142822,3.55885004997253,3.56858062744141,3.578364610672,3.58820223808289,3.59809422492981,3.60804104804993,3.61804294586182,3.62810039520264,3.63821387290955,3.6483838558197,3.65861082077026,3.66889548301697,3.67923808097839,3.6896390914917,3.70009899139404,3.71061849594116,3.72119808197021,3.73183798789978,3.7425389289856,3.75331163406372,3.76415228843689,3.77505588531494,3.78602266311646,3.79705333709717,3.80814862251282,3.81930875778198,3.8305344581604,3.84182643890381,3.85318517684937,3.86461138725281,3.87610554695129,3.88766813278198,3.89930009841919,3.91100168228149,3.92277383804321,3.9346170425415,3.9465320110321,3.95851922035217,3.97057962417603,3.98271369934082,3.99492216110229,4.00720548629761,4.01956510543823,4.03200054168701,4.04451370239258,4.05710458755493,4.06977415084839,4.08252286911011,4.09535217285156,4.10826206207275,4.121253490448,4.13432741165161,4.14748430252075,4.16072559356689,4.1740517616272,4.18746328353882,4.20096158981323,4.2145471572876,4.22822046279907,4.24198293685913,4.25583553314209,4.26977872848511,4.2838134765625,4.29794120788574,4.31216239929199,4.32647752761841,4.34088850021362,4.35539531707764,4.37032508850098,4.38654375076294,4.40288352966309,4.41934490203857,4.4359302520752,4.45264053344727,4.46947717666626,4.48644161224365,4.50353527069092,4.52075958251953,4.53811645507812,4.55560684204102,4.57323265075684,4.59099531173706,4.60889673233032,4.62693786621094,4.6451210975647,4.66344785690308,4.68191957473755,4.70053863525391,4.71930599212646,4.73822402954102,4.75708675384521,4.77471351623535,4.79247140884399,4.81036138534546,4.82838582992554,4.84654569625854,4.86484289169312,4.88327836990356,4.90185451507568,4.92057275772095,4.93943405151367,4.95844030380249,4.97759389877319,4.9968957901001,5.01634788513184,5.03595209121704,5.05571031570435,5.07562351226807,5.09569501876831,5.11592578887939,5.13631772994995,5.15687227249146,5.17759275436401,5.19848012924194,5.21953678131104,5.24076461791992,5.26216602325439,5.28374290466309,5.30549716949463,5.32743120193481,5.34954786300659,5.37184906005859,5.39433670043945,5.41701412200928,5.43988275527954,5.46294593811035,5.48620510101318,5.50966358184814,5.53332328796387,5.55718660354614,5.58125734329224,14.1415042877197,14.1415224075317,14.1415414810181,14.1415634155273,14.1415824890137,14.1416025161743,14.1416234970093,14.1416435241699,14.1416635513306,14.1416845321655,14.1417045593262,14.1417236328125,14.1417455673218,14.1417636871338,14.1417846679688,14.141806602478,14.1418256759644,14.141845703125,14.14186668396,14.1418867111206,14.1419067382812,14.1419258117676,14.1419458389282,14.1419668197632,14.1419868469238,14.1420068740845,14.1420278549194,14.1420488357544,14.1420669555664,14.1420869827271,14.142107963562,14.1421279907227,14.1421489715576,14.1421689987183,14.1421890258789,14.1422100067139,14.1422300338745,14.1422491073608,14.1422710418701,14.1422901153564,14.1423082351685,14.1423301696777,14.1423511505127,14.1423711776733,14.1423902511597,14.1424121856689,14.1424322128296,14.1424512863159,14.1424732208252,14.1424913406372,14.1425123214722,14.1425323486328,14.1425514221191,14.1425733566284,14.1425943374634,14.1426124572754,14.1426334381104,14.142653465271,14.1426734924316,14.1426944732666,14.1427145004272,14.1427335739136,14.1427555084229,14.1427755355835,14.1427927017212,14.1428146362305,14.1428356170654,14.1428556442261,14.142876625061,14.1428966522217,14.1429166793823,14.1429376602173,14.1429576873779,14.1429767608643,14.1429986953735,14.1430196762085,14.1430377960205,14.1430597305298,14.1430788040161,14.1431007385254,14.1431217193604,14.143141746521,14.1431608200073,14.143180847168,14.1432008743286,14.1432218551636,14.1432437896729,14.1432609558105,14.1432828903198,14.1433029174805,14.1433238983154,14.1433439254761,14.1433629989624,14.1433849334717,14.143404006958,14.1434240341187,14.1434450149536,14.1434650421143,14.1434869766235,14.1435060501099,14.1435260772705,14.1435470581055,14.1435670852661,14.1435871124268,14.1436100006104,14.1436281204224,14.1436491012573,14.143669128418,14.1436882019043,14.1437101364136,14.1437301635742,14.1437492370605,14.1437711715698,14.1437902450562,14.1438102722168,14.1438312530518,14.1438493728638,14.1438732147217,14.143892288208,14.1439123153687,14.1439332962036,14.1439533233643,14.1439714431763,14.1439943313599,14.1440143585205,14.1440334320068,14.1440553665161,14.1440734863281,14.1440963745117,14.1441164016724,14.1441354751587,14.144157409668,14.1441764831543,14.1441946029663,14.1442165374756,14.1442375183105,14.1442594528198,14.1442785263062,14.1442985534668,14.1443185806274,14.1443376541138,14.1443576812744,14.144380569458,14.1444005966187,14.1444206237793,14.1444396972656,14.1444597244263,14.1444826126099,14.1445026397705,14.1445226669312,14.1445417404175,14.1445617675781,14.1445817947388,14.1446046829224,14.1446237564087,14.1446437835693,14.14466381073,14.1446838378906,14.1447048187256,14.1447257995605,14.1447458267212,14.1447677612305,14.1447849273682,14.1448049545288,14.1448268890381,14.1448459625244,14.1448678970337,14.1448888778687,14.1449069976807,14.1449289321899,14.1449480056763,14.1449680328369,14.1449909210205,14.1450090408325,14.1450300216675,14.1450500488281,14.1450700759888,14.1450929641724,14.145112991333,14.145131111145,14.14515209198,14.1451721191406,14.1451921463013,14.1452131271362,14.1452331542969,14.1452522277832,14.1452741622925,14.1452932357788,14.1453151702881,14.1453351974487,14.1453542709351,14.1453762054443,14.1453952789307,14.1454172134399,14.1454372406006,14.1454563140869,14.1454782485962,14.1454973220825,14.1455173492432,14.1455392837524,14.1455583572388,14.1455783843994,14.1455984115601,14.145619392395,14.1456394195557,14.1456594467163,14.1456804275513,14.1457014083862,14.1457195281982,14.1457395553589,14.1457614898682,14.1457805633545,14.1458024978638,14.1458215713501,14.1458415985107,14.14586353302,14.1458826065063,14.1459045410156,14.1459255218506,14.1459436416626,14.1459636688232,14.1459846496582,14.1460046768188,14.1460256576538,14.1460456848145,14.1460657119751,14.1460866928101,14.1461067199707,14.1461267471313,14.1461477279663,14.146167755127,14.1461877822876,14.1462087631226,14.1462287902832,14.1462497711182,14.1462697982788,14.1462879180908,14.1463108062744,14.1463308334351,14.1463499069214,14.1463718414307,14.1463918685913,14.1464109420776,14.1464328765869,14.1464529037476,14.1464738845825,14.1464939117432,14.1465129852295,14.1465330123901,14.1465530395508,14.1465730667114,14.146595954895,14.1466150283813,14.1466369628906,14.1466550827026,14.1466751098633,14.1466960906982,14.1467180252075,14.1467370986938,14.1467571258545,14.1467771530151,14.1467981338501,14.1468200683594,14.1468391418457,14.1468591690063
2.93521571159363,2.94183158874512,2.94847750663757,2.955153465271,2.96185970306396,2.96859645843506,2.97536396980286,2.98216223716736,2.98899173736572,2.99585270881653,3.00274515151978,3.00966930389404,3.01662564277649,3.02361416816711,3.0306351184845,3.03768873214722,3.04477524757385,3.05189490318298,3.05904793739319,3.06623458862305,3.07345509529114,3.08070969581604,3.08799839019775,3.09532189369202,3.10268020629883,3.11007356643677,3.11750221252441,3.12496662139893,3.13246655464172,3.14000272750854,3.14757537841797,3.15518450737,3.16283059120178,3.17051362991333,3.17823433876038,3.18599247932434,3.19378876686096,3.20162320137024,3.20949625968933,3.21740818023682,3.2253589630127,3.23334932327271,3.24137949943542,3.24944949150085,3.25755977630615,3.2657105922699,3.27390241622925,3.28213548660278,3.2904098033905,3.29872608184814,3.30708456039429,3.31548547744751,3.32392930984497,3.33241605758667,3.34094643592834,3.34952044487,3.35813856124878,3.36680126190186,3.3755087852478,3.3842613697052,3.39305949211121,3.4019033908844,3.41079354286194,3.41973042488098,3.42871427536011,3.4377453327179,3.4468240737915,3.45595097541809,3.46512627601624,3.4743504524231,3.48362374305725,3.49294686317444,3.50232005119324,3.51174354553223,3.52121782302856,3.53074336051941,3.54032063484192,3.54995012283325,3.55963206291199,3.56936693191528,3.5791552066803,3.58899736404419,3.59889364242554,3.60884475708008,3.61885118484497,3.62891316413879,3.63903117179871,3.64920568466187,3.65943741798401,3.66972661018372,3.68007397651672,3.69047975540161,3.70094442367554,3.71146869659424,3.72205305099487,3.7326979637146,3.74340391159058,3.75417137145996,3.7650101184845,3.77591848373413,3.78689050674438,3.79792618751526,3.80902647972107,3.82019186019897,3.83142280578613,3.84272003173828,3.85408401489258,3.86551547050476,3.87701511383057,3.88858318328857,3.9002206325531,3.91192770004272,3.92370533943176,3.93555426597595,3.94747471809387,3.95946788787842,3.97153401374817,3.98367404937744,3.99588823318481,4.00817775726318,4.02054309844971,4.03298473358154,4.04550409317017,4.05810117721558,4.07077693939209,4.08353185653687,4.09636735916138,4.10928392410278,4.12228155136108,4.13536214828491,4.14852619171143,4.16177368164062,4.17510652542114,4.18852519989014,4.20203018188477,4.21562242507935,4.22930288314819,4.24307250976562,4.25693225860596,4.27088260650635,4.28492498397827,4.29905939102173,4.31328773498535,4.32761096954346,4.34202909469604,4.35654401779175,4.37115573883057,4.38693714141846,4.40327978134155,4.41974449157715,4.43633270263672,4.45304584503174,4.46988582611084,4.48685312271118,4.5039496421814,4.52117729187012,4.53853750228882,4.55603122711182,4.57366037368774,4.59142637252808,4.60933065414429,4.62737560272217,4.64556217193604,4.66389226913452,4.68236780166626,4.70099020004272,4.71976137161255,4.73868274688721,4.75775671005249,4.77629613876343,4.79406595230103,4.81196784973145,4.83000469207764,4.8481764793396,4.86648607254028,4.884934425354,4.90352296829224,4.92225360870361,4.94112777709961,4.96014738082886,4.97931385040283,4.99862909317017,5.01809501647949,5.03771305084229,5.05748462677002,5.07741212844849,5.09749794006348,5.11774301528931,5.13814926147461,5.15871906280518,5.17945384979248,5.20035648345947,5.22142839431763,5.24267148971558,5.26408863067627,5.28568124771118,5.3074517250061,5.32940196990967,5.35153484344482,5.37385225296021,5.3963565826416,5.41905069351196,5.44193696975708,5.46501731872559,5.48829412460327,5.51177024841309,5.53544807434082,5.55932998657227,5.58341932296753,14.0421733856201,14.0421953201294,14.0422143936157,14.0422353744507,14.042254447937,14.042275428772,14.042293548584,14.0423145294189,14.0423355102539,14.0423545837402,14.0423736572266,14.0423946380615,14.0424137115479,14.0424337387085,14.0424547195435,14.0424737930298,14.0424947738647,14.0425138473511,14.0425338745117,14.042552947998,14.042573928833,14.0425930023193,14.0426120758057,14.0426330566406,14.042652130127,14.0426740646362,14.0426931381226,14.0427122116089,14.0427331924438,14.0427522659302,14.0427732467651,14.0427923202515,14.0428123474121,14.0428314208984,14.0428524017334,14.0428714752197,14.0428924560547,14.0429134368896,14.042932510376,14.0429515838623,14.0429706573486,14.0429925918579,14.0430097579956,14.0430326461792,14.0430517196655,14.0430707931519,14.0430908203125,14.0431118011475,14.0431308746338,14.0431499481201,14.0431709289551,14.0431900024414,14.0432109832764,14.043231010437,14.0432500839233,14.0432710647583,14.0432920455933,14.043309211731,14.0433301925659,14.0433502197266,14.0433692932129,14.0433883666992,14.0434074401855,14.0434303283691,14.0434494018555,14.0434713363647,14.0434894561768,14.0435094833374,14.0435304641724,14.0435495376587,14.043568611145,14.0435914993286,14.0436086654663,14.0436296463013,14.0436496734619,14.0436706542969,14.0436916351318,14.0437107086182,14.0437278747559,14.0437507629395,14.0437698364258,14.0437898635864,14.0438108444214,14.0438299179077,14.0438508987427,14.043869972229,14.0438890457153,14.0439109802246,14.0439300537109,14.0439491271973,14.0439701080322,14.0439910888672,14.0440101623535,14.0440301895142,14.0440511703491,14.0440702438354,14.0440893173218,14.0441102981567,14.0441312789917,14.0441513061523,14.0441703796387,14.044189453125,14.04421043396,14.0442314147949,14.0442504882812,14.0442714691162,14.0442905426025,14.0443105697632,14.0443296432495,14.0443506240845,14.0443716049194,14.0443906784058,14.0444116592407,14.0444307327271,14.0444507598877,14.0444717407227,14.044490814209,14.0445117950439,14.0445308685303,14.0445499420166,14.0445718765259,14.0445909500122,14.0446119308472,14.0446329116821,14.0446500778198,14.0446710586548,14.0446920394897,14.0447111129761,14.0447311401367,14.0447511672974,14.0447702407837,14.044792175293,14.0448112487793,14.0448322296143,14.0448532104492,14.0448703765869,14.0448923110962,14.0449113845825,14.0449304580688,14.0449533462524,14.0449724197388,14.0449914932251,14.0450124740601,14.0450315475464,14.0450534820557,14.045072555542,14.0450897216797,14.0451126098633,14.0451316833496,14.0451526641846,14.0451726913452,14.0451917648315,14.0452127456665,14.0452318191528,14.0452508926392,14.0452737808228,14.0452928543091,14.045313835144,14.0453329086304,14.0453519821167,14.0453720092773,14.0453929901123,14.0454120635986,14.0454349517822,14.0454521179199,14.0454730987549,14.0454931259155,14.0455121994019,14.0455331802368,14.0455522537231,14.0455713272095,14.0455942153931,14.0456132888794,14.0456342697144,14.045654296875,14.045672416687,14.0456924438477,14.0457134246826,14.0457324981689,14.0457515716553,14.0457744598389,14.0457935333252,14.0458135604858,14.0458326339722,14.0458536148071,14.0458745956421,14.0458936691284,14.0459127426147,14.0459337234497,14.0459547042847,14.0459747314453,14.0459938049316,14.046012878418,14.0460338592529,14.0460529327393,14.0460720062256,14.0460948944092,14.0461139678955,14.0461330413818,14.0461540222168,14.0461740493774,14.0461950302124,14.0462141036987,14.0462331771851,14.04625415802,14.0462732315063,14.0462942123413,14.0463151931763,14.0463352203369,14.0463542938232,14.0463733673096,14.0463924407959,14.0464153289795,14.0464344024658,14.0464553833008,14.0464744567871,14.0464954376221,14.0465145111084,14.046534538269,14.0465536117554,14.046576499939,14.0465936660767,14.0466146469116,14.0466356277466,14.0466566085815,14.0466756820679,14.0466957092285,14.0467138290405,14.0467338562012,14.0467548370361,14.0467739105225,14.0467967987061,14.0468139648438,14.0468349456787,14.0468559265137,14.046875,14.0468950271606,14.0469160079956,14.0469341278076,14.0469560623169,14.0469751358032,14.0469961166382,14.0470170974731,14.0470361709595,14.0470552444458,14.0470752716064,14.0470952987671,14.0471143722534,14.0471363067627,14.047155380249,14.047176361084,14.0471954345703,14.0472164154053,14.0472373962402,14.0472564697266,14.0472736358643,14.0472955703735,14.0473146438599,14.0473375320435,14.0473566055298,14.0473775863647,14.0473966598511,14.0474157333374,14.0474348068237
2.92915916442871,2.9357476234436,2.94236612319946,2.94901442527771,2.95569276809692,2.96240139007568,2.96914052963257,2.97591066360474,2.98271155357361,2.98954343795776,2.99640679359436,3.00330185890198,3.01022863388062,3.01718759536743,3.02417850494385,3.0312020778656,3.03825831413269,3.04534769058228,3.05246996879578,3.05962562561035,3.06681513786316,3.07403826713562,3.08129549026489,3.08858728408813,3.09591364860535,3.10327458381653,3.11067080497742,3.11810231208801,3.12556958198547,3.1330726146698,3.14061164855957,3.14818716049194,3.15579915046692,3.16344809532166,3.17113447189331,3.17885804176331,3.1866192817688,3.19441866874695,3.20225620269775,3.21013236045837,3.21804738044739,3.22600150108337,3.23399496078491,3.24202823638916,3.25010132789612,3.25821495056152,3.26636910438538,3.27456426620483,3.2828004360199,3.2910783290863,3.29939794540405,3.30776000022888,3.31616425514221,3.32461142539978,3.33310174942017,3.34163570404053,3.35021328926086,3.35883498191833,3.3675012588501,3.37621235847473,3.38496851921082,3.39377045631409,3.40261816978455,3.41151189804077,3.42045259475708,3.42944002151489,3.43847489356995,3.4475576877594,3.45668840408325,3.46586751937866,3.47509574890137,3.48437309265137,3.4937002658844,3.50307726860046,3.5125048160553,3.52198338508606,3.53151321411133,3.54109454154968,3.55072832107544,3.5604145526886,3.57015371322632,3.57994627952576,3.58979272842407,3.59969353675842,3.60964894294739,3.61965990066528,3.62972617149353,3.63984870910645,3.65002799034119,3.66026425361633,3.67055821418762,3.68091011047363,3.6913206577301,3.70179033279419,3.71231937408447,3.72290849685669,3.733558177948,3.74426913261414,3.75504159927368,3.76587629318237,3.77678179740906,3.78775858879089,3.79879951477051,3.80990481376648,3.82107520103455,3.83231163024902,3.84361410140991,3.85498332977295,3.86642003059387,3.87792491912842,3.88949847221375,3.90114140510559,3.91285419464111,3.92463731765747,3.93649196624756,3.94841814041138,3.96041703224182,3.97248911857605,3.98463487625122,3.99685502052307,4.00915050506592,4.02152156829834,4.03396940231323,4.04649496078491,4.05909824371338,4.07178020477295,4.08454179763794,4.09738302230835,4.11030578613281,4.12331056594849,4.13639736175537,4.1495680809021,4.16282272338867,4.17616176605225,4.18958711624146,4.2030987739563,4.21669816970825,4.23038578033447,4.24416255950928,4.25802946090698,4.27198696136475,4.28603649139404,4.30017852783203,4.31441450119019,4.32874488830566,4.34317064285278,4.35769271850586,4.37231254577637,4.38733053207397,4.40367603302002,4.42014360427856,4.43673515319824,4.45345115661621,4.47029399871826,4.48726463317871,4.50436449050903,4.52159547805786,4.53895854949951,4.55645561218262,4.57408809661865,4.59185743331909,4.60976552963257,4.6278133392334,4.64600372314453,4.66433715820312,4.68281602859497,4.7014422416687,4.72021675109863,4.73914194107056,4.75821971893311,4.77745151519775,4.79566144943237,4.81357574462891,4.83162403106689,4.84980869293213,4.86813020706177,4.8865909576416,4.90519237518311,4.92393589019775,4.94282293319702,4.96185541152954,4.98103523254395,5.00036382675171,5.01984357833862,5.03947496414185,5.05926036834717,5.07920217514038,5.09930181503296,5.11956119537354,5.13998222351074,5.16056680679321,5.18131637573242,5.20223379135132,5.22332143783569,5.24457979202271,5.26601219177246,5.28762102127075,5.30940723419189,5.33137369155884,5.35352325439453,5.37585735321045,5.39837837219238,5.42108917236328,5.44399213790894,5.46709012985229,5.49038457870483,5.5138783454895,5.53757429122925,5.56147527694702,5.5855827331543,5.60990047454834,13.9442529678345,13.9442710876465,13.9442930221558,13.9443120956421,13.9443321228027,13.9443521499634,13.944372177124,13.944390296936,13.944408416748,13.9444303512573,13.944447517395,13.9444694519043,13.9444875717163,13.9445095062256,13.9445276260376,13.9445495605469,13.9445657730103,13.9445877075195,13.9446067810059,13.9446249008179,13.9446449279785,13.9446649551392,13.9446849822998,13.9447050094604,13.9447250366211,13.9447431564331,13.9447641372681,13.9447841644287,13.9448022842407,13.9448223114014,13.944842338562,13.944860458374,13.9448804855347,13.9449024200439,13.9449214935303,13.9449415206909,13.9449615478516,13.9449777603149,13.9449996948242,13.9450178146362,13.9450387954712,13.9450569152832,13.9450788497925,13.9450969696045,13.9451189041138,13.9451370239258,13.9451551437378,13.9451761245728,13.9451961517334,13.9452142715454,13.9452342987061,13.9452562332153,13.9452724456787,13.945294380188,13.9453144073486,13.945333480835,13.9453535079956,13.9453735351562,13.9453916549683,13.9454116821289,13.9454317092896,13.9454507827759,13.9454708099365,13.9454889297485,13.9455108642578,13.9455308914185,13.9455490112305,13.9455690383911,13.9455881118774,13.9456090927124,13.9456281661987,13.9456481933594,13.94566822052,13.945686340332,13.9457063674927,13.9457263946533,13.945746421814,13.9457654953003,13.9457855224609,13.9458036422729,13.9458255767822,13.9458456039429,13.9458637237549,13.9458856582642,13.9459047317505,13.9459228515625,13.9459447860718,13.9459648132324,13.9459829330444,13.9460048675537,13.9460220336914,13.9460430145264,13.9460620880127,13.9460821151733,13.946102142334,13.9461221694946,13.9461402893066,13.9461603164673,13.9461812973022,13.9462013244629,13.9462213516235,13.9462394714355,13.9462594985962,13.9462795257568,13.9462985992432,13.9463195800781,13.9463396072388,13.9463567733765,13.9463787078857,13.9463987350464,13.946418762207,13.9464387893677,13.9464569091797,13.9464778900146,13.9464979171753,13.9465160369873,13.9465379714966,13.9465560913086,13.9465780258179,13.9465951919556,13.9466152191162,13.9466352462769,13.9466552734375,13.9466753005981,13.9466934204102,13.9467134475708,13.9467325210571,13.9467544555664,13.9467744827271,13.9467945098877,13.9468126296997,13.9468326568604,13.946852684021,13.9468727111816,13.946891784668,13.9469137191772,13.9469318389893,13.9469518661499,13.9469718933105,13.9469900131226,13.9470119476318,13.9470291137695,13.9470491409302,13.9470691680908,13.9470891952515,13.9471092224121,13.9471292495728,13.9471483230591,13.9471683502197,13.9471883773804,13.9472064971924,13.9472284317017,13.9472484588623,13.947265625,13.9472875595093,13.9473075866699,13.9473257064819,13.9473476409912,13.9473657608032,13.9473857879639,13.9474067687988,13.9474248886108,13.9474468231201,13.9474649429321,13.9474830627441,13.9475040435791,13.9475240707397,13.9475440979004,13.947564125061,13.9475841522217,13.9476022720337,13.9476222991943,13.9476432800293,13.9476633071899,13.947681427002,13.9477014541626,13.9477214813232,13.9477405548096,13.9477615356445,13.9477815628052,13.9478006362915,13.9478225708008,13.9478406906128,13.9478588104248,13.9478807449341,13.9478998184204,13.9479207992554,13.9479379653931,13.9479579925537,13.9479780197144,13.947998046875,13.94801902771,13.9480390548706,13.9480571746826,13.9480772018433,13.9480972290039,13.9481172561646,13.9481372833252,13.9481563568115,13.9481744766235,13.9481964111328,13.9482145309448,13.9482355117798,13.9482555389404,13.9482755661011,13.9482955932617,13.9483137130737,13.9483337402344,13.9483556747437,13.94837474823,13.948392868042,13.9484128952026,13.9484329223633,13.9484529495239,13.9484729766846,13.9484930038452,13.9485120773315,13.9485321044922,13.9485521316528,13.9485721588135,13.9485912322998,13.9486112594604,13.9486293792725,13.9486494064331,13.9486713409424,13.9486894607544,13.9487104415894,13.94873046875,13.948748588562,13.9487686157227,13.9487886428833,13.9488086700439,13.9488277435303,13.9488477706909,13.9488677978516,13.9488878250122,13.9489078521729,13.9489269256592,13.9489479064941,13.9489669799805,13.9489850997925,13.9490070343018,13.9490251541138,13.9490461349487,13.9490661621094,13.9490842819214,13.949104309082,13.9491243362427,13.9491443634033,13.9491653442383,13.9491834640503,13.9492015838623,13.9492235183716,13.9492425918579,13.9492635726929,13.9492826461792,13.9493007659912,13.9493227005005,13.9493408203125,13.9493618011475,13.9493818283081,13.9494018554688
2.92312741279602,2.92968893051147,2.93627977371216,2.94290065765381,2.94955134391785,2.95623207092285,2.96294331550598,2.96968483924866,2.97645735740662,2.98326086997986,2.99009537696838,2.99696135520935,3.00385880470276,3.01078820228577,3.01774954795837,3.02474331855774,3.03176951408386,3.03882837295532,3.0459201335907,3.05304527282715,3.06020379066467,3.06739568710327,3.07462167739868,3.0818817615509,3.08917641639709,3.09650540351868,3.10386919975281,3.11126828193665,3.11870265007019,3.1261727809906,3.13367867469788,3.1412205696106,3.1487991809845,3.156414270401,3.16406607627869,3.17175531387329,3.17948198318481,3.18724632263184,3.19504857063293,3.20288944244385,3.210768699646,3.21868681907654,3.22664403915405,3.2346408367157,3.24267721176147,3.25075364112854,3.25887036323547,3.26702785491943,3.275226354599,3.28346586227417,3.29174709320068,3.30007028579712,3.30843544006348,3.31684327125549,3.32529401779175,3.33378767967224,3.34232521057129,3.35090637207031,3.35953164100647,3.36820149421692,3.37691617012024,3.38567590713501,3.39448142051697,3.40333294868469,3.41223073005676,3.42117500305176,3.43016624450684,3.43920493125916,3.44829154014587,3.45742630958557,3.46660923957825,3.4758415222168,3.48512291908264,3.49445390701294,3.50383496284485,3.51326680183411,3.52274942398071,3.53228330612183,3.5418689250946,3.55150675773621,3.56119728088379,3.57094073295593,3.58073759078979,3.59058833122253,3.60049366950989,3.61045360565186,3.62046885490417,3.63053965568542,3.64066696166992,3.65085077285767,3.66109156608582,3.67139005661011,3.6817467212677,3.69216203689575,3.70263648033142,3.71317028999329,3.72376441955566,3.73441910743713,3.74513483047485,3.75591230392456,3.76675200462341,3.77765440940857,3.78862714767456,3.79967308044434,3.81078362464905,3.82195925712585,3.83320069313049,3.84450840950012,3.85588312149048,3.86732506752014,3.87883543968201,3.89041447639465,3.90206289291382,3.91378092765808,3.92557001113892,3.93743014335632,3.94936203956604,3.96136665344238,3.97344422340393,3.98559594154358,3.99782204627991,4.01012372970581,4.02250099182129,4.03495502471924,4.04748630523682,4.06009578704834,4.07278394699097,4.08555173873901,4.09839963912964,4.11132860183716,4.12434005737305,4.13743352890015,4.15061044692993,4.16387176513672,4.17721796035767,4.19064998626709,4.20416879653931,4.21777486801147,4.23146915435791,4.24525308609009,4.25912714004517,4.2730917930603,4.28714847564697,4.30129814147949,4.31554126739502,4.32987928390503,4.34431266784668,4.35884237289429,4.37346982955933,4.38819599151611,4.40407276153564,4.42054319381714,4.43713760375977,4.45385694503784,4.47070264816284,4.48767614364624,4.50477933883667,4.52201366424561,4.53937959671021,4.55687999725342,4.57451581954956,4.59228849411011,4.61019992828369,4.62825155258179,4.64644479751587,4.66478204727173,4.68326473236084,4.70189428329468,4.72067260742188,4.73960113525391,4.75868272781372,4.77791833877563,4.7972583770752,4.81518411636353,4.83324480056763,4.85144138336182,4.86977577209473,4.88824892044067,4.90686273574829,4.92561912536621,4.94451904296875,4.9635648727417,4.98275804519653,5.00209999084473,5.02159261703491,5.04123830795288,5.06103801727295,5.08099317550659,5.10110712051392,5.12138080596924,5.14181661605835,5.16241550445557,5.18318033218384,5.2041130065918,5.22521543502808,5.24648952484131,5.26793766021729,5.2895622253418,5.31136465072632,5.33334732055664,5.35551309585571,5.37786388397217,5.40040159225464,5.42312955856323,5.44604969024658,5.46916437149048,5.49247646331787,5.51598882675171,5.53970289230347,5.56362199783325,5.5877480506897,5.61208438873291,5.63663387298584,13.8476867675781,13.8477058410645,13.8477239608765,13.8477449417114,13.8477640151978,13.8477840423584,13.8478031158447,13.8478212356567,13.8478422164917,13.8478603363037,13.8478813171387,13.8478994369507,13.8479204177856,13.847939491272,13.847957611084,13.8479766845703,13.847996711731,13.8480157852173,13.8480348587036,13.8480567932129,13.8480739593506,13.8480939865112,13.8481130599976,13.8481321334839,13.8481521606445,13.8481712341309,13.8481893539429,13.8482084274292,13.8482303619385,13.8482475280762,13.8482675552368,13.8482866287231,13.8483057022095,13.8483257293701,13.8483467102051,13.8483629226685,13.8483819961548,13.8484039306641,13.8484210968018,13.8484420776367,13.8484621047974,13.8484811782837,13.8484992980957,13.8485202789307,13.8485383987427,13.848557472229,13.848578453064,13.848596572876,13.8486175537109,13.8486356735229,13.8486547470093,13.8486747741699,13.8486957550049,13.8487129211426,13.8487310409546,13.8487520217896,13.8487701416016,13.8487911224365,13.8488111495972,13.8488302230835,13.8488492965698,13.8488693237305,13.8488874435425,13.8489065170288,13.8489255905151,13.8489456176758,13.8489646911621,13.8489847183228,13.8490037918091,13.8490228652954,13.8490428924561,13.8490619659424,13.849081993103,13.8490991592407,13.84912109375,13.8491401672363,13.8491592407227,13.8491792678833,13.8491983413696,13.8492183685303,13.8492374420166,13.8492555618286,13.8492765426636,13.8492956161499,13.8493175506592,13.8493347167969,13.8493528366089,13.8493738174438,13.8493938446045,13.8494129180908,13.8494319915771,13.8494501113892,13.8494701385498,13.8494911193848,13.8495101928711,13.8495302200317,13.8495473861694,13.8495674133301,13.849588394165,13.8496074676514,13.849627494812,13.8496465682983,13.8496646881104,13.8496837615967,13.8497047424316,13.8497247695923,13.8497457504272,13.8497657775879,13.849781036377,13.8498029708862,13.8498220443726,13.8498401641846,13.8498611450195,13.8498802185059,13.8499002456665,13.8499193191528,13.8499374389648,13.8499584197998,13.8499784469604,13.8499956130981,13.8500165939331,13.8500347137451,13.8500547409058,13.8500757217407,13.8500947952271,13.8501148223877,13.8501319885254,13.850152015686,13.850172996521,13.8501920700073,13.850212097168,13.85023021698,13.8502511978149,13.8502702713013,13.8502902984619,13.8503093719482,13.8503303527832,13.8503484725952,13.8503665924072,13.8503875732422,13.8504066467285,13.8504247665405,13.8504457473755,13.8504638671875,13.8504848480225,13.8505039215088,13.8505220413208,13.8505430221558,13.8505611419678,13.8505802154541,13.8506002426147,13.8506193161011,13.8506412506104,13.8506603240967,13.8506784439087,13.850697517395,13.8507175445557,13.850736618042,13.850757598877,13.850775718689,13.8507947921753,13.8508167266846,13.8508358001709,13.8508548736572,13.8508749008179,13.8508930206299,13.8509140014648,13.8509321212769,13.8509511947632,13.8509721755981,13.8509902954102,13.8510084152222,13.8510293960571,13.8510484695435,13.8510694503784,13.8510875701904,13.8511075973511,13.8511266708374,13.8511457443237,13.8511657714844,13.8511848449707,13.8512048721313,13.8512239456177,13.8512439727783,13.8512630462646,13.8512830734253,13.8513021469116,13.8513221740723,13.8513412475586,13.8513603210449,13.8513803482056,13.8513994216919,13.8514194488525,13.8514404296875,13.8514585494995,13.8514776229858,13.8514986038208,13.8515167236328,13.8515367507935,13.8515558242798,13.8515739440918,13.8515949249268,13.8516139984131,13.8516340255737,13.8516530990601,13.8516712188721,13.8516902923584,13.8517122268677,13.851731300354,13.8517513275146,13.851770401001,13.851788520813,13.8518095016479,13.8518285751343,13.8518486022949,13.8518676757812,13.8518877029419,13.8519058227539,13.8519268035889,13.8519458770752,13.8519659042358,13.8519849777222,13.8520050048828,13.8520240783691,13.8520421981812,13.8520612716675,13.8520822525024,13.8521003723145,13.8521203994751,13.8521394729614,13.8521595001221,13.852180480957,13.8521995544434,13.852219581604,13.8522367477417,13.8522567749023,13.8522758483887,13.8522977828979,13.8523168563843,13.8523368835449,13.8523540496826,13.8523740768433,13.8523950576782,13.8524141311646,13.8524322509766,13.8524522781372,13.8524713516235,13.8524894714355,13.8525104522705,13.8525295257568,13.8525514602661,13.8525686264038,13.8525867462158,13.8526077270508,13.8526277542114,13.8526468276978,13.8526668548584,13.8526849746704,13.8527040481567,13.8527250289917
0,0,0,0,0,2.95008850097656,2.95677185058594,2.96348524093628,2.97022938728333,2.97700452804565,2.98381042480469,2.990647315979,2.99751591682434,3.00441598892212,3.0113480091095,3.01831197738647,3.02530813217163,3.03233695030212,3.03939867019653,3.04649305343628,3.0536208152771,3.06078195571899,3.06797671318054,3.0752055644989,3.08246827125549,3.08976554870605,3.09709739685059,3.10446405410767,3.11186599731445,3.11930322647095,3.12677621841431,3.13428497314453,3.14182996749878,3.14941120147705,3.15702939033508,3.1646842956543,3.17237639427185,3.1801061630249,3.18787360191345,3.19567894935608,3.20352292060852,3.2114052772522,3.21932649612427,3.22728681564331,3.23528671264648,3.24332642555237,3.25140619277954,3.25952625274658,3.26768708229065,3.27588868141174,3.2841317653656,3.29241633415222,3.30074262619019,3.30911135673523,3.31752252578735,3.32597684860229,3.33447408676147,3.34301495552063,3.35159969329834,3.36022853851318,3.36890196800232,3.37762022018433,3.38638377189636,3.39519309997559,3.404048204422,3.41294956207275,3.42189764976501,3.43089294433594,3.43993544578552,3.44902586936951,3.45816421508789,3.46735143661499,3.47658753395081,3.48587274551392,3.49520802497864,3.50459313392639,3.51402878761292,3.52351570129395,3.5330536365509,3.54264354705811,3.55228567123413,3.56198024749756,3.57172799110413,3.58152937889099,3.59138464927673,3.60129427909851,3.6112585067749,3.62127828598022,3.63135361671448,3.6414852142334,3.65167379379272,3.66191935539246,3.67222237586975,3.68258380889893,3.69300389289856,3.70348286628723,3.71402168273926,3.72462058067322,3.73528003692627,3.74600100517273,3.7567834854126,3.76762819290161,3.77853560447693,3.78950643539429,3.80054712295532,3.8116626739502,3.82284355163574,3.83409023284912,3.84540319442749,3.85678315162659,3.86823058128357,3.87974643707275,3.89133071899414,3.90298461914062,3.91470837593079,3.92650294303894,3.93836855888367,3.95030641555786,3.9623167514801,3.97440004348755,3.98655772209167,3.99878978729248,4.0110969543457,4.02348041534424,4.03594064712524,4.04847812652588,4.06109380722046,4.07378816604614,4.08656215667725,4.09941673278809,4.11235237121582,4.12536954879761,4.13846969604492,4.15165328979492,4.16492128372192,4.17827415466309,4.19171285629272,4.20523881912231,4.21885204315186,4.23255348205566,4.24634408950806,4.26022529602051,4.27419710159302,4.28826141357422,4.30241823196411,4.31666898727417,4.33101415634155,4.34545516967773,4.35999298095703,4.3746280670166,4.38936185836792,4.40446949005127,4.42094278335571,4.43754005432129,4.45426225662231,4.47111129760742,4.48808813095093,4.50519418716431,4.52243137359619,4.53980112075806,4.55730485916138,4.57494354248047,4.59271955490112,4.61063432693481,4.62868928909302,4.64688634872437,4.66522693634033,4.68371295928955,4.7023458480835,4.72112798690796,4.74006032943726,4.75914525985718,4.77838468551636,4.79778051376343,4.81679391860962,4.83486700057983,4.85307550430298,4.871422290802,4.88990783691406,4.90853452682495,4.92730331420898,4.94621658325195,4.96527528762817,4.98448181152344,5.00383710861206,5.02334356307983,5.04300260543823,5.06281614303589,5.08278608322144,5.10291385650635,5.12320184707642,5.14365196228027,5.16426610946655,5.18504571914673,5.20599317550659,5.22711086273193,5.24840068817139,5.26986455917358,5.29150438308716,5.31332302093506,5.33532238006592,5.35750436782837,5.37987184524536,5.40242671966553,5.42517185211182,5.44810914993286,5.47124099731445,5.49457025527954,5.51810026168823,5.541832447052,5.56577014923096,5.58991479873657,5.61427068710327,5.63883876800537,13.7524299621582,13.7524490356445,13.7524671554565,13.7524881362915,13.7525072097778,13.7525272369385,13.7525444030762,13.7525615692139,13.7525844573975,13.7526016235352,13.7526216506958,13.7526388168335,13.7526597976685,13.7526779174805,13.7526988983154,13.7527179718018,13.7527351379395,13.7527551651001,13.7527742385864,13.7527933120728,13.7528114318848,13.7528324127197,13.7528495788574,13.7528705596924,13.7528886795044,13.7529058456421,13.7529268264771,13.7529458999634,13.752965927124,13.7529830932617,13.7530040740967,13.7530212402344,13.753041267395,13.7530603408813,13.753077507019,13.753098487854,13.753116607666,13.7531356811523,13.7531566619873,13.7531747817993,13.7531938552856,13.753212928772,13.7532329559326,13.7532520294189,13.7532711029053,13.7532901763916,13.7533092498779,13.7533273696899,13.7533483505249,13.7533655166626,13.7533855438232,13.7534046173096,13.7534236907959,13.7534427642822,13.7534608840942,13.7534799575806,13.7534990310669,13.7535200119019,13.7535371780396,13.7535572052002,13.7535762786865,13.7535953521729,13.7536134719849,13.7536344528198,13.7536516189575,13.7536706924438,13.7536907196045,13.7537097930908,13.7537307739258,13.7537488937378,13.7537660598755,13.7537870407104,13.7538042068481,13.7538261413574,13.7538433074951,13.7538623809814,13.7538833618164,13.7539014816284,13.7539205551147,13.7539415359497,13.7539596557617,13.753978729248,13.7539978027344,13.7540168762207,13.7540369033813,13.7540559768677,13.754075050354,13.7540941238403,13.7541122436523,13.7541313171387,13.7541522979736,13.75417137146,13.754189491272,13.7542085647583,13.7542276382446,13.7542476654053,13.7542667388916,13.7542858123779,13.7543048858643,13.7543239593506,13.7543439865112,13.7543630599976,13.7543821334839,13.7544021606445,13.7544193267822,13.7544384002686,13.7544593811035,13.7544775009155,13.7544965744019,13.7545175552368,13.7545347213745,13.7545547485352,13.7545738220215,13.7545928955078,13.7546129226685,13.7546300888062,13.7546510696411,13.7546701431274,13.7546892166138,13.7547073364258,13.7547283172607,13.7547454833984,13.7547664642334,13.7547845840454,13.7548036575317,13.7548246383667,13.7548446655273,13.754861831665,13.7548828125,13.7548999786377,13.7549200057983,13.7549390792847,13.754958152771,13.7549772262573,13.7549962997437,13.7550163269043,13.7550373077393,13.755054473877,13.7550716400146,13.7550935745239,13.7551107406616,13.7551317214966,13.7551498413086,13.7551708221436,13.7551879882812,13.7552089691162,13.7552270889282,13.7552480697632,13.7552652359009,13.7552862167358,13.7553033828735,13.7553234100342,13.7553424835205,13.7553625106812,13.7553815841675,13.7554025650024,13.7554197311401,13.7554368972778,13.7554569244385,13.7554759979248,13.7554969787598,13.7555141448975,13.7555341720581,13.7555551528931,13.7555742263794,13.7555913925171,13.7556133270264,13.7556285858154,13.755651473999,13.7556686401367,13.7556886672974,13.7557077407837,13.7557287216187,13.7557458877563,13.755765914917,13.7557849884033,13.755802154541,13.755823135376,13.7558422088623,13.7558603286743,13.7558813095093,13.7559003829956,13.7559204101562,13.7559394836426,13.7559566497803,13.7559776306152,13.7559947967529,13.7560148239136,13.7560338973999,13.7560548782349,13.7560729980469,13.7560920715332,13.7561111450195,13.7561321258545,13.7561492919922,13.7561693191528,13.7561864852905,13.7562074661255,13.7562265396118,13.7562465667725,13.7562656402588,13.7562847137451,13.7563037872314,13.7563209533691,13.7563428878784,13.7563619613647,13.7563810348511,13.7564001083374,13.7564182281494,13.7564392089844,13.7564582824707,13.7564754486084,13.7564973831177,13.7565145492554,13.7565336227417,13.756552696228,13.7565727233887,13.7565937042236,13.75661277771,13.7566299438477,13.7566499710083,13.7566690444946,13.756688117981,13.7567071914673,13.7567262649536,13.7567453384399,13.7567653656006,13.7567844390869,13.7568044662476,13.7568235397339,13.7568397521973,13.7568616867065,13.7568788528442,13.7568998336792,13.7569198608398,13.7569389343262,13.7569580078125,13.7569770812988,13.7569942474365,13.7570161819458,13.7570333480835,13.7570524215698,13.7570714950562,13.7570915222168,13.7571105957031,13.7571315765381,13.7571506500244,13.7571687698364,13.7571878433228,13.7572050094604,13.7572259902954,13.7572450637817,13.7572650909424,13.7572841644287,13.757303237915,13.7573232650757,13.757342338562,13.7573595046997,13.7573804855347
0,0,0,0,0,0,0,0,0,0,0,0,0,0,0,0,0,0,0,0,0,0,0,0,0,0,0,0,0,0,0,0,0,3.14243936538696,3.15002369880676,3.15764474868774,3.16530275344849,3.17299795150757,3.18073058128357,3.18850111961365,3.1963095664978,3.20415639877319,3.21204209327698,3.21996641159058,3.22793006896973,3.23593306541443,3.24397587776184,3.25205898284912,3.26018238067627,3.26834630966187,3.27655124664307,3.28479766845703,3.29308557510376,3.30141544342041,3.30978751182556,3.31820225715637,3.32665991783142,3.33516073226929,3.34370493888855,3.35229325294495,3.36092567443848,3.3696026802063,3.37832474708557,3.38709187507629,3.3959047794342,3.40476369857788,3.4136688709259,3.42262077331543,3.43161964416504,3.44066596031189,3.44976019859314,3.45890283584595,3.46809387207031,3.47733378410339,3.48662304878235,3.49596214294434,3.50535154342651,3.51479148864746,3.52428221702576,3.53382444381714,3.54341864585876,3.55306482315063,3.56276369094849,3.57251572608948,3.58232140541077,3.59218096733093,3.60209488868713,3.61206364631653,3.62208795547485,3.63216781616211,3.64230418205261,3.65249705314636,3.66274738311768,3.67305517196655,3.68342113494873,3.69384598731995,3.7043297290802,3.71487355232239,3.72547721862793,3.73614168167114,3.74686741828918,3.75765490531921,3.76850461959839,3.77941727638245,3.79039311408997,3.80143308639526,3.8125422000885,3.82372832298279,3.83498024940491,3.84629845619202,3.85768365859985,3.86913657188416,3.88065767288208,3.89224743843079,3.90390682220459,3.91563630104065,3.92743635177612,3.93930768966675,3.95125102996826,3.9632670879364,3.97535634040833,3.98751974105835,3.99975776672363,4.01207113265991,4.02446031570435,4.03692674636841,4.0494704246521,4.06209182739258,4.07479286193848,4.08757305145264,4.10043382644653,4.11337614059448,4.12639999389648,4.13950681686401,4.15269660949707,4.16597127914429,4.17933130264282,4.19277667999268,4.20630931854248,4.21992921829224,4.23363780975342,4.24743556976318,4.26132392883301,4.27530336380005,4.28937435150146,4.30353879928589,4.31779670715332,4.33214998245239,4.34659862518311,4.36114358901978,4.37578678131104,4.39052820205688,4.40536975860596,4.42134237289429,4.43794250488281,4.45466804504395,4.471519947052,4.48850011825562,4.5056095123291,4.52284955978394,4.54022264480591,4.55772924423218,4.57537126541138,4.5931510925293,4.6110692024231,4.62912750244141,4.64732789993286,4.66567182540894,4.68416166305542,4.70279836654663,4.7215838432312,4.74052000045776,4.75960874557495,4.7788519859314,4.79825115203857,4.81780815124512,4.8364896774292,4.85471057891846,4.87306976318359,4.89156818389893,4.91020727157593,4.92898893356323,4.94791507720947,4.96698713302612,4.98620653152466,5.00557565689087,5.02509546279907,5.04476833343506,5.0645956993103,5.08457946777344,5.10472202301025,5.12502431869507,5.14548873901367,5.16611766815186,5.18691205978394,5.20787525177002,5.22900819778442,5.25031328201294,5.27179288864136,5.29344844818115,5.31528329849243,5.33729887008667,5.35949754714966,5.38188123703003,5.40445327758789,5.42721509933472,5.45016956329346,5.4733190536499,5.496666431427,5.52021360397339,5.54396390914917,5.56791973114014,5.59208345413208,5.61645793914795,5.64104557037354,5.66584968566895,13.6584949493408,13.6585111618042,13.6585330963135,13.6585493087769,13.6585683822632,13.6585874557495,13.6586074829102,13.6586256027222,13.6586446762085,13.6586637496948,13.6586828231812,13.6587018966675,13.6587209701538,13.6587371826172,13.6587572097778,13.6587772369385,13.6587953567505,13.6588134765625,13.6588335037231,13.6588516235352,13.6588716506958,13.6588897705078,13.6589078903198,13.6589260101318,13.6589460372925,13.6589641571045,13.6589841842651,13.6590042114258,13.6590204238892,13.6590404510498,13.6590585708618,13.6590785980225,13.6590967178345,13.6591157913208,13.6591339111328,13.6591539382935,13.6591730117798,13.6591901779175,13.6592102050781,13.6592283248901,13.6592483520508,13.6592664718628,13.6592845916748,13.6593027114868,13.6593227386475,13.6593427658081,13.6593589782715,13.6593809127808,13.6593971252441,13.6594171524048,13.6594352722168,13.6594543457031,13.6594734191895,13.6594924926758,13.6595115661621,13.6595306396484,13.6595497131348,13.6595687866211,13.6595869064331,13.6596050262451,13.6596250534058,13.6596431732178,13.6596612930298,13.6596813201904,13.6596994400024,13.6597194671631,13.6597356796265,13.6597557067871,13.6597738265991,13.6597938537598,13.6598119735718,13.6598310470581,13.6598510742188,13.6598691940308,13.6598892211914,13.6599082946777,13.6599254608154,13.6599454879761,13.6599655151367,13.6599836349487,13.6600036621094,13.6600217819214,13.6600399017334,13.660059928894,13.6600780487061,13.6600961685181,13.6601161956787,13.6601343154907,13.6601543426514,13.6601724624634,13.6601905822754,13.660210609436,13.6602306365967,13.6602478027344,13.6602668762207,13.6602869033813,13.660306930542,13.660325050354,13.6603441238403,13.6603622436523,13.660382270813,13.660400390625,13.6604204177856,13.6604385375977,13.6604566574097,13.6604747772217,13.6604948043823,13.660514831543,13.660532951355,13.660551071167,13.660569190979,13.6605892181396,13.6606073379517,13.6606292724609,13.6606464385986,13.6606674194336,13.6606845855713,13.6607027053833,13.6607227325439,13.6607427597046,13.6607608795166,13.6607809066772,13.6607971191406,13.6608171463013,13.6608371734619,13.6608552932739,13.6608753204346,13.6608934402466,13.6609115600586,13.6609315872192,13.6609497070312,13.6609678268433,13.6609878540039,13.6610069274902,13.6610250473022,13.6610450744629,13.6610631942749,13.6610841751099,13.6611013412476,13.6611194610596,13.6611394882202,13.6611595153809,13.6611757278442,13.6611976623535,13.6612157821655,13.6612339019775,13.6612520217896,13.6612720489502,13.6612920761108,13.6613101959229,13.6613292694092,13.6613473892212,13.6613674163818,13.6613855361938,13.6614055633545,13.6614236831665,13.6614418029785,13.6614618301392,13.6614799499512,13.6614999771118,13.6615180969238,13.6615381240845,13.6615562438965,13.6615743637085,13.6615943908691,13.6616144180298,13.6616315841675,13.6616516113281,13.6616697311401,13.6616897583008,13.6617097854614,13.6617279052734,13.6617460250854,13.6617641448975,13.6617822647095,13.6618041992188,13.6618223190308,13.6618404388428,13.6618604660034,13.6618776321411,13.6618976593018,13.6619167327881,13.6619358062744,13.6619558334351,13.6619739532471,13.6619920730591,13.6620121002197,13.6620302200317,13.6620483398438,13.6620683670044,13.662088394165,13.6621046066284,13.6621246337891,13.6621437072754,13.6621646881104,13.662181854248,13.6621999740601,13.6622200012207,13.6622400283813,13.6622562408447,13.662278175354,13.662296295166,13.662314414978,13.6623344421387,13.6623525619507,13.6623725891113,13.6623907089233,13.6624097824097,13.6624279022217,13.6624479293823,13.6624660491943,13.662486076355,13.662504196167,13.6625242233276,13.6625423431396,13.6625604629517,13.6625804901123,13.6625986099243,13.662618637085,13.662636756897,13.6626558303833,13.6626739501953,13.662693977356,13.662712097168,13.6627321243286,13.6627502441406,13.6627683639526,13.6627902984619,13.6628065109253,13.6628265380859,13.6628465652466,13.6628637313843,13.6628837585449,13.6629018783569,13.6629219055176,13.6629419326782,13.6629600524902,13.6629781723022,13.6629981994629,13.6630144119263,13.6630344390869,13.6630544662476,13.6630725860596,13.6630926132202,13.6631116867065,13.6631298065186,13.6631498336792,13.6631679534912,13.6631860733032,13.6632061004639,13.6632242202759,13.6632442474365,13.6632623672485,13.6632823944092,13.6633005142212,13.6633195877075,13.6633377075195
