3.08369779586792,3.09098529815674,3.09830713272095,3.10566377639771,3.11305546760559,3.12048244476318,3.12794494628906,3.13544321060181,3.14297747612,3.15054821968079,3.15815544128418,3.16579937934875,3.17348027229309,3.18119883537292,3.18895483016968,3.19674897193909,3.20458102226257,3.21245169639587,3.22036123275757,3.22830963134766,3.2362973690033,3.24432468414307,3.25239205360413,3.26049971580505,3.26864767074585,3.27683663368225,3.28506660461426,3.29333806037903,3.30165147781372,3.31000661849976,3.31840443611145,3.3268449306488,3.3353283405304,3.34385514259338,3.35242581367493,3.36104035377502,3.36969923973083,3.37840294837952,3.38715171813965,3.39594602584839,3.40478610992432,3.41367220878601,3.42260503768921,3.43158459663391,3.44061136245728,3.44968962669373,3.45882558822632,3.46801018714905,3.47724366188049,3.48652648925781,3.49585890769958,3.50524139404297,3.51467442512512,3.5241584777832,3.53369379043579,3.54328083992004,3.55291986465454,3.5626118183136,3.57235646247864,3.58215475082397,3.59200692176819,3.60191345214844,3.61187481880188,3.62189126014709,3.63196349143982,3.64209198951721,3.65227699279785,3.66251921653748,3.67281889915466,3.68317675590515,3.6935932636261,3.70406889915466,3.714604139328,3.7251992225647,3.73585510253906,3.74657225608826,3.75735092163086,3.76819181442261,3.77909517288208,3.79006218910217,3.80109286308289,3.81218814849854,3.82334804534912,3.83457374572754,3.84586548805237,3.85722398757935,3.86864972114563,3.88014316558838,3.89170527458191,3.90333652496338,3.91503739356995,3.92680883407593,3.9386510848999,3.95056509971619,3.96255135536194,3.9746105670929,3.98674345016479,3.99895048141479,4.01123237609863,4.02359056472778,4.03602457046509,4.04853582382202,4.06112480163574,4.07379245758057,4.08653926849365,4.09936618804932,4.11227416992188,4.12526321411133,4.13833475112915,4.1514892578125,4.16582155227661,4.18050384521484,4.19528961181641,4.21018028259277,4.22517728805542,4.24028158187866,4.25549411773682,4.2708158493042,4.28624868392944,4.30179357528687,4.31745147705078,4.33322334289551,4.34911155700684,4.36511611938477,4.38123941421509,4.39748191833496,4.41384553909302,4.43006229400635,4.44531011581421,4.46066331863403,4.47612285614014,4.49168968200684,4.50736522674561,4.52315044403076,4.53904676437378,4.55505561828613,4.57117748260498,4.5874137878418,4.6037654876709,4.62023496627808,4.63682222366333,4.65352916717529,4.67035675048828,4.68730640411377,4.70437955856323,4.7215781211853,4.73890209197998,4.75635433197021,4.77393531799316,4.7916464805603,4.80949020385742,4.82746648788452,4.84557771682739,4.86382675170898,4.88221406936646,4.90074110031128,4.91940927505493,4.93822002410889,4.95717525482178,4.97627639770508,4.99552536010742,5.01492404937744,5.03447389602661,5.05417633056641,5.07403421401978,5.09404850006104,5.11422109603882,5.13455438613892,5.1550498008728,17.117317199707,17.1173973083496,17.1174793243408,17.117561340332,17.1176414489746,17.1177215576172,17.1178035736084,17.1178855895996,17.1179656982422,17.1180458068848,17.1181297302246,17.1182098388672,17.1182899475098,17.1183700561523,17.1184520721436,17.1185340881348,17.1186141967773,17.1186943054199,17.1187763214111,17.1188583374023,17.1189384460449,17.1190185546875,17.1191005706787,17.1191825866699,17.1192626953125,17.1193428039551,17.1194248199463,17.1195068359375,17.1195869445801,17.1196670532227,17.1197490692139,17.1198310852051,17.1199111938477,17.1199913024902,17.1200733184814,17.1201515197754,17.1202335357666,17.1203136444092,17.1203918457031,17.1204719543457,17.1205501556396,17.1206321716309,17.1207122802734,17.120792388916,17.1208744049072,17.1209526062012,17.1210308074951,17.1211128234863,17.1211929321289,17.1212730407715,17.1213531494141,17.1214332580566,17.1215133666992,17.1215953826904,17.1216735839844,17.121753692627,17.1218338012695,17.1219139099121,17.1219940185547,17.1220741271973,17.1221542358398,17.1222362518311,17.122314453125,17.1223926544189,17.1224746704102,17.1225547790527,17.1226348876953,17.1227169036865,17.1227951049805,17.122875213623,17.1229572296143,17.1230354309082,17.1231155395508,17.1231956481934,17.1232757568359,17.1233577728271,17.1234359741211,17.1235160827637,17.1235980987549,17.1236763000488,17.1237564086914,17.1238384246826,17.1239166259766,17.1239967346191,17.1240787506104,17.1241569519043,17.1242370605469,17.1243190765381,17.124397277832,17.1244773864746,17.1245574951172,17.1246395111084,17.1247177124023,17.1247997283936,17.1248798370361,17.1249599456787,17.1250400543213,17.1251201629639,17.1252002716064,17.125280380249,17.1253604888916,17.1254405975342,17.1255207061768,17.1256008148193,17.1256809234619,17.1257610321045,17.1258411407471,17.1259212493896,17.1260013580322,17.1260814666748,17.126163482666,17.12624168396,17.1263217926025,17.1264038085938,17.1264820098877,17.1265621185303,17.1266441345215,17.1267223358154,17.126802444458,17.1268844604492,17.1269626617432,17.1270427703857,17.127124786377,17.1272029876709,17.1272830963135,17.1273632049561,17.1274452209473,17.1275253295898,17.1276054382324,17.127685546875,17.1277656555176,17.1278438568115,17.1279258728027,17.1280059814453,17.1280860900879,17.1281661987305,17.128246307373,17.1283264160156,17.1284084320068,17.1284847259521,17.1285667419434,17.1286468505859,17.1287269592285,17.1288070678711,17.1288890838623,17.1289672851562,17.1290473937988,17.1291275024414,17.129207611084,17.1292877197266,17.1293678283691,17.1294479370117,17.1295299530029,17.1296100616455,17.1296901702881,17.1297702789307,17.1298503875732,17.1299304962158,17.1300106048584,17.130090713501,17.1301708221436,17.1302528381348,17.1303310394287,17.1304130554199,17.1304893493652,17.1305732727051,17.130651473999,17.1307315826416,17.1308116912842,17.1308917999268,17.1309719085693,17.1310539245605,17.1311321258545,17.1312122344971,17.1312942504883,17.1313743591309,17.1314544677734,17.131534576416,17.1316146850586,17.1316947937012,17.1317749023438,17.1318550109863,17.1319351196289,17.1320152282715,17.1320953369141,17.1321773529053,17.1322555541992,17.1323356628418,17.132417678833,17.132495880127,17.1325759887695,17.1326560974121,17.1327381134033,17.1328182220459,17.1328983306885,17.1329784393311,17.1330585479736,17.1331386566162,17.1332187652588,17.1332988739014,17.1333789825439,17.1334609985352,17.1335391998291,17.1336193084717,17.1336994171143,17.1337814331055,17.1338596343994,17.133939743042,17.1340217590332,17.1341018676758,17.1341819763184,17.1342620849609,17.1343421936035,17.1344223022461,17.1345024108887,17.1345825195312,17.1346626281738,17.1347427368164,17.1348247528076,17.1349029541016,17.1349849700928,17.1350650787354,17.1351451873779,17.1352233886719,17.1353054046631,17.1353855133057,17.1354656219482,17.1355457305908,17.1356258392334,17.1357078552246,17.1357860565186,17.1358661651611,17.1359481811523,17.1360263824463,17.1361064910889,17.1361885070801,17.1362686157227,17.1363487243652,17.1364288330078,17.1365089416504,17.136589050293,17.1366691589355,17.1367511749268,17.1368293762207,17.1369094848633,17.1369895935059,17.1370697021484,17.1371517181396,17.1372318267822,17.1373119354248,17.1373920440674,17.13747215271,17.1375522613525,17.1376323699951
3.07704615592957,3.08430218696594,3.09159231185913,3.09891724586487,3.10627675056458,3.11367130279541,3.12110114097595,3.12856674194336,3.13606786727905,3.14360523223877,3.15117883682251,3.15878915786743,3.16643619537354,3.1741201877594,3.18184185028076,3.18960094451904,3.19739818572998,3.20523357391357,3.2131073474884,3.22101998329163,3.22897171974182,3.23696279525757,3.24499344825745,3.25306415557861,3.26117515563965,3.26932644844055,3.27751898765564,3.28575229644775,3.29402732849121,3.30234408378601,3.31070280075073,3.31910395622253,3.32754802703857,3.33603501319885,3.34456562995911,3.35313987731934,3.36175799369812,3.3704206943512,3.37912821769714,3.38788080215454,3.39667892456055,3.40552258491516,3.4144127368927,3.42334938049316,3.43233275413513,3.44136333465576,3.45044183731079,3.45957064628601,3.46875929832458,3.47799682617188,3.48728346824646,3.49661993980408,3.50600671768188,3.51544380187988,3.52493190765381,3.53447151184082,3.54406261444092,3.55370616912842,3.56340217590332,3.57315135002136,3.58295392990112,3.59281039237976,3.60272145271301,3.61268711090088,3.6227080821991,3.6327850818634,3.64291787147522,3.65310764312744,3.66335463523865,3.67365908622742,3.68402171134949,3.69444298744202,3.70492339134216,3.71546339988708,3.72606348991394,3.73672437667847,3.74744629859924,3.75822997093201,3.76907587051392,3.77998471260071,3.79095673561096,3.80199265480042,3.8130931854248,3.82425856590271,3.83548951148987,3.84678649902344,3.85815048217773,3.86958169937134,3.88108086585999,3.89264845848083,3.9042854309082,3.91599202156067,3.92776918411255,3.93961715698242,3.9515368938446,3.96352910995483,3.97559428215027,3.98773312568665,3.9999463558197,4.01223468780518,4.02459859848022,4.03703927993774,4.04955673217773,4.06215190887451,4.07482624053955,4.08757925033569,4.10041284561157,4.11332702636719,4.12632322311401,4.13940143585205,4.15256261825562,4.16618824005127,4.18087291717529,4.1956615447998,4.21055459976196,4.22555446624756,4.24066114425659,4.2558765411377,4.27120113372803,4.28663682937622,4.30218410491943,4.3178448677063,4.33362007141113,4.34951114654541,4.36551856994629,4.38164472579956,4.39789056777954,4.41425704956055,4.43074607849121,4.4467134475708,4.46207571029663,4.47754526138306,4.49312210083008,4.50880765914917,4.52460336685181,4.54050970077515,4.55652856826782,4.57266092300415,4.58890771865845,4.60527038574219,4.62175035476685,4.63834857940674,4.65506649017334,4.67190551757812,4.68886613845825,4.70595121383667,4.72316074371338,4.74049663543701,4.75796031951904,4.77555322647095,4.7932767868042,4.81113243103027,4.82912111282349,4.84724521636963,4.86550521850586,4.8839054107666,4.9024453163147,4.92112588882446,4.93994998931885,4.95891857147217,4.9780330657959,4.99729585647583,5.01670837402344,5.0362720489502,5.05598878860474,5.07586050033569,5.0958890914917,5.11607646942139,5.13642454147339,5.15693521499634,16.9720840454102,16.9721622467041,16.9722442626953,16.9723224639893,16.9724025726318,16.9724807739258,16.972562789917,16.9726428985596,16.9727210998535,16.9728012084961,16.9728832244873,16.9729614257812,16.9730415344238,16.9731197357178,16.9731998443604,16.9732799530029,16.9733600616455,16.9734382629395,16.973518371582,16.9735984802246,16.9736766815186,16.9737586975098,16.9738368988037,16.9739170074463,16.9739971160889,16.9740753173828,16.974157333374,16.974235534668,16.9743156433105,16.9743957519531,16.9744758605957,16.9745540618896,16.9746341705322,16.9747142791748,16.9747924804688,16.9748725891113,16.9749507904053,16.9750308990479,16.9751091003418,16.9751873016357,16.9752674102783,16.9753456115723,16.9754219055176,16.9755020141602,16.9755802154541,16.975658416748,16.975736618042,16.9758167266846,16.9758949279785,16.9759750366211,16.9760551452637,16.976131439209,16.9762115478516,16.9762897491455,16.9763698577881,16.976448059082,16.976526260376,16.9766044616699,16.9766826629639,16.9767627716064,16.9768409729004,16.9769191741943,16.9769992828369,16.9770774841309,16.9771556854248,16.9772357940674,16.9773139953613,16.9773941040039,16.9774703979492,16.9775505065918,16.9776287078857,16.9777069091797,16.9777870178223,16.9778671264648,16.9779434204102,16.9780235290527,16.9781017303467,16.9781799316406,16.9782581329346,16.9783382415771,16.9784183502197,16.978494644165,16.9785747528076,16.9786548614502,16.9787311553955,16.9788093566895,16.978889465332,16.9789695739746,16.9790458679199,16.9791259765625,16.9792041778564,16.979284286499,16.979362487793,16.9794406890869,16.9795188903809,16.9795989990234,16.9796772003174,16.9797554016113,16.9798355102539,16.9799137115479,16.9799938201904,16.9800701141357,16.9801502227783,16.9802284240723,16.9803066253662,16.9803867340088,16.9804649353027,16.9805431365967,16.9806232452393,16.9807033538818,16.9807796478271,16.9808597564697,16.9809379577637,16.9810161590576,16.9810962677002,16.9811744689941,16.9812526702881,16.9813327789307,16.9814109802246,16.9814891815186,16.9815692901611,16.9816474914551,16.9817276000977,16.9818058013916,16.9818840026855,16.9819641113281,16.9820404052734,16.982120513916,16.9822006225586,16.9822788238525,16.9823570251465,16.9824352264404,16.982515335083,16.982593536377,16.9826717376709,16.9827499389648,16.9828300476074,16.9829082489014,16.9829864501953,16.9830665588379,16.9831447601318,16.9832248687744,16.9833030700684,16.9833793640137,16.9834594726562,16.9835395812988,16.9836177825928,16.9836959838867,16.9837760925293,16.9838562011719,16.9839344024658,16.9840126037598,16.9840908050537,16.9841690063477,16.9842491149902,16.9843273162842,16.9844055175781,16.9844856262207,16.9845657348633,16.9846439361572,16.9847221374512,16.9848003387451,16.9848785400391,16.9849586486816,16.9850368499756,16.9851150512695,16.9851951599121,16.9852733612061,16.9853534698486,16.9854316711426,16.9855098724365,16.9855880737305,16.985668182373,16.985746383667,16.9858264923096,16.9859046936035,16.9859828948975,16.9860610961914,16.986141204834,16.9862194061279,16.9862976074219,16.9863777160645,16.9864559173584,16.986536026001,16.9866142272949,16.9866924285889,16.9867706298828,16.9868507385254,16.9869289398193,16.9870090484619,16.9870872497559,16.9871654510498,16.9872455596924,16.987325668335,16.9874019622803,16.9874820709229,16.9875602722168,16.9876384735107,16.9877185821533,16.9877986907959,16.9878768920898,16.9879550933838,16.9880332946777,16.9881114959717,16.9881916046143,16.9882717132568,16.9883499145508,16.9884281158447,16.9885063171387,16.9885864257812,16.9886665344238,16.9887428283691,16.9888229370117,16.9889011383057,16.9889793395996,16.9890594482422,16.9891395568848,16.9892177581787,16.9892959594727,16.9893741607666,16.9894523620605,16.9895324707031,16.9896106719971,16.9896907806396,16.9897708892822,16.9898471832275,16.9899272918701,16.9900054931641,16.990083694458,16.9901638031006,16.9902420043945,16.9903221130371,16.9904003143311,16.990478515625,16.9905586242676,16.9906387329102,16.9907150268555,16.990795135498,16.990873336792,16.9909515380859,16.9910316467285,16.9911098480225,16.991189956665,16.9912700653076,16.9913463592529,16.9914264678955,16.9915046691895,16.9915828704834,16.991662979126,16.9917430877686,16.9918212890625,16.9919013977051,16.991979598999
3.0704231262207,3.07764768600464,3.08490657806396,3.0921995639801,3.09952735900879,3.10688972473145,3.11428737640381,3.1217200756073,3.12918853759766,3.13669276237488,3.14423322677612,3.15180969238281,3.15942311286926,3.16707324981689,3.17476034164429,3.18248510360718,3.19024753570557,3.19804787635803,3.20588636398315,3.21376347541809,3.22167921066284,3.22963428497314,3.23762845993042,3.24566268920898,3.25373649597168,3.26185083389282,3.27000570297241,3.27820134162903,3.28643822669983,3.29471659660339,3.30303692817688,3.31139922142029,3.31980395317078,3.3282516002655,3.33674216270447,3.34527635574341,3.35385417938232,3.36247611045837,3.37114262580872,3.37985372543335,3.38861012458801,3.39741182327271,3.40625953674316,3.41515350341797,3.4240939617157,3.43308115005493,3.44211602210999,3.45119833946228,3.46032857894897,3.4695086479187,3.47874999046326,3.48804092407227,3.49738144874573,3.5067720413208,3.51621341705322,3.52570581436157,3.53524947166443,3.54484486579895,3.55449247360229,3.5641930103302,3.57394647598267,3.58375334739685,3.59361433982849,3.60352969169617,3.61349987983704,3.62352561950684,3.63360691070557,3.64374446868896,3.65393877029419,3.6641902923584,3.67449951171875,3.6848669052124,3.69529294967651,3.70577812194824,3.71632313728333,3.72692823410034,3.73759388923645,3.74832081794739,3.75910973548889,3.76996064186096,3.78087449073792,3.79185175895691,3.8028929233551,3.81399869918823,3.82516932487488,3.83640551567078,3.84770822525024,3.85907745361328,3.8705141544342,3.88201880455017,3.89359211921692,3.90523481369019,3.91694712638855,3.92872977256775,3.9405837059021,3.95250940322876,3.96450757980347,3.97657871246338,3.98872351646423,4.00094270706177,4.01323699951172,4.02560758590698,4.0380539894104,4.05057764053345,4.06317949295044,4.07586002349854,4.08861970901489,4.10145998001099,4.11438083648682,4.1273832321167,4.14046812057495,4.15363645553589,4.16688871383667,4.18124198913574,4.19603300094604,4.21092939376831,4.2259316444397,4.24104118347168,4.25625896453857,4.27158641815186,4.287024974823,4.30257511138916,4.31823873519897,4.33401679992676,4.34991073608398,4.36592149734497,4.38205051422119,4.39829921722412,4.41466856002808,4.43116044998169,4.44777631759644,4.4634895324707,4.47896862030029,4.49455547332764,4.51025104522705,4.52605676651001,4.54197359085083,4.55800247192383,4.57414531707764,4.59040260314941,4.60677623748779,4.62326669692993,4.63987588882446,4.6566047668457,4.67345476150513,4.69042730331421,4.70752334594727,4.72474431991577,4.74209213256836,4.75956773757935,4.77717256546021,4.79490804672241,4.81277561187744,4.83077669143677,4.84891319274902,4.86718654632568,4.88559770584106,4.90415000915527,4.92284393310547,4.94168138504028,4.96066284179688,4.97979116439819,4.99906730651855,5.01849365234375,5.0380711555481,5.05780220031738,5.07768821716309,5.097731590271,5.11793375015259,5.13829612731934,5.15882158279419,5.17951202392578,16.8293724060059,16.8294506072998,16.8295307159424,16.8296089172363,16.8296871185303,16.8297653198242,16.8298435211182,16.8299198150635,16.8299999237061,16.830078125,16.8301544189453,16.8302345275879,16.8303127288818,16.8303909301758,16.8304691314697,16.8305473327637,16.8306274414062,16.8307037353516,16.8307819366455,16.8308601379395,16.830940246582,16.831018447876,16.8310966491699,16.8311748504639,16.8312530517578,16.8313312530518,16.8314094543457,16.8314895629883,16.8315677642822,16.8316459655762,16.8317241668701,16.8318004608154,16.8318786621094,16.831958770752,16.8320369720459,16.8321151733398,16.8321914672852,16.8322696685791,16.8323459625244,16.8324241638184,16.8325004577637,16.8325786590576,16.8326568603516,16.8327350616455,16.8328113555908,16.8328895568848,16.8329658508301,16.833044052124,16.833122253418,16.8331985473633,16.8332767486572,16.8333549499512,16.8334312438965,16.8335094451904,16.8335857391357,16.8336639404297,16.833740234375,16.8338184356689,16.8338966369629,16.8339729309082,16.8340511322021,16.8341274261475,16.8342056274414,16.8342819213867,16.8343601226807,16.834436416626,16.8345146179199,16.8345947265625,16.8346710205078,16.8347473144531,16.8348255157471,16.8349018096924,16.8349800109863,16.8350563049316,16.8351345062256,16.8352127075195,16.8352909088135,16.8353672027588,16.8354454040527,16.835521697998,16.835599899292,16.8356781005859,16.8357543945312,16.8358325958252,16.8359107971191,16.8359870910645,16.8360652923584,16.8361415863037,16.8362197875977,16.8362979888916,16.8363742828369,16.8364524841309,16.8365287780762,16.8366069793701,16.8366851806641,16.8367614746094,16.8368396759033,16.8369159698486,16.8369941711426,16.8370723724365,16.8371486663818,16.8372268676758,16.8373050689697,16.837381362915,16.837459564209,16.8375358581543,16.8376140594482,16.8376922607422,16.8377685546875,16.8378467559814,16.8379249572754,16.8380012512207,16.8380794525146,16.83815574646,16.8382339477539,16.8383121490479,16.8383884429932,16.8384666442871,16.8385448455811,16.8386211395264,16.8386993408203,16.8387775421143,16.8388538360596,16.8389320373535,16.8390083312988,16.8390865325928,16.8391647338867,16.839241027832,16.839319229126,16.8393974304199,16.8394737243652,16.8395500183105,16.8396282196045,16.8397083282471,16.8397846221924,16.8398609161377,16.8399391174316,16.8400173187256,16.8400936126709,16.8401699066162,16.8402481079102,16.8403263092041,16.8404026031494,16.8404808044434,16.8405609130859,16.8406372070312,16.8407135009766,16.8407897949219,16.8408679962158,16.8409461975098,16.8410243988037,16.841100692749,16.841178894043,16.8412570953369,16.8413352966309,16.8414134979248,16.8414897918701,16.8415660858154,16.8416442871094,16.8417224884033,16.8417987823486,16.8418769836426,16.8419551849365,16.8420314788818,16.8421077728271,16.8421859741211,16.842264175415,16.8423404693604,16.8424186706543,16.8424968719482,16.8425750732422,16.8426532745361,16.8427295684814,16.8428077697754,16.8428840637207,16.8429622650146,16.8430404663086,16.8431167602539,16.8431949615479,16.8432731628418,16.8433494567871,16.8434257507324,16.8435039520264,16.8435821533203,16.8436603546143,16.8437385559082,16.8438148498535,16.8438930511475,16.8439712524414,16.8440475463867,16.8441257476807,16.844202041626,16.8442802429199,16.8443584442139,16.8444347381592,16.8445129394531,16.8445911407471,16.8446674346924,16.8447456359863,16.8448238372803,16.8449001312256,16.8449783325195,16.8450546264648,16.8451328277588,16.8452129364014,16.8452892303467,16.845365524292,16.8454437255859,16.8455200195312,16.8455982208252,16.8456764221191,16.8457546234131,16.8458309173584,16.8459091186523,16.8459854125977,16.8460636138916,16.8461399078369,16.8462200164795,16.8462963104248,16.8463745117188,16.8464527130127,16.846529006958,16.846607208252,16.8466854095459,16.8467617034912,16.8468379974365,16.8469181060791,16.8469944000244,16.8470726013184,16.8471508026123,16.8472290039062,16.8473052978516,16.8473815917969,16.8474597930908,16.8475379943848,16.8476161956787,16.847692489624,16.847770690918,16.8478488922119,16.8479251861572,16.8480033874512,16.8480815887451,16.8481578826904,16.8482360839844,16.8483142852783,16.8483924865723,16.8484687805176,16.8485469818115,16.8486232757568,16.8487014770508,16.8487796783447
3.06382846832275,3.07102203369141,3.07824969291687,3.08551120758057,3.09280729293823,3.10013771057129,3.10750317573547,3.11490345001221,3.12233924865723,3.12981081008911,3.13731789588928,3.14486122131348,3.15244102478027,3.16005730628967,3.16771054267883,3.17540073394775,3.18312859535217,3.19089412689209,3.19869756698608,3.20653939247131,3.21441960334778,3.22233867645264,3.23029708862305,3.23829460144043,3.24633193016052,3.2544093132019,3.26252698898315,3.27068519592285,3.27888417243958,3.28712463378906,3.29540634155273,3.30373024940491,3.31209588050842,3.3205041885376,3.32895541191101,3.33744978904724,3.34598731994629,3.35456895828247,3.36319446563721,3.37186479568481,3.38057947158813,3.38933968544006,3.39814519882202,3.40699672698975,3.41589450836182,3.42483878135681,3.43383002281189,3.44286870956421,3.45195508003235,3.46108937263489,3.47027230262756,3.47950410842896,3.48879837989807,3.49814319610596,3.50753808021545,3.51698350906372,3.52647995948792,3.53602766990662,3.54562735557556,3.55527949333191,3.56498408317566,3.57474184036255,3.58455324172974,3.5944185256958,3.60433840751648,3.61431312561035,3.62434315681458,3.63442897796631,3.64457130432129,3.65477013587952,3.66502642631531,3.67534041404724,3.68571257591248,3.69614338874817,3.70663332939148,3.71718311309814,3.72779321670532,3.73846387863159,3.74919581413269,3.75998973846436,3.77084565162659,3.78176474571228,3.79274725914001,3.80379366874695,3.81490445137024,3.8260805606842,3.83732223510742,3.84863018989563,3.86000490188599,3.87144708633423,3.88295745849609,3.89453625679016,3.90618443489075,3.91790246963501,3.92969107627869,3.94155073165894,3.95348238945007,3.96548628807068,3.97756338119507,3.98971438407898,4.00193977355957,4.01424026489258,4.02661657333374,4.03906965255737,4.05159950256348,4.06420803070068,4.07689476013184,4.08966112136841,4.10250759124756,4.1154351234436,4.1284441947937,4.14153575897217,4.15471124649048,4.16797018051147,4.18161153793335,4.19640493392944,4.2113037109375,4.22630882263184,4.24142074584961,4.25664138793945,4.27197170257568,4.28741312026978,4.30296611785889,4.31863260269165,4.33441352844238,4.35031032562256,4.36632394790649,4.38245582580566,4.39870738983154,4.41508007049561,4.43157529830933,4.44819402694702,4.46490383148193,4.48039293289185,4.49598932266235,4.51169490814209,4.52751111984253,4.54343795776367,4.55947780609131,4.57563066482544,4.59189891815186,4.60828304290771,4.62478446960449,4.64140462875366,4.65814447402954,4.6750054359436,4.69198942184448,4.70909690856934,4.72632932662964,4.74368906021118,4.76117610931396,4.77879285812378,4.79654026031494,4.81442022323608,4.83243370056152,4.85058259963989,4.86886882781982,4.88729286193848,4.90585660934448,4.92456388473511,4.94341373443604,4.96240901947021,4.98155069351196,5.00084066390991,5.02028036117554,5.03987216949463,5.0596170425415,5.07951784133911,5.09957551956177,5.11979198455811,5.14016962051392,5.16070985794067,5.18141508102417,5.20228719711304,16.6890411376953,16.6891193389893,16.6891956329346,16.6892719268799,16.6893501281738,16.6894264221191,16.6895027160645,16.6895809173584,16.6896572113037,16.689733505249,16.689811706543,16.6898899078369,16.6899662017822,16.6900424957275,16.6901206970215,16.6901969909668,16.6902751922607,16.6903514862061,16.6904277801514,16.6905059814453,16.6905822753906,16.6906604766846,16.6907367706299,16.6908149719238,16.6908912658691,16.6909675598145,16.6910457611084,16.6911220550537,16.691198348999,16.6912746429443,16.6913528442383,16.6914291381836,16.6915073394775,16.6915836334229,16.6916618347168,16.6917381286621,16.6918163299561,16.6918907165527,16.691967010498,16.6920433044434,16.6921215057373,16.692195892334,16.6922721862793,16.692346572876,16.6924247741699,16.6925010681152,16.6925754547119,16.6926517486572,16.6927280426025,16.6928043365479,16.6928825378418,16.6929569244385,16.6930332183838,16.6931095123291,16.6931858062744,16.6932621002197,16.693338394165,16.6934146881104,16.6934909820557,16.6935653686523,16.6936416625977,16.693717956543,16.6937942504883,16.6938705444336,16.6939468383789,16.6940231323242,16.6940994262695,16.6941738128662,16.6942520141602,16.6943283081055,16.6944046020508,16.6944808959961,16.6945571899414,16.6946334838867,16.694709777832,16.6947841644287,16.694860458374,16.6949367523193,16.6950130462646,16.69508934021,16.6951675415039,16.6952419281006,16.6953201293945,16.6953945159912,16.6954708099365,16.6955471038818,16.6956233978271,16.6956996917725,16.6957759857178,16.6958522796631,16.6959285736084,16.6960029602051,16.6960792541504,16.6961555480957,16.6962337493896,16.6963081359863,16.6963844299316,16.696460723877,16.6965370178223,16.6966152191162,16.6966896057129,16.6967658996582,16.6968421936035,16.6969184875488,16.6969947814941,16.6970710754395,16.6971473693848,16.6972236633301,16.6972999572754,16.6973743438721,16.6974506378174,16.6975269317627,16.697603225708,16.6976795196533,16.6977558135986,16.6978321075439,16.6979103088379,16.6979846954346,16.6980628967285,16.6981372833252,16.6982135772705,16.6982898712158,16.6983661651611,16.6984424591064,16.6985187530518,16.6985950469971,16.6986713409424,16.6987476348877,16.698823928833,16.6989002227783,16.6989765167236,16.6990528106689,16.6991291046143,16.6992034912109,16.6992797851562,16.6993560791016,16.6994323730469,16.6995086669922,16.6995868682861,16.6996612548828,16.6997394561768,16.6998138427734,16.6998901367188,16.6999664306641,16.7000427246094,16.7001190185547,16.7001953125,16.7002716064453,16.7003479003906,16.7004241943359,16.7005004882812,16.7005767822266,16.7006530761719,16.7007293701172,16.7008056640625,16.7008819580078,16.7009582519531,16.7010345458984,16.7011108398438,16.7011852264404,16.7012615203857,16.7013378143311,16.7014141082764,16.7014904022217,16.701566696167,16.7016448974609,16.7017192840576,16.7017955780029,16.7018718719482,16.7019481658936,16.7020263671875,16.7021007537842,16.7021770477295,16.7022552490234,16.7023296356201,16.7024078369141,16.7024822235107,16.7025585174561,16.7026348114014,16.7027111053467,16.702787399292,16.7028636932373,16.7029399871826,16.7030162811279,16.7030925750732,16.7031688690186,16.7032451629639,16.7033214569092,16.7033977508545,16.7034740447998,16.7035503387451,16.7036266326904,16.7037029266357,16.7037773132324,16.7038536071777,16.7039318084717,16.704008102417,16.7040843963623,16.7041606903076,16.7042369842529,16.7043132781982,16.7043876647949,16.7044639587402,16.7045402526855,16.7046165466309,16.7046928405762,16.7047691345215,16.7048454284668,16.7049236297607,16.7049999237061,16.7050743103027,16.705150604248,16.705228805542,16.7053031921387,16.705379486084,16.7054557800293,16.7055320739746,16.7056102752686,16.7056846618652,16.7057609558105,16.7058391571045,16.7059135437012,16.7059917449951,16.7060680389404,16.7061424255371,16.7062206268311,16.7062950134277,16.706371307373,16.7064476013184,16.7065238952637,16.7066020965576,16.7066783905029,16.7067527770996,16.7068309783936,16.7069053649902,16.7069816589355,16.7070579528809,16.7071342468262,16.7072124481201,16.7072868347168,16.7073631286621,16.7074413299561,16.7075176239014,16.7075901031494,16.7076683044434,16.7077445983887,16.707820892334,16.7078990936279,16.7079734802246
3.05726194381714,3.06442475318909,3.07162141799927,3.0788516998291,3.08611607551575,3.09341502189636,3.10074830055237,3.1081166267395,3.11552000045776,3.12295889854431,3.13043308258057,3.13794326782227,3.14548969268799,3.15307235717773,3.16069173812866,3.16834807395935,3.17604160308838,3.18377232551575,3.19154095649719,3.19934773445129,3.20719265937805,3.21507620811462,3.22299838066101,3.23095989227295,3.23896098136902,3.24700164794922,3.25508213043213,3.26320314407349,3.27136492729187,3.2795672416687,3.2878110408783,3.29609656333923,3.30442357063293,3.31279301643372,3.32120490074158,3.3296594619751,3.33815741539001,3.34669876098633,3.3552839756012,3.3639132976532,3.37258696556091,3.38130569458008,3.39006972312927,3.3988790512085,3.40773439407349,3.41663599014282,3.42558407783508,3.43457937240601,3.44362187385559,3.45271229743958,3.46185064315796,3.47103762626648,3.48027348518372,3.48955845832825,3.49890518188477,3.50830411911011,3.51775360107422,3.52725434303284,3.53680634498596,3.54641032218933,3.55606651306152,3.56577563285828,3.57553768157959,3.5853533744812,3.59522318840027,3.60514736175537,3.61512660980225,3.62516117095947,3.63525176048279,3.64539837837219,3.655601978302,3.6658627986908,3.67618155479431,3.68655848503113,3.6969940662384,3.70748901367188,3.71804356575012,3.72865843772888,3.73933434486389,3.75007128715515,3.76087021827698,3.77173113822937,3.7826554775238,3.7936429977417,3.80469465255737,3.81581091880798,3.82699227333069,3.83823919296265,3.84955263137817,3.86093282699585,3.87238049507141,3.8838963508606,3.89548087120056,3.90713477134705,3.91885852813721,3.93065285682678,3.94251847267151,3.95445585250854,3.96646571159363,3.9785487651825,3.99070572853088,4.00293731689453,4.01524353027344,4.02762651443481,4.04008531570435,4.05262184143066,4.06523656845093,4.07792997360229,4.09070253372192,4.10355567932129,4.11648988723755,4.12950563430786,4.1426043510437,4.15578603744507,4.16905212402344,4.18240308761597,4.19677686691284,4.21167850494385,4.22668600082397,4.2418007850647,4.25702428817749,4.27235746383667,4.28780126571655,4.30335712432861,4.31902647018433,4.33481025695801,4.35070991516113,4.36672687530518,4.38286161422729,4.39911651611328,4.41549205780029,4.43199014663696,4.44861173629761,4.46535873413086,4.48181819915771,4.49742460250854,4.5131402015686,4.52896642684937,4.54490375518799,4.56095361709595,4.57711744308472,4.59339618682861,4.60979080200195,4.62630319595337,4.64293384552002,4.6596851348877,4.6765570640564,4.69355249404907,4.71067142486572,4.72791528701782,4.74528646469116,4.7627854347229,4.78041410446167,4.79817390441895,4.81606578826904,4.8340916633606,4.85225343704224,4.87055206298828,4.88898849487305,4.90756559371948,4.92628383636475,4.94514751434326,4.96415615081787,4.98331117630005,5.00261449813843,5.0220685005188,5.04167413711548,5.0614333152771,5.08134794235229,5.10142040252686,5.1216516494751,5.14204406738281,5.16259908676147,5.18332004547119,5.20420742034912,16.5509548187256,16.5510311126709,16.5511074066162,16.5511817932129,16.5512580871582,16.5513343811035,16.5514106750488,16.5514850616455,16.5515613555908,16.5516376495361,16.5517139434814,16.5517883300781,16.5518646240234,16.5519409179688,16.5520153045654,16.5520915985107,16.5521678924561,16.5522441864014,16.552318572998,16.552396774292,16.55246925354,16.552547454834,16.5526237487793,16.5527000427246,16.5527725219727,16.5528507232666,16.5529251098633,16.5530014038086,16.5530757904053,16.5531539916992,16.5532283782959,16.5533046722412,16.5533809661865,16.5534572601318,16.5535316467285,16.5536079406738,16.5536842346191,16.5537586212158,16.5538349151611,16.5539093017578,16.5539836883545,16.5540599822998,16.5541343688965,16.5542087554932,16.5542831420898,16.5543575286865,16.5544338226318,16.5545082092285,16.5545825958252,16.5546588897705,16.5547332763672,16.5548076629639,16.5548839569092,16.5549583435059,16.5550327301025,16.5551071166992,16.5551834106445,16.5552577972412,16.5553340911865,16.5554065704346,16.5554828643799,16.5555572509766,16.5556316375732,16.5557060241699,16.5557823181152,16.5558567047119,16.5559310913086,16.5560073852539,16.5560817718506,16.5561580657959,16.5562305450439,16.5563068389893,16.5563812255859,16.5564556121826,16.5565299987793,16.5566062927246,16.5566806793213,16.556755065918,16.5568313598633,16.55690574646,16.5569801330566,16.5570545196533,16.5571308135986,16.5572052001953,16.557279586792,16.5573558807373,16.557430267334,16.5575046539307,16.5575790405273,16.5576553344727,16.5577297210693,16.5578060150146,16.5578804016113,16.557954788208,16.5580310821533,16.55810546875,16.558177947998,16.5582542419434,16.55832862854,16.5584049224854,16.558479309082,16.5585536956787,16.558629989624,16.5587043762207,16.5587787628174,16.5588550567627,16.5589294433594,16.5590038299561,16.5590801239014,16.559154510498,16.5592288970947,16.55930519104,16.5593776702881,16.5594539642334,16.5595283508301,16.5596027374268,16.5596790313721,16.5597534179688,16.5598297119141,16.5599040985107,16.5599784851074,16.5600528717041,16.5601291656494,16.5602035522461,16.5602779388428,16.5603523254395,16.5604286193848,16.5605030059814,16.5605773925781,16.5606517791748,16.5607280731201,16.5608024597168,16.5608787536621,16.5609531402588,16.5610275268555,16.5611038208008,16.5611763000488,16.5612525939941,16.5613269805908,16.5614013671875,16.5614776611328,16.5615520477295,16.5616264343262,16.5617027282715,16.5617771148682,16.5618515014648,16.5619258880615,16.5620021820068,16.5620784759521,16.5621509552002,16.5622272491455,16.5623016357422,16.5623779296875,16.5624523162842,16.5625267028809,16.5626010894775,16.5626773834229,16.5627517700195,16.5628261566162,16.5629005432129,16.5629768371582,16.5630512237549,16.5631256103516,16.5632019042969,16.5632762908936,16.5633506774902,16.5634269714355,16.5635013580322,16.5635776519775,16.5636520385742,16.5637264251709,16.5638027191162,16.5638751983643,16.5639514923096,16.5640277862549,16.5641002655029,16.5641765594482,16.5642509460449,16.5643253326416,16.5644016265869,16.5644760131836,16.5645503997803,16.5646266937256,16.5647010803223,16.5647754669189,16.5648517608643,16.5649261474609,16.5650024414062,16.5650768280029,16.5651512145996,16.5652275085449,16.5653018951416,16.5653762817383,16.5654525756836,16.5655250549316,16.565601348877,16.5656776428223,16.5657501220703,16.5658264160156,16.5659008026123,16.565975189209,16.5660514831543,16.566125869751,16.5662002563477,16.566276550293,16.5663509368896,16.5664253234863,16.5665016174316,16.5665760040283,16.566650390625,16.5667266845703,16.566801071167,16.5668773651123,16.566951751709,16.5670261383057,16.567102432251,16.5671768188477,16.5672512054443,16.5673274993896,16.5674018859863,16.567476272583,16.5675506591797,16.567626953125,16.5677013397217,16.5677757263184,16.5678520202637,16.5679264068604,16.568000793457,16.5680770874023,16.568151473999,16.5682258605957,16.568302154541,16.5683765411377,16.5684509277344,16.5685272216797,16.5686016082764,16.568675994873,16.5687522888184,16.5688285827637,16.5689010620117,16.568977355957,16.5690517425537,16.569128036499,16.5692024230957,16.569278717041,16.5693531036377,16.5694274902344,16.5695018768311
3.05072379112244,3.05785584449768,3.06502151489258,3.07222080230713,3.07945394515991,3.08672118186951,3.09402298927307,3.10135936737061,3.10873055458069,3.1161367893219,3.1235785484314,3.13105583190918,3.13856911659241,3.14611840248108,3.15370416641235,3.16132640838623,3.16898584365845,3.176682472229,3.18441653251648,3.19218826293945,3.19999814033508,3.20784616470337,3.21573305130005,3.22365856170654,3.23162317276001,3.23962759971619,3.24767136573792,3.25575542449951,3.26387977600098,3.27204489707947,3.28025078773499,3.28849792480469,3.29678678512573,3.30511736869812,3.31349039077759,3.32190585136414,3.33036398887634,3.33886551856995,3.34741044044495,3.3559992313385,3.36463236808777,3.37330985069275,3.3820321559906,3.39079976081848,3.39961314201355,3.40847229957581,3.41737771034241,3.42632985115051,3.4353289604187,3.44437551498413,3.45346975326538,3.46261215209961,3.47180318832397,3.48104310035706,3.49033212661743,3.49967122077942,3.50907063484192,3.51852440834045,3.52802920341492,3.53758525848389,3.54719352722168,3.5568540096283,3.56656742095947,3.57633376121521,3.58615398406982,3.59602808952332,3.60595679283142,3.6159405708313,3.62597966194153,3.63607454299927,3.64622592926025,3.65643429756165,3.66669988632202,3.67702317237854,3.68740487098694,3.6978452205658,3.70834493637085,3.71890449523926,3.72952437400818,3.74020504951477,3.75094699859619,3.76175093650818,3.77261734008789,3.78354644775391,3.79453921318054,3.80559611320496,3.81671762466431,3.82790422439575,3.83915662765503,3.8504753112793,3.86186122894287,3.87331438064575,3.88483572006226,3.89642596244812,3.90808534622192,3.91981482505798,3.93161487579346,3.94348645210266,3.9554295539856,3.96744537353516,3.9795343875885,3.99169754981995,4.00393486022949,4.01624774932861,4.02863645553589,4.04110193252563,4.05364465713501,4.06626558303833,4.07896518707275,4.09174489974976,4.10460424423218,4.11754512786865,4.13056755065918,4.14367294311523,4.15686178207397,4.17013454437256,4.1834921836853,4.1971492767334,4.2120532989502,4.22706317901611,4.24218082427979,4.25740718841553,4.2727427482605,4.28818941116333,4.3037486076355,4.31942081451416,4.33520746231079,4.35110998153687,4.3671293258667,4.38326740264893,4.39952516555786,4.41590404510498,4.4324049949646,4.44902992248535,4.46578025817871,4.48265695571899,4.49886083602905,4.51458644866943,4.53042268753052,4.54637050628662,4.5624303817749,4.57860469818115,4.59489393234253,4.61129951477051,4.6278223991394,4.64446449279785,4.66122674942017,4.67811012268066,4.69511651992798,4.71224689483643,4.72950267791748,4.74688529968262,4.76439619064331,4.78203678131104,4.79980850219727,4.81771278381348,4.83575105667114,4.85392475128174,4.87223625183105,4.89068555831909,4.9092755317688,4.92800760269165,4.9468822479248,4.96590423583984,4.98507261276245,5.00439023971558,5.02385759353638,5.04347705841064,5.06325054168701,5.08317995071411,5.10326671600342,5.12351274490356,5.14391994476318,5.16449022293091,5.18522596359253,5.20612859725952,5.22720098495483,16.415210723877,16.4152851104736,16.4153575897217,16.4154319763184,16.4155082702637,16.4155826568604,16.415657043457,16.4157314300537,16.4158058166504,16.4158802032471,16.4159545898438,16.4160289764404,16.4161052703857,16.4161796569824,16.4162521362305,16.4163284301758,16.4164009094238,16.4164752960205,16.4165515899658,16.4166259765625,16.4167003631592,16.4167747497559,16.4168491363525,16.4169235229492,16.4169998168945,16.4170742034912,16.4171466827393,16.4172210693359,16.4172954559326,16.4173717498779,16.4174461364746,16.4175205230713,16.417594909668,16.4176692962646,16.4177436828613,16.4178199768066,16.4178943634033,16.41796875,16.4180431365967,16.4181175231934,16.4181900024414,16.4182624816895,16.4183368682861,16.4184093475342,16.4184856414795,16.4185581207275,16.4186325073242,16.4187049865723,16.4187793731689,16.4188537597656,16.4189262390137,16.4190006256104,16.4190731048584,16.4191474914551,16.4192218780518,16.4192962646484,16.4193687438965,16.4194412231445,16.4195156097412,16.4195880889893,16.4196643829346,16.4197368621826,16.4198112487793,16.4198837280273,16.419958114624,16.4200325012207,16.4201049804688,16.4201793670654,16.4202537536621,16.4203262329102,16.4203987121582,16.4204750061035,16.4205474853516,16.4206218719482,16.4206962585449,16.420768737793,16.4208431243896,16.4209156036377,16.4209899902344,16.4210643768311,16.4211387634277,16.4212112426758,16.4212856292725,16.4213581085205,16.4214305877686,16.4215068817139,16.4215793609619,16.4216537475586,16.4217262268066,16.4218006134033,16.421875,16.421947479248,16.4220218658447,16.4220962524414,16.4221687316895,16.4222412109375,16.4223175048828,16.4223899841309,16.4224643707275,16.4225368499756,16.4226112365723,16.4226856231689,16.422758102417,16.4228324890137,16.4229068756104,16.4229793548584,16.4230537414551,16.4231281280518,16.4232006072998,16.4232749938965,16.4233493804932,16.4234218597412,16.4234962463379,16.4235706329346,16.4236431121826,16.4237174987793,16.423791885376,16.423864364624,16.4239387512207,16.4240112304688,16.4240856170654,16.4241600036621,16.4242343902588,16.4243068695068,16.4243812561035,16.4244537353516,16.4245262145996,16.4246006011963,16.424674987793,16.4247512817383,16.4248237609863,16.424898147583,16.4249706268311,16.4250450134277,16.4251174926758,16.4251918792725,16.4252662658691,16.4253387451172,16.4254131317139,16.4254875183105,16.4255599975586,16.4256343841553,16.425708770752,16.42578125,16.425853729248,16.4259300231934,16.4260025024414,16.4260768890381,16.4261512756348,16.4262237548828,16.4262962341309,16.4263725280762,16.4264450073242,16.4265193939209,16.4265918731689,16.4266662597656,16.4267406463623,16.426815032959,16.426887512207,16.4269618988037,16.4270362854004,16.4271087646484,16.4271831512451,16.4272575378418,16.4273300170898,16.4274044036865,16.4274787902832,16.4275512695312,16.4276256561279,16.427698135376,16.4277725219727,16.4278450012207,16.427921295166,16.4279937744141,16.4280681610107,16.4281425476074,16.4282150268555,16.4282894134521,16.4283618927002,16.4284362792969,16.4285087585449,16.4285850524902,16.4286575317383,16.428731918335,16.4288063049316,16.4288787841797,16.4289531707764,16.429027557373,16.4291000366211,16.4291744232178,16.4292488098145,16.4293231964111,16.4293956756592,16.4294681549072,16.4295425415039,16.4296169281006,16.4296894073486,16.4297637939453,16.4298400878906,16.42991065979,16.4299850463867,16.430061340332,16.4301319122314,16.4302082061768,16.4302806854248,16.4303550720215,16.4304294586182,16.4305019378662,16.4305763244629,16.4306507110596,16.4307231903076,16.4307975769043,16.4308700561523,16.430944442749,16.4310188293457,16.4310913085938,16.4311656951904,16.4312381744385,16.4313125610352,16.4313869476318,16.4314613342285,16.4315338134766,16.4316101074219,16.4316825866699,16.4317569732666,16.4318313598633,16.4319038391113,16.4319763183594,16.4320526123047,16.4321250915527,16.4321994781494,16.4322738647461,16.4323482513428,16.4324207305908,16.4324932098389,16.4325675964355,16.4326419830322,16.4327144622803,16.4327907562256,16.4328632354736,16.4329376220703,16.433012008667,16.433084487915,16.4331588745117,16.4332332611084,16.4333076477051
3.04421329498291,3.05131506919861,3.0584499835968,3.06561851501465,3.07282042503357,3.0800564289093,3.08732652664185,3.09463119506836,3.10197043418884,3.10934448242188,3.11675381660461,3.12419843673706,3.13167858123779,3.13919496536255,3.14674735069275,3.15433597564697,3.16196155548096,3.16962385177612,3.17732357978821,3.18506073951721,3.19283580780029,3.20064878463745,3.20850014686584,3.21638989448547,3.22431874275208,3.23228693008423,3.24029421806335,3.24834156036377,3.25642895698547,3.26455664634705,3.27272510528564,3.28093433380127,3.28918504714966,3.29747724533081,3.30581164360046,3.31418800354004,3.32260680198669,3.33106875419617,3.33957386016846,3.34812235832214,3.35671496391296,3.36535143852234,3.37403273582458,3.38275909423828,3.39153051376343,3.40034747123718,3.4092104434967,3.41811966896057,3.42707562446594,3.43607878684998,3.44512915611267,3.45422744750977,3.46337389945984,3.47256898880005,3.48181295394897,3.49110627174377,3.50044941902161,3.50984263420105,3.51929521560669,3.52880430221558,3.53836464881897,3.54797720909119,3.55764198303223,3.56735944747925,3.57713031768799,3.58695483207703,3.59683346748352,3.60676646232605,3.61675477027893,3.62679839134216,3.63689804077148,3.64705395698547,3.65726685523987,3.66753721237183,3.67786502838135,3.68825149536133,3.69869685173035,3.70920133590698,3.71976590156555,3.73039054870605,3.74107623100281,3.75182318687439,3.76263213157654,3.77350354194641,3.78443789482117,3.79543590545654,3.8064980506897,3.81762480735779,3.82881665229797,3.84007453918457,3.85139870643616,3.86278986930847,3.87424874305725,3.88577556610107,3.89737153053284,3.90903663635254,3.9207718372345,3.93257761001587,3.94445490837097,3.95640397071838,3.96842575073242,3.98052072525024,3.99268984794617,4.00493335723877,4.01725244522095,4.02964735031128,4.04211902618408,4.05466794967651,4.06729555130005,4.08000183105469,4.09278726577759,4.10565376281738,4.11860084533691,4.13163042068481,4.14474248886108,4.15793752670288,4.17121744155884,4.18458223342896,4.19803333282471,4.21242761611938,4.22744083404541,4.24256134033203,4.25779008865356,4.27312850952148,4.28857803344727,4.30413961410522,4.31981468200684,4.33560419082642,4.35150957107544,4.36753225326538,4.38367319107056,4.39993381500244,4.41631555557251,4.43281984329224,4.4494481086731,4.4662013053894,4.48308134078979,4.50008916854858,4.51603364944458,4.53187990188599,4.54783773422241,4.56390857696533,4.5800929069519,4.59639310836792,4.61280918121338,4.62934303283691,4.64599609375,4.66276931762695,4.67966365814209,4.6966814994812,4.71382331848145,4.7310905456543,4.74848508834839,4.76600790023804,4.78366041183472,4.8014440536499,4.81936073303223,4.83741092681885,4.85559797286987,4.87392139434814,4.89238405227661,4.91098690032959,4.92973184585571,4.94862031936646,4.96765375137329,4.98683595657349,5.00616693496704,5.02564859390259,5.04528188705444,5.06506967544556,5.0850133895874,5.10511445999146,5.12537479400635,5.14579725265503,5.16638231277466,5.18713331222534,5.20805168151855,5.22913932800293,5.25039863586426,16.2816734313965,16.2817459106445,16.2818183898926,16.2818927764893,16.2819671630859,16.282039642334,16.2821140289307,16.2821865081787,16.2822608947754,16.2823314666748,16.2824058532715,16.2824802398682,16.2825527191162,16.2826251983643,16.2826995849609,16.2827739715576,16.282844543457,16.2829189300537,16.2829933166504,16.2830657958984,16.2831382751465,16.2832126617432,16.2832851409912,16.2833595275879,16.2834320068359,16.2835063934326,16.2835807800293,16.2836532592773,16.2837257385254,16.2837982177734,16.2838726043701,16.2839469909668,16.2840213775635,16.2840919494629,16.2841663360596,16.2842407226562,16.2843132019043,16.284387588501,16.284460067749,16.2845325469971,16.2846069335938,16.2846794128418,16.2847518920898,16.2848243713379,16.2848949432373,16.2849674224854,16.2850399017334,16.2851123809814,16.2851867675781,16.2852592468262,16.2853317260742,16.2854042053223,16.2854747772217,16.2855472564697,16.2856197357178,16.2856922149658,16.2857666015625,16.2858390808105,16.2859115600586,16.2859840393066,16.2860565185547,16.2861270904541,16.2861995697021,16.2862739562988,16.2863464355469,16.2864189147949,16.286491394043,16.286563873291,16.2866363525391,16.2867069244385,16.2867813110352,16.2868537902832,16.2869262695312,16.2869987487793,16.2870712280273,16.2871437072754,16.2872161865234,16.2872886657715,16.2873611450195,16.2874336242676,16.2875061035156,16.2875785827637,16.2876510620117,16.2877235412598,16.2877960205078,16.2878684997559,16.2879409790039,16.288013458252,16.2880840301514,16.288158416748,16.2882308959961,16.2883014678955,16.2883758544922,16.2884483337402,16.2885189056396,16.2885932922363,16.2886657714844,16.2887363433838,16.2888107299805,16.2888813018799,16.2889537811279,16.2890281677246,16.2891006469727,16.2891731262207,16.2892456054688,16.2893180847168,16.2893905639648,16.2894630432129,16.2895355224609,16.289608001709,16.289680480957,16.2897529602051,16.2898254394531,16.2898979187012,16.2899703979492,16.2900428771973,16.2901153564453,16.2901878356934,16.2902603149414,16.2903347015381,16.2904052734375,16.2904777526855,16.2905502319336,16.2906227111816,16.2906970977783,16.2907695770264,16.2908420562744,16.2909145355225,16.2909851074219,16.2910594940186,16.2911319732666,16.2912044525146,16.2912769317627,16.2913494110107,16.2914218902588,16.2914943695068,16.2915687561035,16.2916393280029,16.2917098999023,16.291784286499,16.2918567657471,16.2919292449951,16.2920036315918,16.2920742034912,16.2921466827393,16.2922191619873,16.2922916412354,16.2923641204834,16.2924365997314,16.2925090789795,16.2925815582275,16.2926540374756,16.2927265167236,16.2927989959717,16.2928733825684,16.2929458618164,16.2930183410645,16.2930908203125,16.2931632995605,16.2932357788086,16.2933082580566,16.2933807373047,16.2934532165527,16.2935256958008,16.2935981750488,16.2936687469482,16.2937412261963,16.293815612793,16.293888092041,16.2939605712891,16.2940330505371,16.2941055297852,16.2941780090332,16.2942504882812,16.2943229675293,16.2943954467773,16.2944679260254,16.2945423126221,16.2946147918701,16.2946853637695,16.2947578430176,16.2948322296143,16.2949047088623,16.2949771881104,16.2950477600098,16.2951221466064,16.2951946258545,16.2952651977539,16.2953395843506,16.2954120635986,16.2954845428467,16.2955570220947,16.2956314086914,16.2957019805908,16.2957744598389,16.2958469390869,16.295919418335,16.295991897583,16.2960643768311,16.2961368560791,16.2962112426758,16.2962837219238,16.2963562011719,16.2964286804199,16.296501159668,16.296573638916,16.2966442108154,16.2967166900635,16.2967910766602,16.2968635559082,16.2969360351562,16.2970104217529,16.2970809936523,16.2971534729004,16.2972259521484,16.2972984313965,16.2973728179932,16.2974452972412,16.2975177764893,16.2975902557373,16.2976627349854,16.2977352142334,16.2978076934814,16.2978801727295,16.2979526519775,16.2980251312256,16.2980976104736,16.2981700897217,16.2982425689697,16.2983150482178,16.2983875274658,16.2984600067139,16.2985324859619,16.29860496521,16.2986793518066,16.2987518310547,16.2988243103027,16.2988967895508,16.2989692687988,16.2990398406982,16.2991123199463,16.299186706543,16.299259185791,16.2993316650391
3.03773069381714,3.04480218887329,3.05190658569336,3.0590443611145,3.06621551513672,3.07342052459717,3.08065915107727,3.08793234825134,3.09523963928223,3.10258173942566,3.10995888710022,3.11737108230591,3.1248185634613,3.13230180740356,3.13982105255127,3.14737629890442,3.15496826171875,3.16259670257568,3.17026233673096,3.17796516418457,3.1857054233551,3.19348359107971,3.2012996673584,3.20915412902832,3.21704721450806,3.22497940063477,3.23295068740845,3.24096155166626,3.2490119934082,3.25710272789001,3.26523375511169,3.2734055519104,3.28161835670471,3.28987240791321,3.29816818237305,3.30650591850281,3.31488585472107,3.32330822944641,3.33177375793457,3.34028244018555,3.3488347530365,3.35743069648743,3.36607122421265,3.37475609779358,3.38348603248596,3.39226126670837,3.40108203887939,3.40994882583618,3.41886210441589,3.42782187461853,3.43682885169983,3.44588327407837,3.45498561859131,3.46413612365723,3.47333526611328,3.48258328437805,3.4918806552887,3.50122785568237,3.51062536239624,3.5200731754303,3.52957963943481,3.53914427757263,3.54876112937927,3.55843019485474,3.56815195083618,3.57792711257935,3.58775615692139,3.5976390838623,3.60757660865784,3.61756944656372,3.62761759757996,3.63772177696228,3.64788222312927,3.65809988975525,3.66837477684021,3.67870759963989,3.68909883499146,3.69954872131348,3.71005821228027,3.72062754631042,3.73125720024109,3.741947889328,3.75269985198975,3.76351380348206,3.77439045906067,3.78532981872559,3.7963330745697,3.8074004650116,3.81853246688843,3.82972979545593,3.84099292755127,3.85232257843018,3.86371922492981,3.87518334388733,3.88671588897705,3.89831733703613,3.90998816490173,3.92172908782959,3.93354082107544,3.94542360305786,3.95737886428833,3.96940636634827,3.98150753974915,3.99368262290955,4.00593233108521,4.01825761795044,4.03065872192383,4.04313659667969,4.05569219589233,4.06832551956177,4.08103847503662,4.09383058547974,4.10670328140259,4.11965751647949,4.13269329071045,4.14581203460693,4.1590142250061,4.17230129241943,4.18567276000977,4.19913053512573,4.21280241012573,4.22781801223755,4.24294137954712,4.2581729888916,4.27351427078247,4.2889666557312,4.30453109741211,4.32020902633667,4.3360013961792,4.35190963745117,4.36793518066406,4.38407897949219,4.40034294128418,4.4167275428772,4.43323516845703,4.44986629486084,4.46662282943726,4.4835057258606,4.50051689147949,4.51748132705688,4.53333806991577,4.54930639266968,4.56538724899292,4.58158254623413,4.59789276123047,4.61431980133057,4.63086462020874,4.64752864837646,4.66431283950806,4.68121862411499,4.69824743270874,4.71540069580078,4.73267984390259,4.75008583068848,4.76762056350708,4.78528499603271,4.80308103561401,4.82100963592529,4.83907270431519,4.85727167129517,4.87560796737671,4.89408302307129,4.9126992225647,4.93145751953125,4.95035886764526,4.96940660476685,4.98860025405884,5.00794506072998,5.02744007110596,5.04708766937256,5.06688976287842,5.08684730529785,5.10696315765381,5.12723827362061,5.14767551422119,5.16827630996704,5.18904256820679,5.20997619628906,5.2310791015625,5.25235414505005,5.27380275726318,16.1502914428711,16.1503620147705,16.1504364013672,16.1505088806152,16.1505794525146,16.1506519317627,16.1507244110107,16.1507949829102,16.1508693695068,16.1509418487549,16.1510124206543,16.1510848999023,16.1511573791504,16.1512298583984,16.1513023376465,16.1513729095459,16.1514453887939,16.151517868042,16.15159034729,16.1516609191895,16.1517353057861,16.1518077850342,16.1518783569336,16.1519508361816,16.1520233154297,16.1520957946777,16.1521682739258,16.1522407531738,16.1523132324219,16.1523838043213,16.1524562835693,16.1525287628174,16.1526012420654,16.1526718139648,16.1527462005615,16.1528167724609,16.1528873443604,16.152961730957,16.1530323028564,16.1531047821045,16.1531772613525,16.1532497406006,16.1533184051514,16.1533908843994,16.1534633636475,16.1535339355469,16.1536064147949,16.1536769866943,16.1537475585938,16.1538200378418,16.1538906097412,16.1539611816406,16.1540336608887,16.1541042327881,16.1541767120361,16.1542472839355,16.154317855835,16.154390335083,16.1544609069824,16.1545333862305,16.1546039581299,16.1546764373779,16.1547470092773,16.1548175811768,16.1548881530762,16.1549606323242,16.1550312042236,16.1551036834717,16.1551742553711,16.1552467346191,16.1553192138672,16.155387878418,16.155460357666,16.1555309295654,16.1556034088135,16.1556720733643,16.1557464599609,16.1558170318604,16.1558876037598,16.1559600830078,16.1560306549072,16.1561012268066,16.1561717987061,16.1562442779541,16.1563167572021,16.1563873291016,16.156457901001,16.156530380249,16.1566009521484,16.1566734313965,16.1567440032959,16.1568145751953,16.1568870544434,16.1569576263428,16.1570301055908,16.1571025848389,16.1571731567383,16.1572437286377,16.1573143005371,16.1573867797852,16.1574573516846,16.1575298309326,16.1575984954834,16.1576728820801,16.1577415466309,16.1578140258789,16.1578845977783,16.1579570770264,16.1580276489258,16.1581001281738,16.1581707000732,16.1582431793213,16.1583156585693,16.1583843231201,16.1584568023682,16.1585273742676,16.1585998535156,16.158670425415,16.1587429046631,16.1588134765625,16.1588840484619,16.15895652771,16.1590270996094,16.1590995788574,16.1591682434082,16.1592407226562,16.1593112945557,16.1593837738037,16.1594562530518,16.1595268249512,16.1595993041992,16.1596698760986,16.159740447998,16.1598129272461,16.1598834991455,16.1599559783936,16.160026550293,16.160099029541,16.1601696014404,16.1602401733398,16.1603126525879,16.1603832244873,16.1604537963867,16.1605262756348,16.1605968475342,16.1606674194336,16.1607398986816,16.1608123779297,16.1608829498291,16.1609535217285,16.1610260009766,16.161096572876,16.161169052124,16.1612396240234,16.1613121032715,16.1613826751709,16.1614551544189,16.1615238189697,16.1615962982178,16.1616668701172,16.1617393493652,16.1618118286133,16.1618824005127,16.1619529724121,16.1620254516602,16.1620960235596,16.1621685028076,16.162239074707,16.1623115539551,16.1623840332031,16.1624526977539,16.1625270843506,16.1625957489014,16.1626682281494,16.1627388000488,16.1628112792969,16.1628818511963,16.1629524230957,16.1630249023438,16.1630954742432,16.1631679534912,16.1632385253906,16.1633110046387,16.1633815765381,16.1634540557861,16.1635246276855,16.163595199585,16.163667678833,16.1637382507324,16.1638088226318,16.1638813018799,16.1639537811279,16.1640243530273,16.1640949249268,16.1641674041748,16.1642379760742,16.1643104553223,16.1643810272217,16.1644535064697,16.1645240783691,16.1645946502686,16.1646671295166,16.164737701416,16.1648101806641,16.1648807525635,16.1649532318115,16.1650238037109,16.165096282959,16.1651668548584,16.1652374267578,16.1653099060059,16.1653804779053,16.1654529571533,16.1655235290527,16.1655941009521,16.1656665802002,16.1657371520996,16.1658096313477,16.1658802032471,16.1659526824951,16.1660251617432,16.1660957336426,16.166166305542,16.16623878479,16.1663093566895,16.1663818359375,16.1664524078369,16.166524887085,16.1665935516357,16.1666679382324,16.1667385101318,16.1668090820312,16.1668815612793,16.1669521331787,16.1670246124268,16.1670951843262,16.1671676635742,16.1672382354736,16.1673107147217,16.1673812866211,16.1674518585205,16.1675243377686
3.03127551078796,3.03831696510315,3.04539108276367,3.05249834060669,3.05963897705078,3.06681299209595,3.07402062416077,3.0812623500824,3.08853816986084,3.09584832191467,3.10319352149963,3.11057329177856,3.1179883480072,3.12543892860413,3.13292527198792,3.14044737815857,3.14800572395325,3.15560078620911,3.16323232650757,3.17090082168579,3.17860674858093,3.18635010719299,3.19413137435913,3.20195078849792,3.20980858802795,3.21770477294922,3.22564029693604,3.23361468315125,3.24162888526917,3.24968290328979,3.25777673721313,3.2659113407135,3.27408647537231,3.28230261802673,3.29056024551392,3.29885935783386,3.30720067024231,3.31558394432068,3.32401013374329,3.33247900009155,3.34099149703979,3.34954714775085,3.35814714431763,3.36679124832153,3.37547969818115,3.3842134475708,3.39299249649048,3.40181708335876,3.41068768501282,3.41960477828979,3.42856860160828,3.43757939338684,3.44663786888123,3.45574402809143,3.46489858627319,3.47410178184509,3.48335385322571,3.49265551567078,3.5020067691803,3.51140832901001,3.52086067199707,3.53036379814148,3.53992438316345,3.54954528808594,3.55921864509583,3.56894493103027,3.57872438430786,3.58855772018433,3.59844517707825,3.60838723182678,3.61838436126709,3.62843704223633,3.63854575157166,3.64871096611023,3.65893316268921,3.66921281814575,3.67955040931702,3.68994641304016,3.70040106773376,3.71091532707214,3.72148966789246,3.73212432861328,3.74281978607178,3.75357699394226,3.76439595222473,3.77527761459351,3.78622221946716,3.79723072052002,3.80830311775208,3.81944060325623,3.83064317703247,3.84191155433655,3.85324668884277,3.86464881896973,3.87611865997314,3.88765668869019,3.89926385879517,3.91094017028809,3.92268681526184,3.93450427055359,3.94639325141907,3.95835399627686,3.97038769721985,3.98249483108521,3.99467587471008,4.0069317817688,4.01926279067993,4.03167009353638,4.04415464401245,4.05671644210815,4.0693564414978,4.08207559585571,4.09487438201904,4.10775375366211,4.12071418762207,4.1337571144104,4.1468825340271,4.16009187698364,4.17338514328003,4.18676376342773,4.20022869110107,4.21378040313721,4.22819566726685,4.24332141876221,4.25855588912964,4.27390003204346,4.28935527801514,4.30492258071899,4.32060289382935,4.33639860153198,4.3523097038269,4.36833810806274,4.38448524475098,4.40075159072876,4.41714000701904,4.43365001678467,4.45028448104858,4.46704387664795,4.48393058776855,4.5009446144104,4.51808881759644,4.53479719161987,4.5507755279541,4.56686687469482,4.58307266235352,4.59939384460449,4.61583137512207,4.63238716125488,4.64906215667725,4.66585731506348,4.68277454376221,4.69981479644775,4.71697950363159,4.7342700958252,4.75168800354004,4.76923418045044,4.78691101074219,4.80471897125244,4.82265996932983,4.84073543548584,4.85894680023193,4.87729549407959,4.8957839012146,4.91441297531128,4.9331841468811,4.95209884643555,4.97115993499756,4.9903678894043,5.00972414016724,5.02923345565796,5.04889535903931,5.06871128082275,5.08868312835693,5.10881376266479,5.1291036605835,5.14955568313599,5.17017126083374,5.19095277786255,5.21190166473389,5.2330207824707,5.25431156158447,5.27577590942383,16.0209426879883,16.0210132598877,16.0210838317871,16.0211544036865,16.0212268829346,16.021297454834,16.0213680267334,16.0214385986328,16.0215091705322,16.0215816497803,16.0216522216797,16.0217227935791,16.0217933654785,16.0218658447266,16.021936416626,16.0220069885254,16.0220775604248,16.0221500396729,16.0222187042236,16.0222911834717,16.0223617553711,16.0224342346191,16.0225028991699,16.0225734710693,16.0226459503174,16.0227165222168,16.0227870941162,16.0228595733643,16.0229301452637,16.0230007171631,16.0230731964111,16.0231418609619,16.02321434021,16.0232849121094,16.0233573913574,16.0234279632568,16.0234966278076,16.0235691070557,16.0236415863037,16.0237121582031,16.0237827301025,16.023853302002,16.0239238739014,16.0239963531494,16.0240650177002,16.024133682251,16.0242042541504,16.0242748260498,16.0243473052979,16.0244159698486,16.024486541748,16.0245552062988,16.0246276855469,16.0246963500977,16.0247669219971,16.0248355865479,16.0249061584473,16.0249786376953,16.0250473022461,16.0251178741455,16.0251884460449,16.0252571105957,16.0253276824951,16.0253982543945,16.0254688262939,16.0255393981934,16.0256080627441,16.0256786346436,16.025749206543,16.0258197784424,16.0258884429932,16.0259590148926,16.026029586792,16.0261001586914,16.0261707305908,16.0262413024902,16.0263118743896,16.0263805389404,16.0264511108398,16.0265216827393,16.0265922546387,16.0266609191895,16.0267333984375,16.0268020629883,16.0268726348877,16.0269432067871,16.0270118713379,16.0270824432373,16.0271511077881,16.0272235870361,16.0272941589355,16.027364730835,16.0274333953857,16.0275058746338,16.0275745391846,16.027645111084,16.0277137756348,16.0277843475342,16.0278549194336,16.027925491333,16.0279960632324,16.0280666351318,16.0281352996826,16.028205871582,16.0282764434814,16.0283470153809,16.0284175872803,16.0284881591797,16.0285568237305,16.0286293029785,16.0286979675293,16.0287685394287,16.0288372039795,16.0289077758789,16.0289783477783,16.0290489196777,16.0291194915771,16.0291900634766,16.029260635376,16.0293292999268,16.0293998718262,16.0294704437256,16.029541015625,16.0296096801758,16.0296802520752,16.0297508239746,16.029821395874,16.0298919677734,16.0299606323242,16.0300312042236,16.030101776123,16.0301723480225,16.0302429199219,16.0303134918213,16.0303840637207,16.0304527282715,16.0305252075195,16.0305938720703,16.0306644439697,16.0307331085205,16.0308036804199,16.0308742523193,16.0309467315674,16.0310153961182,16.0310859680176,16.0311546325684,16.0312252044678,16.0312976837158,16.0313663482666,16.031436920166,16.0315074920654,16.0315761566162,16.0316467285156,16.031717300415,16.0317878723145,16.0318584442139,16.0319290161133,16.0319995880127,16.0320682525635,16.0321407318115,16.0322093963623,16.0322799682617,16.0323505401611,16.0324192047119,16.03249168396,16.0325603485107,16.0326309204102,16.0327014923096,16.032772064209,16.0328426361084,16.0329132080078,16.0329837799072,16.033052444458,16.0331230163574,16.0331935882568,16.0332622528076,16.033332824707,16.0334053039551,16.0334739685059,16.0335445404053,16.0336151123047,16.0336837768555,16.0337543487549,16.0338268280029,16.0338954925537,16.0339660644531,16.0340366363525,16.0341053009033,16.0341758728027,16.0342464447021,16.0343170166016,16.034387588501,16.0344581604004,16.0345287322998,16.0345973968506,16.03466796875,16.0347385406494,16.0348091125488,16.0348796844482,16.034948348999,16.0350189208984,16.0350894927979,16.0351619720459,16.0352325439453,16.0353012084961,16.0353717803955,16.0354404449463,16.0355110168457,16.0355834960938,16.0356521606445,16.0357227325439,16.0357933044434,16.0358619689941,16.0359325408936,16.036003112793,16.036075592041,16.0361442565918,16.0362148284912,16.0362854003906,16.03635597229,16.0364246368408,16.0364952087402,16.0365657806396,16.0366363525391,16.0367069244385,16.0367774963379,16.0368480682373,16.0369186401367,16.0369873046875,16.0370578765869,16.0371284484863,16.0371990203857,16.0372676849365,16.0373401641846,16.0374088287354,16.0374813079834,16.0375499725342,16.0376205444336,16.037691116333,16.0377597808838,16.0378303527832
3.02484774589539,3.03185939788818,3.03890347480774,3.04598045349121,3.05309057235718,3.06023383140564,3.06741046905518,3.07462096214294,3.08186554908752,3.08914422988892,3.09645748138428,3.10380530357361,3.11118817329407,3.11860609054565,3.12605977058411,3.13354897499084,3.14107418060303,3.14863538742065,3.15623331069946,3.16386795043945,3.17153978347778,3.17924880981445,3.18699526786804,3.19477963447571,3.20260214805603,3.21046304702759,3.21836280822754,3.2263011932373,3.2342791557312,3.24229645729065,3.25035381317139,3.25845122337341,3.26658892631531,3.27476763725281,3.28298711776733,3.29124808311462,3.29955077171326,3.30789542198181,3.31628251075745,3.32471203804016,3.33318471908569,3.34170055389404,3.35026001930237,3.35886359214783,3.36751127243042,3.37620377540588,3.38494110107422,3.39372396469116,3.40255236625671,3.41142678260803,3.42034769058228,3.42931532859802,3.43833017349243,3.44739270210266,3.45650291442871,3.46566128730774,3.47486853599548,3.48412489891052,3.49343061447144,3.50278615951538,3.51219177246094,3.52164816856384,3.53115582466125,3.54071474075317,3.55032992362976,3.56000757217407,3.56973814964294,3.57952189445496,3.58935952186584,3.59925150871277,3.60919809341431,3.61919975280762,3.62925696372986,3.63937020301819,3.64954018592834,3.65976691246033,3.67005133628845,3.68039345741272,3.69079422950745,3.70125389099121,3.71177291870117,3.72235202789307,3.73299169540405,3.74369215965271,3.75445437431335,3.76527833938599,3.7761652469635,3.78711485862732,3.79812860488892,3.80920648574829,3.8203489780426,3.83155703544617,3.84283089637756,3.85417127609253,3.8655788898468,3.87705421447754,3.88859796524048,3.90021061897278,3.91189289093018,3.92364525794983,3.93546843528748,3.94736313819885,3.95932984352112,3.97136950492859,3.98348259925842,3.99566960334778,4.00793170928955,4.02026891708374,4.03268241882324,4.04517316818237,4.05774116516113,4.070387840271,4.08311319351196,4.09591865539551,4.10880470275879,4.12177181243896,4.13482141494751,4.14795351028442,4.16116952896118,4.17446994781494,4.18785572052002,4.20132732391357,4.21488618850708,4.22857332229614,4.24370193481445,4.25893878936768,4.27428579330444,4.28974390029907,4.30531358718872,4.32099723815918,4.33679580688477,4.35270977020264,4.36874103546143,4.38489103317261,4.4011607170105,4.41755199432373,4.43406534194946,4.45070266723633,4.4674654006958,4.48435497283936,4.50137281417847,4.51851987838745,4.5357985496521,4.55224561691284,4.5683479309082,4.58456420898438,4.60089588165283,4.61734390258789,4.63391065597534,4.65059661865234,4.66740322113037,4.68433141708374,4.70138311386108,4.71855926513672,4.73586130142212,4.75329113006592,4.77084922790527,4.78853750228882,4.80635786056519,4.82431125640869,4.84239912033081,4.86062288284302,4.87898445129395,4.89748573303223,4.91612768173218,4.93491172790527,4.9538402557373,4.97291421890259,4.99213600158691,5.0115065574646,5.03102779388428,5.05070352554321,5.07053375244141,5.09052038192749,5.1106653213501,5.1309700012207,5.1514368057251,5.17206764221191,5.19286441802979,5.21382904052734,5.23496341705322,5.25626993179321,5.27775096893311,5.29940795898438,15.8937177658081,15.8937873840332,15.8938579559326,15.893928527832,15.8939971923828,15.8940677642822,15.8941383361816,15.8942070007324,15.8942766189575,15.8943471908569,15.8944177627563,15.8944873809814,15.8945569992065,15.894627571106,15.8946962356567,15.8947658538818,15.8948354721069,15.894905090332,15.8949747085571,15.8950452804565,15.895115852356,15.8951854705811,15.8952541351318,15.8953247070312,15.8953952789307,15.8954648971558,15.8955354690552,15.8956050872803,15.8956747055054,15.8957452774048,15.8958139419556,15.895884513855,15.8959541320801,15.8960247039795,15.8960943222046,15.8961639404297,15.8962345123291,15.8963041305542,15.8963737487793,15.8964433670044,15.8965129852295,15.8965835571289,15.8966541290283,15.8967227935791,15.8967924118042,15.896861076355,15.8969306945801,15.8969993591309,15.8970680236816,15.8971366882324,15.8972072601318,15.8972759246826,15.8973445892334,15.8974132537842,15.8974828720093,15.8975524902344,15.8976202011108,15.8976907730103,15.897759437561,15.8978281021118,15.8978986740112,15.8979663848877,15.8980350494385,15.8981046676636,15.8981733322144,15.8982419967651,15.8983125686646,15.8983812332153,15.8984498977661,15.8985195159912,15.898588180542,15.8986568450928,15.8987264633179,15.898796081543,15.8988647460938,15.8989324569702,15.8990030288696,15.8990707397461,15.8991403579712,15.8992099761963,15.8992795944214,15.8993473052979,15.8994178771973,15.899486541748,15.8995552062988,15.8996248245239,15.8996934890747,15.8997631072998,15.8998327255249,15.8999004364014,15.8999691009521,15.9000396728516,15.9001083374023,15.9001770019531,15.9002466201782,15.9003162384033,15.9003849029541,15.9004535675049,15.90052318573,15.9005908966064,15.9006605148315,15.9007301330566,15.9007987976074,15.9008674621582,15.9009380340576,15.9010066986084,15.9010744094849,15.9011449813843,15.9012145996094,15.9012832641602,15.9013519287109,15.9014205932617,15.9014892578125,15.9015598297119,15.901629447937,15.9016971588135,15.9017658233643,15.9018363952637,15.9019050598145,15.9019737243652,15.9020433425903,15.9021120071411,15.9021806716919,15.902250289917,15.9023189544678,15.9023885726929,15.902458190918,15.9025278091431,15.9025955200195,15.9026651382446,15.9027338027954,15.9028024673462,15.9028730392456,15.9029417037964,15.9030103683472,15.9030809402466,15.9031496047974,15.9032182693481,15.9032869338989,15.903356552124,15.9034242630005,15.9034929275513,15.9035634994507,15.9036331176758,15.9037017822266,15.903772354126,15.9038400650024,15.9039087295532,15.9039783477783,15.9040470123291,15.9041156768799,15.9041862487793,15.9042549133301,15.9043245315552,15.9043941497803,15.9044628143311,15.9045314788818,15.9046010971069,15.9046697616577,15.9047384262085,15.9048070907593,15.9048776626587,15.9049453735352,15.9050149917603,15.9050855636597,15.9051532745361,15.9052219390869,15.9052925109863,15.9053611755371,15.9054307937622,15.905499458313,15.9055681228638,15.9056367874146,15.905707359314,15.9057760238647,15.9058446884155,15.9059152603149,15.9059829711914,15.9060525894165,15.9061231613159,15.9061918258667,15.9062604904175,15.9063282012939,15.9063987731934,15.9064664840698,15.9065351486206,15.90660572052,15.9066753387451,15.9067440032959,15.9068145751953,15.9068822860718,15.9069509506226,15.907021522522,15.9070901870728,15.9071588516235,15.9072284698486,15.9072980880737,15.9073667526245,15.9074363708496,15.9075040817261,15.9075736999512,15.9076442718506,15.9077129364014,15.9077816009521,15.9078502655029,15.9079208374023,15.9079895019531,15.9080572128296,15.9081268310547,15.9081964492798,15.9082641601562,15.9083347320557,15.9084033966064,15.9084730148315,15.908543586731,15.9086122512817,15.9086790084839,15.9087495803833,15.9088191986084,15.9088878631592,15.9089584350586,15.9090270996094,15.9090957641602,15.9091653823853,15.9092330932617,15.9093027114868,15.9093713760376,15.909441947937,15.9095096588135,15.9095792770386,15.909649848938,15.9097185134888,15.9097862243652,15.9098567962646,15.9099254608154,15.9099941253662,15.9100646972656,15.9101343154907,15.9102029800415
3.01844716072083,3.02542924880981,3.03244352340698,3.03949022293091,3.04657006263733,3.05368280410767,3.0608286857605,3.06800842285156,3.07522177696228,3.08246898651123,3.08975052833557,3.09706664085388,3.10441732406616,3.11180305480957,3.11922407150269,3.12668061256409,3.13417267799377,3.14170098304749,3.14926528930664,3.15686631202698,3.1645040512085,3.17217874526978,3.17989087104797,3.18764066696167,3.19542813301086,3.20325398445129,3.21111798286438,3.21902084350586,3.22696256637573,3.23494386672974,3.24296450614929,3.25102496147156,3.25912570953369,3.26726698875427,3.27544903755188,3.28367209434509,3.29193639755249,3.30024266242981,3.30859088897705,3.31698131561279,3.32541441917419,3.33389067649841,3.34241008758545,3.35097336769104,3.35958051681519,3.36823201179504,3.37692809104919,3.38566923141479,3.39445567131042,3.40328788757324,3.41216635704041,3.42109107971191,3.43006277084351,3.43908143043518,3.44814777374268,3.45726203918457,3.46642470359802,3.47563576698303,3.48489618301392,3.49420595169067,3.50356554985046,3.51297569274902,3.52243638038635,3.53194808959961,3.54151129722595,3.55112648010254,3.5607967376709,3.57053160667419,3.58031988143921,3.5901620388031,3.60005831718445,3.61000919342041,3.62001538276672,3.63007712364197,3.64019513130188,3.65036964416504,3.6606011390686,3.67089009284973,3.68123698234558,3.69164252281189,3.70210695266724,3.71263098716736,3.72321486473083,3.73385953903198,3.7445650100708,3.75533199310303,3.76616144180298,3.77705311775208,3.78800821304321,3.79902696609497,3.81011009216309,3.82125782966614,3.83247113227844,3.84375071525574,3.85509634017944,3.86650943756104,3.87799048423767,3.88953971862793,3.90115785598755,3.91284584999084,3.9246039390564,3.93643307685852,3.9483335018158,3.96030616760254,3.97235178947449,3.9844708442688,3.99666380882263,4.00893211364746,4.02127552032471,4.03369522094727,4.04619216918945,4.05876684188843,4.07141971588135,4.08415174484253,4.09696340560913,4.10985612869263,4.12282991409302,4.13588571548462,4.14902496337891,4.16224765777588,4.17555522918701,4.18894815444946,4.20242691040039,4.21599245071411,4.2296462059021,4.2440824508667,4.25932216644287,4.27467155456543,4.29013252258301,4.30570554733276,4.32139158248901,4.33719301223755,4.35310983657837,4.36914443969727,4.3852972984314,4.40157032012939,4.41796398162842,4.43448066711426,4.45112133026123,4.46788692474365,4.48477983474731,4.50180053710938,4.51895141601562,4.53623294830322,4.55364751815796,4.56982946395874,4.58605623245239,4.60239839553833,4.61885786056519,4.63543558120728,4.65213203430176,4.66894960403442,4.68588924407959,4.70295238494873,4.72013998031616,4.73745393753052,4.75489521026611,4.77246522903442,4.79016590118408,4.8079981803894,4.82596349716187,4.8440637588501,4.86230039596558,4.88067483901978,4.89918851852417,4.91784334182739,4.93664073944092,4.95558261871338,4.97466993331909,4.99390554428101,5.01328992843628,5.0328254699707,5.05251312255859,5.07235765457153,5.09235906600952,5.11251831054688,5.13283777236938,5.15331935882568,5.17396545410156,5.1947774887085,5.21575736999512,5.23690795898438,5.25823020935059,5.2797269821167,5.30140066146851,5.32325220108032,15.7684993743896,15.7685670852661,15.7686357498169,15.768705368042,15.7687740325928,15.7688426971436,15.7689113616943,15.7689809799194,15.7690505981445,15.7691173553467,15.7691860198975,15.7692556381226,15.7693243026733,15.7693929672241,15.7694625854492,15.76953125,15.7696008682251,15.7696676254272,15.7697372436523,15.7698059082031,15.7698745727539,15.7699432373047,15.7700128555298,15.7700815200806,15.7701501846313,15.7702178955078,15.7702875137329,15.7703561782837,15.7704248428345,15.7704935073853,15.7705631256104,15.7706317901611,15.7706985473633,15.7707681655884,15.7708377838135,15.7709064483643,15.770975112915,15.7710447311401,15.7711133956909,15.7711820602417,15.7712497711182,15.7713184356689,15.771388053894,15.7714567184448,15.7715263366699,15.7715940475464,15.7716617584229,15.771728515625,15.7717981338501,15.7718658447266,15.771933555603,15.7720012664795,15.772068977356,15.7721366882324,15.7722053527832,15.772274017334,15.7723407745361,15.7724103927612,15.7724781036377,15.7725448608398,15.7726135253906,15.7726812362671,15.7727489471436,15.7728176116943,15.7728853225708,15.7729530334473,15.7730207443237,15.7730894088745,15.773157119751,15.7732238769531,15.7732944488525,15.7733612060547,15.7734289169312,15.7734975814819,15.7735662460327,15.7736330032349,15.7737016677856,15.7737684249878,15.7738370895386,15.7739057540894,15.7739734649658,15.7740411758423,15.7741098403931,15.7741775512695,15.7742443084717,15.7743139266968,15.7743816375732,15.7744493484497,15.7745161056519,15.774585723877,15.7746534347534,15.7747211456299,15.7747898101807,15.7748575210571,15.7749242782593,15.7749938964844,15.7750606536865,15.7751293182373,15.7751979827881,15.7752656936646,15.7753324508667,15.7754020690918,15.7754688262939,15.7755365371704,15.7756052017212,15.7756748199463,15.7757415771484,15.7758111953735,15.7758779525757,15.7759466171265,15.7760124206543,15.7760820388794,15.7761497497559,15.7762174606323,15.7762861251831,15.7763538360596,15.776421546936,15.7764911651611,15.776556968689,15.7766246795654,15.7766942977905,15.776762008667,15.7768287658691,15.7768983840942,15.7769660949707,15.7770338058472,15.7771015167236,15.7771701812744,15.7772378921509,15.7773065567017,15.7773742675781,15.7774419784546,15.7775096893311,15.7775783538818,15.7776470184326,15.7777137756348,15.7777833938599,15.777850151062,15.7779188156128,15.7779874801636,15.77805519104,15.7781219482422,15.7781925201416,15.7782583236694,15.7783260345459,15.7783946990967,15.7784633636475,15.7785301208496,15.7785997390747,15.7786674499512,15.7787351608276,15.7788038253784,15.7788715362549,15.7789392471313,15.7790060043335,15.7790756225586,15.7791433334351,15.7792110443115,15.7792797088623,15.7793483734131,15.7794151306152,15.779483795166,15.7795515060425,15.7796192169189,15.7796878814697,15.7797555923462,15.779824256897,15.7798929214478,15.7799606323242,15.7800264358521,15.7800970077515,15.7801637649536,15.7802314758301,15.7803010940552,15.7803688049316,15.7804365158081,15.7805042266846,15.7805728912354,15.7806396484375,15.780707359314,15.7807769775391,15.7808446884155,15.780912399292,15.7809810638428,15.7810497283936,15.7811155319214,15.7811851501465,15.7812528610229,15.7813205718994,15.7813892364502,15.781457901001,15.7815256118774,15.7815942764282,15.7816619873047,15.7817287445068,15.7817964553833,15.7818651199341,15.7819337844849,15.7820014953613,15.7820701599121,15.7821388244629,15.782205581665,15.7822742462158,15.7823419570923,15.7824096679688,15.7824792861938,15.782546043396,15.7826147079468,15.7826833724976,15.782751083374,15.7828187942505,15.7828874588013,15.7829551696777,15.7830228805542,15.7830924987793,15.7831592559814,15.7832269668579,15.7832946777344,15.7833633422852,15.7834310531616,15.7834987640381,15.7835674285889,15.7836351394653,15.7837028503418,15.7837724685669,15.783839225769,15.7839078903198,15.7839765548706,15.7840433120728,15.7841119766235,15.7841806411743,15.7842483520508,15.7843170166016,15.7843856811523,15.7844533920288,15.7845211029053,15.7845897674561
3.01207375526428,3.01902604103088,3.02601075172424,3.03302764892578,3.04007720947266,3.04715967178345,3.05427527427673,3.06142401695251,3.06860637664795,3.07582259178162,3.08307266235352,3.09035706520081,3.09767603874207,3.10502982139587,3.11241841316223,3.1198422908783,3.12730169296265,3.13479685783386,3.14232802391052,3.14989566802979,3.15749955177307,3.16514039039612,3.17281818389893,3.18053340911865,3.18828630447388,3.19607710838318,3.20390582084656,3.21177315711975,3.21967935562134,3.22762441635132,3.23560881614685,3.24363279342651,3.25169658660889,3.25980067253113,3.26794528961182,3.27613067626953,3.28435707092285,3.29262495040894,3.30093455314636,3.30928635597229,3.31768035888672,3.32611703872681,3.33459687232971,3.34312009811401,3.35168671607971,3.36029767990112,3.36895275115967,3.37765264511108,3.38639760017395,3.39518785476685,3.40402388572693,3.41290616989136,3.42183470726013,3.43081021308899,3.43983292579651,3.44890332221985,3.45802140235901,3.46718811988831,3.47640347480774,3.48566770553589,3.49498176574707,3.50434565544128,3.51375985145569,3.52322459220886,3.53274059295654,3.54230833053589,3.5519278049469,3.56159949302673,3.5713255405426,3.58111810684204,3.59096455574036,3.60086536407471,3.61082077026367,3.62083148956299,3.63089776039124,3.64102029800415,3.65119934082031,3.66143560409546,3.67172932624817,3.6820809841156,3.69249129295349,3.70296049118042,3.71348929405212,3.72407841682434,3.73472785949707,3.74543833732605,3.75621032714844,3.76704454421997,3.77794170379639,3.78890180587769,3.79992580413818,3.81101393699646,3.82216715812683,3.83338594436646,3.84467053413391,3.85602211952209,3.86744046211243,3.87892699241638,3.89048171043396,3.90210580825806,3.91379928588867,3.9255633354187,3.93739795684814,3.9493043422699,3.96128296852112,3.97333431243896,3.98545956611633,3.99765872955322,4.00993299484253,4.02228260040283,4.03470849990845,4.04721164703369,4.05979251861572,4.07245206832886,4.0851902961731,4.09800863265991,4.11090803146362,4.12388849258423,4.1369514465332,4.15009689331055,4.16332674026489,4.17664098739624,4.19004058837891,4.20352649688721,4.21709966659546,4.23076057434082,4.24451017379761,4.25970506668091,4.27505779266357,4.29052114486694,4.30609703063965,4.32178640365601,4.33759021759033,4.35351037979126,4.36954736709595,4.38570356369019,4.40197944641113,4.41837644577026,4.43489599227905,4.45153951644897,4.46830892562866,4.48520469665527,4.50222873687744,4.51938247680664,4.5366678237915,4.55408573150635,4.57131195068359,4.58754968643188,4.6039023399353,4.62037229537964,4.63696098327637,4.65366888046265,4.67049741744995,4.68744850158691,4.70452260971069,4.72172164916992,4.73904705047607,4.75650024414062,4.77408218383789,4.7917947769165,4.80963945388794,4.82761716842651,4.84572982788086,4.86397886276245,4.88236618041992,4.90089273452759,4.91956043243408,4.93837118148804,4.95732593536377,4.97642707824707,4.99567604064941,5.01507425308228,5.03462362289429,5.05432653427124,5.07418346405029,5.09419870376587,5.11437273025513,5.13470697402954,5.1552038192749,5.17586469650269,5.19669198989868,5.21768760681152,5.23885345458984,5.26019191741943,5.28170490264893,5.30339431762695,5.32526254653931,15.6451692581177,15.6452369689941,15.6453056335449,15.6453733444214,15.6454391479492,15.6455078125,15.6455755233765,15.6456432342529,15.6457118988037,15.6457786560059,15.6458473205566,15.6459150314331,15.6459817886353,15.6460494995117,15.6461172103882,15.6461849212646,15.6462535858154,15.6463203430176,15.646388053894,15.6464567184448,15.646523475647,15.6465902328491,15.6466588973999,15.6467266082764,15.6467943191528,15.6468629837036,15.6469306945801,15.6469984054565,15.6470651626587,15.6471328735352,15.6472005844116,15.6472682952881,15.6473360061646,15.6474046707153,15.6474733352661,15.6475391387939,15.6476068496704,15.6476755142212,15.6477422714233,15.6478099822998,15.6478796005249,15.6479463577271,15.6480140686035,15.6480827331543,15.6481494903564,15.6482172012329,15.6482858657837,15.6483507156372,15.6484174728394,15.6484851837158,15.648551940918,15.6486186981201,15.6486873626709,15.6487531661987,15.6488189697266,15.6488876342773,15.6489534378052,15.6490201950073,15.6490888595581,15.6491537094116,15.6492214202881,15.6492881774902,15.6493558883667,15.6494226455688,15.6494884490967,15.6495552062988,15.6496229171753,15.6496896743774,15.6497573852539,15.6498241424561,15.6498908996582,15.6499576568604,15.6500244140625,15.6500911712646,15.6501588821411,15.6502256393433,15.6502923965454,15.6503591537476,15.650426864624,15.6504936218262,15.6505613327026,15.6506271362305,15.6506938934326,15.6507596969604,15.6508283615112,15.6508951187134,15.6509609222412,15.651029586792,15.6510953903198,15.6511611938477,15.6512298583984,15.6512966156006,15.6513633728027,15.6514310836792,15.6514978408813,15.6515645980835,15.65163230896,15.6516981124878,15.6517648696899,15.6518325805664,15.6518993377686,15.6519660949707,15.6520338058472,15.6521005630493,15.6521673202515,15.6522331237793,15.6523008346558,15.6523675918579,15.6524343490601,15.6525020599365,15.6525688171387,15.6526355743408,15.6527032852173,15.6527700424194,15.6528358459473,15.6529035568237,15.6529703140259,15.653037071228,15.6531047821045,15.6531715393066,15.6532382965088,15.6533060073853,15.6533727645874,15.6534385681152,15.6535062789917,15.6535730361938,15.653639793396,15.6537065505981,15.6537742614746,15.6538410186768,15.6539077758789,15.6539745330811,15.6540412902832,15.6541080474854,15.6541757583618,15.654242515564,15.6543102264404,15.6543779373169,15.6544437408447,15.6545095443726,15.6545782089233,15.6546440124512,15.6547107696533,15.6547794342041,15.6548461914062,15.6549129486084,15.6549797058105,15.655047416687,15.6551122665405,15.6551790237427,15.6552476882935,15.6553144454956,15.6553812026978,15.6554498672485,15.6555156707764,15.6555824279785,15.6556491851807,15.6557159423828,15.6557817459106,15.6558513641357,15.6559181213379,15.6559839248657,15.6560525894165,15.6561193466187,15.6561851501465,15.6562519073486,15.6563186645508,15.6563863754272,15.6564521789551,15.6565208435059,15.656587600708,15.6566543579102,15.6567220687866,15.6567878723145,15.6568546295166,15.6569223403931,15.6569890975952,15.6570558547974,15.6571245193481,15.657190322876,15.6572570800781,15.6573247909546,15.6573905944824,15.6574573516846,15.6575260162354,15.6575927734375,15.6576595306396,15.6577272415161,15.6577939987183,15.6578607559204,15.6579256057739,15.6579942703247,15.6580610275269,15.6581268310547,15.6581954956055,15.6582632064819,15.6583299636841,15.6583967208862,15.6584634780884,15.6585302352905,15.6585969924927,15.6586637496948,15.658730506897,15.6587991714478,15.6588649749756,15.6589326858521,15.6590013504028,15.6590671539307,15.6591329574585,15.6592016220093,15.6592683792114,15.6593341827393,15.6594009399414,15.6594686508179,15.65953540802,15.6596012115479,15.6596698760986,15.6597366333008,15.6598033905029,15.6598711013794,15.6599378585815,15.6600046157837,15.6600723266602,15.6601390838623,15.6602048873901,15.6602735519409,15.6603393554688,15.6604061126709,15.6604747772217,15.6605415344238,15.660608291626,15.6606760025024,15.6607418060303,15.6608085632324,15.6608753204346,15.660943031311
3.0057270526886,3.01265025138855,3.01960515975952,3.02659249305725,3.03361225128174,3.04066443443298,3.04774975776672,3.05486798286438,3.06201958656311,3.06920480728149,3.07642364501953,3.08367657661438,3.09096384048462,3.09828567504883,3.10564231872559,3.11303400993347,3.12046074867249,3.12792325019836,3.13542127609253,3.14295554161072,3.15052604675293,3.15813302993774,3.16577696800232,3.17345786094666,3.18117618560791,3.18893218040466,3.19672608375549,3.20455813407898,3.2124285697937,3.22033786773682,3.2282862663269,3.23627400398254,3.24430108070374,3.25236845016479,3.26047587394714,3.26862382888794,3.27681255340576,3.28504252433777,3.29331398010254,3.30162692070007,3.30998206138611,3.3183798789978,3.32682013511658,3.33530330657959,3.34383010864258,3.35240054130554,3.36101508140564,3.36967396736145,3.37837743759155,3.38712620735168,3.39592027664185,3.40476012229919,3.41364622116089,3.42257881164551,3.43155813217163,3.440584897995,3.4496591091156,3.45878124237061,3.46795201301575,3.47717142105103,3.48643970489502,3.49575805664062,3.50512599945068,3.51454424858093,3.52401328086853,3.53353357315063,3.5431056022644,3.55272936820984,3.56240558624268,3.57213473320007,3.58191728591919,3.59176778793335,3.60167288780212,3.61163282394409,3.62164807319641,3.63171887397766,3.64184594154358,3.65202951431274,3.66227030754089,3.67256879806519,3.6829252243042,3.69334030151367,3.70381450653076,3.71434807777405,3.72494196891785,3.73559641838074,3.74631190299988,3.75708889961243,3.7679283618927,3.77883052825928,3.78979587554932,3.80082488059998,3.81191849708557,3.82307696342468,3.83430099487305,3.84559106826782,3.85694789886475,3.86837220191956,3.87986397743225,3.89142441749573,3.90305399894714,3.91475319862366,3.92652273178101,3.93836355209351,3.95027565956116,3.96226024627686,3.97431755065918,3.98644852638245,3.99865388870239,4.01093435287476,4.02329015731812,4.03572273254395,4.04823160171509,4.06081914901733,4.07348489761353,4.08622980117798,4.09905481338501,4.11196041107178,4.1249475479126,4.13801717758179,4.1511697769165,4.16440629959106,4.17772722244263,4.19113397598267,4.20462703704834,4.21820735931396,4.2318754196167,4.24563217163086,4.2600884437561,4.27544355392456,4.29090976715088,4.30648851394653,4.32218074798584,4.33798742294312,4.35391044616699,4.36995077133179,4.38610982894897,4.40238857269287,4.41878890991211,4.43531131744385,4.45195817947388,4.46873044967651,4.48562955856323,4.50265693664551,4.51981401443481,4.53710269927979,4.55452346801758,4.57207918167114,4.58904361724854,4.60540723800659,4.62188816070557,4.63848733901978,4.65520620346069,4.67204618453979,4.6890082359314,4.70609426498413,4.72330474853516,4.74064159393311,4.75810670852661,4.77570056915283,4.7934250831604,4.81128168106079,4.82927179336548,4.84739685058594,4.8656587600708,4.88405847549438,4.90259790420532,4.92127895355225,4.94010257720947,4.95907115936279,4.97818565368652,4.9974479675293,5.01686000823975,5.0364236831665,5.05613994598389,5.07601165771484,5.09603977203369,5.11622858047485,5.13657712936401,5.15708923339844,5.17776536941528,5.19860792160034,5.2196192741394,5.24080085754395,5.26215505599976,5.28368377685547,5.30538988113403,5.32727479934692,5.34934091567993,15.5238199234009,15.523886680603,15.5239543914795,15.5240201950073,15.5240879058838,15.5241556167603,15.5242195129395,15.5242862701416,15.5243539810181,15.5244207382202,15.524486541748,15.5245542526245,15.5246210098267,15.5246868133545,15.5247526168823,15.5248203277588,15.5248880386353,15.5249538421631,15.5250205993652,15.5250883102417,15.5251541137695,15.5252208709717,15.5252866744995,15.5253534317017,15.5254192352295,15.525486946106,15.5255546569824,15.5256204605103,15.5256881713867,15.5257549285889,15.5258197784424,15.5258874893188,15.525954246521,15.5260210037231,15.5260877609253,15.5261545181274,15.5262212753296,15.5262880325317,15.5263538360596,15.5264205932617,15.5264883041382,15.526554107666,15.5266208648682,15.5266885757446,15.5267543792725,15.5268211364746,15.5268898010254,15.5269546508789,15.5270195007324,15.5270862579346,15.5271520614624,15.5272169113159,15.5272836685181,15.5273494720459,15.5274152755737,15.5274810791016,15.5275478363037,15.5276136398315,15.5276784896851,15.5277442932129,15.5278100967407,15.5278768539429,15.527943611145,15.5280084609985,15.5280733108521,15.5281410217285,15.528205871582,15.5282707214355,15.528338432312,15.5284042358398,15.5284690856934,15.5285358428955,15.5286016464233,15.5286674499512,15.5287342071533,15.5288000106812,15.5288648605347,15.5289306640625,15.5289974212646,15.5290622711182,15.529128074646,15.5291948318481,15.529260635376,15.5293264389038,15.529393196106,15.5294580459595,15.529522895813,15.5295896530151,15.5296564102173,15.5297222137451,15.5297889709473,15.5298538208008,15.5299196243286,15.5299863815308,15.5300512313843,15.5301160812378,15.5301828384399,15.5302495956421,15.5303153991699,15.5303802490234,15.5304479598999,15.5305118560791,15.5305786132812,15.5306453704834,15.5307111740112,15.5307760238647,15.5308427810669,15.5309085845947,15.5309743881226,15.5310411453247,15.5311059951782,15.5311717987061,15.5312385559082,15.531304359436,15.5313692092896,15.5314359664917,15.5315027236938,15.5315685272217,15.5316324234009,15.531699180603,15.5317649841309,15.5318307876587,15.5318984985352,15.5319633483887,15.5320291519165,15.5320959091187,15.5321607589722,15.5322256088257,15.5322933197021,15.53235912323,15.5324249267578,15.53249168396,15.5325565338135,15.5326223373413,15.5326900482178,15.5327548980713,15.5328197479248,15.532886505127,15.5329523086548,15.5330181121826,15.5330839157104,15.5331506729126,15.5332164764404,15.5332813262939,15.5333480834961,15.5334138870239,15.5334796905518,15.5335464477539,15.5336122512817,15.5336780548096,15.5337448120117,15.5338087081909,15.5338754653931,15.5339422225952,15.534008026123,15.5340728759766,15.5341396331787,15.5342054367065,15.5342721939087,15.5343389511108,15.53440284729,15.5344686508179,15.5345344543457,15.5346012115479,15.5346670150757,15.5347328186035,15.5347995758057,15.5348653793335,15.534930229187,15.5349969863892,15.535062789917,15.5351276397705,15.535195350647,15.5352611541748,15.5353260040283,15.5353937149048,15.5354585647583,15.5355243682861,15.5355911254883,15.5356559753418,15.5357227325439,15.5357894897461,15.5358552932739,15.5359201431274,15.5359859466553,15.5360517501831,15.5361175537109,15.5361843109131,15.5362510681152,15.5363159179688,15.5363817214966,15.5364484786987,15.5365152359009,15.5365791320801,15.5366458892822,15.5367116928101,15.5367765426636,15.53684425354,15.5369110107422,15.5369758605957,15.5370426177979,15.5371084213257,15.5371732711792,15.5372409820557,15.5373058319092,15.537371635437,15.5374364852905,15.537504196167,15.5375699996948,15.5376358032227,15.5377016067505,15.5377674102783,15.5378332138062,15.5378999710083,15.5379657745361,15.538031578064,15.5380983352661,15.5381631851196,15.5382299423218,15.5382957458496,15.5383615493774,15.5384273529053,15.5384941101074,15.5385599136353,15.5386247634888,15.5386915206909,15.5387582778931,15.5388221740723,15.5388889312744,15.5389556884766,15.5390205383301,15.5390872955322,15.5391540527344,15.5392198562622
