4.57300710678101,4.58922052383423,4.60554933547974,4.621994972229,4.63855838775635,4.65524101257324,4.672043800354,4.68896865844727,4.70601606369019,4.72318840026855,4.74048614501953,4.75791120529175,4.77546501159668,4.7931489944458,4.81096410751343,4.82891178131104,4.84699440002441,4.86521291732788,4.88356876373291,4.90206384658813,4.92069911956787,4.93947696685791,4.95839881896973,4.97746562957764,4.99668025970459,5.0160436630249,5.03555727005005,5.05522346496582,5.07504463195801,5.09502220153809,5.11515665054321,5.13545083999634,5.15590667724609,5.17652559280396,5.19731092453003,5.21826362609863,5.23938512802124,5.26067924499512,5.28214693069458,5.30379056930542,5.32561206817627,15.2064409255981,15.2067708969116,15.2070980072021,15.207426071167,15.2077541351318,15.2080821990967,15.2084112167358,15.2087392807007,15.2090673446655,15.2093954086304,15.2097234725952,15.2100524902344,15.2103776931763,15.2107076644897,15.2110366821289,15.2113637924194,15.2116937637329,15.2120199203491,15.2123489379883,15.2126779556274,15.2130060195923,15.2133340835571,15.2136611938477,15.2139911651611,15.2143201828003,15.2146482467651,15.2149753570557,15.2153034210205,15.2156324386597,15.2159624099731,15.2162895202637,15.2166175842285,15.2169456481934,15.2172756195068,15.2176036834717,15.2179307937622,15.2182607650757,15.2185888290405,15.2189178466797,15.2192459106445,15.2195739746094,15.2199039459229,15.2202310562134,15.2205591201782,15.2208890914917,15.2212181091309,15.22154712677,15.2218770980835,15.2222032546997,15.2225322723389,15.222861289978,15.2231903076172,15.2235202789307,15.2238502502441,15.2241802215576,15.2245082855225,15.2248373031616,15.2251682281494,15.2254972457886,15.2258281707764,15.2261562347412,15.226487159729,15.2268171310425,15.227147102356,15.2274751663208,15.2278051376343,15.2281360626221,15.2284650802612,15.2287950515747,15.2291240692139,15.229455947876,15.2297859191895,15.2301158905029,15.2304458618164,15.2307739257812,15.2311038970947,15.2314348220825,15.231764793396,15.2320957183838,15.2324247360229,15.2327547073364,15.2330856323242,15.2334146499634,15.2337446212769,15.2340745925903,15.2344055175781,15.2347345352173,15.2350645065308,15.2353954315186,15.235725402832,15.2360563278198,15.2363862991333,15.2367162704468,15.2370452880859,15.2373762130737,15.2377061843872,15.2380361557007,15.2383670806885,15.2386980056763,15.2390279769897,15.2393589019775,15.239688873291,15.2400178909302,15.2403478622437,15.2406787872314,15.2410097122192,15.2413396835327,15.2416696548462,15.2420015335083,15.2423315048218,15.2426614761353,15.242992401123,15.2433223724365,15.24365234375,15.2439823150635,15.2443132400513,15.2446460723877,15.2449760437012,15.2453060150146,15.2456359863281,15.2459659576416,15.2462978363037,15.2466278076172,15.2469577789307,15.2472896575928,15.2476205825806,15.2479515075684,15.2482814788818,15.2486124038696,15.2489423751831,15.2492733001709,15.2496042251587,15.2499341964722,15.2502660751343,15.2505950927734,15.2509279251099,15.251259803772,15.2515888214111,15.2519197463989,15.2522497177124,15.2525815963745,15.252911567688,15.2532434463501,15.2535743713379,15.2539052963257,15.2542371749878,15.2545671463013,15.2548990249634,15.2552280426025,15.2555599212646,15.2558908462524,15.2562208175659,15.256552696228,15.2568845748901,15.2572154998779,15.2575464248657,15.2578773498535,15.2582082748413,15.2585401535034,15.2588701248169,15.2592010498047,15.2595319747925,15.2598648071289,15.2601957321167,15.2605276107788,15.2608575820923,15.2611894607544,15.2615194320679,15.26185131073,15.2621831893921,15.2625131607056,15.2628450393677,15.2631769180298,15.2635087966919,15.2638397216797,15.2641716003418,15.2645025253296,15.2648334503174,15.2651653289795,15.2654962539673,15.2658281326294,15.2661609649658,15.2664918899536,15.2668228149414,15.2671537399292,15.267484664917,15.2678174972534,15.2681484222412,15.2684803009033,15.2688112258911,15.2691440582275,15.2694749832153,15.2698068618774,15.2701377868652,15.2704696655273,15.2708015441895,15.2711324691772,15.2714643478394,15.2717952728271,15.2721290588379,15.2724599838257,15.2727928161621,15.2731237411499,15.273455619812,15.2737874984741,15.2741184234619,15.2744512557983,15.2747821807861,15.2751131057739,15.2754468917847,15.2757787704468,15.2761096954346,15.2764415740967,15.2767734527588,15.2771062850952,15.277437210083,15.2777700424194,15.2781009674072,15.278434753418,15.2787656784058,15.2790975570679,15.2794303894043,15.2797613143921,15.2800941467285,15.2804260253906,15.2807579040527,15.2810897827148,15.2814235687256,15.2817544937134,15.2820873260498,15.2824182510376,15.282751083374,15.2830829620361,15.2834157943726,15.2837476730347,15.2840805053711,15.2844123840332,15.2847452163696,15.2850770950317,15.2854099273682,15.2857427597046,15.2860736846924,15.2864055633545,15.2867383956909,15.287070274353,15.2874021530151,15.2877359390259,15.2880687713623,15.2884006500244,15.2887334823608,15.2890653610229,15.2893981933594,15.2897310256958,15.2900619506836,15.2903957366943,15.2907285690308,15.2910614013672,15.2913932800293,15.2917261123657,15.2920579910278,15.2923908233643,15.2927227020264,15.2930555343628,15.2933874130249,15.29372215271,15.2940549850464,15.2943868637085,15.2947196960449,15.2950525283813,15.2953844070435,15.2957181930542,15.2960500717163,15.2963829040527,15.2967166900635,15.2970485687256,15.2973823547363,15.2977142333984,15.2980480194092,15.2983798980713,15.2987127304077,15.2990455627441,15.2993783950806,15.299711227417,15.3000450134277,15.3003787994385,15.3007116317749,15.301043510437,15.3013772964478,15.3017091751099,15.3020429611206,15.3023748397827,15.3027086257935,15.3030424118042,15.3033752441406,15.3037080764771,15.3040409088135,15.3043737411499,15.3047075271606,15.3050394058228,15.3053741455078,15.3057060241699,15.3060417175293,15.3063735961914,15.3067064285278,15.3070402145386,15.307373046875,15.3077058792114,15.3080396652222,15.3083724975586,15.308705329895,15.3090400695801,15.3093738555908,15.3097057342529,15.310040473938,15.3103733062744,15.3107070922852,15.3110389709473,15.311372756958,15.3117055892944,15.3120384216309,15.3123741149902,15.312707901001,15.3130407333374,15.3133754730225,15.3137073516846,15.3140411376953,15.3143739700317,15.3147077560425,15.3150415420532,15.3153762817383,15.315710067749,15.3160429000854,15.3163766860962,15.3167104721069,15.3170433044434,15.3173761367798,15.3177108764648,15.3180446624756,15.3183784484863,15.3187131881714,15.3190460205078,15.3193798065186,15.3197135925293,15.32004737854,15.3203821182251,15.3207139968872,15.3210487365723,15.3213834762573,15.3217172622681,15.3220510482788,15.3223848342896,15.322717666626,15.323052406311,15.3233861923218,15.3237190246582,15.3240528106689,15.3243885040283,15.3247222900391,15.3250579833984,15.3253898620605,15.3257246017456,15.326057434082,15.3263921737671,15.3267259597778,15.3270606994629,15.3273944854736,15.3277292251587,15.3280630111694,15.3283967971802,15.3287315368652,15.3290662765503,15.3293991088867,15.3297328948975,15.3300676345825,15.3304014205933,15.330738067627,15.3310718536377,15.3314065933228,15.3317394256592,15.3320741653442,15.3324069976807,15.33274269104,15.3330764770508,15.3334102630615,15.3337459564209,15.334080696106,15.3344144821167,15.3347482681274,15.3350839614868,15.3354187011719,15.3357524871826,15.3360872268677,15.3364210128784
4.5573558807373,4.57454633712769,4.59077072143555,4.60711050033569,4.62356758117676,4.64014196395874,4.65683603286743,4.67365074157715,4.69058704376221,4.70764636993408,4.72483015060425,4.74214029312134,4.75957775115967,4.77714395523071,4.79483985900879,4.81266784667969,4.83062839508057,4.84872388839722,4.86695528030396,4.88532447814941,4.90383291244507,4.92248153686523,4.94127321243286,4.96020841598511,4.97928953170776,4.9985179901123,5.01789569854736,5.03742408752441,5.05710506439209,5.07694053649902,5.09693193435669,5.11708307266235,5.13739252090454,5.15786361694336,5.1784987449646,5.19929933547974,5.22026777267456,5.24140644073486,5.26271677017212,5.28420114517212,5.3058614730835,5.32770013809204,5.34971952438354,15.0924425125122,15.0927658081055,15.093090057373,15.093412399292,15.0937347412109,15.0940589904785,15.0943813323975,15.094705581665,15.095027923584,15.0953512191772,15.0956754684448,15.0959978103638,15.0963220596313,15.096643447876,15.0969667434692,15.0972919464111,15.0976152420044,15.0979385375977,15.0982599258423,15.0985851287842,15.0989084243774,15.0992307662964,15.0995540618896,15.0998773574829,15.1002016067505,15.1005268096924,15.1008491516113,15.1011724472046,15.1014957427979,15.1018190383911,15.102144241333,15.1024646759033,15.1027898788452,15.1031141281128,15.1034374237061,15.1037607192993,15.1040840148926,15.1044082641602,15.1047315597534,15.105055809021,15.1053781509399,15.1057014465332,15.1060266494751,15.1063508987427,15.1066732406616,15.1069974899292,15.1073207855225,15.10764503479,15.1079702377319,15.1082916259766,15.1086158752441,15.1089401245117,15.1092643737793,15.1095895767212,15.1099147796631,15.1102390289307,15.1105642318726,15.1108875274658,15.1112127304077,15.1115369796753,15.1118621826172,15.1121854782104,15.112512588501,15.1128377914429,15.1131629943848,15.1134872436523,15.1138105392456,15.1141357421875,15.1144599914551,15.114785194397,15.1151113510132,15.1154356002808,15.1157608032227,15.1160860061646,15.1164112091064,15.116735458374,15.1170597076416,15.1173849105835,15.1177101135254,15.1180362701416,15.1183595657349,15.1186866760254,15.1190118789673,15.1193370819092,15.1196622848511,15.1199855804443,15.1203107833862,15.1206369400024,15.1209621429443,15.1212873458862,15.1216135025024,15.12193775177,15.1222639083862,15.1225891113281,15.12291431427,15.1232376098633,15.1235637664795,15.1238889694214,15.1242141723633,15.1245403289795,15.1248655319214,15.1251916885376,15.1255168914795,15.1258420944214,15.126166343689,15.1264915466309,15.1268177032471,15.127142906189,15.1274700164795,15.1277942657471,15.1281204223633,15.1284446716309,15.1287708282471,15.1290950775146,15.1294212341309,15.1297473907471,15.130072593689,15.1303977966309,15.1307239532471,15.1310501098633,15.1313753128052,15.1317014694214,15.1320276260376,15.1323518753052,15.1326770782471,15.1330032348633,15.1333293914795,15.1336574554443,15.1339807510376,15.1343059539795,15.1346321105957,15.1349592208862,15.1352834701538,15.13560962677,15.1359348297119,15.1362609863281,15.136589050293,15.1369132995605,15.1372394561768,15.137565612793,15.1378917694092,15.1382179260254,15.138542175293,15.1388683319092,15.1391944885254,15.1395215988159,15.1398477554321,15.140172958374,15.1404981613159,15.1408243179321,15.1411514282227,15.1414756774902,15.1418027877808,15.142128944397,15.1424551010132,15.1427822113037,15.1431074142456,15.1434335708618,15.143759727478,15.1440868377686,15.1444120407104,15.1447372436523,15.1450643539429,15.1453905105591,15.1457185745239,15.1460447311401,15.1463689804077,15.1466960906982,15.1470222473145,15.1473484039307,15.1476736068726,15.1480007171631,15.1483268737793,15.1486549377441,15.1489810943604,15.1493072509766,15.1496334075928,15.149959564209,15.1502857208252,15.1506128311157,15.1509380340576,15.1512651443481,15.1515922546387,15.1519193649292,15.1522445678711,15.1525716781616,15.1528987884521,15.1532249450684,15.1535511016846,15.1538772583008,15.154203414917,15.1545305252075,15.1548585891724,15.1551856994629,15.1555109024048,15.155837059021,15.1561641693115,15.1564922332764,15.1568183898926,15.1571435928345,15.1574697494507,15.1577987670898,15.1581258773804,15.1584520339966,15.1587781906128,15.1591053009033,15.1594324111938,15.1597595214844,15.1600856781006,15.1604118347168,15.160740852356,15.1610679626465,15.161395072937,15.1617212295532,15.1620473861694,15.16237449646,15.1627016067505,15.1630296707153,15.1633548736572,15.1636829376221,15.1640100479126,15.1643371582031,15.1646633148193,15.1649913787842,15.1653184890747,15.1656455993652,15.1659717559814,15.1662979125977,15.1666259765625,15.1669540405273,15.1672811508179,15.1676092147827,15.1679353713989,15.1682624816895,15.16858959198,15.1689176559448,15.169243812561,15.1695699691772,15.1698989868164,15.1702270507812,15.1705541610718,15.170880317688,15.1712074279785,15.1715354919434,15.1718626022339,15.1721906661987,15.1725158691406,15.1728448867798,15.1731729507446,15.1735010147095,15.173828125,15.1741552352905,15.1744823455811,15.1748094558716,15.1751375198364,15.1754627227783,15.1757926940918,15.1761207580566,15.1764478683472,15.176775932312,15.1771020889282,15.1774301528931,15.1777582168579,15.1780853271484,15.1784133911133,15.1787405014038,15.179069519043,15.1793966293335,15.1797246932983,15.1800527572632,15.1803789138794,15.1807069778442,15.1810350418091,15.1813631057739,15.1816892623901,15.1820192337036,15.1823463439941,15.182674407959,15.1830024719238,15.1833295822144,15.1836576461792,15.183985710144,15.1843137741089,15.1846418380737,15.1849699020386,15.1852979660034,15.1856260299683,15.1859540939331,15.1862821578979,15.1866092681885,15.1869373321533,15.1872653961182,15.1875944137573,15.1879215240479,15.188250541687,15.1885786056519,15.1889057159424,15.1892347335815,15.1895618438721,15.1898908615112,15.1902179718018,15.1905469894409,15.1908750534058,15.1912031173706,15.1915321350098,15.1918601989746,15.1921892166138,15.1925172805786,15.1928443908691,15.193172454834,15.1935005187988,15.193829536438,15.1941576004028,15.194486618042,15.1948146820068,15.195143699646,15.1954717636108,15.1957988739014,15.1961278915405,15.1964559555054,15.1967849731445,15.197114944458,15.1974411010742,15.1977710723877,15.1980991363525,15.1984281539917,15.1987562179565,15.1990842819214,15.1994123458862,15.1997404098511,15.2000722885132,15.2003993988037,15.2007284164429,15.2010564804077,15.2013854980469,15.201714515686,15.2020416259766,15.2023706436157,15.2026996612549,15.2030277252197,15.2033576965332,15.203685760498,15.2040147781372,15.2043437957764,15.2046728134155,15.2049999237061,15.2053289413452,15.2056579589844,15.2059869766235,15.2063179016113,15.2066450119019,15.206974029541,15.2073040008545,15.2076330184937,15.2079620361328,15.2082891464233,15.2086181640625,15.2089471817017,15.2092781066895,15.2096080780029,15.2099342346191,15.2102642059326,15.2105932235718,15.2109222412109,15.2112503051758,15.2115793228149,15.2119083404541,15.2122392654419,15.2125692367554,15.2128973007202,15.2132263183594,15.2135543823242,15.2138843536377,15.2142133712769,15.2145414352417,15.2148704528809,15.2152004241943,15.2155313491821,15.2158603668213,15.2161884307861,15.2165184020996,15.2168474197388,15.2171773910522,15.2175045013428,15.2178354263306,15.2181644439697,15.2184944152832,15.218825340271,15.2191524505615,15.2194833755493,15.2198123931885
4.54048013687134,4.55786848068237,4.57539033889771,4.59232234954834,4.60867309570312,4.62514114379883,4.64172697067261,4.6584324836731,4.67525815963745,4.69220638275146,4.70927810668945,4.72647380828857,4.74379587173462,4.7612452507019,4.77882385253906,4.79653215408325,4.81437253952026,4.83234643936157,4.85045433044434,4.8686990737915,4.88708114624023,4.90560293197632,4.92426538467407,4.94307041168213,4.96201944351196,4.98111486434937,5.00035715103149,5.0197491645813,5.03929233551025,5.05898761749268,5.07883787155151,5.09884452819824,5.11900949478149,5.13933563232422,5.15982246398926,5.18047285079956,5.20128965377808,5.22227430343628,5.24342918395996,5.2647557258606,5.28625679016113,5.30793380737305,5.32979011535645,5.35182666778564,5.37404584884644,14.9801406860352,14.9804582595825,14.9807758331299,14.9810953140259,14.9814128875732,14.9817295074463,14.9820489883423,14.982367515564,14.98268699646,14.9830045700073,14.983323097229,14.983642578125,14.9839611053467,14.9842796325684,14.9845972061157,14.9849157333374,14.9852352142334,14.9855537414551,14.9858722686768,14.9861907958984,14.9865083694458,14.9868278503418,14.9871463775635,14.9874649047852,14.9877834320068,14.9881019592285,14.9884214401245,14.9887399673462,14.9890575408936,14.9893770217896,14.9896955490112,14.9900150299072,14.9903316497803,14.9906520843506,14.9909715652466,14.9912900924683,14.9916076660156,14.9919261932373,14.9922456741333,14.9925661087036,14.9928846359253,14.9932022094727,14.9935207366943,14.9938402175903,14.9941606521606,14.9944772720337,14.9947967529297,14.9951152801514,14.9954347610474,14.9957551956177,14.996072769165,14.996392250061,14.9967098236084,14.9970302581787,14.997350692749,14.9976711273193,14.9979915618896,14.99831199646,14.9986295700073,14.9989490509033,14.9992704391479,14.9995899200439,14.9999094009399,15.0002288818359,15.0005502700806,15.0008707046509,15.0011911392212,15.0015115737915,15.0018291473389,15.0021505355835,15.0024709701538,15.0027904510498,15.0031108856201,15.0034313201904,15.0037517547607,15.0040712356567,15.0043926239014,15.004711151123,15.0050315856934,15.0053520202637,15.005672454834,15.0059928894043,15.0063133239746,15.0066337585449,15.0069541931152,15.0072746276855,15.0075950622559,15.0079145431519,15.0082340240479,15.0085544586182,15.0088748931885,15.0091981887817,15.0095167160034,15.0098361968994,15.010157585144,15.0104780197144,15.0107975006104,15.011118888855,15.011438369751,15.0117597579956,15.0120801925659,15.0124006271362,15.0127210617065,15.0130424499512,15.0133619308472,15.0136833190918,15.0140037536621,15.0143232345581,15.0146446228027,15.014965057373,15.0152883529663,15.0156059265137,15.0159273147583,15.0162477493286,15.0165691375732,15.0168886184692,15.0172100067139,15.0175304412842,15.0178518295288,15.0181741714478,15.0184936523438,15.0188140869141,15.0191354751587,15.0194568634033,15.0197772979736,15.0200967788696,15.0204181671143,15.0207386016846,15.0210609436035,15.0213813781738,15.0217018127441,15.0220232009888,15.0223445892334,15.022665977478,15.022985458374,15.0233058929443,15.023627281189,15.0239477157593,15.0242710113525,15.0245904922485,15.0249128341675,15.0252342224121,15.0255546569824,15.0258760452271,15.026195526123,15.0265169143677,15.026837348938,15.0271606445312,15.0274810791016,15.0278024673462,15.0281238555908,15.0284452438354,15.0287666320801,15.0290861129761,15.0294075012207,15.0297298431396,15.0300521850586,15.0303735733032,15.0306930541992,15.0310144424438,15.0313358306885,15.0316581726074,15.0319795608521,15.0322999954224,15.032621383667,15.0329446792603,15.0332660675049,15.0335865020752,15.0339069366455,15.0342292785645,15.0345506668091,15.0348720550537,15.035192489624,15.035514831543,15.0358352661133,15.0361595153809,15.0364809036255,15.0368003845215,15.0371227264404,15.0374450683594,15.037766456604,15.0380878448486,15.0384082794189,15.0387306213379,15.0390539169312,15.0393753051758,15.0396957397461,15.040018081665,15.040340423584,15.0406608581543,15.0409841537476,15.0413036346436,15.0416250228882,15.0419492721558,15.0422706604004,15.0425930023193,15.042914390564,15.0432357788086,15.0435571670532,15.0438795089722,15.0442008972168,15.0445222854614,15.0448455810547,15.0451679229736,15.0454902648926,15.0458106994629,15.0461320877075,15.0464544296265,15.0467767715454,15.0471000671387,15.047420501709,15.0477418899536,15.0480661392212,15.0483884811401,15.0487098693848,15.0490312576294,15.0493535995483,15.0496759414673,15.0499982833862,15.0503177642822,15.0506410598755,15.0509643554688,15.051287651062,15.051609992981,15.0519304275513,15.0522527694702,15.0525751113892,15.0528974533081,15.0532197952271,15.0535411834717,15.0538654327393,15.0541877746582,15.0545101165771,15.0548324584961,15.0551538467407,15.0554761886597,15.0557994842529,15.0561208724976,15.0564422607422,15.0567665100098,15.0570878982544,15.0574111938477,15.0577344894409,15.0580558776855,15.0583782196045,15.0587005615234,15.0590229034424,15.0593461990356,15.059666633606,15.0599918365479,15.0603141784668,15.0606374740601,15.0609588623047,15.0612812042236,15.0616035461426,15.0619268417358,15.0622491836548,15.0625705718994,15.062894821167,15.0632181167603,15.0635404586792,15.0638637542725,15.0641851425171,15.064507484436,15.0648317337036,15.0651540756226,15.0654764175415,15.0657997131348,15.0661239624023,15.0664463043213,15.0667686462402,15.0670900344849,15.0674133300781,15.0677366256714,15.0680599212646,15.0683822631836,15.0687055587769,15.0690279006958,15.0693521499634,15.0696754455566,15.0699987411499,15.0703201293945,15.0706424713135,15.0709657669067,15.0712900161743,15.0716133117676,15.0719356536865,15.0722589492798,15.072582244873,15.0729055404663,15.0732278823853,15.0735511779785,15.0738744735718,15.074197769165,15.0745210647583,15.0748443603516,15.0751676559448,15.0754909515381,15.0758142471313,15.0761375427246,15.0764598846436,15.0767831802368,15.0771074295044,15.0774297714233,15.0777559280396,15.0780773162842,15.0783996582031,15.0787239074707,15.0790481567383,15.0793704986572,15.0796928405762,15.0800170898438,15.080340385437,15.0806655883789,15.0809879302979,15.0813112258911,15.0816354751587,15.0819578170776,15.0822820663452,15.0826053619385,15.0829286575317,15.083251953125,15.0835752487183,15.0839004516602,15.0842237472534,15.0845470428467,15.0848712921143,15.0851945877075,15.0855169296265,15.085841178894,15.0861654281616,15.0864887237549,15.0868139266968,15.0871353149414,15.087459564209,15.0877847671509,15.0881080627441,15.0884323120117,15.0887537002563,15.0890779495239,15.0894021987915,15.0897274017334,15.0900506973267,15.0903739929199,15.0906982421875,15.0910224914551,15.0913467407227,15.0916690826416,15.0919933319092,15.0923175811768,15.0926427841187,15.0929670333862,15.0932903289795,15.0936136245728,15.0939378738403,15.0942621231079,15.0945873260498,15.0949087142944,15.095232963562,15.0955572128296,15.0958833694458,15.0962066650391,15.0965309143066,15.0968551635742,15.0971784591675,15.0975027084351,15.0978260040283,15.0981502532959,15.0984754562378,15.0988006591797,15.0991249084473,15.0994482040405,15.0997734069824,15.10009765625,15.1004209518433,15.1007452011108,15.1010694503784,15.101393699646,15.1017198562622,15.1020441055298,15.102367401123,15.1026916503906,15.1030168533325,15.1033401489258,15.1036653518677,15.1039886474609,15.1043128967285,15.1046390533447,15.1049642562866
4.52372884750366,4.54098844528198,4.55838060379028,4.57590675354004,4.59356784820557,4.61023664474487,4.62671566009521,4.64331293106079,4.66002988815308,4.67686748504639,4.6938271522522,4.71091032028198,4.72811841964722,4.74545240402222,4.76291418075562,4.78050470352173,4.79822587966919,4.81607913970947,4.83406496047974,4.85218620300293,4.87044382095337,4.88883924484253,4.90737438201904,4.92605018615723,4.94486904144287,4.96383190155029,4.98294115066528,5.00219774246216,5.02160406112671,5.04116153717041,5.06087160110474,5.08073663711548,5.10075807571411,5.12093830108643,5.1412787437439,5.16178274154663,5.18244886398315,5.20328140258789,5.22428226470947,5.24545335769653,5.26679658889771,5.28831434249878,5.31000852584839,5.33188152313232,5.35393524169922,5.37617206573486,14.8691816329956,14.8694972991943,14.8698101043701,14.8701219558716,14.8704357147217,14.8707494735718,14.8710651397705,14.8713760375977,14.8716917037964,14.8720045089722,14.8723192214966,14.872633934021,14.8729457855225,14.8732604980469,14.8735733032227,14.8738880157471,14.8742017745972,14.8745155334473,14.8748292922974,14.8751430511475,14.8754577636719,14.875771522522,14.8760843276978,14.8763999938965,14.8767127990723,14.8770265579224,14.8773412704468,14.8776550292969,14.877968788147,14.8782835006714,14.8785963058472,14.8789119720459,14.8792247772217,14.8795404434204,14.8798522949219,14.8801670074463,14.8804817199707,14.8807945251465,14.8811092376709,14.8814220428467,14.8817386627197,14.8820524215698,14.8823661804199,14.88267993927,14.8829936981201,14.8833084106445,14.8836240768433,14.883936882019,14.8842515945435,14.8845653533936,14.8848810195923,14.8851957321167,14.8855075836182,14.8858232498169,14.8861360549927,14.8864526748657,14.8867673873901,14.8870830535889,14.8873977661133,14.887713432312,14.8880290985107,14.8883428573608,14.8886585235596,14.8889741897583,14.8892889022827,14.8896045684814,14.8899202346802,14.8902359008789,14.8905506134033,14.8908662796021,14.8911819458008,14.8914966583252,14.8918123245239,14.8921270370483,14.8924436569214,14.8927593231201,14.8930740356445,14.8933906555176,14.893705368042,14.8940210342407,14.8943357467651,14.8946514129639,14.8949661254883,14.895281791687,14.8955984115601,14.8959140777588,14.8962297439575,14.8965454101562,14.896861076355,14.8971767425537,14.8974905014038,14.8978071212769,14.8981227874756,14.8984394073486,14.898754119873,14.8990697860718,14.8993864059448,14.8997011184692,14.9000177383423,14.9003324508667,14.9006490707397,14.9009637832642,14.9012794494629,14.9015979766846,14.9019117355347,14.902229309082,14.9025440216064,14.9028596878052,14.9031763076782,14.9034910202026,14.9038066864014,14.9041223526001,14.9044399261475,14.9047555923462,14.9050712585449,14.905387878418,14.9057025909424,14.9060201644897,14.9063339233398,14.9066514968872,14.9069662094116,14.9072828292847,14.907600402832,14.9079151153564,14.9082317352295,14.9085483551025,14.9088649749756,14.9091806411743,14.909496307373,14.9098119735718,14.9101285934448,14.9104461669922,14.9107599258423,14.9110774993896,14.9113931655884,14.9117097854614,14.9120264053345,14.9123411178589,14.9126567840576,14.912974357605,14.9132919311523,14.9136085510254,14.9139242172241,14.9142398834229,14.9145574569702,14.9148731231689,14.9151887893677,14.9155044555664,14.9158210754395,14.9161396026611,14.9164562225342,14.9167718887329,14.9170875549316,14.917405128479,14.9177217483521,14.9180374145508,14.9183521270752,14.9186697006226,14.9189863204956,14.9193048477173,14.9196214675903,14.9199352264404,14.9202527999878,14.9205694198608,14.9208869934082,14.9212017059326,14.9215183258057,14.921835899353,14.9221544265747,14.9224710464478,14.9227857589722,14.9231033325195,14.9234199523926,14.9237375259399,14.924054145813,14.9243688583374,14.9246864318848,14.9250040054321,14.9253215789795,14.9256391525269,14.9259538650513,14.9262714385986,14.9265880584717,14.926905632019,14.9272203445435,14.9275379180908,14.9278564453125,14.9281740188599,14.9284906387329,14.9288063049316,14.9291229248047,14.9294404983521,14.9297580718994,14.9300756454468,14.9303894042969,14.9307079315186,14.9310264587402,14.9313430786133,14.931661605835,14.9319772720337,14.9322938919067,14.9326105117798,14.9329290390015,14.9332447052002,14.9335613250732,14.9338808059692,14.9341983795166,14.934515953064,14.9348316192627,14.9351491928101,14.9354667663574,14.9357833862305,14.9361009597778,14.9364166259766,14.9367351531982,14.9370536804199,14.937370300293,14.937686920166,14.9380035400391,14.9383220672607,14.9386396408081,14.9389581680298,14.9392719268799,14.9395923614502,14.9399099349976,14.9402275085449,14.9405450820923,14.9408617019653,14.9411792755127,14.9414968490601,14.9418144226074,14.9421310424805,14.9424476623535,14.9427671432495,14.9430856704712,14.9434022903442,14.9437189102173,14.9440364837646,14.9443550109863,14.9446725845337,14.9449901580811,14.9453067779541,14.9456262588501,14.9459438323975,14.9462614059448,14.9465789794922,14.9468965530396,14.9472141265869,14.9475317001343,14.947850227356,14.9481678009033,14.948486328125,14.948802947998,14.949122428894,14.9494390487671,14.9497566223145,14.9500732421875,14.9503927230835,14.9507093429565,14.9510288238525,14.9513463973999,14.9516649246216,14.9519824981689,14.9523010253906,14.9526195526123,14.9529361724854,14.9532527923584,14.9535722732544,14.9538898468018,14.9542064666748,14.9545259475708,14.9548454284668,14.9551630020142,14.9554815292358,14.9557971954346,14.9561166763306,14.9564352035522,14.9567537307739,14.9570713043213,14.957389831543,14.9577074050903,14.9580268859863,14.958345413208,14.9586629867554,14.9589805603027,14.9592990875244,14.9596166610718,14.9599351882935,14.9602537155151,14.9605722427368,14.9608907699585,14.9612092971802,14.9615278244019,14.9618453979492,14.9621639251709,14.9624814987183,14.9628009796143,14.9631204605103,14.9634380340576,14.963755607605,14.964075088501,14.9643936157227,14.9647130966187,14.9650297164917,14.9653491973877,14.9656667709351,14.9659862518311,14.9663047790527,14.9666233062744,14.9669418334961,14.9672613143921,14.9675798416138,14.9678964614868,14.9682149887085,14.9685344696045,14.9688529968262,14.9691743850708,14.9694900512695,14.9698104858398,14.9701290130615,14.9704475402832,14.9707670211792,14.9710836410522,14.9714031219482,14.9717216491699,14.9720430374146,14.9723596572876,14.9726791381836,14.9729976654053,14.9733171463013,14.9736356735229,14.9739532470703,14.9742727279663,14.9745922088623,14.9749116897583,14.9752311706543,14.9755487442017,14.9758682250977,14.9761877059937,14.9765062332153,14.9768238067627,14.977144241333,14.9774618148804,14.9777812957764,14.978102684021,14.9784202575684,14.9787397384644,14.9790592193604,14.979377746582,14.979697227478,14.9800138473511,14.9803352355957,14.9806537628174,14.980975151062,14.9812936782837,14.9816122055054,14.9819307327271,14.9822511672974,14.982569694519,14.9828882217407,14.9832077026367,14.9835271835327,14.983847618103,14.9841680526733,14.9844846725464,14.9848051071167,14.9851236343384,14.9854431152344,14.9857635498047,14.9860811233521,14.9864015579224,14.9867219924927,14.9870414733887,14.9873609542847,14.9876794815063,14.9879989624023,14.9883193969727,14.9886379241943,14.988956451416,14.989275932312,14.9895963668823,14.9899168014526,14.9902372360229,14.9905548095703,14.9908742904663,14.9911947250366,14.9915151596069,14.9918346405029
4.5071005821228,4.5242338180542,4.54149770736694,4.55889368057251,4.57642316818237,4.59408855438232,4.61180114746094,4.62829160690308,4.64490032196045,4.66162824630737,4.67847776412964,4.69544887542725,4.71254396438599,4.72976398468018,4.74711036682129,4.76458406448364,4.78218698501587,4.7999210357666,4.81778621673584,4.83578538894653,4.853919506073,4.87218999862671,4.8905987739563,4.90914726257324,4.92783689498901,4.94666910171509,4.9656457901001,4.98476886749268,5.0040397644043,5.02346038818359,5.04303216934204,5.06275701522827,5.08263683319092,5.10267353057861,5.12286853790283,5.14322423934937,5.16374254226685,5.18442630767822,5.20527505874634,5.22629165649414,5.24747896194458,5.26883888244629,5.2903733253479,5.31208419799805,5.33397436141968,5.35604572296143,5.37830018997192,5.40074062347412,14.7601633071899,14.7604742050171,14.7607831954956,14.7610921859741,14.7614011764526,14.7617082595825,14.7620191574097,14.7623291015625,14.7626361846924,14.7629461288452,14.7632551193237,14.7635650634766,14.7638750076294,14.7641830444336,14.7644929885864,14.7648010253906,14.7651119232178,14.765419960022,14.7657289505005,14.7660398483276,14.7663478851318,14.7666578292847,14.7669668197632,14.7672758102417,14.7675857543945,14.7678956985474,14.7682037353516,14.7685136795044,14.7688226699829,14.7691335678101,14.7694425582886,14.7697515487671,14.7700605392456,14.7703704833984,14.7706813812256,14.7709875106812,14.7712984085083,14.7716093063354,14.771918296814,14.7722263336182,14.7725353240967,14.7728462219238,14.773157119751,14.7734670639038,14.7737760543823,14.7740850448608,14.7743949890137,14.7747058868408,14.7750129699707,14.7753238677979,14.7756328582764,14.7759428024292,14.7762537002563,14.7765607833862,14.7768716812134,14.7771806716919,14.7774934768677,14.7778034210205,14.7781143188477,14.7784252166748,14.7787351608276,14.7790460586548,14.7793569564819,14.7796669006348,14.7799768447876,14.7802877426147,14.7805986404419,14.7809104919434,14.7812204360962,14.7815322875977,14.7818431854248,14.7821531295776,14.7824621200562,14.7827730178833,14.7830848693848,14.7833948135376,14.7837066650391,14.7840185165405,14.7843284606934,14.7846393585205,14.7849502563477,14.7852621078491,14.785572052002,14.7858819961548,14.7861928939819,14.7865047454834,14.7868165969849,14.7871265411377,14.7874383926392,14.7877492904663,14.7880601882935,14.7883701324463,14.7886819839478,14.7889928817749,14.7893037796021,14.7896165847778,14.7899265289307,14.7902374267578,14.790548324585,14.7908601760864,14.7911720275879,14.7914810180664,14.7917919158936,14.7921047210693,14.7924156188965,14.7927274703979,14.7930383682251,14.7933492660522,14.7936611175537,14.7939720153809,14.7942819595337,14.7945938110352,14.7949056625366,14.7952165603638,14.7955303192139,14.7958402633667,14.7961511611938,14.7964630126953,14.7967739105225,14.7970857620239,14.7973957061768,14.7977075576782,14.7980194091797,14.7983322143555,14.7986431121826,14.7989530563354,14.7992649078369,14.7995777130127,14.7998886108398,14.8001985549927,14.8005104064941,14.8008222579956,14.8011350631714,14.8014469146729,14.8017578125,14.8020696640015,14.8023805618286,14.8026924133301,14.8030042648315,14.8033151626587,14.8036270141602,14.8039379119873,14.8042526245117,14.8045625686646,14.804874420166,14.8051862716675,14.8054981231689,14.8058109283447,14.8061208724976,14.8064317703247,14.8067445755005,14.8070583343506,14.8073701858521,14.8076801300049,14.8079919815063,14.8083047866821,14.8086166381836,14.8089284896851,14.8092384338379,14.8095512390137,14.8098640441895,14.8101768493652,14.8104877471924,14.8108005523682,14.8111124038696,14.8114242553711,14.8117370605469,14.8120470046997,14.8123598098755,14.8126726150513,14.8129854202271,14.8132972717285,14.8136081695557,14.8139200210571,14.8142328262329,14.8145446777344,14.8148574829102,14.8151683807373,14.8154802322388,14.8157939910889,14.8161067962646,14.8164176940918,14.8167295455933,14.817042350769,14.8173542022705,14.8176670074463,14.8179779052734,14.8182897567749,14.8186044692993,14.8189163208008,14.8192291259766,14.8195400238037,14.8198528289795,14.8201656341553,14.8204774856567,14.8207902908325,14.8211011886597,14.8214159011841,14.8217287063599,14.8220405578613,14.8223514556885,14.8226642608643,14.82297706604,14.8232889175415,14.8236017227173,14.8239135742188,14.8242282867432,14.8245401382446,14.8248529434204,14.8251667022705,14.8254776000977,14.8257913589478,14.8261032104492,14.826416015625,14.8267269134521,14.8270397186279,14.827353477478,14.8276672363281,14.8279800415039,14.8282909393311,14.8286046981812,14.8289165496826,14.8292303085327,14.8295421600342,14.8298540115356,14.8301687240601,14.8304815292358,14.8307943344116,14.8311080932617,14.8314199447632,14.8317317962646,14.8320446014404,14.8323583602905,14.832670211792,14.8329849243164,14.8332977294922,14.833610534668,14.8339233398438,14.8342351913452,14.8345489501953,14.8348608016968,14.8351745605469,14.8354873657227,14.8358020782471,14.8361139297485,14.8364276885986,14.8367404937744,14.8370542526245,14.837366104126,14.8376789093018,14.8379917144775,14.8383054733276,14.8386173248291,14.8389320373535,14.8392457962036,14.8395586013794,14.8398733139038,14.840184211731,14.8404979705811,14.8408107757568,14.8411245346069,14.8414373397827,14.8417520523071,14.8420648574829,14.8423776626587,14.8426914215088,14.8430061340332,14.8433179855347,14.8436307907104,14.8439435958862,14.8442583084106,14.8445720672607,14.8448858261108,14.8451986312866,14.8455123901367,14.8458261489868,14.8461380004883,14.8464517593384,14.8467655181885,14.8470792770386,14.847393989563,14.8477058410645,14.8480195999146,14.8483333587646,14.8486480712891,14.8489599227905,14.8492727279663,14.8495874404907,14.8499011993408,14.8502140045166,14.850528717041,14.8508424758911,14.8511571884155,14.8514699935913,14.8517847061157,14.8520956039429,14.8524103164673,14.8527240753174,14.8530387878418,14.8533535003662,14.853666305542,14.8539800643921,14.8542947769165,14.8546085357666,14.8549203872681,14.8552341461182,14.8555488586426,14.8558626174927,14.8561782836914,14.8564901351929,14.8568048477173,14.8571195602417,14.8574333190918,14.8577480316162,14.858060836792,14.8583736419678,14.8586883544922,14.8590040206909,14.859317779541,14.8596315383911,14.8599452972412,14.8602590560913,14.8605737686157,14.8608865737915,14.8612003326416,14.861515045166,14.8618307113647,14.8621444702148,14.8624582290649,14.862771987915,14.8630867004395,14.8634004592896,14.8637142181396,14.8640279769897,14.8643426895142,14.8646564483643,14.864972114563,14.8652868270874,14.8656005859375,14.8659143447876,14.866229057312,14.8665437698364,14.8668575286865,14.8671712875366,14.8674850463867,14.8678016662598,14.8681163787842,14.86842918396,14.8687429428101,14.8690576553345,14.8693723678589,14.8696870803833,14.8700008392334,14.8703165054321,14.8706312179565,14.870945930481,14.8712587356567,14.8715734481812,14.8718891143799,14.8722038269043,14.8725175857544,14.8728313446045,14.8731460571289,14.873462677002,14.8737773895264,14.8740911483765,14.8744049072266,14.874719619751,14.8750352859497,14.8753499984741,14.8756656646729,14.8759784698486,14.876293182373,14.8766098022461,14.8769245147705,14.8772382736206,14.877552986145,14.8778686523438,14.8781824111938,14.8784980773926,14.8788118362427,14.8791255950928,14.8794431686401,14.8797578811646,14.880072593689,14.8803863525391
4.49059438705444,4.50760173797607,4.52473878860474,4.54200649261475,4.55940628051758,4.57694005966187,4.59460926055908,4.6124153137207,4.62986850738525,4.64648818969727,4.66322803497314,4.68008852005005,4.69707202911377,4.71417903900146,4.73141050338745,4.74876880645752,4.76625537872314,4.78387069702148,4.80161666870117,4.81949472427368,4.83750677108765,4.85565376281738,4.87393760681152,4.89235973358154,4.91092109680176,4.92962455749512,4.94847011566162,4.96746110916138,4.98659801483154,5.00588321685791,5.02531814575195,5.04490423202515,5.06464385986328,5.08453845977783,5.10459041595459,5.12480068206787,5.14517164230347,5.16570520401001,5.18640327453613,5.2072696685791,5.22830247879028,5.24950647354126,5.27088260650635,5.2924337387085,5.31416177749634,5.33606910705566,5.35815763473511,5.38043022155762,5.40288829803467,5.42553472518921,14.6527338027954,14.6530380249023,14.6533432006836,14.6536493301392,14.6539525985718,14.6542558670044,14.6545610427856,14.6548662185669,14.6551713943481,14.6554746627808,14.6557807922363,14.6560850143433,14.6563901901245,14.6566963195801,14.6569976806641,14.6573038101196,14.6576080322266,14.6579141616821,14.6582183837891,14.658522605896,14.6588277816772,14.6591329574585,14.6594381332397,14.6597423553467,14.6600475311279,14.6603527069092,14.6606569290161,14.660961151123,14.6612672805786,14.6615715026855,14.6618766784668,14.662181854248,14.6624870300293,14.6627922058105,14.6630973815918,14.663402557373,14.6637058258057,14.6640110015869,14.6643171310425,14.6646223068237,14.6649265289307,14.6652307510376,14.6655368804932,14.665843963623,14.66614818573,14.6664514541626,14.6667566299438,14.6670627593994,14.6673698425293,14.6676721572876,14.6679782867432,14.6682825088501,14.6685886383057,14.6688957214355,14.6691980361938,14.6695051193237,14.6698093414307,14.6701154708862,14.6704225540161,14.6707277297974,14.6710348129272,14.6713409423828,14.6716470718384,14.6719532012939,14.6722593307495,14.6725645065308,14.6728706359863,14.6731767654419,14.6734828948975,14.673791885376,14.6740961074829,14.6744022369385,14.6747093200684,14.6750154495239,14.6753206253052,14.6756267547607,14.6759338378906,14.6762399673462,14.6765480041504,14.6768531799316,14.6771593093872,14.6774663925171,14.6777725219727,14.6780796051025,14.6783847808838,14.6786918640137,14.6789979934692,14.6793050765991,14.6796112060547,14.6799173355103,14.6802244186401,14.6805305480957,14.6808376312256,14.6811428070068,14.6814489364624,14.6817560195923,14.6820631027222,14.6823711395264,14.6826763153076,14.6829833984375,14.6832895278931,14.6835966110229,14.6839027404785,14.6842088699341,14.6845149993896,14.6848220825195,14.685131072998,14.6854362487793,14.6857433319092,14.6860504150391,14.6863565444946,14.6866636276245,14.6869697570801,14.68727684021,14.6875829696655,14.687891960144,14.6881990432739,14.6885042190552,14.6888113021851,14.6891183853149,14.6894254684448,14.6897325515747,14.690037727356,14.6903448104858,14.6906518936157,14.6909608840942,14.6912660598755,14.6915731430054,14.6918811798096,14.6921873092651,14.692494392395,14.6928005218506,14.6931076049805,14.6934156417847,14.6937236785889,14.6940307617188,14.6943368911743,14.6946439743042,14.6949520111084,14.695258140564,14.6955661773682,14.6958713531494,14.6961793899536,14.6964874267578,14.696795463562,14.6971006393433,14.6974077224731,14.6977157592773,14.6980228424072,14.6983299255371,14.698637008667,14.6989440917969,14.6992530822754,14.6995601654053,14.6998682022095,14.700174331665,14.7004814147949,14.7007884979248,14.701096534729,14.7014017105103,14.7017097473145,14.7020168304443,14.7023267745972,14.7026348114014,14.7029399871826,14.7032480239868,14.7035551071167,14.7038631439209,14.7041711807251,14.7044773101807,14.7047853469849,14.7050943374634,14.7054023742676,14.7057094573975,14.7060165405273,14.7063236236572,14.7066307067871,14.7069387435913,14.7072458267212,14.7075529098511,14.7078628540039,14.7081699371338,14.708477973938,14.7087841033936,14.7090921401978,14.709400177002,14.7097091674805,14.7100162506104,14.7103223800659,14.7106323242188,14.7109403610229,14.7112483978271,14.711555480957,14.7118616104126,14.7121696472168,14.712477684021,14.7127857208252,14.7130928039551,14.7134017944336,14.7137098312378,14.7140188217163,14.7143268585205,14.7146329879761,14.7149410247803,14.7152490615845,14.7155570983887,14.7158660888672,14.7161722183228,14.7164812088013,14.7167901992798,14.717098236084,14.7174062728882,14.7177133560181,14.7180213928223,14.7183303833008,14.718638420105,14.7189455032349,14.7192544937134,14.7195634841919,14.7198705673218,14.7201795578003,14.7204866409302,14.7207937240601,14.7211027145386,14.7214117050171,14.7217197418213,14.7220287322998,14.722336769104,14.7226457595825,14.7229537963867,14.7232608795166,14.7235689163208,14.7238779067993,14.7241859436035,14.724494934082,14.7248029708862,14.7251119613647,14.7254199981689,14.7257289886475,14.726037979126,14.7263441085815,14.7266530990601,14.7269620895386,14.7272701263428,14.7275791168213,14.7278881072998,14.728196144104,14.7285041809082,14.728814125061,14.7291212081909,14.7294292449951,14.7297391891479,14.7300472259521,14.7303562164307,14.7306652069092,14.7309732437134,14.7312822341919,14.7315912246704,14.7319002151489,14.7322082519531,14.7325162887573,14.7328252792358,14.7331342697144,14.7334442138672,14.7337512969971,14.7340602874756,14.7343692779541,14.7346782684326,14.7349863052368,14.7352952957153,14.7356042861938,14.7359132766724,14.7362241744995,14.7365312576294,14.7368402481079,14.7371482849121,14.7374572753906,14.7377662658691,14.7380743026733,14.7383842468262,14.7386932373047,14.7390022277832,14.739312171936,14.7396202087402,14.7399291992188,14.7402381896973,14.7405481338501,14.74085521698,14.7411651611328,14.7414741516113,14.7417840957642,14.742094039917,14.7424020767212,14.7427101135254,14.7430200576782,14.7433290481567,14.7436380386353,14.7439470291138,14.7442569732666,14.7445650100708,14.7448768615723,14.7451839447021,14.745493888855,14.7458028793335,14.746111869812,14.7464208602905,14.746729850769,14.7470388412476,14.7473487854004,14.7476596832275,14.7479686737061,14.7482767105103,14.7485857009888,14.7488965988159,14.7492055892944,14.7495145797729,14.7498235702515,14.75013256073,14.7504425048828,14.7507543563843,14.7510614395142,14.751371383667,14.7516813278198,14.7519903182983,14.7523002624512,14.7526082992554,14.7529191970825,14.753228187561,14.7535400390625,14.753849029541,14.7541570663452,14.7544660568237,14.7547769546509,14.7550868988037,14.7553968429565,14.7557048797607,14.7560148239136,14.756326675415,14.7566356658936,14.7569437026978,14.7572546005249,14.7575645446777,14.7578744888306,14.7581844329834,14.7584924697876,14.7588024139404,14.7591133117676,14.7594232559204,14.7597332000732,14.7600421905518,14.7603521347046,14.7606620788574,14.7609720230103,14.7612819671631,14.7615909576416,14.7619018554688,14.7622117996216,14.7625226974487,14.7628316879272,14.7631406784058,14.7634506225586,14.7637615203857,14.7640714645386,14.7643804550171,14.7646903991699,14.7650032043457,14.7653121948242,14.7656230926514,14.7659320831299,14.7662410736084,14.7665519714355,14.7668619155884,14.7671709060669,14.767481803894,14.7677936553955,14.7681035995483,14.7684135437012,14.768723487854,14.7690334320068,14.769344329834,14.7696542739868,14.769965171814,14.7702732086182,14.7705850601196
4.47420835494995,4.49109172821045,4.5081033706665,4.52524375915527,4.54251527786255,4.5599193572998,4.57745695114136,4.595130443573,4.61294031143188,4.63088941574097,4.64807748794556,4.66482877731323,4.68170118331909,4.69869613647461,4.7158145904541,4.7330584526062,4.75042915344238,4.7679271697998,4.78555536270142,4.80331420898438,4.821204662323,4.83922958374023,4.85738945007324,4.87568664550781,4.8941216468811,4.91269636154175,4.93141317367554,4.95027303695679,4.96927738189697,4.98842859268188,5.007728099823,5.02717733383179,5.04677772521973,5.06653213500977,5.08644151687622,5.10650825500488,5.12673425674438,5.14712047576904,5.16766977310181,5.18838357925415,5.20926427841187,5.23031520843506,5.25153541564941,5.27292823791504,5.29449605941772,5.31624126434326,5.33816528320312,5.36027145385742,5.38256120681763,5.40503740310669,5.42770195007324,14.5465564727783,14.5468578338623,14.5471563339233,14.5474557876587,14.5477561950684,14.5480585098267,14.548357963562,14.5486583709717,14.548957824707,14.5492582321167,14.5495586395264,14.5498580932617,14.5501585006714,14.5504579544067,14.550760269165,14.5510606765747,14.5513601303101,14.5516605377197,14.5519618988037,14.5522623062134,14.5525617599487,14.5528621673584,14.5531635284424,14.5534620285034,14.5537643432617,14.5540657043457,14.5543642044067,14.5546655654907,14.5549659729004,14.5552654266357,14.555567741394,14.5558671951294,14.5561695098877,14.5564680099487,14.5567693710327,14.5570697784424,14.5573701858521,14.557671546936,14.5579710006714,14.5582714080811,14.5585737228394,14.558874130249,14.5591735839844,14.5594749450684,14.559775352478,14.5600776672363,14.5603771209717,14.5606775283813,14.5609788894653,14.561279296875,14.5615816116333,14.56187915802,14.5621814727783,14.5624828338623,14.562783241272,14.5630855560303,14.5633850097656,14.5636863708496,14.5639886856079,14.5642890930176,14.5645904541016,14.5648927688599,14.5651950836182,14.5654954910278,14.5657987594604,14.5660991668701,14.5664014816284,14.566704750061,14.5670032501221,14.5673055648804,14.567608833313,14.5679092407227,14.568211555481,14.5685148239136,14.5688171386719,14.5691175460815,14.5694198608398,14.5697212219238,14.5700216293335,14.5703248977661,14.5706272125244,14.5709295272827,14.5712308883667,14.571533203125,14.5718355178833,14.5721378326416,14.5724391937256,14.5727396011353,14.5730428695679,14.5733451843262,14.5736494064331,14.5739498138428,14.5742511749268,14.5745534896851,14.5748558044434,14.575159072876,14.5754594802856,14.5757617950439,14.5760631561279,14.5763673782349,14.5766696929932,14.5769710540771,14.5772733688354,14.5775756835938,14.5778779983521,14.578179359436,14.5784816741943,14.578784942627,14.5790872573853,14.5793895721436,14.5796909332275,14.5799932479858,14.5802955627441,14.5805988311768,14.5809011459351,14.5812015533447,14.5815048217773,14.5818071365356,14.5821113586426,14.5824136734009,14.5827150344849,14.5830173492432,14.5833206176758,14.5836229324341,14.5839233398438,14.5842266082764,14.5845289230347,14.5848331451416,14.5851354598999,14.5854368209839,14.5857400894165,14.5860433578491,14.5863456726074,14.5866479873657,14.586950302124,14.587251663208,14.5875568389893,14.5878591537476,14.5881624221802,14.5884637832642,14.5887670516968,14.5890703201294,14.5893716812134,14.589674949646,14.58997631073,14.5902814865112,14.5905838012695,14.5908880233765,14.5911884307861,14.5914916992188,14.5917940139771,14.5920972824097,14.5924005508423,14.592700958252,14.5930051803589,14.5933094024658,14.5936126708984,14.5939140319824,14.594217300415,14.5945196151733,14.594822883606,14.5951261520386,14.5954284667969,14.5957317352295,14.5960359573364,14.596339225769,14.5966424942017,14.5969438552856,14.5972471237183,14.5975513458252,14.5978536605835,14.5981569290161,14.5984592437744,14.598762512207,14.5990657806396,14.5993700027466,14.5996713638306,14.5999755859375,14.6002779006958,14.6005811691284,14.6008853912354,14.6011867523193,14.6014909744263,14.6017951965332,14.6020984649658,14.6024017333984,14.6027040481567,14.6030082702637,14.603310585022,14.6036148071289,14.6039180755615,14.6042203903198,14.6045246124268,14.6048288345337,14.605131149292,14.6054334640503,14.6057376861572,14.6060409545898,14.6063442230225,14.6066484451294,14.6069498062134,14.6072559356689,14.6075582504272,14.6078634262085,14.6081657409668,14.6084690093994,14.608772277832,14.6090755462646,14.6093807220459,14.6096830368042,14.6099863052368,14.6102914810181,14.6105947494507,14.6108980178833,14.6112003326416,14.6115045547485,14.6118087768555,14.6121120452881,14.612416267395,14.612720489502,14.6130237579346,14.6133279800415,14.6136322021484,14.6139354705811,14.6142387390137,14.6145420074463,14.6148452758789,14.6151494979858,14.6154518127441,14.6157579421997,14.6160621643066,14.6163654327393,14.6166696548462,14.6169729232788,14.6172761917114,14.6175804138184,14.617883682251,14.6181879043579,14.6184930801392,14.6187963485718,14.6191005706787,14.6194047927856,14.6197080612183,14.6200113296509,14.6203165054321,14.6206197738647,14.620924949646,14.6212282180786,14.6215324401855,14.6218366622925,14.6221408843994,14.6224451065063,14.6227474212646,14.6230525970459,14.6233568191528,14.6236610412598,14.623966217041,14.6242694854736,14.6245737075806,14.6248788833618,14.6251831054688,14.6254873275757,14.6257905960083,14.6260938644409,14.6263990402222,14.6267032623291,14.627007484436,14.627311706543,14.6276168823242,14.6279220581055,14.6282253265381,14.6285285949707,14.6288328170776,14.6291370391846,14.6294412612915,14.6297483444214,14.6300506591797,14.6303558349609,14.6306591033936,14.6309652328491,14.6312694549561,14.6315727233887,14.6318769454956,14.6321811676025,14.6324882507324,14.6327905654907,14.633095741272,14.6334009170532,14.6337041854858,14.6340103149414,14.6343126296997,14.6346187591553,14.6349229812622,14.6352291107178,14.6355333328247,14.6358366012573,14.6361417770386,14.6364469528198,14.6367511749268,14.6370544433594,14.6373596191406,14.6376647949219,14.6379690170288,14.6382761001587,14.6385793685913,14.6388845443726,14.6391897201538,14.6394939422607,14.639799118042,14.6401023864746,14.6404075622559,14.6407136917114,14.641019821167,14.6413240432739,14.6416282653809,14.6419324874878,14.6422386169434,14.6425428390503,14.6428470611572,14.6431512832642,14.6434564590454,14.6437635421753,14.6440687179565,14.6443719863892,14.6446781158447,14.6449823379517,14.6452884674072,14.6455936431885,14.6458978652954,14.6462020874023,14.6465082168579,14.6468143463135,14.6471195220947,14.6474237442017,14.6477289199829,14.6480340957642,14.6483392715454,14.648642539978,14.6489486694336,14.6492538452148,14.6495599746704,14.649866104126,14.6501703262329,14.6504764556885,14.6507806777954,14.651086807251,14.6513919830322,14.6516962051392,14.6520013809204,14.652307510376,14.6526145935059,14.6529197692871,14.653223991394,14.6535291671753,14.6538333892822,14.6541404724121,14.6544437408447,14.6547498703003,14.6550569534302,14.6553621292114,14.655668258667,14.6559724807739,14.6562776565552,14.6565837860107,14.656888961792,14.6571950912476,14.6574993133545,14.6578063964844,14.6581125259399,14.6584186553955,14.6587219238281,14.659029006958,14.6593332290649,14.6596393585205,14.6599454879761,14.660249710083,14.6605548858643,14.6608629226685,14.661169052124,14.6614751815796,14.6617794036865,14.6620845794678,14.6623907089233
4.45794153213501,4.47470235824585,4.49158954620361,4.50860452651978,4.52574920654297,4.54302453994751,4.56043243408203,4.57797384262085,4.59565114974976,4.61346530914307,4.63141822814941,4.64951133728027,4.66643047332764,4.68331480026245,4.70032119750977,4.71745157241821,4.73470735549927,4.75209045410156,4.7696008682251,4.78724098205566,4.80501222610474,4.82291603088379,4.84095335006714,4.85912609100342,4.87743616104126,4.89588451385498,4.91447305679321,4.93320322036743,4.95207691192627,4.9710955619812,4.9902606010437,5.0095739364624,5.02903747558594,5.04865264892578,5.06842184066772,5.08834648132324,5.10842800140381,5.12866878509521,5.14907073974609,5.16963577270508,5.19036531448364,5.21126174926758,5.23232746124268,5.25356578826904,5.27497529983521,5.29655981063843,5.3183217048645,5.34026336669922,5.36238670349121,5.38469457626343,5.40718841552734,5.42987108230591,5.45274448394775,14.4422006607056,14.4424991607666,14.4427928924561,14.4430885314941,14.4433841705322,14.4436807632446,14.4439783096313,14.4442739486694,14.4445686340332,14.4448642730713,14.445161819458,14.4454584121704,14.4457521438599,14.4460496902466,14.4463453292847,14.4466419219971,14.4469394683838,14.4472332000732,14.4475297927856,14.4478254318237,14.4481229782104,14.4484176635742,14.4487133026123,14.449010848999,14.4493064880371,14.4496030807495,14.4498987197876,14.4501943588257,14.4504909515381,14.4507884979248,14.4510841369629,14.4513807296753,14.4516763687134,14.4519739151001,14.4522695541382,14.452564239502,14.4528617858887,14.4531574249268,14.4534540176392,14.4537496566772,14.454047203064,14.4543428421021,14.4546394348145,14.4549350738525,14.4552326202393,14.4555292129517,14.4558248519897,14.4561223983765,14.4564180374146,14.456714630127,14.457010269165,14.4573087692261,14.4576034545898,14.4579000473022,14.4581985473633,14.4584941864014,14.4587917327881,14.4590854644775,14.4593830108643,14.4596815109253,14.4599771499634,14.4602746963501,14.4605712890625,14.4608707427979,14.4611692428589,14.461464881897,14.4617614746094,14.4620590209961,14.4623575210571,14.4626531600952,14.4629507064819,14.463249206543,14.4635467529297,14.4638452529907,14.4641427993774,14.4644403457642,14.4647369384766,14.4650344848633,14.4653329849243,14.4656286239624,14.4659280776978,14.4662246704102,14.4665241241455,14.4668207168579,14.4671182632446,14.4674158096313,14.4677124023438,14.4680118560791,14.4683094024658,14.4686059951782,14.4689035415649,14.469202041626,14.4695014953613,14.4697971343994,14.4700956344604,14.4703931808472,14.4706916809082,14.4709892272949,14.4712867736816,14.471583366394,14.4718828201294,14.4721813201904,14.4724788665771,14.4727764129639,14.4730749130249,14.4733724594116,14.4736700057983,14.4739665985107,14.4742660522461,14.4745626449585,14.4748620986938,14.4751605987549,14.4754581451416,14.4757556915283,14.4760541915894,14.4763517379761,14.4766502380371,14.4769477844238,14.4772453308105,14.4775457382202,14.4778432846069,14.4781408309937,14.4784374237061,14.4787368774414,14.4790353775024,14.4793329238892,14.4796304702759,14.4799280166626,14.4802284240723,14.4805269241333,14.48082447052,14.4811220169067,14.4814205169678,14.4817180633545,14.4820175170898,14.4823160171509,14.4826135635376,14.4829120635986,14.483211517334,14.4835109710693,14.4838066101074,14.4841051101685,14.4844045639038,14.4847030639648,14.4850006103516,14.4852981567383,14.4855966567993,14.4858961105347,14.4861946105957,14.4864940643311,14.4867916107178,14.4870901107788,14.4873876571655,14.4876871109009,14.4879856109619,14.4882831573486,14.4885835647583,14.488881111145,14.4891805648804,14.4894771575928,14.4897766113281,14.4900760650635,14.4903745651245,14.4906721115112,14.4909715652466,14.4912700653076,14.491569519043,14.491868019104,14.4921674728394,14.4924650192261,14.4927635192871,14.4930629730225,14.4933605194092,14.4936590194702,14.4939565658569,14.4942588806152,14.494556427002,14.4948558807373,14.4951524734497,14.4954519271851,14.4957513809204,14.4960498809814,14.4963493347168,14.4966468811035,14.4969472885132,14.4972467422485,14.4975452423096,14.4978446960449,14.4981422424316,14.4984407424927,14.498740196228,14.4990396499634,14.4993371963501,14.4996376037598,14.4999370574951,14.5002374649048,14.5005369186401,14.5008335113525,14.5011329650879,14.5014324188232,14.5017309188843,14.5020303726196,14.502329826355,14.502628326416,14.5029277801514,14.5032272338867,14.5035257339478,14.5038232803345,14.5041246414185,14.5044231414795,14.5047225952148,14.5050220489502,14.5053205490112,14.5056200027466,14.5059204101562,14.5062198638916,14.5065174102783,14.5068168640137,14.5071153640747,14.5074167251587,14.5077152252197,14.5080146789551,14.5083160400391,14.5086145401001,14.5089139938354,14.5092134475708,14.5095109939575,14.5098114013672,14.5101108551025,14.5104093551636,14.5107088088989,14.5110101699829,14.5113086700439,14.5116100311279,14.5119075775146,14.5122060775757,14.512505531311,14.512806892395,14.5131053924561,14.51340675354,14.5137062072754,14.5140047073364,14.5143060684204,14.5146045684814,14.5149021148682,14.5152034759521,14.5155029296875,14.5158014297485,14.5161027908325,14.5164022445679,14.5167007446289,14.5170021057129,14.5173015594482,14.5176019668579,14.5178995132446,14.5182008743286,14.5184993743896,14.5188007354736,14.5191011428833,14.51939868927,14.519700050354,14.5199995040894,14.520299911499,14.5205993652344,14.5208988189697,14.5211992263794,14.5214986801147,14.5217990875244,14.5220985412598,14.5223999023438,14.5226993560791,14.5229997634888,14.5232992172241,14.5235986709595,14.5238971710205,14.5241985321045,14.5244998931885,14.5248003005981,14.5250978469849,14.5253992080688,14.5256996154785,14.5259990692139,14.5262985229492,14.5265989303589,14.5268983840942,14.5271997451782,14.5275001525879,14.5277996063232,14.5281009674072,14.5284004211426,14.5287008285522,14.5290021896362,14.5292997360229,14.5296001434326,14.5299015045166,14.5302019119263,14.5305032730103,14.5308027267456,14.5311031341553,14.5314044952393,14.5317039489746,14.53200340271,14.5323028564453,14.532603263855,14.5329065322876,14.5332069396973,14.533504486084,14.533805847168,14.5341062545776,14.5344076156616,14.5347089767456,14.5350065231323,14.535306930542,14.5356101989746,14.5359106063843,14.5362100601196,14.5365114212036,14.536810874939,14.5371112823486,14.5374126434326,14.537712097168,14.538013458252,14.5383138656616,14.5386171340942,14.5389156341553,14.5392150878906,14.5395164489746,14.5398178100586,14.5401182174683,14.5404195785522,14.5407190322876,14.5410194396973,14.5413208007812,14.5416231155396,14.5419216156006,14.5422239303589,14.5425233840942,14.5428256988525,14.5431251525879,14.5434246063232,14.5437259674072,14.5440282821655,14.5443296432495,14.5446310043335,14.5449304580688,14.5452308654785,14.5455322265625,14.5458335876465,14.5461339950562,14.5464334487915,14.5467367172241,14.5470371246338,14.5473403930664,14.5476398468018,14.5479402542114,14.5482416152954,14.5485429763794,14.5488443374634,14.5491437911987,14.5494441986084,14.549747467041,14.5500478744507,14.5503492355347,14.5506505966187,14.5509519577026,14.5512523651123,14.5515537261963,14.5518550872803,14.5521545410156,14.5524568557739,14.5527601242065,14.5530605316162,14.5533599853516,14.5536613464355,14.5539627075195,14.5542640686035,14.5545644760132,14.5548658370972,14.5551691055298,14.5554695129395,14.5557708740234
4.4417929649353,4.45843172073364,4.47519636154175,4.49208736419678,4.50910615921021,4.52625465393066,4.54353380203247,4.56094551086426,4.5784912109375,4.59617233276367,4.61399078369141,4.63194751739502,4.6500449180603,4.66803359985352,4.68492889404297,4.7019476890564,4.7190899848938,4.73635816574097,4.75375270843506,4.77127552032471,4.78892803192139,4.80671167373657,4.8246283531189,4.84267854690552,4.86086463928223,4.87918758392334,4.89764928817749,4.91625118255615,4.9349946975708,4.95388221740723,4.97291421890259,4.99209356307983,5.01142120361328,5.03089952468872,5.05052900314331,5.07031297683716,5.09025239944458,5.11034917831421,5.13060522079468,5.15102243423462,5.17160272598267,5.19234848022461,5.21326112747192,5.2343430519104,5.25559616088867,5.27702379226685,5.29862546920776,5.32040452957153,5.34236335754395,5.36450386047363,5.3868293762207,5.40934085845947,5.43204164505005,5.45493364334106,5.47801971435547,14.3393316268921,14.3396253585815,14.339919090271,14.3402090072632,14.340500831604,14.3407926559448,14.3410844802856,14.3413763046265,14.3416681289673,14.3419599533081,14.3422498703003,14.3425436019897,14.3428354263306,14.3431253433228,14.3434181213379,14.3437099456787,14.3440036773682,14.344295501709,14.3445854187012,14.3448791503906,14.3451690673828,14.3454627990723,14.3457546234131,14.3460445404053,14.3463382720947,14.3466320037842,14.3469219207764,14.3472137451172,14.347505569458,14.3477973937988,14.3480911254883,14.3483810424805,14.3486747741699,14.3489665985107,14.3492584228516,14.3495502471924,14.3498420715332,14.350133895874,14.3504257202148,14.3507194519043,14.3510112762451,14.3513031005859,14.3515958786011,14.3518867492676,14.3521785736084,14.3524723052979,14.3527641296387,14.3530569076538,14.3533487319946,14.3536396026611,14.3539323806763,14.3542251586914,14.3545179367065,14.354808807373,14.3551015853882,14.3553953170776,14.3556871414185,14.3559789657593,14.3562707901001,14.3565645217896,14.3568563461304,14.3571500778198,14.3574419021606,14.3577356338501,14.3580293655396,14.3583240509033,14.3586158752441,14.3589096069336,14.359203338623,14.3594951629639,14.359790802002,14.3600807189941,14.3603744506836,14.3606691360474,14.3609628677368,14.3612565994263,14.3615484237671,14.3618421554565,14.362135887146,14.3624296188354,14.3627223968506,14.3630151748657,14.3633079528809,14.3636016845703,14.3638973236084,14.3641891479492,14.3644828796387,14.3647766113281,14.3650693893433,14.3653631210327,14.3656549453735,14.3659505844116,14.3662443161011,14.3665380477905,14.36683177948,14.3671236038208,14.3674182891846,14.367712020874,14.3680057525635,14.3682975769043,14.3685913085938,14.3688850402832,14.3691806793213,14.3694744110107,14.3697662353516,14.3700609207153,14.3703546524048,14.3706483840942,14.3709421157837,14.3712339401245,14.371527671814,14.3718242645264,14.3721179962158,14.3724117279053,14.3727035522461,14.3729991912842,14.373291015625,14.3735866546631,14.3738784790039,14.3741722106934,14.3744659423828,14.3747615814209,14.3750562667847,14.3753480911255,14.3756418228149,14.375937461853,14.3762311935425,14.3765249252319,14.3768186569214,14.3771123886108,14.3774070739746,14.3777008056641,14.3779964447021,14.378288269043,14.3785839080811,14.3788776397705,14.37917137146,14.3794631958008,14.3797588348389,14.3800535202026,14.3803472518921,14.3806428909302,14.380934715271,14.3812284469604,14.3815240859985,14.381817817688,14.3821115493774,14.3824052810669,14.3827018737793,14.3829956054688,14.3832893371582,14.3835830688477,14.3838768005371,14.3841724395752,14.3844661712646,14.3847599029541,14.3850536346436,14.385347366333,14.3856439590454,14.3859376907349,14.3862333297729,14.3865251541138,14.3868207931519,14.3871145248413,14.3874101638794,14.3877038955688,14.3879976272583,14.3882932662964,14.3885889053345,14.3888826370239,14.3891763687134,14.3894710540771,14.3897647857666,14.3900604248047,14.3903541564941,14.3906478881836,14.3909435272217,14.3912391662598,14.3915328979492,14.3918285369873,14.3921203613281,14.3924160003662,14.39271068573,14.3930044174194,14.3933000564575,14.3935956954956,14.3938894271851,14.3941850662231,14.3944807052612,14.3947744369507,14.3950681686401,14.3953638076782,14.3956575393677,14.3959522247314,14.3962450027466,14.396541595459,14.3968372344971,14.3971328735352,14.3974266052246,14.3977203369141,14.3980159759521,14.3983116149902,14.3986072540283,14.3989009857178,14.3991956710815,14.3994903564453,14.3997850418091,14.4000806808472,14.4003744125366,14.4006681442261,14.4009637832642,14.4012594223022,14.4015550613403,14.4018507003784,14.4021463394165,14.402440071106,14.402735710144,14.4030303955078,14.4033250808716,14.4036197662354,14.4039144515991,14.4042110443115,14.4045066833496,14.4048004150391,14.4050960540771,14.4053916931152,14.4056873321533,14.4059791564941,14.4062767028809,14.4065704345703,14.4068660736084,14.4071617126465,14.4074573516846,14.4077520370483,14.4080476760864,14.4083433151245,14.4086389541626,14.4089326858521,14.4092283248901,14.4095239639282,14.4098196029663,14.4101152420044,14.4104108810425,14.4107065200806,14.41100025177,14.4112958908081,14.4115915298462,14.4118871688843,14.412181854248,14.4124774932861,14.4127731323242,14.4130687713623,14.4133644104004,14.4136600494385,14.4139556884766,14.4142513275146,14.4145450592041,14.4148406982422,14.4151363372803,14.415433883667,14.4157295227051,14.4160251617432,14.4163198471069,14.4166145324707,14.4169111251831,14.4172058105469,14.417501449585,14.4177961349487,14.4180936813354,14.4183893203735,14.4186849594116,14.4189805984497,14.4192762374878,14.4195718765259,14.419867515564,14.4201631546021,14.4204587936401,14.4207544326782,14.4210519790649,14.4213457107544,14.4216432571411,14.4219388961792,14.4222345352173,14.4225292205811,14.4228239059448,14.4231204986572,14.4234161376953,14.423713684082,14.4240093231201,14.4243030548096,14.4246006011963,14.424898147583,14.4251937866211,14.4254894256592,14.4257831573486,14.4260807037354,14.4263782501221,14.4266738891602,14.4269676208496,14.4272651672363,14.4275608062744,14.4278583526611,14.4281539916992,14.4284477233887,14.4287452697754,14.4290409088135,14.4293375015259,14.429633140564,14.4299287796021,14.4302253723145,14.4305219650269,14.4308176040649,14.431113243103,14.4314088821411,14.4317045211792,14.4320039749146,14.4322996139526,14.4325952529907,14.4328908920288,14.4331884384155,14.4334840774536,14.4337816238403,14.4340753555298,14.4343709945679,14.4346704483032,14.4349660873413,14.435263633728,14.4355573654175,14.4358549118042,14.4361505508423,14.436448097229,14.4367437362671,14.4370393753052,14.4373378753662,14.4376344680786,14.437931060791,14.4382266998291,14.4385232925415,14.4388198852539,14.439115524292,14.4394130706787,14.4397077560425,14.4400053024292,14.4403038024902,14.4405994415283,14.4408950805664,14.4411907196045,14.4414882659912,14.4417858123779,14.442081451416,14.4423770904541,14.4426746368408,14.4429721832275,14.4432697296143,14.443567276001,14.4438610076904,14.4441585540771,14.4444561004639,14.444751739502,14.4450492858887,14.4453449249268,14.4456424713135,14.4459400177002,14.4462375640869,14.4465351104736,14.4468307495117,14.4471263885498,14.4474239349365,14.4477195739746,14.4480171203613,14.448314666748,14.4486122131348,14.4489097595215,14.4492053985596,14.4495010375977,14.4497985839844,14.4500961303711,14.4503936767578,14.4506893157959
4.42576026916504,4.44227981567383,4.45892238616943,4.47569036483765,4.49258518218994,4.50960779190063,4.52676010131836,4.54404306411743,4.56145858764648,4.57900857925415,4.59669351577759,4.61451578140259,4.63247680664062,4.65057849884033,4.66882181167603,4.68654489517212,4.70357513427734,4.7207293510437,4.73800897598267,4.75541591644287,4.77295112609863,4.79061603546143,4.80841255187988,4.82634162902832,4.84440469741821,4.86260366439819,4.88093996047974,4.89941501617432,4.91803026199341,4.93678760528564,4.9556884765625,4.97473526000977,4.9939284324646,5.01327037811279,5.03276252746582,5.05240678787231,5.07220554351807,5.09215974807739,5.11227178573608,5.13254308700562,5.15297555923462,5.17357158660889,5.19433307647705,5.21526193618774,5.2363600730896,5.25762939453125,5.27907228469849,5.30069208145142,5.32248830795288,5.34446477890015,5.36662244796753,5.38896560668945,5.41149520874023,5.43421411514282,5.45712423324585,5.48022890090942,14.2376337051392,14.2379217147827,14.238208770752,14.2384967803955,14.2387847900391,14.2390718460083,14.2393579483032,14.2396459579468,14.2399339675903,14.2402238845825,14.2405109405518,14.2407970428467,14.2410850524902,14.2413730621338,14.2416610717773,14.2419481277466,14.2422361373901,14.2425260543823,14.2428121566772,14.2431001663208,14.24338722229,14.2436752319336,14.2439632415771,14.2442512512207,14.2445383071899,14.2448263168335,14.2451143264771,14.2454042434692,14.2456912994385,14.2459774017334,14.246265411377,14.2465534210205,14.2468433380127,14.2471284866333,14.2474184036255,14.2477045059204,14.2479944229126,14.2482814788818,14.2485675811768,14.2488574981689,14.2491455078125,14.2494344711304,14.2497205734253,14.2500085830688,14.250298500061,14.2505855560303,14.2508735656738,14.2511615753174,14.2514495849609,14.2517385482788,14.2520265579224,14.2523145675659,14.2526025772095,14.2528915405273,14.2531814575195,14.2534656524658,14.253755569458,14.2540445327759,14.2543325424194,14.254620552063,14.2549076080322,14.2551975250244,14.255485534668,14.2557754516602,14.2560634613037,14.2563514709473,14.2566404342651,14.2569303512573,14.2572212219238,14.2575082778931,14.2577981948853,14.2580881118774,14.258376121521,14.2586660385132,14.2589540481567,14.2592430114746,14.2595329284668,14.259822845459,14.2601127624512,14.2604007720947,14.2606887817383,14.2609786987305,14.2612686157227,14.2615575790405,14.2618455886841,14.2621355056763,14.2624273300171,14.2627153396606,14.2630033493042,14.2632932662964,14.2635822296143,14.2638721466064,14.2641620635986,14.2644500732422,14.2647399902344,14.2650299072266,14.2653198242188,14.2656097412109,14.2658987045288,14.2661867141724,14.2664785385132,14.2667665481567,14.2670545578003,14.2673444747925,14.2676343917847,14.2679252624512,14.2682151794434,14.2685031890869,14.2687931060791,14.2690830230713,14.2693710327148,14.2696628570557,14.2699518203735,14.2702398300171,14.2705316543579,14.2708215713501,14.2711095809937,14.2713994979858,14.271689414978,14.2719793319702,14.2722702026367,14.2725582122803,14.2728462219238,14.2731380462646,14.2734279632568,14.273717880249,14.2740068435669,14.2742967605591,14.2745866775513,14.2748765945435,14.2751665115356,14.2754554748535,14.27574634552,14.2760372161865,14.2763271331787,14.2766151428223,14.2769050598145,14.2771949768066,14.2774858474731,14.2777757644653,14.2780637741089,14.2783536911011,14.2786455154419,14.2789373397827,14.2792253494263,14.2795143127441,14.279806137085,14.2800941467285,14.2803859710693,14.2806758880615,14.2809648513794,14.2812557220459,14.2815465927124,14.2818365097046,14.2821245193481,14.2824144363403,14.2827062606812,14.2829961776733,14.2832870483398,14.2835750579834,14.2838668823242,14.2841567993164,14.2844467163086,14.2847375869751,14.2850275039673,14.2853174209595,14.2856073379517,14.2858972549438,14.2861890792847,14.2864789962769,14.2867698669434,14.2870597839355,14.2873497009277,14.2876396179199,14.2879295349121,14.2882204055786,14.2885122299194,14.2888021469116,14.2890901565552,14.289381980896,14.2896738052368,14.289963722229,14.2902545928955,14.2905426025391,14.2908344268799,14.2911243438721,14.2914152145386,14.2917051315308,14.2919969558716,14.2922868728638,14.2925786972046,14.2928686141968,14.2931575775146,14.2934494018555,14.2937393188477,14.2940292358398,14.2943210601807,14.2946109771729,14.2949018478394,14.2951936721802,14.2954835891724,14.2957735061646,14.2960643768311,14.2963542938232,14.2966461181641,14.2969360351562,14.2972278594971,14.2975177764893,14.2978096008301,14.2981004714966,14.2983922958374,14.298680305481,14.2989721298218,14.2992630004883,14.2995529174805,14.2998447418213,14.3001365661621,14.3004264831543,14.3007164001465,14.3010082244873,14.3012990951538,14.301589012146,14.3018808364868,14.302170753479,14.3024616241455,14.3027534484863,14.3030452728271,14.3033351898193,14.3036270141602,14.3039169311523,14.3042078018188,14.3044996261597,14.3047895431519,14.3050813674927,14.3053731918335,14.3056640625,14.3059558868408,14.306245803833,14.3065376281738,14.306827545166,14.3071184158325,14.3074102401733,14.3077001571655,14.307993888855,14.3082838058472,14.3085746765137,14.3088665008545,14.3091583251953,14.3094501495361,14.309739112854,14.3100309371948,14.3103227615356,14.3106126785278,14.3109064102173,14.3111963272095,14.311487197876,14.3117790222168,14.3120708465576,14.3123598098755,14.3126525878906,14.3129434585571,14.3132352828979,14.3135271072388,14.313817024231,14.3141098022461,14.3144016265869,14.3146934509277,14.3149833679199,14.3152751922607,14.3155660629272,14.3158578872681,14.3161516189575,14.3164434432983,14.3167324066162,14.317024230957,14.3173160552979,14.3176078796387,14.3178977966309,14.318190574646,14.3184823989868,14.3187761306763,14.3190679550171,14.3193578720093,14.3196487426758,14.3199405670166,14.3202323913574,14.3205242156982,14.3208150863647,14.3211069107056,14.3213987350464,14.3216924667358,14.321982383728,14.3222742080688,14.322566986084,14.3228588104248,14.323148727417,14.3234395980835,14.3237314224243,14.3240232467651,14.3243169784546,14.3246088027954,14.3248996734619,14.3251914978027,14.3254833221436,14.325777053833,14.3260669708252,14.3263578414917,14.3266515731812,14.326943397522,14.3272371292114,14.3275279998779,14.3278198242188,14.3281116485596,14.3284034729004,14.3286952972412,14.3289861679077,14.3292779922485,14.329571723938,14.3298635482788,14.3301563262939,14.3304462432861,14.3307399749756,14.3310317993164,14.3313245773315,14.3316164016724,14.3319063186646,14.332200050354,14.3324937820435,14.3327865600586,14.3330764770508,14.3333683013916,14.3336610794067,14.3339548110962,14.3342447280884,14.3345365524292,14.3348293304443,14.3351230621338,14.3354148864746,14.3357086181641,14.3359985351562,14.3362913131714,14.3365850448608,14.3368768692017,14.3371686935425,14.3374614715576,14.3377532958984,14.3380470275879,14.3383388519287,14.3386297225952,14.338921546936,14.3392152786255,14.3395071029663,14.3398008346558,14.3400917053223,14.3403854370117,14.3406791687012,14.340970993042,14.3412637710571,14.3415536880493,14.3418474197388,14.3421401977539,14.3424320220947,14.3427257537842,14.3430166244507,14.3433113098145,14.3436040878296,14.3438959121704,14.3441877365112,14.3444805145264,14.3447742462158,14.3450660705566,14.3453598022461,14.3456506729126,14.3459444046021,14.3462381362915,14.3465299606323,14.3468236923218,14.3471145629883
4.40984344482422,4.42624378204346,4.44276666641235,4.45941305160522,4.4761848449707,4.49308300018311,4.51010942459106,4.52726554870605,4.54455280303955,4.56197214126587,4.5795259475708,4.5972146987915,4.61504125595093,4.63300657272339,4.65111207962036,4.66935968399048,4.68775129318237,4.70520353317261,4.72236967086792,4.739661693573,4.75708055496216,4.77462863922119,4.7923059463501,4.81011486053467,4.82805633544922,4.84613227844238,4.86434412002563,4.88269376754761,4.90118217468262,4.91981077194214,4.93858194351196,4.95749664306641,4.9765567779541,4.99576425552368,5.01512050628662,5.03462696075439,5.05428600311279,5.07409954071045,5.09406852722168,5.11419534683228,5.13448190689087,5.15493059158325,5.17554235458374,5.19631958007812,5.21726417541504,5.23837852478027,5.25966453552246,5.28112363815308,5.30275917053223,5.32457399368286,5.34656763076782,5.36874294281006,5.39110374450684,5.41365146636963,5.43638849258423,5.45931720733643,5.48243999481201,5.50575971603394,14.1376495361328,14.1379337310791,14.1382160186768,14.1385011672974,14.138783454895,14.1390686035156,14.1393508911133,14.1396341323853,14.1399183273315,14.1402015686035,14.1404857635498,14.1407690048218,14.1410512924194,14.1413373947144,14.1416206359863,14.1419048309326,14.142186164856,14.1424713134766,14.1427555084229,14.1430397033691,14.1433248519897,14.1436061859131,14.1438903808594,14.1441745758057,14.1444578170776,14.1447420120239,14.1450252532959,14.1453094482422,14.1455945968628,14.1458768844604,14.1461620330811,14.1464443206787,14.1467294692993,14.1470136642456,14.1472949981689,14.1475811004639,14.1478643417358,14.1481485366821,14.1484317779541,14.1487140655518,14.149001121521,14.1492834091187,14.1495685577393,14.1498527526855,14.1501359939575,14.1504201889038,14.1507034301758,14.1509876251221,14.1512727737427,14.151556968689,14.1518411636353,14.1521244049072,14.1524095535278,14.1526937484741,14.1529769897461,14.1532611846924,14.1535444259644,14.1538286209106,14.1541137695312,14.1543979644775,14.1546821594238,14.1549654006958,14.1552505493164,14.1555347442627,14.1558208465576,14.1561059951782,14.1563901901245,14.1566753387451,14.1569595336914,14.157247543335,14.1575317382812,14.1578149795532,14.1581010818481,14.1583862304688,14.158670425415,14.15895652771,14.1592397689819,14.1595258712769,14.1598129272461,14.1600971221924,14.160382270813,14.1606683731079,14.1609525680542,14.1612377166748,14.1615238189697,14.1618070602417,14.162091255188,14.1623773574829,14.1626644134521,14.1629505157471,14.1632347106934,14.163519859314,14.1638040542603,14.1640911102295,14.1643753051758,14.1646604537964,14.1649446487427,14.1652326583862,14.1655178070068,14.1658020019531,14.1660871505737,14.1663732528687,14.1666574478149,14.1669445037842,14.1672286987305,14.1675148010254,14.1678018569946,14.1680860519409,14.1683721542358,14.1686573028564,14.1689434051514,14.169228553772,14.1695146560669,14.1697998046875,14.1700839996338,14.1703701019287,14.1706571578979,14.1709432601929,14.1712265014648,14.1715126037598,14.1717987060547,14.1720838546753,14.1723699569702,14.1726551055908,14.1729393005371,14.1732273101807,14.1735143661499,14.1737985610962,14.1740837097168,14.1743698120117,14.1746559143066,14.1749410629272,14.1752252578735,14.1755123138428,14.1757984161377,14.1760845184326,14.1763715744019,14.1766557693481,14.1769428253174,14.1772270202637,14.1775140762329,14.1778001785278,14.1780843734741,14.178373336792,14.1786575317383,14.1789436340332,14.1792306900024,14.1795148849487,14.179801940918,14.1800861358643,14.1803731918335,14.1806573867798,14.1809453964233,14.1812324523926,14.1815185546875,14.1818046569824,14.1820878982544,14.1823749542236,14.1826610565186,14.1829471588135,14.1832342147827,14.183518409729,14.1838073730469,14.1840934753418,14.1843795776367,14.1846647262573,14.1849498748779,14.1852359771729,14.1855220794678,14.185809135437,14.1860933303833,14.1863822937012,14.1866683959961,14.186954498291,14.1872415542603,14.1875257492065,14.1878128051758,14.1880989074707,14.1883859634399,14.1886720657349,14.1889581680298,14.189245223999,14.1895313262939,14.1898183822632,14.1901044845581,14.1903896331787,14.1906757354736,14.1909627914429,14.1912488937378,14.1915349960327,14.191822052002,14.1921081542969,14.1923952102661,14.1926832199097,14.192967414856,14.1932525634766,14.1935405731201,14.1938276290894,14.1941137313843,14.1944007873535,14.1946868896484,14.1949739456177,14.1952619552612,14.1955461502075,14.1958332061768,14.1961193084717,14.1964063644409,14.1966924667358,14.1969804763794,14.1972675323486,14.1975536346436,14.1978406906128,14.1981267929077,14.198413848877,14.1986999511719,14.1989870071411,14.199273109436,14.1995611190796,14.1998462677002,14.2001342773438,14.200421333313,14.2007074356079,14.2009944915771,14.2012805938721,14.2015676498413,14.2018537521362,14.2021427154541,14.202428817749,14.2027158737183,14.2030019760132,14.2032899856567,14.203577041626,14.2038621902466,14.2041501998901,14.2044363021851,14.2047233581543,14.2050132751465,14.2052984237671,14.205584526062,14.2058725357056,14.2061595916748,14.2064456939697,14.206732749939,14.2070207595825,14.2073059082031,14.2075958251953,14.2078828811646,14.2081689834595,14.2084560394287,14.2087440490723,14.2090301513672,14.2093152999878,14.2096042633057,14.2098922729492,14.2101802825928,14.210467338562,14.2107534408569,14.2110404968262,14.2113285064697,14.211615562439,14.2119016647339,14.2121887207031,14.2124767303467,14.2127647399902,14.2130537033081,14.2133388519287,14.2136268615723,14.2139129638672,14.2142019271851,14.21448802948,14.2147750854492,14.2150630950928,14.215350151062,14.2156381607056,14.2159252166748,14.2162132263184,14.2165002822876,14.2167882919312,14.2170753479004,14.2173614501953,14.2176504135132,14.2179365158081,14.2182245254517,14.2185134887695,14.2187995910645,14.2190866470337,14.2193746566772,14.2196636199951,14.21994972229,14.2202386856079,14.2205247879028,14.220814704895,14.2211017608643,14.2213888168335,14.2216749191284,14.2219638824463,14.2222518920898,14.2225399017334,14.222825050354,14.2231140136719,14.2234039306641,14.223690032959,14.2239789962769,14.2242650985718,14.2245540618896,14.2248401641846,14.2251291275024,14.225417137146,14.2257041931152,14.2259912490845,14.2262811660767,14.2265691757202,14.2268562316895,14.227144241333,14.2274312973022,14.2277193069458,14.2280082702637,14.2282943725586,14.2285833358765,14.22887134552,14.2291603088379,14.2294483184814,14.2297353744507,14.2300233840942,14.2303104400635,14.230598449707,14.2308874130249,14.2311735153198,14.2314643859863,14.2317523956299,14.2320404052734,14.2323274612427,14.2326164245605,14.2329044342041,14.2331924438477,14.2334794998169,14.2337665557861,14.2340564727783,14.2343454360962,14.2346334457397,14.2349214553833,14.2352085113525,14.2354974746704,14.235785484314,14.2360744476318,14.2363605499268,14.2366495132446,14.2369394302368,14.2372274398804,14.2375164031982,14.2378034591675,14.238091468811,14.2383804321289,14.2386684417725,14.2389574050903,14.2392435073853,14.2395343780518,14.2398242950439,14.2401113510132,14.2403993606567,14.2406873703003,14.2409763336182,14.2412633895874,14.2415533065796,14.2418403625488,14.242130279541,14.2424192428589,14.2427072525024,14.2429962158203,14.2432823181152,14.2435731887817,14.2438611984253,14.2441501617432,14.2444381713867,14.2447271347046,14.2450151443481
4.39404058456421,4.41032314300537,4.42672729492188,4.44325351715088,4.45990371704102,4.47667932510376,4.49358129501343,4.51061153411865,4.52777147293091,4.54506206512451,4.56248569488525,4.58004331588745,4.59773635864258,4.61556673049927,4.63353586196899,4.65164566040039,4.66989755630493,4.68829345703125,4.70683288574219,4.72401142120361,4.74131536483765,4.75874662399292,4.77630662918091,4.79399633407593,4.81181764602661,4.82977199554443,4.84786128997803,4.86608648300171,4.88444852828979,4.90295028686523,4.92159271240234,4.9403772354126,4.95930576324463,4.97837972640991,4.99760150909424,5.01697158813477,5.03649282455444,5.05616664886475,5.07599449157715,5.09597873687744,5.1161208152771,5.13642263412476,5.1568865776062,5.17751407623291,5.19830703735352,5.21926784515381,5.24039840698242,5.26170063018799,5.2831768989563,5.30482912063599,5.32665967941284,5.34867238998413,5.37086534500122,5.39324378967285,5.4158091545105,5.43856430053711,5.46151113510132,5.48465299606323,5.50799131393433,5.53152990341187,14.0390605926514,14.0393400192261,14.0396184921265,14.0398998260498,14.0401792526245,14.0404586791992,14.0407371520996,14.0410184860229,14.041296005249,14.041576385498,14.0418558120728,14.0421371459961,14.0424165725708,14.0426950454712,14.0429763793945,14.0432558059692,14.0435361862183,14.0438137054443,14.0440950393677,14.0443744659424,14.0446548461914,14.0449342727661,14.0452117919922,14.0454940795898,14.0457735061646,14.0460529327393,14.0463342666626,14.0466117858887,14.0468921661377,14.047173500061,14.0474529266357,14.0477323532104,14.0480108261108,14.0482940673828,14.0485744476318,14.0488519668579,14.0491333007812,14.049412727356,14.049693107605,14.0499725341797,14.0502519607544,14.0505332946777,14.0508127212524,14.0510931015015,14.0513725280762,14.0516538619995,14.0519323348999,14.0522136688232,14.0524930953979,14.0527744293213,14.0530529022217,14.053334236145,14.0536136627197,14.0538930892944,14.0541753768921,14.0544548034668,14.0547361373901,14.0550136566162,14.0552940368652,14.0555753707886,14.0558567047119,14.0561361312866,14.056414604187,14.0566959381104,14.0569772720337,14.0572595596313,14.0575408935547,14.0578212738037,14.0581007003784,14.0583820343018,14.0586633682251,14.0589456558228,14.0592279434204,14.0595073699951,14.0597887039185,14.0600700378418,14.0603504180908,14.0606317520142,14.0609130859375,14.0611934661865,14.0614767074585,14.0617570877075,14.0620365142822,14.0623197555542,14.0626001358032,14.0628814697266,14.0631637573242,14.0634431838989,14.0637245178223,14.0640068054199,14.0642900466919,14.0645704269409,14.0648498535156,14.065131187439,14.0654144287109,14.06569480896,14.0659761428833,14.0662574768066,14.0665397644043,14.0668210983276,14.0671033859253,14.0673828125,14.0676641464233,14.067946434021,14.0682277679443,14.0685091018677,14.068790435791,14.06907081604,14.069354057312,14.0696363449097,14.069917678833,14.0701990127563,14.0704793930054,14.0707626342773,14.0710439682007,14.0713233947754,14.071605682373,14.0718879699707,14.072169303894,14.072452545166,14.0727319717407,14.0730142593384,14.0732955932617,14.0735778808594,14.0738592147827,14.0741405487061,14.0744228363037,14.0747060775757,14.074987411499,14.075267791748,14.0755491256714,14.0758323669434,14.076114654541,14.0763959884644,14.0766754150391,14.0769596099854,14.0772409439087,14.0775232315063,14.0778064727783,14.078085899353,14.0783672332764,14.078649520874,14.078932762146,14.0792140960693,14.0794944763184,14.0797777175903,14.080060005188,14.0803413391113,14.0806245803833,14.0809059143066,14.0811882019043,14.0814695358276,14.0817527770996,14.0820322036743,14.0823163986206,14.0825986862183,14.0828800201416,14.0831632614136,14.0834445953369,14.0837249755859,14.0840082168579,14.0842914581299,14.0845718383789,14.0848550796509,14.0851373672485,14.0854206085205,14.0857019424438,14.0859832763672,14.0862655639648,14.0865468978882,14.0868301391602,14.0871124267578,14.0873937606812,14.0876770019531,14.0879592895508,14.0882425308228,14.0885248184204,14.0888061523438,14.0890874862671,14.0893707275391,14.0896530151367,14.0899362564087,14.090217590332,14.0904998779297,14.0907831192017,14.0910663604736,14.0913467407227,14.0916299819946,14.091911315918,14.0921945571899,14.0924768447876,14.0927600860596,14.0930414199829,14.0933256149292,14.0936088562012,14.0938901901245,14.0941705703735,14.0944538116455,14.0947370529175,14.0950193405151,14.0953025817871,14.0955858230591,14.0958681106567,14.0961494445801,14.0964345932007,14.0967140197754,14.0969982147217,14.097279548645,14.0975637435913,14.0978469848633,14.0981283187866,14.0984115600586,14.0986938476562,14.0989770889282,14.0992603302002,14.0995407104492,14.0998239517212,14.1001071929932,14.1003894805908,14.1006727218628,14.1009559631348,14.1012392044067,14.1015214920044,14.1018047332764,14.1020860671997,14.1023683547974,14.102653503418,14.1029367446899,14.1032209396362,14.1035022735596,14.1037855148315,14.1040678024292,14.1043510437012,14.1046342849731,14.1049156188965,14.1051979064941,14.1054811477661,14.105767250061,14.1060485839844,14.1063318252563,14.1066150665283,14.106897354126,14.1071805953979,14.1074619293213,14.1077470779419,14.1080293655396,14.1083145141602,14.1085968017578,14.1088781356812,14.1091632843018,14.1094446182251,14.1097288131714,14.1100120544434,14.1102933883667,14.1105766296387,14.110860824585,14.1111459732056,14.1114273071289,14.1117105484009,14.1119947433472,14.1122779846191,14.1125612258911,14.1128425598145,14.1131267547607,14.1134099960327,14.113694190979,14.113977432251,14.1142606735229,14.1145439147949,14.1148262023926,14.1151113510132,14.1153926849365,14.1156759262085,14.1159601211548,14.1162452697754,14.116527557373,14.116810798645,14.117094039917,14.117377281189,14.1176614761353,14.1179447174072,14.1182279586792,14.1185111999512,14.1187953948975,14.1190805435181,14.11936378479,14.1196451187134,14.1199293136597,14.1202125549316,14.1204977035522,14.1207790374756,14.1210613250732,14.1213464736938,14.1216316223145,14.1219158172607,14.1221990585327,14.1224822998047,14.122766494751,14.1230497360229,14.1233329772949,14.1236162185669,14.1238994598389,14.1241855621338,14.1244688034058,14.1247529983521,14.1250343322754,14.125319480896,14.125602722168,14.1258869171143,14.1261701583862,14.1264533996582,14.1267385482788,14.1270227432251,14.1273059844971,14.127589225769,14.1278743743896,14.1281566619873,14.1284418106079,14.1287250518799,14.1290082931519,14.1292943954468,14.1295776367188,14.1298627853394,14.130145072937,14.130428314209,14.1307134628296,14.1309967041016,14.1312808990479,14.1315631866455,14.1318473815918,14.132134437561,14.1324186325073,14.1327018737793,14.1329851150513,14.1332702636719,14.1335525512695,14.1338376998901,14.1341228485107,14.1344041824341,14.134690284729,14.1349754333496,14.1352605819702,14.1355419158936,14.1358261108398,14.1361112594604,14.1363945007324,14.136679649353,14.136962890625,14.1372489929199,14.1375341415405,14.1378173828125,14.1381015777588,14.1383848190308,14.1386699676514,14.1389532089233,14.1392374038696,14.1395225524902,14.1398077011108,14.1400918960571,14.1403751373291,14.1406602859497,14.1409435272217,14.1412286758423,14.1415128707886,14.1417980194092,14.1420831680298,14.1423645019531,14.142650604248,14.1429357528687,14.1432209014893,14.1435060501099,14.1437883377075,14.1440734863281,14.1443567276001
4.37835073471069,4.39451694488525,4.41080331802368,4.42721080780029,4.44374084472656,4.46039438247681,4.47717380523682,4.49407958984375,4.51111364364624,4.52827739715576,4.54557180404663,4.56299924850464,4.5805606842041,4.59825801849365,4.61609220504761,4.63406562805176,4.65217971801758,4.67043590545654,4.68883562088013,4.70738124847412,4.72565412521362,4.74296998977661,4.760413646698,4.77798557281494,4.79568815231323,4.81352233886719,4.83148956298828,4.84959125518799,4.86782932281494,4.88620471954346,4.90471982955933,4.92337560653687,4.94217395782471,4.96111631393433,4.98020458221436,4.99944019317627,5.01882457733154,5.03836059570312,5.05804872512817,5.07789134979248,5.09789037704468,5.1180477142334,5.13836479187012,5.15884399414062,5.17948722839355,5.20029640197754,5.22127342224121,5.24241971969604,5.26373863220215,5.285231590271,5.30690097808838,5.32874822616577,5.35077619552612,5.37298917770386,5.39538526535034,5.41796875,5.44074201583862,5.463707447052,5.48686790466309,5.51022529602051,5.53378248214722,5.557541847229,13.9418354034424,13.9421110153198,13.9423875808716,13.9426622390747,13.9429388046265,13.9432144165039,13.9434900283813,13.9437656402588,13.9440412521362,13.9443168640137,13.9445943832397,13.9448680877686,13.9451456069946,13.9454212188721,13.9456968307495,13.945972442627,13.9462480545044,13.9465255737305,13.9467992782593,13.9470767974854,13.9473524093628,13.9476280212402,13.9479055404663,13.9481792449951,13.9484567642212,13.9487333297729,13.9490079879761,13.9492835998535,13.949559211731,13.9498357772827,13.9501132965088,13.9503889083862,13.9506645202637,13.9509401321411,13.9512176513672,13.9514951705933,13.9517669677734,13.9520444869995,13.952320098877,13.952597618103,13.9528732299805,13.9531488418579,13.953426361084,13.9537019729614,13.9539794921875,13.9542551040649,13.9545307159424,13.9548082351685,13.9550838470459,13.9553594589233,13.9556350708008,13.9559125900269,13.9561901092529,13.9564657211304,13.9567413330078,13.9570188522339,13.9572944641113,13.9575710296631,13.9578456878662,13.9581232070923,13.958399772644,13.9586763381958,13.9589529037476,13.9592275619507,13.9595050811768,13.9597816467285,13.9600591659546,13.9603366851807,13.9606142044067,13.9608917236328,13.9611673355103,13.9614448547363,13.9617233276367,13.9620008468628,13.9622764587402,13.9625539779663,13.9628314971924,13.9631090164185,13.9633865356445,13.963662147522,13.963939666748,13.9642181396484,13.9644956588745,13.9647731781006,13.9650506973267,13.9653282165527,13.9656057357788,13.9658832550049,13.9661598205566,13.9664363861084,13.9667129516602,13.9669923782349,13.9672698974609,13.967547416687,13.9678249359131,13.9681024551392,13.9683790206909,13.968656539917,13.9689331054688,13.9692115783691,13.9694890975952,13.9697685241699,13.970046043396,13.9703235626221,13.9705991744995,13.9708776473999,13.971155166626,13.9714326858521,13.9717082977295,13.9719877243042,13.9722671508789,13.972544670105,13.9728202819824,13.9730978012085,13.9733762741089,13.973653793335,13.973931312561,13.9742088317871,13.9744882583618,13.9747657775879,13.975043296814,13.9753217697144,13.9755983352661,13.9758758544922,13.9761524200439,13.9764318466187,13.9767093658447,13.9769868850708,13.9772663116455,13.9775438308716,13.977822303772,13.9780988693237,13.9783763885498,13.9786548614502,13.9789323806763,13.9792098999023,13.9794874191284,13.9797668457031,13.9800443649292,13.9803237915039,13.98060131073,13.9808769226074,13.9811563491821,13.9814338684082,13.9817123413086,13.9819898605347,13.9822673797607,13.9825468063354,13.9828262329102,13.9831037521362,13.9833793640137,13.9836587905884,13.9839363098145,13.9842147827148,13.9844923019409,13.9847717285156,13.9850492477417,13.9853286743164,13.9856061935425,13.9858837127686,13.9861631393433,13.9864406585693,13.9867181777954,13.9869966506958,13.9872741699219,13.9875535964966,13.9878311157227,13.9881105422974,13.9883899688721,13.9886655807495,13.9889450073242,13.9892244338989,13.989501953125,13.9897794723511,13.9900588989258,13.9903373718262,13.9906148910522,13.990894317627,13.9911737442017,13.9914493560791,13.9917268753052,13.9920063018799,13.9922857284546,13.9925632476807,13.9928426742554,13.9931221008301,13.9933996200562,13.9936780929565,13.9939556121826,13.994234085083,13.9945125579834,13.9947919845581,13.9950714111328,13.9953489303589,13.9956283569336,13.9959058761597,13.9961853027344,13.9964647293091,13.9967422485352,13.9970207214355,13.9972991943359,13.9975776672363,13.9978551864624,13.9981346130371,13.9984140396118,13.9986934661865,13.9989728927612,13.9992485046387,13.9995279312134,13.9998073577881,14.0000867843628,14.0003671646118,14.0006446838379,14.0009231567383,14.0012016296387,14.0014810562134,14.0017576217651,14.0020380020142,14.0023155212402,14.0025949478149,14.0028762817383,14.0031538009644,14.0034332275391,14.0037126541138,14.0039901733398,14.0042705535889,14.0045471191406,14.0048265457153,14.00510597229,14.0053863525391,14.0056657791138,14.0059432983398,14.0062208175659,14.0065021514893,14.006781578064,14.0070571899414,14.0073366165161,14.0076179504395,14.0078954696655,14.0081768035889,14.0084543228149,14.0087337493896,14.0090131759644,14.0092926025391,14.0095720291138,14.0098495483398,14.0101289749146,14.0104084014893,14.0106887817383,14.010968208313,14.0112457275391,14.0115251541138,14.0118045806885,14.0120840072632,14.0123615264893,14.012640953064,14.0129222869873,14.013201713562,14.0134811401367,14.0137586593628,14.0140399932861,14.0143194198608,14.0145988464355,14.0148773193359,14.0151557922363,14.015435218811,14.0157155990601,14.0159950256348,14.0162744522095,14.0165538787842,14.0168313980103,14.0171127319336,14.0173921585083,14.0176696777344,14.0179491043091,14.0182304382324,14.0185117721558,14.0187911987305,14.0190687179565,14.0193481445312,14.019627571106,14.0199069976807,14.0201864242554,14.0204658508301,14.0207452774048,14.0210266113281,14.0213060379028,14.0215854644775,14.0218648910522,14.022144317627,14.0224237442017,14.0227031707764,14.0229825973511,14.0232620239258,14.0235443115234,14.0238218307495,14.0241031646729,14.0243806838989,14.0246620178223,14.024941444397,14.0252208709717,14.0255002975464,14.0257797241211,14.0260610580444,14.0263404846191,14.0266218185425,14.0268993377686,14.0271806716919,14.0274600982666,14.0277395248413,14.0280208587646,14.0282983779907,14.0285797119141,14.0288591384888,14.0291404724121,14.0294198989868,14.0296993255615,14.0299787521362,14.0302591323853,14.0305395126343,14.030818939209,14.0310983657837,14.0313787460327,14.0316600799561,14.0319395065308,14.0322189331055,14.0324983596802,14.0327787399292,14.0330591201782,14.0333385467529,14.033618927002,14.0339012145996,14.0341806411743,14.034460067749,14.0347414016724,14.0350189208984,14.0353002548218,14.0355796813965,14.0358610153198,14.0361404418945,14.0364217758179,14.0367031097412,14.0369825363159,14.0372638702393,14.0375413894653,14.0378227233887,14.0381021499634,14.0383815765381,14.0386629104614,14.0389442443848,14.0392255783081,14.0395050048828,14.0397844314575,14.0400657653809,14.0403451919556,14.0406246185303,14.0409059524536,14.041187286377,14.041464805603,14.041748046875,14.0420274734497,14.042308807373,14.0425901412964,14.0428695678711,14.0431489944458,14.0434303283691,14.0437097549438,14.0439910888672,14.0442724227905,14.0445518493652,14.0448331832886,14.0451145172119
