3.87926912307739,3.88979339599609,3.90037488937378,3.91101408004761,3.92171168327332,3.9324676990509,3.94328308105469,3.95415806770325,3.96509289741516,3.97608876228333,3.9873251914978,3.99940586090088,4.01155996322632,4.02378845214844,4.03609132766724,4.04847002029419,4.0609245300293,4.07345581054688,4.0860652923584,4.09875249862671,4.11151885986328,4.12436532974243,4.13729190826416,4.15030002593994,4.16339015960693,4.17656278610229,4.1898193359375,4.20316028594971,4.21658658981323,4.23009872436523,4.24369812011719,4.25738477706909,4.27116012573242,4.28502511978149,4.29898023605347,4.3129186630249,4.32606840133667,4.33929920196533,4.35261058807373,4.36600399017334,4.37948036193848,4.39303970336914,4.40668344497681,4.42041206359863,4.43422698974609,4.44812822341919,4.46211671829224,4.47619390487671,4.49035978317261,4.50461578369141,4.51896286010742,4.53340148925781,4.54793262481689,4.56255674362183,4.57727575302124,4.59209012985229,4.60700035095215,4.62200784683228,4.63711309432983,4.65231800079346,4.66762256622314,4.68302822113037,4.69853591918945,4.71414661407471,4.72986173629761,4.74568176269531,4.76160764694214,4.77764129638672,4.79378318786621,4.81003427505493,4.82639598846436,4.84286975860596,4.8594536781311,4.87615299224854,4.89296722412109,4.90989828109741,4.92694664001465,4.94411373138428,4.96140098571777,4.97880935668945,4.99634027481079,5.01399564743042,5.03177547454834,5.04968214035034,5.0677170753479,5.08588075637817,5.10417556762695,5.1226019859314,14.7274904251099,14.7233991622925,14.7193098068237,14.7152214050293,14.7111377716064,14.7070531845093,14.7029752731323,14.6988964080811,14.6948204040527,14.6907482147217,14.6866760253906,14.6826066970825,14.678539276123,14.6744756698608,14.6704139709473,14.6663541793823,14.662296295166,14.6582412719727,14.6541881561279,14.6501379013062,14.6460866928101,14.6420412063599,14.6379957199097,14.6339550018311,14.6299133300781,14.6258773803711,14.6218433380127,14.6178092956543,14.6137781143188,14.609748840332,14.6057224273682,14.6016988754272,14.5976762771606,14.5936574935913,14.5896396636963,14.5856246948242,14.5816116333008,14.5775995254517,14.5735912322998,14.5695848464966,14.565580368042,14.561580657959,14.5575790405273,14.5535821914673,14.5495843887329,14.5455913543701,14.5416021347046,14.5376119613647,14.5336256027222,14.5296401977539,14.5256586074829,14.5216779708862,14.5177011489868,14.5137233734131,14.5097494125366,14.5057783126831,14.5018091201782,14.4978427886963,14.493878364563,14.4899139404297,14.485954284668,14.4819936752319,14.4780378341675,14.474084854126,14.4701318740845,14.4661836624146,14.4622354507446,14.4582901000977,14.4543485641479,14.4504051208496,14.4464664459229,14.4425287246704,14.4385948181152,14.4346609115601,14.4307308197021,14.4268035888672,14.4228763580322,14.4189529418945,14.4150295257568,14.4111108779907,14.4071922302246,14.4032764434814,14.3993635177612,14.3954524993896,14.391544342041,14.3876361846924,14.3837299346924,14.3798274993896,14.3759260177612,14.3720264434814,14.3681297302246,14.3642349243164,14.3603420257568,14.3564519882202,14.3525629043579,14.3486757278442,14.3447942733765,14.3409099578857,14.337028503418,14.3331508636475,14.3292741775513,14.3254013061523,14.3215293884277,14.3176593780518,14.313793182373,14.3099269866943,14.3060626983643,14.3022031784058,14.2983436584473,14.2944860458374,14.2906303405762,14.2867765426636,14.2829275131226,14.2790784835815,14.2752313613892,14.2713861465454,14.2675447463989,14.2637033462524,14.2598657608032,14.2560300827026,14.2521944046021,14.2483615875244,14.244532585144,14.240704536438,14.2368783950806,14.2330541610718,14.229229927063,14.2254104614258,14.2215919494629,14.2177782058716,14.2139644622803,14.210150718689,14.2063417434692,14.2025327682495,14.1987295150757,14.1949243545532,14.1911249160767,14.1873254776001,14.1835269927979,14.1797304153442,14.1759366989136,14.1721448898315,14.1683559417725,14.1645679473877,14.1607828140259,14.1570014953613,14.1532192230225,14.1494407653809,14.1456642150879,14.1418867111206,14.1381168365479,14.1343450546265,14.1305751800537,14.1268081665039,14.1230421066284,14.1192770004272,14.115517616272,14.1117582321167,14.1079998016357,14.1042461395264,14.1004915237427,14.0967426300049,14.0929927825928,14.0892457962036,14.0855007171631,14.0817565917969,14.0780143737793,14.0742778778076,14.0705413818359,14.0668029785156,14.0630693435669,14.0593395233154,14.055609703064,14.0518836975098,14.0481567382812,14.0444345474243,14.0407133102417,14.0369920730591,14.0332765579224,14.0295600891113,14.0258464813232,14.0221357345581,14.018424987793,14.0147199630737,14.0110111236572,14.0073080062866,14.0036058425903,13.9999055862427,13.9962072372437,13.9925127029419,13.9888200759888,13.9851264953613,13.9814367294312,13.9777498245239,13.9740629196167,13.9703807830811,13.9666967391968,13.9630174636841,13.9593362808228,13.955659866333,13.9519872665405,13.9483137130737,13.9446430206299,13.940975189209,13.9373083114624,13.9336433410645,13.9299812316895,13.9263200759888,13.9226598739624,13.9190034866333,13.9153470993042,13.9116945266724,13.9080438613892,13.9043922424316,13.9007453918457,13.8970994949341,13.8934574127197,13.8898143768311,13.8861742019653,13.8825368881226,13.8789005279541,13.8752679824829,13.8716344833374,13.8680047988892,13.8643751144409,13.8607482910156,13.857123374939,13.8535003662109,13.8498792648315,13.8462600708008,13.842643737793,13.8390274047852,13.8354148864746,13.8318042755127,13.8281955718994,13.8245859146118,13.8209810256958,13.8173770904541,13.8137760162354,13.8101758956909,13.8065776824951,13.8029794692993,13.7993841171265,13.7957925796509,13.7922029495239,13.788613319397,13.7850255966187,13.7814407348633,13.7778577804565,13.7742767333984,13.770697593689,13.7671184539795,13.763542175293,13.7599687576294,13.7563982009888,13.7528257369995,13.7492570877075,13.7456893920898,13.7421245574951,13.7385606765747,13.7350006103516,13.7314424514771,13.7278842926025,13.7243299484253,13.7207746505737,13.7172250747681,13.7136745452881,13.7101259231567,13.7065801620483,13.7030344009399,13.6994915008545,13.695951461792,13.6924123764038,13.6888751983643,13.685338973999,13.6818056106567,13.6782751083374,13.6747446060181,13.6712160110474,13.6676912307739,13.6641645431519,13.6606426239014,13.6571235656738,13.653603553772,13.6500873565674,13.6465692520142,13.6430549621582,13.6395454406738,13.6360349655151,13.6325273513794,13.6290216445923,13.6255159378052,13.622013092041,13.6185140609741,13.6150140762329,13.6115169525146,13.608021736145,13.6045265197754,13.6010360717773,13.597544670105,13.5940561294556,13.5905685424805,13.5870838165283,13.5836019515991,13.5801210403442,13.5766410827637,13.5731630325317,13.5696878433228,13.5662136077881,13.5627422332764,13.559271812439,13.5558023452759,13.5523357391357,13.5488700866699,13.5454063415527,13.5419445037842,13.5384836196899,13.5350255966187,13.5315704345703,13.5281133651733,13.5246639251709,13.5212125778198,13.5177621841431,13.5143146514893,13.5108680725098,13.5074253082275,13.5039825439453,13.5005435943604,13.4971027374268,13.4936647415161,13.4902296066284,13.4867973327637,13.4833650588989,13.4799356460571,13.476505279541,13.4730806350708,13.4696569442749,13.466233253479,13.4628114700317,13.4593915939331,13.4559745788574,13.4525585174561,13.449143409729,13.4457292556763,13.4423198699951,13.438910484314,13.4355020523071,13.4320983886719,13.4286937713623,13.4252910614014,13.4218902587891,13.4184913635254,13.4150943756104,13.4117002487183,13.4083070755005,13.404914855957,13.4015245437622,13.3981342315674,13.3947477340698,13.3913621902466,13.3879795074463
3.86886620521545,3.87933397293091,3.88985848426819,3.90044045448303,3.91108012199402,3.92177772521973,3.93253445625305,3.94335007667542,3.95422530174255,3.96516084671021,3.97615694999695,3.98721408843994,3.9987645149231,4.01091480255127,4.02313899993896,4.0354380607605,4.04781246185303,4.06026315689087,4.07279062271118,4.08539581298828,4.09807872772217,4.11084127426147,4.12368297576904,4.13660573959351,4.14960908889771,4.16269493103027,4.17586326599121,4.18911552429199,4.20245218276978,4.21587371826172,4.2293815612793,4.24297571182251,4.25665807723999,4.27042865753174,4.28428888320923,4.29823923110962,4.31228065490723,4.32629823684692,4.33953046798706,4.35284328460693,4.36623811721802,4.37971591949463,4.39327669143677,4.40692186355591,4.42065238952637,4.4344687461853,4.44837141036987,4.46236133575439,4.47643995285034,4.49060773849487,4.50486516952515,4.51921367645264,4.5336537361145,4.54818630218506,4.56281232833862,4.57753324508667,4.5923490524292,4.60726118087769,4.62227010726929,4.63737726211548,4.65258359909058,4.66789054870605,4.68329763412476,4.69880723953247,4.71441984176636,4.73013639450073,4.74595832824707,4.76188611984253,4.77792167663574,4.79406547546387,4.81031847000122,4.82668209075928,4.84315776824951,4.85974597930908,4.87644672393799,4.89326286315918,4.91019582748413,4.92724609375,4.94441556930542,4.96170473098755,4.97911548614502,4.99664878845215,5.01430559158325,5.03208827972412,5.04999732971191,5.06803417205811,5.08620023727417,5.10449695587158,5.12292623519897,5.14148902893066,14.6118459701538,14.6078195571899,14.6037940979004,14.5997714996338,14.5957508087158,14.5917320251465,14.5877161026001,14.583701133728,14.5796880722046,14.5756797790527,14.5716705322266,14.5676670074463,14.5636625289917,14.5596618652344,14.5556650161743,14.5516672134399,14.5476722717285,14.5436782836914,14.5396890640259,14.5357027053833,14.5317153930664,14.5277328491211,14.5237503051758,14.5197725296021,14.515793800354,14.5118188858032,14.5078468322754,14.5038766860962,14.4999084472656,14.4959411621094,14.4919786453247,14.4880170822144,14.4840574264526,14.4800987243652,14.4761419296265,14.4721899032593,14.468240737915,14.4642915725708,14.4603452682495,14.4563999176025,14.4524593353271,14.4485177993774,14.4445791244507,14.4406433105469,14.4367094039917,14.4327783584595,14.4288482666016,14.4249210357666,14.4209966659546,14.4170713424683,14.4131507873535,14.4092321395874,14.4053163528442,14.4014024734497,14.3974895477295,14.3935794830322,14.3896713256836,14.3857641220093,14.3818607330322,14.3779573440552,14.3740587234497,14.3701610565186,14.3662672042847,14.3623743057251,14.3584823608398,14.3545932769775,14.3507041931152,14.3468208312988,14.3429365158081,14.339056968689,14.3351783752441,14.3313016891479,14.3274278640747,14.3235549926758,14.3196840286255,14.3158159255981,14.3119497299194,14.3080863952637,14.3042240142822,14.3003644943237,14.2965087890625,14.292652130127,14.28879737854,14.2849454879761,14.2810964584351,14.277250289917,14.2734050750732,14.2695627212524,14.2657194137573,14.2618799209595,14.2580413818359,14.2542057037354,14.2503719329834,14.246542930603,14.242712020874,14.2388858795166,14.2350597381592,14.231237411499,14.2274150848389,14.2235975265503,14.219780921936,14.2159652709961,14.2121534347534,14.2083415985107,14.2045335769653,14.2007265090942,14.1969203948975,14.1931190490723,14.1893177032471,14.1855173110962,14.1817235946655,14.1779289245605,14.1741361618042,14.1703453063965,14.166558265686,14.1627721786499,14.1589870452881,14.1552047729492,14.151424407959,14.1476440429688,14.1438684463501,14.1400957107544,14.1363220214844,14.1325521469116,14.1287841796875,14.125018119812,14.1212549209595,14.1174917221069,14.1137323379517,14.1099729537964,14.1062154769897,14.1024627685547,14.0987110137939,14.0949602127075,14.0912113189697,14.0874643325806,14.08371925354,14.0799789428711,14.0762386322021,14.0725002288818,14.0687637329102,14.0650291442871,14.061297416687,14.0575675964355,14.0538387298584,14.0501127243042,14.0463895797729,14.0426654815674,14.0389461517334,14.0352268218994,14.0315103530884,14.0277948379517,14.0240821838379,14.0203723907471,14.0166654586792,14.0129566192627,14.0092515945435,14.0055494308472,14.0018482208252,13.9981498718262,13.9944534301758,13.9907579421997,13.9870643615723,13.9833717346191,13.9796838760376,13.9759969711304,13.9723110198975,13.9686288833618,13.9649467468262,13.9612674713135,13.957592010498,13.9539165496826,13.9502410888672,13.946569442749,13.9428997039795,13.9392328262329,13.935567855835,13.9319019317627,13.928240776062,13.9245805740356,13.9209213256836,13.9172649383545,13.9136114120483,13.9099588394165,13.906307220459,13.902660369873,13.8990144729614,13.8953695297241,13.8917274475098,13.8880853652954,13.884446144104,13.8808078765869,13.8771734237671,13.8735399246216,13.8699083328247,13.8662786483765,13.8626518249512,13.8590259552002,13.8554029464722,13.8517799377441,13.8481607437134,13.8445415496826,13.8409261703491,13.8373136520386,13.833701133728,13.8300886154175,13.8264789581299,13.8228712081909,13.8192682266235,13.8156661987305,13.8120641708374,13.808464050293,13.8048658370972,13.8012714385986,13.7976779937744,13.7940874099731,13.7904977798462,13.7869081497192,13.7833223342896,13.7797393798828,13.7761573791504,13.7725744247437,13.7689952850342,13.7654180526733,13.7618427276611,13.7582712173462,13.7547006607056,13.7511301040649,13.7475614547729,13.7439966201782,13.7404336929321,13.7368698120117,13.7333126068115,13.7297525405884,13.7261962890625,13.7226400375366,13.719087600708,13.7155361175537,13.7119874954224,13.7084398269653,13.7048940658569,13.7013511657715,13.697811126709,13.6942701339722,13.6907320022583,13.6871948242188,13.6836614608765,13.6801300048828,13.6765975952148,13.6730680465698,13.6695394515991,13.6660146713257,13.6624917984009,13.6589708328247,13.6554498672485,13.6519317626953,13.6484155654907,13.6449012756348,13.6413888931274,13.6378765106201,13.6343679428101,13.6308622360229,13.6273546218872,13.6238527297974,13.6203489303589,13.6168489456177,13.6133508682251,13.6098537445068,13.6063604354858,13.6028671264648,13.5993757247925,13.5958862304688,13.5923986434937,13.5889120101929,13.585431098938,13.5819482803345,13.5784673690796,13.5749883651733,13.5715093612671,13.5680370330811,13.5645627975464,13.561092376709,13.5576219558716,13.5541534423828,13.5506868362427,13.5472249984741,13.5437612533569,13.540301322937,13.5368413925171,13.5333833694458,13.5299301147461,13.5264759063721,13.5230226516724,13.5195713043213,13.5161237716675,13.5126762390137,13.5092334747314,13.5057897567749,13.5023469924927,13.4989080429077,13.4954690933228,13.4920339584351,13.4885997772217,13.4851665496826,13.4817361831665,13.478307723999,13.4748811721802,13.4714527130127,13.4680290222168,13.4646062850952,13.4611854553223,13.4577674865723,13.4543504714966,13.4509344100952,13.4475221633911,13.4441089630127,13.4406986236572,13.4372930526733,13.4338855743408,13.4304800033569,13.427077293396,13.4236755371094,13.4202737808228,13.416877746582,13.413480758667,13.4100875854492,13.4066925048828,13.4033012390137,13.3999128341675,13.3965263366699,13.3931398391724,13.3897552490234,13.3863725662231,13.3829908370972,13.3796138763428,13.3762359619141,13.3728580474854,13.3694839477539,13.3661117553711,13.3627414703369,13.3593721389771,13.3560047149658,13.3526401519775,13.3492765426636,13.3459138870239,13.3425540924072,13.3391952514648,13.3358373641968,13.3324823379517,13.3291292190552,13.325779914856,13.3224267959595,13.3190765380859,13.315731048584,13.3123846054077,13.3090419769287,13.3057012557983,13.302360534668,13.2990207672119
3.85851883888245,3.86893057823181,3.87939882278442,3.88992381095886,3.90050601959229,3.91114592552185,3.9218442440033,3.93260097503662,3.94341707229614,3.95429277420044,3.96522855758667,3.97622489929199,3.98728275299072,3.99840188026428,4.01026964187622,4.02249002456665,4.03478527069092,4.04715585708618,4.0596022605896,4.07212543487549,4.08472633361816,4.09740543365479,4.11016368865967,4.12300109863281,4.13591957092285,4.14891910552979,4.16200017929077,4.17516422271729,4.18841218948364,4.20174407958984,4.21516132354736,4.22866439819336,4.24225425720215,4.25593137741089,4.26969766616821,4.28355312347412,4.29749870300293,4.3115348815918,4.32566356658936,4.33976173400879,4.35307598114014,4.3664722442627,4.37995147705078,4.39351367950439,4.40716075897217,4.42089223861694,4.43471002578735,4.4486141204834,4.46260643005371,4.47668600082397,4.49085521697998,4.50511455535889,4.51946449279785,4.53390598297119,4.54844045639038,4.56306838989258,4.57779026031494,4.5926079750061,4.60752153396606,4.6225323677063,4.63764190673828,4.65284967422485,4.66815805435181,4.68356704711914,4.69907855987549,4.71469306945801,4.73041152954102,4.74623489379883,4.76216506958008,4.77820205688477,4.79434776306152,4.81060266494751,4.8269681930542,4.84344577789307,4.86003589630127,4.87674045562744,4.89355850219727,4.91049337387085,4.92754602432251,4.9447169303894,4.96200847625732,4.97942113876343,4.99695682525635,5.01461601257324,5.03240060806274,5.05031156539917,5.06835126876831,5.08651971817017,5.10481882095337,5.12325000762939,5.14181518554688,5.16051483154297,14.498007774353,14.4940423965454,14.4900789260864,14.4861183166504,14.4821615219116,14.4782037734985,14.4742498397827,14.4702968597412,14.4663467407227,14.4624013900757,14.4584541320801,14.4545116424561,14.4505701065063,14.446629524231,14.4426937103271,14.4387578964233,14.4348258972168,14.4308948516846,14.4269676208496,14.4230403900146,14.4191160202026,14.4151935577393,14.4112730026245,14.407356262207,14.4034395217896,14.3995265960693,14.3956165313721,14.3917064666748,14.3878002166748,14.3838930130005,14.3799905776978,14.376091003418,14.3721904754639,14.3682947158813,14.3643989562988,14.3605089187622,14.3566198348999,14.352728843689,14.3488435745239,14.3449583053589,14.3410787582397,14.3371982574463,14.3333206176758,14.3294467926025,14.325572013855,14.3217010498047,14.3178300857544,14.3139638900757,14.3100996017456,14.3062353134155,14.302375793457,14.2985172271729,14.294659614563,14.2908058166504,14.2869520187378,14.2831020355225,14.2792530059814,14.2754068374634,14.2715635299683,14.2677202224731,14.2638816833496,14.2600421905518,14.2562055587769,14.2523708343506,14.2485399246216,14.2447109222412,14.2408819198608,14.2370576858521,14.2332334518433,14.2294130325317,14.2255926132202,14.2217741012573,14.217960357666,14.2141447067261,14.210334777832,14.2065267562866,14.2027187347412,14.1989135742188,14.1951103210449,14.1913080215454,14.1875085830688,14.1837120056152,14.1799182891846,14.1761236190796,14.1723327636719,14.1685457229614,14.164758682251,14.1609735488892,14.157187461853,14.1534080505371,14.1496276855469,14.1458520889282,14.1420774459839,14.1383028030396,14.1345310211182,14.1307611465454,14.1269950866699,14.1232309341431,14.1194648742676,14.1157035827637,14.1119441986084,14.1081876754761,14.1044330596924,14.100679397583,14.0969276428223,14.0931787490845,14.0894317626953,14.0856866836548,14.0819444656372,14.0782032012939,14.074462890625,14.070725440979,14.066990852356,14.0632562637329,14.0595245361328,14.0557956695557,14.0520677566528,14.0483417510986,14.0446214675903,14.0408983230591,14.0371780395508,14.0334606170654,14.029746055603,14.0260324478149,14.0223197937012,14.0186100006104,14.0149021148682,14.0111951828003,14.0074901580811,14.0037908554077,14.0000905990601,13.9963932037354,13.992696762085,13.9890022277832,13.9853096008301,13.9816207885742,13.977933883667,13.9742460250854,13.9705619812012,13.9668798446655,13.9631996154785,13.9595232009888,13.9558429718018,13.952169418335,13.9484958648682,13.9448261260986,13.9411582946777,13.9374904632568,13.9338254928589,13.9301624298096,13.9265012741089,13.9228420257568,13.9191865921021,13.9155302047729,13.9118766784668,13.908224105835,13.9045734405518,13.9009265899658,13.8972816467285,13.8936376571655,13.8899946212769,13.8863544464111,13.8827171325684,13.8790807723999,13.8754482269287,13.8718147277832,13.8681840896606,13.864556312561,13.8609294891357,13.8573055267334,13.8536815643311,13.850058555603,13.8464393615723,13.8428239822388,13.8392086029053,13.8355951309204,13.8319826126099,13.8283739089966,13.8247661590576,13.8211603164673,13.8175573348999,13.8139543533325,13.8103542327881,13.806755065918,13.8031597137451,13.7995643615723,13.795970916748,13.7923803329468,13.7887907028198,13.7852029800415,13.7816190719604,13.7780351638794,13.774453163147,13.7708740234375,13.7672958374023,13.7637224197388,13.7601470947266,13.756573677063,13.7530031204224,13.7494354248047,13.7458686828613,13.742301940918,13.7387409210205,13.7351779937744,13.7316188812256,13.7280607223511,13.7245063781738,13.7209520339966,13.7174015045166,13.7138509750366,13.7103023529053,13.7067565917969,13.7032127380371,13.6996688842773,13.6961269378662,13.6925868988037,13.6890506744385,13.6855154037476,13.6819820404053,13.6784505844116,13.674919128418,13.6713914871216,13.6678667068481,13.6643409729004,13.6608180999756,13.6572971343994,13.6537780761719,13.6502618789673,13.6467447280884,13.6432304382324,13.6397190093994,13.6362085342407,13.632700920105,13.6291961669922,13.6256904602051,13.6221876144409,13.6186857223511,13.6151876449585,13.6116895675659,13.6081943511963,13.6047019958496,13.6012086868286,13.5977191925049,13.5942287445068,13.5907421112061,13.5872583389282,13.5837745666504,13.5802936553955,13.5768127441406,13.573335647583,13.569860458374,13.566385269165,13.5629148483276,13.5594425201416,13.5559749603271,13.552508354187,13.5490427017212,13.5455760955811,13.5421152114868,13.5386552810669,13.5351991653442,13.5317411422729,13.5282869338989,13.5248346328735,13.5213832855225,13.5179328918457,13.5144872665405,13.5110416412354,13.5075960159302,13.5041532516479,13.5007133483887,13.4972763061523,13.4938383102417,13.4904012680054,13.4869680404663,13.4835357666016,13.4801063537598,13.4766778945923,13.4732513427734,13.4698257446289,13.4664030075073,13.4629812240601,13.4595623016357,13.4561443328857,13.4527282714844,13.4493131637573,13.4458990097046,13.4424886703491,13.439079284668,13.4356727600098,13.4322671890259,13.428861618042,13.4254598617554,13.4220600128174,13.4186611175537,13.415265083313,13.4118680953979,13.4084749221802,13.4050827026367,13.4016923904419,13.39830493927,13.3949155807495,13.3915309906006,13.3881464004517,13.384765625,13.3813848495483,13.3780078887939,13.3746309280396,13.3712549209595,13.3678827285767,13.3645105361938,13.3611421585083,13.3577737808228,13.3544073104858,13.3510417938232,13.3476791381836,13.3443174362183,13.3409576416016,13.3375997543335,13.3342428207397,13.3308887481689,13.3275356292725,13.3241844177246,13.3208351135254,13.3174858093262,13.3141403198242,13.3107976913452,13.3074541091919,13.3041133880615,13.3007745742798,13.2974348068237,13.2940988540649,13.2907657623291,13.2874317169189,13.2841005325317,13.2807703018188,13.2774419784546,13.2741174697876,13.2707939147949,13.2674694061279,13.2641496658325,13.2608308792114,13.2575130462646,13.2541971206665,13.2508811950684,13.2475681304932,13.2442560195923,13.2409467697144,13.2376394271851,13.2343339920044,13.2310285568237,13.2277269363403,13.2244262695312,13.2211284637451,13.2178297042847,13.2145328521729,13.2112379074097
3.84822654724121,3.85858297348022,3.86899518966675,3.87946367263794,3.88998889923096,3.90057158470154,3.91121196746826,3.92191028594971,3.93266773223877,3.94348406791687,3.95436000823975,3.96529626846313,3.97629308700562,3.98735117912292,3.99847078323364,4.00965261459351,4.02184152603149,4.03413248062134,4.04649877548218,4.05894136428833,4.07146072387695,4.08405733108521,4.0967321395874,4.10948610305786,4.12231969833374,4.13523387908936,4.14822864532471,4.16130590438843,4.17446517944336,4.18770837783813,4.20103597640991,4.21444892883301,4.22794723510742,4.24153232574463,4.25520515441895,4.26896667480469,4.28281736373901,4.29675817489624,4.31078958511353,4.3249135017395,4.33913040161133,4.35330867767334,4.36670637130737,4.38018703460693,4.39375066757202,4.40739917755127,4.42113256454468,4.43495178222656,4.44885730743408,4.46285057067871,4.47693204879761,4.49110317230225,4.50536394119263,4.51971530914307,4.53415870666504,4.5486946105957,4.56332397460938,4.57804822921753,4.59286689758301,4.6077823638916,4.62279510498047,4.63790559768677,4.65311574935913,4.66842555999756,4.68383646011353,4.69934940338135,4.7149658203125,4.73068618774414,4.74651145935059,4.76244354248047,4.77848243713379,4.79463005065918,4.8108868598938,4.82725477218628,4.84373378753662,4.86032581329346,4.87703227996826,4.89385414123535,4.91079187393188,4.92784595489502,4.94501924514771,4.9623122215271,4.97972726821899,4.99726486206055,5.01492643356323,5.03271341323853,5.05062675476074,5.06866836547852,5.086838722229,5.105140209198,5.12357425689697,5.14214134216309,5.16084384918213,5.17968273162842,14.3859272003174,14.382022857666,14.3781204223633,14.3742218017578,14.370325088501,14.3664293289185,14.3625364303589,14.358642578125,14.3547554016113,14.3508672714233,14.3469820022583,14.3431005477905,14.3392190933228,14.3353404998779,14.3314619064331,14.3275890350342,14.3237161636353,14.3198471069336,14.3159780502319,14.3121118545532,14.3082475662231,14.3043851852417,14.3005266189575,14.2966690063477,14.2928123474121,14.2889585494995,14.2851085662842,14.2812566757202,14.2774095535278,14.2735633850098,14.2697219848633,14.2658815383911,14.2620410919189,14.2582063674927,14.2543687820435,14.2505359649658,14.2467050552368,14.2428760528564,14.239049911499,14.2352247238159,14.2314023971558,14.2275800704956,14.2237615585327,14.2199468612671,14.2161321640015,14.2123184204102,14.2085084915161,14.2047004699707,14.2008962631226,14.1970911026001,14.1932888031006,14.1894855499268,14.1856899261475,14.1818943023682,14.1780986785889,14.1743078231812,14.1705169677734,14.166729927063,14.1629447937012,14.1591596603394,14.1553773880005,14.1515979766846,14.1478214263916,14.14404296875,14.1402711868286,14.1365003585815,14.1327285766602,14.1289596557617,14.1251935958862,14.121431350708,14.1176700592041,14.1139097213745,14.1101522445679,14.1063947677612,14.1026430130005,14.0988893508911,14.0951385498047,14.0913925170898,14.0876455307007,14.0839023590088,14.0801610946655,14.0764207839966,14.0726842880249,14.0689468383789,14.0652141571045,14.0614814758301,14.0577516555786,14.0540246963501,14.0502986907959,14.0465745925903,14.0428524017334,14.0391302108765,14.0354099273682,14.0316934585571,14.027979850769,14.0242681503296,14.0205564498901,14.0168485641479,14.0131406784058,14.0094356536865,14.0057344436646,14.0020332336426,13.9983339309692,13.9946365356445,13.9909420013428,13.9872493743896,13.9835577011108,13.9798669815063,13.9761810302734,13.9724941253662,13.9688119888306,13.9651308059692,13.9614505767822,13.9577732086182,13.9540987014771,13.9504241943359,13.9467544555664,13.9430847167969,13.9394149780273,13.9357490539551,13.9320850372314,13.9284219741821,13.9247627258301,13.921103477478,13.9174480438232,13.9137926101685,13.9101409912109,13.9064903259277,13.9028415679932,13.8991947174072,13.8955497741699,13.8919067382812,13.8882665634155,13.8846282958984,13.8809909820557,13.8773527145386,13.8737201690674,13.8700885772705,13.8664598464966,13.862832069397,13.859206199646,13.8555822372437,13.8519601821899,13.8483409881592,13.8447217941284,13.8411054611206,13.8374919891357,13.8338794708252,13.830267906189,13.8266611099243,13.8230514526367,13.8194465637207,13.8158435821533,13.8122425079346,13.8086442947388,13.8050470352173,13.8014507293701,13.7978563308716,13.7942638397217,13.790675163269,13.787088394165,13.7835006713867,13.7799167633057,13.7763328552246,13.7727518081665,13.7691745758057,13.7655973434448,13.7620210647583,13.7584476470947,13.7548761367798,13.7513065338135,13.7477407455444,13.7441740036011,13.740611076355,13.7370491027832,13.7334880828857,13.7299308776855,13.726372718811,13.7228174209595,13.7192649841309,13.7157125473022,13.7121629714966,13.7086172103882,13.7050724029541,13.7015266418457,13.6979856491089,13.6944456100464,13.6909074783325,13.6873722076416,13.6838359832764,13.6803045272827,13.6767721176147,13.6732444763184,13.6697149276733,13.6661911010742,13.6626663208008,13.6591444015503,13.6556234359741,13.6521062850952,13.6485910415649,13.6450757980347,13.6415634155273,13.6380519866943,13.6345434188843,13.6310367584229,13.6275300979614,13.6240272521973,13.6205244064331,13.6170225143433,13.6135244369507,13.6100282669067,13.6065330505371,13.6030397415161,13.5995492935181,13.596061706543,13.5925722122192,13.5890884399414,13.5856027603149,13.5821208953857,13.5786409378052,13.5751638412476,13.5716848373413,13.568208694458,13.5647354125977,13.5612640380859,13.5577955245972,13.5543270111084,13.5508594512939,13.5473966598511,13.5439338684082,13.5404710769653,13.5370149612427,13.5335559844971,13.530101776123,13.5266456604004,13.523193359375,13.5197448730469,13.5162944793701,13.5128488540649,13.5094032287598,13.5059604644775,13.5025186538696,13.4990797042847,13.495641708374,13.492205619812,13.4887704849243,13.4853372573853,13.4819078445435,13.4784784317017,13.4750509262085,13.4716243743896,13.4681987762451,13.4647760391235,13.4613571166992,13.4579381942749,13.4545211791992,13.4511032104492,13.4476919174194,13.444281578064,13.4408712387085,13.437460899353,13.4340543746948,13.4306488037109,13.42724609375,13.423846244812,13.4204444885254,13.4170446395874,13.4136486053467,13.4102544784546,13.4068632125854,13.403470993042,13.4000816345215,13.3966941833496,13.3933086395264,13.3899240493774,13.3865423202515,13.3831596374512,13.3797807693481,13.3764028549194,13.3730268478394,13.3696537017822,13.3662805557251,13.3629083633423,13.3595390319824,13.3561725616455,13.3528089523315,13.3494443893433,13.3460817337036,13.3427209854126,13.3393630981445,13.3360052108765,13.3326511383057,13.3292970657349,13.3259449005127,13.3225917816162,13.3192434310913,13.3158979415894,13.3125524520874,13.3092088699341,13.3058671951294,13.3025245666504,13.299186706543,13.2958498001099,13.2925148010254,13.2891817092896,13.2858486175537,13.2825193405151,13.2791910171509,13.2758636474609,13.2725372314453,13.2692127227783,13.2658920288086,13.2625713348389,13.2592535018921,13.2559366226196,13.2526206970215,13.249306678772,13.2459945678711,13.2426862716675,13.2393779754639,13.2360706329346,13.2327651977539,13.2294607162476,13.2261571884155,13.2228574752808,13.2195596694946,13.2162628173828,13.2129669189453,13.2096719741821,13.2063808441162,13.2030897140503,13.199800491333,13.1965131759644,13.19322681427,13.1899433135986,13.1866626739502,13.1833820343018,13.1801013946533,13.1768226623535,13.1735467910767,13.1702737808228,13.1670017242432,13.1637296676636,13.1604604721069,13.1571931838989,13.1539287567139,13.1506633758545,13.1473989486694,13.1441373825073,13.1408786773682,13.1376209259033,13.1343660354614,13.1311082839966,13.1278562545776,13.1246032714844
3.83798933029175,3.84829044342041,3.858647108078,3.86905956268311,3.87952852249146,3.89005422592163,3.90063714981079,3.91127777099609,3.9219765663147,3.93273425102234,3.9435510635376,3.95442748069763,3.9653639793396,3.97636127471924,3.98741960525513,3.998539686203,4.0097222328186,4.02119302749634,4.03348016738892,4.04584264755249,4.05828094482422,4.07079601287842,4.0833888053894,4.09605932235718,4.10880899429321,4.12163829803467,4.13454818725586,4.14753866195679,4.16061162948608,4.17376661300659,4.18700551986694,4.20032835006714,4.21373653411865,4.22723054885864,4.24081134796143,4.25447940826416,4.26823568344116,4.28208160400391,4.29601764678955,4.31004476547241,4.32416343688965,4.33837509155273,4.35268068313599,4.36694049835205,4.38042259216309,4.39398765563965,4.40763759613037,4.42137241363525,4.43519306182861,4.44910049438477,4.46309518814087,4.4771785736084,4.49135065078735,4.50561285018921,4.51996612548828,4.53441095352173,4.54894876480103,4.56357955932617,4.5783052444458,4.59312629699707,4.60804319381714,4.62305784225464,4.63816976547241,4.65338134765625,4.66869306564331,4.68410587310791,4.69962072372437,4.71523904800415,4.73096132278442,4.7467885017395,4.76272201538086,4.77876281738281,4.79491233825684,4.81117153167725,4.8275408744812,4.84402227401733,4.8606162071228,4.87732458114624,4.89414834976196,4.91108798980713,4.92814588546753,4.94532108306885,4.96261644363403,4.98003339767456,4.9975733757019,5.01523685455322,5.03302574157715,5.05094146728516,5.06898498535156,5.087158203125,5.10546207427979,5.12389802932739,5.1424674987793,5.16117238998413,5.18001365661621,14.2794132232666,14.2755661010742,14.2717237472534,14.2678804397583,14.2640409469604,14.2602033615112,14.2563676834106,14.2525329589844,14.2486991882324,14.2448720932007,14.2410411834717,14.2372169494629,14.2333936691284,14.2295713424683,14.2257528305054,14.2219333648682,14.2181186676025,14.2143049240112,14.2104921340942,14.2066841125488,14.2028760910034,14.1990718841553,14.1952686309814,14.1914663314819,14.1876668930054,14.1838703155518,14.1800756454468,14.1762838363647,14.1724920272827,14.1687030792236,14.1649160385132,14.1611309051514,14.1573457717896,14.1535663604736,14.149787902832,14.1460094451904,14.1422357559204,14.1384620666504,14.1346912384033,14.1309232711792,14.1271562576294,14.1233901977539,14.1196279525757,14.1158676147461,14.1121082305908,14.1083517074585,14.1045980453491,14.1008443832397,14.097092628479,14.0933446884155,14.0895957946777,14.0858526229858,14.0821104049683,14.078369140625,14.0746307373047,14.0708932876587,14.0671586990356,14.0634250640869,14.0596942901611,14.0559644699097,14.0522375106812,14.0485134124756,14.0447902679443,14.041069984436,14.0373497009277,14.0336332321167,14.02991771698,14.0262041091919,14.0224933624268,14.0187835693359,14.0150766372681,14.0113725662231,14.0076684951782,14.0039653778076,14.0002641677856,13.9965686798096,13.9928750991821,13.9891796112061,13.9854888916016,13.9817981719971,13.9781112670898,13.974422454834,13.9707412719727,13.967059135437,13.9633779525757,13.9597015380859,13.9560251235962,13.9523515701294,13.9486789703369,13.9450073242188,13.9413404464722,13.9376726150513,13.9340085983276,13.9303455352783,13.9266834259033,13.9230251312256,13.9193658828735,13.9157104492188,13.9120588302612,13.9084072113037,13.9047584533691,13.9011087417603,13.8974618911743,13.893816947937,13.8901777267456,13.8865365982056,13.8828983306885,13.87926197052,13.8756275177002,13.8719968795776,13.8683662414551,13.8647375106812,13.8611097335815,13.8574848175049,13.8538627624512,13.8502407073975,13.8466215133667,13.8430032730103,13.8393878936768,13.8357753753662,13.83216381073,13.8285531997681,13.8249454498291,13.8213396072388,13.8177347183228,13.8141317367554,13.8105325698853,13.8069353103638,13.8033380508423,13.7997436523438,13.7961502075195,13.7925596237183,13.7889709472656,13.785382270813,13.7817964553833,13.7782135009766,13.7746315002441,13.7710514068604,13.7674751281738,13.7638988494873,13.7603235244751,13.7567510604858,13.7531814575195,13.7496137619019,13.7460441589355,13.7424802780151,13.7389163970947,13.7353553771973,13.7317962646484,13.7282390594482,13.724681854248,13.7211284637451,13.7175769805908,13.7140283584595,13.7104797363281,13.7069330215454,13.7033882141113,13.6998453140259,13.6963052749634,13.6927642822266,13.6892261505127,13.6856899261475,13.6821575164795,13.6786251068115,13.6750955581665,13.6715679168701,13.668041229248,13.6645164489746,13.6609926223755,13.6574745178223,13.6539545059204,13.6504373550415,13.6469221115112,13.6434049606323,13.6398935317993,13.6363840103149,13.6328754425049,13.6293697357178,13.625864982605,13.6223621368408,13.6188611984253,13.6153612136841,13.6118640899658,13.6083679199219,13.6048746109009,13.6013822555542,13.5978927612305,13.5944023132324,13.5909175872803,13.5874300003052,13.5839471817017,13.5804662704468,13.5769882202148,13.5735082626343,13.5700330734253,13.5665588378906,13.5630855560303,13.5596160888672,13.5561485290527,13.5526790618896,13.5492143630981,13.545750617981,13.5422878265381,13.5388288497925,13.5353698730469,13.5319128036499,13.5284585952759,13.5250053405762,13.5215549468994,13.5181064605713,13.5146579742432,13.5112113952637,13.5077676773071,13.5043268203735,13.5008850097656,13.4974451065063,13.4940071105957,13.4905710220337,13.4871368408203,13.4837074279785,13.4802770614624,13.4768476486206,13.4734201431274,13.4699964523315,13.46657371521,13.4631519317627,13.4597330093384,13.4563140869141,13.4528970718384,13.44948387146,13.4460725784302,13.4426593780518,13.4392490386963,13.4358406066895,13.4324350357056,13.4290332794189,13.425630569458,13.4222297668457,13.4188299179077,13.4154319763184,13.4120378494263,13.4086437225342,13.4052515029907,13.4018611907959,13.3984718322754,13.3950834274292,13.3916997909546,13.38831615448,13.3849325180054,13.3815546035767,13.378173828125,13.3747987747192,13.3714227676392,13.3680515289307,13.3646783828735,13.3613090515137,13.3579406738281,13.3545742034912,13.3512105941772,13.347846031189,13.3444833755493,13.3411245346069,13.3377666473389,13.3344116210938,13.3310556411743,13.3277025222778,13.3243522644043,13.3210020065308,13.3176546096802,13.3143081665039,13.3109645843506,13.3076200485229,13.3042802810669,13.3009414672852,13.2976007461548,13.2942638397217,13.2909297943115,13.2875967025757,13.2842655181885,13.2809362411499,13.27760887146,13.2742834091187,13.2709589004517,13.267635345459,13.2643165588379,13.2609958648682,13.2576789855957,13.2543621063232,13.2510471343994,13.2477331161499,13.2444229125977,13.2411136627197,13.2378053665161,13.2344989776611,13.2311935424805,13.2278928756714,13.2245893478394,13.2212905883789,13.2179927825928,13.2146968841553,13.2114019393921,13.2081079483032,13.2048177719116,13.2015266418457,13.1982374191284,13.1949510574341,13.1916666030884,13.188383102417,13.1851015090942,13.1818208694458,13.1785440444946,13.1752681732178,13.1719932556152,13.168719291687,13.1654462814331,13.1621770858765,13.1589069366455,13.1556425094604,13.1523752212524,13.149112701416,13.1458501815796,13.1425876617432,13.139331817627,13.1360721588135,13.1328163146973,13.129563331604,13.1263103485107,13.1230602264404,13.1198120117188,13.1165628433228,13.113317489624,13.1100730895996,13.1068296432495,13.1035900115967,13.1003494262695,13.0971117019653,13.0938749313354,13.0906410217285,13.0874061584473,13.0841770172119,13.0809459686279,13.0777177810669,13.0744905471802,13.0712661743164,13.068042755127,13.0648221969604,13.0616016387939,13.0583810806274,13.0551624298096,13.0519466400146,13.0487327575684,13.045521736145,13.0423097610474,13.039101600647
3.82780623435974,3.83805274963379,3.84835433959961,3.85871124267578,3.86912417411804,3.87959337234497,3.89011931419373,3.90070271492004,3.91134357452393,3.92204284667969,3.93280076980591,3.94361805915833,3.95449471473694,3.96543169021606,3.97642946243286,3.98748826980591,3.99860858917236,4.00979137420654,4.02103662490845,4.03282785415649,4.04518604278564,4.05762052536011,4.07013177871704,4.0827202796936,4.09538698196411,4.10813236236572,4.12095737457275,4.13386249542236,4.14684915542603,4.15991735458374,4.17306804656982,4.18630266189575,4.19962120056152,4.21302461624146,4.22651386260986,4.24008989334106,4.25375366210938,4.26750564575195,4.28134632110596,4.29527759552002,4.3092999458313,4.32341384887695,4.33762073516846,4.35192108154297,4.3663158416748,4.38065814971924,4.39422512054443,4.40787649154663,4.42161273956299,4.43543481826782,4.44934368133545,4.46333980560303,4.47742462158203,4.49159860610962,4.50586223602295,4.52021741867065,4.53466367721558,4.54920291900635,4.56383562088013,4.57856273651123,4.59338521957397,4.60830402374268,4.62332010269165,4.63843393325806,4.65364742279053,4.66896104812622,4.68437528610229,4.69989204406738,4.7155122756958,4.73123598098755,4.74706506729126,4.76300048828125,4.77904367446899,4.79519462585449,4.81145572662354,4.82782697677612,4.84431028366089,4.86090660095215,4.87761688232422,4.89444255828857,4.91138410568237,4.92844390869141,4.94562292098999,4.96292066574097,4.98033952713013,4.9978814125061,5.01554775238037,5.03333902359009,5.05125665664673,5.06930255889893,5.087477684021,5.10578393936157,5.12422227859497,5.14279413223267,5.16150140762329,5.18034505844116,5.19932651519775,14.1706762313843,14.1668872833252,14.1631021499634,14.1593179702759,14.1555347442627,14.1517543792725,14.1479768753052,14.1442022323608,14.1404266357422,14.1366558074951,14.1328859329224,14.1291189193726,14.1253509521484,14.1215877532959,14.1178255081177,14.1140651702881,14.1103076934814,14.1065530776978,14.1027975082397,14.0990476608276,14.0952949523926,14.0915479660034,14.0878038406372,14.0840587615967,14.0803174972534,14.0765771865845,14.0728397369385,14.0691032409668,14.0653696060181,14.0616369247437,14.0579061508179,14.0541791915894,14.0504522323608,14.0467290878296,14.0430068969727,14.0392866134644,14.035569190979,14.0318517684937,14.0281372070312,14.0244264602661,14.0207147598267,14.0170068740845,14.0133008956909,14.009596824646,14.005895614624,14.0021915435791,13.9984951019287,13.994797706604,13.9911041259766,13.9874114990234,13.9837198257446,13.9800329208374,13.9763441085815,13.9726591110229,13.9689750671387,13.9652948379517,13.9616165161133,13.9579391479492,13.9542646408081,13.9505920410156,13.9469203948975,13.9432497024536,13.939582824707,13.9359169006348,13.9322528839111,13.9285926818848,13.9249324798584,13.921275138855,13.9176197052002,13.9139633178711,13.9103116989136,13.9066619873047,13.9030132293701,13.8993673324585,13.8957223892212,13.8920812606812,13.8884382247925,13.8848028182983,13.8811655044556,13.8775272369385,13.8738956451416,13.870265007019,13.8666353225708,13.8630084991455,13.8593835830688,13.8557615280151,13.8521375656128,13.8485174179077,13.8449010848999,13.8412828445435,13.8376712799072,13.8340587615967,13.8304491043091,13.8268413543701,13.8232297897339,13.8196258544922,13.8160228729248,13.8124227523804,13.8088235855103,13.8052244186401,13.8016290664673,13.7980356216431,13.7944450378418,13.7908535003662,13.7872648239136,13.7836799621582,13.7800931930542,13.7765130996704,13.7729320526123,13.7693500518799,13.7657737731934,13.7621984481812,13.7586269378662,13.755054473877,13.7514848709106,13.7479181289673,13.7443504333496,13.7407884597778,13.7372264862061,13.7336654663086,13.7301073074341,13.7265501022339,13.7229948043823,13.7194414138794,13.7158899307251,13.7123403549194,13.7087936401367,13.705246925354,13.7017030715942,13.6981611251831,13.6946220397949,13.6910848617554,13.6875467300415,13.6840124130249,13.6804800033569,13.6769495010376,13.6734189987183,13.6698923110962,13.6663656234741,13.662841796875,13.6593198776245,13.6557998657227,13.6522817611694,13.6487646102905,13.6452503204346,13.6417388916016,13.6382274627686,13.6347179412842,13.6312103271484,13.627703666687,13.6241998672485,13.620698928833,13.6171970367432,13.6136989593506,13.6102018356323,13.6067066192627,13.603214263916,13.599723815918,13.5962343215942,13.5927457809448,13.5892601013184,13.5857753753662,13.5822954177856,13.5788145065308,13.5753345489502,13.5718584060669,13.568380355835,13.5649089813232,13.5614366531372,13.5579671859741,13.5544986724854,13.5510311126709,13.5475673675537,13.5441064834595,13.5406446456909,13.5371856689453,13.5337285995483,13.5302715301514,13.5268182754517,13.5233669281006,13.5199165344238,13.5164651870728,13.5130186080933,13.509575843811,13.5061311721802,13.5026903152466,13.4992504119873,13.4958114624023,13.4923753738403,13.488941192627,13.4855089187622,13.4820785522461,13.4786472320557,13.4752206802368,13.4717950820923,13.4683694839478,13.4649457931519,13.4615259170532,13.4581060409546,13.4546890258789,13.4512748718262,13.4478616714478,13.444450378418,13.4410390853882,13.437629699707,13.4342250823975,13.4308185577393,13.4274158477783,13.4240140914917,13.4206142425537,13.4172143936157,13.4138202667236,13.4104232788086,13.4070310592651,13.4036407470703,13.4002504348755,13.3968629837036,13.3934764862061,13.3900918960571,13.3867082595825,13.3833265304565,13.3799486160278,13.3765726089478,13.3731966018677,13.3698205947876,13.3664474487305,13.363076210022,13.3597087860107,13.3563413619995,13.3529739379883,13.3496112823486,13.3462476730347,13.342887878418,13.3395299911499,13.3361721038818,13.3328161239624,13.3294630050659,13.3261098861694,13.3227615356445,13.319411277771,13.3160629272461,13.3127183914185,13.3093738555908,13.3060331344604,13.3026914596558,13.2993535995483,13.2960166931152,13.2926807403564,13.2893466949463,13.2860155105591,13.2826852798462,13.2793560028076,13.2760286331177,13.2727022171021,13.2693796157837,13.266056060791,13.2627363204956,13.2594175338745,13.2561016082764,13.2527847290039,13.2494735717773,13.2461605072021,13.2428503036499,13.239541053772,13.236234664917,13.2329301834106,13.2296257019043,13.2263231277466,13.2230205535889,13.2197217941284,13.2164258956909,13.2131309509277,13.2098369598389,13.20654296875,13.2032527923584,13.1999645233154,13.1966772079468,13.1933908462524,13.1901073455811,13.1868238449097,13.1835441589355,13.1802644729614,13.1769866943359,13.1737098693848,13.1704359054565,13.1671628952026,13.1638917922974,13.1606245040894,13.1573553085327,13.154088973999,13.1508235931396,13.1475610733032,13.1443004608154,13.1410417556763,13.1377830505371,13.1345262527466,13.1312713623047,13.1280164718628,13.1247663497925,13.1215162277222,13.1182680130005,13.1150217056274,13.1117753982544,13.1085319519043,13.1052904129028,13.10205078125,13.0988121032715,13.0955724716187,13.0923385620117,13.0891056060791,13.0858736038208,13.0826406478882,13.0794124603271,13.0761833190918,13.0729579925537,13.0697336196899,13.0665102005005,13.0632905960083,13.0600700378418,13.0568513870239,13.0536365509033,13.0504198074341,13.0472068786621,13.0439958572388,13.0407857894897,13.0375776290894,13.0343685150146,13.0311641693115,13.0279598236084,13.0247573852539,13.0215559005737,13.0183591842651,13.0151615142822,13.0119638442993,13.0087699890137,13.0055780410767,13.0023860931396,12.9991979598999,12.9960088729858,12.9928226470947,12.9896354675293,12.9864521026611,12.9832725524902,12.9800910949707,12.9769105911255,12.9737348556519,12.9705581665039,12.9673852920532,12.9642124176025,12.9610414505005,12.9578704833984,12.9547033309937
3.81767725944519,3.8278694152832,3.83811616897583,3.84841823577881,3.85877537727356,3.8691885471344,3.87965822219849,3.89018440246582,3.9007682800293,3.91140961647034,3.92210912704468,3.93286752700806,3.94368505477905,3.95456218719482,3.96549940109253,3.97649741172791,3.98755669593811,3.99867749214172,4.00986051559448,4.02110624313354,4.03241539001465,4.04452991485596,4.05696058273315,4.06946754455566,4.0820517539978,4.09471416473389,4.10745573043823,4.12027645111084,4.13317728042603,4.14615964889526,4.15922355651855,4.17236995697021,4.18559980392456,4.19891405105591,4.21231317520142,4.22579765319824,4.23936939239502,4.25302791595459,4.26677513122559,4.28061151504517,4.29453802108765,4.30855512619019,4.32266426086426,4.33686637878418,4.35116147994995,4.36555147171021,4.38003730773926,4.39446210861206,4.40811491012573,4.42185258865356,4.43567657470703,4.44958686828613,4.46358489990234,4.47767114639282,4.49184656143188,4.50611162185669,4.52046823501587,4.53491640090942,4.54945707321167,4.56409168243408,4.57882022857666,4.59364461898804,4.60856485366821,4.62358236312866,4.63869857788086,4.6539134979248,4.66922855377197,4.68464517593384,4.7001633644104,4.71578550338745,4.73151063919067,4.74734210968018,4.7632794380188,4.77932405471802,4.79547739028931,4.81173992156982,4.8281135559082,4.84459829330444,4.86119651794434,4.87790870666504,4.89473676681519,4.91168069839478,4.92874240875244,4.94592332839966,4.96322441101074,4.98064661026001,4.99818992614746,5.0158576965332,5.03365135192871,5.05157136917114,5.06961965560913,5.08779716491699,5.10610580444336,5.12454605102539,5.14312076568604,5.16182994842529,5.18067598342896,5.1996603012085,5.21878433227539,14.0635786056519,14.0598478317261,14.0561208724976,14.0523948669434,14.0486698150635,14.0449447631836,14.0412244796753,14.0375061035156,14.0337867736816,14.0300722122192,14.0263576507568,14.0226459503174,14.0189390182495,14.0152311325073,14.0115251541138,14.0078210830688,14.0041208267212,14.0004205703735,13.9967231750488,13.9930276870728,13.989333152771,13.9856424331665,13.9819526672363,13.9782648086548,13.9745798110962,13.970892906189,13.9672117233276,13.9635324478149,13.9598531723022,13.9561786651611,13.95250415802,13.9488325119019,13.945161819458,13.9414920806885,13.9378271102905,13.9341602325439,13.9305000305176,13.9268379211426,13.9231796264648,13.9195222854614,13.915867805481,13.9122133255005,13.908561706543,13.9049139022827,13.9012660980225,13.8976211547852,13.8939790725708,13.8903341293335,13.8866968154907,13.8830556869507,13.8794202804565,13.8757886886597,13.8721542358398,13.8685255050659,13.8648977279663,13.861270904541,13.8576469421387,13.8540239334106,13.8504018783569,13.8467845916748,13.843168258667,13.8395528793335,13.8359403610229,13.832329750061,13.8287200927734,13.8251123428345,13.8215055465698,13.8179006576538,13.8143005371094,13.8107004165649,13.8071031570435,13.803505897522,13.7999124526978,13.7963209152222,13.7927274703979,13.7891387939453,13.7855529785156,13.7819681167603,13.7783851623535,13.7748031616211,13.7712240219116,13.7676467895508,13.7640705108643,13.760498046875,13.7569236755371,13.7533550262451,13.7497863769531,13.7462205886841,13.7426567077637,13.7390928268433,13.7355327606201,13.7319707870483,13.7284164428711,13.7248592376709,13.7213068008423,13.7177534103394,13.7142038345337,13.710654258728,13.7071084976196,13.7035655975342,13.7000226974487,13.6964797973633,13.6929397583008,13.6894025802612,13.685866355896,13.6823348999023,13.6788005828857,13.6752700805664,13.6717433929443,13.6682167053223,13.6646938323975,13.6611700057983,13.6576490402222,13.6541290283203,13.6506109237671,13.6470947265625,13.6435813903809,13.6400690078735,13.6365585327148,13.6330509185791,13.6295433044434,13.6260395050049,13.6225347518921,13.6190347671509,13.6155338287354,13.6120376586914,13.6085433959961,13.6050500869751,13.6015567779541,13.5980672836304,13.5945768356323,13.5910892486572,13.5876045227051,13.5841207504272,13.5806398391724,13.5771589279175,13.5736808776855,13.5702066421509,13.5667314529419,13.5632591247559,13.5597877502441,13.5563192367554,13.5528516769409,13.5493879318237,13.5459241867065,13.542459487915,13.5390005111694,13.5355405807495,13.5320863723755,13.5286312103271,13.5251779556274,13.5217266082764,13.5182771682739,13.5148296356201,13.5113830566406,13.5079393386841,13.5044965744019,13.5010557174683,13.4976167678833,13.4941806793213,13.490743637085,13.4873094558716,13.4838781356812,13.4804458618164,13.4770174026489,13.4735918045044,13.4701671600342,13.4667434692383,13.4633226394653,13.4599027633667,13.4564847946167,13.453067779541,13.4496536254883,13.4462413787842,13.4428262710571,13.4394187927246,13.4360113143921,13.4326038360596,13.4292001724243,13.4257984161377,13.4223976135254,13.4190006256104,13.4156017303467,13.4122066497803,13.4088134765625,13.4054193496704,13.4020299911499,13.3986415863037,13.3952550888062,13.39186668396,13.3884840011597,13.3851013183594,13.381721496582,13.378342628479,13.3749666213989,13.3715906143188,13.368218421936,13.3648471832275,13.3614768981934,13.3581075668335,13.3547430038452,13.3513774871826,13.3480138778687,13.3446521759033,13.3412914276123,13.3379335403442,13.3345766067505,13.3312215805054,13.3278703689575,13.3245191574097,13.3211679458618,13.3178205490112,13.314474105835,13.3111295700073,13.3077869415283,13.3044462203979,13.3011054992676,13.2977685928345,13.2944307327271,13.2910966873169,13.2877635955811,13.2844314575195,13.2811031341553,13.2777738571167,13.2744474411011,13.2711238861084,13.26780128479,13.2644815444946,13.2611618041992,13.2578420639038,13.25452709198,13.2512130737305,13.2478981018066,13.2445869445801,13.2412776947021,13.2379684448242,13.2346630096436,13.2313594818115,13.2280550003052,13.2247533798218,13.2214546203613,13.2181577682495,13.2148599624634,13.2115650177002,13.2082719802856,13.2049798965454,13.2016906738281,13.1984024047852,13.1951160430908,13.1918296813965,13.1885461807251,13.185263633728,13.1819858551025,13.1787080764771,13.1754302978516,13.1721544265747,13.1688823699951,13.1656103134155,13.1623392105103,13.1590719223022,13.1558036804199,13.1525363922119,13.1492729187012,13.1460123062134,13.1427507400513,13.1394920349121,13.1362342834473,13.1329793930054,13.1297264099121,13.1264734268188,13.1232213973999,13.1199722290039,13.1167240142822,13.1134796142578,13.1102352142334,13.1069917678833,13.1037502288818,13.1005096435547,13.0972709655762,13.0940370559692,13.0908012390137,13.0875692367554,13.0843353271484,13.0811052322388,13.0778789520264,13.0746517181396,13.0714273452759,13.0682039260864,13.064980506897,13.0617609024048,13.0585412979126,13.0553226470947,13.0521068572998,13.0488920211792,13.0456800460815,13.0424699783325,13.0392608642578,13.0360536575317,13.0328464508057,13.0296401977539,13.0264387130737,13.0232381820679,13.020037651062,13.0168409347534,13.0136423110962,13.0104446411133,13.007251739502,13.0040597915649,13.0008697509766,12.9976816177368,12.9944934844971,12.991307258606,12.9881238937378,12.9849414825439,12.9817600250244,12.9785814285278,12.9754037857056,12.9722261428833,12.969051361084,12.9658756256104,12.9627056121826,12.9595327377319,12.9563655853271,12.9531984329224,12.9500331878662,12.9468698501587,12.9437065124512,12.9405460357666,12.937385559082,12.9342288970947,12.9310731887817,12.9279174804688,12.9247646331787,12.9216136932373,12.9184627532959,12.9153127670288,12.912166595459,12.9090204238892,12.905876159668,12.9027338027954,12.8995933532715,12.8964538574219,12.8933162689209,12.8901777267456,12.8870439529419,12.8839120864868,12.8807802200317,12.877649307251,12.8745193481445,12.8713912963867
3.80760145187378,3.81773996353149,3.82793259620667,3.83817958831787,3.84848189353943,3.85883951187134,3.86925315856934,3.879723072052,3.89024972915649,3.90083360671997,3.91147541999817,3.92217540740967,3.93293404579163,3.94375205039978,3.95462965965271,3.96556735038757,3.97656559944153,3.98762512207031,3.99874639511108,4.00992965698242,4.02117586135864,4.0324854850769,4.04387426376343,4.0563006401062,4.06880331039429,4.08138370513916,4.09404182434082,4.10677909851074,4.11959552764893,4.13249254226685,4.1454701423645,4.15852975845337,4.17167186737061,4.18489742279053,4.19820690155029,4.21160125732422,4.22508192062378,4.23864841461182,4.25230264663696,4.26604557037354,4.27987718582153,4.29379844665527,4.30781078338623,4.32191514968872,4.3361120223999,4.35040235519409,4.36478757858276,4.37926816940308,4.39384460449219,4.40835380554199,4.4220929145813,4.43591833114624,4.44983005523682,4.4638295173645,4.47791719436646,4.49209403991699,4.50636148452759,4.52071905136108,4.53516912460327,4.54971122741699,4.56434726715088,4.57907772064209,4.59390354156494,4.60882568359375,4.62384510040283,4.6389627456665,4.65417957305908,4.66949653625488,4.68491458892822,4.70043468475342,4.71605825424194,4.73178577423096,4.74761867523193,4.76355791091919,4.77960443496704,4.79575967788696,4.81202411651611,4.82839965820312,4.84488677978516,4.86148691177368,4.87820100784302,4.8950309753418,4.91197681427002,4.92904090881348,4.94622373580933,4.96352672576904,4.9809513092041,4.99849843978882,5.01616859436035,5.03396415710449,5.05188655853271,5.06993675231934,5.08811712265015,5.10642766952515,5.12487030029297,5.1434473991394,5.16215896606445,5.18100786209106,5.1999945640564,5.21912050247192,5.23838806152344,13.9580917358398,13.9544172286987,13.9507446289062,13.9470729827881,13.9434041976929,13.939733505249,13.9360704421997,13.9324064254761,13.9287433624268,13.925085067749,13.9214267730713,13.9177703857422,13.9141178131104,13.9104633331299,13.906813621521,13.9031639099121,13.8995180130005,13.8958759307861,13.8922319412231,13.8885927200317,13.884952545166,13.8813152313232,13.8776798248291,13.8740472793579,13.870415687561,13.8667879104614,13.8631610870361,13.8595342636108,13.8559112548828,13.8522901535034,13.848669052124,13.8450508117676,13.8414344787598,13.8378219604492,13.8342094421387,13.8305988311768,13.8269910812378,13.8233842849731,13.8197784423828,13.8161764144897,13.8125743865967,13.8089761734009,13.8053779602051,13.8017845153809,13.798189163208,13.7945995330811,13.7910079956055,13.7874202728271,13.7838344573975,13.7802495956421,13.776668548584,13.7730894088745,13.769510269165,13.7659339904785,13.7623567581177,13.7587852478027,13.7552146911621,13.7516441345215,13.7480773925781,13.7445116043091,13.740948677063,13.7373886108398,13.7338266372681,13.7302675247192,13.7267112731934,13.7231559753418,13.7196054458618,13.7160539627075,13.7125062942505,13.7089586257935,13.7054128646851,13.7018671035767,13.6983261108398,13.6947889328003,13.6912508010864,13.6877136230469,13.684178352356,13.6806478500366,13.6771183013916,13.6735868453979,13.6700601577759,13.6665353775024,13.6630115509033,13.6594905853271,13.6559715270996,13.6524534225464,13.6489353179932,13.6454210281372,13.6419105529785,13.6383981704712,13.6348905563354,13.6313819885254,13.6278781890869,13.6243724822998,13.6208724975586,13.6173725128174,13.6138725280762,13.6103773117065,13.6068820953369,13.6033887863159,13.5998964309692,13.5964069366455,13.5929203033447,13.5894346237183,13.5859498977661,13.5824670791626,13.5789861679077,13.5755071640015,13.5720319747925,13.5685558319092,13.5650806427002,13.5616102218628,13.5581378936768,13.5546731948853,13.5512056350708,13.5477409362793,13.5442781448364,13.5408163070679,13.5373563766479,13.5339002609253,13.5304441452026,13.5269908905029,13.5235385894775,13.5200872421265,13.516637802124,13.5131921768188,13.5097465515137,13.5063028335571,13.5028600692749,13.4994211196899,13.4959831237793,13.4925470352173,13.4891119003296,13.4856786727905,13.4822473526001,13.4788188934326,13.4753904342651,13.4719657897949,13.4685411453247,13.4651165008545,13.4616956710815,13.4582777023315,13.4548597335815,13.4514436721802,13.4480295181274,13.444619178772,13.4412088394165,13.4377994537354,13.4343938827515,13.4309892654419,13.427583694458,13.4241847991943,13.4207849502563,13.4173851013184,13.4139881134033,13.4105920791626,13.4071998596191,13.40380859375,13.4004192352295,13.3970317840576,13.3936452865601,13.3902597427368,13.3868789672852,13.3834962844849,13.3801174163818,13.3767395019531,13.3733644485474,13.3699884414673,13.3666152954102,13.363245010376,13.3598756790161,13.3565073013306,13.3531427383423,13.3497791290283,13.3464155197144,13.3430547714233,13.3396968841553,13.3363380432129,13.3329839706421,13.3296308517456,13.3262786865234,13.3229274749756,13.3195762634277,13.3162288665771,13.3128852844238,13.3095407485962,13.3061990737915,13.3028583526611,13.2995185852051,13.296181678772,13.2928476333618,13.289514541626,13.2861804962158,13.2828512191772,13.2795209884644,13.2761945724487,13.2728700637817,13.2695455551147,13.2662229537964,13.2629013061523,13.2595825195312,13.2562675476074,13.252950668335,13.2496366500854,13.2463235855103,13.2430152893066,13.2397079467773,13.2363986968994,13.2330932617188,13.2297897338867,13.2264862060547,13.2231845855713,13.2198867797852,13.2165899276733,13.2132930755615,13.2099990844727,13.2067070007324,13.2034177780151,13.2001285552979,13.1968402862549,13.1935548782349,13.1902704238892,13.1869888305664,13.1837072372437,13.1804275512695,13.1771507263184,13.1738729476929,13.1705980300903,13.1673278808594,13.1640558242798,13.1607856750488,13.1575183868408,13.1542520523071,13.1509866714478,13.1477251052856,13.1444644927979,13.1412029266357,13.1379451751709,13.1346864700317,13.1314344406128,13.1281795501709,13.124927520752,13.1216764450073,13.11842918396,13.1151828765869,13.1119375228882,13.1086931228638,13.1054515838623,13.1022109985352,13.0989723205566,13.0957355499268,13.0925006866455,13.0892648696899,13.086033821106,13.0828018188477,13.0795726776123,13.0763444900513,13.0731182098389,13.0698928833008,13.0666704177856,13.0634489059448,13.060230255127,13.0570125579834,13.0537948608398,13.0505809783936,13.0473670959473,13.0441560745239,13.0409460067749,13.0377368927002,13.0345277786255,13.031322479248,13.0281190872192,13.0249176025391,13.0217161178589,13.0185174942017,13.0153188705444,13.0121231079102,13.0089292526245,13.0057363510132,13.0025453567505,12.9993562698364,12.996166229248,12.9929790496826,12.9897966384888,12.9866104125977,12.9834299087524,12.9802494049072,12.9770679473877,12.9738931655884,12.9707174301147,12.9675436019897,12.9643697738647,12.961199760437,12.9580297470093,12.9548616409302,12.9516944885254,12.9485301971436,12.945366859436,12.9422035217285,12.9390439987183,12.9358863830566,12.9327278137207,12.9295721054077,12.9264192581177,12.9232664108276,12.9201154708862,12.9169654846191,12.9138174057007,12.9106721878052,12.9075260162354,12.9043846130371,12.9012422561646,12.8981018066406,12.8949613571167,12.89182472229,12.888689994812,12.8855543136597,12.8824214935303,12.8792915344238,12.8761615753174,12.8730335235596,12.8699073791504,12.8667831420898,12.8636598587036,12.8605375289917,12.8574161529541,12.8542985916138,12.8511791229248,12.8480625152588,12.8449478149414,12.841835975647,12.8387231826782,12.8356151580811,12.8325080871582,12.8293991088867,12.8262939453125,12.8231906890869,12.8200883865356,12.8169870376587,12.8138885498047,12.8107900619507,12.8076944351196,12.8045959472656,12.8015050888062,12.798412322998,12.7953224182129,12.7922334671021,12.7891454696655
3.79757881164551,3.8076639175415,3.8178026676178,3.82799553871155,3.83824324607849,3.84854578971863,3.85890364646912,3.86931753158569,3.87978792190552,3.89031505584717,3.9008994102478,3.91154146194458,3.92224168777466,3.93300080299377,3.94381880760193,3.95469689369202,3.96563506126404,3.97663378715515,3.98769378662109,3.99881529808044,4.00999927520752,4.0212459564209,4.03255558013916,4.04392910003662,4.05564069747925,4.06813955307007,4.08071565628052,4.09336996078491,4.10610294342041,4.11891508102417,4.13180780410767,4.1447811126709,4.15783643722534,4.17097425460815,4.18419551849365,4.19750022888184,4.21089029312134,4.22436618804932,4.23792839050293,4.25157785415649,4.26531553268433,4.27914237976074,4.29305934906006,4.30706691741943,4.32116603851318,4.33535814285278,4.34964370727539,4.36402368545532,4.37849903106689,4.39307069778442,4.40773963928223,4.42233324050903,4.43615961074829,4.4500732421875,4.46407413482666,4.47816371917725,4.49234199523926,4.50661039352417,4.52097034454346,4.53542137145996,4.54996585845947,4.56460332870483,4.57933521270752,4.594162940979,4.60908651351929,4.624107837677,4.63922691345215,4.65444564819336,4.66976451873779,4.68518400192261,4.70070648193359,4.71633148193359,4.73206090927124,4.74789571762085,4.76383686065674,4.77988529205322,4.79604196548462,4.81230878829956,4.82868576049805,4.84517526626587,4.86177730560303,4.878493309021,4.89532518386841,4.91227340698242,4.92933940887451,4.94652414321899,4.9638295173645,4.98125600814819,4.9988055229187,5.0164794921875,5.03427791595459,5.05220174789429,5.0702543258667,5.08843660354614,5.10674953460693,5.12519454956055,5.14377403259277,5.16248798370361,5.18133878707886,5.20032787322998,5.21945667266846,5.23872709274292,5.25813961029053,13.854175567627,13.8505544662476,13.8469352722168,13.8433179855347,13.8397035598755,13.8360900878906,13.8324794769287,13.8288698196411,13.8252630233765,13.8216581344604,13.8180513381958,13.8144493103027,13.8108510971069,13.8072528839111,13.803656578064,13.8000612258911,13.7964696884155,13.7928791046143,13.7892894744873,13.785701751709,13.7821178436279,13.7785348892212,13.7749528884888,13.7713737487793,13.7677965164185,13.7642211914062,13.760645866394,13.7570724487305,13.7535037994385,13.7499351501465,13.7463684082031,13.742805480957,13.7392425537109,13.7356805801392,13.7321214675903,13.7285633087158,13.7250080108643,13.7214546203613,13.7179040908813,13.7143535614014,13.7108058929443,13.7072601318359,13.7037143707275,13.7001714706421,13.6966304779053,13.6930923461914,13.6895551681519,13.6860198974609,13.682487487793,13.6789541244507,13.67542552948,13.6718978881836,13.6683712005615,13.6648473739624,13.6613245010376,13.6578035354614,13.6542854309082,13.6507682800293,13.647253036499,13.6437368392944,13.6402263641357,13.6367177963257,13.6332092285156,13.6297025680542,13.6261987686157,13.6226968765259,13.619194984436,13.6156959533691,13.6121988296509,13.6087026596069,13.6052103042603,13.6017169952393,13.5982275009155,13.5947399139404,13.591254234314,13.5877704620361,13.5842838287354,13.5808057785034,13.5773267745972,13.5738477706909,13.5703725814819,13.5668973922729,13.5634250640869,13.5599565505981,13.5564870834351,13.5530204772949,13.5495538711548,13.5460910797119,13.5426292419434,13.5391702651978,13.5357122421265,13.5322561264038,13.5288000106812,13.5253477096558,13.521897315979,13.5184497833252,13.5150003433228,13.5115556716919,13.5081100463867,13.5046663284302,13.5012273788452,13.4977893829346,13.4943513870239,13.490912437439,13.4874792098999,13.4840478897095,13.4806184768677,13.4771890640259,13.473762512207,13.4703369140625,13.4669122695923,13.463493347168,13.460072517395,13.456654548645,13.4532375335693,13.4498224258423,13.4464111328125,13.4429998397827,13.4395895004272,13.4361810684204,13.4327735900879,13.429370880127,13.4259691238403,13.4225673675537,13.4191675186157,13.4157695770264,13.4123754501343,13.4089822769165,13.405590057373,13.4021987915039,13.3988094329834,13.3954219818115,13.3920345306396,13.3886518478394,13.3852701187134,13.3818893432617,13.3785104751587,13.3751335144043,13.3717584609985,13.36838722229,13.3650150299072,13.3616437911987,13.3582754135132,13.3549089431763,13.3515462875366,13.3481817245483,13.3448190689087,13.3414573669434,13.3380994796753,13.3347454071045,13.3313894271851,13.3280372619629,13.3246850967407,13.3213348388672,13.3179874420166,13.3146419525146,13.3112964630127,13.3079528808594,13.3046112060547,13.3012714385986,13.2979345321655,13.2945976257324,13.2912616729736,13.2879285812378,13.2845973968506,13.2812690734863,13.2779417037964,13.2746143341064,13.2712898254395,13.2679672241211,13.2646446228027,13.2613258361816,13.2580080032349,13.2546911239624,13.2513771057129,13.2480640411377,13.2447519302368,13.2414426803589,13.2381343841553,13.2348279953003,13.2315216064453,13.2282199859619,13.2249183654785,13.2216186523438,13.2183208465576,13.2150230407715,13.2117280960083,13.2084379196167,13.2051448822021,13.2018537521362,13.1985645294189,13.1952772140503,13.1919937133789,13.1887111663818,13.1854276657104,13.1821489334106,13.1788702011108,13.1755933761597,13.1723184585571,13.1690454483032,13.165771484375,13.1625032424927,13.159234046936,13.1559658050537,13.1527013778687,13.149435043335,13.1461734771729,13.1429128646851,13.1396532058716,13.1363973617554,13.1331405639648,13.1298875808716,13.1266355514526,13.1233835220337,13.1201343536377,13.1168870925903,13.1136407852173,13.1103973388672,13.1071538925171,13.103910446167,13.1006717681885,13.0974340438843,13.0941972732544,13.0909605026245,13.0877275466919,13.0844964981079,13.0812673568726,13.0780382156372,13.0748119354248,13.0715856552124,13.0683631896973,13.0651426315308,13.0619201660156,13.0587015151978,13.0554828643799,13.052267074585,13.0490531921387,13.045841217041,13.0426301956177,13.0394201278687,13.0362129211426,13.0330066680908,13.0298013687134,13.0265979766846,13.0233974456787,13.0201978683472,13.0169982910156,13.013801574707,13.0106039047241,13.0074119567871,13.0042190551758,13.0010280609131,12.997838973999,12.9946537017822,12.9914665222168,12.9882822036743,12.9851007461548,12.9819183349609,12.9787397384644,12.9755611419678,12.9723844528198,12.9692096710205,12.9660358428955,12.9628610610962,12.9596920013428,12.9565238952637,12.9533557891846,12.9501914978027,12.9470272064209,12.9438638687134,12.9407033920288,12.9375438690186,12.9343843460083,12.9312286376953,12.928074836731,12.9249210357666,12.9217691421509,12.9186172485352,12.9154682159424,12.9123210906982,12.9091777801514,12.9060325622559,12.902889251709,12.8997497558594,12.8966093063354,12.8934717178345,12.8903369903564,12.8872003555298,12.8840675354004,12.880934715271,12.8778057098389,12.8746776580811,12.8715486526489,12.8684225082397,12.8652973175049,12.8621740341187,12.8590536117554,12.8559350967407,12.8528165817261,12.8496990203857,12.8465843200684,12.8434705734253,12.8403587341309,12.8372468948364,12.8341388702393,12.8310298919678,12.8279218673706,12.824818611145,12.8217163085938,12.8186130523682,12.8155136108398,12.8124160766602,12.8093166351318,12.8062219619751,12.8031282424927,12.8000354766846,12.7969446182251,12.7938537597656,12.7907667160034,12.7876796722412,12.784595489502,12.7815084457397,12.7784271240234,12.7753467559814,12.7722682952881,12.7691898345947,12.76611328125,12.7630386352539,12.7599649429321,12.7568941116333,12.7538242340088,12.7507543563843,12.7476863861084,12.7446203231812,12.7415561676025,12.7384929656982,12.7354307174683,12.7323703765869,12.7293128967285,12.7262554168701,12.7231998443604,12.7201461791992,12.7170925140381,12.7140417098999,12.7109909057617,12.7079429626465
3.78760862350464,3.79764080047607,3.80772638320923,3.8178653717041,3.82805871963501,3.83830666542053,3.84860944747925,3.85896778106689,3.86938214302063,3.87985277175903,3.89038014411926,3.90096473693848,3.91160726547241,3.92230796813965,3.93306732177734,3.94388604164124,3.9547643661499,3.9657027721405,3.97670197486877,3.9877622127533,3.9988842010498,4.01006841659546,4.021315574646,4.03262567520142,4.04399967193604,4.05543804168701,4.06747627258301,4.08004808425903,4.092698097229,4.10542678833008,4.11823511123657,4.13112306594849,4.14409255981445,4.15714359283447,4.1702766418457,4.18349313735962,4.19679403305054,4.21017932891846,4.22365045547485,4.23720836639404,4.25085306167603,4.26458644866943,4.27840852737427,4.29232025146484,4.30632305145264,4.3204174041748,4.33460474014282,4.34888505935669,4.36325979232788,4.37773036956787,4.39229679107666,4.40696048736572,4.42172288894653,4.4364013671875,4.45031642913818,4.46431875228882,4.47840976715088,4.49258995056152,4.50686025619507,4.52122116088867,4.53567409515381,4.55022001266479,4.56485939025879,4.57959270477295,4.59442234039307,4.60934782028198,4.62437057495117,4.63949155807495,4.65471172332764,4.67003202438354,4.68545389175415,4.70097780227661,4.71660470962524,4.73233604431152,4.74817276000977,4.76411533355713,4.78016567230225,4.79632472991943,4.81259298324585,4.82897233963013,4.84546327590942,4.86206769943237,4.87878561019897,4.89561939239502,4.91256999969482,4.92963790893555,4.94682455062866,4.9641318321228,4.98156070709229,4.99911260604858,5.01678848266602,5.03458976745605,5.05251741409302,5.0705714225769,5.08875608444214,5.10707139968872,5.12551927566528,5.14410066604614,5.16281700134277,5.18167018890381,5.20066165924072,5.21979331970215,5.23906564712524,5.2584810256958,5.27804088592529,13.7517929077148,13.7482252120972,13.7446603775024,13.7410955429077,13.7375364303589,13.7339754104614,13.7304162979126,13.7268600463867,13.7233047485352,13.7197523117065,13.7162017822266,13.7126531600952,13.7091045379639,13.7055606842041,13.702018737793,13.6984748840332,13.6949348449707,13.6913957595825,13.6878604888916,13.6843271255493,13.6807947158813,13.6772651672363,13.6737337112427,13.6702060699463,13.6666831970215,13.6631574630737,13.6596384048462,13.6561164855957,13.6525993347168,13.6490840911865,13.6455698013306,13.6420545578003,13.6385440826416,13.6350364685059,13.6315279006958,13.6280241012573,13.6245212554932,13.621018409729,13.6175203323364,13.6140193939209,13.610523223877,13.607029914856,13.6035356521606,13.6000452041626,13.5965566635132,13.5930709838867,13.5895853042603,13.5860977172852,13.5826177597046,13.5791358947754,13.5756587982178,13.5721817016602,13.5687065124512,13.5652351379395,13.5617618560791,13.5582942962646,13.5548257827759,13.5513582229614,13.5478954315186,13.5444326400757,13.5409717559814,13.5375127792358,13.5340547561646,13.5306015014648,13.5271453857422,13.5236949920654,13.5202445983887,13.5167961120605,13.5133504867554,13.5099039077759,13.506462097168,13.5030202865601,13.4995813369751,13.4961442947388,13.4927062988281,13.4892730712891,13.4858388900757,13.4824094772339,13.4789819717407,13.4755525588989,13.4721269607544,13.4687032699585,13.4652805328369,13.461859703064,13.4584426879883,13.4550256729126,13.4516105651855,13.4481973648071,13.444785118103,13.4413738250732,13.437967300415,13.4345588684082,13.4311561584473,13.4277515411377,13.4243516921997,13.4209518432617,13.4175539016724,13.4141569137573,13.4107608795166,13.4073686599731,13.403977394104,13.4005870819092,13.397198677063,13.3938140869141,13.3904294967651,13.3870458602905,13.3836641311646,13.3802852630615,13.3769054412842,13.3735322952271,13.3701572418213,13.3667821884155,13.363410949707,13.3600416183472,13.3566770553589,13.3533096313477,13.3499450683594,13.3465824127197,13.3432216644287,13.339864730835,13.3365068435669,13.3331518173218,13.3297958374023,13.3264446258545,13.3230934143066,13.3197450637817,13.3163967132568,13.3130521774292,13.3097066879272,13.3063640594482,13.3030261993408,13.2996864318848,13.2963485717773,13.2930116653442,13.2896795272827,13.2863464355469,13.2830152511597,13.2796878814697,13.2763605117798,13.2730350494385,13.2697095870972,13.2663869857788,13.2630672454834,13.2597484588623,13.2564315795898,13.2531147003174,13.2498016357422,13.2464914321899,13.2431802749634,13.2398700714111,13.2365636825562,13.2332572937012,13.2299547195435,13.2266521453857,13.2233505249023,13.2200517654419,13.2167539596558,13.2134580612183,13.2101640701294,13.2068719863892,13.2035808563232,13.2002906799316,13.197003364563,13.1937189102173,13.1904344558716,13.1871519088745,13.1838693618774,13.1805896759033,13.1773128509521,13.1740369796753,13.1707620620728,13.1674890518188,13.1642179489136,13.1609487533569,13.1576805114746,13.1544151306152,13.1511487960815,13.1478862762451,13.144624710083,13.1413650512695,13.138108253479,13.1348495483398,13.1315956115723,13.1283416748047,13.1250886917114,13.1218404769897,13.1185903549194,13.1153430938721,13.112096786499,13.1088533401489,13.1056137084961,13.1023731231689,13.0991334915161,13.0958957672119,13.092658996582,13.0894250869751,13.0861940383911,13.0829629898071,13.0797328948975,13.0765056610107,13.073278427124,13.0700540542603,13.0668325424194,13.0636100769043,13.0603904724121,13.0571718215942,13.053955078125,13.0507411956787,13.0475282669067,13.0443153381348,13.0411052703857,13.037896156311,13.0346899032593,13.0314836502075,13.0282793045044,13.0250768661499,13.0218753814697,13.0186767578125,13.0154790878296,13.0122833251953,13.009087562561,13.005895614624,13.002703666687,12.9995145797729,12.9963264465332,12.9931392669678,12.989953994751,12.9867687225342,12.983585357666,12.9804077148438,12.9772291183472,12.9740495681763,12.970874786377,12.967700958252,12.9645290374756,12.9613571166992,12.9581871032715,12.9550199508667,12.9518518447876,12.9486865997314,12.9455242156982,12.9423637390137,12.9391994476318,12.9360427856445,12.9328861236572,12.9297304153442,12.9265756607056,12.9234237670898,12.9202718734741,12.917121887207,12.9139738082886,12.9108285903931,12.9076824188232,12.904541015625,12.9013986587524,12.8982572555542,12.8951177597046,12.8919801712036,12.8888444900513,12.8857097625732,12.8825778961182,12.879448890686,12.8763179779053,12.8731908798218,12.8700618743896,12.8669366836548,12.8638143539429,12.8606929779053,12.857572555542,12.854453086853,12.8513345718384,12.8482179641724,12.8451042175293,12.8419914245605,12.8388805389404,12.835768699646,12.8326597213745,12.829553604126,12.8264493942261,12.8233442306519,12.8202419281006,12.8171415328979,12.8140420913696,12.8109436035156,12.8078479766846,12.8047504425049,12.8016567230225,12.7985668182373,12.7954750061035,12.7923879623413,12.7892990112305,12.7862129211426,12.7831296920776,12.7800464630127,12.7769651412964,12.7738847732544,12.7708053588867,12.767728805542,12.7646532058716,12.7615785598755,12.758505821228,12.7554349899292,12.7523641586304,12.7492961883545,12.7462291717529,12.7431650161743,12.74010181427,12.7370376586914,12.7339773178101,12.7309188842773,12.7278604507446,12.7248048782349,12.7217493057251,12.7186965942383,12.7156410217285,12.7125911712646,12.7095432281494,12.7064952850342,12.7034492492676,12.7004041671753,12.6973600387573,12.6943187713623,12.6912794113159,12.6882400512695,12.6852025985718,12.6821670532227,12.6791324615479,12.676100730896,12.6730680465698,12.6700382232666,12.6670093536377,12.6639804840088,12.6609554290771,12.6579303741455,12.6549081802368,12.6518859863281,12.6488666534424,12.6458463668823,12.6428318023682,12.6398153305054,12.6368007659912,12.6337881088257,12.6307764053345,12.6277656555176
3.77769088745117,3.78767061233521,3.79770302772522,3.80778884887695,3.81792831420898,3.82812190055847,3.83837008476257,3.84867334365845,3.85903191566467,3.86944651603699,3.87991762161255,3.89044523239136,3.90103054046631,3.91167330741882,3.92237424850464,3.93313407897949,3.94395303726196,3.95483160018921,3.96577048301697,3.97676992416382,3.9878306388855,3.99895310401917,4.0101375579834,4.02138519287109,4.03269577026367,4.04407024383545,4.05550861358643,4.06701278686523,4.07938051223755,4.09202671051025,4.1047511100769,4.11755514144897,4.13043928146362,4.14340400695801,4.15645027160645,4.16957950592041,4.1827917098999,4.19608783721924,4.20946884155273,4.22293519973755,4.23648834228516,4.25012874603271,4.26385688781738,4.27767419815063,4.29158163070679,4.305579662323,4.31966924667358,4.33385133743286,4.34812688827515,4.36249685287476,4.37696170806885,4.39152336120605,4.40618181228638,4.42093849182129,4.43579483032227,4.45055961608887,4.46456384658813,4.47865629196167,4.49283790588379,4.50710964202881,4.52147245407104,4.53592681884766,4.55047416687012,4.56511545181274,4.57985067367554,4.59468126296997,4.60960865020752,4.62463331222534,4.6397557258606,4.65497779846191,4.67030000686646,4.68572330474854,4.70124912261963,4.71687793731689,4.73261117935181,4.74844932556152,4.76439428329468,4.78044652938843,4.79660749435425,4.8128776550293,4.82925891876221,4.84575176239014,4.86235809326172,4.87907838821411,4.89591407775879,4.91286611557007,4.92993593215942,4.94712543487549,4.96443462371826,4.98186540603638,4.99941968917847,5.01709747314453,5.0349006652832,5.05283069610596,5.07088947296143,5.08907556533813,5.10739326477051,5.12584352493286,5.14442729949951,5.16314601898193,5.18200206756592,5.20099544525146,5.22012948989868,5.23940420150757,5.25882244110107,5.27838468551636,5.29809331893921,13.6509141921997,13.6473989486694,13.6438856124878,13.6403722763062,13.6368646621704,13.633355140686,13.6298503875732,13.6263437271118,13.6228427886963,13.6193428039551,13.6158418655396,13.6123447418213,13.6088485717773,13.6053552627563,13.6018648147583,13.5983734130859,13.5948848724365,13.5913982391357,13.5879144668579,13.5844306945801,13.5809497833252,13.5774698257446,13.573992729187,13.5705165863037,13.5670433044434,13.5635709762573,13.5601015090942,13.5566320419312,13.5531644821167,13.5496997833252,13.546236038208,13.5427751541138,13.5393142700195,13.5358552932739,13.5324001312256,13.5289468765259,13.5254926681519,13.5220413208008,13.5185928344727,13.5151443481445,13.5116996765137,13.5082569122314,13.5048131942749,13.5013742446899,13.497932434082,13.49449634552,13.4910621643066,13.4876279830933,13.4841976165771,13.4807643890381,13.4773387908936,13.4739122390747,13.4704866409302,13.4670629501343,13.463641166687,13.4602222442627,13.4568042755127,13.4533891677856,13.4499759674072,13.4465608596802,13.443151473999,13.4397401809692,13.436333656311,13.4329290390015,13.4295244216919,13.426121711731,13.4227209091187,13.4193239212036,13.4159269332886,13.4125308990479,13.4091367721558,13.4057445526123,13.4023542404175,13.3989677429199,13.3955793380737,13.3921957015991,13.3888111114502,13.3854293823242,13.3820476531982,13.3786716461182,13.3752946853638,13.3719186782837,13.3685464859009,13.3651752471924,13.3618059158325,13.3584365844727,13.3550710678101,13.3517065048218,13.3483428955078,13.3449821472168,13.3416233062744,13.3382654190063,13.3349094390869,13.3315534591675,13.3282012939453,13.3248510360718,13.3214998245239,13.3181533813477,13.3148069381714,13.3114643096924,13.3081197738647,13.3047780990601,13.3014392852783,13.2980995178223,13.2947635650635,13.2914266586304,13.2880935668945,13.2847633361816,13.2814331054688,13.2781057357788,13.2747783660889,13.2714548110962,13.2681312561035,13.2648096084595,13.2614898681641,13.2581729888916,13.2548551559448,13.2515420913696,13.2482290267944,13.2449159622192,13.2416048049927,13.2382974624634,13.2349910736084,13.2316875457764,13.2283849716187,13.2250823974609,13.2217817306519,13.21848487854,13.2151889801025,13.2118940353394,13.2086000442505,13.2053079605103,13.2020177841187,13.1987314224243,13.1954431533813,13.1921577453613,13.1888732910156,13.1855916976929,13.1823110580444,13.1790342330933,13.1757564544678,13.1724805831909,13.1692066192627,13.1659355163574,13.1626663208008,13.1593971252441,13.1561298370361,13.1528625488281,13.1495971679688,13.1463356018066,13.1430749893188,13.1398162841797,13.1365594863892,13.1333026885986,13.1300477981567,13.1267967224121,13.1235456466675,13.1202955245972,13.1170473098755,13.1138010025024,13.110556602478,13.1073160171509,13.1040735244751,13.1008329391479,13.0975952148438,13.0943555831909,13.0911235809326,13.0878896713257,13.0846576690674,13.0814294815063,13.0781984329224,13.07497215271,13.0717468261719,13.0685234069824,13.0653018951416,13.0620803833008,13.0588607788086,13.0556440353394,13.0524282455444,13.0492115020752,13.0459985733032,13.0427894592285,13.0395784378052,13.0363721847534,13.0331649780273,13.0299606323242,13.0267572402954,13.0235548019409,13.0203561782837,13.0171575546265,13.0139598846436,13.0107650756836,13.0075702667236,13.004376411438,13.0011882781982,12.9979982376099,12.9948120117188,12.9916257858276,12.9884405136108,12.9852590560913,12.9820785522461,12.9788970947266,12.9757194519043,12.972541809082,12.969367980957,12.9661951065063,12.9630212783813,12.9598503112793,12.9566822052002,12.9535131454468,12.9503498077393,12.9471845626831,12.9440202713013,12.940860748291,12.9377002716064,12.9345436096191,12.9313869476318,12.9282321929932,12.9250774383545,12.9219264984131,12.9187755584717,12.9156274795532,12.9124794006348,12.9093332290649,12.9061889648438,12.9030466079712,12.8999061584473,12.8967666625977,12.8936281204224,12.8904905319214,12.8873567581177,12.8842220306396,12.8810911178589,12.8779611587524,12.8748331069946,12.8717031478882,12.8685779571533,12.8654527664185,12.8623313903809,12.8592100143433,12.8560886383057,12.8529710769653,12.8498525619507,12.8467388153076,12.8436241149902,12.8405132293701,12.83740234375,12.8342914581299,12.8311862945557,12.8280801773071,12.8249731063843,12.8218688964844,12.8187685012817,12.8156671524048,12.8125696182251,12.8094730377197,12.8063764572144,12.8032817840576,12.8001899719238,12.79709815979,12.7940082550049,12.7909202575684,12.7878322601318,12.7847480773926,12.7816619873047,12.7785806655884,12.7754993438721,12.7724208831787,12.7693433761597,12.7662658691406,12.7631912231445,12.7601194381714,12.7570457458496,12.7539749145508,12.7509059906006,12.7478408813477,12.7447738647461,12.7417106628418,12.7386474609375,12.7355842590332,12.7325220108032,12.7294645309448,12.7264080047607,12.7233514785767,12.7202968597412,12.7172441482544,12.7141942977905,12.7111434936523,12.7080945968628,12.7050485610962,12.7020025253296,12.6989583969116,12.6959180831909,12.6928739547729,12.6898355484009,12.6867961883545,12.6837596893311,12.6807260513306,12.6776905059814,12.6746587753296,12.6716289520264,12.6685972213745,12.6655702590942,12.6625442504883,12.6595191955566,12.656494140625,12.6534729003906,12.6504516601562,12.6474323272705,12.6444149017334,12.6413974761963,12.6383810043335,12.6353673934937,12.6323566436768,12.6293458938599,12.6263370513916,12.6233282089233,12.6203203201294,12.617317199707,12.6143131256104,12.6113109588623,12.6083106994629,12.6053094863892,12.6023111343384,12.5993146896362,12.596321105957,12.5933284759521,12.5903348922729,12.5873441696167,12.5843553543091,12.5813684463501,12.5783805847168,12.5753955841064,12.5724115371704,12.569429397583,12.5664482116699,12.5634689331055,12.5604906082153,12.5575141906738,12.5545387268066,12.5515651702881,12.5485944747925
3.76782488822937,3.77775239944458,3.78773236274719,3.79776525497437,3.80785131454468,3.81799101829529,3.82818508148193,3.83843350410461,3.84873700141907,3.85909605026245,3.86951112747192,3.87998247146606,3.89051055908203,3.90109610557556,3.91173911094666,3.92244052886963,3.93320083618164,3.94402003288269,3.95489907264709,3.96583819389343,3.97683811187744,3.98789930343628,3.99902200698853,4.0102071762085,4.02145481109619,4.03276586532593,4.04414081573486,4.055579662323,4.06708383560181,4.07871341705322,4.0913553237915,4.10407543182373,4.11687517166138,4.1297550201416,4.14271545410156,4.15575790405273,4.16888236999512,4.18209028244019,4.19538164138794,4.20875835418701,4.2222204208374,4.23576879501343,4.2494044303894,4.26312828063965,4.27694082260132,4.29084300994873,4.30483627319336,4.31892108917236,4.3330979347229,4.3473687171936,4.36173343658447,4.37619400024414,4.39074993133545,4.40540361404419,4.42015504837036,4.43500566482544,4.44995641708374,4.46480846405029,4.47890281677246,4.49308586120605,4.50735902786255,4.52172327041626,4.5361795425415,4.55072832107544,4.56537103652954,4.58010816574097,4.59494066238403,4.60986948013306,4.62489557266235,4.6400203704834,4.65524435043335,4.67056798934937,4.68599319458008,4.70152044296265,4.71715116500854,4.73288631439209,4.74872636795044,4.76467323303223,4.78072690963745,4.7968897819519,4.81316232681274,4.82954502105713,4.84604024887085,4.86264848709106,4.87937068939209,4.8962082862854,4.91316270828247,4.93023490905762,4.94742584228516,4.96473741531372,4.98217058181763,4.99972629547119,5.01740646362305,5.03521203994751,5.05314445495605,5.07120513916016,5.08939552307129,5.10771656036377,5.12616777420044,5.14475393295288,5.16347503662109,5.18233299255371,5.20132970809937,5.22046566009521,5.23974323272705,5.25916385650635,5.27872848510742,5.29843950271606,5.31829833984375,13.5515022277832,13.548038482666,13.5445766448975,13.5411157608032,13.5376577377319,13.534200668335,13.5307455062866,13.5272903442383,13.5238370895386,13.5203895568848,13.516939163208,13.5134935379028,13.510048866272,13.5066061019897,13.5031652450562,13.4997243881226,13.4962863922119,13.4928493499756,13.4894151687622,13.4859848022461,13.4825525283813,13.4791240692139,13.4756956100464,13.4722719192505,13.468846321106,13.4654235839844,13.4620037078857,13.4585838317871,13.4551668167114,13.4517526626587,13.4483394622803,13.4449281692505,13.4415159225464,13.4381084442139,13.4347009658813,13.4312963485718,13.4278945922852,13.4244918823242,13.4210948944092,13.4176940917969,13.4143009185791,13.4109058380127,13.4075117111206,13.4041204452515,13.4007301330566,13.3973436355591,13.3939590454102,13.3905744552612,13.3871917724609,13.3838081359863,13.3804311752319,13.3770532608032,13.3736772537231,13.3703031539917,13.3669309616089,13.363561630249,13.3601913452148,13.3568239212036,13.353458404541,13.3500947952271,13.3467330932617,13.343373298645,13.340012550354,13.3366575241089,13.3333015441895,13.329948425293,13.3265953063965,13.3232460021973,13.3198976516724,13.3165502548218,13.3132057189941,13.3098611831665,13.3065185546875,13.3031778335571,13.2998390197754,13.2965040206909,13.2931680679321,13.2898349761963,13.2865028381348,13.2831726074219,13.2798452377319,13.2765169143677,13.2731924057007,13.2698669433594,13.2665462493896,13.2632274627686,13.2599086761475,13.256591796875,13.2532758712769,13.249963760376,13.2466506958008,13.2433395385742,13.2400321960449,13.2367238998413,13.233419418335,13.2301177978516,13.2268152236938,13.2235155105591,13.2202129364014,13.2169179916382,13.213623046875,13.2103281021118,13.2070350646973,13.203742980957,13.2004556655884,13.1971673965454,13.1938810348511,13.1905965805054,13.1873140335083,13.1840343475342,13.1807537078857,13.1774759292603,13.1742010116577,13.1709232330322,13.1676511764526,13.164381980896,13.161111831665,13.1578435897827,13.1545763015747,13.1513109207153,13.1480493545532,13.1447877883911,13.1415281295776,13.1382703781128,13.1350116729736,13.1317577362061,13.1285047531128,13.1252498626709,13.1220006942749,13.1187515258789,13.1155042648315,13.1122598648071,13.1090154647827,13.1057739257812,13.1025333404541,13.0992946624756,13.0960559844971,13.0928220748901,13.0895881652832,13.086353302002,13.0831232070923,13.0798931121826,13.0766649246216,13.0734405517578,13.0702142715454,13.066990852356,13.0637702941895,13.0605487823486,13.0573329925537,13.0541152954102,13.0508995056152,13.0476865768433,13.0444746017456,13.0412654876709,13.0380573272705,13.0348501205444,13.0316429138184,13.0284376144409,13.0252351760864,13.0220355987549,13.018835067749,13.0156373977661,13.0124406814575,13.0092458724976,13.0060548782349,13.0028629302979,12.9996738433838,12.9964838027954,12.9932985305786,12.9901142120361,12.9869298934937,12.9837455749512,12.980565071106,12.9773855209351,12.9742088317871,12.9710330963135,12.9678592681885,12.9646854400635,12.9615135192871,12.9583435058594,12.9551782608032,12.9520101547241,12.948844909668,12.9456825256348,12.9425191879272,12.9393577575684,12.9362001419067,12.9330415725708,12.9298858642578,12.9267330169678,12.9235792160034,12.9204292297363,12.9172801971436,12.9141311645508,12.9109859466553,12.9078388214111,12.9046964645386,12.901554107666,12.8984146118164,12.8952760696411,12.8921356201172,12.8890008926392,12.8858671188354,12.8827342987061,12.8796043395996,12.8764724731445,12.8733444213867,12.8702163696289,12.867094039917,12.8639698028564,12.8608484268188,12.8577260971069,12.8546085357666,12.8514909744263,12.8483734130859,12.8452577590942,12.8421459197998,12.8390340805054,12.8359231948853,12.8328142166138,12.8297080993652,12.826602935791,12.8234996795654,12.8203954696655,12.8172960281372,12.8141965866089,12.8110980987549,12.8080015182495,12.8049058914185,12.801812171936,12.7987194061279,12.7956285476685,12.7925395965576,12.7894515991211,12.7863664627075,12.7832822799683,12.7802000045776,12.777117729187,12.774037361145,12.7709579467773,12.7678813934326,12.7648057937622,12.7617321014404,12.7586574554443,12.7555875778198,12.7525177001953,12.7494487762451,12.7463827133179,12.7433166503906,12.7402515411377,12.737190246582,12.734130859375,12.7310695648193,12.7280120849609,12.7249565124512,12.7219009399414,12.7188482284546,12.7157955169678,12.7127437591553,12.7096948623657,12.7066459655762,12.7035989761353,12.7005567550659,12.6975135803223,12.6944694519043,12.6914310455322,12.6883907318115,12.6853542327881,12.6823177337646,12.6792831420898,12.6762504577637,12.6732187271118,12.6701879501343,12.6671600341797,12.6641321182251,12.6611061096191,12.6580820083618,12.6550579071045,12.6520357131958,12.6490163803101,12.6459970474243,12.6429796218872,12.639965057373,12.6369504928589,12.6339387893677,12.6309270858765,12.6279153823853,12.624906539917,12.621898651123,12.6188917160034,12.6158905029297,12.6128854751587,12.6098852157593,12.6068840026855,12.6038846969604,12.6008901596069,12.5978927612305,12.594898223877,12.5919055938721,12.5889148712158,12.5859251022339,12.5829343795776,12.5799474716187,12.576961517334,12.5739784240723,12.5709943771362,12.5680141448975,12.5650320053101,12.5620555877686,12.5590763092041,12.5561017990112,12.5531282424927,12.5501537322998,12.5471839904785,12.5442123413086,12.5412406921387,12.5382747650146,12.5353078842163,12.5323438644409,12.5293798446655,12.5264186859131,12.5234575271606,12.5205001831055,12.5175428390503,12.5145854949951,12.5116310119629,12.508677482605,12.5057249069214,12.5027761459351,12.4998264312744,12.4968757629395,12.4939289093018,12.4909858703613,12.4880418777466,12.4851007461548,12.48215675354,12.4792194366455,12.476279258728,12.4733428955078,12.4704084396362
