4.11491250991821,4.12654447555542,4.13824224472046,4.1500072479248,4.16183853149414,4.1737380027771,4.18570566177368,4.19774198532104,4.20984745025635,4.22202348709106,4.23426961898804,4.24658727645874,4.25897693634033,4.27143907546997,5.68381500244141,5.6991982460022,5.71466445922852,5.73021507263184,5.74585056304932,5.76157188415527,5.77737808227539,0,0,0,0,0,0,0,0,0,0,0,0,0,0,0,0,0,0,0,0,0,0,0,0,0,0,0,0,0,0,0,0,0,0,0,0,0,0,0,0,0,0,0,0,0,0,0,0,0,0,0,0,0,0,0,0,0,0,0,0,0,0,0,0,0,0,0,0,0,0,0,0,0,0,0,0,0,0,0,0,0,0,0,0,0,0,0,0,0,0,0,0,0,0,0,0,0,0,0,0,0,0,0,0,0,0,0,0,0,0,0,0,0,0,0,0,0,0,0,0,0,0,0,0,0,0,0,0,0,0,0,0,0,0,0,0,0,0,0,0,0,0,0,0,0,0,0,0,0,0,0,0,0,0,0,0,0,0,0,0,0,0,0,0,0,0,0,0,0,0,0,0,0,0,0,0,0,0,0,0,0,0,0,0,0,0,0,0,0,0,0,0,0,0,0,0,0,0,0,0,0,0,0,0,0,0,0,0,0,0,0,0,0,0,0,0,0,0,0,0,0,0,0,0,0,0,0,0,0,0,0,0,0,0,0,0,0,0,0,0,0,0,0,0,0,0,0,0,0,0,0,0,0,0,0,0,0,0,0,0,0,0,0,0,0,0,0,0,0,0,0,0,0,0,0,0,0,0,0,0,0,0,0,0,0,0,0,0,0,0,0,0,0,0,0,0,19.9954299926758,19.9875888824463,19.9797534942627,19.971923828125,19.9641017913818,19.9562854766846,19.9484748840332,19.9406700134277,19.9328708648682,19.9250793457031,19.9172916412354,19.9095134735107,19.9017391204834,19.893970489502,19.8862075805664,19.8784523010254,19.8707027435303,19.8629589080811,19.8552207946777,19.8474884033203,19.8397617340088,19.8320426940918,19.8243293762207,19.8166217803955,19.8089199066162,19.8012237548828,19.7935352325439,19.7858505249023,19.7781715393066,19.7705001831055,19.7628345489502,19.7551746368408,19.7475204467773,19.7398719787598,19.7322292327881,19.7245941162109,19.7169647216797,19.7093391418457,19.7017192840576,19.6941070556641,19.6865005493164,19.6788997650146,19.6713047027588,19.6637172698975,19.6561317443848,19.6485538482666,19.6409816741943,19.6334171295166,19.6258563995361,19.6183032989502,19.6107540130615,19.6032123565674,19.5956745147705,19.5881443023682,19.5806198120117,19.5730991363525,19.5655860900879,19.5580787658691,19.5505752563477,19.5430793762207,19.5355892181396,19.5281047821045,19.5206241607666,19.5131511688232,19.5056838989258,19.4982204437256,19.4907646179199,19.4833145141602,19.4758701324463,19.4684295654297,19.4609966278076,19.4535694122314,19.4461460113525,19.4387302398682,19.4313201904297,19.4239139556885,19.4165134429932,19.4091205596924,19.4017333984375,19.3943500518799,19.3869724273682,19.3796005249023,19.3722343444824,19.3648738861084,19.3575191497803,19.3501720428467,19.3428268432617,19.3354892730713,19.3281574249268,19.3208312988281,19.3135089874268,19.3061923980713,19.2988834381104,19.2915782928467,19.2842788696289,19.276985168457,19.2696971893311,19.262414932251,19.2551383972168,19.2478675842285,19.2406005859375,19.2333393096924,19.2260837554932,19.2188358306885,19.2115898132324,19.2043514251709,19.1971187591553,19.1898918151855,19.1826686859131,19.1754512786865,19.1682395935059,19.1610336303711,19.1538333892822,19.1466388702393,19.1394481658936,19.1322631835938,19.1250839233398,19.1179103851318,19.1107425689697,19.1035785675049,19.0964221954346,19.0892696380615,19.0821228027344,19.0749797821045,19.0678443908691,19.0607128143311,19.0535888671875,19.0464687347412,19.0393543243408,19.0322437286377,19.0251407623291,19.0180416107178,19.0109462738037,19.0038585662842,18.9967765808105,18.9896984100342,18.9826240539551,18.9755592346191,18.9684963226318,18.9614391326904,18.9543876647949,18.9473419189453,18.9403018951416,18.9332637786865,18.926233291626
4.10351085662842,4.11507844924927,4.12671136856079,4.13841009140015,4.15017557144165,4.16200828552246,4.17390871047974,4.18587684631348,4.19791460037231,4.21002101898193,4.22219800949097,4.23444557189941,4.24676418304443,4.25915479660034,4.2716178894043,4.28415393829346,4.29676389694214,5.70411825180054,5.71961164474487,5.73518896102905,5.75085163116455,5.76660013198853,5.78243398666382,0,0,0,0,0,0,0,0,0,0,0,0,0,0,0,0,0,0,0,0,0,0,0,0,0,0,0,0,0,0,0,0,0,0,0,0,0,0,0,0,0,0,0,0,0,0,0,0,0,0,0,0,0,0,0,0,0,0,0,0,0,0,0,0,0,0,0,0,0,0,0,0,0,0,0,0,0,0,0,0,0,0,0,0,0,0,0,0,0,0,0,0,0,0,0,0,0,0,0,0,0,0,0,0,0,0,0,0,0,0,0,0,0,0,0,0,0,0,0,0,0,0,0,0,0,0,0,0,0,0,0,0,0,0,0,0,0,0,0,0,0,0,0,0,0,0,0,0,0,0,0,0,0,0,0,0,0,0,0,0,0,0,0,0,0,0,0,0,0,0,0,0,0,0,0,0,0,0,0,0,0,0,0,0,0,0,0,0,0,0,0,0,0,0,0,0,0,0,0,0,0,0,0,0,0,0,0,0,0,0,0,0,0,0,0,0,0,0,0,0,0,0,0,0,0,0,0,0,0,0,0,0,0,0,0,0,0,0,0,0,0,0,0,0,0,0,0,0,0,0,0,0,0,0,0,0,0,0,0,0,0,0,0,0,0,0,0,0,19.9995403289795,19.9916954040527,19.9838562011719,19.9760227203369,19.9681968688965,19.9603786468506,19.952564239502,19.9447574615479,19.936954498291,19.9291572570801,19.9213695526123,19.9135856628418,19.9058094024658,19.8980369567871,19.8902721405029,19.8825130462646,19.8747596740723,19.8670120239258,19.8592720031738,19.8515377044678,19.843807220459,19.8360843658447,19.828369140625,19.8206577301025,19.812952041626,19.8052539825439,19.7975616455078,19.7898731231689,19.7821922302246,19.7745170593262,19.7668476104736,19.7591857910156,19.7515277862549,19.7438774108887,19.7362308502197,19.7285919189453,19.7209587097168,19.7133312225342,19.7057094573975,19.6980934143066,19.6904830932617,19.6828784942627,19.6752815246582,19.6676902770996,19.6601028442383,19.6525211334229,19.644947052002,19.637378692627,19.6298141479492,19.622257232666,19.6147060394287,19.6071605682373,19.5996208190918,19.5920867919922,19.5845584869385,19.5770359039307,19.5695190429688,19.5620098114014,19.5545043945312,19.5470027923584,19.5395107269287,19.5320224761963,19.5245399475098,19.5170650482178,19.509593963623,19.5021286010742,19.4946689605713,19.4872150421143,19.4797668457031,19.4723243713379,19.4648876190186,19.4574565887451,19.4500331878662,19.4426116943359,19.4351997375488,19.4277896881104,19.420389175415,19.412992477417,19.4056015014648,19.3982162475586,19.3908348083496,19.3834590911865,19.376091003418,19.3687286376953,19.3613700866699,19.3540191650391,19.3466720581055,19.3393325805664,19.3319969177246,19.3246669769287,19.3173427581787,19.310022354126,19.3027114868164,19.2954025268555,19.2881011962891,19.2808036804199,19.2735118865967,19.266227722168,19.2589492797852,19.251672744751,19.24440574646,19.2371406555176,19.2298812866211,19.2226314544678,19.2153835296631,19.2081413269043,19.2009048461914,19.1936740875244,19.1864490509033,19.1792297363281,19.1720142364502,19.1648063659668,19.1576023101807,19.1504058837891,19.1432132720947,19.1360244750977,19.1288433074951,19.1216659545898,19.1144943237305,19.107328414917,19.100170135498,19.0930137634277,19.085865020752,19.0787181854248,19.0715808868408,19.0644474029541,19.0573177337646,19.0501956939697,19.0430793762207,19.0359649658203,19.0288600921631,19.0217571258545,19.0146598815918,19.0075702667236,19.0004825592041,18.9934043884277,18.986328125,18.9792575836182,18.9721927642822,18.9651336669922,18.958080291748,18.9510307312012,18.9439868927002,18.9369487762451,18.9299144744873,18.922887802124,18.9158630371094,18.9088478088379,18.9018325805664,18.8948268890381,18.887825012207,18.8808288574219,18.873836517334,18.866849899292,18.8598690032959,18.8528919219971,18.8459205627441,18.8389549255371,18.831995010376,18.8250389099121,18.8180885314941,18.8111438751221,18.8042030334473,18.7972679138184,18.7903385162354,18.7834148406982,18.7764930725098,18.7695789337158,18.7626686096191,18.7557640075684,18.7488670349121
4.09217214584351,4.10367584228516,4.11524438858032,4.12687826156616,4.13857793807983,4.15034437179565,4.16217803955078,4.17407941818237,4.18604850769043,4.19808721542358,4.21019458770752,4.22237253189087,4.23462104797363,4.24694061279297,4.25933218002319,4.27179670333862,4.2843337059021,4.29694509506226,4.30963039398193,4.32239103317261,5.72456693649292,5.74017143249512,5.75586175918579,5.77163743972778,5.78749895095825,0,0,0,0,0,0,0,0,0,0,0,0,0,0,0,0,0,0,0,0,0,0,0,0,0,0,0,0,0,0,0,0,0,0,0,0,0,0,0,0,0,0,0,0,0,0,0,0,0,0,0,0,0,0,0,0,0,0,0,0,0,0,0,0,0,0,0,0,0,0,0,0,0,0,0,0,0,0,0,0,0,0,0,0,0,0,0,0,0,0,0,0,0,0,0,0,0,0,0,0,0,0,0,0,0,0,0,0,0,0,0,0,0,0,0,0,0,0,0,0,0,0,0,0,0,0,0,0,0,0,0,0,0,0,0,0,0,0,0,0,0,0,0,0,0,0,0,0,0,0,0,0,0,0,0,0,0,0,0,0,0,0,0,0,0,0,0,0,0,0,0,0,0,0,0,0,0,0,0,0,0,0,0,0,0,0,0,0,0,0,0,0,0,0,0,0,0,0,0,0,0,0,0,0,0,0,0,0,0,0,0,0,0,0,0,0,0,0,0,0,0,0,0,0,0,0,0,0,0,0,0,0,0,0,0,0,0,0,0,0,0,19.9958019256592,19.9879589080811,19.9801235198975,19.9722938537598,19.9644718170166,19.9566535949707,19.9488430023193,19.9410400390625,19.9332408905029,19.9254474639893,19.9176616668701,19.9098815917969,19.9021053314209,19.8943386077881,19.8865756988525,19.8788185119629,19.8710689544678,19.8633251190186,19.8555870056152,19.8478546142578,19.8401279449463,19.8324089050293,19.8246936798096,19.8169860839844,19.8092842102051,19.8015880584717,19.7938976287842,19.7862148284912,19.7785358428955,19.7708625793457,19.7631969451904,19.7555370330811,19.7478828430176,19.740234375,19.7325916290283,19.7249546051025,19.7173233032227,19.7096996307373,19.7020797729492,19.6944675445557,19.686861038208,19.6792583465576,19.6716651916504,19.6640739440918,19.6564903259277,19.6489143371582,19.6413421630859,19.6337757110596,19.6262149810791,19.6186599731445,19.6111106872559,19.6035690307617,19.5960311889648,19.5885009765625,19.5809745788574,19.5734558105469,19.5659408569336,19.5584335327148,19.5509300231934,19.5434322357178,19.5359420776367,19.5284576416016,19.5209770202637,19.5135040283203,19.5060367584229,19.4985733032227,19.491117477417,19.4836673736572,19.4762210845947,19.4687824249268,19.4613475799561,19.4539203643799,19.446496963501,19.439079284668,19.4316692352295,19.4242649078369,19.4168643951416,19.4094696044922,19.4020824432373,19.3946990966797,19.387321472168,19.3799495697021,19.3725833892822,19.3652229309082,19.3578662872314,19.3505191802979,19.3431739807129,19.3358364105225,19.3285045623779,19.3211765289307,19.3138542175293,19.3065395355225,19.2992286682129,19.2919235229492,19.2846240997314,19.2773303985596,19.2700424194336,19.2627582550049,19.2554817199707,19.2482109069824,19.2409439086914,19.2336826324463,19.2264270782471,19.2191772460938,19.2119331359863,19.2046947479248,19.1974601745605,19.1902313232422,19.1830101013184,19.1757926940918,19.1685810089111,19.1613750457764,19.1541728973389,19.1469764709473,19.1397876739502,19.1326026916504,19.1254234313965,19.1182498931885,19.1110801696777,19.1039180755615,19.0967597961426,19.0896072387695,19.0824604034424,19.0753173828125,19.0681800842285,19.0610504150391,19.0539245605469,19.0468044281006,19.0396900177002,19.0325813293457,19.0254764556885,19.0183773040771,19.0112838745117,19.0041942596436,18.9971103668213,18.9900321960449,18.9829597473145,18.9758930206299,18.9688301086426,18.9617729187012,18.9547214508057,18.9476757049561,18.9406337738037,18.9335975646973,18.9265670776367,18.9195404052734,18.9125194549561,18.9055042266846,18.898494720459,18.8914909362793,18.8844909667969,18.8774967193604,18.8705081939697,18.8635234832764,18.8565464019775,18.8495712280273,18.842601776123,18.8356380462646,18.8286819458008,18.8217277526855,18.8147792816162,18.8078384399414,18.8008995056152,18.7939682006836,18.7870388031006,18.7801170349121,18.7731990814209,18.7662868499756,18.7593803405762,18.752477645874,18.7455806732178,18.7386894226074,18.7318019866943,18.7249202728271,18.7180442810059,18.7111721038818,18.7043056488037,18.6974430084229,18.6905860900879,18.6837348937988,18.6768894195557,18.6700477600098,18.6632118225098,18.656379699707,18.6495532989502,18.6427326202393,18.6359157562256,18.6291046142578,18.6222953796387,18.6154956817627,18.608699798584,18.6019077301025,18.595121383667,18.5883407592773,18.5815620422363,18.5747909545898
4.08089590072632,4.09233617782593,4.10384082794189,4.11540985107422,4.12704515457153,4.13874578475952,4.15051317214966,4.1623477935791,4.17425012588501,4.18622016906738,4.19825983047485,4.21036863327026,4.22254753112793,4.23479652404785,4.24711751937866,4.2595100402832,4.27197504043579,4.28451347351074,4.29712581634521,4.30981254577637,4.32257413864136,4.33541202545166,4.34832572937012,5.74516296386719,5.76087999343872,5.77668380737305,0,0,0,0,0,0,0,0,0,0,0,0,0,0,0,0,0,0,0,0,0,0,0,0,0,0,0,0,0,0,0,0,0,0,0,0,0,0,0,0,0,0,0,0,0,0,0,0,0,0,0,0,0,0,0,0,0,0,0,0,0,0,0,0,0,0,0,0,0,0,0,0,0,0,0,0,0,0,0,0,0,0,0,0,0,0,0,0,0,0,0,0,0,0,0,0,0,0,0,0,0,0,0,0,0,0,0,0,0,0,0,0,0,0,0,0,0,0,0,0,0,0,0,0,0,0,0,0,0,0,0,0,0,0,0,0,0,0,0,0,0,0,0,0,0,0,0,0,0,0,0,0,0,0,0,0,0,0,0,0,0,0,0,0,0,0,0,0,0,0,0,0,0,0,0,0,0,0,0,0,0,0,0,0,0,0,0,0,0,0,0,0,0,0,0,0,0,0,0,0,0,0,0,0,0,0,0,0,0,0,0,0,0,0,19.9999103546143,19.9920654296875,19.9842262268066,19.9763946533203,19.9685688018799,19.9607467651367,19.9529323577881,19.9451236724854,19.9373226165771,19.9295272827148,19.9217376708984,19.9139537811279,19.9061756134033,19.8984050750732,19.8906383514404,19.8828792572021,19.8751258850098,19.8673782348633,19.8596382141113,19.8519020080566,19.8441734313965,19.8364505767822,19.8287334442139,19.8210220336914,19.8133182525635,19.8056182861328,19.797924041748,19.7902374267578,19.7825565338135,19.774881362915,19.7672119140625,19.7595462799072,19.7518901824951,19.7442378997803,19.73659324646,19.7289524078369,19.7213191986084,19.7136917114258,19.7060699462891,19.6984539031982,19.6908435821533,19.6832389831543,19.6756401062012,19.6680488586426,19.6604614257812,19.6528797149658,19.6453056335449,19.6377353668213,19.6301746368408,19.622615814209,19.615062713623,19.6075172424316,19.5999774932861,19.5924434661865,19.5849151611328,19.577392578125,19.5698757171631,19.5623645782471,19.5548572540283,19.5473594665527,19.5398654937744,19.5323753356934,19.5248928070068,19.5174179077148,19.5099468231201,19.5024814605713,19.4950218200684,19.4875679016113,19.4801197052002,19.472677230835,19.4652404785156,19.4578075408936,19.450382232666,19.442964553833,19.4355506896973,19.4281406402588,19.4207382202148,19.4133415222168,19.4059505462646,19.3985633850098,19.3911838531494,19.383810043335,19.3764400482178,19.3690757751465,19.3617172241211,19.3543663024902,19.3470191955566,19.3396797180176,19.3323440551758,19.3250141143799,19.3176879882812,19.3103694915771,19.3030567169189,19.295747756958,19.288444519043,19.2811489105225,19.2738571166992,19.2665710449219,19.2592926025391,19.2520179748535,19.2447471618652,19.2374839782715,19.2302265167236,19.2229709625244,19.2157249450684,19.2084846496582,19.2012481689453,19.1940174102783,19.1867904663086,19.1795711517334,19.1723556518555,19.1651477813721,19.1579437255859,19.1507453918457,19.1435508728027,19.1363639831543,19.1291828155518,19.1220054626465,19.1148338317871,19.1076679229736,19.1005077362061,19.0933532714844,19.08620262146,19.0790576934814,19.0719184875488,19.0647850036621,19.0576553344727,19.0505332946777,19.0434150695801,19.0363025665283,19.0291957855225,19.0220928192139,19.0149955749512,19.007905960083,19.0008201599121,18.9937381744385,18.9866619110107,18.9795932769775,18.9725284576416,18.9654674530029,18.9584121704102,18.9513645172119,18.9443206787109,18.9372806549072,18.930248260498,18.9232196807861,18.9161949157715,18.9091777801514,18.9021663665771,18.8951587677002,18.8881549835205,18.8811588287354,18.8741683959961,18.8671798706055,18.8601989746094,18.8532238006592,18.8462505340576,18.8392848968506,18.8323249816895,18.8253688812256,18.818416595459,18.8114719390869,18.8045310974121,18.7975959777832,18.7906665802002,18.7837409973145,18.7768211364746,18.769905090332,18.762996673584,18.7560901641846,18.7491912841797,18.7422981262207,18.735408782959,18.7285232543945,18.721643447876,18.714771270752,18.7079010009766,18.7010364532471,18.6941776275635,18.6873226165771,18.6804733276367,18.6736297607422,18.6667919158936,18.6599578857422,18.6531276702881,18.6463031768799,18.6394844055176,18.6326713562012,18.625862121582,18.6190567016602,18.6122589111328,18.6054630279541,18.5986747741699,18.591890335083,18.585111618042,18.5783367156982,18.5715656280518,18.5648021697998,18.5580425262451,18.5512866973877,18.5445384979248,18.5377922058105,18.5310535430908,18.5243186950684,18.5175876617432,18.5108642578125,18.5041427612305,18.4974269866943,18.4907169342041,18.4840106964111,18.4773082733154,18.4706134796143,18.4639225006104,18.4572353363037,18.450553894043,18.4438781738281,18.4372062683105,18.4305381774902,18.4238777160645,18.4172191619873,18.4105663299561,18.4039192199707
4.0696816444397,4.08105897903442,4.09250020980835,4.10400581359863,4.11557579040527,4.1272120475769,4.13891363143921,4.15068197250366,4.16251754760742,4.17442083358765,4.18639230728149,4.19843244552612,4.21054220199585,4.22272205352783,4.23497247695923,4.24729442596436,4.25968790054321,4.27215385437012,4.28469371795654,4.29730653762817,4.30999422073364,4.32275724411011,4.33559608459473,4.34851121902466,4.36150360107422,5.75016260147095,5.76590728759766,5.78173875808716,0,0,0,0,0,0,0,0,0,0,0,0,0,0,0,0,0,0,0,0,0,0,0,0,0,0,0,0,0,0,0,0,0,0,0,0,0,0,0,0,0,0,0,0,0,0,0,0,0,0,0,0,0,0,0,0,0,0,0,0,0,0,0,0,0,0,0,0,0,0,0,0,0,0,0,0,0,0,0,0,0,0,0,0,0,0,0,0,0,0,0,0,0,0,0,0,0,0,0,0,0,0,0,0,0,0,0,0,0,0,0,0,0,0,0,0,0,0,0,0,0,0,0,0,0,0,0,0,0,0,0,0,0,0,0,0,0,0,0,0,0,0,0,0,0,0,0,0,0,0,0,0,0,0,0,0,0,0,0,0,0,0,0,0,0,0,0,0,0,0,0,0,0,0,0,0,0,0,0,0,0,0,0,0,0,0,0,19.9961738586426,19.9883308410645,19.9804954528809,19.9726657867432,19.9648418426514,19.9570236206055,19.9492130279541,19.9414081573486,19.9336090087891,19.9258155822754,19.9180297851562,19.9102478027344,19.902473449707,19.8947048187256,19.8869438171387,19.879186630249,19.8714351654053,19.8636913299561,19.8559532165527,19.8482208251953,19.8404941558838,19.8327732086182,19.8250579833984,19.8173503875732,19.8096485137939,19.8019523620605,19.794261932373,19.7865772247314,19.7789001464844,19.7712268829346,19.7635612487793,19.7558994293213,19.7482452392578,19.7405967712402,19.7329540252686,19.7253170013428,19.7176856994629,19.7100601196289,19.7024402618408,19.6948261260986,19.687219619751,19.6796188354492,19.6720237731934,19.6644325256348,19.6568489074707,19.6492710113525,19.6416988372803,19.6341323852539,19.6265735626221,19.6190185546875,19.6114673614502,19.6039257049561,19.5963878631592,19.5888557434082,19.5813293457031,19.5738105773926,19.5662975311279,19.5587882995605,19.5512866973877,19.5437889099121,19.5362968444824,19.5288105010986,19.5213317871094,19.513858795166,19.5063896179199,19.4989261627197,19.4914703369141,19.4840183258057,19.4765739440918,19.4691352844238,19.4617004394531,19.4542713165283,19.4468479156494,19.4394302368164,19.4320201873779,19.4246139526367,19.4172134399414,19.4098205566406,19.4024314880371,19.3950481414795,19.3876705169678,19.380298614502,19.3729305267334,19.3655700683594,19.3582153320312,19.350866317749,19.3435211181641,19.3361835479736,19.3288497924805,19.3215236663818,19.3142013549805,19.306884765625,19.2995738983154,19.2922687530518,19.284969329834,19.2776756286621,19.2703857421875,19.2631034851074,19.2558269500732,19.2485542297363,19.2412872314453,19.2340278625488,19.226770401001,19.2195205688477,19.2122745513916,19.2050361633301,19.1978015899658,19.1905746459961,19.1833515167236,19.1761341094971,19.1689205169678,19.1617164611816,19.1545143127441,19.1473178863525,19.1401271820068,19.132942199707,19.1257629394531,19.1185894012451,19.1114196777344,19.1042575836182,19.0970973968506,19.0899448394775,19.082799911499,19.0756568908691,19.0685195922852,19.0613880157471,19.0542621612549,19.0471420288086,19.0400276184082,19.0329151153564,19.0258121490479,19.0187129974365,19.0116176605225,19.0045299530029,18.9974460601807,18.9903678894043,18.9832935333252,18.9762268066406,18.9691638946533,18.9621067047119,18.9550552368164,18.9480075836182,18.9409656524658,18.933931350708,18.9268989562988,18.9198722839355,18.9128532409668,18.9058380126953,18.8988265991211,18.8918209075928,18.8848209381104,18.8778285980225,18.8708381652832,18.8638534545898,18.8568744659424,18.8499011993408,18.8429336547852,18.8359680175781,18.8290100097656,18.8220558166504,18.8151092529297,18.8081645965576,18.8012275695801,18.7942943572998,18.7873668670654,18.780445098877,18.7735271453857,18.7666149139404,18.7597064971924,18.7528038024902,18.745906829834,18.7390155792236,18.7321281433105,18.7252464294434,18.7183704376221,18.711498260498,18.7046298980713,18.6977691650391,18.6909103393555,18.684061050415,18.6772136688232,18.6703720092773,18.6635341644287,18.656702041626,18.6498756408691,18.6430549621582,18.6362380981445,18.6294269561768,18.6226196289062,18.615816116333,18.6090221405029,18.6022281646729,18.5954418182373,18.5886611938477,18.5818824768066,18.5751113891602,18.5683441162109,18.5615825653076,18.5548248291016,18.5480728149414,18.5413246154785,18.5345821380615,18.5278434753418,18.521110534668,18.51438331604,18.507661819458,18.5009441375732,18.4942302703857,18.4875221252441,18.4808177947998,18.4741191864014,18.4674263000488,18.4607372283936,18.4540519714355,18.4473724365234,18.4406986236572,18.4340286254883,18.4273643493652,18.4207057952881,18.4140491485596,18.407398223877,18.4007549285889,18.3941116333008,18.3874759674072,18.3808460235596,18.3742198944092,18.3675975799561,18.3609828948975,18.3543682098389,18.3477611541748,18.3411598205566,18.3345623016357,18.3279685974121,18.3213806152344,18.3147964477539,18.3082180023193,18.301643371582,18.2950744628906,18.2885093688965,18.2819499969482,18.2753944396973,18.2688446044922,18.2622966766357,18.2557563781738,18.2492198944092,18.2426872253418,18.2361621856689
4.05852842330933,4.06984376907349,4.08122205734253,4.09266424179077,4.10417079925537,4.11574172973633,4.12737846374512,4.1390814781189,4.15085077285767,4.16268730163574,4.17459154129028,4.18656396865845,4.19860506057739,4.21071577072144,4.22289657592773,4.23514795303345,4.24747085571289,4.25986576080322,4.2723331451416,4.28487348556519,4.29748773574829,4.31017637252808,4.32294034957886,4.33578014373779,4.34869623184204,4.36168956756592,4.37476110458374,4.38791084289551,5.7709436416626,5.78680229187012,0,0,0,0,0,0,0,0,0,0,0,0,0,0,0,0,0,0,0,0,0,0,0,0,0,0,0,0,0,0,0,0,0,0,0,0,0,0,0,0,0,0,0,0,0,0,0,0,0,0,0,0,0,0,0,0,0,0,0,0,0,0,0,0,0,0,0,0,0,0,0,0,0,0,0,0,0,0,0,0,0,0,0,0,0,0,0,0,0,0,0,0,0,0,0,0,0,0,0,0,0,0,0,0,0,0,0,0,0,0,0,0,0,0,0,0,0,0,0,0,0,0,0,0,0,0,0,0,0,0,0,0,0,0,0,0,0,0,0,0,0,0,0,0,0,0,0,0,0,0,0,0,0,0,0,0,0,0,0,0,19.9924354553223,19.9845962524414,19.9767646789551,19.968936920166,19.9611167907715,19.9533023834229,19.9454956054688,19.9376926422119,19.929895401001,19.9221057891846,19.9143218994141,19.9065437316895,19.8987712860107,19.8910064697266,19.8832473754883,19.8754940032959,19.8677463531494,19.8600044250488,19.8522682189941,19.8445377349854,19.8368167877197,19.8290977478027,19.8213863372803,19.8136806488037,19.8059825897217,19.7982883453369,19.7906017303467,19.7829189300537,19.7752437591553,19.7675743103027,19.7599105834961,19.7522525787354,19.7446002960205,19.7369537353516,19.7293148040771,19.7216796875,19.7140522003174,19.7064304351807,19.6988124847412,19.6912040710449,19.6835994720459,19.6760005950928,19.6684074401855,19.6608200073242,19.6532402038574,19.6456623077393,19.6380939483643,19.6305313110352,19.622974395752,19.615421295166,19.607873916626,19.6003341674805,19.5927982330322,19.5852699279785,19.5777473449707,19.5702304840088,19.5627193450928,19.5552139282227,19.5477142333984,19.5402183532715,19.5327320098877,19.5252475738525,19.5177707672119,19.5102996826172,19.5028343200684,19.4953746795654,19.4879188537598,19.4804725646973,19.4730281829834,19.4655933380127,19.4581604003906,19.4507350921631,19.4433135986328,19.4358997344971,19.4284915924072,19.4210891723633,19.4136924743652,19.4062995910645,19.3989124298096,19.3915328979492,19.3841590881348,19.3767890930176,19.3694248199463,19.3620662689209,19.3547134399414,19.3473663330078,19.3400249481201,19.3326892852783,19.3253593444824,19.3180351257324,19.3107166290283,19.3034019470215,19.2960929870605,19.2887897491455,19.281494140625,19.2742023468018,19.2669162750244,19.259635925293,19.2523593902588,19.2450923919678,19.2378273010254,19.2305698394775,19.223316192627,19.2160682678223,19.2088260650635,19.2015895843506,19.1943588256836,19.1871318817139,19.1799125671387,19.1726970672607,19.1654872894287,19.1582832336426,19.1510848999023,19.143892288208,19.1367053985596,19.1295223236084,19.1223449707031,19.1151733398438,19.1080074310303,19.1008453369141,19.0936908721924,19.086540222168,19.0793952941895,19.0722560882568,19.0651226043701,19.0579929351807,19.0508689880371,19.0437507629395,19.0366382598877,19.0295314788818,19.0224285125732,19.0153312683105,19.0082416534424,19.0011539459229,18.9940719604492,18.9869976043701,18.9799270629883,18.9728603363037,18.9658012390137,18.9587459564209,18.951696395874,18.944652557373,18.937614440918,18.9305801391602,18.9235515594482,18.9165287017822,18.9095115661621,18.9024963378906,18.8954887390137,18.8884868621826,18.8814907073975,18.8744964599609,18.8675098419189,18.8605289459229,18.853551864624,18.8465824127197,18.8396148681641,18.8326530456543,18.8256969451904,18.8187465667725,18.8118000030518,18.804859161377,18.797924041748,18.790994644165,18.7840690612793,18.7771492004395,18.7702331542969,18.7633228302002,18.7564182281494,18.7495174407959,18.7426223754883,18.7357349395752,18.7288494110107,18.7219696044922,18.7150955200195,18.7082252502441,18.7013607025146,18.6945018768311,18.6876487731934,18.6807975769043,18.6739521026611,18.6671142578125,18.6602802276611,18.653450012207,18.6466274261475,18.6398067474365,18.6329917907715,18.6261825561523,18.6193790435791,18.6125793457031,18.605785369873,18.5989952087402,18.5922107696533,18.5854320526123,18.5786571502686,18.5718860626221,18.5651226043701,18.5583629608154,18.5516090393066,18.5448589324951,18.5381126403809,18.5313720703125,18.52463722229,18.5179061889648,18.5111808776855,18.5044593811035,18.497745513916,18.4910335540771,18.4843292236328,18.4776268005371,18.4709300994873,18.4642372131348,18.4575519561768,18.450870513916,18.4441928863525,18.437520980835,18.4308528900146,18.4241905212402,18.4175338745117,18.4108810424805,18.4042339324951,18.3975887298584,18.3909492492676,18.3843173980713,18.3776893615723,18.3710632324219,18.364444732666,18.3578300476074,18.3512210845947,18.3446159362793,18.3380165100098,18.3314208984375,18.3248291015625,18.3182430267334,18.3116626739502,18.3050861358643,18.2985134124756,18.2919464111328,18.2853851318359,18.2788257598877,18.272274017334,18.2657260894775,18.2591819763184,18.2526416778564,18.2461071014404,18.2395801544189,18.2330532073975,18.2265338897705,18.2200183868408,18.2135066986084,18.2070007324219,18.2005004882812,18.1940040588379,18.1875095367432,18.181022644043,18.17453956604,18.1680603027344,18.1615867614746,18.1551189422607,18.1486530303955,18.1421947479248,18.1357383728027,18.1292877197266,18.1228408813477,18.116397857666,18.1099605560303,18.1035289764404,18.0971012115479,18.0906772613525,18.0842590332031,18.077844619751,18.0714359283447
4.04743528366089,4.05868911743164,4.07000541687012,4.08138513565063,4.09282827377319,4.10433578491211,4.11590814590454,4.12754583358765,4.13924932479858,4.15101957321167,4.16285705566406,4.17476224899292,4.1867356300354,4.19877767562866,4.21088981628418,4.22307157516479,4.23532390594482,4.24764776229858,4.26004362106323,4.27251148223877,4.28505325317383,4.29766845703125,4.31035852432251,4.32312345504761,4.33596420288086,4.34888172149658,4.36187601089478,4.37494850158691,4.38809967041016,4.40132999420166,4.41464042663574,0,0,0,0,0,0,0,0,0,0,0,0,0,0,0,0,0,0,0,0,0,0,0,0,0,0,0,0,0,0,0,0,0,0,0,0,0,0,0,0,0,0,0,0,0,0,0,0,0,0,0,0,0,0,0,0,0,0,0,0,0,0,0,0,0,0,0,0,0,0,0,0,0,0,0,0,0,0,0,0,0,0,0,0,0,0,0,0,0,0,0,0,0,0,0,0,0,0,0,0,0,0,0,0,0,0,0,0,0,0,0,0,0,0,0,0,0,0,0,0,0,0,0,0,0,0,0,0,0,0,0,0,0,19.9965438842773,19.9887008666992,19.9808654785156,19.9730358123779,19.9652118682861,19.9573936462402,19.9495830535889,19.9417762756348,19.9339771270752,19.9261856079102,19.9183979034424,19.9106178283691,19.9028396606445,19.8950710296631,19.8873100280762,19.8795528411865,19.8718013763428,19.8640575408936,19.8563175201416,19.8485851287842,19.8408603668213,19.8331394195557,19.8254241943359,19.8177165985107,19.8100128173828,19.8023166656494,19.7946262359619,19.7869415283203,19.779260635376,19.7715892791748,19.7639236450195,19.7562618255615,19.748607635498,19.7409572601318,19.7333145141602,19.7256774902344,19.7180461883545,19.7104206085205,19.7028007507324,19.6951866149902,19.6875801086426,19.6799793243408,19.6723823547363,19.6647930145264,19.6572074890137,19.6496295928955,19.6420574188232,19.6344909667969,19.6269302368164,19.6193752288818,19.6118259429932,19.6042823791504,19.5967445373535,19.5892124176025,19.5816860198975,19.5741672515869,19.566650390625,19.5591430664062,19.5516414642334,19.5441436767578,19.5366516113281,19.5291652679443,19.5216865539551,19.5142116546631,19.506742477417,19.4992790222168,19.4918231964111,19.4843711853027,19.4769248962402,19.4694862365723,19.4620513916016,19.4546222686768,19.4472007751465,19.4397830963135,19.4323711395264,19.4249649047852,19.4175643920898,19.4101696014404,19.4027805328369,19.3953971862793,19.3880195617676,19.3806457519531,19.3732814788818,19.3659191131592,19.3585624694824,19.3512134552002,19.3438701629639,19.3365306854248,19.3291969299316,19.321870803833,19.3145484924316,19.3072299957275,19.299919128418,19.2926139831543,19.2853145599365,19.278018951416,19.27073097229,19.2634468078613,19.2561683654785,19.2488975524902,19.2416305541992,19.2343692779541,19.2271137237549,19.2198638916016,19.2126197814941,19.2053775787354,19.1981449127197,19.1909160614014,19.1836929321289,19.1764755249023,19.169261932373,19.1620559692383,19.1548538208008,19.1476593017578,19.1404685974121,19.1332836151123,19.1261024475098,19.1189270019531,19.111759185791,19.1045951843262,19.0974369049072,19.0902843475342,19.083137512207,19.0759944915771,19.0688571929932,19.0617256164551,19.0545978546143,19.047477722168,19.0403633117676,19.0332527160645,19.0261478424072,19.0190467834473,19.0119533538818,19.0048637390137,18.9977798461914,18.9907035827637,18.9836292266846,18.9765605926514,18.9694976806641,18.9624404907227,18.9553871154785,18.9483413696289,18.9412994384766,18.9342632293701,18.9272308349609,18.9202060699463,18.9131851196289,18.9061698913574,18.8991584777832,18.8921527862549,18.8851528167725,18.8781585693359,18.8711681365967,18.8641834259033,18.8572044372559,18.8502311706543,18.84326171875,18.8362979888916,18.8293399810791,18.8223838806152,18.8154354095459,18.8084945678711,18.8015556335449,18.7946224212646,18.7876949310303,18.7807712554932,18.773853302002,18.7669410705566,18.7600345611572,18.7531299591064,18.7462329864502,18.7393398284912,18.7324542999268,18.7255706787109,18.7186946868896,18.7118225097656,18.7049541473389,18.6980934143066,18.6912364959717,18.684383392334,18.6775360107422,18.6706943511963,18.6638584136963,18.6570262908936,18.6501998901367,18.6433773040771,18.6365604400635,18.6297473907471,18.6229419708252,18.6161403656006,18.6093425750732,18.6025505065918,18.5957622528076,18.588981628418,18.582202911377,18.5754318237305,18.5686645507812,18.5619010925293,18.5551433563232,18.5483913421631,18.5416431427002,18.5348987579346,18.5281620025635,18.5214290618896,18.5147018432617,18.5079784393311,18.5012607574463,18.4945468902588,18.4878387451172,18.4811363220215,18.474437713623,18.4677429199219,18.4610538482666,18.4543685913086,18.4476890563965,18.4410152435303,18.4343452453613,18.4276809692383,18.4210186004639,18.414363861084,18.40771484375,18.4010677337646,18.3944263458252,18.3877906799316,18.3811588287354,18.374532699585,18.3679103851318,18.3612937927246,18.3546810150146,18.3480739593506,18.3414707183838,18.3348751068115,18.3282814025879,18.3216915130615,18.3151073455811,18.3085289001465,18.3019542694092,18.2953853607178,18.2888202667236,18.2822589874268,18.2757053375244,18.2691555023193,18.2626075744629,18.256067276001,18.2495288848877,18.2429981231689,18.2364692687988,18.2299480438232,18.2234306335449,18.2169170379639,18.2104072570801,18.2039031982422,18.1974048614502,18.1909084320068,18.184419631958,18.1779346466064,18.1714534759521,18.1649761199951,18.158504486084,18.1520385742188,18.1455745697021,18.1391181945801,18.1326656341553,18.1262168884277,18.1197719573975,18.1133308410645,18.106897354126,18.1004657745361,18.0940399169922,18.0876197814941,18.0812034606934,18.0747909545898,18.0683841705322,18.0619812011719,18.0555839538574,18.0491886138916,18.0427989959717,18.036413192749,18.0300331115723,18.0236568450928,18.0172863006592,18.0109195709229,18.0045566558838,17.9981994628906,17.9918460845947,17.9854965209961,17.9791526794434,17.9728126525879,17.9664764404297,17.9601459503174,17.9538192749023,17.9474964141846,17.9411792755127,17.9348659515381,17.9285583496094,17.9222526550293,17.9159526824951,17.9096584320068
4.03640270233154,4.04759502410889,4.05884981155396,4.07016706466675,4.08154726028442,4.09299182891846,4.10450077056885,4.11607360839844,4.12771272659302,4.13941717147827,4.15118837356567,4.16302680969238,4.17493295669556,4.18690729141235,4.19895029067993,4.21106338500977,4.2232460975647,4.23549938201904,4.24782466888428,4.26022100448608,4.27269077301025,4.28523302078247,4.29784965515137,4.31054067611694,4.32330656051636,4.33614826202393,4.34906673431396,4.36206245422363,4.37513589859009,4.38828802108765,4.40151977539062,4.41483116149902,4.42822360992432,4.4416971206665,0,0,0,0,0,0,0,0,0,0,0,0,0,0,0,0,0,0,0,0,0,0,0,0,0,0,0,0,0,0,0,0,0,0,0,0,0,0,0,0,0,0,0,0,0,0,0,0,0,0,0,0,0,0,0,0,0,0,0,0,0,0,0,0,0,0,0,0,0,0,0,0,0,0,0,0,0,0,0,0,0,0,0,0,0,0,0,0,0,0,0,0,0,0,0,0,0,0,0,0,0,0,0,0,0,19.9928073883057,19.9849681854248,19.9771347045898,19.9693069458008,19.9614868164062,19.9536724090576,19.9458637237549,19.938060760498,19.9302635192871,19.9224739074707,19.9146900177002,19.9069118499756,19.8991394042969,19.8913726806641,19.8836135864258,19.8758602142334,19.8681125640869,19.8603706359863,19.8526344299316,19.8449058532715,19.8371810913086,19.8294620513916,19.8217525482178,19.8140449523926,19.8063449859619,19.7986507415771,19.7909641265869,19.7832813262939,19.7756061553955,19.767936706543,19.7602729797363,19.7526149749756,19.7449626922607,19.7373161315918,19.7296752929688,19.7220420837402,19.7144145965576,19.7067909240723,19.6991748809814,19.6915626525879,19.6839580535889,19.6763591766357,19.6687660217285,19.6611785888672,19.6535968780518,19.6460208892822,19.6384525299072,19.6308879852295,19.6233310699463,19.6157779693604,19.6082305908203,19.6006908416748,19.5931549072266,19.5856266021729,19.5781021118164,19.5705852508545,19.5630741119385,19.5555686950684,19.5480690002441,19.5405731201172,19.5330848693848,19.5256023406982,19.518123626709,19.5106525421143,19.5031871795654,19.4957275390625,19.4882717132568,19.4808235168457,19.4733810424805,19.4659423828125,19.4585113525391,19.4510860443115,19.4436664581299,19.4362506866455,19.428840637207,19.4214382171631,19.414041519165,19.4066486358643,19.3992614746094,19.391881942749,19.3845062255859,19.3771362304688,19.3697719573975,19.3624153137207,19.3550605773926,19.347713470459,19.3403720855713,19.3330364227295,19.3257064819336,19.3183822631836,19.3110599517822,19.303747177124,19.2964401245117,19.2891368865967,19.2818393707275,19.2745475769043,19.267261505127,19.2599792480469,19.2527046203613,19.2454357147217,19.2381725311279,19.2309131622314,19.2236595153809,19.2164115905762,19.2091693878174,19.2019329071045,19.1947002410889,19.1874752044678,19.1802520751953,19.173038482666,19.165828704834,19.1586246490479,19.1514263153076,19.1442317962646,19.1370449066162,19.129861831665,19.1226844787598,19.1155128479004,19.1083450317383,19.1011848449707,19.094030380249,19.0868797302246,19.0797328948975,19.0725936889648,19.0654582977295,19.05832862854,19.0512065887451,19.0440883636475,19.0369758605957,19.0298671722412,19.0227642059326,19.0156688690186,19.0085754394531,19.0014896392822,18.9944095611572,18.9873332977295,18.980260848999,18.9731960296631,18.9661350250244,18.9590797424316,18.9520301818848,18.9449863433838,18.9379482269287,18.9309120178223,18.9238834381104,18.9168605804443,18.9098434448242,18.9028282165527,18.8958206176758,18.8888187408447,18.8818206787109,18.874828338623,18.8678417205811,18.8608589172363,18.8538818359375,18.8469104766846,18.8399448394775,18.8329830169678,18.8260269165039,18.8190746307373,18.8121280670166,18.8051891326904,18.7982521057129,18.7913227081299,18.7843952178955,18.7774753570557,18.7705593109131,18.763650894165,18.7567443847656,18.7498455047607,18.7429485321045,18.7360591888428,18.7291736602783,18.7222938537598,18.7154197692871,18.7085494995117,18.7016849517822,18.6948261260986,18.6879711151123,18.6811218261719,18.6742763519287,18.6674385070801,18.6606025695801,18.653772354126,18.6469478607178,18.6401290893555,18.6333141326904,18.6265068054199,18.619701385498,18.6129016876221,18.606107711792,18.5993156433105,18.5925312042236,18.5857524871826,18.5789775848389,18.572208404541,18.5654411315918,18.5586814880371,18.5519275665283,18.5451774597168,18.5384311676025,18.5316925048828,18.5249557495117,18.5182247161865,18.5114994049072,18.5047779083252,18.4980621337891,18.4913501739502,18.4846458435059,18.4779434204102,18.4712467193604,18.4645557403564,18.4578685760498,18.4511852264404,18.4445095062256,18.4378356933594,18.4311695098877,18.4245071411133,18.4178485870361,18.4111957550049,18.4045486450195,18.3979034423828,18.3912658691406,18.3846302032471,18.378002166748,18.3713760375977,18.3647575378418,18.3581428527832,18.3515338897705,18.3449287414551,18.3383293151855,18.3317317962646,18.3251419067383,18.3185558319092,18.3119735717773,18.3053970336914,18.2988243103027,18.29225730896,18.2856941223145,18.2791366577148,18.2725849151611,18.2660350799561,18.2594909667969,18.2529525756836,18.2464160919189,18.2398872375488,18.233362197876,18.2268409729004,18.2203273773193,18.2138156890869,18.2073097229004,18.2008075714111,18.1943092346191,18.1878185272217,18.1813297271729,18.1748466491699,18.1683673858643,18.1618938446045,18.155424118042,18.1489582061768,18.1424980163574,18.136043548584,18.1295928955078,18.1231460571289,18.1167030334473,18.1102676391602,18.103832244873,18.0974044799805,18.0909824371338,18.0845623016357,18.0781478881836,18.0717391967773,18.0653343200684,18.058931350708,18.0525360107422,18.0461444854736,18.0397567749023,18.0333728790283,18.0269947052002,18.020622253418,18.0142517089844,18.0078887939453,18.0015277862549,17.9951725006104,17.9888210296631,17.9824752807617,17.9761333465576,17.9697933197021,17.9634609222412,17.9571304321289,17.9508075714111,17.944486618042,17.9381713867188,17.9318599700928,17.9255542755127,17.9192523956299,17.9129543304443,17.9066619873047,17.900369644165,17.8940868377686,17.8878059387207,17.8815307617188,17.8752593994141,17.8689937591553,17.8627319335938,17.8564720153809,17.8502197265625,17.8439712524414,17.8377227783203,17.8314838409424,17.8252468109131,17.8190155029297,17.8127880096436,17.8065643310547,17.8003463745117,17.794132232666,17.7879219055176,17.7817153930664,17.7755146026611,17.7693176269531,17.7631244659424,17.7569351196289,17.75075340271
4.02543020248413,4.03656148910522,4.04775476455688,4.05901002883911,4.07032823562622,4.08170986175537,4.09315538406372,4.10466480255127,4.11623954772949,4.12787961959839,4.13958501815796,4.15135717391968,4.1631965637207,4.17510366439819,4.18707895278931,4.19912338256836,4.21123695373535,4.2234206199646,4.23567533493042,4.24800109863281,4.26039886474609,4.27286958694458,4.28541278839111,4.29803037643433,4.31072235107422,4.32348966598511,4.33633279800415,4.34925222396851,4.36224889755249,4.37532377243042,4.38847684860229,4.40170955657959,4.4150218963623,4.42841577529907,4.44189023971558,4.45544767379761,4.46908760070801,0,0,0,0,0,0,0,0,0,0,0,0,0,0,0,0,0,0,0,0,0,0,0,0,0,0,0,0,0,0,0,0,0,0,0,0,0,0,0,0,0,0,0,0,0,0,0,0,0,0,0,0,0,0,0,0,0,0,0,0,0,0,0,0,0,0,0,0,0,0,0,0,0,0,0,0,19.9969139099121,19.9890727996826,19.9812355041504,19.9734058380127,19.9655818939209,19.957763671875,19.949951171875,19.9421463012695,19.9343452453613,19.9265518188477,19.9187660217285,19.9109840393066,19.9032096862793,19.8954391479492,19.8876762390137,19.879919052124,19.8721694946289,19.8644237518311,19.8566856384277,19.8489513397217,19.8412246704102,19.8335037231445,19.8257884979248,19.8180809020996,19.8103771209717,19.8026790618896,19.7949886322021,19.7873039245605,19.7796249389648,19.7719535827637,19.7642860412598,19.7566242218018,19.7489681243896,19.7413196563721,19.7336750030518,19.726037979126,19.7184066772461,19.7107810974121,19.703161239624,19.6955471038818,19.6879405975342,19.6803379058838,19.6727409362793,19.6651515960693,19.6575660705566,19.6499881744385,19.6424140930176,19.6348495483398,19.6272869110107,19.6197319030762,19.6121826171875,19.6046390533447,19.5971012115479,19.5895690917969,19.5820426940918,19.5745220184326,19.5670070648193,19.559497833252,19.5519962310791,19.5444965362549,19.5370063781738,19.52952003479,19.5220394134521,19.5145645141602,19.5070953369141,19.4996318817139,19.4921760559082,19.4847240447998,19.4772777557373,19.4698371887207,19.46240234375,19.4549732208252,19.4475517272949,19.4401321411133,19.4327220916748,19.425313949585,19.4179134368896,19.4105186462402,19.4031295776367,19.3957462310791,19.3883666992188,19.3809947967529,19.373628616333,19.3662662506104,19.3589115142822,19.3515625,19.344217300415,19.336877822876,19.3295440673828,19.3222160339355,19.3148937225342,19.3075771331787,19.3002662658691,19.2929611206055,19.2856597900391,19.2783660888672,19.2710762023926,19.2637920379639,19.2565135955811,19.2492408752441,19.2419738769531,19.234712600708,19.2274570465088,19.2202053070068,19.2129592895508,19.2057209014893,19.198486328125,19.1912574768066,19.1840324401855,19.1768169403076,19.1696033477783,19.1623973846436,19.1551952362061,19.1479988098145,19.1408081054688,19.1336231231689,19.126443862915,19.1192684173584,19.112096786499,19.1049346923828,19.0977745056152,19.0906219482422,19.083475112915,19.0763320922852,19.0691947937012,19.0620632171631,19.0549354553223,19.047815322876,19.040699005127,19.0335865020752,19.0264835357666,19.0193824768066,19.0122890472412,19.005199432373,18.9981155395508,18.9910373687744,18.9839630126953,18.9768962860107,18.9698333740234,18.9627742767334,18.9557209014893,18.948673248291,18.9416313171387,18.9345951080322,18.9275646209717,18.9205379486084,18.913516998291,18.9064998626709,18.8994903564453,18.892484664917,18.8854827880859,18.8784885406494,18.8714981079102,18.8645133972168,18.8575344085693,18.8505611419678,18.8435916900635,18.8366260528564,18.8296680450439,18.8227138519287,18.8157653808594,18.8088207244873,18.8018836975098,18.7949504852295,18.7880210876465,18.781099319458,18.7741813659668,18.7672691345215,18.7603607177734,18.7534580230713,18.746561050415,18.7396659851074,18.7327785491943,18.7258968353271,18.7190189361572,18.7121467590332,18.7052803039551,18.6984176635742,18.6915607452393,18.6847076416016,18.6778621673584,18.6710186004639,18.6641807556152,18.6573486328125,18.6505222320557,18.6436996459961,18.6368827819824,18.630069732666,18.6232643127441,18.6164627075195,18.6096630096436,18.6028728485107,18.5960826873779,18.5893001556396,18.5825233459473,18.5757522583008,18.5689830780029,18.5622215270996,18.5554637908936,18.5487098693848,18.5419635772705,18.5352210998535,18.5284824371338,18.5217475891113,18.5150203704834,18.5082969665527,18.501579284668,18.4948635101318,18.4881553649902,18.4814529418945,18.4747524261475,18.4680595397949,18.4613704681396,18.4546871185303,18.4480056762695,18.4413299560547,18.4346599578857,18.4279956817627,18.4213333129883,18.4146785736084,18.4080276489258,18.4013824462891,18.3947410583496,18.3881053924561,18.3814716339111,18.3748455047607,18.3682250976562,18.361608505249,18.3549938201904,18.3483867645264,18.3417835235596,18.3351860046387,18.328592300415,18.3220043182373,18.3154201507568,18.3088397979736,18.3022651672363,18.2956962585449,18.2891311645508,18.2825698852539,18.2760143280029,18.2694625854492,18.2629165649414,18.2563762664795,18.2498378753662,18.2433071136475,18.2367782592773,18.2302551269531,18.2237377166748,18.2172241210938,18.21071434021,18.2042121887207,18.1977119445801,18.1912155151367,18.1847267150879,18.1782417297363,18.1717586517334,18.1652812957764,18.1588096618652,18.15234375,18.1458797454834,18.1394233703613,18.1329708099365,18.1265201568604,18.1200771331787,18.1136379241943,18.1072025299072,18.1007709503174,18.0943450927734,18.0879230499268,18.081506729126,18.0750942230225,18.0686874389648,18.0622825622559,18.0558853149414,18.0494918823242,18.0431022644043,18.0367164611816,18.0303344726562,18.0239601135254,18.0175876617432,18.0112209320068,18.0048580169678,17.9985008239746,17.9921455383301,17.9857978820801,17.9794521331787,17.9731121063232,17.966775894165,17.9604454040527,17.9541187286377,17.9477958679199,17.941478729248,17.9351654052734,17.9288558959961,17.9225521087646,17.9162521362305,17.9099559783936,17.9036636352539,17.8973770141602,17.8910942077637,17.8848171234131,17.8785438537598,17.8722743988037,17.8660106658936,17.859748840332,17.8534927368164,17.8472423553467,17.8409957885742,17.8347511291504,17.8285121917725,17.8222789764404,17.8160495758057,17.8098239898682,17.8036022186279,17.7973861694336,17.7911739349365,17.7849655151367,17.7787628173828,17.7725620269775,17.7663669586182,17.7601757049561,17.7539882659912,17.7478065490723,17.7416286468506,17.7354564666748,17.7292861938477,17.7231216430664,17.7169609069824,17.7108058929443,17.7046527862549,17.6985034942627,17.6923599243164,17.686222076416,17.6800861358643,17.6739559173584,17.6678295135498,17.6617069244385,17.6555881500244,17.6494750976562,17.6433658599854,17.6372604370117,17.6311588287354,17.6250629425049,17.618968963623,17.6128807067871,17.6067962646484,17.600715637207,17.5946407318115
4.01451683044434,4.0255880355835,4.03672027587891,4.04791450500488,4.05917072296143,4.07048988342285,4.08187246322632,4.09331893920898,4.10482931137085,4.11640501022339,4.1280460357666,4.13975286483765,4.15152597427368,4.16336631774902,4.17527437210083,4.18725061416626,4.19929599761963,4.21141052246094,4.22359561920166,4.2358512878418,4.24817800521851,4.2605767250061,4.27304840087891,4.28559303283691,4.29821157455444,4.31090450286865,4.32367277145386,4.33651685714722,4.34943771362305,4.36243534088135,4.37551116943359,4.38866567611694,4.40189933776855,4.41521310806274,4.42860746383667,4.44208383560181,4.45564222335815,4.46928358078003,4.48300886154175,4.49681854248047,0,0,0,0,0,0,0,0,0,0,0,0,0,0,0,0,0,0,0,0,0,0,0,0,0,0,0,0,0,0,0,0,0,0,0,0,0,0,0,0,0,0,0,0,0,0,0,0,19.9931812286377,19.9853401184082,19.9775066375732,19.9696788787842,19.961856842041,19.9540424346924,19.946231842041,19.9384307861328,19.9306335449219,19.9228420257568,19.9150581359863,19.9072799682617,19.899507522583,19.8917407989502,19.8839797973633,19.8762264251709,19.8684787750244,19.8607349395752,19.8530006408691,19.8452701568604,19.8375453948975,19.8298282623291,19.8221168518066,19.8144092559814,19.8067111968994,19.7990169525146,19.7913265228271,19.7836456298828,19.7759704589844,19.7682991027832,19.7606353759766,19.7529773712158,19.745325088501,19.737678527832,19.730037689209,19.7224025726318,19.7147750854492,19.7071514129639,19.6995334625244,19.6919231414795,19.6843185424805,19.6767196655273,19.6691246032715,19.6615371704102,19.6539554595947,19.6463794708252,19.6388092041016,19.6312465667725,19.6236877441406,19.6161346435547,19.6085891723633,19.6010456085205,19.5935115814209,19.5859832763672,19.5784587860107,19.5709400177002,19.5634288787842,19.5559234619141,19.5484218597412,19.5409278869629,19.5334396362305,19.5259552001953,19.5184783935547,19.51100730896,19.5035419464111,19.4960784912109,19.4886245727539,19.4811763763428,19.4737319946289,19.4662952423096,19.4588642120361,19.45143699646,19.4440174102783,19.4366016387939,19.4291934967041,19.4217872619629,19.4143886566162,19.4069976806641,19.3996105194092,19.3922309875488,19.3848552703857,19.3774852752686,19.3701210021973,19.3627624511719,19.3554096221924,19.3480625152588,19.3407192230225,19.3333835601807,19.3260536193848,19.3187274932861,19.3114070892334,19.3040943145752,19.2967853546143,19.2894821166992,19.2821846008301,19.2748928070068,19.2676067352295,19.2603244781494,19.2530498504639,19.2457790374756,19.2385139465332,19.2312545776367,19.2240028381348,19.2167549133301,19.2095108032227,19.2022743225098,19.1950435638428,19.1878147125244,19.1805934906006,19.1733798980713,19.1661701202393,19.1589660644531,19.1517658233643,19.1445732116699,19.1373844146729,19.1302013397217,19.1230239868164,19.115852355957,19.1086845397949,19.1015224456787,19.094367980957,19.087215423584,19.0800704956055,19.0729312896729,19.0657958984375,19.0586681365967,19.0515441894531,19.0444259643555,19.0373115539551,19.0302028656006,19.023099899292,19.0160026550293,19.0089111328125,19.0018253326416,18.994743347168,18.9876670837402,18.9805965423584,18.9735298156738,18.9664707183838,18.9594135284424,18.9523639678955,18.9453182220459,18.9382801055908,18.931245803833,18.9242153167725,18.9171924591064,18.9101734161377,18.9031600952148,18.8961524963379,18.8891487121582,18.8821506500244,18.8751583099365,18.8681716918945,18.8611888885498,18.854211807251,18.847240447998,18.8402729034424,18.8333110809326,18.8263549804688,18.8194046020508,18.8124580383301,18.8055171966553,18.7985801696777,18.7916488647461,18.7847232818604,18.7778015136719,18.7708873748779,18.7639770507812,18.7570705413818,18.750171661377,18.7432765960693,18.736385345459,18.7294998168945,18.722620010376,18.7157459259033,18.7088756561279,18.7020092010498,18.6951503753662,18.6882953643799,18.6814460754395,18.6746025085449,18.667760848999,18.6609268188477,18.6540966033936,18.6472721099854,18.6404514312744,18.6336364746094,18.6268272399902,18.6200218200684,18.613224029541,18.6064281463623,18.5996379852295,18.5928535461426,18.5860729217529,18.5792980194092,18.5725269317627,18.5657615661621,18.5590019226074,18.55224609375,18.5454959869385,18.5387496948242,18.5320110321045,18.5252742767334,18.5185432434082,18.5118160247803,18.5050945281982,18.4983787536621,18.4916687011719,18.4849624633789,18.4782600402832,18.4715633392334,18.4648704528809,18.4581851959229,18.4515037536621,18.44482421875,18.4381523132324,18.4314842224121,18.4248218536377,18.4181632995605,18.4115104675293,18.4048614501953,18.3982181549072,18.3915786743164,18.3849449157715,18.3783168792725,18.3716907501221,18.3650722503662,18.358455657959,18.3518466949463,18.3452415466309,18.3386402130127,18.3320446014404,18.3254547119141,18.3188667297363,18.3122844696045,18.3057079315186,18.2991352081299,18.2925662994385,18.2860050201416,18.279447555542,18.2728939056396,18.2663440704346,18.2597999572754,18.2532615661621,18.2467269897461,18.2401962280273,18.2336711883545,18.2271518707275,18.2206344604492,18.2141227722168,18.2076168060303,18.201114654541,18.194616317749,18.1881256103516,18.1816368103027,18.1751518249512,18.1686725616455,18.1621990203857,18.1557292938232,18.1492652893066,18.1428031921387,18.1363487243652,18.1298961639404,18.1234512329102,18.1170082092285,18.1105709075928,18.1041374206543,18.0977096557617,18.0912857055664,18.0848655700684,18.0784530639648,18.07204246521,18.0656356811523,18.0592346191406,18.0528392791748,18.0464477539062,18.040060043335,18.0336761474609,18.0272960662842,18.020923614502,18.0145530700684,18.0081882476807,18.0018272399902,17.9954719543457,17.9891204833984,17.9827747344971,17.976432800293,17.9700946807861,17.9637603759766,17.9574298858643,17.9511070251465,17.9447860717773,17.9384708404541,17.9321594238281,17.9258518218994,17.9195499420166,17.9132537841797,17.9069595336914,17.9006690979004,17.8943843841553,17.8881053924561,17.8818283081055,17.8755569458008,17.869291305542,17.8630275726318,17.8567695617676,17.8505153656006,17.8442668914795,17.838020324707,17.8317794799805,17.8255424499512,17.8193111419678,17.813081741333,17.8068599700928,17.8006420135498,17.7944259643555,17.788215637207,17.7820110321045,17.7758083343506,17.7696094512939,17.7634181976318,17.7572288513184,17.7510433197021,17.7448635101318,17.7386875152588,17.7325172424316,17.7263488769531,17.7201862335205,17.7140293121338,17.7078742980957,17.7017250061035,17.69557762146,17.6894340515137,17.6832981109619,17.6771659851074,17.6710376739502,17.6649131774902,17.6587924957275,17.6526775360107,17.6465644836426,17.6404571533203,17.6343536376953,17.6282539367676,17.6221599578857,17.6160678863525,17.6099834442139,17.6038990020752,17.5978221893311,17.5917491912842,17.5856781005859,17.5796127319336,17.5735511779785,17.5674953460693,17.5614414215088,17.5553913116455,17.5493488311768,17.5433082580566,17.5372714996338,17.5312385559082,17.5252094268799,17.5191860198975,17.5131664276123,17.5071506500244,17.5011405944824,17.4951324462891,17.4891300201416,17.4831314086914,17.4771347045898,17.4711437225342,17.4651565551758,17.4591751098633,17.4531955718994,17.4472217559814,17.4412517547607
4.00366306304932,4.01467418670654,4.02574634552002,4.03687953948975,4.04807424545288,4.05933141708374,4.07065153121948,4.08203506469727,4.09348201751709,4.10499382019043,4.11657047271729,4.12821245193481,4.13992023468018,4.15169477462769,4.16353607177734,4.17544507980347,4.18742227554321,4.1994686126709,4.21158456802368,4.22377014160156,4.23602676391602,4.2483549118042,4.26075458526611,4.27322721481323,4.28577280044556,4.2983922958374,4.31108665466309,4.32385587692261,4.33670139312744,4.34962272644043,4.36262178421021,4.37569856643677,4.38885402679443,4.40208911895752,4.41540384292603,4.42880010604858,4.44227695465088,4.4558367729187,4.46947908401489,4.48320531845093,4.49701642990112,4.51091289520264,4.52489519119263,0,0,0,0,0,0,0,0,0,0,0,0,0,0,0,0,0,0,0,19.9973030090332,19.9894599914551,19.9816226959229,19.9737911224365,19.9659652709961,19.9581470489502,19.9503345489502,19.9425277709961,19.9347286224365,19.9269332885742,19.9191455841064,19.9113636016846,19.9035873413086,19.8958168029785,19.888053894043,19.8802947998047,19.8725433349609,19.8647975921631,19.8570575714111,19.8493251800537,19.8415966033936,19.8338756561279,19.8261604309082,19.8184509277344,19.8107471466064,19.8030490875244,19.7953567504883,19.7876720428467,19.7799911499023,19.7723178863525,19.7646503448486,19.7569885253906,19.7493324279785,19.7416820526123,19.734037399292,19.7264003753662,19.7187690734863,19.7111415863037,19.7035217285156,19.6959075927734,19.6882991790771,19.6806983947754,19.6731014251709,19.6655101776123,19.6579265594482,19.6503467559814,19.6427726745605,19.6352062225342,19.6276454925537,19.6200885772705,19.6125392913818,19.6049957275391,19.5974578857422,19.5899257659912,19.5823993682861,19.5748767852783,19.567361831665,19.5598526000977,19.5523490905762,19.5448513031006,19.5373592376709,19.5298728942871,19.5223922729492,19.5149192810059,19.5074501037598,19.4999866485596,19.4925270080566,19.4850749969482,19.4776287078857,19.4701900482178,19.4627532958984,19.4553260803223,19.4479007720947,19.4404830932617,19.4330730438232,19.4256649017334,19.4182643890381,19.4108695983887,19.4034805297852,19.3960933685303,19.3887157440186,19.3813438415527,19.3739757537842,19.3666152954102,19.3592586517334,19.3519077301025,19.3445644378662,19.3372249603271,19.329891204834,19.3225631713867,19.3152389526367,19.3079223632812,19.3006114959717,19.2933044433594,19.2860050201416,19.2787113189697,19.2714214324951,19.2641372680664,19.2568588256836,19.2495861053467,19.242317199707,19.2350559234619,19.2278003692627,19.2205486297607,19.2133026123047,19.2060642242432,19.1988296508789,19.1915988922119,19.1843757629395,19.1771564483643,19.1699447631836,19.1627368927002,19.1555347442627,19.1483383178711,19.1411476135254,19.1339626312256,19.1267833709717,19.119607925415,19.1124382019043,19.1052722930908,19.0981140136719,19.0909595489502,19.083812713623,19.0766696929932,19.0695323944092,19.0624008178711,19.0552730560303,19.048152923584,19.041036605835,19.0339260101318,19.026819229126,19.019718170166,19.0126247406006,19.0055351257324,18.9984493255615,18.9913711547852,18.9842967987061,18.9772300720215,18.9701671600342,18.9631080627441,18.9560546875,18.9490070343018,18.9419651031494,18.934928894043,18.9278964996338,18.9208717346191,18.9138488769531,18.9068336486816,18.8998222351074,18.8928165435791,18.8858165740967,18.8788185119629,18.8718299865723,18.8648452758789,18.8578643798828,18.8508911132812,18.8439197540283,18.8369560241699,18.8299980163574,18.8230438232422,18.8160934448242,18.8091506958008,18.8022117614746,18.7952785491943,18.7883491516113,18.7814254760742,18.774507522583,18.7675952911377,18.7606868743896,18.7537841796875,18.7468872070312,18.7399940490723,18.7331066131592,18.7262210845947,18.7193450927734,18.7124710083008,18.7056045532227,18.6987419128418,18.6918849945068,18.6850337982178,18.6781845092773,18.6713428497314,18.6645050048828,18.6576709747314,18.6508445739746,18.644021987915,18.6372051239014,18.6303939819336,18.6235847473145,18.6167831420898,18.6099853515625,18.6031932830811,18.5964050292969,18.5896224975586,18.5828437805176,18.5760707855225,18.5693035125732,18.5625419616699,18.5557823181152,18.5490303039551,18.5422821044922,18.5355396270752,18.5288009643555,18.5220680236816,18.5153388977051,18.5086154937744,18.501895904541,18.4951820373535,18.4884738922119,18.4817676544189,18.4750690460205,18.4683742523193,18.4616851806641,18.4549999237061,18.4483203887939,18.4416446685791,18.4349746704102,18.4283103942871,18.4216499328613,18.4149951934814,18.4083423614502,18.4016971588135,18.395055770874,18.3884181976318,18.3817863464355,18.3751602172852,18.3685359954834,18.3619194030762,18.3553066253662,18.3486995697021,18.3420963287354,18.3354969024658,18.3289031982422,18.3223152160645,18.315731048584,18.3091506958008,18.3025779724121,18.2960052490234,18.2894401550293,18.2828807830811,18.2763252258301,18.2697715759277,18.2632274627686,18.256685256958,18.2501487731934,18.243616104126,18.2370891571045,18.2305641174316,18.2240447998047,18.2175331115723,18.2110233306885,18.204517364502,18.19801902771,18.1915225982666,18.1850337982178,18.1785469055176,18.1720657348633,18.1655902862549,18.1591167449951,18.1526489257812,18.1461868286133,18.1397285461426,18.1332740783691,18.1268253326416,18.12038230896,18.113941192627,18.1075057983398,18.1010761260986,18.0946502685547,18.0882263183594,18.0818099975586,18.0753974914551,18.0689907073975,18.0625877380371,18.056188583374,18.0497932434082,18.0434036254883,18.0370178222656,18.0306377410889,18.0242614746094,18.0178890228271,18.0115203857422,18.0051574707031,17.99880027771,17.9924468994141,17.9860973358154,17.9797534942627,17.9734115600586,17.9670753479004,17.9607448577881,17.954418182373,17.9480953216553,17.9417762756348,17.9354648590088,17.9291534423828,17.9228496551514,17.9165496826172,17.9102535247803,17.9039630889893,17.8976745605469,17.891393661499,17.8851146697998,17.8788394927979,17.8725700378418,17.8663063049316,17.8600444793701,17.8537883758545,17.8475379943848,17.8412895202637,17.8350467681885,17.8288097381592,17.8225727081299,17.8163433074951,17.8101177215576,17.803897857666,17.797679901123,17.791467666626,17.7852592468262,17.7790546417236,17.772855758667,17.766658782959,17.7604694366455,17.7542819976807,17.7481002807617,17.74192237854,17.735746383667,17.7295780181885,17.7234134674072,17.7172527313232,17.7110958099365,17.7049427032471,17.6987972259521,17.6926517486572,17.6865119934082,17.6803760528564,17.6742458343506,17.668119430542,17.6619968414307,17.6558799743652,17.6497650146484,17.6436538696289,17.6375503540039,17.6314487457275,17.6253509521484,17.6192588806152,17.6131687164307,17.607084274292,17.6010055541992,17.5949268341064,17.5888576507568,17.5827884674072,17.5767250061035,17.5706653594971,17.5646114349365,17.5585594177246,17.55251121521,17.5464706420898,17.5404300689697,17.5343971252441,17.5283679962158,17.5223407745361,17.5163192749023,17.5102996826172,17.5042877197266,17.4982776641846,17.4922714233398,17.486270904541,17.4802742004395,17.4742813110352,17.4682922363281,17.4623069763184,17.4563255310059,17.4503498077393,17.4443778991699,17.4384098052979,17.4324436187744,17.4264831542969,17.4205284118652,17.4145755767822,17.4086265563965,17.4026851654053,17.3967437744141,17.3908081054688,17.3848762512207,17.3789482116699,17.3730239868164,17.3671035766602,17.3611888885498,17.3552780151367,17.3493690490723,17.3434658050537,17.3375663757324,17.3316707611084,17.3257789611816,17.3198928833008,17.3140087127686,17.3081283569336,17.3022518157959,17.2963809967041,17.2905139923096
3.9928674697876,4.00381946563721,4.01483154296875,4.02590417861938,4.03703832626343,4.04823446273804,4.05949258804321,4.07081317901611,4.08219766616821,4.09364557266235,4.10515832901001,4.11673545837402,4.12837839126587,4.14008760452271,4.15186309814453,4.16370582580566,4.1756157875061,4.18759441375732,4.19964170455933,4.21175813674927,4.22394514083862,4.23620271682739,4.24853181838989,4.26093244552612,4.27340602874756,4.2859525680542,4.29857349395752,4.31126880645752,4.32403898239136,4.33688545227051,4.34980821609497,4.36280822753906,4.3758864402771,4.38904285430908,4.40227890014648,4.41559505462646,4.42899179458618,4.44247055053711,4.45603132247925,4.46967506408691,4.48340225219727,4.49721479415894,4.51111221313477,4.52509593963623,4.53916645050049,4.55332469940186,19.9232368469238,19.9154529571533,19.9076728820801,19.8998985290527,19.8921318054199,19.884370803833,19.876615524292,19.8688659667969,19.8611240386963,19.8533878326416,19.8456554412842,19.8379306793213,19.8302116394043,19.8225002288818,19.8147945404053,19.807092666626,19.7993984222412,19.7917098999023,19.7840270996094,19.7763500213623,19.7686786651611,19.7610130310059,19.7533531188965,19.7457008361816,19.7380542755127,19.7304134368896,19.7227764129639,19.7151470184326,19.7075252532959,19.6999053955078,19.6922950744629,19.6846866607666,19.6770896911621,19.6694946289062,19.6619052886963,19.6543235778809,19.6467475891113,19.6391754150391,19.6316108703613,19.6240520477295,19.6164989471436,19.6089515686035,19.6014099121094,19.5938739776611,19.5863437652588,19.5788192749023,19.5713005065918,19.5637874603271,19.5562801361084,19.5487804412842,19.5412845611572,19.5337944030762,19.526309967041,19.5188331604004,19.511360168457,19.5038928985596,19.4964332580566,19.488977432251,19.4815273284912,19.474084854126,19.466646194458,19.4592151641846,19.4517879486084,19.4443683624268,19.4369525909424,19.4295444488525,19.4221382141113,19.4147415161133,19.4073486328125,19.3999614715576,19.3925800323486,19.3852043151855,19.3778343200684,19.3704681396484,19.363109588623,19.3557586669922,19.34840965271,19.3410682678223,19.3337306976318,19.3264007568359,19.3190727233887,19.3117542266846,19.3044395446777,19.2971305847168,19.2898273468018,19.2825298309326,19.2752380371094,19.2679500579834,19.260669708252,19.2533931732178,19.2461223602295,19.2388572692871,19.2315998077393,19.22434425354,19.2170963287354,19.2098541259766,19.202615737915,19.1953830718994,19.1881580352783,19.1809387207031,19.1737213134766,19.1665115356445,19.1593055725098,19.1521072387695,19.1449127197266,19.1377239227295,19.1305408477783,19.123363494873,19.1161918640137,19.1090240478516,19.101863861084,19.094705581665,19.0875549316406,19.0804080963135,19.0732688903809,19.0661334991455,19.0590038299561,19.0518798828125,19.0447616577148,19.0376491546631,19.0305404663086,19.0234355926514,19.0163383483887,19.0092468261719,19.0021591186523,18.9950771331787,18.988000869751,18.9809303283691,18.9738636016846,18.9668025970459,18.9597473144531,18.9526977539062,18.9456520080566,18.9386119842529,18.9315776824951,18.9245491027832,18.9175243377686,18.9105052947998,18.903491973877,18.896484375,18.8894805908203,18.8824825286865,18.8754901885986,18.868501663208,18.8615188598633,18.8545417785645,18.8475704193115,18.8406028747559,18.8336410522461,18.8266849517822,18.8197326660156,18.8127861022949,18.8058452606201,18.7989082336426,18.7919769287109,18.7850513458252,18.7781295776367,18.7712135314941,18.7643032073975,18.7573986053467,18.7504978179932,18.7436027526855,18.7367115020752,18.7298259735107,18.7229461669922,18.7160701751709,18.7091999053955,18.702335357666,18.6954746246338,18.6886196136475,18.681770324707,18.6749248504639,18.6680850982666,18.6612510681152,18.6544208526611,18.6475944519043,18.6407737731934,18.633960723877,18.6271495819092,18.6203441619873,18.6135444641113,18.6067504882812,18.5999584197998,18.5931739807129,18.5863933563232,18.5796184539795,18.572847366333,18.5660820007324,18.5593223571777,18.5525665283203,18.5458145141602,18.5390701293945,18.5323276519775,18.5255928039551,18.5188617706299,18.5121364593506,18.5054130554199,18.4986972808838,18.4919853210449,18.485279083252,18.4785766601562,18.4718818664551,18.4651889801025,18.4584999084473,18.4518184661865,18.445140838623,18.4384689331055,18.4317989349365,18.4251365661621,18.418478012085,18.4118251800537,18.4051761627197,18.3985328674316,18.3918914794922,18.3852596282959,18.3786296844482,18.3720054626465,18.3653831481934,18.3587684631348,18.3521575927734,18.345552444458,18.3389530181885,18.3323554992676,18.3257656097412,18.3191776275635,18.3125953674316,18.3060188293457,18.2994480133057,18.2928771972656,18.2863159179688,18.2797584533691,18.2732028961182,18.2666549682617,18.2601089477539,18.2535705566406,18.2470359802246,18.2405071258545,18.233980178833,18.2274589538574,18.2209415435791,18.2144298553467,18.2079238891602,18.2014217376709,18.1949234008789,18.1884326934814,18.181941986084,18.1754589080811,18.1689796447754,18.1625061035156,18.1560344696045,18.1495704650879,18.1431083679199,18.1366539001465,18.1302013397217,18.1237545013428,18.1173133850098,18.110876083374,18.1044425964355,18.098014831543,18.091588973999,18.085168838501,18.0787544250488,18.0723457336426,18.065938949585,18.0595378875732,18.0531406402588,18.0467491149902,18.0403614044189,18.0339794158936,18.0275993347168,18.0212249755859,18.0148544311523,18.0084896087646,18.0021286010742,17.9957733154297,17.9894218444824,17.9830741882324,17.9767322540283,17.9703941345215,17.9640598297119,17.9577312469482,17.9514045715332,17.9450855255127,17.9387683868408,17.9324569702148,17.9261512756348,17.919849395752,17.9135494232178,17.9072570800781,17.9009666442871,17.894681930542,17.8884010314941,17.8821239471436,17.8758525848389,17.8695850372314,17.8633232116699,17.8570652008057,17.8508110046387,17.8445606231689,17.8383159637451,17.8320751190186,17.8258380889893,17.8196048736572,17.8133773803711,17.8071537017822,17.8009338378906,17.7947196960449,17.7885093688965,17.7823028564453,17.7761001586914,17.7699031829834,17.7637119293213,17.7575206756592,17.7513370513916,17.7451553344727,17.7389793395996,17.7328090667725,17.7266407012939,17.7204780578613,17.714319229126,17.7081642150879,17.7020149230957,17.6958694458008,17.6897258758545,17.6835880279541,17.6774559020996,17.6713256835938,17.6652011871338,17.6590824127197,17.6529655456543,17.6468524932861,17.6407470703125,17.6346435546875,17.6285419464111,17.6224479675293,17.6163558959961,17.6102695465088,17.6041870117188,17.598108291626,17.5920352935791,17.5859642028809,17.5798988342285,17.5738391876221,17.5677814483643,17.5617275238037,17.5556774139404,17.549633026123,17.5435924530029,17.5375576019287,17.5315227508545,17.5254955291748,17.5194721221924,17.5134525299072,17.5074348449707,17.5014247894287,17.495418548584,17.4894142150879,17.4834136962891,17.4774188995361,17.4714279174805,17.4654407501221,17.4594573974609,17.4534778594971,17.4475040435791,17.4415340423584,17.4355659484863,17.4296054840088,17.4236469268799,17.4176921844482,17.4117412567139,17.4057960510254,17.3998546600342,17.3939151763916,17.3879814147949,17.3820514678955,17.3761253356934,17.3702049255371,17.3642845153809,17.3583717346191,17.3524627685547,17.3465557098389,17.3406562805176,17.3347568511963,17.3288631439209,17.3229751586914,17.3170890808105,17.311206817627,17.3053302764893,17.2994537353516,17.2935848236084,17.2877197265625,17.2818584442139,17.2759990692139,17.2701454162598,17.2642955780029,17.2584495544434,17.2526092529297,17.2467708587646,17.2409381866455,17.2351055145264,17.2292804718018,17.2234573364258,17.2176399230957,17.2118244171143,17.2060146331787,17.2002086639404,17.1944065093994,17.1886081695557,17.1828117370605,17.17702293396,17.1712341308594,17.1654510498047,17.1596717834473,17.1538963317871,17.1481266021729,17.1423587799072
3.9821298122406,3.99302291870117,4.00397539138794,4.0149884223938,4.02606248855591,4.03719711303711,4.04839420318604,4.05965328216553,4.07097482681274,4.08236026763916,4.09380912780762,4.10532236099243,4.11690092086792,4.12854480743408,4.14025449752808,4.15203094482422,4.16387510299683,4.17578649520874,4.18776607513428,4.1998143196106,4.21193218231201,4.22412014007568,4.23637866973877,4.24870824813843,4.26111030578613,4.27358484268188,4.2861328125,4.29875469207764,4.31145095825195,4.32422208786011,4.33706951141357,4.34999370574951,4.36299467086792,4.37607383728027,4.38923168182373,4.40246868133545,4.4157862663269,4.42918395996094,4.44266366958618,4.45622539520264,4.46987056732178,4.4835991859436,4.49741268157959,4.51131153106689,4.52529668807983,4.53936815261841,4.55352830886841,4.56777620315552,19.7115287780762,19.7039089202881,19.6962928771973,19.688684463501,19.6810817718506,19.6734848022461,19.6658935546875,19.6583061218262,19.650728225708,19.6431522369385,19.6355857849121,19.628023147583,19.6204662322998,19.6129150390625,19.6053714752197,19.5978317260742,19.5902996063232,19.5827713012695,19.5752506256104,19.5677337646484,19.5602245330811,19.5527210235596,19.545223236084,19.5377292633057,19.5302410125732,19.522762298584,19.5152854919434,19.5078163146973,19.5003509521484,19.4928932189941,19.4854393005371,19.4779930114746,19.470552444458,19.4631156921387,19.4556846618652,19.4482612609863,19.4408435821533,19.4334297180176,19.4260215759277,19.4186210632324,19.411226272583,19.4038333892822,19.3964500427246,19.3890705108643,19.3816967010498,19.3743286132812,19.3669681549072,19.3596115112305,19.3522605895996,19.344913482666,19.337574005127,19.3302383422852,19.3229122161865,19.3155879974365,19.3082695007324,19.3009567260742,19.2936515808105,19.2863502502441,19.2790546417236,19.2717666625977,19.2644805908203,19.2572021484375,19.2499294281006,19.2426624298096,19.2353992462158,19.2281436920166,19.2208919525146,19.2136459350586,19.2064056396484,19.1991710662842,19.1919422149658,19.1847171783447,19.1774997711182,19.1702842712402,19.1630783081055,19.155876159668,19.1486778259277,19.141487121582,19.1343021392822,19.1271228790283,19.119945526123,19.1127758026123,19.1056118011475,19.0984535217285,19.0912990570068,19.0841503143311,19.0770072937012,19.0698680877686,19.0627365112305,19.0556106567383,19.0484886169434,19.0413722991943,19.0342617034912,19.027156829834,19.020055770874,19.0129585266113,19.0058689117432,18.9987850189209,18.9917068481445,18.9846324920654,18.9775638580322,18.9704990386963,18.9634418487549,18.9563884735107,18.9493427276611,18.9422988891602,18.9352607727051,18.9282283782959,18.9212017059326,18.9141807556152,18.9071636199951,18.9001541137695,18.8931465148926,18.8861465454102,18.8791522979736,18.8721599578857,18.8651752471924,18.8581943511963,18.8512191772461,18.8442497253418,18.8372859954834,18.8303260803223,18.823371887207,18.8164234161377,18.8094787597656,18.8025398254395,18.7956066131592,18.7886772155762,18.7817535400391,18.7748355865479,18.7679214477539,18.7610130310059,18.7541103363037,18.7472114562988,18.7403182983398,18.7334308624268,18.7265472412109,18.719669342041,18.712797164917,18.7059307098389,18.6990661621094,18.6922092437744,18.6853561401367,18.6785087585449,18.6716651916504,18.6648273468018,18.6579971313477,18.6511688232422,18.644344329834,18.6375274658203,18.6307144165039,18.6239070892334,18.6171035766602,18.6103076934814,18.6035137176514,18.5967254638672,18.5899448394775,18.5831661224365,18.5763931274414,18.5696239471436,18.5628623962402,18.5561027526855,18.5493488311768,18.5426025390625,18.5358581542969,18.5291194915771,18.5223865509033,18.5156574249268,18.5089321136475,18.5022125244141,18.4954986572266,18.488790512085,18.4820861816406,18.4753856658936,18.468692779541,18.4620018005371,18.4553184509277,18.448637008667,18.4419612884521,18.4352912902832,18.4286251068115,18.4219646453857,18.4153079986572,18.4086570739746,18.4020099639893,18.3953704833984,18.3887329101562,18.38210105896,18.3754730224609,18.3688507080078,18.362232208252,18.355619430542,18.3490123748779,18.3424072265625,18.3358097076416,18.329216003418,18.3226261138916,18.3160419464111,18.3094635009766,18.3028888702393,18.2963180541992,18.2897510528564,18.2831897735596,18.2766342163086,18.2700824737549,18.2635364532471,18.2569942474365,18.2504558563232,18.2439250946045,18.237398147583,18.2308731079102,18.2243537902832,18.2178401947021,18.2113304138184,18.2048263549805,18.1983261108398,18.1918296813965,18.185338973999,18.1788539886475,18.1723728179932,18.1658954620361,18.159423828125,18.1529560089111,18.1464920043945,18.1400318145752,18.1335792541504,18.1271305084229,18.1206874847412,18.1142463684082,18.1078090667725,18.1013793945312,18.0949535369873,18.0885314941406,18.0821132659912,18.0757007598877,18.0692920684814,18.0628890991211,18.056489944458,18.0500946044922,18.0437049865723,18.0373210906982,18.0309391021729,18.0245628356934,18.0181903839111,18.0118217468262,18.0054588317871,17.9991016387939,17.9927463531494,17.9863986968994,17.980052947998,17.9737129211426,17.9673767089844,17.9610443115234,17.9547176361084,17.9483947753906,17.9420757293701,17.9357604980469,17.9294528961182,17.9231472015381,17.9168472290039,17.910551071167,17.9042587280273,17.8979740142822,17.8916893005371,17.8854122161865,17.8791370391846,17.8728656768799,17.8666019439697,17.8603420257568,17.8540859222412,17.8478336334229,17.8415851593018,17.8353424072266,17.8291034698486,17.822868347168,17.8166389465332,17.8104114532471,17.8041896820068,17.7979736328125,17.7917613983154,17.7855529785156,17.7793483734131,17.7731475830078,17.7669544219971,17.7607612609863,17.7545738220215,17.7483940124512,17.7422142028809,17.7360382080078,17.7298698425293,17.723705291748,17.7175426483154,17.7113876342773,17.7052345275879,17.6990852355957,17.6929416656494,17.6868019104004,17.6806659698486,17.6745357513428,17.6684093475342,17.6622867584229,17.6561679840088,17.650053024292,17.6439437866211,17.6378383636475,17.6317367553711,17.625638961792,17.6195468902588,17.6134567260742,17.6073722839355,17.6012916564941,17.59521484375,17.5891418457031,17.5830745697021,17.5770111083984,17.5709533691406,17.5648975372314,17.5588455200195,17.5527992248535,17.5467548370361,17.5407161712646,17.5346813201904,17.5286521911621,17.5226249694824,17.5166034698486,17.5105857849121,17.5045700073242,17.4985618591309,17.4925575256348,17.4865550994873,17.4805564880371,17.4745635986328,17.4685764312744,17.462589263916,17.4566078186035,17.4506340026855,17.4446601867676,17.4386901855469,17.4327278137207,17.4267673492432,17.4208087921143,17.4148559570312,17.4089088439941,17.4029655456543,17.3970241546631,17.3910884857178,17.3851566314697,17.3792285919189,17.3733043670654,17.3673839569092,17.3614692687988,17.3555564880371,17.3496475219727,17.3437461853027,17.3378448486328,17.3319492340088,17.326057434082,17.3201694488525,17.3142852783203,17.308406829834,17.3025302886963,17.2966575622559,17.2907905578613,17.2849273681641,17.2790660858154,17.2732105255127,17.2673587799072,17.2615127563477,17.2556686401367,17.2498264312744,17.2439918518066,17.2381591796875,17.2323303222656,17.2265071868896,17.2206859588623,17.2148704528809,17.209056854248,17.2032489776611,17.1974449157715,17.1916427612305,17.1858463287354,17.1800537109375,17.1742649078369,17.1684799194336,17.1626987457275,17.1569213867188,17.1511478424072,17.145378112793,17.139612197876,17.1338520050049,17.1280937194824,17.1223392486572,17.1165885925293,17.1108417510986,17.1050987243652,17.0993614196777,17.0936279296875,17.0878963470459,17.0821685791016,17.0764465332031,17.0707263946533,17.0650119781494,17.0592994689941,17.0535907745361,17.0478858947754,17.0421867370605,17.036491394043,17.0307960510254,17.0251083374023,17.0194225311279,17.0137424468994,17.0080642700195,17.0023918151855,16.9967212677002
3.97145009040833,3.98228454589844,3.99317836761475,4.00413179397583,4.01514577865601,4.02622032165527,4.03735637664795,4.04855394363403,4.05981397628784,4.07113647460938,4.08252286911011,4.09397268295288,4.10548686981201,4.11706638336182,4.12871122360229,4.14042186737061,4.15219926834106,4.16404390335083,4.17595624923706,4.18793725967407,4.19998693466187,4.2121057510376,4.22429466247559,4.23655414581299,4.24888515472412,4.26128816604614,4.27376365661621,4.28631258010864,4.2989354133606,4.31163311004639,4.32440519332886,4.3372540473938,4.35017871856689,4.36318111419678,4.37626171112061,4.38942050933838,4.40265846252441,4.41597700119019,4.42937660217285,4.44285726547241,4.45642042160034,4.4700665473938,4.4837965965271,4.4976110458374,4.51151084899902,4.52549695968628,4.53957033157349,4.55373096466064,4.56798076629639,4.58231973648071,4.5967493057251,19.4968109130859,19.4893550872803,19.4819049835205,19.4744625091553,19.4670238494873,19.4595890045166,19.4521617889404,19.4447402954102,19.4373245239258,19.4299144744873,19.4225101470947,19.4151096343994,19.4077186584473,19.4003295898438,19.3929462432861,19.385570526123,19.3782005310059,19.3708362579346,19.3634757995605,19.3561210632324,19.3487739562988,19.3414306640625,19.3340930938721,19.3267612457275,19.3194351196289,19.3121128082275,19.3047981262207,19.2974891662598,19.2901840209961,19.282886505127,19.2755928039551,19.2683067321777,19.2610244750977,19.2537479400635,19.2464771270752,19.2392101287842,19.2319507598877,19.2246971130371,19.2174472808838,19.2102031707764,19.2029647827148,19.1957340240479,19.1885051727295,19.1812839508057,19.1740665435791,19.1668548583984,19.1596508026123,19.1524505615234,19.1452560424805,19.1380672454834,19.1308841705322,19.1237049102783,19.1165313720703,19.1093635559082,19.1022033691406,19.0950450897217,19.0878925323486,19.0807476043701,19.0736064910889,19.0664710998535,19.0593414306641,19.0522174835205,19.0450973510742,19.0379848480225,19.030876159668,19.0237731933594,19.0166759490967,19.0095825195312,19.0024948120117,18.9954128265381,18.9883365631104,18.9812660217285,18.9741973876953,18.9671363830566,18.9600811004639,18.953031539917,18.9459857940674,18.9389457702637,18.9319095611572,18.9248809814453,18.9178562164307,18.9108371734619,18.9038238525391,18.8968162536621,18.8898124694824,18.8828125,18.8758201599121,18.8688335418701,18.8618488311768,18.8548717498779,18.8478984832764,18.8409309387207,18.8339691162109,18.8270130157471,18.8200607299805,18.8131160736084,18.806173324585,18.7992362976074,18.7923049926758,18.7853775024414,18.7784576416016,18.771541595459,18.7646293640137,18.7577247619629,18.7508239746094,18.7439289093018,18.7370376586914,18.730152130127,18.7232704162598,18.7163963317871,18.7095260620117,18.7026596069336,18.6957988739014,18.688943862915,18.682092666626,18.6752490997314,18.6684074401855,18.6615734100342,18.6547431945801,18.6479167938232,18.6410961151123,18.6342811584473,18.6274700164795,18.6206665039062,18.6138668060303,18.6070709228516,18.6002807617188,18.5934944152832,18.5867137908936,18.5799388885498,18.5731678009033,18.5664024353027,18.5596408843994,18.552885055542,18.5461349487305,18.5393886566162,18.5326461791992,18.5259113311768,18.5191802978516,18.5124530792236,18.5057315826416,18.4990139007568,18.492301940918,18.485595703125,18.4788932800293,18.4721965789795,18.465503692627,18.4588165283203,18.4521350860596,18.4454555511475,18.4387836456299,18.4321155548096,18.4254512786865,18.4187927246094,18.4121398925781,18.4054908752441,18.3988456726074,18.3922080993652,18.3855724334717,18.378942489624,18.3723182678223,18.3656978607178,18.3590831756592,18.3524703979492,18.3458652496338,18.3392639160156,18.3326683044434,18.3260765075684,18.3194904327393,18.3129081726074,18.3063297271729,18.2997570037842,18.2931900024414,18.2866268157959,18.2800674438477,18.2735137939453,18.2669639587402,18.2604198455811,18.2538795471191,18.2473449707031,18.2408142089844,18.2342891693115,18.2277679443359,18.2212524414062,18.2147388458252,18.20823097229,18.2017288208008,18.1952304840088,18.1887378692627,18.1822490692139,18.1757659912109,18.1692867279053,18.1628112792969,18.1563415527344,18.1498775482178,18.1434154510498,18.1369590759277,18.1305065155029,18.1240615844727,18.1176166534424,18.1111793518066,18.1047458648682,18.0983180999756,18.0918941497803,18.0854740142822,18.0790596008301,18.0726470947266,18.0662422180176,18.0598411560059,18.0534439086914,18.0470504760742,18.0406627655029,18.0342807769775,18.0279006958008,18.0215263366699,18.015157699585,18.0087909698486,18.0024299621582,17.996072769165,17.9897212982178,17.9833736419678,17.9770317077637,17.9706935882568,17.9643592834473,17.9580307006836,17.9517040252686,17.945384979248,17.9390678405762,17.9327564239502,17.9264488220215,17.9201469421387,17.9138469696045,17.9075546264648,17.9012641906738,17.8949794769287,17.8886985778809,17.8824234008789,17.8761520385742,17.8698825836182,17.863618850708,17.8573608398438,17.8511066436768,17.844856262207,17.8386116027832,17.8323707580566,17.8261318206787,17.8199005126953,17.8136711120605,17.8074474334717,17.8012275695801,17.795015335083,17.7888031005859,17.7825965881348,17.7763938903809,17.7701969146729,17.7640037536621,17.7578144073486,17.7516288757324,17.7454490661621,17.7392711639404,17.7331008911133,17.7269344329834,17.7207698822021,17.7146110534668,17.7084560394287,17.7023048400879,17.696159362793,17.6900177001953,17.6838798522949,17.6777458190918,17.6716156005859,17.665491104126,17.6593723297119,17.6532554626465,17.6471424102783,17.6410350799561,17.6349296569824,17.6288318634033,17.6227359771729,17.6166458129883,17.6105575561523,17.6044750213623,17.5983963012695,17.592321395874,17.5862522125244,17.5801868438721,17.574125289917,17.5680675506592,17.5620136260986,17.555965423584,17.5499210357666,17.5438785552979,17.537841796875,17.5318088531494,17.5257797241211,17.5197563171387,17.5137367248535,17.5077209472656,17.501708984375,17.4957008361816,17.4896984100342,17.4836978912354,17.4777011871338,17.4717121124268,17.4657230377197,17.4597396850586,17.4537620544434,17.4477863311768,17.4418163299561,17.435848236084,17.4298877716064,17.4239292144775,17.4179725646973,17.4120235443115,17.4060764312744,17.4001350402832,17.3941955566406,17.3882617950439,17.3823318481445,17.3764057159424,17.3704833984375,17.3645648956299,17.3586502075195,17.3527412414551,17.3468360900879,17.340934753418,17.3350353240967,17.3291416168213,17.3232536315918,17.3173656463623,17.3114852905273,17.305606842041,17.2997341156006,17.2938632965088,17.2879962921143,17.2821350097656,17.2762775421143,17.2704219818115,17.2645740509033,17.2587261199951,17.2528839111328,17.2470474243164,17.2412128448486,17.2353820800781,17.2295551300049,17.2237339019775,17.2179164886475,17.212100982666,17.2062892913818,17.2004833221436,17.1946811676025,17.1888809204102,17.1830883026123,17.1772956848145,17.1715087890625,17.1657257080078,17.1599464416504,17.1541690826416,17.1483993530273,17.1426315307617,17.1368675231934,17.1311073303223,17.1253528594971,17.1196002960205,17.1138515472412,17.1081066131592,17.1023654937744,17.0966300964355,17.0908966064453,17.085168838501,17.0794410705566,17.0737209320068,17.0680027008057,17.0622901916504,17.0565795898438,17.0508728027344,17.0451698303223,17.0394725799561,17.0337772369385,17.0280876159668,17.0223999023438,17.0167179107666,17.0110378265381,17.0053615570068,16.9996910095215,16.9940223693848,16.9883575439453,16.9826965332031,16.9770393371582,16.9713859558105,16.9657382965088,16.9600925445557,16.9544506072998,16.9488124847412,16.9431800842285,16.9375495910645,16.931921005249,16.9262981414795,16.9206790924072,16.9150619506836,16.9094505310059,16.903844833374,16.8982391357422,16.8926391601562,16.8870410919189,16.8814487457275,16.8758583068848,16.8702735900879,16.8646907806396,16.8591117858887,16.853536605835
3.96082735061646,3.97160387039185,3.98243927955627,3.9933340549469,4.00428819656372,4.01530313491821,4.0263786315918,4.03751516342163,4.04871368408203,4.05997467041016,4.07129812240601,4.08268547058105,4.09413623809814,4.10565137863159,4.11723136901855,4.12887716293335,4.14058876037598,4.15236759185791,4.16421318054199,4.17612648010254,4.18810844421387,4.20015907287598,4.21227931976318,4.22446966171265,4.23673009872437,4.24906206130981,4.26146602630615,4.2739429473877,4.28649282455444,4.29911661148071,4.31181526184082,4.32458877563477,4.33743810653687,4.35036420822144,4.36336755752563,4.37644910812378,4.38960933685303,4.40284872055054,4.41616821289062,4.42956876754761,4.44305038452148,4.45661497116089,4.47026205062866,4.48399353027344,4.49780893325806,4.51171016693115,4.52569770812988,4.53977203369141,4.55393409729004,4.56818532943726,4.5825252532959,4.59695625305176,4.61147785186768,19.2940216064453,19.2867202758789,19.2794246673584,19.2721347808838,19.2648506164551,19.2575702667236,19.2502956390381,19.2430286407471,19.2357654571533,19.2285079956055,19.2212562561035,19.2140083312988,19.2067680358887,19.1995315551758,19.1923027038574,19.1850776672363,19.1778583526611,19.1706447601318,19.1634368896484,19.1562347412109,19.1490364074707,19.1418437957764,19.1346569061279,19.1274757385254,19.1202983856201,19.1131286621094,19.1059627532959,19.098804473877,19.0916500091553,19.0844993591309,19.077356338501,19.070219039917,19.0630855560303,19.0559577941895,19.0488357543945,19.0417175292969,19.0346069335938,19.0275001525879,19.0203990936279,19.0133037567139,19.0062122344971,18.9991283416748,18.9920482635498,18.9849720001221,18.9779033660889,18.9708385467529,18.9637794494629,18.9567260742188,18.9496784210205,18.9426345825195,18.9355964660645,18.9285640716553,18.9215354919434,18.914514541626,18.9074974060059,18.9004859924316,18.8934783935547,18.8864765167236,18.8794822692871,18.8724899291992,18.8655052185059,18.8585262298584,18.8515491485596,18.8445796966553,18.8376159667969,18.8306541442871,18.8236999511719,18.8167514801025,18.8098087310791,18.8028678894043,18.795934677124,18.789005279541,18.7820796966553,18.7751617431641,18.7682476043701,18.7613391876221,18.7544364929199,18.747537612915,18.7406463623047,18.733757019043,18.7268733978271,18.7199954986572,18.7131233215332,18.7062530517578,18.699390411377,18.692533493042,18.6856803894043,18.6788330078125,18.671989440918,18.6651515960693,18.658317565918,18.6514911651611,18.6446685791016,18.6378517150879,18.6310367584229,18.6242294311523,18.6174259185791,18.6106281280518,18.6038341522217,18.5970478057861,18.5902652740479,18.5834865570068,18.5767135620117,18.5699443817139,18.5631790161133,18.5564212799072,18.5496692657471,18.5429210662842,18.5361766815186,18.5294380187988,18.5227031707764,18.5159740447998,18.5092506408691,18.5025310516357,18.4958171844482,18.489107131958,18.4824028015137,18.4757022857666,18.4690074920654,18.4623184204102,18.4556331634521,18.44895362854,18.4422779083252,18.4356060028076,18.4289398193359,18.4222793579102,18.4156227111816,18.408971786499,18.4023265838623,18.3956832885742,18.389045715332,18.3824138641357,18.3757858276367,18.3691635131836,18.3625469207764,18.3559322357178,18.3493232727051,18.3427200317383,18.3361206054688,18.3295269012451,18.3229389190674,18.3163528442383,18.3097743988037,18.3031978607178,18.2966289520264,18.2900638580322,18.2835006713867,18.2769451141357,18.270393371582,18.2638454437256,18.257303237915,18.2507667541504,18.2442321777344,18.2377052307129,18.2311820983887,18.2246627807617,18.2181491851807,18.2116394042969,18.2051334381104,18.1986351013184,18.1921367645264,18.1856460571289,18.1791610717773,18.172679901123,18.166202545166,18.1597309112549,18.1532611846924,18.1467971801758,18.1403388977051,18.1338844299316,18.1274356842041,18.1209907531738,18.1145496368408,18.1081142425537,18.1016826629639,18.0952568054199,18.0888347625732,18.0824184417725,18.0760040283203,18.0695953369141,18.0631923675537,18.0567932128906,18.0503978729248,18.0440082550049,18.0376224517822,18.0312404632568,18.0248641967773,18.0184917449951,18.0121250152588,18.0057601928711,17.9994010925293,17.9930477142334,17.9866981506348,17.9803524017334,17.9740123748779,17.9676761627197,17.9613418579102,17.9550170898438,17.9486923217773,17.9423751831055,17.9360599517822,17.9297504425049,17.9234447479248,17.9171447753906,17.9108486175537,17.9045581817627,17.8982696533203,17.8919868469238,17.8857097625732,17.8794345855713,17.8731651306152,17.8668975830078,17.8606376647949,17.8543796539307,17.8481292724609,17.8418807983398,17.835636138916,17.8293991088867,17.8231639862061,17.8169345855713,17.8107051849365,17.8044853210449,17.798267364502,17.7920551300049,17.7858448028564,17.7796421051025,17.7734413146973,17.7672443389893,17.7610549926758,17.7548675537109,17.7486839294434,17.7425060272217,17.7363300323486,17.7301635742188,17.7239971160889,17.7178344726562,17.7116775512695,17.7055244445801,17.6993770599365,17.6932334899902,17.6870937347412,17.6809577941895,17.674825668335,17.6686973571777,17.662576675415,17.6564559936523,17.6503429412842,17.6442337036133,17.638126373291,17.6320247650146,17.6259269714355,17.6198348999023,17.6137447357178,17.6076602935791,17.6015796661377,17.5955028533936,17.5894298553467,17.5833625793457,17.577299118042,17.5712375640869,17.5651836395264,17.5591316223145,17.5530834197998,17.5470428466797,17.5410022735596,17.5349674224854,17.5289363861084,17.5229110717773,17.5168895721436,17.5108699798584,17.5048542022705,17.4988460540771,17.4928417205811,17.4868392944336,17.480842590332,17.4748477935791,17.4688587188721,17.4628734588623,17.4568920135498,17.4509162902832,17.4449424743652,17.4389724731445,17.4330101013184,17.4270477294922,17.4210910797119,17.4151401519775,17.4091892242432,17.4032459259033,17.3973045349121,17.3913688659668,17.3854370117188,17.379508972168,17.3735847473145,17.3676643371582,17.3617477416992,17.3558368682861,17.3499279022217,17.3440227508545,17.3381233215332,17.3322277069092,17.3263359069824,17.3204479217529,17.3145637512207,17.3086833953857,17.3028087615967,17.2969360351562,17.2910690307617,17.2852039337158,17.2793445587158,17.2734870910645,17.267635345459,17.2617893218994,17.2559432983398,17.2501029968262,17.2442684173584,17.2384338378906,17.2326068878174,17.2267837524414,17.2209625244141,17.215145111084,17.2093315124512,17.2035236358643,17.1977195739746,17.1919193267822,17.1861209869385,17.1803283691406,17.1745376586914,17.1687526702881,17.162971496582,17.1571941375732,17.1514186859131,17.1456508636475,17.1398849487305,17.1341228485107,17.1283645629883,17.1226100921631,17.1168613433838,17.1111145019531,17.1053733825684,17.0996322631836,17.0938968658447,17.0881671905518,17.0824394226074,17.0767154693604,17.0709972381592,17.0652809143066,17.0595703125,17.053861618042,17.0481567382812,17.0424575805664,17.0367584228516,17.0310668945312,17.0253772735596,17.0196914672852,17.0140113830566,17.0083332061768,17.0026607513428,16.9969902038574,16.9913234710693,16.9856605529785,16.980001449585,16.9743461608887,16.9686946868896,16.9630489349365,16.9574031829834,16.9517650604248,16.9461288452148,16.9404964447021,16.9348678588867,16.9292430877686,16.9236221313477,16.9180030822754,16.912389755249,16.9067802429199,16.9011745452881,16.8955688476562,16.8899707794189,16.8843784332275,16.8787860870361,16.873197555542,16.8676128387451,16.8620338439941,16.8564567565918,16.8508834838867,16.8453140258789,16.8397483825684,16.8341865539551,16.8286285400391,16.8230724334717,16.8175220489502,16.811975479126,16.806432723999,16.8008918762207,16.7953548431396,16.7898216247559,16.784294128418,16.7787685394287,16.7732467651367,16.767728805542,16.7622127532959,16.7567024230957,16.7511959075928,16.7456932067871,16.7401924133301,16.7346954345703,16.7292022705078,16.7237148284912,16.7182273864746,16.7127475738525
