4.11634874343872,4.1278281211853,4.13937139511108,4.15097999572754,4.16265344619751,4.17439317703247,4.18619918823242,4.19807195663452,4.21001243591309,4.22202110290527,4.23409843444824,4.24624490737915,4.25846147537231,4.27074813842773,4.28310632705688,4.29516124725342,4.30689096450806,4.31868505477905,4.33054399490356,4.34246826171875,4.35445833206177,4.36651515960693,4.37863826751709,4.39082956314087,4.40308856964111,4.41541624069214,4.4278130531311,4.44027996063232,4.4528169631958,4.46542501449585,4.47810459136963,4.49085664749146,4.50368118286133,4.51657962799072,4.52955198287964,4.54259920120239,4.55572128295898,4.56891965866089,4.58219480514526,4.59554767608643,4.60897779464722,4.62248754501343,4.63607597351074,4.64974498748779,4.66349458694458,4.67732572555542,4.69123935699463,4.70523595809937,4.71931648254395,4.73348093032837,4.74773120880127,4.76206731796265,4.77649068832397,4.79100131988525,4.8056001663208,4.82028865814209,4.83506679534912,4.84993648529053,4.86489820480347,4.87995147705078,4.8950982093811,4.91033935546875,4.92567586898804,4.94110822677612,4.95663738250732,4.97226476669312,4.98799085617065,5.00381660461426,5.0197434425354,5.03577136993408,5.05190277099609,5.06813764572144,5.08447694778442,5.10092163085938,5.11747360229492,14.2592496871948,14.2545032501221,14.2497577667236,14.2450180053711,14.2402820587158,14.2355480194092,14.2308149337769,14.2260875701904,14.2213640213013,14.2166433334351,14.2119226455688,14.2072076797485,14.2024974822998,14.1977853775024,14.1930828094482,14.1883773803711,14.1836786270142,14.1789817810059,14.1742897033691,14.1695966720581,14.1649131774902,14.1602277755737,14.1555471420288,14.1508703231812,14.1461935043335,14.1415233612061,14.1368532180786,14.1321887969971,14.1275253295898,14.1228656768799,14.1182098388672,14.1135559082031,14.1089067459106,14.1042575836182,14.0996131896973,14.0949735641479,14.0903358459473,14.0857009887695,14.0810699462891,14.0764379501343,14.0718145370483,14.0671901702881,14.062572479248,14.0579566955566,14.0533409118652,14.048731803894,14.0441226959229,14.0395202636719,14.0349168777466,14.0303182601929,14.0257234573364,14.0211296081543,14.0165395736694,14.0119533538818,14.0073709487915,14.0027894973755,13.9982118606567,13.9936380386353,13.9890670776367,13.9844961166382,13.9799327850342,13.9753694534302,13.9708108901978,13.9662532806396,13.9616985321045,13.9571504592896,13.9526014328003,13.9480581283569,13.9435148239136,13.9389762878418,13.9344396591187,13.9299077987671,13.9253768920898,13.9208498001099,13.9163246154785,13.9118061065674,13.9072875976562,13.9027709960938,13.8982591629028,13.8937482833862,13.8892440795898,13.8847379684448,13.8802394866943,13.8757410049438,13.8712463378906,13.8667545318604,13.8622636795044,13.8577785491943,13.8532962799072,13.8488149642944,13.8443384170532,13.8398628234863,13.835391998291,13.8309240341187,13.8264560699463,13.8219947814941,13.8175344467163,13.8130769729614,13.8086223602295,13.8041706085205,13.7997236251831,13.7952766418457,13.7908325195312,13.7863941192627,13.7819566726685,13.7775211334229,13.7730922698975,13.7686624526978,13.7642364501953,13.7598133087158,13.7553939819336,13.7509765625,13.7465600967407,13.742151260376,13.7377405166626,13.7333374023438,13.728931427002,13.7245321273804,13.7201318740845,13.7157392501831,13.7113475799561,13.7069578170776,13.7025718688965,13.698187828064,13.6938066482544,13.6894283294678,13.6850528717041,13.680682182312,13.6763114929199,13.6719446182251,13.6675796508789,13.6632194519043,13.658860206604,13.6545038223267,13.6501541137695,13.6458015441895,13.641453742981,13.637110710144,13.6327686309814,13.6284275054932,13.6240901947021,13.6197605133057,13.6154298782349,13.6110992431641,13.6067743301392,13.6024513244629,13.5981311798096,13.5938148498535,13.5895023345947,13.5851888656616,13.5808801651001,13.5765743255615,13.5722694396973,13.5679693222046,13.5636701583862,13.5593767166138,13.5550842285156,13.5507946014404,13.5465059280396,13.5422220230103,13.5379390716553,13.5336608886719,13.5293846130371,13.5251121520996,13.5208425521851,13.5165719985962,13.5123071670532,13.5080432891846,13.5037841796875,13.4995288848877,13.4952735900879,13.4910221099854,13.4867715835571,13.4825229644775,13.4782800674438,13.4740371704102,13.469801902771,13.4655647277832,13.4613313674927,13.4571008682251,13.4528713226318,13.4486474990845,13.4444236755371,13.4402046203613,13.4359855651855,13.4317722320557,13.4275608062744,13.4233484268188,13.4191436767578,13.4149389266968,13.4107389450073,13.4065389633179,13.4023427963257,13.3981485366821,13.3939580917358,13.3897686004639,13.3855829238892,13.3814010620117,13.3772201538086,13.3730401992798,13.3688659667969,13.3646926879883,13.3605222702026,13.3563566207886,13.3521900177002,13.3480281829834,13.3438682556152,13.33971118927,13.3355560302734,13.3314037322998,13.3272542953491,13.3231105804443,13.3189630508423,13.3148231506348,13.3106822967529,13.306547164917,13.3024120330811,13.2982807159424,13.2941541671753,13.2900257110596,13.2859029769897,13.2817811965942,13.2776622772217,13.2735462188721,13.2694320678711,13.2653226852417,13.2612133026123,13.2571077346802,13.2530059814453,13.2489032745361,13.2448062896729,13.2407083511353,13.2366180419922,13.2325286865234,13.2284383773804,13.2243518829346,13.220269203186,13.2161874771118,13.2121114730835,13.2080354690552,13.2039632797241,13.1998910903931,13.1958236694336,13.1917600631714,13.1876945495605,13.1836338043213,13.1795768737793,13.1755218505859,13.1714687347412,13.1674184799194,13.1633710861206,13.1593246459961,13.1552820205688,13.1512403488159,13.1472043991089,13.1431684494019,13.1391344070435,13.1351041793823,13.1310749053955,13.127049446106,13.1230278015137,13.1190052032471,13.1149883270264,13.1109704971313,13.1069583892822,13.1029472351074,13.0989389419556,13.094934463501,13.0909299850464,13.0869283676147,13.0829315185547,13.0789337158203,13.0749397277832,13.0709476470947,13.0669603347778,13.0629749298096,13.0589895248413,13.055006980896,13.0510272979736,13.0470504760742,13.0430755615234,13.0391073226929,13.0351362228394,13.0311679840088,13.0272035598755,13.0232410430908,13.0192813873291,13.015323638916,13.0113697052002,13.007417678833,13.0034666061401,12.9995183944702,12.9955749511719,12.9916296005249,12.9876890182495,12.9837522506714,12.9798164367676,12.975884437561,12.9719514846802,12.9680233001709,12.9640960693359,12.9601707458496,12.9562520980835,12.9523305892944,12.9484148025513,12.9444999694824,12.9405870437622,12.9366788864136,12.9327697753906,12.9288663864136,12.9249629974365,12.9210624694824,12.9171648025513,12.9132699966431,12.9093761444092,12.9054832458496,12.9015970230103,12.8977098464966,12.8938264846802,12.8899459838867,12.8860654830933,12.8821878433228,12.8783140182495,12.8744430541992,12.8705730438232,12.8667058944702,12.8628387451172,12.8589754104614,12.8551158905029,12.8512573242188,12.8474025726318,12.8435497283936,12.8396968841553,12.8358488082886,12.8320007324219,12.8281564712524,12.8243160247803,12.8204746246338,12.8166370391846,12.8128032684326,12.8089694976807,12.8051376342773,12.801308631897,12.7974834442139,12.7936601638794,12.7898387908936,12.7860193252563,12.7822027206421,12.7783880233765,12.7745733261108,12.7707653045654,12.76695728302,12.7631521224976,12.7593488693237,12.7555465698242,12.751748085022,12.747953414917,12.744158744812,12.7403659820557,12.7365760803223,12.7327890396118,12.7290058135986,12.7252206802368,12.7214412689209,12.7176609039307,12.7138862609863,12.7101135253906,12.7063407897949,12.7025709152222,12.6988039016724,12.6950378417969,12.6912746429443,12.6875162124634,12.6837568283081,12.6800003051758,12.6762466430664,12.6724939346313,12.6687459945679,12.6649990081787,12.6612539291382,12.6575107574463,12.653769493103,12.6500310897827,12.646294593811,12.642560005188,12.6388292312622,12.6350984573364,12.6313724517822,12.6276483535767,12.6239242553711,12.6202030181885,12.6164846420288,12.6127691268921,12.609055519104,12.6053419113159,12.6016330718994,12.5979251861572,12.594220161438,12.5905170440674,12.5868148803711,12.5831155776978,12.5794191360474,12.5757246017456,12.5720338821411,12.5683422088623,12.5646533966064,12.5609674453735,12.5572834014893,12.5536031723022,12.5499238967896,12.5462465286255,12.5425701141357,12.5388984680176
4.10411691665649,4.11552810668945,4.12700319290161,4.13854217529297,4.15014600753784,4.16181468963623,4.17354965209961,4.18535089492798,4.1972188949585,4.20915460586548,4.22115802764893,4.23323059082031,4.24537181854248,4.2575831413269,4.26986503601074,4.28221797943115,4.29464244842529,4.30688953399658,4.31868362426758,4.33054256439209,4.34246683120728,4.35445690155029,4.3665132522583,4.37863683700562,4.39082765579224,4.40308666229248,4.41541433334351,4.42781114578247,4.44027805328369,4.45281505584717,4.46542310714722,4.47810316085815,4.49085474014282,4.50367975234985,4.51657772064209,4.52955007553101,4.54259729385376,4.55571937561035,4.56891775131226,4.58219289779663,4.59554576873779,4.60897588729858,4.62248516082764,4.63607406616211,4.64974308013916,4.66349267959595,4.67732381820679,4.691237449646,4.70523405075073,4.71931409835815,4.73347902297974,4.74772930145264,4.76206541061401,4.77648830413818,4.79099941253662,4.80559825897217,4.82028675079346,4.83506488800049,4.84993410110474,4.86489534378052,4.87994909286499,4.89509677886963,4.91033792495728,4.9256739616394,4.94110679626465,4.95663547515869,4.97226285934448,4.98798894882202,5.00381517410278,5.01974153518677,5.03576993942261,5.05190086364746,5.0681357383728,5.08447504043579,5.1009202003479,5.11747217178345,5.13413143157959,14.1487197875977,14.1440458297729,14.1393766403198,14.1347093582153,14.1300449371338,14.1253824234009,14.1207256317139,14.1160697937012,14.1114196777344,14.1067705154419,14.102123260498,14.0974807739258,14.0928411483765,14.0882053375244,14.0835704803467,14.0789403915405,14.0743131637573,14.0696897506714,14.0650701522827,14.0604496002197,14.0558347702026,14.0512228012085,14.0466136932373,14.0420083999634,14.0374040603638,14.0328025817871,14.0282077789307,14.0236110687256,14.0190210342407,14.0144329071045,14.0098466873169,14.0052661895752,14.0006866455078,13.9961109161377,13.9915361404419,13.9869661331177,13.9823989868164,13.9778347015381,13.9732751846313,13.9687166213989,13.9641618728638,13.9596080780029,13.9550590515137,13.9505128860474,13.945969581604,13.941427230835,13.9368915557861,13.9323558807373,13.9278249740601,13.9232959747314,13.9187698364258,13.914249420166,13.9097270965576,13.9052104949951,13.9006958007812,13.8961868286133,13.8916788101196,13.8871726989746,13.8826694488525,13.8781719207764,13.8736734390259,13.8691825866699,13.8646926879883,13.8602018356323,13.8557186126709,13.8512353897095,13.8467588424683,13.8422803878784,13.8378076553345,13.8333377838135,13.8288698196411,13.824405670166,13.8199443817139,13.8154859542847,13.8110303878784,13.8065757751465,13.8021259307861,13.7976789474487,13.79323387146,13.7887935638428,13.7843542098999,13.7799196243286,13.7754859924316,13.7710552215576,13.7666292190552,13.7622032165527,13.7577838897705,13.7533617019653,13.7489461898804,13.7445344924927,13.7401237487793,13.7357168197632,13.7313117980957,13.7269105911255,13.7225122451782,13.7181158065796,13.7137212753296,13.7093315124512,13.7049427032471,13.7005605697632,13.6961755752563,13.6917991638184,13.6874217987061,13.6830463409424,13.6786775588989,13.6743078231812,13.669942855835,13.6655807495117,13.6612215042114,13.6568632125854,13.6525106430054,13.6481580734253,13.6438083648682,13.6394624710083,13.6351203918457,13.6307792663574,13.6264410018921,13.6221075057983,13.6177749633789,13.6134452819824,13.6091184616089,13.6047954559326,13.6004724502563,13.5961542129517,13.5918378829956,13.5875253677368,13.5832147598267,13.5789070129395,13.5746030807495,13.5702991485596,13.5659999847412,13.5617036819458,13.5574102401733,13.5531196594238,13.5488300323486,13.544545173645,13.5402603149414,13.5359802246094,13.5317029953003,13.5274267196655,13.523157119751,13.5188865661621,13.5146207809448,13.5103540420532,13.5060949325562,13.5018348693848,13.4975776672363,13.4933261871338,13.4890737533569,13.4848260879517,13.4805812835693,13.476336479187,13.4720964431763,13.4678592681885,13.4636249542236,13.4593925476074,13.4551630020142,13.4509372711182,13.4467124938965,13.4424896240234,13.438271522522,13.4340562820435,13.4298448562622,13.4256315231323,13.4214248657227,13.4172163009644,13.413013458252,13.4088144302368,13.404616355896,13.4004220962524,13.3962278366089,13.3920392990112,13.3878517150879,13.3836669921875,13.3794841766357,13.3753061294556,13.3711290359497,13.3669557571411,13.3627824783325,13.3586149215698,13.3544464111328,13.3502836227417,13.3461246490479,13.3419647216797,13.3378086090088,13.3336553573608,13.3295040130615,13.3253555297852,13.3212099075317,13.3170680999756,13.3129262924194,13.3087892532349,13.3046531677246,13.3005199432373,13.2963895797729,13.2922620773315,13.2881393432617,13.2840147018433,13.2798948287964,13.2757778167725,13.2716617584229,13.2675495147705,13.2634391784668,13.2593336105347,13.2552299499512,13.2511262893677,13.2470283508301,13.2429294586182,13.2388353347778,13.2347431182861,13.230655670166,13.2265672683716,13.2224836349487,13.2184019088745,13.2143230438232,13.210244178772,13.2061700820923,13.2020978927612,13.1980285644531,13.1939601898193,13.1898965835571,13.1858348846436,13.1817750930786,13.1777181625366,13.1736650466919,13.1696138381958,13.165566444397,13.1615161895752,13.1574735641479,13.1534299850464,13.1493902206421,13.1453561782837,13.1413192749023,13.1372890472412,13.1332588195801,13.1292314529419,13.125207901001,13.1211843490601,13.117166519165,13.1131477355957,13.1091337203979,13.1051225662231,13.101110458374,13.0971050262451,13.0930986404419,13.0890979766846,13.0850973129272,13.0810985565186,13.0771045684814,13.0731105804443,13.0691223144531,13.0651321411133,13.061149597168,13.0571670532227,13.0531854629517,13.0492067337036,13.0452308654785,13.0412578582764,13.0372886657715,13.0333185195923,13.0293531417847,13.0253887176514,13.0214281082153,13.0174694061279,13.0135135650635,13.009557723999,13.0056076049805,13.0016593933105,12.9977121353149,12.9937677383423,12.9898262023926,12.9858865737915,12.9819478988647,12.9780149459839,12.974081993103,12.9701509475708,12.9662237167358,12.9622974395752,12.9583759307861,12.9544544219971,12.9505376815796,12.9466209411621,12.9427089691162,12.9387969970703,12.9348878860474,12.9309816360474,12.9270763397217,12.9231767654419,12.9192771911621,12.9153804779053,12.9114866256714,12.9075937271118,12.9037027359009,12.8998155593872,12.8959312438965,12.8920488357544,12.8881664276123,12.8842897415161,12.8804140090942,12.876540184021,12.872670173645,12.8688020706177,12.864935874939,12.8610706329346,12.8572092056274,12.8533496856689,12.8494920730591,12.8456373214722,12.8417844772339,12.8379354476929,12.8340864181519,12.8302402496338,12.8263969421387,12.8225545883179,12.8187170028687,12.8148803710938,12.8110466003418,12.8072147369385,12.8033847808838,12.7995586395264,12.7957315444946,12.7919092178345,12.7880897521973,12.7842712402344,12.7804555892944,12.7766408920288,12.7728300094604,12.7690210342407,12.7652139663696,12.7614097595215,12.757607460022,12.7538089752197,12.7500104904175,12.7462139129639,12.7424221038818,12.7386302947998,12.734842300415,12.7310571670532,12.7272710800171,12.7234897613525,12.7197103500366,12.715931892395,12.7121562957764,12.7083854675293,12.7046146392822,12.7008457183838,12.6970796585083,12.6933145523071,12.6895523071289,12.6857919692993,12.6820373535156,12.6782817840576,12.6745271682739,12.6707773208618,12.6670303344727,12.6632823944092,12.659538269043,12.6557970046997,12.6520586013794,12.6483211517334,12.644585609436,12.6408529281616,12.6371202468872,12.6333913803101,12.6296682357788,12.6259422302246,12.6222200393677,12.6184997558594,12.6147832870483,12.6110668182373,12.6073532104492,12.603645324707,12.5999336242676,12.596227645874,12.5925245285034,12.5888214111328,12.5851211547852,12.5814228057861,12.5777273178101,12.5740327835083,12.5703430175781,12.5666532516479,12.5629663467407,12.5592813491821,12.5555973052979,12.5519189834595,12.5482387542725,12.5445623397827,12.5408887863159,12.5372161865234,12.5335464477539,12.5298795700073,12.5262117385864,12.5225505828857,12.5188884735107,12.5152311325073,12.5115728378296,12.5079193115234,12.504264831543,12.5006141662598,12.4969673156738,12.4933223724365,12.4896764755249,12.4860334396362,12.4823932647705,12.4787549972534,12.4751195907593,12.4714870452881,12.4678554534912,12.464225769043,12.460599899292
4.09195804595947,4.10330152511597,4.1147084236145,4.12617826461792,4.13771295547485,4.14931201934814,4.16097640991211,4.17270612716675,4.18450260162354,4.19636583328247,4.20829677581787,4.22029542922974,4.23236274719238,4.24449920654297,4.25670576095581,4.26898241043091,4.28133010864258,4.29374980926514,4.30624151229858,4.31868171691895,4.33054065704346,4.34246492385864,4.35445499420166,4.36651182174683,4.37863492965698,4.39082622528076,4.40308523178101,4.41541242599487,4.427809715271,4.44027614593506,4.45281314849854,4.46542119979858,4.47810125350952,4.49085283279419,4.50367784500122,4.51657581329346,4.52954816818237,4.54259538650513,4.55571746826172,4.56891632080078,4.582190990448,4.59554386138916,4.60897445678711,4.62248373031616,4.63607215881348,4.64974117279053,4.66349077224731,4.67732191085815,4.69123554229736,4.7052321434021,4.71931219100952,4.7334771156311,4.747727394104,4.76206350326538,4.77648639678955,4.79099702835083,4.80559635162354,4.82028436660767,4.8350625038147,4.8499321937561,4.86489343643188,4.8799467086792,4.89509391784668,4.91033554077148,4.92567253112793,4.94110488891602,4.95663404464722,4.97226142883301,4.98798751831055,5.00381326675415,5.01974010467529,5.03576850891113,5.05189943313599,5.06813383102417,5.08447360992432,5.10091876983643,5.11747026443481,5.13413000106812,5.15089845657349,5.16777658462524,14.03528881073,14.0306901931763,14.0260934829712,14.021502494812,14.0169105529785,14.0123243331909,14.007740020752,14.0031604766846,13.9985818862915,13.9940090179443,13.9894351959229,13.9848680496216,13.9803018569946,13.9757375717163,13.9711790084839,13.9666233062744,13.9620695114136,13.9575166702271,13.9529685974121,13.9484243392944,13.9438819885254,13.9393424987793,13.9348068237305,13.9302730560303,13.9257440567017,13.9212160110474,13.9166927337646,13.9121704101562,13.9076509475708,13.9031372070312,13.8986234664917,13.894115447998,13.8896074295044,13.885103225708,13.8806028366089,13.8761034011841,13.8716096878052,13.8671169281006,13.8626270294189,13.8581418991089,13.8536586761475,13.849178314209,13.8446989059448,13.8402242660522,13.8357534408569,13.8312835693359,13.8268194198608,13.8223552703857,13.8178930282593,13.813437461853,13.8089818954468,13.8045330047607,13.8000812530518,13.795636177063,13.7911930084229,13.78675365448,13.7823152542114,13.7778806686401,13.7734498977661,13.7690200805664,13.764594078064,13.7601699829102,13.7557516098022,13.75133228302,13.7469186782837,13.742506980896,13.7380971908569,13.7336921691895,13.7292890548706,13.7248888015747,13.7204914093018,13.7160949707031,13.7117042541504,13.707314491272,13.7029275894165,13.6985454559326,13.6941633224487,13.6897859573364,13.6854104995728,13.6810388565063,13.6766691207886,13.6723003387451,13.6679391860962,13.6635761260986,13.6592197418213,13.6548624038696,13.6505088806152,13.6461582183838,13.6418113708496,13.6374683380127,13.6331253051758,13.6287860870361,13.6244497299194,13.6201171875,13.6157855987549,13.611457824707,13.6071310043335,13.6028099060059,13.5984888076782,13.5941724777222,13.5898599624634,13.585545539856,13.5812387466431,13.5769309997559,13.5726289749146,13.5683269500732,13.5640306472778,13.5597352981567,13.5554418563843,13.5511522293091,13.5468654632568,13.5425806045532,13.5382995605469,13.5340204238892,13.5297441482544,13.5254716873169,13.5211992263794,13.5169324874878,13.5126647949219,13.5084047317505,13.5041446685791,13.4998846054077,13.4956312179565,13.4913778305054,13.4871282577515,13.4828805923462,13.4786376953125,13.4743947982788,13.4701557159424,13.4659194946289,13.4616851806641,13.4574565887451,13.4532279968262,13.4490003585815,13.4447784423828,13.4405584335327,13.4363403320312,13.4321250915527,13.4279136657715,13.4237041473389,13.4194965362549,13.4152917861938,13.4110927581787,13.4068918228149,13.4026956558228,13.3985023498535,13.3943099975586,13.3901224136353,13.3859338760376,13.3817520141602,13.3775682449341,13.3733921051025,13.3692188262939,13.365044593811,13.3608732223511,13.3567047119141,13.3525409698486,13.3483762741089,13.344217300415,13.3400611877441,13.3359060287476,13.3317537307739,13.3276033401489,13.3234567642212,13.3193130493164,13.3151693344116,13.3110313415527,13.3068952560425,13.3027601242065,13.2986288070679,13.2944993972778,13.2903738021851,13.286247253418,13.2821283340454,13.2780094146729,13.2738924026489,13.2697801589966,13.2656660079956,13.2615594863892,13.2574529647827,13.2533493041992,13.249249458313,13.2451515197754,13.2410545349121,13.2369623184204,13.232871055603,13.2287817001343,13.2246971130371,13.2206134796143,13.2165327072144,13.2124538421631,13.2083778381348,13.2043046951294,13.200234413147,13.1961660385132,13.1921005249023,13.1880369186401,13.1839761734009,13.1799182891846,13.1758613586426,13.1718091964722,13.1677598953247,13.1637115478516,13.1596641540527,13.1556205749512,13.1515817642212,13.1475429534912,13.1435050964355,13.1394739151001,13.1354417800903,13.1314153671265,13.1273880004883,13.1233654022217,13.1193437576294,13.1153240203857,13.111310005188,13.1072969436646,13.1032848358154,13.0992765426636,13.095269203186,13.0912656784058,13.0872631072998,13.0832662582397,13.079270362854,13.0752754211426,13.0712842941284,13.0672941207886,13.063307762146,13.0593242645264,13.0553426742554,13.051362991333,13.0473852157593,13.0434131622314,13.0394401550293,13.0354690551758,13.0315017700195,13.0275382995605,13.0235738754272,13.0196151733398,13.0156564712524,13.0117015838623,13.0077486038208,13.0037984848022,12.999852180481,12.9959049224854,12.9919624328613,12.9880208969116,12.9840812683105,12.9801473617554,12.9762115478516,12.972282409668,12.9683532714844,12.9644260406494,12.9605007171631,12.9565782546997,12.9526615142822,12.9487428665161,12.9448299407959,12.9409160614014,12.9370069503784,12.9330987930298,12.9291934967041,12.9252910614014,12.9213895797729,12.9174938201904,12.9135980606079,12.9097023010254,12.9058132171631,12.9019222259521,12.8980369567871,12.8941535949707,12.8902711868286,12.8863925933838,12.882513999939,12.8786392211914,12.8747682571411,12.8708963394165,12.8670301437378,12.8631639480591,12.8593006134033,12.8554420471191,12.8515825271606,12.8477268218994,12.8438711166382,12.8400201797485,12.8361711502075,12.8323240280151,12.82848072052,12.8246374130249,12.8207969665527,12.8169584274292,12.8131237030029,12.8092918395996,12.8054609298706,12.8016328811646,12.7978048324585,12.7939805984497,12.7901592254639,12.7863388061523,12.7825231552124,12.7787084579468,12.7748966217041,12.7710857391357,12.7672777175903,12.7634716033936,12.7596664428711,12.7558689117432,12.7520685195923,12.7482719421387,12.7444772720337,12.7406845092773,12.7368946075439,12.7331085205078,12.7293224334717,12.7255392074585,12.7217588424683,12.7179794311523,12.7142019271851,12.710428237915,12.7066564559937,12.7028875350952,12.6991205215454,12.6953535079956,12.6915922164917,12.6878318786621,12.6840705871582,12.6803159713745,12.6765613555908,12.6728096008301,12.6690607070923,12.6653127670288,12.6615686416626,12.6578245162964,12.6540832519531,12.6503458023071,12.6466102600098,12.642876625061,12.6391429901123,12.6354122161865,12.631685256958,12.6279592514038,12.6242370605469,12.6205158233643,12.6167974472046,12.6130809783936,12.6093664169312,12.6056537628174,12.6019430160522,12.5982370376587,12.5945310592651,12.5908279418945,12.5871257781982,12.5834274291992,12.5797300338745,12.5760345458984,12.5723428726196,12.5686521530151,12.5649633407593,12.5612783432007,12.5575933456421,12.5539121627808,12.5502328872681,12.5465545654297,12.5428819656372,12.5392055511475,12.5355358123779,12.5318670272827,12.5281991958618,12.5245351791382,12.5208740234375,12.5172138214111,12.5135564804077,12.5099000930786,12.5062465667725,12.502592086792,12.4989423751831,12.4952993392944,12.4916505813599,12.4880094528198,12.4843664169312,12.4807281494141,12.4770908355713,12.4734563827515,12.4698247909546,12.4661922454834,12.4625644683838,12.4589376449585,12.4553136825562,12.4516916275024,12.448070526123,12.4444551467896,12.4408388137817,12.4372253417969,12.4336128234863,12.4300031661987,12.4263982772827,12.4227905273438,12.4191884994507,12.4155874252319,12.4119882583618,12.4083919525146,12.4047956466675,12.4012031555176,12.3976125717163,12.3940229415894,12.3904390335083,12.3868522644043,12.3832712173462
4.07987070083618,4.09114742279053,4.1024866104126,4.11388874053955,4.12535429000854,4.1368842124939,4.14847850799561,4.16013813018799,4.1718635559082,4.18365478515625,4.1955132484436,4.20743942260742,4.21943330764771,4.23149585723877,4.24362707138062,4.25582838058472,4.26810026168823,4.28044319152832,4.29285717010498,4.30534362792969,4.3179030418396,4.33053588867188,4.34246349334717,4.35445356369019,4.36650991439819,4.37863349914551,4.39082431793213,4.40308332443237,4.4154109954834,4.42780780792236,4.44027471542358,4.45281171798706,4.46541976928711,4.47809934616089,4.49085140228271,4.50367593765259,4.51657390594482,4.52954626083374,4.54259347915649,4.55571556091309,4.56891441345215,4.58218955993652,4.59554195404053,4.60897207260132,4.62248182296753,4.63607025146484,4.64973926544189,4.66348886489868,4.67732000350952,4.69123363494873,4.70523023605347,4.71931028366089,4.73347520828247,4.74772500991821,4.76206159591675,4.77648448944092,4.7909951210022,4.80559396743774,4.82028245925903,4.83506059646606,4.84993028640747,4.86489105224609,4.87994480133057,4.89509153366089,4.91033315658569,4.92566967010498,4.94110345840454,4.95663261413574,4.97225999832153,4.98798608779907,5.00381183624268,5.01973819732666,5.0357666015625,5.05189800262451,5.0681324005127,5.08447170257568,5.10091686248779,5.11746883392334,5.13412809371948,5.15089654922485,5.16777515411377,5.18476438522339,13.9281930923462,13.9236621856689,13.9191389083862,13.9146137237549,13.9100942611694,13.9055757522583,13.9010629653931,13.8965501785278,13.8920421600342,13.8875370025635,13.88303565979,13.8785352706909,13.8740377426147,13.8695459365845,13.8650522232056,13.8605670928955,13.8560810089111,13.851598739624,13.8471193313599,13.8426427841187,13.8381681442261,13.8336992263794,13.829231262207,13.8247671127319,13.8203048706055,13.8158464431763,13.81139087677,13.8069353103638,13.8024854660034,13.7980375289917,13.7935953140259,13.7891511917114,13.7847127914429,13.7802782058716,13.7758445739746,13.7714147567749,13.7669858932495,13.7625617980957,13.7581396102905,13.7537212371826,13.749303817749,13.7448902130127,13.740478515625,13.7360734939575,13.7316694259644,13.7272663116455,13.7228679656982,13.7184686660767,13.7140779495239,13.7096853256226,13.7052993774414,13.7009124755859,13.6965303421021,13.6921529769897,13.6877746582031,13.6834011077881,13.6790294647217,13.6746616363525,13.670295715332,13.6659336090088,13.6615724563599,13.6572151184082,13.6528606414795,13.648509979248,13.6441612243652,13.6398153305054,13.6354722976685,13.6311302185059,13.6267929077148,13.6224584579468,13.6181268692017,13.6137952804565,13.609468460083,13.6051445007324,13.6008253097534,13.5965070724487,13.5921897888184,13.5878772735596,13.5835666656494,13.5792598724365,13.5749540328979,13.5706520080566,13.5663509368896,13.5620574951172,13.5577602386475,13.5534696578979,13.5491828918457,13.5448951721191,13.5406141281128,13.5363330841064,13.5320558547974,13.5277795791626,13.5235080718994,13.5192384719849,13.5149717330933,13.5107069015503,13.5064468383789,13.5021877288818,13.4979314804077,13.4936790466309,13.4894256591797,13.485179901123,13.4809331893921,13.4766902923584,13.4724502563477,13.4682121276855,13.463978767395,13.4597463607788,13.4555177688599,13.4512891769409,13.4470653533936,13.4428443908691,13.438624382019,13.4344091415405,13.430196762085,13.4259834289551,13.4217777252197,13.4175710678101,13.413369178772,13.4091682434082,13.4049692153931,13.4007720947266,13.3965797424316,13.3923931121826,13.388204574585,13.3840198516846,13.3798351287842,13.3756561279297,13.3714780807495,13.3673038482666,13.3631343841553,13.3589630126953,13.3547973632812,13.3506336212158,13.3464727401733,13.3423137664795,13.3381567001343,13.3340044021606,13.3298530578613,13.325704574585,13.3215599060059,13.3174142837524,13.3132753372192,13.3091354370117,13.3050003051758,13.3008699417114,13.2967367172241,13.2926092147827,13.2884817123413,13.2843618392944,13.2802410125732,13.2761240005493,13.272008895874,13.267894744873,13.263786315918,13.2596797943115,13.2555732727051,13.2514705657959,13.2473726272583,13.2432746887207,13.2391805648804,13.2350873947144,13.2309989929199,13.2269096374512,13.2228260040283,13.2187433242798,13.2146644592285,13.2105875015259,13.2065105438232,13.2024412155151,13.1983690261841,13.1943025588989,13.190239906311,13.1861763000488,13.1821193695068,13.1780595779419,13.1740055084229,13.1699542999268,13.165904045105,13.1618576049805,13.1578121185303,13.1537704467773,13.1497316360474,13.1456937789917,13.141658782959,13.1376266479492,13.1335964202881,13.1295700073242,13.1255445480347,13.121524810791,13.1175022125244,13.113486289978,13.1094703674316,13.1054592132568,13.1014490127563,13.0974416732788,13.0934362411499,13.0894327163696,13.0854320526123,13.0814352035522,13.0774402618408,13.0734491348267,13.0694561004639,13.0654697418213,13.0614833831787,13.0574989318848,13.0535192489624,13.0495405197144,13.0455656051636,13.0415935516357,13.0376214981079,13.033652305603,13.0296859741211,13.0257215499878,13.0217618942261,13.0178022384644,13.0138463973999,13.0098905563354,13.0059385299683,13.0019912719727,12.9980430603027,12.9941005706787,12.9901580810547,12.986216545105,12.9822797775269,12.9783458709717,12.9744129180908,12.9704809188843,12.9665536880493,12.9626293182373,12.9587049484253,12.9547853469849,12.9508657455444,12.9469509124756,12.9430360794067,12.9391260147095,12.9352188110352,12.9313087463379,12.9274063110352,12.9235038757324,12.919605255127,12.9157094955444,12.9118137359619,12.9079217910767,12.9040307998657,12.9001426696777,12.8962593078613,12.8923740386963,12.8884944915771,12.8846158981323,12.8807401657104,12.8768682479858,12.8729934692383,12.8691263198853,12.8652582168579,12.8613939285278,12.857533454895,12.8536729812622,12.849817276001,12.8459606170654,12.8421077728271,12.8382558822632,12.8344078063965,12.8305644989014,12.8267192840576,12.8228778839111,12.8190383911133,12.8152017593384,12.8113689422607,12.8075361251831,12.8037071228027,12.7998790740967,12.7960538864136,12.7922315597534,12.7884101867676,12.7845916748047,12.7807750701904,12.7769622802734,12.7731523513794,12.7693405151367,12.7655353546143,12.7617292404175,12.7579278945923,12.7541265487671,12.7503299713135,12.7465353012085,12.7427415847778,12.7389488220215,12.7351589202881,12.7313737869263,12.7275896072388,12.7238073348999,12.7200269699097,12.7162494659424,12.712474822998,12.708701133728,12.7049293518066,12.7011613845825,12.6973943710327,12.6936311721802,12.6898698806763,12.6861085891724,12.6823530197144,12.6785945892334,12.6748428344727,12.6710948944092,12.6673460006714,12.6635980606079,12.6598529815674,12.6561107635498,12.6523723602295,12.6486330032349,12.6449003219604,12.6411647796631,12.6374349594116,12.6337070465088,12.6299781799316,12.6262559890747,12.6225328445435,12.6188135147095,12.6150951385498,12.6113796234131,12.6076669692993,12.6039543151855,12.600245475769,12.5965385437012,12.5928344726562,12.58913230896,12.5854320526123,12.5817337036133,12.5780372619629,12.5743436813354,12.5706520080566,12.5669622421265,12.5632762908936,12.559591293335,12.555908203125,12.5522270202637,12.548547744751,12.5448722839355,12.5411977767944,12.537525177002,12.5338563919067,12.5301866531372,12.5265226364136,12.5228567123413,12.5191965103149,12.5155382156372,12.5118799209595,12.5082263946533,12.5045719146729,12.500922203064,12.4972724914551,12.4936265945435,12.4899835586548,12.4863405227661,12.4826993942261,12.4790601730347,12.4754247665405,12.4717922210693,12.4681606292725,12.4645309448242,12.4609022140503,12.4572772979736,12.4536552429199,12.4500341415405,12.4464149475098,12.4427967071533,12.4391841888428,12.4355726242065,12.4319591522217,12.4283533096313,12.4247436523438,12.4211416244507,12.4175386428833,12.4139394760132,12.4103403091431,12.4067449569702,12.4031505584717,12.3995599746704,12.3959684371948,12.3923816680908,12.3887958526611,12.3852138519287,12.381630897522,12.3780527114868,12.3744764328003,12.3708992004395,12.3673267364502,12.3637552261353,12.3601875305176,12.3566198348999,12.3530540466309,12.3494911193848,12.3459310531616,12.3423719406128,12.3388156890869,12.3352603912354,12.3317089080811,12.3281564712524,12.3246097564697,12.321063041687,12.3175172805786,12.3139762878418,12.3104343414307,12.3068981170654
4.06785488128662,4.07906484603882,4.09033679962158,4.10167169570923,4.1130690574646,4.12453031539917,4.13605546951294,4.14764547348022,4.15930032730103,4.17102098464966,4.18280744552612,4.19466114044189,4.20658206939697,4.21857118606567,4.23062896728516,4.24275541305542,4.25495147705078,4.26721858978271,4.2795557975769,4.29196500778198,4.30444622039795,4.31700038909912,4.32962799072266,4.34232950210571,4.35445165634155,4.36650800704956,4.37863159179688,4.3908224105835,4.40308141708374,4.41540908813477,4.42780590057373,4.44027280807495,4.45280981063843,4.46541786193848,4.47809743881226,4.49084949493408,4.50367403030396,4.51657247543335,4.52954483032227,4.54259157180786,4.55571413040161,4.56891250610352,4.58218765258789,4.59554004669189,4.60897016525269,4.6224799156189,4.63606834411621,4.64973735809326,4.66348695755005,4.67731809616089,4.6912317276001,4.70522832870483,4.71930837631226,4.73347330093384,4.74772310256958,4.76205921173096,4.77648258209229,4.79099321365356,4.80559206008911,4.82028007507324,4.83505868911743,4.84992790222168,4.86488914489746,4.87994241714478,4.89508962631226,4.91033124923706,4.92566776275635,4.94110012054443,4.95662975311279,4.97225856781006,4.98798418045044,5.00380992889404,5.01973676681519,5.03576517105103,5.05189609527588,5.06813097000122,5.08447027206421,5.10091543197632,5.11746692657471,5.13412666320801,5.15089511871338,5.16777324676514,5.18476247787476,5.20186376571655,13.8227157592773,13.8182554244995,13.8137969970703,13.8093414306641,13.8048896789551,13.8004417419434,13.795994758606,13.7915525436401,13.7871112823486,13.7826747894287,13.7782402038574,13.7738075256348,13.7693786621094,13.7649517059326,13.7605295181274,13.7561073303223,13.751690864563,13.747275352478,13.7428636550903,13.7384557723999,13.7340478897095,13.7296466827393,13.7252435684204,13.7208461761475,13.7164516448975,13.7120590209961,13.7076683044434,13.7032833099365,13.6988973617554,13.6945171356201,13.6901407241821,13.6857662200928,13.6813926696777,13.6770210266113,13.6726560592651,13.6682901382446,13.6639308929443,13.6595697402954,13.6552143096924,13.6508617401123,13.6465110778809,13.642162322998,13.6378192901611,13.6334753036499,13.6291370391846,13.6248006820679,13.6204652786255,13.616135597229,13.6118068695068,13.6074819564819,13.6031589508057,13.5988388061523,13.5945224761963,13.5902070999146,13.5858964920044,13.5815858840942,13.5772790908813,13.5729761123657,13.5686740875244,13.564377784729,13.5600824356079,13.5557880401611,13.5515003204346,13.547212600708,13.5429286956787,13.5386457443237,13.5343647003174,13.5300912857056,13.5258159637451,13.5215454101562,13.517276763916,13.513011932373,13.508749961853,13.5044870376587,13.5002317428589,13.4959754943848,13.4917230606079,13.4874753952026,13.4832277297974,13.4789838790894,13.4747409820557,13.4705018997192,13.4662666320801,13.4620332717896,13.457802772522,13.453574180603,13.4493474960327,13.4451265335083,13.4409046173096,13.4366884231567,13.4324722290039,13.4282598495483,13.4240503311157,13.4198446273804,13.4156408309937,13.4114379882812,13.4072380065918,13.4030427932739,13.3988485336304,13.3946571350098,13.3904685974121,13.3862800598145,13.3820991516113,13.3779191970825,13.3737382888794,13.3695640563965,13.3653907775879,13.3612222671509,13.3570528030396,13.3528871536255,13.3487253189087,13.3445644378662,13.340407371521,13.3362522125244,13.3321027755737,13.3279523849487,13.323805809021,13.3196592330933,13.3155183792114,13.3113784790039,13.3072423934937,13.303108215332,13.298975944519,13.2948474884033,13.2907199859619,13.2865962982178,13.2824745178223,13.2783536911011,13.2742385864258,13.2701253890991,13.2660140991211,13.261905670166,13.2577991485596,13.2536945343018,13.2495918273926,13.2454948425293,13.2413988113403,13.2373065948486,13.2332153320312,13.2291250228882,13.2250394821167,13.2209539413452,13.2168741226196,13.212797164917,13.2087211608887,13.204647064209,13.2005758285522,13.1965065002441,13.1924419403076,13.1883773803711,13.1843185424805,13.1802587509155,13.1762037277222,13.1721506118774,13.168098449707,13.1640501022339,13.1600027084351,13.1559629440308,13.1519212722778,13.1478815078735,13.1438465118408,13.1398115158081,13.1357822418213,13.1317520141602,13.1277265548706,13.123703956604,13.1196813583374,13.1156635284424,13.111644744873,13.1076326370239,13.1036224365234,13.0996131896973,13.095606803894,13.0916032791138,13.0876016616821,13.0836019515991,13.0796051025391,13.0756101608276,13.0716190338135,13.0676298141479,13.0636434555054,13.0596599578857,13.0556774139404,13.0516967773438,13.04771900177,13.0437469482422,13.0397729873657,13.0358047485352,13.031834602356,13.0278692245483,13.023907661438,13.0199460983276,13.0159902572632,13.0120334625244,13.0080823898315,13.0041313171387,13.0001821517944,12.9962368011475,12.9922924041748,12.988353729248,12.9844131469727,12.9804773330688,12.976544380188,12.9726123809814,12.9686822891235,12.9647550582886,12.9608325958252,12.9569110870361,12.9529905319214,12.9490728378296,12.9451570510864,12.9412441253662,12.9373350143433,12.9334278106689,12.9295215606689,12.9256181716919,12.9217195510864,12.9178199768066,12.9139232635498,12.9100303649902,12.906138420105,12.9022512435913,12.898365020752,12.8944787979126,12.8905973434448,12.8867158889771,12.8828401565552,12.8789672851562,12.8750925064087,12.871223449707,12.8673543930054,12.863489151001,12.8596248626709,12.8557634353638,12.8519077301025,12.8480491638184,12.8441963195801,12.8403425216675,12.8364944458008,12.8326482772827,12.8288021087646,12.8249607086182,12.8211193084717,12.8172817230225,12.8134469985962,12.8096113204956,12.8057823181152,12.8019523620605,12.7981281280518,12.794303894043,12.7904806137085,12.786660194397,12.7828435897827,12.7790288925171,12.7752170562744,12.7714052200317,12.7675971984863,12.7637910842896,12.75998878479,12.7561874389648,12.7523880004883,12.7485904693604,12.7447967529297,12.7410039901733,12.7372131347656,12.7334260940552,12.7296409606934,12.7258558273315,12.7220754623413,12.7182970046997,12.7145204544067,12.710747718811,12.7069721221924,12.7032041549683,12.6994352340698,12.6956701278687,12.6919097900391,12.6881465911865,12.6843891143799,12.6806316375732,12.6768779754639,12.6731262207031,12.6693754196167,12.6656303405762,12.661883354187,12.6581411361694,12.6543998718262,12.6506595611572,12.6469230651855,12.6431884765625,12.639458656311,12.6357278823853,12.6319980621338,12.6282739639282,12.6245498657227,12.62082862854,12.6171092987061,12.6133937835693,12.6096801757812,12.6059665679932,12.602255821228,12.5985469818115,12.5948419570923,12.5911388397217,12.5874376296997,12.5837392807007,12.5800409317017,12.5763463973999,12.5726537704468,12.5689601898193,12.5652732849121,12.5615882873535,12.5579042434692,12.5542221069336,12.5505409240723,12.5468645095825,12.5431871414185,12.539514541626,12.5358448028564,12.5321760177612,12.5285091400146,12.5248441696167,12.5211811065674,12.5175218582153,12.513861656189,12.5102071762085,12.506552696228,12.5029020309448,12.4992504119873,12.4956026077271,12.4919586181641,12.4883136749268,12.4846744537354,12.4810333251953,12.4773969650269,12.4737634658813,12.4701280593872,12.4664974212646,12.4628677368164,12.4592428207397,12.4556198120117,12.4519968032837,12.4483766555786,12.4447574615479,12.4411430358887,12.4375286102295,12.4339170455933,12.43030834198,12.4266986846924,12.4230947494507,12.419490814209,12.4158887863159,12.4122905731201,12.4086933135986,12.4050998687744,12.4015064239502,12.3979148864746,12.394326210022,12.3907384872437,12.3871536254883,12.3835725784302,12.3799924850464,12.3764152526855,12.3728370666504,12.3692626953125,12.3656883239746,12.3621196746826,12.3585538864136,12.3549861907959,12.3514223098755,12.3478603363037,12.3443002700806,12.3407440185547,12.3371868133545,12.3336334228516,12.3300819396973,12.3265323638916,12.3229856491089,12.3194370269775,12.3158960342407,12.3123531341553,12.3088159561157,12.3052778244019,12.3017425537109,12.298210144043,12.294677734375,12.29114818573,12.2876214981079,12.2840976715088,12.2805738449097,12.2770519256592,12.273533821106,12.2700147628784,12.2665004730225,12.2629871368408,12.2594766616821,12.2559671401978,12.252459526062,12.2489547729492,12.2454519271851,12.2419509887695,12.2384519577026,12.2349538803101,12.2314605712891
4.05590915679932,4.06705331802368,4.07825946807861,4.08952713012695,4.10085725784302,4.11225032806396,4.12370681762695,4.13522720336914,4.14681243896484,4.15846252441406,4.17017841339111,4.18196058273315,4.19380950927734,4.20572566986084,4.2177095413208,4.22976207733154,4.24188375473022,4.254075050354,4.2663369178772,4.2786693572998,4.29107332229614,4.30354928970337,4.3160982131958,4.3287205696106,4.34141683578491,4.35418796539307,4.36650657653809,4.3786301612854,4.39082098007202,4.40307998657227,4.41540765762329,4.42780447006226,4.44027090072632,4.45280790328979,4.46541595458984,4.47809600830078,4.49084758758545,4.50367212295532,4.51657056808472,4.52954292297363,4.54258966445923,4.55571222305298,4.56891059875488,4.58218574523926,4.59553813934326,4.60896873474121,4.62247800827026,4.63606643676758,4.64973545074463,4.66348505020142,4.67731618881226,4.69122934341431,4.70522594451904,4.71930646896362,4.73347091674805,4.74772119522095,4.76205730438232,4.77648019790649,4.79099082946777,4.80559015274048,4.82027816772461,4.83505630493164,4.84992599487305,4.86488676071167,4.87994050979614,4.89508724212646,4.91032886505127,4.92566537857056,4.9410982131958,4.95662784576416,4.97225522994995,4.98798274993896,5.00380849838257,5.01973533630371,5.03576374053955,5.0518946647644,5.06812906265259,5.08446836471558,5.10091352462769,5.11746549606323,5.13412475585938,5.15089321136475,5.16777181625366,5.18476104736328,5.20186233520508,5.21907663345337,13.7188272476196,13.7144317626953,13.7100410461426,13.7056522369385,13.7012672424316,13.6968870162964,13.6925048828125,13.6881284713745,13.6837539672852,13.6793842315674,13.6750144958496,13.6706504821777,13.6662845611572,13.6619262695312,13.6575679779053,13.6532135009766,13.6488628387451,13.644513130188,13.6401672363281,13.6358222961426,13.6314821243286,13.627142906189,13.6228084564209,13.6184768676758,13.6141452789307,13.6098213195801,13.6054954528809,13.6011743545532,13.5968542098999,13.5925388336182,13.5882263183594,13.5839147567749,13.5796060562134,13.5753030776978,13.5709981918335,13.5667009353638,13.562403678894,13.5581083297729,13.5538196563721,13.5495281219482,13.5452442169189,13.540958404541,13.536678314209,13.5324010848999,13.5281257629395,13.523853302002,13.5195837020874,13.5153169631958,13.5110521316528,13.5067901611328,13.5025329589844,13.4982767105103,13.4940204620361,13.4897708892822,13.4855222702026,13.4812774658203,13.477032661438,13.4727935791016,13.4685564041138,13.464319229126,13.4600877761841,13.4558582305908,13.4516315460205,13.4474067687988,13.4431858062744,13.4389657974243,13.4347496032715,13.4305353164673,13.426326751709,13.4221172332764,13.417911529541,13.4137096405029,13.4095077514648,13.4053106307983,13.4011144638062,13.3969221115112,13.3927307128906,13.3885431289673,13.3843584060669,13.3801774978638,13.375997543335,13.3718214035034,13.3676462173462,13.3634738922119,13.3593063354492,13.3551378250122,13.3509750366211,13.34681224823,13.3426551818848,13.3384981155396,13.3343448638916,13.3301954269409,13.3260459899902,13.3219013214111,13.317756652832,13.3136157989502,13.3094787597656,13.3053426742554,13.3012104034424,13.297080039978,13.292950630188,13.2888259887695,13.284704208374,13.2805833816528,13.2764654159546,13.272349357605,13.268238067627,13.2641267776489,13.2600221633911,13.2559156417847,13.2518129348755,13.2477159500122,13.2436170578003,13.23952293396,13.2354307174683,13.2313404083252,13.2272539138794,13.2231683731079,13.2190866470337,13.2150068283081,13.2109289169312,13.2068557739258,13.2027826309204,13.1987113952637,13.1946458816528,13.1905794143677,13.1865177154541,13.1824569702148,13.1784009933472,13.1743478775024,13.170295715332,13.1662454605103,13.1621971130371,13.1581535339355,13.154109954834,13.1500701904297,13.1460342407227,13.1419982910156,13.1379671096802,13.1339359283447,13.1299085617065,13.1258821487427,13.1218605041504,13.1178417205811,13.1138229370117,13.109808921814,13.1057949066162,13.10178565979,13.0977773666382,13.0937719345093,13.0897703170776,13.0857706069946,13.0817718505859,13.0777750015259,13.0737810134888,13.0697917938232,13.065806388855,13.0618181228638,13.0578365325928,13.0538530349731,13.0498752593994,13.0459003448486,13.0419254302979,13.0379571914673,13.0339870452881,13.0300207138062,13.0260553359985,13.0220928192139,13.0181350708008,13.0141773223877,13.0102243423462,13.006272315979,13.0023212432861,12.9983758926392,12.9944305419922,12.9904880523682,12.9865484237671,12.982611656189,12.9786758422852,12.9747428894043,12.9708127975464,12.9668836593628,12.9629583358765,12.9590358734131,12.955114364624,12.9511966705322,12.9472799301147,12.9433650970459,12.9394550323486,12.9355440139771,12.9316387176514,12.9277353286743,12.9238328933716,12.9199342727661,12.916036605835,12.9121417999268,12.9082469940186,12.9043569564819,12.9004707336426,12.8965845108032,12.8927021026611,12.8888206481934,12.8849411010742,12.881064414978,12.8771915435791,12.8733215332031,12.8694505691528,12.8655834197998,12.8617181777954,12.8578567504883,12.8539981842041,12.8501386642456,12.8462858200073,12.8424320220947,12.8385810852051,12.8347330093384,12.830885887146,12.8270425796509,12.8232002258301,12.8193626403809,12.815526008606,12.8116903305054,12.8078594207764,12.804027557373,12.8002004623413,12.7963752746582,12.7925519943237,12.7887325286865,12.784912109375,12.7810964584351,12.7772827148438,12.7734699249268,12.769660949707,12.7658529281616,12.7620506286621,12.758246421814,12.7544460296631,12.7506484985352,12.7468509674072,12.7430591583252,12.7392673492432,12.7354793548584,12.7316942214966,12.7279071807861,12.7241258621216,12.720344543457,12.7165660858154,12.7127933502197,12.7090187072754,12.7052478790283,12.7014789581299,12.6977109909058,12.6939468383789,12.6901845932007,12.6864261627197,12.6826667785645,12.6789131164551,12.6751594543457,12.671407699585,12.6676597595215,12.663911819458,12.6601686477661,12.6564264297485,12.6526870727539,12.6489496231079,12.6452131271362,12.6414785385132,12.6377468109131,12.6340208053589,12.6302928924561,12.6265678405762,12.6228456497192,12.6191253662109,12.6154079437256,12.6116914749146,12.6079797744751,12.6042680740356,12.6005573272705,12.596851348877,12.5931463241577,12.5894422531128,12.5857419967651,12.5820446014404,12.5783491134644,12.5746564865112,12.5709619522095,12.5672731399536,12.5635852813721,12.5599002838135,12.5562181472778,12.5525360107422,12.5488576889038,12.5451793670654,12.5415058135986,12.5378341674805,12.5341625213623,12.5304975509644,12.5268297195435,12.5231666564941,12.5195045471191,12.5158452987671,12.5121870040894,12.5085315704346,12.5048809051514,12.5012283325195,12.4975814819336,12.4939336776733,12.490288734436,12.486644744873,12.4830045700073,12.4793682098389,12.4757318496704,12.4720964431763,12.468466758728,12.4648361206055,12.4612073898315,12.4575834274292,12.4539604187012,12.4503393173218,12.4467182159424,12.4431009292603,12.4394874572754,12.4358730316162,12.4322643280029,12.4286556243896,12.425048828125,12.4214448928833,12.4178419113159,12.4142417907715,12.4106435775757,12.4070472717285,12.4034519195557,12.3998613357544,12.3962717056274,12.3926839828491,12.3890972137451,12.3855133056641,12.3819303512573,12.3783531188965,12.3747758865356,12.3712005615234,12.3676252365112,12.3640565872192,12.3604879379272,12.3569173812866,12.3533554077148,12.3497924804688,12.346230506897,12.3426723480225,12.3391141891479,12.3355598449707,12.3320055007935,12.3284568786621,12.3249092102051,12.3213605880737,12.3178157806396,12.3142738342285,12.3107328414917,12.3071956634521,12.3036584854126,12.3001251220703,12.2965908050537,12.2930612564087,12.2895307540894,12.2860078811646,12.2824821472168,12.2789611816406,12.2754411697388,12.2719211578369,12.2684049606323,12.264892578125,12.261378288269,12.2578687667847,12.2543611526489,12.2508554458618,12.2473516464233,12.2438478469849,12.240348815918,12.2368478775024,12.2333545684814,12.2298612594604,12.2263669967651,12.2228775024414,12.219388961792,12.2159023284912,12.2124195098877,12.2089366912842,12.2054567337036,12.2019786834717,12.198504447937,12.1950302124023,12.1915559768677,12.188084602356,12.1846170425415,12.1811513900757,12.1776857376099,12.1742238998413,12.1707649230957,12.1673049926758,12.1638479232788,12.1603927612305,12.1569423675537
4.04403352737427,4.05511283874512,4.06625270843506,4.07745409011841,4.08871746063232,4.10004281997681,4.11143159866333,4.12288379669189,4.1343994140625,4.14597988128662,4.15762567520142,4.16933679580688,4.18111419677734,4.19295787811279,4.20486927032471,4.21684837341309,4.22889614105225,4.24101305007935,4.25319910049438,4.26545572280884,4.27778291702271,4.29018211364746,4.30265283584595,4.31519651412964,4.32781362533569,4.34050464630127,4.35327005386353,4.36611080169678,4.37862825393677,4.39081907272339,4.40307807922363,4.41540575027466,4.42780256271362,4.44026947021484,4.45280599594116,4.46541452407837,4.47809410095215,4.49084568023682,4.50367069244385,4.51656866073608,4.529541015625,4.5425877571106,4.55571031570435,4.56890869140625,4.58218383789062,4.59553623199463,4.60896682739258,4.62247610092163,4.63606452941895,4.649733543396,4.66348314285278,4.67731428146362,4.69122743606567,4.70522403717041,4.71930456161499,4.73346900939941,4.74771928787231,4.76205539703369,4.77647829055786,4.79098892211914,4.80558776855469,4.82027626037598,4.83505439758301,4.84992408752441,4.86488485336304,4.87993812561035,4.89508533477783,4.91032648086548,4.92566347122192,4.94109582901001,4.95662546157837,4.97225332260132,4.98797941207886,5.00380563735962,5.01973342895508,5.03576183319092,5.05189323425293,5.06812763214111,5.0844669342041,5.10091209411621,5.1174635887146,5.1341233253479,5.15089178085327,5.16776990890503,5.18475914001465,5.20186042785645,5.21907472610474,5.23640394210815,13.6164846420288,13.612156867981,13.6078329086304,13.6035070419312,13.5991888046265,13.5948715209961,13.590558052063,13.5862445831299,13.5819339752197,13.5776281356812,13.5733242034912,13.5690250396729,13.5647258758545,13.5604295730591,13.5561370849609,13.5518455505371,13.5475568771362,13.5432748794556,13.5389909744263,13.5347137451172,13.5304355621338,13.5261611938477,13.5218915939331,13.5176219940186,13.5133571624756,13.5090942382812,13.5048332214355,13.5005750656128,13.4963188171387,13.4920663833618,13.4878177642822,13.4835691452026,13.4793272018433,13.4750843048096,13.4708461761475,13.466609954834,13.4623746871948,13.4581451416016,13.453914642334,13.4496908187866,13.4454660415649,13.4412450790405,13.4370288848877,13.4328126907349,13.4286022186279,13.4243898391724,13.4201831817627,13.415979385376,13.4117774963379,13.4075794219971,13.4033823013306,13.3991861343384,13.3949966430664,13.3908071517944,13.3866205215454,13.3824377059937,13.3782558441162,13.374077796936,13.3699007034302,13.3657302856445,13.3615579605103,13.3573894500732,13.3532257080078,13.3490619659424,13.3449020385742,13.3407440185547,13.3365898132324,13.3324384689331,13.3282871246338,13.3241415023804,13.3199949264526,13.3158531188965,13.3117151260376,13.3075761795044,13.3034439086914,13.2993125915527,13.2951822280884,13.2910566329956,13.2869300842285,13.2828102111816,13.2786903381348,13.2745723724365,13.2704601287842,13.2663488388062,13.2622375488281,13.2581338882446,13.2540311813354,13.2499303817749,13.245831489563,13.2417345046997,13.237642288208,13.233549118042,13.2294626235962,13.2253761291504,13.2212905883789,13.2172117233276,13.2131328582764,13.209056854248,13.2049827575684,13.2009115219116,13.1968441009521,13.1927785873413,13.1887149810791,13.1846542358398,13.1805953979492,13.1765403747559,13.1724853515625,13.1684370040894,13.1643886566162,13.1603403091431,13.1562995910645,13.1522560119629,13.1482200622559,13.1441822052002,13.1401500701904,13.1361179351807,13.1320905685425,13.1280632019043,13.1240406036377,13.1200189590454,13.1160001754761,13.111985206604,13.1079721450806,13.1039590835571,13.0999488830566,13.0959424972534,13.0919380187988,13.0879383087158,13.0839376449585,13.0799417495728,13.075945854187,13.0719547271729,13.067964553833,13.0639772415161,13.0599937438965,13.0560121536255,13.0520315170288,13.0480546951294,13.0440788269043,13.0401067733765,13.0361356735229,13.032169342041,13.0282030105591,13.0242404937744,13.0202798843384,13.0163221359253,13.0123662948608,13.008412361145,13.0044641494751,13.0005149841309,12.9965686798096,12.9926252365112,12.9886827468872,12.9847450256348,12.9808082580566,12.9768753051758,12.9729423522949,12.9690132141113,12.9650869369507,12.9611625671387,12.9572381973267,12.9533195495605,12.9494018554688,12.9454879760742,12.9415760040283,12.9376640319824,12.9337568283081,12.9298486709595,12.9259471893311,12.9220476150513,12.9181470870972,12.914252281189,12.9103565216064,12.9064655303955,12.9025764465332,12.8986902236938,12.8948059082031,12.890923500061,12.8870449066162,12.8831653594971,12.8792905807495,12.8754186630249,12.8715467453003,12.8676815032959,12.8638153076172,12.8599500656128,12.8560905456543,12.8522310256958,12.8483724594116,12.844518661499,12.8406686782837,12.8368196487427,12.8329706192017,12.8291263580322,12.8252830505371,12.8214426040649,12.8176050186157,12.8137702941895,12.8099365234375,12.8061046600342,12.8022747039795,12.7984485626221,12.794623374939,12.7908020019531,12.7869825363159,12.783166885376,12.7793493270874,12.7755365371704,12.7717256546021,12.7679166793823,12.7641105651855,12.7603073120117,12.7565069198608,12.7527084350586,12.7489099502563,12.7451143264771,12.7413215637207,12.7375316619873,12.7337465286255,12.7299585342407,12.7261753082275,12.7223930358887,12.7186155319214,12.7148370742798,12.7110614776611,12.7072906494141,12.703519821167,12.6997528076172,12.695987701416,12.6922235488892,12.6884622573853,12.6847038269043,12.6809482574463,12.6771936416626,12.6734409332275,12.6696920394897,12.665943145752,12.6621980667114,12.6584520339966,12.6547145843506,12.650975227356,12.64723777771,12.6435022354126,12.6397695541382,12.6360397338867,12.6323127746582,12.628586769104,12.6248636245728,12.6211423873901,12.6174240112305,12.6137065887451,12.6099901199341,12.6062793731689,12.6025676727295,12.5988597869873,12.5951538085938,12.5914497375488,12.5877485275269,12.5840482711792,12.5803508758545,12.5766582489014,12.5729627609253,12.5692729949951,12.5655841827393,12.561897277832,12.5582141876221,12.5545301437378,12.5508527755737,12.5471725463867,12.5434980392456,12.5398235321045,12.5361518859863,12.5324831008911,12.5288171768188,12.5251522064209,12.5214881896973,12.5178279876709,12.5141706466675,12.5105133056641,12.5068597793579,12.5032062530518,12.4995574951172,12.4959106445312,12.4922637939453,12.4886207580566,12.484977722168,12.4813394546509,12.4777021408081,12.474066734314,12.4704341888428,12.4668016433716,12.463173866272,12.459547996521,12.4559230804443,12.4523000717163,12.4486799240112,12.4450626373291,12.4414472579956,12.4378318786621,12.4342203140259,12.4306106567383,12.4270038604736,12.423397064209,12.4197940826416,12.4161949157715,12.4125928878784,12.4089956283569,12.4053993225098,12.4018068313599,12.3982172012329,12.3946266174316,12.391040802002,12.3874559402466,12.3838729858398,12.3802928924561,12.3767147064209,12.3731374740601,12.3695640563965,12.3659906387329,12.3624210357666,12.3588514328003,12.3552865982056,12.3517217636108,12.3481607437134,12.3446006774902,12.3410415649414,12.3374872207642,12.3339319229126,12.330379486084,12.3268299102783,12.3232831954956,12.3197393417358,12.3161935806274,12.3126516342163,12.3091115951538,12.3055744171143,12.3020401000977,12.2985067367554,12.2949752807617,12.2914438247681,12.2879190444946,12.2843923568726,12.2808685302734,12.2773475646973,12.2738275527954,12.2703123092651,12.2667961120605,12.2632827758789,12.2597713470459,12.2562608718872,12.2527542114258,12.2492504119873,12.2457466125488,12.2422456741333,12.2387447357178,12.2352485656738,12.2317533493042,12.2282609939575,12.2247705459595,12.2212800979614,12.2177934646606,12.2143077850342,12.2108249664307,12.2073440551758,12.2038631439209,12.2003870010376,12.1969118118286,12.1934375762939,12.1899662017822,12.1864967346191,12.183030128479,12.1795635223389,12.1761016845703,12.1726398468018,12.1691799163818,12.1657218933105,12.1622657775879,12.1588125228882,12.1553611755371,12.1519117355347,12.1484642028809,12.1450185775757,12.1415739059448,12.1381330490112,12.1346912384033,12.1312551498413,12.127818107605,12.1243839263916,12.1209535598755,12.1175222396851,12.1140937805176,12.1106672286987,12.1072416305542,12.1038198471069,12.100399017334,12.0969820022583,12.0935640335083,12.0901498794556,12.0867366790771,12.0833263397217
4.03222751617432,4.04324197769165,4.05431652069092,4.06545209884644,4.07664918899536,4.0879077911377,4.09922933578491,4.11061334609985,4.12206077575684,4.13357210159302,4.14514780044556,4.15678882598877,4.16849517822266,4.18026781082153,4.1921067237854,4.20401334762573,4.21598768234253,4.22803020477295,4.24014186859131,4.25232315063477,4.26457500457764,4.27689743041992,4.28929090499878,4.30175638198853,4.31429481506348,4.32690668106079,4.33959245681763,4.35235261917114,4.36518812179565,4.37809944152832,4.39081764221191,4.40307664871216,4.41540384292603,4.42780065536499,4.44026756286621,4.45280456542969,4.46541261672974,4.47809219360352,4.49084424972534,4.50366878509521,4.51656675338745,4.52953910827637,4.54258584976196,4.55570840835571,4.56890678405762,4.58218193054199,4.595534324646,4.60896492004395,4.622474193573,4.63606262207031,4.64973163604736,4.66348123550415,4.67731237411499,4.69122552871704,4.70522212982178,4.7193021774292,4.73346710205078,4.74771738052368,4.76205348968506,4.77647638320923,4.79098701477051,4.80558586120605,4.82027387619019,4.83505249023438,4.84992170333862,4.86488246917725,4.87993621826172,4.8950834274292,4.91032457351685,4.92566108703613,4.94109344482422,4.95662307739258,4.97225093841553,4.98797750473022,5.00380325317383,5.01973056793213,5.03575897216797,5.05189085006714,5.06812572479248,5.08446550369263,5.10091018676758,5.11746215820312,5.13412141799927,5.15088987350464,5.16776847839355,5.18475770950317,5.20185852050781,5.21907329559326,5.23640155792236,5.25384616851807,13.5156621932983,13.5113973617554,13.5071334838867,13.502875328064,13.4986181259155,13.4943675994873,13.4901132583618,13.4858646392822,13.4816207885742,13.4773759841919,13.4731378555298,13.468897819519,13.4646625518799,13.4604301452637,13.4562005996704,13.4519720077515,13.4477500915527,13.4435253143311,13.4393081665039,13.4350919723511,13.4308767318726,13.4266662597656,13.4224557876587,13.4182529449463,13.4140472412109,13.4098472595215,13.4056491851807,13.4014530181885,13.3972606658936,13.3930711746216,13.3888845443726,13.3846969604492,13.3805170059204,13.3763360977173,13.3721590042114,13.3679828643799,13.3638114929199,13.3596410751343,13.3554763793945,13.3513116836548,13.347149848938,13.3429918289185,13.3388338088989,13.3346824645996,13.330530166626,13.3263807296753,13.3222351074219,13.3180913925171,13.3139505386353,13.3098134994507,13.3056764602661,13.3015451431274,13.2974128723145,13.2932844161987,13.2891597747803,13.2850351333618,13.2809171676636,13.2767972946167,13.2726831436157,13.2685689926147,13.2644596099854,13.2603530883789,13.2562475204468,13.2521467208862,13.2480459213257,13.2439479827881,13.2398529052734,13.2357606887817,13.231671333313,13.2275848388672,13.2234964370728,13.2194175720215,13.2153377532959,13.2112598419189,13.2071847915649,13.2031106948853,13.1990432739258,13.1949739456177,13.1909122467041,13.1868486404419,13.1827878952026,13.178731918335,13.1746768951416,13.1706256866455,13.1665754318237,13.1625280380249,13.1584844589233,13.1544418334961,13.1504011154175,13.1463632583618,13.1423282623291,13.1382970809937,13.1342649459839,13.1302394866943,13.1262149810791,13.1221914291382,13.1181726455688,13.1141548156738,13.1101398468018,13.1061267852783,13.1021175384521,13.0981092453003,13.0941038131714,13.0900993347168,13.0861015319824,13.0821027755737,13.0781087875366,13.0741147994995,13.070122718811,13.0661363601685,13.0621490478516,13.0581674575806,13.0541858673096,13.0502080917358,13.0462312698364,13.04225730896,13.0382881164551,13.0343179702759,13.0303506851196,13.0263862609863,13.0224256515503,13.0184669494629,13.0145101547241,13.0105543136597,13.0066041946411,13.0026559829712,12.9987077713013,12.9947624206543,12.9908199310303,12.9868793487549,12.9829416275024,12.9790058135986,12.9750728607178,12.9711437225342,12.9672145843506,12.9632892608643,12.9593648910522,12.9554424285889,12.9515237808228,12.9476089477539,12.9436950683594,12.9397840499878,12.9358749389648,12.9319667816162,12.9280624389648,12.9241590499878,12.920259475708,12.9163637161255,12.912467956543,12.9085750579834,12.9046831130981,12.9007968902588,12.8969116210938,12.8930263519287,12.8891477584839,12.8852672576904,12.8813924789429,12.8775186538696,12.8736457824707,12.8697757720947,12.8659076690674,12.8620452880859,12.8581819534302,12.8543214797974,12.8504648208618,12.846607208252,12.842755317688,12.8389043807983,12.8350553512573,12.8312101364136,12.8273649215698,12.8235244750977,12.8196859359741,12.8158464431763,12.8120136260986,12.8081817626953,12.804349899292,12.8005208969116,12.7966966629028,12.7928733825684,12.7890529632568,12.7852334976196,12.7814159393311,12.7776041030884,12.7737913131714,12.7699813842773,12.7661743164062,12.7623691558838,12.75856590271,12.7547674179077,12.7509670257568,12.7471723556519,12.7433776855469,12.7395868301392,12.7357969284058,12.7320098876953,12.7282257080078,12.7244424819946,12.7206621170044,12.7168846130371,12.7131071090698,12.7093353271484,12.7055616378784,12.7017946243286,12.6980285644531,12.694263458252,12.6905012130737,12.6867418289185,12.6829833984375,12.6792259216309,12.6754760742188,12.6717233657837,12.6679744720459,12.6642284393311,12.6604824066162,12.6567401885986,12.653000831604,12.6492643356323,12.6455268859863,12.641791343689,12.6380615234375,12.6343336105347,12.6306047439575,12.6268796920776,12.623158454895,12.619439125061,12.6157207489014,12.612003326416,12.6082906723022,12.6045780181885,12.600869178772,12.5971632003784,12.5934572219849,12.5897550582886,12.5860528945923,12.5823564529419,12.5786590576172,12.5749635696411,12.5712738037109,12.5675821304321,12.5638971328735,12.560209274292,12.556526184082,12.5528450012207,12.549165725708,12.5454893112183,12.5418157577515,12.538143157959,12.5344724655151,12.5308036804199,12.5271377563477,12.523473739624,12.5198135375977,12.5161533355713,12.5124950408936,12.5088396072388,12.5051870346069,12.5015354156494,12.4978866577148,12.4942407608032,12.4905958175659,12.4869518280029,12.4833126068115,12.4796733856201,12.4760360717773,12.4724035263062,12.468770980835,12.465142250061,12.4615135192871,12.4578876495361,12.4542646408081,12.4506425857544,12.4470243453979,12.4434061050415,12.439790725708,12.4361782073975,12.4325666427612,12.4289588928223,12.4253511428833,12.4217462539673,12.4181451797485,12.4145441055298,12.4109449386597,12.4073476791382,12.4037561416626,12.4001636505127,12.3965711593628,12.3929843902588,12.3893995285034,12.3858156204224,12.3822345733643,12.3786525726318,12.3750762939453,12.3715000152588,12.3679265975952,12.3643569946289,12.3607864379883,12.3572196960449,12.3536529541016,12.3500900268555,12.346529006958,12.3429698944092,12.3394145965576,12.3358573913574,12.3323059082031,12.3287534713745,12.3252048492432,12.3216581344604,12.3181133270264,12.3145713806152,12.3110303878784,12.3074922561646,12.3039560317993,12.3004198074341,12.2968873977661,12.2933578491211,12.2898302078247,12.2863025665283,12.2827787399292,12.2792558670044,12.2757358551025,12.272216796875,12.2687015533447,12.2651882171631,12.2616739273071,12.2581624984741,12.2546539306641,12.2511491775513,12.2476444244385,12.2441434860229,12.2406415939331,12.2371435165405,12.2336483001709,12.2301530838013,12.2266607284546,12.2231702804565,12.2196826934814,12.2161951065063,12.2127113342285,12.2092294692993,12.2057485580444,12.2022705078125,12.1987934112549,12.1953201293945,12.1918497085571,12.1883764266968,12.184907913208,12.1814422607422,12.1779775619507,12.1745147705078,12.1710548400879,12.1675958633423,12.164137840271,12.160683631897,12.1572332382202,12.1537799835205,12.150333404541,12.1468858718872,12.143440246582,12.1399984359741,12.1365566253662,12.1331176757812,12.1296796798706,12.1262445449829,12.1228132247925,12.1193819046021,12.1159515380859,12.1125240325928,12.1090974807739,12.1056728363037,12.1022539138794,12.0988340377808,12.0954151153564,12.0920009613037,12.0885858535767,12.0851736068726,12.0817642211914,12.0783557891846,12.0749521255493,12.0715446472168,12.0681447982788,12.0647449493408,12.0613451004028,12.0579481124878,12.0545520782471,12.0511598587036,12.0477705001831,12.0443811416626,12.040994644165,12.0376091003418,12.0342245101929,12.0308437347412,12.0274648666382,12.0240888595581,12.0207118988037,12.0173377990723,12.0139675140381,12.0105953216553
4.02049016952515,4.03144025802612,4.04245042800903,4.05352115631104,4.06465196609497,4.07584476470947,4.08709907531738,4.09841585159302,4.10979509353638,4.12123823165894,4.13274478912354,4.14431619644165,4.15595197677612,4.16765403747559,4.17942142486572,4.19125604629517,4.20315790176392,4.21512699127197,4.22716474533081,4.23927164077759,4.2514476776123,4.26369428634644,4.27601146697998,4.28840017318726,4.30086088180542,4.31339359283447,4.32600021362305,4.33868074417114,4.35143566131592,4.36426544189453,4.37717199325562,4.39015436172485,4.40307474136353,4.41540241241455,4.42779922485352,4.44026565551758,4.45280265808105,4.4654107093811,4.47809028625488,4.49084234237671,4.50366687774658,4.51656484603882,4.52953720092773,4.54258441925049,4.55570650100708,4.56890487670898,4.58218002319336,4.59553241729736,4.60896301269531,4.62247228622437,4.63606071472168,4.64972972869873,4.66347885131836,4.67731046676636,4.69122362136841,4.70522022247314,4.71930027008057,4.73346519470215,4.74771499633789,4.76205158233643,4.7764744758606,4.79098463058472,4.80558395385742,4.82027196884155,4.83505058288574,4.84991979598999,4.86488056182861,4.87993383407593,4.89508104324341,4.91032266616821,4.9256591796875,4.94109153747559,4.95662117004395,4.97224855422974,4.98797512054443,5.0038013458252,5.01972818374634,5.03575706481934,5.05188846588135,5.06812429428101,5.08446359634399,5.1009087562561,5.11746072769165,5.13411998748779,5.15088796615601,5.16776657104492,5.18475532531738,5.20185708999634,5.21907138824463,5.23640012741089,5.25384426116943,5.27140522003174,13.4163188934326,13.4121160507202,13.4079179763794,13.4037199020386,13.3995275497437,13.3953351974487,13.3911457061768,13.3869600296021,13.3827743530273,13.3785953521729,13.374415397644,13.3702402114868,13.3660659790039,13.3618946075439,13.3577260971069,13.3535614013672,13.3493986129761,13.3452386856079,13.3410816192627,13.3369255065918,13.3327732086182,13.3286218643188,13.3244762420654,13.3203296661377,13.3161888122559,13.3120489120483,13.3079099655151,13.3037786483765,13.2996454238892,13.2955160140991,13.2913875579834,13.2872629165649,13.2831420898438,13.2790241241455,13.2749071121216,13.2707929611206,13.2666807174683,13.2625732421875,13.2584667205811,13.2543630599976,13.2502613067627,13.2461605072021,13.2420663833618,13.2379713058472,13.2338819503784,13.2297916412354,13.2257061004639,13.2216243743896,13.2175407409668,13.2134647369385,13.2093858718872,13.2053117752075,13.2012414932251,13.1971731185913,13.1931076049805,13.1890439987183,13.1849813461304,13.1809244155884,13.1768684387207,13.1728134155273,13.1687641143799,13.1647148132324,13.1606702804565,13.1566247940063,13.1525840759277,13.1485462188721,13.1445093154907,13.1404752731323,13.1364440917969,13.1324148178101,13.1283884048462,13.1243648529053,13.1203451156616,13.116325378418,13.1123075485229,13.1082963943481,13.104284286499,13.1002750396729,13.0962677001953,13.0922632217407,13.088264465332,13.0842638015747,13.0802688598633,13.0762729644775,13.0722799301147,13.0682916641235,13.0643033981323,13.0603199005127,13.0563373565674,13.052357673645,13.0483798980713,13.0444068908691,13.0404348373413,13.0364637374878,13.0324945449829,13.0285310745239,13.0245666503906,13.0206089019775,13.0166482925415,13.0126934051514,13.0087394714355,13.0047903060913,13.0008420944214,12.9968957901001,12.9929523468018,12.9890098571777,12.9850721359253,12.9811344146729,12.9772024154663,12.9732675552368,12.9693403244019,12.9654140472412,12.9614896774292,12.9575681686401,12.9536457061768,12.9497299194336,12.9458131790161,12.9419031143188,12.9379920959473,12.9340839385986,12.9301776885986,12.9262733459473,12.9223756790161,12.918475151062,12.9145793914795,12.9106864929199,12.9067945480347,12.902904510498,12.8990173339844,12.8951301574707,12.8912506103516,12.8873691558838,12.8834924697876,12.8796195983887,12.8757448196411,12.8718729019165,12.8680038452148,12.8641395568848,12.8602752685547,12.8564147949219,12.8525552749634,12.8486986160278,12.8448429107666,12.8409929275513,12.8371410369873,12.8332939147949,12.8294486999512,12.8256072998047,12.8217668533325,12.8179273605347,12.8140916824341,12.8102569580078,12.8064260482788,12.8025960922241,12.798770904541,12.7949466705322,12.7911224365234,12.7873039245605,12.7834844589233,12.7796697616577,12.7758588790894,12.7720460891724,12.7682371139526,12.7644309997559,12.760627746582,12.7568264007568,12.7530250549316,12.7492294311523,12.7454347610474,12.741641998291,12.7378511428833,12.7340621948242,12.7302761077881,12.7264909744263,12.7227125167847,12.7189331054688,12.7151546478271,12.7113800048828,12.7076063156128,12.70383644104,12.7000703811646,12.6963052749634,12.6925420761108,12.6887798309326,12.6850204467773,12.6812620162964,12.677508354187,12.673755645752,12.6700048446655,12.666259765625,12.6625127792358,12.6587686538696,12.6550264358521,12.6512870788574,12.6475515365601,12.643816947937,12.6400852203369,12.6363554000854,12.632625579834,12.6289014816284,12.6251754760742,12.6214542388916,12.6177368164062,12.6140193939209,12.6103048324585,12.6065893173218,12.6028785705566,12.5991716384888,12.5954647064209,12.5917625427246,12.588059425354,12.584361076355,12.580662727356,12.5769681930542,12.5732736587524,12.5695819854736,12.5658941268921,12.5622081756592,12.5585241317749,12.5548410415649,12.5511608123779,12.5474834442139,12.5438060760498,12.5401334762573,12.5364618301392,12.5327911376953,12.5291242599487,12.5254592895508,12.5217962265015,12.5181360244751,12.5144777297974,12.5108213424683,12.5071668624878,12.503514289856,12.4998645782471,12.4962158203125,12.4925699234009,12.4889268875122,12.4852848052979,12.4816455841064,12.4780073165894,12.4743719100952,12.4707384109497,12.4671077728271,12.4634809494019,12.4598531723022,12.4562282562256,12.4526042938232,12.4489850997925,12.4453659057617,12.4417495727539,12.438136100769,12.4345235824585,12.4309148788452,12.4273052215576,12.4237012863159,12.4200973510742,12.4164953231812,12.412896156311,12.4092979431152,12.4057025909424,12.4021091461182,12.3985176086426,12.3949289321899,12.3913412094116,12.3877582550049,12.3841753005981,12.38059425354,12.3770160675049,12.373438835144,12.3698625564575,12.3662919998169,12.362720489502,12.3591537475586,12.3555850982666,12.3520212173462,12.3484601974487,12.344898223877,12.3413419723511,12.3377847671509,12.3342313766479,12.3306789398193,12.3271284103394,12.3235807418823,12.3200340270996,12.3164911270142,12.312949180603,12.3094091415405,12.305871963501,12.3023357391357,12.2988033294678,12.2952699661255,12.2917404174805,12.288215637207,12.2846899032593,12.2811660766602,12.277645111084,12.2741231918335,12.2706060409546,12.2670917510986,12.263578414917,12.2600650787354,12.2565574645996,12.2530508041382,12.2495431900024,12.2460403442383,12.2425384521484,12.2390403747559,12.2355432510376,12.232048034668,12.2285537719727,12.225061416626,12.2215728759766,12.2180843353271,12.2146005630493,12.2111196517944,12.2076358795166,12.204155921936,12.2006778717041,12.1972026824951,12.1937303543091,12.1902589797974,12.1867876052856,12.1833200454712,12.179856300354,12.1763935089111,12.1729297637939,12.1694707870483,12.1660127639771,12.1625576019287,12.159104347229,12.155650138855,12.1522016525269,12.1487531661987,12.1453084945679,12.1418647766113,12.1384220123291,12.1349821090698,12.1315422058105,12.1281080245972,12.1246738433838,12.1212406158447,12.1178112030029,12.1143808364868,12.1109561920166,12.1075286865234,12.1041069030762,12.1006879806519,12.0972671508789,12.0938520431519,12.0904369354248,12.0870237350464,12.0836133956909,12.0802030563354,12.0767965316772,12.073390007019,12.0699892044067,12.0665874481201,12.0631866455078,12.0597887039185,12.0563926696777,12.05299949646,12.0496072769165,12.046217918396,12.0428295135498,12.0394439697266,12.0360584259033,12.0326776504517,12.0292959213257,12.0259189605713,12.0225419998169,12.0191669464111,12.0157947540283,12.0124216079712,12.0090532302856,12.0056858062744,12.0023212432861,11.9989576339722,11.9955968856812,11.9922370910645,11.9888801574707,11.9855241775513,11.9821681976318,11.9788179397583,11.9754686355591,11.9721183776855,11.9687728881836,11.965425491333,11.9620838165283,11.9587430953979,11.9554033279419,11.9520683288574,11.9487314224243,11.9453983306885,11.9420671463013,11.9387369155884
4.00980758666992,4.01993274688721,4.03065347671509,4.04165935516357,4.05272531509399,4.06385231018066,4.07504034042358,4.08629035949707,4.09760236740112,4.10897731781006,4.12041568756104,4.13191795349121,4.14348459243774,4.15511608123779,4.16681289672852,4.17857599258423,4.19040584564209,4.2023024559021,4.21426677703857,4.22629976272583,4.23840141296387,4.250572681427,4.26281452178955,4.27512645721436,4.28750991821289,4.29996538162231,4.31249332427979,4.32509422302246,4.33776950836182,4.35051870346069,4.36334371566772,4.37624406814575,4.38922119140625,4.40227556228638,4.41540050506592,4.42779731750488,4.44026374816895,4.45280075073242,4.46540927886963,4.47808885574341,4.49084043502808,4.50366497039795,4.51656341552734,4.5295352935791,4.54258251190186,4.55570459365845,4.56890296936035,4.58217811584473,4.59553050994873,4.60896110534668,4.62246990203857,4.63605880737305,4.64972734451294,4.66347694396973,4.67730808258057,4.69122171401978,4.70521831512451,4.71929836273193,4.73346328735352,4.74771308898926,4.76204919815063,4.7764720916748,4.79098272323608,4.80558156967163,4.82027006149292,4.83504819869995,4.8499174118042,4.86487865447998,4.87993192672729,4.89507865905762,4.91032028198242,4.92565679550171,4.94108915328979,4.95661878585815,4.97224617004395,4.9879732131958,5.0037989616394,5.01972579956055,5.03575468063354,5.05188608169556,5.0681209564209,5.08446073532104,5.10090684890747,5.11745882034302,5.13411808013916,5.15088653564453,5.16776466369629,5.18475389480591,5.20185518264771,5.219069480896,5.23639822006226,5.25384283065796,5.27140331268311,5.28908205032349,13.3184270858765,13.3142862319946,13.3101472854614,13.3060111999512,13.3018779754639,13.2977485656738,13.2936191558838,13.2894906997681,13.2853698730469,13.2812490463257,13.2771320343018,13.2730150222778,13.2689027786255,13.2647943496704,13.2606840133667,13.2565784454346,13.2524766921997,13.2483768463135,13.2442789077759,13.2401847839355,13.2360897064209,13.2320022583008,13.227912902832,13.2238302230835,13.2197465896606,13.2156658172607,13.2115907669067,13.2075138092041,13.2034435272217,13.1993713378906,13.1953029632568,13.1912384033203,13.1871767044067,13.1831188201904,13.1790590286255,13.1750049591064,13.1709518432617,13.1669025421143,13.1628551483154,13.1588096618652,13.1547660827637,13.1507272720337,13.1466884613037,13.1426553726196,13.1386232376099,13.1345920562744,13.1305656433105,13.1265392303467,13.1225175857544,13.1184968948364,13.1144790649414,13.110463142395,13.1064519882202,13.1024417877197,13.0984344482422,13.0944271087646,13.090425491333,13.0864248275757,13.082426071167,13.0784311294556,13.0744361877441,13.0704469680786,13.0664587020874,13.0624723434448,13.0584897994995,13.0545082092285,13.0505294799805,13.0465536117554,13.0425815582275,13.0386095046997,13.0346403121948,13.0306730270386,13.026707649231,13.0227479934692,13.0187883377075,13.0148296356201,13.0108766555786,13.0069236755371,13.0029754638672,12.9990282058716,12.9950819015503,12.9911413192749,12.9871988296509,12.9832611083984,12.9793272018433,12.9753932952881,12.9714632034302,12.9675350189209,12.9636096954346,12.9596843719482,12.9557647705078,12.951847076416,12.9479303359985,12.9440155029297,12.9401044845581,12.9361953735352,12.9322891235352,12.9283847808838,12.9244813919067,12.9205827713013,12.9166831970215,12.9127902984619,12.908896446228,12.9050064086914,12.9011173248291,12.8972330093384,12.893349647522,12.8894681930542,12.8855886459351,12.8817138671875,12.8778400421143,12.873969078064,12.8701000213623,12.8662309646606,12.8623666763306,12.8585023880005,12.8546438217163,12.8507852554321,12.8469305038452,12.8430786132812,12.8392267227173,12.8353805541992,12.8315324783325,12.8276872634888,12.8238468170166,12.8200082778931,12.8161706924438,12.8123369216919,12.8085021972656,12.8046703338623,12.8008432388306,12.7970190048218,12.7931957244873,12.7893733978271,12.7855529785156,12.78173828125,12.7779235839844,12.7741098403931,12.7703018188477,12.7664937973022,12.7626895904541,12.7588872909546,12.7550840377808,12.7512865066528,12.7474889755249,12.7436971664429,12.7399063110352,12.7361164093018,12.7323293685913,12.7285423278809,12.724760055542,12.7209806442261,12.7172021865845,12.7134275436401,12.7096529006958,12.7058811187744,12.7021102905273,12.6983442306519,12.6945791244507,12.6908187866211,12.6870574951172,12.6832990646362,12.6795434951782,12.6757898330688,12.6720371246338,12.6682891845703,12.6645421981812,12.6607990264893,12.6570558547974,12.6533155441284,12.6495771408081,12.6458396911621,12.6421070098877,12.6383771896362,12.6346464157104,12.6309185028076,12.6271924972534,12.6234703063965,12.6197519302368,12.6160306930542,12.6123170852661,12.6086025238037,12.6048917770386,12.6011819839478,12.5974731445312,12.593768119812,12.5900640487671,12.5863656997681,12.5826663970947,12.5789699554443,12.5752754211426,12.5715827941895,12.567892074585,12.5642051696777,12.5605211257935,12.5568370819092,12.5531549453735,12.5494756698608,12.5457973480225,12.5421228408813,12.5384502410889,12.5347805023193,12.5311126708984,12.5274457931519,12.5237827301025,12.5201206207275,12.5164594650269,12.5128030776978,12.5091466903687,12.5054950714111,12.5018444061279,12.4981937408447,12.4945459365845,12.4909009933472,12.4872589111328,12.4836187362671,12.47998046875,12.4763431549072,12.4727087020874,12.4690771102905,12.4654455184937,12.461817741394,12.4581928253174,12.454568862915,12.4509477615356,12.4473266601562,12.4437103271484,12.4400949478149,12.4364814758301,12.4328708648682,12.4292621612549,12.4256563186646,12.4220514297485,12.4184474945068,12.4148464202881,12.4112462997437,12.4076509475708,12.4040584564209,12.4004650115967,12.3968753814697,12.3932847976685,12.3896999359131,12.386116027832,12.3825349807739,12.3789539337158,12.375376701355,12.3718013763428,12.3682270050049,12.3646554946899,12.3610868453979,12.3575201034546,12.3539552688599,12.3503894805908,12.3468284606934,12.3432703018188,12.3397121429443,12.3361558914185,12.3326034545898,12.3290538787842,12.3255043029785,12.3219566345215,12.3184108734131,12.3148670196533,12.3113279342651,12.3077907562256,12.304253578186,12.3007183074951,12.2971849441528,12.2936544418335,12.2901258468628,12.2865982055664,12.2830743789673,12.2795515060425,12.2760324478149,12.2725143432617,12.2689962387085,12.2654819488525,12.2619695663452,12.2584581375122,12.2549524307251,12.251443862915,12.2479400634766,12.2444362640381,12.2409372329712,12.23743724823,12.2339420318604,12.230447769165,12.226954460144,12.2234649658203,12.2199745178223,12.2164897918701,12.213005065918,12.2095222473145,12.2060432434082,12.2025632858276,12.1990880966187,12.195613861084,12.1921396255493,12.1886692047119,12.1851997375488,12.181734085083,12.1782684326172,12.1748065948486,12.1713447570801,12.1678867340088,12.1644296646118,12.1609764099121,12.1575212478638,12.1540718078613,12.1506223678589,12.1471738815308,12.1437292098999,12.1402864456177,12.1368474960327,12.1334066390991,12.1299695968628,12.1265335083008,12.1230993270874,12.1196689605713,12.1162385940552,12.1128129959106,12.1093864440918,12.1059627532959,12.1025428771973,12.09912109375,12.095703125,12.0922861099243,12.0888748168945,12.0854616165161,12.0820503234863,12.0786447525024,12.0752363204956,12.0718326568604,12.0684299468994,12.0650291442871,12.0616321563721,12.0582342147827,12.0548391342163,12.0514469146729,12.0480546951294,12.0446662902832,12.0412797927856,12.0378942489624,12.0345106124878,12.0311279296875,12.0277500152588,12.0243711471558,12.0209951400757,12.0176210403442,12.0142498016357,12.0108804702759,12.007511138916,12.0041446685791,12.0007791519165,11.9974184036255,11.9940576553345,11.9906988143921,11.9873418807983,11.9839868545532,11.9806327819824,11.9772825241089,11.973931312561,11.9705858230591,11.9672384262085,11.9638967514038,11.9605550765991,11.9572124481201,11.953875541687,11.9505376815796,11.9472055435181,11.9438724517822,11.9405422210693,11.9372129440308,11.9338855743408,11.9305601119995,11.9272375106812,11.9239149093628,11.920597076416,11.9172782897949,11.9139633178711,11.9106473922729,11.9073343276978,11.9040260314941,11.9007177352905,11.8974094390869,11.8941049575806,11.8908023834229,11.8875007629395,11.884202003479,11.8809041976929,11.8776082992554,11.8743152618408,11.8710231781006,11.8677320480347
3.99961709976196,4.00969076156616,4.01981544494629,4.02999067306519,4.04086828231812,4.05193042755127,4.06305265426636,4.07423639297485,4.08548212051392,4.09678983688354,4.1081600189209,4.11959362030029,4.13109159469604,4.142653465271,4.15428018569946,4.1659722328186,4.17773056030273,4.18955564498901,4.20144748687744,4.21340703964233,4.22543525695801,4.23753213882446,4.24969816207886,4.26193475723267,4.27424144744873,4.28662014007568,4.29906988143921,4.31159257888794,4.32418870925903,4.33685827255249,4.34960269927979,4.36242198944092,4.37531709671021,4.3882884979248,4.40133714675903,4.41446352005005,4.42766857147217,4.44026231765747,4.45279932022095,4.465407371521,4.47808694839478,4.49083852767944,4.50366306304932,4.51656150817871,4.52953338623047,4.54258060455322,4.55570268630981,4.56890106201172,4.58217620849609,4.5955286026001,4.60895919799805,4.62246799468994,4.63605690002441,4.64972543716431,4.66347503662109,4.67730665206909,4.69121980667114,4.70521640777588,4.7192964553833,4.73346138000488,4.74771118164062,4.762047290802,4.77647018432617,4.79098081588745,4.805579662323,4.82026767730713,4.83504629135132,4.84991550445557,4.86487627029419,4.8799295425415,4.89507675170898,4.91031837463379,4.92565488815308,4.94108724594116,4.95661687850952,4.97224426269531,4.98797082901001,5.00379705429077,5.01972389221191,5.03575229644775,5.05188369750977,5.06811904907227,5.08445835113525,5.10090398788452,5.11745691299438,5.13411664962769,5.1508846282959,5.16776323318481,5.18475246429443,5.20185375213623,5.21906805038452,5.23639678955078,5.25384092330933,5.27140140533447,5.28908014297485,5.30687808990479,13.2219524383545,13.2178716659546,13.213791847229,13.209716796875,13.205641746521,13.2015714645386,13.1975021362305,13.1934356689453,13.1893711090088,13.1853113174438,13.1812534332275,13.1771945953369,13.1731433868408,13.1690893173218,13.1650438308716,13.1609954833984,13.1569519042969,13.1529111862183,13.148871421814,13.1448383331299,13.1408014297485,13.1367702484131,13.1327419281006,13.1287145614624,13.1246919631958,13.1206703186035,13.1166496276855,13.1126346588135,13.1086187362671,13.1046085357666,13.1005992889404,13.0965929031372,13.0925893783569,13.0885858535767,13.0845890045166,13.0805892944336,13.0765943527222,13.072603225708,13.0686140060425,13.064624786377,13.0606422424316,13.0566596984863,13.0526809692383,13.0487012863159,13.0447244644165,13.0407543182373,13.0367841720581,13.0328168869019,13.0288505554199,13.0248861312866,13.0209255218506,13.0169677734375,13.013014793396,13.0090589523315,13.0051078796387,13.0011606216431,12.9972143173218,12.9932708740234,12.9893283843994,12.985387802124,12.9814548492432,12.9775190353394,12.9735870361328,12.9696588516235,12.9657297134399,12.9618062973022,12.9578828811646,12.9539651870728,12.9500455856323,12.9461297988892,12.9422178268433,12.9383087158203,12.9343996047974,12.9304933547974,12.9265899658203,12.9226894378662,12.9187908172607,12.9148941040039,12.9110012054443,12.9071073532104,12.9032192230225,12.8993320465088,12.8954486846924,12.8915662765503,12.8876848220825,12.8838090896606,12.8799333572388,12.8760623931885,12.8721904754639,12.8683195114136,12.8644561767578,12.8605909347534,12.8567304611206,12.8528709411621,12.8490142822266,12.8451614379883,12.8413076400757,12.8374586105347,12.8336124420166,12.8297643661499,12.8259239196777,12.8220815658569,12.8182439804077,12.8144083023071,12.8105745315552,12.8067436218262,12.8029136657715,12.7990884780884,12.7952632904053,12.7914400100708,12.7876205444336,12.7838039398193,12.7799873352051,12.7761745452881,12.7723617553711,12.7685556411743,12.7647495269775,12.7609443664551,12.7571449279785,12.753342628479,12.7495470046997,12.7457523345947,12.7419586181641,12.7381677627563,12.7343797683716,12.7305946350098,12.7268095016479,12.723030090332,12.7192506790161,12.7154722213745,12.7116985321045,12.7079257965088,12.7041530609131,12.7003860473633,12.6966218948364,12.6928558349609,12.6890935897827,12.6853351593018,12.6815795898438,12.6778249740601,12.6740713119507,12.6703214645386,12.6665716171265,12.6628265380859,12.6590852737427,12.6553430557251,12.6516036987305,12.6478643417358,12.6441297531128,12.640398979187,12.6366662979126,12.6329393386841,12.6292142868042,12.6254901885986,12.6217679977417,12.6180467605591,12.6143312454224,12.6106147766113,12.6069030761719,12.6031913757324,12.5994834899902,12.5957775115967,12.5920715332031,12.5883703231812,12.5846691131592,12.5809736251831,12.577278137207,12.5735836029053,12.5698928833008,12.5662031173706,12.5625171661377,12.5588340759277,12.5551509857178,12.5514707565308,12.5477905273438,12.5441160202026,12.5404424667358,12.5367698669434,12.5331001281738,12.5294322967529,12.5257682800293,12.5221061706543,12.518443107605,12.5147838592529,12.5111274719238,12.5074729919434,12.5038232803345,12.5001707077026,12.4965238571167,12.4928760528564,12.4892339706421,12.4855890274048,12.4819507598877,12.4783143997192,12.4746780395508,12.4710454940796,12.4674129486084,12.4637832641602,12.4601573944092,12.4565315246582,12.4529094696045,12.4492893218994,12.4456701278687,12.4420547485352,12.4384393692017,12.4348278045654,12.4312162399292,12.4276113510132,12.4240045547485,12.4203996658325,12.4167985916138,12.4131984710693,12.4095993041992,12.4060049057007,12.4024124145508,12.3988199234009,12.3952302932739,12.3916435241699,12.3880596160889,12.3844738006592,12.380895614624,12.3773164749146,12.3737392425537,12.3701648712158,12.3665914535522,12.3630218505859,12.3594512939453,12.3558855056763,12.3523225784302,12.3487596511841,12.3451986312866,12.3416404724121,12.3380832672119,12.3345289230347,12.3309764862061,12.3274278640747,12.3238792419434,12.320333480835,12.3167877197266,12.3132476806641,12.3097076416016,12.3061695098877,12.3026342391968,12.2990999221802,12.2955684661865,12.2920398712158,12.2885103225708,12.284984588623,12.2814617156982,12.2779407501221,12.2744216918945,12.270902633667,12.267388343811,12.2638731002808,12.2603607177734,12.2568502426147,12.253345489502,12.2498378753662,12.2463350296021,12.2428350448608,12.239333152771,12.2358350753784,12.2323408126831,12.2288475036621,12.2253580093384,12.221866607666,12.2183790206909,12.2148952484131,12.2114086151123,12.2079286575317,12.2044496536255,12.2009716033936,12.1974964141846,12.1940212249756,12.1905508041382,12.1870794296265,12.183611869812,12.1801471710205,12.1766843795776,12.1732206344604,12.1697597503662,12.1663036346436,12.1628465652466,12.1593923568726,12.1559410095215,12.1524906158447,12.1490449905396,12.1455955505371,12.1421537399292,12.138710975647,12.1352701187134,12.1318330764771,12.1283950805664,12.124960899353,12.1215295791626,12.1180982589722,12.1146697998047,12.1112413406372,12.1078186035156,12.1043949127197,12.1009759902954,12.0975561141968,12.0941371917725,12.090723991394,12.0873098373413,12.0838994979858,12.0804920196533,12.0770826339722,12.0736770629883,12.0702753067017,12.0668716430664,12.0634727478027,12.0600748062134,12.056679725647,12.0532855987549,12.0498924255371,12.0465030670166,12.0431137084961,12.0397272109985,12.0363445281982,12.0329608917236,12.029580116272,12.0262012481689,12.0228252410889,12.0194492340088,12.016077041626,12.0127077102661,12.0093374252319,12.005970954895,12.0026035308838,11.9992399215698,11.9958782196045,11.9925184249878,11.989161491394,11.9858045578003,11.9824514389038,11.979100227356,11.9757471084595,11.9723997116089,11.969051361084,11.965708732605,11.962366104126,11.959023475647,11.9556846618652,11.9523477554321,11.9490118026733,11.9456777572632,11.9423475265503,11.9390172958374,11.9356889724731,11.9323616027832,11.9290380477905,11.9257154464722,11.9223957061768,11.9190769195557,11.9157609939575,11.9124441146851,11.9091310501099,11.9058208465576,11.9025096893311,11.8992013931274,11.8958959579468,11.8925933837891,11.8892908096313,11.8859901428223,11.8826913833618,11.87939453125,11.8760986328125,11.8728075027466,11.8695154190063,11.8662271499634,11.8629379272461,11.8596534729004,11.856369972229,11.8530874252319,11.8498077392578,11.8465280532837,11.8432531356812,11.8399772644043,11.8367033004761,11.8334331512451,11.8301610946655,11.8268957138062,11.8236293792725,11.8203659057617,11.8171033859253,11.8138418197632,11.8105840682983,11.8073263168335,11.8040742874146,11.8008193969727,11.7975673675537
