4.2658634185791,4.27706432342529,4.2883243560791,4.29964399337769,4.31102323532104,4.32246255874634,4.33394479751587,4.34486532211304,4.35584115982056,4.36687231063843,4.37795972824097,4.38910341262817,4.40030384063721,4.41156196594238,4.4228777885437,4.43425178527832,4.4456844329834,4.45717620849609,4.46872711181641,4.48033857345581,4.49201011657715,4.50374317169189,4.51553726196289,4.52739334106445,4.53931188583374,4.55129337310791,4.56333827972412,4.57544708251953,4.5876202583313,4.59985828399658,4.6121621131897,4.62453174591064,4.63696813583374,4.64947128295898,4.66204214096069,4.67468118667603,4.68738889694214,4.70016574859619,4.7130126953125,4.72593021392822,4.73891830444336,4.75197792053223,4.76511001586914,4.77831506729126,4.79159307479858,4.80494546890259,4.81837224960327,4.83187437057495,4.84545230865479,4.85910701751709,4.87283849716187,4.88664817810059,4.90053606033325,4.91450309753418,4.92855024337769,4.94267797470093,4.95688629150391,4.97117710113525,4.9855523109436,5.00001049041748,5.01455354690552,5.02918148040771,5.04389429092407,5.05869388580322,5.07358026504517,5.08855438232422,5.10361766815186,5.11877059936523,5.13401317596436,5.14934682846069,5.16477251052856,5.18029117584229,5.19590330123901,5.21160936355591,13.5690488815308,13.5645771026611,13.5601091384888,13.555643081665,13.5511817932129,13.5467224121094,13.5422639846802,13.5378112792969,13.5333614349365,13.5289125442505,13.5244674682617,13.5200252532959,13.5155878067017,13.5111494064331,13.5067167282104,13.5022859573364,13.497859954834,13.4934349060059,13.489013671875,13.4845943450928,13.4801807403564,13.4757661819458,13.4713554382324,13.4669504165649,13.4625434875488,13.4581422805786,13.4537439346313,13.4493494033813,13.4449558258057,13.4405670166016,13.4361791610718,13.4317970275879,13.4274129867554,13.4230365753174,13.4186592102051,13.4142875671387,13.4099159240723,13.4055509567261,13.4011859893799,13.3968238830566,13.3924655914307,13.388111114502,13.3837575912476,13.3794059753418,13.3750610351562,13.3707141876221,13.3663749694824,13.3620338439941,13.3577003479004,13.353367805481,13.3490381240845,13.344708442688,13.3403835296631,13.3360624313354,13.3317432403564,13.3274250030518,13.323112487793,13.3188028335571,13.3144941329956,13.3101892471313,13.30588722229,13.3015880584717,13.297290802002,13.2929983139038,13.2887058258057,13.2844161987305,13.2801303863525,13.2758483886719,13.2715673446655,13.2672901153564,13.263014793396,13.2587442398071,13.2544755935669,13.2502088546753,13.2459449768066,13.2416839599609,13.2374258041382,13.2331705093384,13.2289171218872,13.2246685028076,13.220419883728,13.21617603302,13.2119340896606,13.2076940536499,13.2034578323364,13.1992244720459,13.1949939727783,13.1907663345337,13.1865396499634,13.182315826416,13.1780977249146,13.1738796234131,13.1696653366089,13.1654539108276,13.1612434387207,13.1570358276367,13.1528329849243,13.1486320495605,13.1444339752197,13.1402359008789,13.1360445022583,13.1318521499634,13.1276655197144,13.1234817504883,13.1192989349365,13.1151189804077,13.1109399795532,13.1067657470703,13.1025953292847,13.098427772522,13.0942583084106,13.0900955200195,13.0859336853027,13.0817756652832,13.077618598938,13.0734663009644,13.0693140029907,13.0651683807373,13.0610218048096,13.0568790435791,13.0527391433716,13.0486001968384,13.0444641113281,13.0403337478638,13.036205291748,13.0320768356323,13.0279531478882,13.023829460144,13.0197124481201,13.0155944824219,13.0114812850952,13.0073690414429,13.0032606124878,12.9991540908813,12.9950504302979,12.9909505844116,12.9868507385254,12.9827537536621,12.9786624908447,12.9745712280273,12.9704828262329,12.9663963317871,12.9623155593872,12.958233833313,12.954155921936,12.9500827789307,12.9460096359253,12.9419384002686,12.9378728866577,12.9338083267212,12.9297456741333,12.925687789917,12.9216299057007,12.917573928833,12.9135246276855,12.9094734191895,12.9054260253906,12.9013814926147,12.8973407745361,12.8933000564575,12.8892641067505,12.8852300643921,12.8811979293823,12.8771686553955,12.873143196106,12.8691167831421,12.8650970458984,12.8610773086548,12.8570604324341,12.8530445098877,12.8490362167358,12.8450260162354,12.8410186767578,12.8370151519775,12.8330144882202,12.8290157318115,12.8250169754028,12.82102394104,12.8170337677002,12.8130435943604,12.8090562820435,12.8050718307495,12.8010911941528,12.7971124649048,12.7931346893311,12.7891597747803,12.7851858139038,12.7812194824219,12.7772512435913,12.773286819458,12.7693252563477,12.7653665542603,12.7614088058472,12.7574558258057,12.7535028457642,12.7495527267456,12.7456064224243,12.741660118103,12.737717628479,12.7337779998779,12.7298421859741,12.725905418396,12.7219724655151,12.7180452346802,12.7141160964966,12.7101898193359,12.7062673568726,12.7023477554321,12.6984281539917,12.6945142745972,12.6906003952026,12.6866893768311,12.6827802658081,12.6788740158081,12.6749706268311,12.6710691452026,12.6671724319458,12.6632747650146,12.6593790054321,12.6554889678955,12.6515998840332,12.6477127075195,12.6438283920288,12.639946937561,12.6360664367676,12.6321887969971,12.6283140182495,12.6244401931763,12.6205711364746,12.6167049407959,12.6128377914429,12.6089744567871,12.6051158905029,12.6012573242188,12.5974006652832,12.5935468673706,12.5896968841553,12.5858469009399,12.5819988250732,0,0,0,0,0,0,0,0,0,0,0,0,0,0,0,0,0,0,0,0,0,0,0,0,0,0,0,0,0,0,0,0,0,0,0,0,0,0,0,0,0,0,0,0,0,0,0,0,0,0,0,0,0,0,0,0,0,0,0,0,0,0,0,0,0,0,0,0,0,0,0,0,0,0,0,0,0,0,0,0,0,0,0,0,0,0,0,0,0,0,0,0,0,0,0,0,0,0,0,0,0,0,0,0,0,0,0,0,0,0,0,0,0,0,0,0,0,0,0,0,0,0,0,0,0,0,0,0,0,0,0,0,0,0,0,0,0,0,0,0,0,0,0,0,0,0,0,0,0,0,0,0,0,0,0,0,0,0,0,0,0,0,0,0,0,0,0,0,0,0,0,0,0,0,0,0,0,0,0,0,0,0,0,0,0,0,0,0,0,0,0,0,0,0,0,0,0,0
4.25388526916504,4.26502323150635,4.27621984481812,4.28747510910034,4.29878997802734,4.31016492843628,4.32159996032715,4.33309602737427,4.34465312957764,4.35580968856812,4.36684083938599,4.37792778015137,4.38907146453857,4.40027189254761,4.41153001785278,4.42284536361694,4.43421936035156,4.44565153121948,4.45714330673218,4.46869421005249,4.48030519485474,4.49197673797607,4.50370931625366,4.51550340652466,4.52735948562622,4.53927755355835,4.55125904083252,4.56330394744873,4.57541227340698,4.58758544921875,4.59982347488403,4.61212682723999,4.62449645996094,4.63693237304688,4.64943552017212,4.66200590133667,4.674644947052,4.68735265731812,4.70012950897217,4.71297597885132,4.72589302062988,4.73888111114502,4.75194072723389,4.76507234573364,4.7782769203186,4.79155540466309,4.80490732192993,4.81833362579346,4.83183574676514,4.84541368484497,4.85906791687012,4.87279891967773,4.88660860061646,4.90049648284912,4.91446304321289,4.92850971221924,4.94263744354248,4.95684576034546,4.97113609313965,4.98550939559937,4.99996566772461,5.01450872421265,5.02913570404053,5.04384851455688,5.05864810943604,5.07353401184082,5.08850860595703,5.10357141494751,5.11872339248657,5.13396596908569,5.14929962158203,5.16472482681274,5.18024301528931,5.19585514068604,5.21156120300293,5.22736215591431,13.4682712554932,13.4638681411743,13.4594659805298,13.4550666809082,13.4506683349609,13.4462757110596,13.4418849945068,13.4374990463257,13.4331111907959,13.4287300109863,13.4243516921997,13.4199752807617,13.415599822998,13.4112310409546,13.4068613052368,13.4024972915649,13.3981332778931,13.3937768936157,13.3894195556641,13.3850650787354,13.3807134628296,13.3763666152954,13.3720226287842,13.3676767349243,13.3633403778076,13.359001159668,13.3546676635742,13.3503360748291,13.3460092544556,13.3416843414307,13.3373603820801,13.3330392837524,13.3287239074707,13.3244094848633,13.3200979232788,13.3157873153687,13.3114824295044,13.3071794509888,13.3028783798218,13.2985820770264,13.2942867279053,13.2899942398071,13.2857046127319,13.2814197540283,13.2771348953247,13.2728538513184,13.2685747146606,13.2643003463745,13.2600269317627,13.2557573318481,13.2514896392822,13.2472257614136,13.2429628372192,13.2387056350708,13.2344484329224,13.2301950454712,13.2259426116943,13.2216968536377,13.2174510955811,13.2132091522217,13.2089672088623,13.2047309875488,13.2004957199097,13.1962652206421,13.1920356750488,13.1878089904785,13.1835870742798,13.1793632507324,13.1751461029053,13.1709308624268,13.1667184829712,13.1625080108643,13.1583013534546,13.1540946960449,13.1498947143555,13.145694732666,13.1414976119995,13.1373043060303,13.1331129074097,13.1289224624634,13.124737739563,13.1205539703369,13.1163730621338,13.1121959686279,13.108021736145,13.1038484573364,13.0996770858765,13.0955104827881,13.0913457870483,13.0871858596802,13.0830249786377,13.0788688659668,13.0747137069702,13.0705614089966,13.0664138793945,13.0622673034668,13.0581226348877,13.0539817810059,13.0498428344727,13.045708656311,13.0415754318237,13.0374450683594,13.0333156585693,13.0291910171509,13.0250701904297,13.0209484100342,13.0168323516846,13.012716293335,13.0086040496826,13.0044956207275,13.0003881454468,12.9962844848633,12.9921817779541,12.9880828857422,12.9839859008789,12.9798927307129,12.9758005142212,12.9717121124268,12.9676246643066,12.9635410308838,12.9594593048096,12.9553804397583,12.9513053894043,12.9472303390503,12.9431600570679,12.9390935897827,12.9350271224976,12.9309635162354,12.9269018173218,12.9228448867798,12.9187889099121,12.9147357940674,12.910683631897,12.9066390991211,12.9025907516479,12.898549079895,12.8945083618164,12.8904705047607,12.8864336013794,12.8824024200439,12.8783712387085,12.8743448257446,12.8703184127808,12.8662958145142,12.8622760772705,12.8582592010498,12.8542442321777,12.8502321243286,12.8462228775024,12.8422145843506,12.838210105896,12.8342094421387,12.8302068710327,12.8262100219727,12.8222150802612,12.8182229995728,12.8142337799072,12.8102445602417,12.8062629699707,12.8022785186768,12.7982978820801,12.7943210601807,12.7903451919556,12.7863731384277,12.7824039459229,12.7784357070923,12.774468421936,12.7705068588257,12.7665481567383,12.7625894546509,12.7586336135864,12.7546834945679,12.7507314682007,12.7467813491821,12.7428379058838,12.7388963699341,12.7349529266357,12.7310161590576,12.7270793914795,12.7231483459473,12.7192144393921,12.7152862548828,12.7113618850708,12.7074384689331,12.703516960144,12.6995973587036,12.6956787109375,12.6917695999146,12.68785572052,12.6839466094971,12.6800403594971,12.67613697052,12.6722345352173,12.6683330535889,12.6644372940063,12.6605424880981,12.6566495895386,12.6527605056763,12.6488723754883,12.6449861526489,12.6411037445068,12.6372241973877,12.6333456039429,12.6294708251953,12.6255970001221,12.6217241287231,12.6178569793701,12.6139917373657,12.61012840271,12.6062650680542,12.6024074554443,12.5985498428345,12.5946960449219,12.5908460617065,12.5869951248169,12.5831460952759,12.5793027877808,12.57546043396,12.5716180801392,12.5677795410156,12.5639476776123,12.5601139068604,12.556282043457,12.5524530410767,12.5486278533936,12.5448045730591,12.5409822463989,12.5371627807617,12.5333452224731,12.5295324325562,0,0,0,0,0,0,0,0,0,0,0,0,0,0,0,0,0,0,0,0,0,0,0,0,0,0,0,0,0,0,0,0,0,0,0,0,0,0,0,0,0,0,0,0,0,0,0,0,0,0,0,0,0,0,0,0,0,0,0,0,0,0,0,0,0,0,0,0,0,0,0,0,0,0,0,0,0,0,0,0,0,0,0,0,0,0,0,0,0,0,0,0,0,0,0,0,0,0,0,0,0,0,0,0,0,0,0,0,0,0,0,0,0,0,0,0,0,0,0,0,0,0,0,0,0,0,0,0,0,0,0,0,0,0,0,0,0,0,0,0,0,0,0,0,0,0,0,0,0,0,0,0,0,0,0,0,0,0,0,0,0,0,0,0,0,0,0,0,0,0,0,0,0,0,0,0,0,0,0,0,0,0,0,0,0,0,0,0,0,0,0,0,0,0,0,0,0,0,0,0,0,0,0,0,0
4.24197435379028,4.25304985046387,4.26418352127075,4.2753758430481,4.2866268157959,4.29793691635132,4.30930709838867,4.32073783874512,4.33222913742065,4.34378147125244,4.35539627075195,4.36680936813354,4.37789630889893,4.38903951644897,4.40023994445801,4.41149759292603,4.42281293869019,4.43418645858765,4.44561862945557,4.45711040496826,4.46866130828857,4.48027229309082,4.49194383621216,4.50367593765259,4.51546955108643,4.52732563018799,4.53924369812012,4.55122470855713,4.56326913833618,4.57537794113159,4.5875506401062,4.59978818893433,4.61209201812744,4.62446117401123,4.63689708709717,4.64939975738525,4.6619701385498,4.67460870742798,4.68731594085693,4.70009279251099,4.71293926239014,4.7258563041687,4.73884391784668,4.75190353393555,4.7650351524353,4.77823925018311,4.79151725769043,4.80486917495728,4.8182954788208,4.83179712295532,4.845374584198,4.85902881622314,4.87275981903076,4.88656902313232,4.90045642852783,4.91442346572876,4.92846965789795,4.94259691238403,4.95680522918701,4.9710955619812,4.98546838760376,4.999924659729,5.01446485519409,5.02908992767334,5.04380321502686,5.05860185623169,5.07348823547363,5.08846187591553,5.10352468490601,5.11867666244507,5.13391876220703,5.14925193786621,5.16467714309692,5.18019533157349,5.1958065032959,5.21151208877563,5.22731304168701,5.24321031570435,13.3689813613892,13.3646421432495,13.3603048324585,13.3559694290161,13.351637840271,13.3473091125488,13.342981338501,13.3386573791504,13.3343391418457,13.3300199508667,13.325704574585,13.3213920593262,13.3170833587646,13.3127765655518,13.3084726333618,13.3041706085205,13.2998733520508,13.2955760955811,13.2912845611572,13.2869920730591,13.2827072143555,13.2784204483032,13.2741384506226,13.2698621749878,13.2655849456787,13.2613105773926,13.2570400238037,13.2527732849121,13.2485074996948,13.2442436218262,13.2399845123291,13.2357273101807,13.2314729690552,13.2272214889526,13.2229719161987,13.2187271118164,13.2144823074341,13.210241317749,13.2060031890869,13.2017688751221,13.1975345611572,13.1933069229126,13.189079284668,13.1848526000977,13.1806335449219,13.1764144897461,13.1721982955933,13.1679821014404,13.1637735366821,13.1595640182495,13.1553602218628,13.1511564254761,13.1469573974609,13.1427593231201,13.1385660171509,13.1343717575073,13.130181312561,13.1259956359863,13.1218099594116,13.1176300048828,13.1134510040283,13.1092739105225,13.1051006317139,13.1009302139282,13.0967626571655,13.0925979614258,13.0884342193604,13.0842742919922,13.080117225647,13.0759620666504,13.0718088150024,13.0676603317261,13.0635118484497,13.0593690872192,13.0552253723145,13.0510883331299,13.046950340271,13.0428171157837,13.0386838912964,13.0345582962036,13.0304317474365,13.0263071060181,13.0221853256226,13.0180692672729,13.0139532089233,13.009838104248,13.0057306289673,13.0016231536865,12.9975166320801,12.9934139251709,12.9893140792847,12.9852170944214,12.9811210632324,12.977029800415,12.9729404449463,12.9688510894775,12.9647674560547,12.9606866836548,12.9566078186035,12.9525279998779,12.9484558105469,12.9443836212158,12.9403142929077,12.9362459182739,12.932183265686,12.9281225204468,12.9240636825562,12.9200067520142,12.9159536361694,12.9119024276733,12.9078521728516,12.9038066864014,12.8997631072998,12.8957233428955,12.8916826248169,12.8876476287842,12.8836126327515,12.879584312439,12.8755540847778,12.8715286254883,12.867504119873,12.8634843826294,12.8594636917114,12.8554487228394,12.8514356613159,12.8474245071411,12.8434162139893,12.839409828186,12.8354082107544,12.8314056396484,12.8274087905884,12.823410987854,12.8194198608398,12.8154268264771,12.8114385604858,12.8074522018433,12.8034696578979,12.7994890213013,12.7955093383789,12.7915334701538,12.7875604629517,12.7835874557495,12.7796201705933,12.775652885437,12.7716884613037,12.767728805542,12.7637701034546,12.7598142623901,12.7558603286743,12.7519111633301,12.7479600906372,12.7440147399902,12.7400722503662,12.7361297607422,12.7321891784668,12.7282552719116,12.7243194580078,12.7203874588013,12.716459274292,12.712532043457,12.7086086273193,12.7046842575073,12.7007656097412,12.6968488693237,12.6929340362549,12.6890230178833,12.685112953186,12.681206703186,12.6773014068604,12.6733980178833,12.6694974899292,12.665599822998,12.6617040634155,12.657811164856,12.6539192199707,12.6500310897827,12.646146774292,12.6422634124756,12.6383819580078,12.6345014572144,12.6306257247925,12.6267528533936,12.6228790283203,12.6190099716187,12.6151447296143,12.6112804412842,12.6074180603027,12.6035566329956,12.5997018814087,12.5958461761475,12.5919914245605,12.5881423950195,12.5842962265015,12.5804481506348,12.576605796814,12.5727643966675,12.5689268112183,12.5650911331177,12.5612573623657,12.5574245452881,12.5535955429077,12.5497694015503,12.5459442138672,12.542121887207,12.5383024215698,12.5344848632812,12.530668258667,12.5268573760986,12.523045539856,12.5192375183105,12.5154323577881,12.5116271972656,12.5078268051147,12.5040283203125,12.5002326965332,12.4964370727539,12.4926433563232,12.4888563156128,12.485068321228,12.4812812805176,0,0,0,0,0,0,0,0,0,0,0,0,0,0,0,0,0,0,0,0,0,0,0,0,0,0,0,0,0,0,0,0,0,0,0,0,0,0,0,0,0,0,0,0,0,0,0,0,0,0,0,0,0,0,0,0,0,0,0,0,0,0,0,0,0,0,0,0,0,0,0,0,0,0,0,0,0,0,0,0,0,0,0,0,0,0,0,0,0,0,0,0,0,0,0,0,0,0,0,0,0,0,0,0,0,0,0,0,0,0,0,0,0,0,0,0,0,0,0,0,0,0,0,0,0,0,0,0,0,0,0,0,0,0,0,0,0,0,0,0,0,0,0,0,0,0,0,0,0,0,0,0,0,0,0,0,0,0,0,0,0,0,0,0,0,0,0,0,0,0,0,0,0,0,0,0,0,0,0,0,0,0,0,0,0,0,0,0,0,0,0,0,0,0,0,0,0,0,0,0,0,0,0,0,0,0,0,0,0,0,0,0,0
4.23012924194336,4.24114322662354,4.25221490859985,4.26334381103516,4.27453184127808,4.2857780456543,4.29708433151245,4.30844974517822,4.31987571716309,4.3313627243042,4.3429102897644,4.35452032089233,4.36619186401367,4.37786436080933,4.38900804519653,4.40020799636841,4.41146516799927,4.42278051376343,4.43415403366089,4.44558620452881,4.45707750320435,4.4686279296875,4.48023891448975,4.49190998077393,4.50364255905151,4.51543569564819,4.52729177474976,4.53920984268188,4.55119037628174,4.56323480606079,4.57534313201904,4.58751583099365,4.59975337982178,4.61205673217773,4.62442588806152,4.6368613243103,4.64936399459839,4.66193437576294,4.67457294464111,4.68727970123291,4.7000560760498,4.71290254592896,4.72581911087036,4.73880672454834,4.75186586380005,4.7649974822998,4.77820158004761,4.79147911071777,4.80483102798462,4.81825733184814,4.83175849914551,4.84533596038818,4.85898971557617,4.87272071838379,4.88652944564819,4.9004168510437,4.91438341140747,4.92842960357666,4.94255638122559,4.95676469802856,4.9710545539856,4.98542737960815,4.99988317489624,5.01442337036133,5.02904844284058,5.04375839233398,5.0585560798645,5.07344198226929,5.08841562271118,5.1034779548645,5.11862993240356,5.13387203216553,5.14920473098755,5.1646294593811,5.18014717102051,5.19575834274292,5.21146392822266,5.22726440429688,5.24316120147705,5.25915479660034,13.271146774292,13.2668676376343,13.2625932693481,13.2583227157593,13.254054069519,13.2497892379761,13.2455253601074,13.2412643432617,13.237006187439,13.2327518463135,13.2284984588623,13.2242498397827,13.2200012207031,13.2157583236694,13.2115163803101,13.2072772979736,13.2030391693115,13.1988077163696,13.1945762634277,13.1903476715088,13.1861228942871,13.1819009780884,13.1776809692383,13.1734628677368,13.1692495346069,13.1650381088257,13.1608304977417,13.1566228866577,13.152419090271,13.1482181549072,13.1440181732178,13.1398220062256,13.1356315612793,13.1314401626587,13.1272525787354,13.1230659484863,13.1188850402832,13.1147060394287,13.1105279922485,13.1063537597656,13.10218334198,13.0980138778687,13.0938482284546,13.0896844863892,13.0855236053467,13.0813646316528,13.0772085189819,13.0730581283569,13.0689058303833,13.0647583007812,13.0606126785278,13.0564708709717,13.0523300170898,13.0481929779053,13.0440578460693,13.039927482605,13.0357971191406,13.0316705703735,13.0275468826294,13.0234251022339,13.0193042755127,13.0151882171631,13.0110740661621,13.0069646835327,13.0028562545776,12.9987497329712,12.9946479797363,12.9905462265015,12.9864482879639,12.9823513031006,12.9782600402832,12.9741668701172,12.9700803756714,12.9659938812256,12.9619121551514,12.9578313827515,12.9537544250488,12.9496784210205,12.9456071853638,12.941535949707,12.9374685287476,12.933403968811,12.9293432235718,12.9252815246582,12.9212255477905,12.9171733856201,12.9131193161011,12.9090700149536,12.9050216674805,12.9009799957275,12.8969354629517,12.892897605896,12.888858795166,12.8848266601562,12.8807926177979,12.8767652511597,12.8727378845215,12.8687143325806,12.8646898269653,12.8606729507446,12.8566560745239,12.8526401519775,12.8486280441284,12.8446197509766,12.8406143188477,12.8366088867188,12.8326082229614,12.8286085128784,12.824613571167,12.8206176757812,12.8166265487671,12.8126363754272,12.8086490631104,12.8046646118164,12.8006839752197,12.7967042922974,12.7927274703979,12.7887525558472,12.7847814559937,12.7808132171631,12.7768449783325,12.7728805541992,12.7689189910889,12.7649593353271,12.7610015869141,12.7570466995239,12.7530956268311,12.7491455078125,12.7451972961426,12.7412528991699,12.7373104095459,12.7333707809448,12.7294311523438,12.7254991531372,12.7215642929077,12.7176351547241,12.7137060165405,12.7097816467285,12.7058553695679,12.7019386291504,12.69801902771,12.6941051483154,12.6901893615723,12.6862802505493,12.6823711395264,12.6784658432007,12.6745615005493,12.6706590652466,12.6667623519897,12.6628665924072,12.6589727401733,12.6550807952881,12.6511936187744,12.6473045349121,12.6434211730957,12.6395387649536,12.6356601715088,12.631781578064,12.6279067993164,12.6240348815918,12.6201658248901,12.6162977218628,12.612434387207,12.6085691452026,12.6047105789185,12.6008520126343,12.5969953536987,12.5931425094604,12.5892906188965,12.5854425430298,12.5815963745117,12.577751159668,12.5739116668701,12.5700712203979,12.5662336349487,12.5624008178711,12.5585670471191,12.5547380447388,12.5509119033813,12.5470857620239,12.5432605743408,12.5394411087036,12.535623550415,12.5318059921265,12.5279932022095,12.5241832733154,12.5203742980957,12.5165662765503,12.5127620697021,12.508960723877,12.5051603317261,12.5013647079468,12.4975681304932,12.4937763214111,12.4899854660034,12.4861974716187,12.4824104309082,12.4786281585693,12.4748458862305,12.4710664749146,12.4672899246216,12.4635171890259,12.4597434997559,12.4559726715088,12.452205657959,12.4484424591064,12.4446783065796,12.4409160614014,12.437159538269,12.4334001541138,0,0,0,0,0,0,0,0,0,0,0,0,0,0,0,0,0,0,0,0,0,0,0,0,0,0,0,0,0,0,0,0,0,0,0,0,0,0,0,0,0,0,0,0,0,0,0,0,0,0,0,0,0,0,0,0,0,0,0,0,0,0,0,0,0,0,0,0,0,0,0,0,0,0,0,0,0,0,0,0,0,0,0,0,0,0,0,0,0,0,0,0,0,0,0,0,0,0,0,0,0,0,0,0,0,0,0,0,0,0,0,0,0,0,0,0,0,0,0,0,0,0,0,0,0,0,0,0,0,0,0,0,0,0,0,0,0,0,0,0,0,0,0,0,0,0,0,0,0,0,0,0,0,0,0,0,0,0,0,0,0,0,0,0,0,0,0,0,0,0,0,0,0,0,0,0,0,0,0,0,0,0,0,0,0,0,0,0,0,0,0,0,0,0,0,0,0,0,0,0,0,0,0,0,0,0,0,0,0,0,0,0,0,0,0,0,0,0,0,0,0
4.21835088729858,4.22930335998535,4.2403130531311,4.25137996673584,4.26250457763672,4.27368783950806,4.28493022918701,4.29623126983643,4.30759286880493,4.31901407241821,4.33049631118774,4.34203958511353,4.35364484786987,4.36531209945679,4.37704181671143,4.38883495330811,4.40017604827881,4.41143321990967,4.42274856567383,4.43412160873413,4.44555330276489,4.45704460144043,4.46859502792358,4.48020553588867,4.49187707901001,4.50360870361328,4.51540231704712,4.52725791931152,4.53917551040649,4.55115604400635,4.5632004737854,4.57530879974365,4.5874810218811,4.59971857070923,4.61202144622803,4.62439012527466,4.63682556152344,4.64932823181152,4.66189813613892,4.67453670501709,4.68724346160889,4.70001983642578,4.71286582946777,4.72578239440918,4.73876953125,4.75182867050171,4.76495981216431,4.77816390991211,4.79144144058228,4.80479288101196,4.81821870803833,4.83171987533569,4.84529685974121,4.8589506149292,4.87268161773682,4.88649034500122,4.90037727355957,4.91434335708618,4.92838954925537,4.9425163269043,4.95672369003296,4.97101354598999,4.98538637161255,4.99984169006348,5.01438188552856,5.02900648117065,5.04371643066406,5.05851316452026,5.07339668273926,5.08836936950684,5.103431224823,5.1185827255249,5.13382434844971,5.14915704727173,5.16458177566528,5.18009901046753,5.19570970535278,5.21141481399536,5.22721529006958,5.24311208724976,5.25910520553589,5.27519655227661,5.29138708114624,13.1705160140991,13.1663036346436,13.1620941162109,13.157886505127,13.1536817550659,13.1494798660278,13.145281791687,13.1410846710205,13.1368913650513,13.1326990127563,13.1285095214844,13.1243257522583,13.1201429367065,13.1159610748291,13.1117830276489,13.1076097488403,13.1034364700317,13.0992670059204,13.0950994491577,13.0909357070923,13.0867710113525,13.0826139450073,13.0784568786621,13.0743045806885,13.0701532363892,13.0660037994385,13.0618591308594,13.0577154159546,13.0535736083984,13.0494365692139,13.0453023910522,13.0411691665649,13.037036895752,13.0329113006592,13.0287857055664,13.0246610641479,13.020544052124,13.0164251327515,13.0123109817505,13.0081987380981,13.0040893554688,12.999981880188,12.9958801269531,12.9917764663696,12.9876794815063,12.9835834503174,12.9794883728027,12.9753980636597,12.9713077545166,12.9672222137451,12.9631385803223,12.959056854248,12.9549779891968,12.9509029388428,12.9468297958374,12.942759513855,12.9386911392212,12.9346265792847,12.9305610656738,12.9265031814575,12.9224452972412,12.9183883666992,12.9143352508545,12.9102869033813,12.9062385559082,12.902193069458,12.8981494903564,12.8941097259521,12.8900737762451,12.8860378265381,12.8820056915283,12.8779745101929,12.8739471435547,12.8699226379395,12.8659000396729,12.8618803024292,12.8578624725342,12.8538465499878,12.8498363494873,12.8458251953125,12.841817855835,12.8378114700317,12.8338108062744,12.8298101425171,12.8258123397827,12.8218183517456,12.8178243637085,12.813835144043,12.8098468780518,12.8058624267578,12.8018808364868,12.7979001998901,12.7939224243164,12.7899494171143,12.7859735488892,12.7820053100586,12.7780361175537,12.7740707397461,12.7701091766357,12.7661466598511,12.7621898651123,12.7582349777222,12.754280090332,12.7503318786621,12.7463827133179,12.7424392700195,12.7384948730469,12.7345542907715,12.730616569519,12.7266798019409,12.7227468490601,12.7188148498535,12.7148866653442,12.7109603881836,12.7070369720459,12.7031164169312,12.699197769165,12.6952800750732,12.691367149353,12.6874542236328,12.6835460662842,12.6796369552612,12.6757335662842,12.6718311309814,12.6679334640503,12.6640338897705,12.6601390838623,12.6562480926514,12.6523580551147,12.6484718322754,12.6445837020874,12.6407032012939,12.6368207931519,12.6329431533813,12.6290674209595,12.6251955032349,12.6213226318359,12.6174535751343,12.6135883331299,12.6097240447998,12.6058616638184,12.6020030975342,12.5981473922729,12.5942916870117,12.5904397964478,12.5865907669067,12.582745552063,12.5788984298706,12.5750579833984,12.571216583252,12.5673780441284,12.5635423660278,12.5597105026245,12.5558786392212,12.5520505905151,12.548225402832,12.5444040298462,12.540581703186,12.5367622375488,12.5329456329346,12.5291318893433,12.5253200531006,12.5215091705322,12.5177011489868,12.513897895813,12.5100965499878,12.5062942504883,12.5024967193604,12.4987020492554,12.4949073791504,12.4911155700684,12.4873275756836,12.4835414886475,12.4797554016113,12.4759740829468,12.4721937179565,12.4684171676636,12.4646415710449,12.4608697891235,12.4570970535278,12.4533309936523,12.4495649337769,12.44580078125,12.4420385360718,12.4382791519165,12.4345235824585,12.4307680130005,12.4270153045654,12.423264503479,12.4195184707642,12.415771484375,12.4120292663574,12.4082870483398,12.4045495986938,12.4008121490479,12.3970785140991,12.3933448791504,12.3896179199219,12.3858890533447,12.3821630477905,0,0,0,0,0,0,0,0,0,0,0,0,0,0,0,0,0,0,0,0,0,0,0,0,0,0,0,0,0,0,0,0,0,0,0,0,0,0,0,0,0,0,0,0,0,0,0,0,0,0,0,0,0,0,0,0,0,0,0,0,0,0,0,0,0,0,0,0,0,0,0,0,0,0,0,0,0,0,0,0,0,0,0,0,0,0,0,0,0,0,0,0,0,0,0,0,0,0,0,0,0,0,0,0,0,0,0,0,0,0,0,0,0,0,0,0,0,0,0,0,0,0,0,0,0,0,0,0,0,0,0,0,0,0,0,0,0,0,0,0,0,0,0,0,0,0,0,0,0,0,0,0,0,0,0,0,0,0,0,0,0,0,0,0,0,0,0,0,0,0,0,0,0,0,0,0,0,0,0,0,0,0,0,0,0,0,0,0,0,0,0,0,0,0,0,0,0,0,0,0,0,0,0,0,0,0,0,0,0,0,0,0,0,0,0,0,0,0,0,0,0,0,0,0,0,0,0,0
4.20663738250732,4.217529296875,4.22847747802734,4.23948240280151,4.25054550170898,4.26166582107544,4.27284479141235,4.28408241271973,4.29537916183472,4.30673599243164,4.3181529045105,4.32963037490845,4.3411693572998,4.35276937484741,4.3644323348999,4.37615728378296,4.38794565200806,4.39979791641235,4.41140127182007,4.42271614074707,4.43408918380737,4.44552087783813,4.45701169967651,4.46856212615967,4.48017263412476,4.49184370040894,4.50357532501221,4.51536846160889,4.52722406387329,4.53914165496826,4.55112171173096,4.56316614151001,4.5752739906311,4.58744621276855,4.59968328475952,4.61198616027832,4.62435483932495,4.63679027557373,4.64929246902466,4.66186237335205,4.67450046539307,4.68720722198486,4.6999831199646,4.71282911300659,4.72574520111084,4.73873281478882,4.75179147720337,4.76492261886597,4.77812623977661,4.79140329360962,4.80475473403931,4.81818056106567,4.83168125152588,4.8452582359314,4.85891151428223,4.87264204025269,4.88645029067993,4.90033721923828,4.91430330276489,4.92834949493408,4.94247579574585,4.95668315887451,4.97097301483154,4.98534488677979,4.99980068206787,5.01433992385864,5.02896451950073,5.04367446899414,5.05847072601318,5.07335424423218,5.08832502365112,5.10338497161865,5.1185359954834,5.13377714157104,5.14910984039307,5.16453409194946,5.18005084991455,5.1956615447998,5.21136617660522,5.22716665267944,5.24306297302246,5.25905609130859,5.27514696121216,5.29133653640747,5.30762672424316,13.07555103302,13.071400642395,13.0672512054443,13.0631046295166,13.0589609146118,13.0548181533813,13.0506801605225,13.0465431213379,13.0424098968506,13.0382785797119,13.0341501235962,13.0300245285034,13.0259008407593,13.0217800140381,13.0176639556885,13.0135459899902,13.0094347000122,13.0053234100342,13.0012168884277,12.9971113204956,12.9930105209351,12.9889087677002,12.9848117828369,12.9807176589966,12.9766263961792,12.9725370407104,12.9684495925903,12.9643650054932,12.9602832794189,12.956205368042,12.9521265029907,12.948052406311,12.9439821243286,12.9399147033691,12.935845375061,12.9317836761475,12.9277210235596,12.9236631393433,12.919605255127,12.9155540466309,12.9115018844604,12.907452583313,12.9034080505371,12.8993654251099,12.8953237533569,12.891284942627,12.8872499465942,12.8832168579102,12.879186630249,12.8751564025879,12.8711318969727,12.8671083450317,12.8630867004395,12.8590688705444,12.8550539016724,12.8510408401489,12.8470287322998,12.8430213928223,12.8390159606934,12.8350133895874,12.8310117721558,12.8270120620728,12.82301902771,12.8190231323242,12.8150339126587,12.8110456466675,12.8070611953735,12.8030767440796,12.7990961074829,12.7951183319092,12.7911424636841,12.7871675491333,12.7831974029541,12.7792291641235,12.7752618789673,12.7712993621826,12.7673368453979,12.7633790969849,12.7594223022461,12.7554702758789,12.751519203186,12.7475700378418,12.7436208724976,12.7396802902222,12.7357368469238,12.7318000793457,12.7278623580933,12.7239284515381,12.7199964523315,12.7160663604736,12.7121410369873,12.7082138061523,12.7042942047119,12.7003736495972,12.6964569091797,12.6925420761108,12.6886301040649,12.6847200393677,12.6808128356934,12.6769065856934,12.6730051040649,12.6691036224365,12.6652069091797,12.6613101959229,12.6574172973633,12.653525352478,12.6496391296387,12.6457529067993,12.6418676376343,12.6379880905151,12.634108543396,12.6302337646484,12.6263570785522,12.622486114502,12.6186170578003,12.6147508621216,12.6108846664429,12.6070232391357,12.6031627655029,12.5993061065674,12.5954504013062,12.5915975570679,12.5877466201782,12.5838994979858,12.5800514221191,12.576210975647,12.5723695755005,12.5685291290283,12.5646934509277,12.5608606338501,12.5570287704468,12.5531978607178,12.5493726730347,12.5455484390259,12.5417242050171,12.5379037857056,12.5340881347656,12.5302734375,12.5264596939087,12.5226488113403,12.5188417434692,12.5150346755981,12.5112314224243,12.5074291229248,12.5036306381226,12.4998321533203,12.4960384368896,12.4922485351562,12.4884567260742,12.4846687316895,12.480884552002,12.4771013259888,12.4733228683472,12.4695434570312,12.4657669067383,12.4619951248169,12.4582233428955,12.4544553756714,12.4506874084473,12.4469223022461,12.4431610107422,12.4394016265869,12.4356451034546,12.4318876266479,12.4281339645386,12.4243850708008,12.4206371307373,12.4168901443481,12.4131460189819,12.4094047546387,12.4056634902954,12.4019260406494,12.3981914520264,12.3944606781006,12.3907279968262,12.3870000839233,12.3832750320435,12.3795499801636,12.3758296966553,12.3721103668213,12.3683929443359,12.3646802902222,12.3609666824341,12.3572559356689,12.3535470962524,12.3498430252075,12.3461389541626,12.3424348831177,12.338737487793,12.3350400924683,12.3313446044922,0,0,0,0,0,0,0,0,0,0,0,0,0,0,0,0,0,0,0,0,0,0,0,0,0,0,0,0,0,0,0,0,0,0,0,0,0,0,0,0,0,0,0,0,0,0,0,0,0,0,0,0,0,0,0,0,0,0,0,0,0,0,0,0,0,0,0,0,0,0,0,0,0,0,0,0,0,0,0,0,0,0,0,0,0,0,0,0,0,0,0,0,0,0,0,0,0,0,0,0,0,0,0,0,0,0,0,0,0,0,0,0,0,0,0,0,0,0,0,0,0,0,0,0,0,0,0,0,0,0,0,0,0,0,0,0,0,0,0,0,0,0,0,0,0,0,0,0,0,0,0,0,0,0,0,0,0,0,0,0,0,0,0,0,0,0,0,0,0,0,0,0,0,0,0,0,0,0,0,0,0,0,0,0,0,0,0,0,0,0,0,0,0,0,0,0,0,0,0,0,0,0,0,0,0,0,0,0,0,0,0,0,0,0,0,0,0,0,0,0,0,0,0,0,0,0,0,0,0,0,0,0,0,0,0
4.19498920440674,4.20582056045532,4.21670770645142,4.22765207290649,4.23865270614624,4.24971103668213,4.26082706451416,4.27200174331665,4.2832350730896,4.29452753067017,4.30587959289551,4.31729173660278,4.32876491546631,4.34029912948608,4.35189485549927,4.36355257034302,4.37527322769165,4.38705682754517,4.39890384674072,4.41081571578979,4.42268371582031,4.43405675888062,4.44548797607422,4.4569787979126,4.46852922439575,4.48013925552368,4.49181032180786,4.50354194641113,4.51533508300781,4.5271897315979,4.53910732269287,4.55108785629272,4.56313180923462,4.57523918151855,4.58741140365601,4.59964847564697,4.61195087432861,4.62431955337524,4.63675451278687,4.64925670623779,4.66182661056519,4.67446422576904,4.68717098236084,4.69994640350342,4.71279239654541,4.72570848464966,4.73869562149048,4.75175428390503,4.76488494873047,4.77808856964111,4.79136514663696,4.80471658706665,4.81814193725586,4.83164262771606,4.84521913528442,4.85887289047241,4.87260293960571,4.88641119003296,4.90029764175415,4.91426372528076,4.92830944061279,4.9424352645874,4.95664262771606,4.97093200683594,4.98530387878418,4.99975919723511,5.01429843902588,5.02892255783081,5.04363250732422,5.0584282875061,5.07331132888794,5.08828210830688,5.10334157943726,5.11849069595337,5.13372993469238,5.14906215667725,5.16448640823364,5.18000316619873,5.19561338424683,5.21131801605225,5.22711753845215,5.24301338195801,5.25900650024414,5.27509737014771,5.29128694534302,5.30757617950439,5.32396554946899,12.9819478988647,12.9778547286987,12.97376537323,12.9696769714355,12.9655923843384,12.9615106582642,12.9574298858643,12.9533538818359,12.9492769241333,12.9452047348022,12.9411354064941,12.937068939209,12.9330043792725,12.9289417266846,12.9248828887939,12.9208269119263,12.9167709350586,12.9127197265625,12.908670425415,12.9046230316162,12.9005784988403,12.8965377807617,12.8924970626831,12.8884620666504,12.8844261169434,12.8803968429565,12.876368522644,12.8723411560059,12.8683176040649,12.8642950057983,12.860276222229,12.8562612533569,12.8522472381592,12.8482332229614,12.8442268371582,12.8402194976807,12.8362159729004,12.8322124481201,12.8282155990601,12.8242168426514,12.8202238082886,12.8162317276001,12.8122434616089,12.8082571029663,12.8042736053467,12.8002901077271,12.7963123321533,12.7923374176025,12.7883605957031,12.7843914031982,12.7804193496704,12.7764549255371,12.7724905014038,12.7685289382935,12.7645673751831,12.7606115341187,12.7566566467285,12.7527055740356,12.7487564086914,12.7448081970215,12.7408638000488,12.7369232177734,12.7329816818237,12.7290458679199,12.7251100540161,12.7211751937866,12.7172479629517,12.7133188247681,12.7093944549561,12.7054710388184,12.7015514373779,12.6976337432861,12.6937189102173,12.6898040771484,12.6858940124512,12.6819849014282,12.6780796051025,12.6741752624512,12.6702747344971,12.6663780212402,12.6624813079834,12.6585855484009,12.6546955108643,12.650806427002,12.6469192504883,12.6430339813232,12.6391544342041,12.6352739334106,12.6313953399658,12.6275215148926,12.6236505508423,12.6197786331177,12.6159105300903,12.6120471954346,12.6081838607788,12.6043214797974,12.6004638671875,12.5966091156006,12.592755317688,12.5889043807983,12.585054397583,12.5812101364136,12.5773649215698,12.5735235214233,12.5696821212769,12.5658473968506,12.56201171875,12.558180809021,12.5543508529663,12.5505228042603,12.5466966629028,12.5428743362427,12.5390548706055,12.5352354049683,12.5314197540283,12.5276050567627,12.5237941741943,12.519983291626,12.5161771774292,12.5123729705811,12.5085725784302,12.5047702789307,12.5009746551514,12.4971790313721,12.4933862686157,12.4895944595337,12.4858064651489,12.4820194244385,12.4782371520996,12.4744567871094,12.4706764221191,12.4669008255005,12.4631242752075,12.4593534469604,12.4555835723877,12.4518165588379,12.4480495452881,12.4442873001099,12.440526008606,12.4367685317993,12.4330101013184,12.4292583465576,12.4255046844482,12.4217567443848,12.418007850647,12.4142637252808,12.4105195999146,12.4067802429199,12.4030418395996,12.3993053436279,12.3955736160278,12.3918418884277,12.3881120681763,12.3843879699707,12.3806610107422,12.3769397735596,12.373218536377,12.3695039749146,12.3657865524292,12.3620748519897,12.358362197876,12.3546543121338,12.3509483337402,12.347243309021,12.3435392379761,12.3398418426514,12.3361434936523,12.3324460983276,12.3287534713745,12.32506275177,12.3213748931885,12.3176879882812,12.3140029907227,12.310320854187,12.3066415786743,12.3029642105103,12.2992887496948,12.2956132888794,12.2919435501099,12.2882747650146,12.2846078872681,12.2809419631958,0,0,0,0,0,0,0,0,0,0,0,0,0,0,0,0,0,0,0,0,0,0,0,0,0,0,0,0,0,0,0,0,0,0,0,0,0,0,0,0,0,0,0,0,0,0,0,0,0,0,0,0,0,0,0,0,0,0,0,0,0,0,0,0,0,0,0,0,0,0,0,0,0,0,0,0,0,0,0,0,0,0,0,0,0,0,0,0,0,0,0,0,0,0,0,0,0,0,0,0,0,0,0,0,0,0,0,0,0,0,0,0,0,0,0,0,0,0,0,0,0,0,0,0,0,0,0,0,0,0,0,0,0,0,0,0,0,0,0,0,0,0,0,0,0,0,0,0,0,0,0,0,0,0,0,0,0,0,0,0,0,0,0,0,0,0,0,0,0,0,0,0,0,0,0,0,0,0,0,0,0,0,0,0,0,0,0,0,0,0,0,0,0,0,0,0,0,0,0,0,0,0,0,0,0,0,0,0,0,0,0,0,0,0,0,0,0,0,0,0,0,0,0,0,0,0,0,0,0,0,0,0,0,0,0,0,0,0,0,0,0,0
4.18340492248535,4.19417667388916,4.20500373840332,4.21588706970215,4.22682666778564,4.23782348632812,4.24887704849243,4.2599892616272,4.27115917205811,4.28238773345947,4.29367589950562,4.30502367019653,4.31643152236938,4.32789945602417,4.33942937850952,4.35102033615112,4.36267328262329,4.37438917160034,4.38616800308228,4.39801073074341,4.40991735458374,4.42188835144043,4.43392515182495,4.44545555114746,4.45694589614868,4.46849584579468,4.48010587692261,4.49177694320679,4.5035080909729,4.51530122756958,4.52715635299683,4.53907346725464,4.55105352401733,4.56309700012207,4.57520484924316,4.58737659454346,4.59961366653442,4.61191606521606,4.62428426742554,4.63671922683716,4.64922094345093,4.66179037094116,4.67442798614502,4.68713426589966,4.69991016387939,4.71275568008423,4.72567129135132,4.73865842819214,4.75171661376953,4.76484727859497,4.77805042266846,4.79132747650146,4.80467796325684,4.81810331344604,4.83160400390625,4.84518051147461,4.85883331298828,4.87256383895874,4.88637161254883,4.90025806427002,4.91422367095947,4.92826890945435,4.94239473342896,4.95660209655762,4.97089099884033,4.98526287078857,4.99971771240234,5.01425695419312,5.02888107299805,5.0435905456543,5.05838584899902,5.07326889038086,5.0882396697998,5.10329866409302,5.11844778060913,5.13368606567383,5.1490159034729,5.16443824768066,5.17995500564575,5.19556522369385,5.21126937866211,5.22706890106201,5.24296426773071,5.25895690917969,5.27504730224609,5.29123687744141,5.30752563476562,5.32391500473022,5.34040594100952,12.8896732330322,12.8856391906738,12.8816061019897,12.8775787353516,12.8735485076904,12.8695249557495,12.8655052185059,12.8614845275879,12.8574666976929,12.8534526824951,12.8494396209717,12.8454294204712,12.841423034668,12.8374176025391,12.8334169387817,12.8294162750244,12.82541847229,12.8214244842529,12.8174324035645,12.813440322876,12.8094549179077,12.8054704666138,12.8014888763428,12.7975063323975,12.7935314178467,12.7895555496216,12.7855815887451,12.7816133499146,12.7776460647583,12.773681640625,12.769718170166,12.76575756073,12.7618007659912,12.7578477859497,12.7538919448853,12.7499418258667,12.7459936141968,12.7420511245728,12.7381057739258,12.7341661453247,12.7302274703979,12.7262916564941,12.722357749939,12.7184286117554,12.7144985198975,12.7105722427368,12.7066507339478,12.7027292251587,12.6988115310669,12.6948938369751,12.6909809112549,12.6870698928833,12.6831607818604,12.6792526245117,12.675350189209,12.6714477539062,12.6675481796265,12.6636505126953,12.6597557067871,12.6558637619019,12.6519746780396,12.6480865478516,12.6442031860352,12.6403188705444,12.636438369751,12.6325607299805,12.6286869049072,12.624813079834,12.6209421157837,12.6170749664307,12.6132078170776,12.6093435287476,12.6054821014404,12.6016244888306,12.597767829895,12.5939121246338,12.5900602340698,12.5862121582031,12.5823650360107,12.578519821167,12.5746765136719,12.5708379745483,12.5669975280762,12.5631637573242,12.5593309402466,12.5555009841919,12.5516710281372,12.5478458404541,12.5440225601196,12.5402011871338,12.5363826751709,12.532564163208,12.528751373291,12.5249366760254,12.52112865448,12.5173225402832,12.5135173797607,12.5097131729126,12.505913734436,12.5021152496338,12.4983205795288,12.4945249557495,12.4907350540161,12.4869441986084,12.4831581115723,12.4793739318848,12.4755907058716,12.4718112945557,12.4680337905884,12.4642601013184,12.460485458374,12.4567165374756,12.4529457092285,12.4491815567017,12.4454174041748,12.4416570663452,12.4378957748413,12.4341402053833,12.4303846359253,12.4266319274902,12.4228820800781,12.4191341400146,12.4153871536255,12.4116449356079,12.4079027175903,12.40416431427,12.4004287719727,12.3966932296753,12.3929615020752,12.389232635498,12.3855066299438,12.3817796707153,12.3780555725098,12.3743343353271,12.3706150054932,12.3668985366821,12.363184928894,12.3594732284546,12.3557634353638,12.3520555496216,12.3483505249023,12.3446483612061,12.3409471511841,12.3372468948364,12.3335523605347,12.3298578262329,12.3261642456055,12.3224744796753,12.3187866210938,12.3151025772095,12.3114194869995,12.3077383041382,12.3040599822998,12.3003835678101,12.2967109680176,12.2930383682251,12.2893686294556,12.2857007980347,12.282036781311,12.2783718109131,12.274712562561,12.2710523605347,12.2673959732056,12.2637434005737,12.2600889205933,12.2564382553101,12.2527923583984,12.2491464614868,12.2455005645752,12.2418603897095,12.2382230758667,12.2345857620239,12.2309503555298,0,0,0,0,0,0,0,0,0,0,0,0,0,0,0,0,0,0,0,0,0,0,0,0,0,0,0,0,0,0,0,0,0,0,0,0,0,0,0,0,0,0,0,0,0,0,0,0,0,0,0,0,0,0,0,0,0,0,0,0,0,0,0,0,0,0,0,0,0,0,0,0,0,0,0,0,0,0,0,0,0,0,0,0,0,0,0,0,0,0,0,0,0,0,0,0,0,0,0,0,0,0,0,0,0,0,0,0,0,0,0,0,0,0,0,0,0,0,0,0,0,0,0,0,0,0,0,0,0,0,0,0,0,0,0,0,0,0,0,0,0,0,0,0,0,0,0,0,0,0,0,0,0,0,0,0,0,0,0,0,0,0,0,0,0,0,0,0,0,0,0,0,0,0,0,0,0,0,0,0,0,0,0,0,0,0,0,0,0,0,0,0,0,0,0,0,0,0,0,0,0,0,0,0,0,0,0,0,0,0,0,0,0,0,0,0,0,0,0,0,0,0,0,0,0,0,0,0,0,0,0,0,0,0,0,0,0,0,0,0,0,0,0,0,0,0,0,0,0
4.17188501358032,4.18259716033936,4.19336462020874,4.20418739318848,4.21506643295288,4.22600173950195,4.23699378967285,4.24804353713989,4.25915098190308,4.27031660079956,4.2815408706665,4.29282474517822,4.30416774749756,4.31557083129883,4.32703495025635,4.33855962753296,4.35014629364014,4.36179447174072,4.37350559234619,4.38527965545654,4.39711761474609,4.40901947021484,4.42098569869995,4.43301725387573,4.44511461257935,4.45691299438477,4.46846294403076,4.48007297515869,4.49174308776855,4.50347471237183,4.51526737213135,4.52712249755859,4.53903913497925,4.55101919174194,4.56306266784668,4.57517004013062,4.58734178543091,4.59957838058472,4.61188077926636,4.62424898147583,4.63668346405029,4.64918518066406,4.6617546081543,4.67439222335815,4.68709802627563,4.69987344741821,4.71271896362305,4.72563457489014,4.7386212348938,4.75167942047119,4.76480960845947,4.77801322937012,4.79128932952881,4.80463981628418,4.81806516647339,4.83156538009644,4.84514188766479,4.85879468917847,4.87252426147461,4.8863320350647,4.90021848678589,4.91418361663818,4.92822885513306,4.94235420227051,4.95656156539917,4.97085046768188,4.98522186279297,4.99967670440674,5.01421546936035,5.02883911132812,5.04354810714722,5.05834341049194,5.07322645187378,5.08819675445557,5.10325574874878,5.11840391159058,5.13364267349243,5.14897203445435,5.16439390182495,5.17990779876709,5.19551658630371,5.21122074127197,5.22701978683472,5.24291515350342,5.25890731811523,5.27499771118164,5.29118633270264,5.30747509002686,5.32386445999146,5.34035491943359,5.35694789886475,5.37364482879639,12.7947254180908,12.7907495498657,12.7867746353149,12.7828054428101,12.7788372039795,12.7748708724976,12.7709083557129,12.7669477462769,12.7629909515381,12.759033203125,12.7550792694092,12.7511291503906,12.7471799850464,12.7432346343994,12.7392902374268,12.7353506088257,12.7314119338989,12.7274732589722,12.7235412597656,12.7196092605591,12.7156782150269,12.7117519378662,12.7078285217285,12.7039060592651,12.6999883651733,12.6960697174072,12.6921558380127,12.6882429122925,12.6843328475952,12.6804275512695,12.6765232086182,12.6726198196411,12.6687202453613,12.6648216247559,12.6609268188477,12.6570339202881,12.6531429290771,12.6492547988892,12.6453695297241,12.6414852142334,12.6376037597656,12.6337261199951,12.6298484802246,12.6259756088257,12.6221027374268,12.618236541748,12.614369392395,12.6105031967163,12.6066436767578,12.602783203125,12.5989255905151,12.5950708389282,12.5912189483643,12.587366104126,12.5835199356079,12.5796747207642,12.5758323669434,12.5719900131226,12.5681524276733,12.5643167495728,12.5604829788208,12.5566492080688,12.5528221130371,12.5489950180054,12.5451726913452,12.5413475036621,12.5375289916992,12.5337133407593,12.5298957824707,12.526083946228,12.5222721099854,12.5184650421143,12.5146589279175,12.510856628418,12.5070552825928,12.5032567977905,12.4994602203369,12.4956665039062,12.4918727874756,12.4880847930908,12.4842948913574,12.4805116653442,12.4767265319824,12.4729471206665,12.4691686630249,12.4653940200806,12.4616193771362,12.4578485488892,12.4540796279907,12.4503116607666,12.4465494155884,12.4427862167358,12.4390268325806,12.4352693557739,12.4315128326416,12.4277601242065,12.4240093231201,12.4202613830566,12.4165134429932,12.412769317627,12.4090280532837,12.4052877426147,12.4015512466431,12.3978137969971,12.3940830230713,12.3903522491455,12.3866233825684,12.3828973770142,12.3791732788086,12.3754529953003,12.3717336654663,12.368016242981,12.3643026351929,12.3605890274048,12.356876373291,12.3531713485718,12.3494644165039,12.345760345459,12.3420581817627,12.3383598327637,12.3346605300903,12.3309669494629,12.3272733688354,12.3235855102539,12.3198928833008,12.3162097930908,12.3125247955322,12.3088445663452,12.3051643371582,12.3014860153198,12.2978143692017,12.2941389083862,12.2904691696167,12.2868013381958,12.2831344604492,12.279468536377,12.2758083343506,12.2721481323242,12.2684917449951,12.264835357666,12.2611827850342,12.257529258728,12.2538833618164,12.2502336502075,12.2465906143188,12.2429475784302,12.2393083572388,12.2356700897217,12.2320356369019,12.228401184082,12.2247686386108,12.2211408615112,12.2175149917603,12.2138891220093,12.2102670669556,12.2066459655762,12.2030277252197,12.1994104385376,12.1957979202271,12.1921873092651,12.1885747909546,12.1849670410156,12.1813631057739,0,0,0,0,0,0,0,0,0,0,0,0,0,0,0,0,0,0,0,0,0,0,0,0,0,0,0,0,0,0,0,0,0,0,0,0,0,0,0,0,0,0,0,0,0,0,0,0,0,0,0,0,0,0,0,0,0,0,0,0,0,0,0,0,0,0,0,0,0,0,0,0,0,0,0,0,0,0,0,0,0,0,0,0,0,0,0,0,0,0,0,0,0,0,0,0,0,0,0,0,0,0,0,0,0,0,0,0,0,0,0,0,0,0,0,0,0,0,0,0,0,0,0,0,0,0,0,0,0,0,0,0,0,0,0,0,0,0,0,0,0,0,0,0,0,0,0,0,0,0,0,0,0,0,0,0,0,0,0,0,0,0,0,0,0,0,0,0,0,0,0,0,0,0,0,0,0,0,0,0,0,0,0,0,0,0,0,0,0,0,0,0,0,0,0,0,0,0,0,0,0,0,0,0,0,0,0,0,0,0,0,0,0,0,0,0,0,0,0,0,0,0,0,0,0,0,0,0,0,0,0,0,0,0,0,0,0,0,0,0,0,0,0,0,0,0,0,0,0,0,0,0,0,0,0,0
4.16042757034302,4.17108106613159,4.18178939819336,4.19255256652832,4.20337152481079,4.21424579620361,4.22517728805542,4.23616504669189,4.24721050262451,4.25831365585327,4.26947498321533,4.28069496154785,4.29197359085083,4.30331230163574,4.31471109390259,4.32617044448853,4.33769083023071,4.34927225112915,4.36091613769531,4.3726224899292,4.38439178466797,4.39622497558594,4.40812158584595,4.42008304595947,4.43210983276367,4.44420194625854,4.45636034011841,4.46843004226685,4.48003959655762,4.49171018600464,4.50344133377075,4.51523351669312,4.5270881652832,4.53900527954102,4.55098485946655,4.56302833557129,4.57513570785522,4.58730697631836,4.59954357147217,4.61184549331665,4.62421369552612,4.63664817810059,4.6491494178772,4.66171884536743,4.67435598373413,4.68706178665161,4.69983720779419,4.71268224716187,4.72559785842896,4.73858404159546,4.75164175033569,4.76477241516113,4.77797508239746,4.79125165939331,4.80460166931152,4.81802701950073,4.83152675628662,4.84510278701782,4.85875558853149,4.87248516082764,4.88629245758057,4.9001784324646,4.91414356231689,4.92818880081177,4.94231414794922,4.95652103424072,4.97080945968628,4.98518085479736,4.99963521957397,5.01417398452759,5.0287971496582,5.04350614547729,5.05830144882202,5.07318353652954,5.08815383911133,5.10321235656738,5.11836099624634,5.13359928131104,5.14892864227295,5.1643500328064,5.17986345291138,5.19547080993652,5.21117258071899,5.22697067260742,5.24286603927612,5.25885772705078,5.27494764328003,5.29113626480103,5.30742454528809,5.32381391525269,5.34030437469482,5.35689687728882,5.3735933303833,5.39039373397827,12.7050848007202,12.7011642456055,12.697247505188,12.6933298110962,12.6894197463989,12.6855068206787,12.681601524353,12.6776943206787,12.6737909317017,12.6698923110962,12.6659936904907,12.6620969772339,12.658203125,12.6543130874634,12.6504230499268,12.6465358734131,12.6426525115967,12.6387720108032,12.6348905563354,12.6310157775879,12.6271390914917,12.6232690811157,12.6193971633911,12.6155309677124,12.611665725708,12.6078042984009,12.6039409637451,12.6000843048096,12.5962295532227,12.5923748016357,12.5885257720947,12.5846757888794,12.58083152771,12.5769853591919,12.5731439590454,12.5693044662476,12.565468788147,12.5616340637207,12.5578012466431,12.5539722442627,12.5501461029053,12.5463180541992,12.5424976348877,12.5386762619019,12.5348567962646,12.5310411453247,12.527229309082,12.523419380188,12.5196094512939,12.5158033370972,12.511999130249,12.5081987380981,12.5043964385986,12.5006008148193,12.49680519104,12.493013381958,12.4892225265503,12.4854335784912,12.4816484451294,12.4778652191162,12.4740829467773,12.4703044891357,12.4665269851685,12.4627532958984,12.4589796066284,12.4552116394043,12.4514446258545,12.4476776123047,12.4439182281494,12.4401559829712,12.4363975524902,12.4326410293579,12.4288883209229,12.4251365661621,12.42138671875,12.4176397323608,12.4138946533203,12.4101514816284,12.4064121246338,12.4026727676392,12.3989391326904,12.3952045440674,12.3914737701416,12.3877439498901,12.3840179443359,12.3802909851074,12.3765707015991,12.3728504180908,12.3691329956055,12.3654165267944,12.3617029190063,12.3579931259155,12.354284286499,12.3505783081055,12.3468723297119,12.3431711196899,12.3394689559937,12.3357725143433,12.3320770263672,12.3283843994141,12.3246917724609,12.3210029602051,12.3173170089722,12.3136339187622,12.3099479675293,12.3062705993652,12.3025922775269,12.2989177703857,12.2952423095703,12.2915716171265,12.2879028320312,12.2842350006104,12.2805709838867,12.2769088745117,12.2732486724854,12.269588470459,12.2659349441528,12.262279510498,12.2586297988892,12.2549772262573,12.2513303756714,12.2476854324341,12.2440423965454,12.2404003143311,12.236762046814,12.2331275939941,12.2294921875,12.2258596420288,12.2222309112549,12.2186050415039,12.21497631073,12.211353302002,12.2077322006226,12.2041139602661,12.2004957199097,12.1968812942505,12.1932678222656,12.1896572113037,12.1860475540161,12.1824426651001,12.1788368225098,12.175235748291,12.1716346740723,12.1680383682251,12.1644420623779,12.1608476638794,12.1572570800781,12.1536674499512,12.1500806808472,12.1464958190918,12.1429138183594,12.1393327713013,12.1357536315918,12.1321773529053,12.1286039352417,0,0,0,0,0,0,0,0,0,0,0,0,0,0,0,0,0,0,0,0,0,0,0,0,0,0,0,0,0,0,0,0,0,0,0,0,0,0,0,0,0,0,0,0,0,0,0,0,0,0,0,0,0,0,0,0,0,0,0,0,0,0,0,0,0,0,0,0,0,0,0,0,0,0,0,0,0,0,0,0,0,0,0,0,0,0,0,0,0,0,0,0,0,0,0,0,0,0,0,0,0,0,0,0,0,0,0,0,0,0,0,0,0,0,0,0,0,0,0,0,0,0,0,0,0,0,0,0,0,0,0,0,0,0,0,0,0,0,0,0,0,0,0,0,0,0,0,0,0,0,0,0,0,0,0,0,0,0,0,0,0,0,0,0,0,0,0,0,0,0,0,0,0,0,0,0,0,0,0,0,0,0,0,0,0,0,0,0,0,0,0,0,0,0,0,0,0,0,0,0,0,0,0,0,0,0,0,0,0,0,0,0,0,0,0,0,0,0,0,0,0,0,0,0,0,0,0,0,0,0,0,0,0,0,0,0,0,0,0,0,0,0,0,0,0,0,0,0,0,0,0,0,0,0,0,0,0,0,0,0,0,0
4.14903354644775,4.15962839126587,4.17027807235718,4.18098211288452,4.19174098968506,4.20255565643311,4.21342611312866,4.22435283660889,4.2353367805481,4.24637746810913,4.25747632980347,4.2686333656311,4.27984857559204,4.29112339019775,4.30245733261108,4.31385135650635,4.32530641555786,4.33682203292847,4.34839916229248,4.36003828048706,4.37173986434937,4.38350439071655,4.39533233642578,4.40722465515137,4.41918087005615,4.43120288848877,4.44329023361206,4.45544338226318,4.46766328811646,4.47995090484619,4.49167680740356,4.50340747833252,4.51520013809204,4.52705430984497,4.53897094726562,4.55095052719116,4.5629940032959,4.57510089874268,4.58727216720581,4.59950876235962,4.61181020736694,4.62417793273926,4.63661241531372,4.64911365509033,4.66168260574341,4.67431974411011,4.68702554702759,4.69980049133301,4.71264553070068,4.72556066513062,4.73854684829712,4.75160455703735,4.76473474502563,4.77793741226196,4.79121351242065,4.80456352233887,4.81798839569092,4.83148813247681,4.84506416320801,4.85871648788452,4.87244606018066,4.88625335693359,4.90013885498047,4.91410398483276,4.92814874649048,4.94227409362793,4.95648002624512,4.97076845169067,4.9851393699646,4.99959373474121,5.01413249969482,5.02875566482544,5.04346418380737,5.05825901031494,5.07314109802246,5.08811092376709,5.10316944122314,5.11831760406494,5.13355541229248,5.14888477325439,5.16430568695068,5.17981910705566,5.19542646408081,5.21112775802612,5.22692441940308,5.24281692504883,5.25880861282349,5.27489805221558,5.29108619689941,5.30737447738647,5.32376289367676,5.34025287628174,5.35684537887573,5.37354135513306,5.39034175872803,5.40724754333496,12.6166925430298,12.6128273010254,12.608962059021,12.6051015853882,12.601243019104,12.5973863601685,12.5935325622559,12.5896806716919,12.5858335494995,12.5819854736328,12.5781421661377,12.5742988586426,12.570460319519,12.5666198730469,12.5627870559692,12.5589532852173,12.5551233291626,12.5512933731079,12.5474691390991,12.5436458587646,12.5398225784302,12.5360050201416,12.5321884155273,12.5283737182617,12.5245628356934,12.5207529067993,12.5169467926025,12.5131425857544,12.5093393325806,12.5055379867554,12.5017404556274,12.4979457855225,12.4941520690918,12.4903621673584,12.4865713119507,12.4827842712402,12.4790010452271,12.4752206802368,12.4714393615723,12.467661857605,12.4638862609863,12.4601154327393,12.4563446044922,12.4525756835938,12.4488105773926,12.4450464248657,12.4412841796875,12.4375257492065,12.4337701797485,12.4300165176392,12.4262638092041,12.4225120544434,12.4187650680542,12.4150199890137,12.4112758636475,12.4075336456299,12.4037971496582,12.4000606536865,12.3963270187378,12.3925933837891,12.3888645172119,12.3851366043091,12.3814115524292,12.3776884078979,12.3739700317383,12.3702478408813,12.3665332794189,12.3628187179565,12.3591089248657,12.3553981781006,12.3516902923584,12.3479871749878,12.3442831039429,12.3405828475952,12.3368835449219,12.3331871032715,12.3294925689697,12.3258008956909,12.3221120834351,12.3184251785278,12.3147392272949,12.3110570907593,12.3073759078979,12.3036975860596,12.3000183105469,12.296347618103,12.2926731109619,12.2890043258667,12.2853364944458,12.2816724777222,12.2780094146729,12.2743473052979,12.2706880569458,12.267032623291,12.2633781433105,12.2597227096558,12.2560739517212,12.2524261474609,12.248779296875,12.245135307312,12.2414951324463,12.2378559112549,12.2342185974121,12.230583190918,12.2269515991211,12.2233209609985,12.2196922302246,12.2160654067993,12.2124433517456,12.2088203430176,12.2052001953125,12.2015829086304,12.1979675292969,12.194354057312,12.1907424926758,12.1871347427368,12.1835260391235,12.1799211502075,12.1763181686401,12.1727180480957,12.1691198348999,12.1655235290527,12.1619281768799,12.1583366394043,12.1547470092773,12.151159286499,12.147572517395,12.1439895629883,12.1404047012329,12.1368265151978,12.1332502365112,12.1296758651733,12.1261014938354,12.1225299835205,12.1189622879028,12.1153945922852,12.1118307113647,12.1082677841187,12.1047086715698,12.1011486053467,12.0975914001465,12.0940370559692,12.0904865264893,12.086935043335,12.0833883285522,12.0798425674438,12.0762996673584,12.0727558135986,12.0692167282104,12.0656795501709,12.0621452331543,12.0586099624634,12.0550785064697,0,0,0,0,0,0,0,0,0,0,0,0,0,0,0,0,0,0,0,0,0,0,0,0,0,0,0,0,0,0,0,0,0,0,0,0,0,0,0,0,0,0,0,0,0,0,0,0,0,0,0,0,0,0,0,0,0,0,0,0,0,0,0,0,0,0,0,0,0,0,0,0,0,0,0,0,0,0,0,0,0,0,0,0,0,0,0,0,0,0,0,0,0,0,0,0,0,0,0,0,0,0,0,0,0,0,0,0,0,0,0,0,0,0,0,0,0,0,0,0,0,0,0,0,0,0,0,0,0,0,0,0,0,0,0,0,0,0,0,0,0,0,0,0,0,0,0,0,0,0,0,0,0,0,0,0,0,0,0,0,0,0,0,0,0,0,0,0,0,0,0,0,0,0,0,0,0,0,0,0,0,0,0,0,0,0,0,0,0,0,0,0,0,0,0,0,0,0,0,0,0,0,0,0,0,0,0,0,0,0,0,0,0,0,0,0,0,0,0,0,0,0,0,0,0,0,0,0,0,0,0,0,0,0,0,0,0,0,0,0,0,0,0,0,0,0,0,0,0,0,0,0,0,0,0,0,0,0,0,0,0,0
4.13770151138306,4.14823865890503,4.15882968902588,4.16947507858276,4.18017482757568,4.1909294128418,4.20173978805542,4.21260643005371,4.22352886199951,4.2345085144043,4.24554491043091,4.25663948059082,4.26779174804688,4.27900314331055,4.29027318954468,4.30160284042358,4.31299209594727,4.3244423866272,4.33595371246338,4.34752607345581,4.35916042327881,4.37085723876953,4.38261747360229,4.39444017410278,4.40632772445679,4.41827964782715,4.43029642105103,4.44237852096558,4.45452690124512,4.46674203872681,4.47902393341064,4.49137401580811,4.50337409973145,4.51516628265381,4.52702045440674,4.53893709182739,4.55091667175293,4.56295919418335,4.57506656646729,4.58723735809326,4.59947347640991,4.61177539825439,4.62414264678955,4.63657712936401,4.64907789230347,4.66164684295654,4.67428350448608,4.68698930740356,4.69976377487183,4.7126088142395,4.72552394866943,4.73850965499878,4.75156736373901,4.76469707489014,4.77789974212646,4.791175365448,4.80452537536621,4.81795024871826,4.83144950866699,4.84502506256104,4.85867738723755,4.87240648269653,4.88621377944946,4.90009927749634,4.91406393051147,4.92810821533203,4.94223356246948,4.95643949508667,4.97072792053223,4.98509836196899,4.99955272674561,5.01409101486206,5.02871370315552,5.04342174530029,5.05821704864502,5.07309865951538,5.08806800842285,5.10312652587891,5.11827421188354,5.13351202011108,5.14884090423584,5.16426181793213,5.17977476119995,5.19538164138794,5.21108293533325,5.22687911987305,5.2427716255188,5.25876092910767,5.27484798431396,5.2910361289978,5.30732393264771,5.32371187210083,5.34020185470581,5.35679388046265,5.37348985671997,5.39028978347778,5.40719509124756,5.42420673370361,12.5295209884644,12.525707244873,12.5218982696533,12.5180902481079,12.5142831802368,12.510479927063,12.5066804885864,12.5028800964355,12.4990854263306,12.4952926635742,12.4915008544922,12.4877109527588,12.4839210510254,12.4801378250122,12.4763555526733,12.4725751876831,12.4687957763672,12.4650211334229,12.4612483978271,12.4574775695801,12.4537076950073,12.4499416351318,12.4461755752563,12.4424142837524,12.4386548995972,12.4348993301392,12.4311428070068,12.4273891448975,12.4236392974854,12.4198923110962,12.4161443710327,12.4124002456665,12.4086599349976,12.4049186706543,12.4011812210083,12.3974475860596,12.3937168121338,12.3899841308594,12.3862552642822,12.3825311660767,12.3788080215454,12.3750839233398,12.3713665008545,12.3676500320435,12.3639364242554,12.3602209091187,12.3565120697021,12.3528032302856,12.3490982055664,12.3453941345215,12.3416948318481,12.3379955291748,12.3342971801758,12.330602645874,12.3269109725952,12.3232221603394,12.3195304870605,12.3158473968506,12.312162399292,12.3084812164307,12.3048009872437,12.3011245727539,12.2974500656128,12.2937784194946,12.2901067733765,12.2864398956299,12.282772064209,12.2791090011597,12.2754459381104,12.2717866897583,12.2681322097778,12.2644748687744,12.2608232498169,12.2571706771851,12.2535228729248,12.2498769760132,12.2462320327759,12.2425899505615,12.2389488220215,12.2353105545044,12.2316770553589,12.2280426025391,12.2244119644165,12.2207822799683,12.217155456543,12.2135305404663,12.2099084854126,12.2062883377075,12.2026691436768,12.1990518569946,12.1954393386841,12.1918268203735,12.1882162094116,12.184609413147,12.1810035705566,12.1774015426636,12.1737995147705,12.1701993942261,12.1666021347046,12.1630086898804,12.1594133377075,12.1558246612549,12.1522359848022,12.1486492156982,12.1450643539429,12.1414842605591,12.1379022598267,12.1343259811401,12.1307487487793,12.1271753311157,12.1236038208008,12.1200342178345,12.1164674758911,12.1129026412964,12.1093378067017,12.1057758331299,12.1022176742554,12.0986614227295,12.0951070785522,12.0915517807007,12.088002204895,12.084454536438,12.0809078216553,12.0773620605469,12.0738210678101,12.0702810287476,12.0667419433594,12.0632057189941,12.0596723556519,12.0561399459839,12.0526084899902,12.0490827560425,12.0455551147461,12.0420322418213,12.0385103225708,12.0349922180176,12.03147315979,12.0279588699341,12.0244436264038,12.0209321975708,12.0174236297607,12.013916015625,12.0104103088379,12.006908416748,12.0034074783325,11.999906539917,11.9964113235474,11.9929151535034,11.9894218444824,11.9859313964844,11.982442855835,0,0,0,0,0,0,0,0,0,0,0,0,0,0,0,0,0,0,0,0,0,0,0,0,0,0,0,0,0,0,0,0,0,0,0,0,0,0,0,0,0,0,0,0,0,0,0,0,0,0,0,0,0,0,0,0,0,0,0,0,0,0,0,0,0,0,0,0,0,0,0,0,0,0,0,0,0,0,0,0,0,0,0,0,0,0,0,0,0,0,0,0,0,0,0,0,0,0,0,0,0,0,0,0,0,0,0,0,0,0,0,0,0,0,0,0,0,0,0,0,0,0,0,0,0,0,0,0,0,0,0,0,0,0,0,0,0,0,0,0,0,0,0,0,0,0,0,0,0,0,0,0,0,0,0,0,0,0,0,0,0,0,0,0,0,0,0,0,0,0,0,0,0,0,0,0,0,0,0,0,0,0,0,0,0,0,0,0,0,0,0,0,0,0,0,0,0,0,0,0,0,0,0,0,0,0,0,0,0,0,0,0,0,0,0,0,0,0,0,0,0,0,0,0,0,0,0,0,0,0,0,0,0,0,0,0,0,0,0,0,0,0,0,0,0,0,0,0,0,0,0,0,0,0,0,0,0,0,0,0,0,0
4.12643146514893,4.13691091537476,4.14744424819946,4.15803098678589,4.16867208480835,4.179368019104,4.19011878967285,4.20092487335205,4.21178674697876,4.22270536422729,4.23368072509766,4.24471282958984,4.25580263137817,4.26695108413696,4.27815771102905,4.2894229888916,4.30074834823608,4.31213331222534,4.32357883453369,4.33508539199829,4.3466534614563,4.35828304290771,4.36997509002686,4.38173055648804,4.3935489654541,4.40543127059937,4.41737794876099,4.42938995361328,4.44146728515625,4.45361089706421,4.46582078933716,4.47809791564941,4.49044275283813,4.50285577774048,4.51513242721558,4.52698659896851,4.53890323638916,4.55088233947754,4.56292533874512,4.57503175735474,4.58720254898071,4.59943866729736,4.61174011230469,4.62410736083984,4.63654136657715,4.64904260635376,4.66161060333252,4.67424774169922,4.68695306777954,4.6997275352478,4.71257209777832,4.72548675537109,4.73847246170044,4.75153017044067,4.76465940475464,4.77786207199097,4.7911376953125,4.80448722839355,4.81791162490845,4.83141088485718,4.84498643875122,4.85863828659058,4.87236738204956,4.88617420196533,4.90005970001221,4.91402387619019,4.92806816101074,4.94219303131104,4.95639896392822,4.97068691253662,4.98505735397339,4.99951124191284,5.01404905319214,5.0286717414856,5.04337978363037,5.05817461013794,5.0730562210083,5.08802556991577,5.10308361053467,5.11823081970215,5.13346862792969,5.14879703521729,5.16421747207642,5.17973041534424,5.19533729553223,5.21103811264038,5.22683382034302,5.24272584915161,5.25871515274048,5.27480173110962,5.29098749160767,5.30727291107178,5.32366132736206,5.34015083312988,5.35674238204956,5.37343788146973,5.39023780822754,5.40714263916016,5.42415475845337,5.44127321243286,5.45850086212158,12.4397869110107,12.4360265731812,12.4322700500488,12.4285173416138,12.4247674942017,12.4210157394409,12.4172716140747,12.4135246276855,12.409782409668,12.406042098999,12.402304649353,12.39857006073,12.3948354721069,12.3911056518555,12.3873767852783,12.3836507797241,12.3799247741699,12.3762035369873,12.3724842071533,12.3687686920166,12.3650503158569,12.3613386154175,12.3576259613037,12.3539180755615,12.3502111434937,12.3465070724487,12.3428039550781,12.3391056060791,12.3354082107544,12.3317127227783,12.3280200958252,12.3243284225464,12.3206396102905,12.3169536590576,12.313268661499,12.3095874786377,12.3059072494507,12.3022289276123,12.2985534667969,12.2948799133301,12.2912101745605,12.2875413894653,12.2838745117188,12.2802095413208,12.2765474319458,12.2728872299194,12.2692289352417,12.2655725479126,12.2619209289551,12.2582674026489,12.2546186447144,12.2509727478027,12.2473258972168,12.2436828613281,12.2400426864624,12.2364044189453,12.2327680587769,12.2291355133057,12.2255020141602,12.2218723297119,12.2182445526123,12.21462059021,12.2109956741333,12.2073764801025,12.2037553787231,12.2001390457153,12.1965246200562,12.1929130554199,12.1893005371094,12.1856927871704,12.1820869445801,12.1784830093384,12.1748819351196,12.1712808609009,12.1676836013794,12.1640882492065,12.160493850708,12.1569032669067,12.1533136367798,12.1497268676758,12.1461429595947,12.1425590515137,12.1389799118042,12.1353988647461,12.1318235397339,12.1282482147217,12.1246776580811,12.1211051940918,12.1175384521484,12.1139717102051,12.1104078292847,12.1068477630615,12.1032867431641,12.0997304916382,12.096173286438,12.0926218032837,12.0890674591064,12.0855207443237,12.0819730758667,12.0784273147583,12.0748844146729,12.0713424682617,12.0678043365479,12.0642690658569,12.0607328414917,12.0571994781494,12.0536699295044,12.0501413345337,12.0466146469116,12.0430898666382,12.039568901062,12.0360488891602,12.0325307846069,12.0290126800537,12.0255002975464,12.0219869613647,12.0184774398804,12.0149698257446,12.0114650726318,12.0079612731934,12.0044584274292,12.000958442688,11.997462272644,11.9939670562744,11.9904718399048,11.9869794845581,11.983491897583,11.9800024032593,11.9765167236328,11.973032951355,11.9695520401001,11.9660730361938,11.9625949859619,11.9591217041016,11.9556474685669,11.9521751403809,11.9487056732178,11.945240020752,11.9417753219604,11.9383106231689,11.9348487854004,11.9313898086548,11.9279308319092,11.9244775772095,11.9210233688354,11.9175729751587,11.9141225814819,0,0,0,0,0,0,0,0,0,0,0,0,0,0,0,0,0,0,0,0,0,0,0,0,0,0,0,0,0,0,0,0,0,0,0,0,0,0,0,0,0,0,0,0,0,0,0,0,0,0,0,0,0,0,0,0,0,0,0,0,0,0,0,0,0,0,0,0,0,0,0,0,0,0,0,0,0,0,0,0,0,0,0,0,0,0,0,0,0,0,0,0,0,0,0,0,0,0,0,0,0,0,0,0,0,0,0,0,0,0,0,0,0,0,0,0,0,0,0,0,0,0,0,0,0,0,0,0,0,0,0,0,0,0,0,0,0,0,0,0,0,0,0,0,0,0,0,0,0,0,0,0,0,0,0,0,0,0,0,0,0,0,0,0,0,0,0,0,0,0,0,0,0,0,0,0,0,0,0,0,0,0,0,0,0,0,0,0,0,0,0,0,0,0,0,0,0,0,0,0,0,0,0,0,0,0,0,0,0,0,0,0,0,0,0,0,0,0,0,0,0,0,0,0,0,0,0,0,0,0,0,0,0,0,0,0,0,0,0,0,0,0,0,0,0,0,0,0,0,0,0,0,0,0,0,0,0,0,0,0,0,0,0
4.11522245407104,4.12564516067505,4.13612079620361,4.1466498374939,4.15723276138306,4.16787004470825,4.17856121063232,4.18930816650391,4.20010995864868,4.21096801757812,4.22188186645508,4.23285293579102,4.24388074874878,4.25496673583984,4.26611042022705,4.27731227874756,4.28857374191284,4.29989433288574,4.31127500534058,4.32271575927734,4.33421802520752,4.34578084945679,4.35740613937378,4.36909341812134,4.38084411621094,4.39265775680542,4.4045352935791,4.41647720336914,4.4284839630127,4.44055652618408,4.4526948928833,4.46490001678467,4.47717189788818,4.48951148986816,4.50191926956177,4.51439619064331,4.52694225311279,4.53886890411377,4.55084800720215,4.56289052963257,4.57499694824219,4.58716773986816,4.59940385818481,4.61170482635498,4.62407207489014,4.63650560379028,4.64900636672974,4.66157484054565,4.6742115020752,4.68691682815552,4.69969081878662,4.71253538131714,4.72545003890991,4.73843574523926,4.75149250030518,4.7646222114563,4.77782440185547,4.79109954833984,4.8044490814209,4.81787300109863,4.83137226104736,4.84494781494141,4.8585991859436,4.87232828140259,4.8861346244812,4.90001964569092,4.9139838218689,4.92802810668945,4.94215250015259,4.95635843276978,4.97064590454102,4.98501634597778,4.99946975708008,5.01400756835938,5.02863025665283,5.04333782196045,5.05813217163086,5.07301330566406,5.08798265457153,5.10304069519043,5.11818742752075,5.13342475891113,5.14875316619873,5.1641731262207,5.17968606948853,5.1952919960022,5.21099328994751,5.22678852081299,5.24268054962158,5.25866937637329,5.27475595474243,5.29094123840332,5.30722618103027,5.32361173629761,5.34009981155396,5.35669136047363,5.37338638305664,5.39018583297729,5.40709066390991,5.42410182952881,5.4412202835083,5.45844697952271,5.4757833480835,12.3550319671631,12.3513250350952,12.3476209640503,12.3439178466797,12.3402166366577,12.336519241333,12.3328227996826,12.3291282653809,12.3254375457764,12.3217477798462,12.318060874939,12.3143749237061,12.3106937408447,12.3070125579834,12.3033351898193,12.2996578216553,12.2959852218628,12.2923126220703,12.2886419296265,12.2849750518799,12.2813110351562,12.2776470184326,12.2739868164062,12.2703275680542,12.2666721343994,12.263014793396,12.2593641281128,12.2557144165039,12.2520685195923,12.2484216690063,12.2447776794434,12.2411375045776,12.2374992370605,12.2338619232178,12.2302255630493,12.2265930175781,12.2229614257812,12.2193365097046,12.2157077789307,12.2120866775513,12.2084617614746,12.2048435211182,12.201226234436,12.1976118087769,12.193995475769,12.1903848648071,12.1867771148682,12.1831703186035,12.1795644760132,12.1759624481201,12.17236328125,12.1687631607056,12.165168762207,12.1615743637085,12.1579828262329,12.1543922424316,12.1508054733276,12.1472177505493,12.1436367034912,12.1400537490845,12.1364765167236,12.1328964233398,12.1293239593506,12.1257486343384,12.1221790313721,12.1186094284058,12.1150436401367,12.1114778518677,12.1079168319702,12.1043548583984,12.1007976531982,12.0972414016724,12.0936880111694,12.0901374816895,12.0865850448608,12.0830392837524,12.0794916152954,12.0759496688843,12.0724077224731,12.068868637085,12.0653305053711,12.0617942810059,12.0582609176636,12.0547304153442,12.0512018203735,12.0476751327515,12.0441493988037,12.0406265258789,12.0371046066284,12.0335874557495,12.0300693511963,12.0265560150146,12.023042678833,12.0195322036743,12.0160255432129,12.0125169754028,12.00901222229,12.0055103302002,12.0020112991333,11.9985122680664,11.9950141906738,11.9915218353271,11.9880304336548,11.9845371246338,11.981050491333,11.9775638580322,11.9740810394287,11.9705963134766,11.9671182632446,11.9636392593384,11.9601650238037,11.9566898345947,11.9532194137573,11.9497499465942,11.9462814331055,11.9428157806396,11.9393501281738,11.9358901977539,11.932427406311,11.9289722442627,11.92551612854,11.922061920166,11.9186096191406,11.9151601791382,11.9117126464844,11.9082670211792,11.904821395874,11.9013805389404,11.8979396820068,11.8945045471191,11.8910655975342,11.8876333236694,11.8842010498047,11.8807687759399,11.8773412704468,11.8739156723022,11.870493888855,11.8670701980591,11.8636512756348,11.8602313995361,11.8568172454834,11.8534021377563,11.8499898910522,11.8465805053711,11.8431711196899,0,0,0,0,0,0,0,0,0,0,0,0,0,0,0,0,0,0,0,0,0,0,0,0,0,0,0,0,0,0,0,0,0,0,0,0,0,0,0,0,0,0,0,0,0,0,0,0,0,0,0,0,0,0,0,0,0,0,0,0,0,0,0,0,0,0,0,0,0,0,0,0,0,0,0,0,0,0,0,0,0,0,0,0,0,0,0,0,0,0,0,0,0,0,0,0,0,0,0,0,0,0,0,0,0,0,0,0,0,0,0,0,0,0,0,0,0,0,0,0,0,0,0,0,0,0,0,0,0,0,0,0,0,0,0,0,0,0,0,0,0,0,0,0,0,0,0,0,0,0,0,0,0,0,0,0,0,0,0,0,0,0,0,0,0,0,0,0,0,0,0,0,0,0,0,0,0,0,0,0,0,0,0,0,0,0,0,0,0,0,0,0,0,0,0,0,0,0,0,0,0,0,0,0,0,0,0,0,0,0,0,0,0,0,0,0,0,0,0,0,0,0,0,0,0,0,0,0,0,0,0,0,0,0,0,0,0,0,0,0,0,0,0,0,0,0,0,0,0,0,0,0,0,0,0,0,0,0,0,0,0,0,0
4.10407400131226,4.11444044113159,4.12485933303833,4.13533115386963,4.14585590362549,4.15643501281738,4.16706800460815,4.17775535583496,4.18849754333496,4.19929552078247,4.21014928817749,4.22105884552002,4.23202562332153,4.24304914474487,4.25413036346436,4.26526975631714,4.27646780014038,4.28772449493408,4.29904079437256,4.31041669845581,4.32185316085815,4.33335018157959,4.34490919113159,4.356529712677,4.36821222305298,4.37995767593384,4.39176654815674,4.40363931655884,4.41557645797729,4.42757844924927,4.43964624404907,4.45177936553955,4.46397972106934,4.47624635696411,4.48858070373535,4.50098371505737,4.51345491409302,4.52599620819092,4.53860664367676,4.55081367492676,4.56285619735718,4.5749626159668,4.58713293075562,4.59936857223511,4.61167001724243,4.62403678894043,4.63647031784058,4.64897108078003,4.66153907775879,4.67417526245117,4.68688011169434,4.69965410232544,4.71249866485596,4.72541284561157,4.73839855194092,4.75145530700684,4.7645845413208,4.77778673171997,4.79106187820435,4.80441093444824,4.81783485412598,4.83133363723755,4.84490871429443,4.85856008529663,4.87228918075562,4.88609504699707,4.89998006820679,4.91394424438477,4.92798805236816,4.94211196899414,4.95631790161133,4.97060537338257,4.98497533798218,4.99942827224731,5.01396608352661,5.02858829498291,5.04329586029053,5.05809020996094,5.07297086715698,5.08793973922729,5.10299730300903,5.11814451217651,5.13338136672974,5.14870929718018,5.16412925720215,5.17964172363281,5.19524765014648,5.21094799041748,5.22674369812012,5.24263477325439,5.2586236000061,5.27470970153809,5.29089498519897,5.30717992782593,5.3235650062561,5.34005117416382,5.35664081573486,5.37333488464355,5.39013385772705,5.40703821182251,5.42404890060425,5.44116735458374,5.45839357376099,5.47572946548462,5.49317598342896,12.2714281082153,12.2677688598633,12.2641143798828,12.260461807251,12.2568111419678,12.2531614303589,12.2495155334473,12.2458734512329,12.2422313690186,12.2385902404785,12.2349548339844,12.2313184738159,12.2276830673218,12.2240543365479,12.2204256057739,12.2167997360229,12.2131729125977,12.2095518112183,12.2059316635132,12.2023124694824,12.1986961364746,12.1950836181641,12.1914720535278,12.1878614425659,12.1842527389526,12.1806478500366,12.1770458221436,12.1734437942505,12.1698455810547,12.1662483215332,12.162654876709,12.1590604782104,12.1554718017578,12.1518831253052,12.1482982635498,12.1447114944458,12.1411304473877,12.1375503540039,12.1339721679688,12.1303958892822,12.1268224716187,12.1232528686523,12.1196813583374,12.1161155700684,12.1125507354736,12.1089859008789,12.1054258346558,12.1018667221069,12.0983104705811,12.0947561264038,12.0912017822266,12.0876541137695,12.0841045379639,12.0805587768555,12.0770120620728,12.0734729766846,12.0699300765991,12.0663948059082,12.0628566741943,12.0593242645264,12.0557918548584,12.0522613525391,12.0487337112427,12.0452098846436,12.0416860580444,12.0381631851196,12.0346431732178,12.0311269760132,12.0276098251343,12.024097442627,12.0205869674683,12.0170783996582,12.0135707855225,12.0100660324097,12.0065641403198,12.0030612945557,11.9995632171631,11.9960660934448,11.9925727844238,11.9890775680542,11.9855890274048,11.9820985794067,11.9786128997803,11.9751262664795,11.9716444015503,11.9681634902954,11.9646863937378,11.9612064361572,11.9577331542969,11.9542617797852,11.9507913589478,11.9473218917847,11.9438571929932,11.9403924942017,11.9369287490845,11.9334688186646,11.9300098419189,11.9265546798706,11.9230985641479,11.9196472167969,11.9161958694458,11.9127492904663,11.9092998504639,11.9058570861816,11.9024143218994,11.8989734649658,11.8955335617065,11.8920974731445,11.8886632919312,11.8852310180664,11.8818016052246,11.8783721923828,11.8749475479126,11.8715200424194,11.8680992126465,11.8646764755249,11.8612613677979,11.8578414916992,11.8544282913208,11.8510150909424,11.8476028442383,11.8441944122314,11.8407888412476,11.8373832702637,11.8339786529541,11.8305788040161,11.8271799087524,11.8237829208374,11.8203868865967,11.8169937133789,11.8136024475098,11.8102121353149,11.8068256378174,11.8034400939941,11.8000583648682,11.7966747283936,11.7932939529419,11.7899188995361,11.7865419387817,11.7831687927246,11.7797956466675,11.7764272689819,11.7730569839478,0,0,0,0,0,0,0,0,0,0,0,0,0,0,0,0,0,0,0,0,0,0,0,0,0,0,0,0,0,0,0,0,0,0,0,0,0,0,0,0,0,0,0,0,0,0,0,0,0,0,0,0,0,0,0,0,0,0,0,0,0,0,0,0,0,0,0,0,0,0,0,0,0,0,0,0,0,0,0,0,0,0,0,0,0,0,0,0,0,0,0,0,0,0,0,0,0,0,0,0,0,0,0,0,0,0,0,0,0,0,0,0,0,0,0,0,0,0,0,0,0,0,0,0,0,0,0,0,0,0,0,0,0,0,0,0,0,0,0,0,0,0,0,0,0,0,0,0,0,0,0,0,0,0,0,0,0,0,0,0,0,0,0,0,0,0,0,0,0,0,0,0,0,0,0,0,0,0,0,0,0,0,0,0,0,0,0,0,0,0,0,0,0,0,0,0,0,0,0,0,0,0,0,0,0,0,0,0,0,0,0,0,0,0,0,0,0,0,0,0,0,0,0,0,0,0,0,0,0,0,0,0,0,0,0,0,0,0,0,0,0,0,0,0,0,0,0,0,0,0,0,0,0,0,0,0,0,0,0,0,0,0,0
4.09298610687256,4.10329627990723,4.1136589050293,4.12407350540161,4.13454151153564,4.14506244659424,4.15563726425171,4.16626596450806,4.1769495010376,4.18768787384033,4.19848155975342,4.20933055877686,4.22023630142212,4.23119878768921,4.24221801757812,4.25329494476318,4.26443004608154,4.2756233215332,4.28687572479248,4.29818725585938,4.3095588684082,4.32099056243896,4.33248329162598,4.3440375328064,4.35565328598022,4.36733102798462,4.37907218933105,4.39087629318237,4.40274429321289,4.41467666625977,4.426673412323,4.43873596191406,4.45086431503296,4.463059425354,4.4753212928772,4.48765087127686,4.50004816055298,4.51251459121704,4.52505016326904,4.53765535354614,4.55033111572266,4.56282186508179,4.57492780685425,4.58709812164307,4.59933376312256,4.61163473129272,4.62400150299072,4.63643455505371,4.64893531799316,4.66150283813477,4.67413902282715,4.68684387207031,4.69961786270142,4.71246194839478,4.72537612915039,4.73836135864258,4.7514181137085,4.7645468711853,4.77774858474731,4.79102373123169,4.80437278747559,4.81779670715332,4.83129501342773,4.84487009048462,4.85852146148682,4.87224960327148,4.8860559463501,4.89994049072266,4.91390419006348,4.92794752120972,4.94207191467285,4.95627737045288,4.97056436538696,4.98493432998657,4.99938726425171,5.01392459869385,5.02854633331299,5.04325389862061,5.05804777145386,5.0729284286499,5.08789682388306,5.10295438766479,5.11810111999512,5.13333749771118,5.14866542816162,5.16408538818359,5.1795973777771,5.19520282745361,5.21090316772461,5.22669839859009,5.24258947372437,5.25857782363892,5.2746639251709,5.29084825515747,5.30713319778442,5.32351779937744,5.34000396728516,5.35659313201904,5.3732852935791,5.39008188247681,5.40698575973511,5.42399644851685,5.44111442565918,5.45834016799927,5.4756760597229,5.49312210083008,5.51067972183228,12.1889457702637,12.1853380203247,12.1817312240601,12.1781272888184,12.1745262145996,12.1709270477295,12.1673288345337,12.1637325286865,12.1601390838623,12.1565504074097,12.1529598236084,12.1493740081787,12.1457891464233,12.1422071456909,12.1386260986328,12.1350479125977,12.1314706802368,12.1278972625732,12.1243257522583,12.120753288269,12.1171865463257,12.113621711731,12.1100578308105,12.1064958572388,12.1029357910156,12.0993776321411,12.0958232879639,12.0922698974609,12.088719367981,12.0851678848267,12.0816230773926,12.0780782699585,12.0745372772217,12.0709953308105,12.0674562454224,12.0639209747314,12.0603847503662,12.0568532943726,12.0533227920532,12.0497941970825,12.0462665557861,12.0427436828613,12.0392208099365,12.035701751709,12.0321817398071,12.0286674499512,12.0251531600952,12.0216426849365,12.0181293487549,12.0146236419678,12.0111179351807,12.0076150894165,12.004114151001,12.0006141662598,11.9971179962158,11.9936208724976,11.9901285171509,11.9866361618042,11.9831485748291,11.9796581268311,11.9761743545532,11.9726896286011,11.9692115783691,11.9657287597656,11.9622535705566,11.9587783813477,11.9553060531616,11.951831817627,11.9483633041382,11.944896697998,11.9414310455322,11.937967300415,11.9345092773438,11.9310503005981,11.9275922775269,11.9241371154785,11.9206848144531,11.9172334671021,11.9137830734253,11.9103364944458,11.9068918228149,11.9034481048584,11.9000072479248,11.8965682983398,11.8931303024292,11.8896951675415,11.8862609863281,11.8828325271606,11.8794031143188,11.8759746551514,11.8725481033325,11.8691272735596,11.8657054901123,11.862286567688,11.8588695526123,11.8554534912109,11.8520412445068,11.8486280441284,11.8452205657959,11.8418111801147,11.8384065628052,11.8350019454956,11.8316011428833,11.8282022476196,11.8248023986816,11.8214063644409,11.8180141448975,11.814621925354,11.8112325668335,11.807843208313,11.8044595718384,11.8010730743408,11.7976913452148,11.7943124771118,11.7909326553345,11.7875556945801,11.7841815948486,11.7808094024658,11.7774391174316,11.7740697860718,11.7707033157349,11.7673397064209,11.7639751434326,11.7606153488159,11.7572565078735,11.7538995742798,11.750542640686,11.7471904754639,11.7438383102417,11.7404899597168,11.7371416091919,11.7337961196899,11.7304525375366,11.7271108627319,11.7237710952759,11.7204322814941,11.7170972824097,11.7137613296509,11.710431098938,11.7070989608765,11.7037725448608,0,0,0,0,0,0,0,0,0,0,0,0,0,0,0,0,0,0,0,0,0,0,0,0,0,0,0,0,0,0,0,0,0,0,0,0,0,0,0,0,0,0,0,0,0,0,0,0,0,0,0,0,0,0,0,0,0,0,0,0,0,0,0,0,0,0,0,0,0,0,0,0,0,0,0,0,0,0,0,0,0,0,0,0,0,0,0,0,0,0,0,0,0,0,0,0,0,0,0,0,0,0,0,0,0,0,0,0,0,0,0,0,0,0,0,0,0,0,0,0,0,0,0,0,0,0,0,0,0,0,0,0,0,0,0,0,0,0,0,0,0,0,0,0,0,0,0,0,0,0,0,0,0,0,0,0,0,0,0,0,0,0,0,0,0,0,0,0,0,0,0,0,0,0,0,0,0,0,0,0,0,0,0,0,0,0,0,0,0,0,0,0,0,0,0,0,0,0,0,0,0,0,0,0,0,0,0,0,0,0,0,0,0,0,0,0,0,0,0,0,0,0,0,0,0,0,0,0,0,0,0,0,0,0,0,0,0,0,0,0,0,0,0,0,0,0,0,0,0,0,0,0,0,0,0,0,0,0,0,0,0,0,0
4.08305406570435,4.09266376495361,4.10251903533936,4.112877368927,4.12328815460205,4.13375186920166,4.14426898956299,4.15483999252319,4.16546440124512,4.17614364624023,4.18687772750854,4.19766759872437,4.20851278305054,4.21941423416138,4.23037195205688,4.24138736724854,4.25245952606201,4.26359033584595,4.27477931976318,4.28602695465088,4.29733419418335,4.30870151519775,4.32012891769409,4.33161687850952,4.34316635131836,4.35477733612061,4.36645078659058,4.37818670272827,4.38998603820801,4.40184926986694,4.41377639770508,4.42576885223389,4.43782615661621,4.44994974136353,4.46213960647583,4.47439670562744,4.48672103881836,4.4991135597229,4.51157426834106,4.52410459518433,4.53670501708984,4.54937505722046,4.5621166229248,4.5748929977417,4.58706331253052,4.59929895401001,4.61159944534302,4.62396574020386,4.636399269104,4.64889907836914,4.6614670753479,4.67410326004028,4.68680763244629,4.69958114624023,4.71242523193359,4.72533941268921,4.73832416534424,4.75138092041016,4.7645092010498,4.77771091461182,4.79098606109619,4.80433464050293,4.81775808334351,4.83125686645508,4.84483098983765,4.85848236083984,4.87221050262451,4.88601636886597,4.89990043640137,4.91386413574219,4.92790746688843,4.9420313835144,4.95623636245728,4.97052335739136,4.98489284515381,4.99934577941895,5.01388311386108,5.02850437164307,5.04321193695068,5.05800533294678,5.07288599014282,5.08785438537598,5.10291147232056,5.11805772781372,5.13329410552979,5.14862155914307,5.16404104232788,5.17955303192139,5.1951584815979,5.21085834503174,5.22665309906006,5.24254417419434,5.25853204727173,5.27461767196655,5.29080200195312,5.30708646774292,5.32347106933594,5.33995723724365,5.35654544830322,5.37323760986328,5.39003372192383,5.4069356918335,5.42394351959229,5.44106149673462,5.45828723907471,5.47562265396118,5.4930682182312,5.5106258392334,5.52829551696777,12.1075649261475,12.1040058135986,12.1004476547241,12.0968904495239,12.0933380126953,12.0897846221924,12.0862369537354,12.082688331604,12.0791435241699,12.0755977630615,12.072057723999,12.0685205459595,12.0649824142456,12.0614471435547,12.0579137802124,12.0543832778931,12.050853729248,12.047327041626,12.0438022613525,12.0402803421021,12.0367574691772,12.0332403182983,12.0297241210938,12.0262088775635,12.0226964950562,12.0191860198975,12.0156784057617,12.0121717453003,12.0086669921875,12.005166053772,12.0016641616821,11.9981670379639,11.9946708679199,11.9911775588989,11.9876861572266,11.9841957092285,11.9807071685791,11.9772214889526,11.9737367630005,11.9702548980713,11.9667749404907,11.9632978439331,11.9598236083984,11.9563474655151,11.9528770446777,11.949405670166,11.9459381103516,11.9424724578857,11.9390096664429,11.9355478286743,11.9320888519287,11.9286298751831,11.9251756668091,11.9217233657837,11.9182682037354,11.9148206710815,11.9113721847534,11.9079265594482,11.9044828414917,11.9010410308838,11.8976001739502,11.8941631317139,11.8907260894775,11.8872947692871,11.8838605880737,11.8804321289062,11.8770036697388,11.8735790252686,11.8701553344727,11.8667316436768,11.8633136749268,11.8598947525024,11.8564786911011,11.8530654907227,11.8496532440186,11.8462448120117,11.8428354263306,11.8394289016724,11.8360252380371,11.8326225280762,11.8292207717896,11.8258228302002,11.8224287033081,11.8190317153931,11.8156404495239,11.8122491836548,11.8088617324829,11.8054733276367,11.8020887374878,11.7987079620361,11.7953262329102,11.7919473648071,11.7885694503784,11.7851963043213,11.7818222045898,11.77845287323,11.7750816345215,11.7717161178589,11.7683486938477,11.764986038208,11.7616233825684,11.758264541626,11.7549066543579,11.7515506744385,11.7481966018677,11.7448463439941,11.7414960861206,11.73814868927,11.7348012924194,11.7314567565918,11.7281150817871,11.7247743606567,11.721435546875,11.7180986404419,11.7147645950317,11.7114305496216,11.7081003189087,11.7047719955444,11.7014446258545,11.6981182098389,11.6947975158691,11.6914739608765,11.6881532669067,11.6848363876343,11.6815204620361,11.678204536438,11.6748943328857,11.6715831756592,11.6682748794556,11.6649675369263,11.6616649627686,11.6583614349365,11.6550617218018,11.6517601013184,11.6484651565552,11.645170211792,11.6418752670288,11.6385850906372,11.6352939605713,0,0,0,0,0,0,0,0,0,0,0,0,0,0,0,0,0,0,0,0,0,0,0,0,0,0,0,0,0,0,0,0,0,0,0,0,0,0,0,0,0,0,0,0,0,0,0,0,0,0,0,0,0,0,0,0,0,0,0,0,0,0,0,0,0,0,0,0,0,0,0,0,0,0,0,0,0,0,0,0,0,0,0,0,0,0,0,0,0,0,0,0,0,0,0,0,0,0,0,0,0,0,0,0,0,0,0,0,0,0,0,0,0,0,0,0,0,0,0,0,0,0,0,0,0,0,0,0,0,0,0,0,0,0,0,0,0,0,0,0,0,0,0,0,0,0,0,0,0,0,0,0,0,0,0,0,0,0,0,0,0,0,0,0,0,0,0,0,0,0,0,0,0,0,0,0,0,0,0,0,0,0,0,0,0,0,0,0,0,0,0,0,0,0,0,0,0,0,0,0,0,0,0,0,0,0,0,0,0,0,0,0,0,0,0,0,0,0,0,0,0,0,0,0,0,0,0,0,0,0,0,0,0,0,0,0,0,0,0,0,0,0,0,0,0,0,0,0,0,0,0,0,0,0,0,0,0,0,0,0,0,0,0
4.07335233688354,4.08291625976562,4.09252500534058,4.10217952728271,4.11209630966187,4.12250328063965,4.13296318054199,4.1434760093689,4.15404272079468,4.16466331481934,4.17533874511719,4.18606853485107,4.19685411453247,4.20769500732422,4.21859216690063,4.22954559326172,4.24055624008179,4.251624584198,4.26275110244751,4.27393579483032,4.28517913818359,4.29648160934448,4.3078441619873,4.31926679611206,4.33075046539307,4.34229516983032,4.35390138626099,4.36557006835938,4.37730169296265,4.3890962600708,4.40095472335815,4.41287708282471,4.42486429214478,4.43691730499268,4.44903564453125,4.46122026443481,4.47347211837769,4.48579120635986,4.49817848205566,4.51063442230225,4.52315950393677,4.53575468063354,4.54841947555542,4.56115579605103,4.57396364212036,4.58684349060059,4.5992636680603,4.61156415939331,4.62393045425415,4.63636350631714,4.64886379241943,4.66143131256104,4.67406702041626,4.68677139282227,4.69954490661621,4.71238851547241,4.72530221939087,4.7382869720459,4.75134325027466,4.76447200775146,4.77767324447632,4.79094791412354,4.80429649353027,4.81771993637085,4.83121824264526,4.84479236602783,4.85844326019287,4.87217140197754,4.88597679138184,4.89986085891724,4.91382455825806,4.92786741256714,4.94199132919312,4.95619583129883,4.97048282623291,4.9848518371582,4.99930429458618,5.01384115219116,5.0284628868103,5.0431694984436,5.0579628944397,5.07284355163574,5.08781147003174,5.10286808013916,5.11801433563232,5.13325071334839,5.14857769012451,5.16399717330933,5.17950868606567,5.19511365890503,5.21081352233887,5.22660779953003,5.24249887466431,5.25848627090454,5.27457189559937,5.29075574874878,5.30703973770142,5.32342433929443,5.33991003036499,5.35649824142456,5.37318992614746,5.38998556137085,5.40688705444336,5.42389488220215,5.44100952148438,5.45823287963867,5.4755687713623,5.49301433563232,5.51057100296021,5.52824115753174,5.54602384567261,5.56392192840576,12.0237522125244,12.0202398300171,12.0167331695557,12.0132246017456,12.0097208023071,12.006217956543,12.0027160644531,11.9992170333862,11.9957227706909,11.9922275543213,11.9887323379517,11.9852437973022,11.9817543029785,11.9782695770264,11.9747829437256,11.9713010787964,11.9678220748901,11.9643421173096,11.960865020752,11.9573926925659,11.9539194107056,11.9504480361938,11.9469804763794,11.9435157775879,11.9400510787964,11.9365882873535,11.9331274032593,11.929669380188,11.9262132644653,11.9227571487427,11.9193058013916,11.9158573150635,11.9124097824097,11.9089612960815,11.905517578125,11.9020748138428,11.8986339569092,11.8951950073242,11.8917608261108,11.8883266448975,11.8848924636841,11.881462097168,11.8780345916748,11.8746070861816,11.8711833953857,11.8677616119385,11.8643407821655,11.8609199523926,11.8575048446655,11.8540897369385,11.850679397583,11.8472671508789,11.8438596725464,11.8404541015625,11.8370475769043,11.8336458206177,11.8302440643311,11.8268451690674,11.823447227478,11.8200511932373,11.8166599273682,11.8132696151733,11.8098783493042,11.806492805481,11.8031063079834,11.7997245788574,11.7963418960571,11.7929630279541,11.7895851135254,11.7862100601196,11.7828340530396,11.7794637680054,11.7760944366455,11.77272605896,11.7693614959717,11.7659969329834,11.7626352310181,11.7592744827271,11.755916595459,11.7525596618652,11.7492055892944,11.7458505630493,11.7425012588501,11.7391538619995,11.7358055114746,11.7324619293213,11.7291193008423,11.7257766723633,11.7224388122559,11.7191009521484,11.7157669067383,11.7124328613281,11.7090997695923,11.7057723999023,11.7024431228638,11.6991195678711,11.6957921981812,11.6924715042114,11.6891508102417,11.6858320236206,11.6825160980225,11.6792020797729,11.6758880615234,11.6725778579712,11.6692686080933,11.6659631729126,11.6626567840576,11.6593523025513,11.6560506820679,11.6527538299561,11.6494550704956,11.6461591720581,11.6428642272949,11.6395721435547,11.6362819671631,11.6329936981201,11.6297082901001,11.6264238357544,11.623140335083,11.6198577880859,11.6165800094604,11.6133031845093,11.6100263595581,11.6067533493042,11.6034812927246,11.600212097168,11.5969438552856,11.5936765670776,11.5904140472412,11.5871486663818,11.583890914917,11.5806312561035,11.577374458313,11.5741186141968,11.5708656311035,11.5676155090332,0,0,0,0,0,0,0,0,0,0,0,0,0,0,0,0,0,0,0,0,0,0,0,0,0,0,0,0,0,0,0,0,0,0,0,0,0,0,0,0,0,0,0,0,0,0,0,0,0,0,0,0,0,0,0,0,0,0,0,0,0,0,0,0,0,0,0,0,0,0,0,0,0,0,0,0,0,0,0,0,0,0,0,0,0,0,0,0,0,0,0,0,0,0,0,0,0,0,0,0,0,0,0,0,0,0,0,0,0,0,0,0,0,0,0,0,0,0,0,0,0,0,0,0,0,0,0,0,0,0,0,0,0,0,0,0,0,0,0,0,0,0,0,0,0,0,0,0,0,0,0,0,0,0,0,0,0,0,0,0,0,0,0,0,0,0,0,0,0,0,0,0,0,0,0,0,0,0,0,0,0,0,0,0,0,0,0,0,0,0,0,0,0,0,0,0,0,0,0,0,0,0,0,0,0,0,0,0,0,0,0,0,0,0,0,0,0,0,0,0,0,0,0,0,0,0,0,0,0,0,0,0,0,0,0,0,0,0,0,0,0,0,0,0,0,0,0,0,0,0,0,0,0,0,0,0,0,0,0,0,0,0,0
4.06369686126709,4.07321500778198,4.0827784538269,4.0923867225647,4.10203981399536,4.11173915863037,4.1217188835144,4.13217449188232,4.14268350601196,4.15324592590332,4.16386270523071,4.17453384399414,4.1852593421936,4.19604063034058,4.2068772315979,4.21777009963989,4.22871971130371,4.23972606658936,4.25079011917114,4.26191186904907,4.27309226989746,4.28433084487915,4.29562950134277,4.30698728561401,4.31840562820435,4.32988452911377,4.34142446517944,4.35302639007568,4.36469030380249,4.37641716003418,4.38820648193359,4.40006017684937,4.41197776794434,4.42396068572998,4.43600797653198,4.44812154769897,4.46030139923096,4.47254800796509,4.48486232757568,4.49724435806274,4.50969505310059,4.52221488952637,4.5348048210144,4.54746437072754,4.5601954460144,4.57299757003784,4.58587169647217,4.5988187789917,4.61152935028076,4.62389516830444,4.63632822036743,4.64882802963257,4.66139507293701,4.67403078079224,4.68673515319824,4.69950819015503,4.71235132217407,4.72526550292969,4.73824977874756,4.75130605697632,4.76443433761597,4.77763557434082,4.79091024398804,4.80425834655762,4.81768131256104,4.83117961883545,4.84475374221802,4.8584041595459,4.87213182449341,4.88593721389771,4.89982128143311,4.91378450393677,4.92782735824585,4.94195079803467,4.95615530014038,4.9704418182373,4.9848108291626,4.99926328659058,5.0137996673584,5.02842092514038,5.04312753677368,5.05792093276978,5.0728006362915,5.0877685546875,5.10282516479492,5.11797094345093,5.13320684432983,5.14853429794312,5.16395282745361,5.17946434020996,5.19506931304932,5.210768699646,5.22656297683716,5.24245309829712,5.25844049453735,5.27452564239502,5.29070997238159,5.30699348449707,5.32337713241577,5.33986282348633,5.3564510345459,5.37314224243164,5.38993740081787,5.40683889389038,5.42384624481201,5.44096088409424,5.45818376541138,5.4755163192749,5.49296045303345,5.51051664352417,5.52818632125854,5.54596900939941,5.56386661529541,5.58188009262085,11.9445562362671,11.9410905838013,11.9376277923584,11.9341678619385,11.9307088851929,11.9272508621216,11.9237966537476,11.9203433990479,11.9168920516968,11.9134435653687,11.9099969863892,11.9065523147583,11.9031095504761,11.8996667861938,11.8962297439575,11.8927927017212,11.8893556594849,11.8859252929688,11.8824939727783,11.8790645599365,11.8756380081177,11.8722124099731,11.8687915802002,11.86536693573,11.86194896698,11.8585319519043,11.8551177978516,11.8517026901245,11.848292350769,11.8448829650879,11.8414754867554,11.8380680084229,11.8346662521362,11.8312654495239,11.8278665542603,11.8244686126709,11.8210735321045,11.817681312561,11.8142871856689,11.8108987808228,11.8075094223022,11.804123878479,11.8007383346558,11.7973585128784,11.7939777374268,11.7906007766724,11.787223815918,11.7838487625122,11.7804765701294,11.7771043777466,11.7737379074097,11.7703714370728,11.7670059204102,11.7636442184448,11.7602844238281,11.7569255828857,11.7535696029663,11.7502107620239,11.7468605041504,11.7435073852539,11.740159034729,11.7368116378784,11.7334680557251,11.7301235198975,11.7267818450928,11.7234401702881,11.7201061248779,11.7167673110962,11.7134342193604,11.7101020812988,11.7067718505859,11.7034425735474,11.7001180648804,11.6967916488647,11.6934690475464,11.6901483535767,11.6868305206299,11.6835126876831,11.6801977157593,11.6768836975098,11.6735725402832,11.6702632904053,11.666955947876,11.663649559021,11.660346031189,11.6570453643799,11.6537427902222,11.650444984436,11.6471490859985,11.6438550949097,11.6405611038208,11.6372709274292,11.6339817047119,11.6306962966919,11.6274108886719,11.6241264343262,11.6208457946777,11.6175651550293,11.6142883300781,11.611011505127,11.6077375411987,11.6044635772705,11.6011934280396,11.5979251861572,11.5946598052979,11.5913925170898,11.5881309509277,11.5848693847656,11.5816116333008,11.5783519744873,11.5750970840454,11.5718431472778,11.5685920715332,11.5653400421143,11.5620918273926,11.5588464736938,11.5556001663208,11.5523586273193,11.5491170883179,11.5458784103394,11.5426387786865,11.5394058227539,11.5361709594727,11.5329399108887,11.5297060012817,11.5264797210693,11.5232534408569,11.5200271606445,11.5168046951294,11.5135850906372,11.510365486145,11.5071477890015,11.5039310455322,0,0,0,0,0,0,0,0,0,0,0,0,0,0,0,0,0,0,0,0,0,0,0,0,0,0,0,0,0,0,0,0,0,0,0,0,0,0,0,0,0,0,0,0,0,0,0,0,0,0,0,0,0,0,0,0,0,0,0,0,0,0,0,0,0,0,0,0,0,0,0,0,0,0,0,0,0,0,0,0,0,0,0,0,0,0,0,0,0,0,0,0,0,0,0,0,0,0,0,0,0,0,0,0,0,0,0,0,0,0,0,0,0,0,0,0,0,0,0,0,0,0,0,0,0,0,0,0,0,0,0,0,0,0,0,0,0,0,0,0,0,0,0,0,0,0,0,0,0,0,0,0,0,0,0,0,0,0,0,0,0,0,0,0,0,0,0,0,0,0,0,0,0,0,0,0,0,0,0,0,0,0,0,0,0,0,0,0,0,0,0,0,0,0,0,0,0,0,0,0,0,0,0,0,0,0,0,0,0,0,0,0,0,0,0,0,0,0,0,0,0,0,0,0,0,0,0,0,0,0,0,0,0,0,0,0,0,0,0,0,0,0,0,0,0,0,0,0,0,0,0,0,0,0,0,0,0,0,0,0,0,0,0,0
