4.54396390914917,4.55483961105347,4.56576681137085,4.57674646377563,4.5877799987793,4.59886598587036,4.6100058555603,4.62120008468628,4.63244867324829,4.6437520980835,4.65511083602905,4.66652488708496,4.6779956817627,4.6895227432251,4.70110702514648,4.71274852752686,4.72444772720337,4.73620510101318,4.74802112579346,4.75989627838135,4.77183103561401,4.78382587432861,4.7958812713623,4.80799722671509,4.82017469406128,4.83241415023804,4.84471607208252,4.85708045959473,4.86950826644897,4.88199949264526,4.89455556869507,4.90717601776123,4.91986131668091,4.93261337280273,4.94543075561523,4.95831537246704,4.97126722335815,4.98428678512573,4.99737501144409,5.01053237915039,5.02375841140747,5.03705406188965,5.0504207611084,5.06385803222656,5.07736778259277,5.09094905853271,5.10460376739502,5.11833143234253,5.13213348388672,5.14600992202759,5.15996217727661,5.17398977279663,5.18809366226196,5.20227479934692,5.21653413772583,5.23087120056152,13.2277326583862,13.22336769104,13.2190017700195,13.2146396636963,13.2102813720703,13.2059240341187,13.2015714645386,13.1972198486328,13.1928739547729,13.1885280609131,13.1841859817505,13.1798467636108,13.1755113601685,13.1711769104004,13.1668472290039,13.1625165939331,13.1581935882568,13.1538705825806,13.1495513916016,13.1452341079712,13.1409206390381,13.1366090774536,13.132303237915,13.1279983520508,13.1236953735352,13.1193971633911,13.1150999069214,13.1108055114746,13.1065139770508,13.1022272109985,13.0979413986206,13.0936584472656,13.0893783569336,13.0851030349731,13.0808296203613,13.0765571594238,13.0722904205322,13.0680227279663,13.0637607574463,13.0594997406006,13.0552425384521,13.0509872436523,13.0467367172241,13.0424852371216,13.0382394790649,13.0339956283569,13.0297565460205,13.0255184173584,13.0212821960449,13.0170497894287,13.0128202438354,13.0085935592651,13.0043697357178,13.000147819519,12.9959287643433,12.9917116165161,12.9874992370605,12.9832887649536,12.9790811538696,12.9748754501343,12.9706745147705,12.9664726257324,12.9622774124146,12.9580821990967,12.9538898468018,12.9497013092041,12.9455165863037,12.941330909729,12.9371509552002,12.9329738616943,12.9287977218628,12.9246244430542,12.9204549789429,12.9162893295288,12.9121236801147,12.9079627990723,12.9038019180298,12.8996467590332,12.8954925537109,12.8913412094116,12.8871917724609,12.8830461502075,12.8789033889771,12.8747634887695,12.870623588562,12.8664894104004,12.8623580932617,12.858226776123,12.854100227356,12.8499755859375,12.845853805542,12.8417339324951,12.8376178741455,12.8335027694702,12.8293924331665,12.8252840042114,12.821177482605,12.8170738220215,12.8129739761353,12.8088750839233,12.8047800064087,12.8006858825684,12.7965955734253,12.7925081253052,12.7884225845337,12.7843408584595,12.7802600860596,12.7761831283569,12.7721071243286,12.7680358886719,12.7639675140381,12.7599010467529,12.7558364868164,12.7517747879028,12.7477169036865,12.7436590194702,12.7396059036255,12.7355537414551,12.7315053939819,12.7274589538574,12.7234144210815,12.7193737030029,12.7153348922729,12.7112989425659,12.7072658538818,12.7032356262207,12.6992053985596,12.6951808929443,12.6911573410034,12.6871376037598,12.6831188201904,12.6791038513184,12.6750907897949,12.6710805892944,12.6670713424683,12.6630659103394,12.6590623855591,12.6550636291504,12.6510667800903,12.647068977356,12.6430768966675,12.6390867233276,12.6350994110107,12.6311130523682,12.6271314620972,12.6231498718262,12.6191730499268,12.6151971817017,12.6112260818481,12.6072549819946,12.6032867431641,12.5993223190308,12.5953598022461,12.5913982391357,12.5874404907227,12.5834865570068,12.5795316696167,12.5755834579468,12.5716333389282,12.5676889419556,12.5637474060059,12.5598077774048,12.5558671951294,12.5519323348999,12.5480012893677,12.5440692901611,12.5401420593262,12.5362157821655,12.5322933197021,12.5283737182617,12.5244550704956,12.5205373764038,12.5166273117065,12.5127153396606,12.5088062286377,12.5049028396606,12.500997543335,12.4970960617065,12.4931993484497,12.4893035888672,12.4854078292847,12.4815168380737,12.4776277542114,12.4737415313721,12.4698572158813,12.4659748077393,12.4620952606201,12.4582195281982,12.4543437957764,12.4504737854004,12.4466028213501,12.4427347183228,12.4388704299927,12.4350090026855,12.4311494827271,12.4272890090942,12.423436164856,12.419581413269,12.4157314300537,12.411883354187,12.4080362319946,12.4041929244995,12.400351524353,12.3965148925781,12.3926782608032,12.3888444900513,12.3850126266479,12.3811836242676,12.3773584365845,12.3735313415527,12.3697109222412,12.3658924102783,12.3620729446411,12.3582592010498,12.3544473648071,12.3506364822388,12.346827507019,12.3430213928223,12.3392210006714,12.3354187011719,12.3316192626953,12.327823638916,12.324028968811,12.320240020752,12.3164482116699,12.3126621246338,12.3088760375977,12.3050966262817,12.3013172149658,12.2975378036499,12.2937631607056,12.2899904251099,12.2862186431885,12.2824506759644,12.2786846160889,12.2749223709106,12.2711591720581,12.2674016952515,12.2636442184448,12.2598896026611,12.2561378479004,12.2523880004883,12.2486410140991,12.24489402771,12.2411518096924,12.2374105453491,12.2336711883545,12.2299365997314,12.2262029647827,12.2224702835083,12.2187414169312,12.2150163650513,12.2112922668457,12.2075681686401,12.2038488388062,12.2001285552979,12.1964139938354,12.1927003860474,12.1889896392822,12.18528175354,12.1815748214722,12.1778697967529,12.1741676330566,12.1704683303833,12.1667718887329,12.1630744934082,12.1593828201294,12.1556901931763,12.1520023345947,12.1483144760132,12.1446313858032,12.1409502029419,12.1372699737549,12.1335916519165,12.1299171447754,12.1262435913086,12.1225738525391,12.1189060211182,12.1152391433716,12.111572265625,12.1079111099243,12.1042509078979,12.1005954742432,12.0969400405884,12.0932865142822,12.0896368026733,12.0859861373901,12.0823402404785,12.0786972045898,12.0750551223755,12.0714139938354,12.0677757263184,12.0641412734985,12.060507774353,12.0568771362305,12.0532493591309,12.0496206283569,12.0459966659546,12.0423727035522,12.0387544631958,12.0351371765137,12.0315198898315,12.027907371521,12.0242938995361,12.0206851959229,12.0170774459839,12.0134725570679,12.0098714828491,12.0062704086304,12.0026721954346,11.9990739822388,11.9954814910889,11.9918899536133,11.9882965087891,11.9847106933594,11.9811239242554,11.9775428771973,11.9739589691162,11.9703807830811,11.9668045043945,11.9632291793823,11.9596576690674,11.9560842514038,11.9525175094604,11.9489517211914,11.9453868865967,11.9418230056763,11.9382648468018,11.9347057342529,11.9311504364014,11.9275979995728,11.9240465164185,11.9204959869385,11.9169483184814,11.913402557373,11.9098606109619,11.9063196182251,11.9027795791626,11.8992433547974,11.8957080841064,11.8921766281128,11.8886461257935,11.8851165771484,11.8815908432007,11.8780670166016,11.8745460510254,11.8710241317749,11.867506980896,11.86399269104,11.8604764938354,11.8569669723511,11.8534574508667,11.8499488830566,11.8464441299438,11.8429393768311,11.8394403457642,11.8359384536743,11.8324432373047,11.8289470672607,11.8254537582397,11.8219623565674,11.818473815918,11.8149871826172,11.8115005493164,11.8080205917358,11.8045406341553,11.8010606765747,11.7975854873657,11.7941102981567,11.7906379699707,11.7871675491333,11.7836971282959,11.7802314758301,11.7767667770386,11.7733039855957,11.7698440551758,11.7663869857788,11.7629308700562,11.7594757080078,11.7560234069824,11.7525720596313,11.7491264343262,11.7456789016724,11.7422351837158,11.7387943267822,11.7353515625,11.731915473938,11.7284784317017,11.7250452041626,11.7216148376465,11.7181854248047,11.7147569656372,11.711329460144,11.7079067230225,11.7044858932495,11.7010641098022,11.6976461410522,11.6942300796509,11.6908168792725,11.687403678894,11.6839942932129,11.6805877685547,11.6771812438965,11.6737766265869,11.6703748703003,11.6669750213623,11.66357421875,11.6601800918579,11.6567859649658,11.653392791748,11.6500043869019,11.6466159820557,11.6432285308838,11.6398448944092,11.6364631652832,11.6330833435059,11.6297025680542,11.6263275146484,11.6229515075684,11.6195793151855,11.6162090301514,11.6128406524658,11.6094751358032,11.6061086654663,11.602746963501,11.5993881225586,11.5960273742676,11.5926733016968,11.5893173217773,11.5859642028809,11.5826120376587,11.5792627334595,11.5759172439575,11.5725708007812,11.5692281723022,11.5658855438232,11.5625457763672,11.5592098236084,11.5558738708496,11.5525407791138,11.5492076873779,11.5458784103394,11.5425491333008,11.5392246246338,11.5359010696411,11.5325784683228
4.53308725357056,4.54391002655029,4.55478525161743,4.56571245193481,4.5766921043396,4.58772468566895,4.59881067276001,4.60995054244995,4.62114429473877,4.63239240646362,4.64369583129883,4.65505456924438,4.66646814346313,4.67793846130371,4.68946552276611,4.70104932785034,4.71269035339355,4.72438907623291,4.73614645004272,4.747962474823,4.75983715057373,4.7717719078064,4.78376626968384,4.79582118988037,4.80793714523315,4.82011413574219,4.83235311508179,4.84465456008911,4.85701847076416,4.86944627761841,4.8819375038147,4.89449262619019,4.90711307525635,4.91979837417603,4.93254947662354,4.94536685943604,4.95825099945068,4.9712028503418,4.98422241210938,4.99730968475342,5.01046657562256,5.02369260787964,5.03698921203613,5.05035543441772,5.06379270553589,5.07730150222778,5.09088277816772,5.10453701019287,5.11826467514038,5.13206624984741,5.14594221115112,5.15989351272583,5.17392110824585,5.18802452087402,5.20220565795898,5.21646451950073,5.23080110549927,5.24521684646606,13.1314926147461,13.1271886825562,13.1228885650635,13.1185874938965,13.1142930984497,13.1099987030029,13.1057081222534,13.1014204025269,13.0971374511719,13.0928544998169,13.0885753631592,13.084300994873,13.0800256729126,13.075756072998,13.0714855194092,13.0672206878662,13.0629587173462,13.0586977005005,13.0544414520264,13.0501871109009,13.0459356307983,13.0416879653931,13.0374412536621,13.0331983566284,13.028956413269,13.0247192382812,13.0204849243164,13.0162525177002,13.0120229721069,13.0077972412109,13.0035743713379,12.9993515014648,12.995135307312,12.9909181594849,12.9867067337036,12.9824953079224,12.978289604187,12.9740829467773,12.9698829650879,12.9656820297241,12.9614868164062,12.9572906494141,12.9531021118164,12.9489135742188,12.9447269439697,12.9405450820923,12.9363641738892,12.9321870803833,12.9280118942261,12.9238395690918,12.9196691513062,12.9155044555664,12.9113388061523,12.9071779251099,12.903018951416,12.8988618850708,12.8947095870972,12.8905591964722,12.8864116668701,12.8822641372681,12.8781251907349,12.8739824295044,12.8698463439941,12.8657102584839,12.8615798950195,12.8574485778809,12.8533239364624,12.8491992950439,12.8450784683228,12.8409585952759,12.8368425369263,12.8327293395996,12.8286180496216,12.8245115280151,12.8204030990601,12.8163022994995,12.8122005462646,12.8081035614014,12.8040065765381,12.7999153137207,12.7958269119263,12.7917385101318,12.787654876709,12.7835721969604,12.7794923782349,12.7754154205322,12.7713413238525,12.7672691345215,12.7632007598877,12.7591333389282,12.7550706863403,12.7510089874268,12.7469491958618,12.7428951263428,12.7388410568237,12.734790802002,12.7307415008545,12.72669506073,12.7226524353027,12.7186126708984,12.7145738601685,12.7105379104614,12.7065048217773,12.7024745941162,12.6984453201294,12.6944227218628,12.6903991699219,12.6863775253296,12.6823616027832,12.6783447265625,12.6743335723877,12.6703233718872,12.6663179397583,12.6623115539551,12.6583108901978,12.6543092727661,12.6503124237061,12.6463174819946,12.6423254013062,12.6383352279663,12.6343479156494,12.6303644180298,12.6263799667358,12.6224012374878,12.6184244155884,12.6144485473633,12.6104764938354,12.6065073013306,12.6025400161743,12.598575592041,12.5946130752563,12.5906543731689,12.5866966247559,12.5827417373657,12.5787897109985,12.57483959198,12.5708923339844,12.5669460296631,12.5630044937134,12.5590648651123,12.5551290512085,12.5511922836304,12.5472593307495,12.5433292388916,12.5394010543823,12.5354776382446,12.5315542221069,12.5276346206665,12.5237159729004,12.5198011398315,12.5158882141113,12.5119771957397,12.5080709457397,12.5041637420654,12.5002603530884,12.4963617324829,12.4924631118774,12.4885673522949,12.484673500061,12.4807834625244,12.4768953323364,12.4730081558228,12.4691247940063,12.4652423858643,12.4613647460938,12.4574871063232,12.45361328125,12.4497404098511,12.445873260498,12.4420051574707,12.4381427764893,12.4342794418335,12.430419921875,12.4265670776367,12.4227113723755,12.4188566207886,12.4150056838989,12.4111595153809,12.4073143005371,12.403470993042,12.3996315002441,12.3957920074463,12.3919582366943,12.3881235122681,12.3842916488647,12.3804655075073,12.3766384124756,12.3728132247925,12.3689918518066,12.3651723861694,12.3613557815552,12.3575410842896,12.3537302017212,12.3499202728271,12.3461132049561,12.3423070907593,12.3385047912598,12.3347043991089,12.330904006958,12.3271102905273,12.3233156204224,12.319525718689,12.3157358169556,12.3119506835938,12.3081665039062,12.3043851852417,12.3006057739258,12.2968282699585,12.2930536270142,12.2892808914185,12.2855100631714,12.2817420959473,12.2779760360718,12.2742128372192,12.270453453064,12.2666940689087,12.262939453125,12.259183883667,12.2554330825806,12.2516832351685,12.2479362487793,12.2441911697388,12.2404479980469,12.2367076873779,12.2329692840576,12.2292346954346,12.2255010604858,12.2217712402344,12.2180404663086,12.2143135070801,12.2105903625488,12.2068681716919,12.2031497955322,12.1994323730469,12.1957149505615,12.1920032501221,12.1882925033569,12.1845836639404,12.1808776855469,12.177173614502,12.1734733581543,12.1697721481323,12.1660747528076,12.1623792648315,12.1586875915527,12.1549968719482,12.1513080596924,12.1476221084595,12.1439371109009,12.1402578353882,12.1365795135498,12.1329021453857,12.1292276382446,12.1255550384521,12.121883392334,12.1182155609131,12.1145486831665,12.1108856201172,12.1072225570679,12.1035642623901,12.0999059677124,12.0962514877319,12.0926008224487,12.0889492034912,12.085301399231,12.0816555023193,12.0780124664307,12.0743684768677,12.0707302093506,12.0670938491821,12.0634565353394,12.0598239898682,12.0561923980713,12.0525665283203,12.048939704895,12.045313835144,12.041693687439,12.0380725860596,12.0344552993774,12.0308399200439,12.0272264480591,12.0236167907715,12.0200061798096,12.0164003372192,12.0127944946289,12.0091934204102,12.00559425354,12.0019950866699,11.9983987808228,11.9948062896729,11.9912128448486,11.9876232147217,11.9840354919434,11.9804515838623,11.9768686294556,11.9732866287231,11.9697074890137,11.9661312103271,11.9625577926636,11.958984375,11.9554147720337,11.9518461227417,11.948281288147,11.9447145462036,11.9411535263062,11.9375944137573,11.9340381622314,11.9304828643799,11.926929473877,11.923378944397,11.9198303222656,11.9162817001343,11.9127378463745,11.9091939926147,11.9056539535522,11.9021139144897,11.8985776901245,11.8950443267822,11.8915119171143,11.8879833221436,11.8844528198242,11.8809280395508,11.8774042129517,11.8738832473755,11.8703641891479,11.866847038269,11.8633289337158,11.8598165512085,11.8563060760498,11.8527965545654,11.8492889404297,11.8457841873169,11.8422794342041,11.8387804031372,11.8352823257446,11.8317842483521,11.8282918930054,11.8247966766357,11.8213052749634,11.8178195953369,11.8143310546875,11.810848236084,11.8073644638062,11.8038845062256,11.800404548645,11.7969303131104,11.79345703125,11.7899837493896,11.7865152359009,11.7830448150635,11.7795791625977,11.7761163711548,11.7726526260376,11.7691955566406,11.7657356262207,11.762279510498,11.7588262557983,11.7553758621216,11.7519254684448,11.748477935791,11.7450323104858,11.7415866851807,11.7381467819214,11.7347059249878,11.7312688827515,11.7278327941895,11.7244005203247,11.7209692001343,11.7175388336182,11.714111328125,11.7106866836548,11.7072629928589,11.7038421630859,11.7004203796387,11.697003364563,11.6935882568359,11.6901741027832,11.6867628097534,11.6833534240723,11.6799459457397,11.6765394210815,11.6731367111206,11.669734954834,11.666335105896,11.6629371643066,11.6595401763916,11.6561470031738,11.6527576446533,11.6493663787842,11.645977973938,11.6425924301147,11.6392097473145,11.6358261108398,11.6324472427368,11.6290693283081,11.6256923675537,11.6223182678223,11.6189451217651,11.615574836731,11.6122093200684,11.6088428497314,11.6054792404175,11.6021146774292,11.5987548828125,11.5953960418701,11.5920400619507,11.5886859893799,11.5853338241577,11.5819816589355,11.5786323547363,11.5752868652344,11.5719432830811,11.5685987472534,11.5652599334717,11.5619192123413,11.5585832595825,11.5552453994751,11.5519123077393,11.5485830307007,11.5452508926392,11.5419244766235,11.5385980606079,11.5352754592896,11.5319547653198,11.5286331176758,11.5253171920776,11.5219993591309,11.5186862945557,11.5153732299805,11.5120630264282,11.5087566375732,11.5054473876953,11.5021438598633,11.4988403320312,11.4955406188965,11.4922409057617,11.4889440536499,11.4856491088867,11.4823560714722,11.4790639877319,11.475775718689,11.472487449646,11.469202041626,11.465916633606
4.52226161956787,4.53303337097168,4.54385614395142,4.5547308921814,4.56565809249878,4.57663726806641,4.58766984939575,4.59875583648682,4.6098952293396,4.62108850479126,4.63233661651611,4.64363956451416,4.65499782562256,4.66641139984131,4.67788171768188,4.68940830230713,4.7009916305542,4.71263265609741,4.72433090209961,4.73608779907227,4.74790334701538,4.75977802276611,4.77171230316162,4.78370666503906,4.79576110839844,4.80787658691406,4.8200535774231,4.83229207992554,4.84459352493286,4.85695743560791,4.86938428878784,4.88187503814697,4.89443016052246,4.90705013275146,4.91973543167114,4.93248605728149,4.94530296325684,4.95818710327148,4.97113847732544,4.98415756225586,4.9972448348999,5.01040124893188,5.02362680435181,5.03692245483398,5.05028915405273,5.0637264251709,5.07723569869995,5.09081649780273,5.10447025299072,5.11819696426392,5.13199806213379,5.14587450027466,5.15982532501221,5.17385244369507,5.18795585632324,5.20213603973389,5.21639442443848,5.23073101043701,5.24514627456665,5.25964212417603,5.27421760559082,13.0324001312256,13.0281610488892,13.0239229202271,13.0196886062622,13.0154581069946,13.0112295150757,13.0070037841797,13.0027799606323,12.9985589981079,12.9943418502808,12.9901275634766,12.985915184021,12.9817037582397,12.9774961471558,12.9732933044434,12.969090461731,12.9648933410645,12.9606952667236,12.9565019607544,12.9523124694824,12.9481229782104,12.9439382553101,12.9397563934326,12.9355783462524,12.9314002990723,12.9272270202637,12.9230537414551,12.9188852310181,12.9147186279297,12.9105548858643,12.9063930511475,12.9022369384766,12.8980808258057,12.8939294815063,12.8897771835327,12.8856296539307,12.8814859390259,12.8773441314697,12.8732051849365,12.8690662384033,12.8649339675903,12.8608016967773,12.8566722869873,12.8525466918945,12.8484239578247,12.8443012237549,12.8401832580566,12.836067199707,12.8319549560547,12.8278455734253,12.8237361907959,12.8196325302124,12.8155298233032,12.8114290237427,12.8073320388794,12.8032379150391,12.799144744873,12.7950563430786,12.7909679412842,12.7868843078613,12.7828025817871,12.7787246704102,12.7746496200562,12.7705745697021,12.7665023803711,12.7624340057373,12.7583684921265,12.7543048858643,12.750244140625,12.7461853027344,12.7421321868896,12.7380781173706,12.7340278625488,12.72998046875,12.7259340286255,12.7218923568726,12.7178516387939,12.7138137817383,12.7097778320312,12.7057466506958,12.7017164230347,12.6976881027222,12.6936635971069,12.6896409988403,12.6856212615967,12.6816053390503,12.6775903701782,12.6735773086548,12.6695699691772,12.6655616760254,12.6615581512451,12.6575536727905,12.6535568237305,12.6495590209961,12.6455640792847,12.6415719985962,12.637583732605,12.6335954666138,12.6296119689941,12.6256313323975,12.6216497421265,12.6176748275757,12.6137008666992,12.6097288131714,12.6057586669922,12.6017923355103,12.5978269577026,12.5938663482666,12.5899057388306,12.5859498977661,12.5819940567017,12.5780439376831,12.5740966796875,12.5701484680176,12.5662040710449,12.5622615814209,12.5583238601685,12.554386138916,12.5504522323608,12.54651927948,12.5425891876221,12.5386619567871,12.5347385406494,12.5308141708374,12.5268964767456,12.5229797363281,12.5190649032593,12.5151529312134,12.5112419128418,12.5073347091675,12.5034284591675,12.4995269775391,12.495626449585,12.4917297363281,12.4878330230713,12.483941078186,12.4800491333008,12.4761619567871,12.4722766876221,12.4683933258057,12.4645128250122,12.4606342315674,12.4567584991455,12.4528846740723,12.449013710022,12.4451446533203,12.4412775039673,12.4374132156372,12.4335527420044,12.4296932220459,12.4258375167847,12.4219827651978,12.4181308746338,12.4142808914185,12.4104337692261,12.4065885543823,12.4027462005615,12.3989067077637,12.3950691223145,12.3912343978882,12.3873996734619,12.3835697174072,12.3797416687012,12.3759155273438,12.3720932006836,12.3682718276978,12.3644533157349,12.3606357574463,12.3568239212036,12.3530101776123,12.3492021560669,12.3453931808472,12.3415899276733,12.3377895355225,12.3339891433716,12.3301906585693,12.32639503479,12.322603225708,12.3188123703003,12.3150234222412,12.3112382888794,12.3074560165405,12.3036737442017,12.2998943328857,12.2961187362671,12.2923450469971,12.2885723114014,12.2848014831543,12.2810335159302,12.2772693634033,12.2735071182251,12.2697477340698,12.2659883499146,12.2622318267822,12.2584772109985,12.2547264099121,12.2509784698486,12.2472305297852,12.2434854507446,12.2397441864014,12.2360048294067,12.2322683334351,12.2285318374634,12.2248001098633,12.2210683822632,12.2173404693604,12.2136154174805,12.2098903656006,12.2061700820923,12.202449798584,12.1987314224243,12.1950178146362,12.1913042068481,12.1875953674316,12.1838846206665,12.1801815032959,12.1764755249023,12.1727752685547,12.1690769195557,12.1653804779053,12.1616849899292,12.1579933166504,12.1543025970459,12.150616645813,12.1469287872314,12.1432466506958,12.1395654678345,12.1358861923218,12.1322088241577,12.1285362243652,12.1248655319214,12.1211929321289,12.1175260543823,12.1138582229614,12.1101961135864,12.1065340042114,12.1028747558594,12.0992202758789,12.0955657958984,12.0919141769409,12.0882625579834,12.0846157073975,12.0809698104858,12.0773267745972,12.0736865997314,12.0700445175171,12.0664100646973,12.0627746582031,12.0591411590576,12.0555124282837,12.0518846511841,12.0482568740845,12.0446338653564,12.0410118103027,12.0373945236206,12.0337762832642,12.0301609039307,12.0265464782715,12.0229358673096,12.0193290710449,12.015721321106,12.0121173858643,12.0085153579712,12.0049161911011,12.001317024231,11.9977235794067,11.9941310882568,11.9905376434326,11.98694896698,11.9833612442017,11.9797763824463,11.9761943817139,11.9726133346558,11.9690351486206,11.9654588699341,11.9618844985962,11.9583129882812,11.9547424316406,11.9511756896973,11.9476089477539,11.9440460205078,11.9404850006104,11.9369268417358,11.9333686828613,11.9298133850098,11.9262619018555,11.9227104187012,11.9191617965698,11.9156150817871,11.912070274353,11.9085302352905,11.9049882888794,11.9014492034912,11.897912979126,11.894380569458,11.8908491134644,11.887318611145,11.8837909698486,11.8802661895752,11.8767423629761,11.8732213973999,11.8697004318237,11.8661851882935,11.8626680374146,11.8591556549072,11.8556451797485,11.8521375656128,11.8486299514771,11.8451261520386,11.8416233062744,11.8381204605103,11.834623336792,11.831127166748,11.8276329040527,11.8241415023804,11.820650100708,11.8171625137329,11.8136768341064,11.8101921081543,11.8067102432251,11.8032293319702,11.7997531890869,11.7962770462036,11.7928037643433,11.7893333435059,11.7858619689941,11.7823944091797,11.7789278030396,11.7754640579224,11.7720022201538,11.7685422897339,11.7650861740112,11.7616310119629,11.7581768035889,11.7547254562378,11.7512769699097,11.7478294372559,11.744384765625,11.7409391403198,11.7374992370605,11.7340602874756,11.7306232452393,11.7271871566772,11.7237548828125,11.7203235626221,11.7168941497803,11.7134666442871,11.7100410461426,11.7066192626953,11.7031984329224,11.6997785568237,11.6963596343994,11.6929454803467,11.6895313262939,11.6861200332642,11.6827116012573,11.6793050765991,11.6759004592896,11.6724967956543,11.6690969467163,11.665696144104,11.6622982025146,11.6589031219482,11.6555089950562,11.6521186828613,11.6487274169922,11.6453418731689,11.6419563293457,11.6385717391968,11.6351900100708,11.6318120956421,11.6284341812134,11.6250591278076,11.6216840744019,11.6183128356934,11.6149406433105,11.6115741729736,11.608208656311,11.6048450469971,11.6014852523804,11.598123550415,11.5947666168213,11.5914096832275,11.5880556106567,11.5847053527832,11.5813512802124,11.5780048370361,11.5746574401855,11.5713138580322,11.5679712295532,11.5646305084229,11.5612916946411,11.557954788208,11.5546207427979,11.5512866973877,11.5479555130005,11.5446262359619,11.541298866272,11.537974357605,11.5346508026123,11.5313291549683,11.5280084609985,11.5246925354004,11.5213775634766,11.5180635452271,11.5147523880005,11.5114412307739,11.5081348419189,11.5048274993896,11.5015230178833,11.4982194900513,11.4949178695679,11.4916200637817,11.4883241653442,11.4850292205811,11.4817371368408,11.4784440994263,11.4751577377319,11.471869468689,11.4685840606689,11.4653015136719,11.4620180130005,11.4587392807007,11.4554595947266,11.4521856307983,11.4489107131958,11.4456386566162,11.4423704147339,11.4391002655029,11.4358348846436,11.4325695037842,11.4293041229248,11.426043510437,11.4227848052979,11.4195280075073,11.4162721633911,11.4130182266235,11.4097671508789,11.4065189361572,11.4032697677612,11.4000225067139
4.51148843765259,4.52220869064331,4.53297996520996,4.54380226135254,4.55467700958252,4.56560373306274,4.57658290863037,4.58761501312256,4.59870052337646,4.60983943939209,4.62103319168091,4.6322808265686,4.64358329772949,4.65494108200073,4.66635465621948,4.6778244972229,4.68935060501099,4.70093393325806,4.71257448196411,4.72427272796631,4.73602962493896,4.74784469604492,4.7597188949585,4.77165269851685,4.78364658355713,4.7957010269165,4.80781650543213,4.819993019104,4.83223104476929,4.84453201293945,4.85689544677734,4.86932229995728,4.88181304931641,4.89436769485474,4.90698719024658,4.9196720123291,4.93242263793945,4.94523954391479,4.95812273025513,4.97107362747192,4.98409271240234,4.99717950820923,5.01033544540405,5.02356100082397,5.03685665130615,5.05022239685059,5.06365966796875,5.07716846466064,5.09074974060059,5.10440301895142,5.11813020706177,5.13193082809448,5.14580631256104,5.15975713729858,5.17378377914429,5.1878867149353,5.20206689834595,5.21632480621338,5.23066091537476,5.24507617950439,5.25957107543945,5.27414608001709,5.28880262374878,12.9389715194702,12.9347915649414,12.9306154251099,12.926441192627,12.9222717285156,12.91810131073,12.9139366149902,12.9097719192505,12.9056119918823,12.9014539718628,12.8973007202148,12.8931455612183,12.8889970779419,12.8848485946655,12.8807048797607,12.8765630722046,12.8724241256714,12.8682889938354,12.8641557693481,12.8600244522095,12.8558940887451,12.851770401001,12.8476448059082,12.8435277938843,12.8394088745117,12.8352928161621,12.8311805725098,12.8270711898804,12.822961807251,12.8188591003418,12.8147563934326,12.8106575012207,12.8065614700317,12.8024663925171,12.7983751296997,12.794285774231,12.7901992797852,12.786114692688,12.7820348739624,12.7779550552368,12.7738809585571,12.7698078155518,12.7657375335693,12.7616691589355,12.7576026916504,12.7535409927368,12.7494792938232,12.7454223632812,12.7413673400879,12.7373151779175,12.7332649230957,12.7292175292969,12.7251720428467,12.7211303710938,12.7170896530151,12.7130527496338,12.7090187072754,12.7049875259399,12.7009572982788,12.6969299316406,12.692907333374,12.6888828277588,12.6848649978638,12.6808481216431,12.676833152771,12.6728219985962,12.66881275177,12.6648073196411,12.6608028411865,12.6568012237549,12.6528034210205,12.6488065719604,12.6448125839233,12.6408205032349,12.6368312835693,12.6328458786011,12.6288614273071,12.6248798370361,12.6209011077881,12.6169261932373,12.6129531860352,12.6089811325073,12.6050128936768,12.6010456085205,12.5970821380615,12.5931196212769,12.5891609191895,12.5852041244507,12.5812501907349,12.5773000717163,12.5733509063721,12.5694036483765,12.5654602050781,12.5615196228027,12.5575799942017,12.5536441802979,12.549708366394,12.5457773208618,12.5418481826782,12.5379219055176,12.5339975357056,12.5300769805908,12.5261573791504,12.5222396850586,12.5183248519897,12.5144138336182,12.5105056762695,12.5065975189209,12.5026931762695,12.4987897872925,12.4948921203613,12.4909934997559,12.4870986938477,12.4832067489624,12.4793176651001,12.4754285812378,12.4715452194214,12.4676599502563,12.4637813568115,12.4599046707153,12.4560279846191,12.4521560668945,12.4482841491699,12.4444169998169,12.4405498504639,12.4366874694824,12.432825088501,12.4289684295654,12.4251108169556,12.421257019043,12.4174041748047,12.4135551452637,12.4097099304199,12.4058637619019,12.4020223617554,12.3981838226318,12.3943462371826,12.3905115127563,12.3866786956787,12.3828477859497,12.3790216445923,12.3751955032349,12.371374130249,12.3675508499146,12.363733291626,12.3599185943604,12.356104850769,12.3522939682007,12.3484840393066,12.3446788787842,12.3408737182617,12.3370723724365,12.3332710266113,12.3294734954834,12.3256807327271,12.3218870162964,12.318097114563,12.3143100738525,12.3105239868164,12.3067407608032,12.302960395813,12.2991819381714,12.2954063415527,12.2916307449341,12.287859916687,12.2840909957886,12.2803239822388,12.2765579223633,12.2727956771851,12.2690353393555,12.2652788162231,12.2615232467651,12.2577705383301,12.2540197372437,12.2502737045288,12.246527671814,12.2427816390991,12.2390403747559,12.2353010177612,12.2315645217896,12.2278299331665,12.2240972518921,12.2203674316406,12.2166395187378,12.2129144668579,12.2091913223267,12.205470085144,12.2017517089844,12.1980314254761,12.1943187713623,12.1906051635742,12.186897277832,12.1831903457642,12.1794834136963,12.17578125,12.1720790863037,12.1683807373047,12.1646852493286,12.1609897613525,12.1572999954224,12.1536073684692,12.1499223709106,12.1462364196777,12.1425542831421,12.1388740539551,12.1351947784424,12.131519317627,12.1278448104858,12.1241722106934,12.1205034255981,12.1168355941772,12.113169670105,12.10950756073,12.1058464050293,12.1021871566772,12.0985326766968,12.0948801040649,12.0912256240845,12.0875778198242,12.083930015564,12.080283164978,12.076642036438,12.0730009078979,12.0693607330322,12.0657243728638,12.0620918273926,12.0584583282471,12.0548286437988,12.0512018203735,12.0475749969482,12.0439529418945,12.0403318405151,12.0367136001587,12.0330963134766,12.0294809341431,12.0258693695068,12.0222578048706,12.0186500549316,12.015043258667,12.0114393234253,12.0078392028809,12.0042390823364,12.0006427764893,11.9970455169678,11.9934539794922,11.9898643493652,11.9862728118896,11.98268699646,11.9791021347046,11.9755201339722,11.9719390869141,11.9683618545532,11.9647855758667,11.9612131118774,11.9576425552368,11.9540710449219,11.9505052566528,11.9469404220581,11.9433746337891,11.9398164749146,11.9362554550171,11.9327011108398,11.929144859314,11.9255933761597,11.9220428466797,11.918493270874,11.9149484634399,11.9114055633545,11.907862663269,11.9043235778809,11.9007844924927,11.8972492218018,11.8937139511108,11.8901853561401,11.8866558074951,11.8831281661987,11.8796033859253,11.8760795593262,11.8725595474243,11.8690404891968,11.8655242919922,11.8620080947876,11.858494758606,11.8549861907959,11.8514766693115,11.8479709625244,11.8444662094116,11.8409652709961,11.8374643325806,11.8339672088623,11.8304710388184,11.8269758224487,11.8234844207764,11.819995880127,11.8165063858032,11.8130216598511,11.8095359802246,11.8060550689697,11.8025751113892,11.7990999221802,11.7956247329712,11.7921485900879,11.7886791229248,11.7852096557617,11.7817420959473,11.7782773971558,11.7748126983643,11.7713527679443,11.7678928375244,11.7644367218018,11.7609815597534,11.7575283050537,11.754077911377,11.7506284713745,11.747181892395,11.7437362670898,11.7402935028076,11.7368516921997,11.7334127426147,11.7299776077271,11.7265405654907,11.723108291626,11.7196788787842,11.7162494659424,11.7128238677979,11.709397315979,11.7059764862061,11.7025547027588,11.6991338729858,11.6957187652588,11.6923027038574,11.688892364502,11.6854782104492,11.6820707321167,11.6786651611328,11.6752605438232,11.671856880188,11.6684560775757,11.6650562286377,11.6616592407227,11.6582641601562,11.6548719406128,11.6514806747437,11.6480913162231,11.6447038650513,11.6413192749023,11.6379375457764,11.6345548629761,11.6311750411987,11.6277990341187,11.6244239807129,11.6210479736328,11.6176776885986,11.6143083572388,11.6109418869019,11.6075763702393,11.6042137145996,11.6008520126343,11.5974922180176,11.5941352844238,11.5907802581787,11.5874252319336,11.5840730667114,11.5807218551636,11.577374458313,11.574028968811,11.5706844329834,11.5673418045044,11.5640020370483,11.5606641769409,11.5573272705078,11.5539932250977,11.5506610870361,11.5473289489746,11.5440006256104,11.5406732559204,11.5373487472534,11.5340270996094,11.530704498291,11.5273857116699,11.5240678787231,11.5207538604736,11.5174407958984,11.5141286849976,11.5108213424683,11.5075120925903,11.5042057037354,11.500901222229,11.4976005554199,11.4943008422852,11.4909992218018,11.4877052307129,11.4844083786011,11.4811172485352,11.4778280258179,11.4745378494263,11.4712514877319,11.4679670333862,11.4646825790405,11.4614009857178,11.458122253418,11.4548444747925,11.4515676498413,11.4482946395874,11.4450225830078,11.4417543411255,11.4384860992432,11.4352197647095,11.4319562911987,11.4286909103394,11.4254302978516,11.4221706390381,11.4189147949219,11.4156618118286,11.4124059677124,11.4091558456421,11.4059057235718,11.4026584625244,11.3994140625,11.3961687088013,11.3929281234741,11.389684677124,11.3864488601685,11.3832120895386,11.379976272583,11.3767433166504,11.3735132217407,11.3702840805054,11.36705493927,11.3638305664062,11.3606081008911,11.3573837280273,11.3541622161865,11.350944519043,11.347728729248,11.3445158004761,11.3413019180298,11.3380918502808,11.3348808288574
4.50076580047607,4.51143503189087,4.52215528488159,4.53292608261108,4.54374885559082,4.55462265014648,4.56554889678955,4.57652807235718,4.58756017684937,4.59864521026611,4.60978412628174,4.62097692489624,4.63222455978394,4.64352703094482,4.65488433837891,4.66629791259766,4.67776727676392,4.689293384552,4.70087623596191,4.71251630783081,4.72421455383301,4.73597097396851,4.7477855682373,4.75965976715088,4.77159357070923,4.78358697891235,4.79564094543457,4.80775594711304,4.81993246078491,4.8321704864502,4.8444709777832,4.85683393478394,4.86926031112671,4.88175106048584,4.89430522918701,4.9069242477417,4.91960906982422,4.93235921859741,4.9451756477356,4.95805883407593,4.97100925445557,4.98402786254883,4.99711418151855,5.01027011871338,5.02349519729614,5.03679037094116,5.0501561164856,5.0635929107666,5.07710123062134,5.09068202972412,5.10433578491211,5.1180624961853,5.13186311721802,5.14573860168457,5.15968894958496,5.17371511459351,5.18781757354736,5.20199728012085,5.21625471115112,5.23059034347534,5.24500560760498,5.25950002670288,5.27407503128052,5.28873062133789,5.30346822738647,12.8468713760376,12.842752456665,12.8386354446411,12.8345184326172,12.8304071426392,12.8262987136841,12.8221912384033,12.8180885314941,12.8139867782593,12.8098878860474,12.8057880401611,12.8016939163208,12.7976045608521,12.7935171127319,12.7894296646118,12.7853469848633,12.7812662124634,12.7771892547607,12.7731132507324,12.7690401077271,12.7649688720703,12.7609024047852,12.7568378448486,12.7527751922607,12.7487163543701,12.7446584701538,12.7406034469604,12.7365522384644,12.7325019836426,12.7284555435181,12.7244119644165,12.7203683853149,12.716329574585,12.7122926712036,12.7082586288452,12.7042274475098,12.7002000808716,12.6961727142334,12.6921491622925,12.6881284713745,12.6841077804565,12.6800918579102,12.6760778427124,12.6720676422119,12.6680583953857,12.6640539169312,12.6600475311279,12.6560487747192,12.6520490646362,12.6480531692505,12.6440620422363,12.6400690078735,12.6360816955566,12.6320953369141,12.6281108856201,12.6241312026978,12.620153427124,12.616174697876,12.6122035980225,12.6082315444946,12.6042633056641,12.6002988815308,12.5963354110718,12.5923757553101,12.588415145874,12.5844621658325,12.5805063247681,12.5765562057495,12.572606086731,12.568660736084,12.5647172927856,12.5607786178589,12.5568380355835,12.5529022216797,12.5489683151245,12.5450382232666,12.541109085083,12.5371828079224,12.5332593917847,12.5293378829956,12.5254192352295,12.5215015411377,12.5175886154175,12.5136775970459,12.5097684860229,12.5058603286743,12.5019578933716,12.4980564117432,12.4941558837891,12.4902610778809,12.486364364624,12.4824733734131,12.4785833358765,12.4746971130371,12.4708108901978,12.46692943573,12.4630489349365,12.4591722488403,12.4552974700928,12.4514245986938,12.4475555419922,12.4436874389648,12.4398221969604,12.4359588623047,12.4320983886719,12.4282379150391,12.4243841171265,12.4205293655396,12.4166803359985,12.4128293991089,12.4089841842651,12.4051380157471,12.4012975692749,12.3974609375,12.3936233520508,12.3897905349731,12.3859567642212,12.3821277618408,12.3782997131348,12.374475479126,12.3706531524658,12.36683177948,12.3630142211914,12.3591995239258,12.3553848266602,12.3515758514404,12.347767829895,12.3439607620239,12.3401584625244,12.3363552093506,12.3325567245483,12.3287601470947,12.3249654769897,12.3211727142334,12.3173837661743,12.3135957717896,12.3098106384277,12.3060274124146,12.3022470474243,12.29847240448,12.2946939468384,12.2909212112427,12.2871494293213,12.2833824157715,12.279613494873,12.2758502960205,12.2720880508423,12.268328666687,12.2645721435547,12.2608165740967,12.2570638656616,12.2533130645752,12.249566078186,12.2458200454712,12.242075920105,12.2383346557617,12.2345962524414,12.2308597564697,12.2271251678467,12.2233924865723,12.2196636199951,12.2159357070923,12.2122106552124,12.2084865570068,12.2047672271729,12.2010488510132,12.1973323822021,12.1936197280884,12.1899061203003,12.1861963272095,12.1824903488159,12.1787853240967,12.1750822067261,12.1713819503784,12.1676836013794,12.163990020752,12.1602954864502,12.1566047668457,12.1529150009155,12.1492280960083,12.145544052124,12.1418609619141,12.1381807327271,12.134503364563,12.1308279037476,12.1271553039551,12.1234836578369,12.1198129653931,12.1161470413208,12.1124820709229,12.1088190078735,12.1051588058472,12.1015014648438,12.0978441238403,12.0941915512085,12.090539932251,12.0868911743164,12.0832433700562,12.0795993804932,12.0759582519531,12.0723152160645,12.0686769485474,12.0650415420532,12.0614080429077,12.0577754974365,12.0541458129883,12.050518989563,12.0468940734863,12.0432710647583,12.0396518707275,12.0360317230225,12.0324153900146,12.0288000106812,12.0251884460449,12.0215787887573,12.0179719924927,12.0143671035767,12.010763168335,12.0071611404419,12.0035648345947,11.9999656677246,11.9963722229004,11.9927787780762,11.9891881942749,11.9855976104736,11.9820117950439,11.9784297943115,11.9748477935791,11.9712677001953,11.9676885604858,11.9641141891479,11.9605417251587,11.9569692611694,11.9534015655518,11.9498348236084,11.9462699890137,11.9427042007446,11.9391450881958,11.9355878829956,11.9320316314697,11.9284772872925,11.9249238967896,11.9213762283325,11.9178285598755,11.9142818450928,11.9107389450073,11.9071960449219,11.9036569595337,11.9001188278198,11.8965835571289,11.8930511474609,11.8895196914673,11.8859910964966,11.8824644088745,11.8789396286011,11.8754177093506,11.8718957901001,11.8683795928955,11.8648624420166,11.8613471984863,11.8578338623047,11.8543252944946,11.8508167266846,11.8473110198975,11.8438091278076,11.8403053283691,11.8368062973022,11.833309173584,11.8298120498657,11.8263206481934,11.8228282928467,11.8193368911743,11.8158502578735,11.8123645782471,11.8088817596436,11.8054008483887,11.8019218444824,11.7984447479248,11.7949705123901,11.7914972305298,11.7880268096924,11.7845573425293,11.7810897827148,11.7776250839233,11.7741603851318,11.7707014083862,11.7672433853149,11.7637872695923,11.7603302001953,11.7568778991699,11.7534275054932,11.7499799728394,11.7465333938599,11.743088722229,11.7396450042725,11.7362051010132,11.7327671051025,11.7293310165405,11.7258968353271,11.7224636077881,11.7190341949463,11.7156038284302,11.7121782302856,11.7087545394897,11.7053318023682,11.7019128799438,11.6984920501709,11.6950769424438,11.6916618347168,11.6882495880127,11.6848392486572,11.6814308166504,11.6780233383179,11.674617767334,11.6712169647217,11.667818069458,11.6644191741943,11.661021232605,11.6576261520386,11.6542348861694,11.650842666626,11.6474552154541,11.6440687179565,11.6406831741333,11.637300491333,11.6339197158813,11.630539894104,11.6271657943726,11.6237897872925,11.6204147338867,11.6170434951782,11.613676071167,11.6103076934814,11.6069431304932,11.6035804748535,11.6002187728882,11.5968608856201,11.5935029983521,11.5901479721069,11.5867948532104,11.5834426879883,11.5800933837891,11.5767450332642,11.5733995437622,11.5700559616089,11.5667142868042,11.5633745193481,11.5600357055664,11.5567007064819,11.5533657073975,11.5500335693359,11.5467052459717,11.5433740615845,11.5400495529175,11.5367240905762,11.5334014892578,11.5300807952881,11.5267601013184,11.5234451293945,11.5201292037964,11.5168170928955,11.5135049819946,11.5101976394653,11.506890296936,11.5035839080811,11.500280380249,11.4969778060913,11.4936780929565,11.4903802871704,11.4870843887329,11.483790397644,11.4804992675781,11.4772081375122,11.4739208221436,11.4706325531006,11.4673500061035,11.4640655517578,11.4607839584351,11.4575042724609,11.4542284011841,11.4509553909302,11.4476804733276,11.4444093704224,11.4411373138428,11.4378709793091,11.4346046447754,11.4313411712646,11.4280776977539,11.4248161315918,11.4215593338013,11.4183025360107,11.4150476455688,11.4117975234985,11.4085445404053,11.4052953720093,11.4020490646362,11.3988037109375,11.3955583572388,11.3923177719116,11.3890781402588,11.385838508606,11.3826036453247,11.3793678283691,11.3761358261108,11.3729057312012,11.3696765899658,11.3664493560791,11.363224029541,11.3600015640259,11.3567771911621,11.3535585403442,11.3503408432007,11.3471231460571,11.3439111709595,11.3406963348389,11.3374872207642,11.3342800140381,11.3310718536377,11.3278656005859,11.3246631622314,11.3214626312256,11.318263053894,11.3150615692139,11.3118667602539,11.3086729049683,11.3054800033569,11.3022899627686,11.2990999221802,11.2959136962891,11.2927274703979,11.2895441055298,11.2863626480103,11.2831830978394,11.2800054550171,11.2768268585205,11.2736539840698,11.2704801559448
4.49009466171265,4.50071287155151,4.51138210296631,4.52210187911987,4.53287267684937,4.54369497299194,4.55456876754761,4.56549453735352,4.57647371292114,4.58750534057617,4.59858989715576,4.60972881317139,4.62092113494873,4.63216876983643,4.64347076416016,4.65482807159424,4.66624116897583,4.67771005630493,4.68923568725586,4.70081853866577,4.71245861053467,4.72415637969971,4.73591232299805,4.74772691726685,4.75960063934326,4.77153396606445,4.78352737426758,4.79558134078979,4.80769538879395,4.81987190246582,4.83210945129395,4.84440946578979,4.85677242279053,4.8691987991333,4.88168859481812,4.89424276351929,4.90686178207397,4.91954565048218,4.93229579925537,4.94511127471924,4.95799493789673,4.97094488143921,4.98396301269531,4.99704933166504,5.01020479202271,5.02342939376831,5.03672409057617,5.05008935928345,5.06352567672729,5.07703399658203,5.09061431884766,5.10426759719849,5.11799430847168,5.13179492950439,5.14566993713379,5.15962076187134,5.17364645004272,5.18774890899658,5.20192813873291,5.21618509292603,5.23052024841309,5.24493503570557,5.25942897796631,5.27400350570679,5.28865909576416,5.30339622497559,5.31821537017822,5.33311796188354,12.7520122528076,12.747953414917,12.743896484375,12.739842414856,12.7357912063599,12.7317409515381,12.7276945114136,12.723650932312,12.7196083068848,12.7155685424805,12.7115335464478,12.707498550415,12.7034683227539,12.6994390487671,12.6954145431519,12.6913909912109,12.687370300293,12.6833534240723,12.6793365478516,12.6753244400024,12.6713123321533,12.6673049926758,12.6632976531982,12.6592969894409,12.655294418335,12.6512975692749,12.6472997665405,12.6433086395264,12.6393165588379,12.635329246521,12.6313447952271,12.6273622512817,12.6233825683594,12.619402885437,12.6154289245605,12.6114540100098,12.6074848175049,12.6035165786743,12.599552154541,12.5955867767334,12.5916290283203,12.5876693725586,12.5837144851685,12.5797624588013,12.5758113861084,12.5718641281128,12.5679178237915,12.5639762878418,12.5600357055664,12.5560970306396,12.5521602630615,12.548228263855,12.5442962646484,12.5403690338135,12.5364418029785,12.5325202941895,12.5286016464233,12.5246820449829,12.5207653045654,12.5168514251709,12.5129423141479,12.509033203125,12.505126953125,12.5012226104736,12.4973220825195,12.4934225082397,12.4895267486572,12.4856309890747,12.4817399978638,12.4778518676758,12.4739656448364,12.4700813293457,12.4661979675293,12.4623184204102,12.458441734314,12.4545679092407,12.4506940841675,12.4468259811401,12.4429578781128,12.4390926361084,12.4352293014526,12.4313697814941,12.4275131225586,12.4236583709717,12.4198064804077,12.4159545898438,12.4121055603027,12.4082584381104,12.4044170379639,12.4005746841431,12.3967380523682,12.3929004669189,12.3890647888184,12.385232925415,12.3814058303833,12.3775796890259,12.3737545013428,12.3699331283569,12.3661108016968,12.3622951507568,12.3584794998169,12.3546686172485,12.3508577346802,12.3470478057861,12.3432416915894,12.3394393920898,12.3356380462646,12.3318405151367,12.3280439376831,12.3242492675781,12.3204584121704,12.316668510437,12.3128824234009,12.3090972900391,12.3053159713745,12.3015356063843,12.2977590560913,12.2939825057983,12.290210723877,12.2864408493042,12.2826709747314,12.2789058685303,12.2751426696777,12.2713823318481,12.2676219940186,12.2638645172119,12.2601079940796,12.2563571929932,12.2526073455811,12.2488594055176,12.2451143264771,12.2413702011108,12.2376317977905,12.2338924407959,12.2301568984985,12.2264223098755,12.2226905822754,12.2189607620239,12.2152338027954,12.2115097045898,12.2077865600586,12.204065322876,12.2003498077393,12.1966314315796,12.1929187774658,12.1892099380493,12.1854982376099,12.1817922592163,12.1780872344971,12.1743860244751,12.1706848144531,12.1669883728027,12.1632919311523,12.1595983505249,12.1559066772461,12.1522188186646,12.1485319137573,12.1448488235474,12.1411666870117,12.137487411499,12.133810043335,12.1301345825195,12.1264610290527,12.1227893829346,12.1191205978394,12.1154537200928,12.1117897033691,12.1081275939941,12.1044673919678,12.1008100509644,12.0971565246582,12.0935039520264,12.0898504257202,12.08620262146,12.082555770874,12.078914642334,12.075270652771,12.0716333389282,12.0679941177368,12.0643577575684,12.0607252120972,12.0570936203003,12.0534648895264,12.0498371124268,12.0462121963501,12.0425891876221,12.0389699935913,12.0353517532349,12.0317354202271,12.0281229019165,12.0245094299316,12.020899772644,12.0172929763794,12.0136880874634,12.0100870132446,12.0064840316772,12.0028867721558,11.99928855896,11.9956951141357,11.9921035766602,11.9885129928589,11.9849252700806,11.9813375473022,11.9777555465698,11.9741744995117,11.9705934524536,11.9670162200928,11.9634408950806,11.9598693847656,11.956298828125,11.9527311325073,11.949164390564,11.9456005096436,11.9420375823975,11.9384756088257,11.9349184036255,11.9313621520996,11.9278078079224,11.924259185791,11.9207077026367,11.9171600341797,11.9136142730713,11.9100713729858,11.9065322875977,11.9029932022095,11.8994550704956,11.8959188461304,11.8923873901367,11.8888559341431,11.885326385498,11.8818016052246,11.8782768249512,11.874755859375,11.8712339401245,11.8677177429199,11.8642024993896,11.8606863021851,11.8571767807007,11.8536643981934,11.8501577377319,11.8466529846191,11.8431491851807,11.8396472930908,11.8361473083496,11.8326501846313,11.8291549682617,11.8256635665894,11.8221731185913,11.8186807632446,11.8151950836182,11.8117084503174,11.8082275390625,11.8047475814819,11.8012666702271,11.7977914810181,11.7943153381348,11.7908449172974,11.7873725891113,11.7839050292969,11.7804374694824,11.7769727706909,11.7735109329224,11.7700500488281,11.7665920257568,11.7631378173828,11.7596817016602,11.7562284469604,11.752779006958,11.7493314743042,11.7458848953247,11.7424421310425,11.7389993667603,11.7355585098267,11.732120513916,11.7286834716797,11.7252502441406,11.7218189239502,11.7183876037598,11.7149610519409,11.7115345001221,11.7081108093262,11.7046890258789,11.7012691497803,11.6978511810303,11.694432258606,11.6910190582275,11.6876068115234,11.6841974258423,11.6807899475098,11.6773834228516,11.6739797592163,11.6705770492554,11.6671772003174,11.6637802124023,11.6603813171387,11.6569890975952,11.6535949707031,11.6502056121826,11.6468172073364,11.6434316635132,11.6400470733643,11.636664390564,11.6332836151123,11.6299047470093,11.6265287399292,11.6231565475464,11.6197824478149,11.6164112091064,11.6130418777466,11.6096754074097,11.6063098907471,11.6029481887817,11.5995893478394,11.596227645874,11.5928735733032,11.5895166397095,11.5861644744873,11.5828142166138,11.5794630050659,11.5761165618896,11.5727701187134,11.5694265365601,11.5660858154297,11.5627460479736,11.5594091415405,11.5560741424561,11.5527410507202,11.5494070053101,11.5460767745972,11.5427484512329,11.5394220352173,11.5360984802246,11.5327768325806,11.5294561386108,11.5261373519897,11.5228204727173,11.5195083618164,11.5161943435669,11.5128841400146,11.509575843811,11.5062685012817,11.5029630661011,11.4996585845947,11.4963579177856,11.4930572509766,11.4897603988647,11.4864645004272,11.4831705093384,11.4798793792725,11.4765901565552,11.4733028411865,11.4700155258179,11.4667310714722,11.4634504318237,11.4601669311523,11.4568891525269,11.4536113739014,11.4503374099731,11.4470624923706,11.443793296814,11.4405241012573,11.437255859375,11.4339923858643,11.4307270050049,11.4274654388428,11.4242057800293,11.4209470748901,11.4176912307739,11.414436340332,11.4111843109131,11.4079332351685,11.4046840667725,11.401439666748,11.3981924057007,11.3949499130249,11.3917074203491,11.3884677886963,11.3852310180664,11.3819942474365,11.3787603378296,11.3755264282227,11.3722982406616,11.3690690994263,11.3658418655396,11.3626184463501,11.3593950271606,11.3561744689941,11.352952003479,11.3497362136841,11.3465213775635,11.3433074951172,11.3400945663452,11.3368844985962,11.3336753845215,11.3304691314697,11.3272647857666,11.3240623474121,11.3208599090576,11.3176612854004,11.3144617080688,11.3112659454346,11.3080730438232,11.3048782348633,11.3016891479492,11.2985000610352,11.295313835144,11.2921295166016,11.2889461517334,11.2857646942139,11.282585144043,11.2794075012207,11.2762298583984,11.2730560302734,11.2698850631714,11.266713142395,11.2635450363159,11.2603769302368,11.257212638855,11.2540493011475,11.2508878707886,11.247727394104,11.2445688247681,11.2414112091064,11.2382555007935,11.2351036071777,11.2319536209106,11.2288017272949,11.2256555557251,11.222508430481,11.2193660736084,11.2162246704102,11.2130842208862,11.2099437713623,11.2068061828613
4.47947359085083,4.49004173278809,4.50066041946411,4.51132869720459,4.52204847335815,4.53281879425049,4.54364061355591,4.55451440811157,4.56544017791748,4.57641887664795,4.58745002746582,4.59853458404541,4.60967350006104,4.62086582183838,4.63211250305176,4.64341449737549,4.65477132797241,4.666184425354,4.67765331268311,4.68917846679688,4.70076084136963,4.71240043640137,4.72409820556641,4.73585414886475,4.74766826629639,4.7595419883728,4.77147483825684,4.7834677696228,4.79552125930786,4.80763530731201,4.81981086730957,4.8320484161377,4.84434843063354,4.85671091079712,4.86913681030273,4.88162612915039,4.89418029785156,4.90679883956909,4.91948223114014,4.93223237991333,4.9450478553772,4.95793056488037,4.97088050842285,4.9838981628418,4.99698400497437,5.01013898849487,5.02336311340332,5.03665781021118,5.0500226020813,5.06345891952515,5.07696676254272,5.09054660797119,5.10419940948486,5.1179256439209,5.13172626495361,5.14560127258301,5.15955114364624,5.17357730865479,5.18767929077148,5.20185852050781,5.21611499786377,5.23045015335083,5.24486446380615,5.25935792922974,5.27393245697021,5.28858757019043,5.30332374572754,5.31814289093018,5.33304500579834,5.34803152084351,12.6625461578369,12.6585426330566,12.6545429229736,12.6505451202393,12.6465511322021,12.6425590515137,12.6385688781738,12.6345767974854,12.6305923461914,12.6266098022461,12.622631072998,12.6186532974243,12.6146793365479,12.6107082366943,12.6067371368408,12.6027698516846,12.5988054275513,12.5948438644409,12.5908832550049,12.5869245529175,12.5829706192017,12.5790185928345,12.5750675201416,12.5711193084717,12.5671768188477,12.5632333755493,12.5592937469482,12.5553550720215,12.551420211792,12.5474872589111,12.5435581207275,12.5396299362183,12.5357046127319,12.5317811965942,12.5278606414795,12.5239419937134,12.5200290679932,12.5161170959473,12.5122041702271,12.5082969665527,12.5043897628784,12.5004892349243,12.4965877532959,12.4926900863647,12.4887924194336,12.4848985671997,12.4810075759888,12.4771184921265,12.4732322692871,12.469349861145,12.4654693603516,12.4615879058838,12.4577121734619,12.4538373947144,12.4499673843384,12.4460964202881,12.4422302246094,12.4383659362793,12.4345026016235,12.430643081665,12.4267864227295,12.4229316711426,12.4190788269043,12.4152297973633,12.4113817214966,12.4075355529785,12.4036912918091,12.3998517990112,12.3960132598877,12.3921775817871,12.3883447647095,12.3845138549805,12.3806838989258,12.3768587112427,12.3730325698853,12.3692121505737,12.3653936386108,12.3615760803223,12.3577604293823,12.3539485931396,12.3501396179199,12.3463315963745,12.3425264358521,12.3387241363525,12.334924697876,12.3311233520508,12.3273296356201,12.3235349655151,12.3197441101074,12.3159561157227,12.3121681213379,12.308385848999,12.3046026229858,12.3008251190186,12.297046661377,12.293270111084,12.2894992828369,12.2857294082642,12.2819604873657,12.2781944274902,12.2744312286377,12.2706708908081,12.2669124603271,12.2631559371948,12.2594022750854,12.2556495666504,12.2519006729126,12.2481517791748,12.2444086074829,12.2406644821167,12.2369260787964,12.2331857681274,12.2294502258301,12.22571849823,12.2219858169556,12.2182569503784,12.2145328521729,12.210807800293,12.207085609436,12.2033662796021,12.1996469497681,12.1959323883057,12.1922187805176,12.1885089874268,12.1848001480103,12.1810941696167,12.1773900985718,12.1736869812012,12.1699895858765,12.1662912368774,12.1625967025757,12.1589040756226,12.1552124023438,12.1515245437622,12.1478395462036,12.1441535949707,12.1404733657837,12.136794090271,12.1331167221069,12.1294422149658,12.125768661499,12.1220989227295,12.11842918396,12.1147651672363,12.1111001968384,12.1074380874634,12.1037797927856,12.1001224517822,12.0964679718018,12.0928153991699,12.0891637802124,12.0855159759521,12.0818710327148,12.0782251358032,12.0745849609375,12.0709438323975,12.0673084259033,12.0636711120605,12.0600385665894,12.0564079284668,12.0527801513672,12.0491533279419,12.0455284118652,12.0419063568115,12.0382871627808,12.0346689224243,12.0310525894165,12.027440071106,12.023829460144,12.0202207565308,12.0166120529175,12.0130090713501,12.0094060897827,12.0058040618896,12.0022058486938,11.9986114501953,11.9950180053711,11.9914283752441,11.9878387451172,11.9842491149902,11.9806652069092,11.9770803451538,11.97350025177,11.9699201583862,11.966344833374,11.9627695083618,11.9591960906982,11.9556274414062,11.9520587921143,11.9484939575195,11.9449300765991,11.9413661956787,11.9378070831299,11.9342489242554,11.9306945800781,11.9271392822266,11.9235906600952,11.9200410842896,11.9164924621582,11.9129495620728,11.909405708313,11.9058647155762,11.9023275375366,11.8987894058228,11.8952550888062,11.8917226791382,11.8881931304932,11.8846635818481,11.8811378479004,11.8776149749756,11.8740921020508,11.8705739974976,11.8670568466187,11.8635396957397,11.8600273132324,11.8565139770508,11.853006362915,11.849497795105,11.8459949493408,11.842490196228,11.8389902114868,11.8354911804199,11.8319931030273,11.8284978866577,11.8250045776367,11.8215160369873,11.8180265426636,11.8145389556885,11.811056137085,11.8075723648071,11.8040914535522,11.8006134033203,11.7971382141113,11.7936639785767,11.790189743042,11.7867212295532,11.7832527160645,11.77978515625,11.7763233184814,11.7728586196899,11.7693996429443,11.7659425735474,11.7624864578247,11.7590322494507,11.7555818557739,11.7521324157715,11.748682975769,11.7452373504639,11.741792678833,11.7383518218994,11.7349128723145,11.7314729690552,11.7280387878418,11.7246036529541,11.7211723327637,11.7177429199219,11.714316368103,11.7108907699585,11.7074661254883,11.7040462493896,11.700626373291,11.6972064971924,11.6937913894653,11.6903781890869,11.6869668960571,11.683554649353,11.6801481246948,11.6767444610596,11.67333984375,11.669939994812,11.6665372848511,11.6631412506104,11.6597423553467,11.6563482284546,11.6529598236084,11.6495676040649,11.6461811065674,11.6427936553955,11.6394119262695,11.6360292434692,11.6326484680176,11.6292715072632,11.6258945465088,11.6225204467773,11.6191463470459,11.615777015686,11.6124095916748,11.6090421676636,11.6056795120239,11.60231590271,11.5989561080933,11.5955982208252,11.5922412872314,11.5888862609863,11.5855340957642,11.5821828842163,11.5788316726685,11.5754852294922,11.5721426010132,11.5687980651855,11.5654582977295,11.5621166229248,11.558780670166,11.5554475784302,11.5521125793457,11.5487813949585,11.5454511642456,11.5421228408813,11.5387964248657,11.535472869873,11.5321531295776,11.5288333892822,11.5255146026611,11.5221977233887,11.5188846588135,11.5155725479126,11.5122604370117,11.5089540481567,11.5056447982788,11.5023412704468,11.4990377426147,11.4957361221313,11.4924383163452,11.4891414642334,11.4858455657959,11.4825525283813,11.4792613983154,11.4759721755981,11.4726839065552,11.4693994522095,11.4661140441895,11.4628314971924,11.4595508575439,11.4562711715698,11.4529972076416,11.4497213363647,11.4464483261108,11.4431781768799,11.4399099349976,11.4366445541382,11.4333782196045,11.4301137924194,11.4268522262573,11.4235925674438,11.420334815979,11.4170789718628,11.4138259887695,11.4105710983276,11.407322883606,11.40407371521,11.4008283615112,11.3975839614868,11.3943386077881,11.3910989761353,11.3878593444824,11.3846225738525,11.3813858032227,11.37815284729,11.3749208450317,11.3716907501221,11.368462562561,11.3652353286743,11.3620100021362,11.358790397644,11.3555679321289,11.3523483276367,11.3491306304932,11.3459157943726,11.3427019119263,11.3394899368286,11.3362808227539,11.3330717086792,11.3298664093018,11.3266611099243,11.3234586715698,11.3202600479126,11.3170576095581,11.3138618469238,11.3106641769409,11.3074722290039,11.3042774200439,11.3010902404785,11.2979011535645,11.2947149276733,11.2915306091309,11.288348197937,11.2851667404175,11.2819881439209,11.2788095474243,11.2756338119507,11.2724590301514,11.2692880630493,11.2661190032959,11.2629489898682,11.2597827911377,11.2566165924072,11.2534551620483,11.2502918243408,11.2471323013306,11.2439756393433,11.2408180236816,11.2376642227173,11.2345094680786,11.2313594818115,11.2282114028931,11.2250633239746,11.2219181060791,11.2187747955322,11.2156324386597,11.2124910354614,11.2093544006348,11.2062168121338,11.2030820846558,11.1999483108521,11.196816444397,11.1936874389648,11.1905603408813,11.1874332427979,11.1843099594116,11.1811857223511,11.1780652999878,11.1749467849731,11.1718282699585,11.1687135696411,11.1655969619751,11.162486076355,11.1593732833862,11.156268119812,11.1531600952148,11.1500549316406,11.1469526290894,11.1438493728638
4.46890258789062,4.47942113876343,4.48998928070068,4.50060749053955,4.51127576828003,4.52199506759644,4.53276538848877,4.54358673095703,4.5544605255127,4.56538581848145,4.57636404037476,4.58739519119263,4.59847974777222,4.60961771011353,4.62081003189087,4.63205671310425,4.64335823059082,4.65471506118774,4.66612720489502,4.67759609222412,4.68912124633789,4.70070314407349,4.71234273910522,4.72403955459595,4.73579549789429,4.74760913848877,4.75948238372803,4.77141523361206,4.78340768814087,4.79546117782593,4.80757522583008,4.81975030899048,4.83198738098145,4.84428739547729,4.85664939880371,4.86907482147217,4.88156414031982,4.89411783218384,4.90673589706421,4.91941928863525,4.93216896057129,4.944983959198,4.95786619186401,4.97081613540649,4.98383331298828,4.99691915512085,5.0100736618042,5.02329730987549,5.03659152984619,5.04995632171631,5.06339168548584,5.07689952850342,5.09047889709473,5.1041316986084,5.11785745620728,5.13165712356567,5.14553213119507,5.1594820022583,5.17350721359253,5.18760967254639,5.20178890228271,5.21604537963867,5.23038005828857,5.24479389190674,5.25928735733032,5.27386093139648,5.28851556777954,5.30325174331665,5.31807088851929,5.33297204971313,5.34795761108398,5.36302757263184,5.37818288803101,12.5703802108765,12.5664339065552,12.5624942779541,12.5585527420044,12.5546169281006,12.5506782531738,12.5467472076416,12.5428171157837,12.5388889312744,12.5349645614624,12.5310430526733,12.52712059021,12.5232038497925,12.5192909240723,12.5153789520264,12.5114688873291,12.5075616836548,12.5036563873291,12.4997529983521,12.4958524703979,12.4919557571411,12.4880599975586,12.4841642379761,12.4802761077881,12.4763870239258,12.4725008010864,12.46861743927,12.4647369384766,12.4608573913574,12.4569816589355,12.4531087875366,12.4492378234863,12.4453687667847,12.441502571106,12.4376382827759,12.4337768554688,12.4299173355103,12.4260597229004,12.4222068786621,12.4183521270752,12.4145040512085,12.4106559753418,12.4068117141724,12.4029703140259,12.3991289138794,12.3952922821045,12.3914556503296,12.3876237869263,12.3837919235229,12.3799638748169,12.3761367797852,12.3723154067993,12.3684911727905,12.3646745681763,12.3608560562134,12.3570423126221,12.353232383728,12.3494234085083,12.3456163406372,12.3418102264404,12.3380079269409,12.33420753479,12.3304100036621,12.3266134262085,12.3228206634521,12.3190298080444,12.315242767334,12.3114566802979,12.3076725006104,12.3038911819458,12.3001117706299,12.2963361740112,12.2925596237183,12.2887887954712,12.2850189208984,12.2812528610229,12.2774848937988,12.2737236022949,12.269962310791,12.2662038803101,12.2624473571777,12.2586946487427,12.2549428939819,12.2511930465698,12.2474460601807,12.2437028884888,12.2399616241455,12.2362213134766,12.2324829101562,12.2287473678589,12.2250156402588,12.2212839126587,12.2175550460815,12.213828086853,12.2101039886475,12.2063837051392,12.2026653289795,12.1989479064941,12.1952323913574,12.1915197372437,12.1878080368042,12.184100151062,12.1803941726685,12.1766901016235,12.1729898452759,12.1692905426025,12.1655931472778,12.1619005203247,12.1582078933716,12.1545162200928,12.1508283615112,12.1471424102783,12.1434593200684,12.139778137207,12.136100769043,12.1324224472046,12.1287498474121,12.1250762939453,12.1214084625244,12.1177387237549,12.1140756607056,12.1104106903076,12.1067485809326,12.1030902862549,12.0994338989258,12.095778465271,12.0921249389648,12.0884771347046,12.08482837677,12.0811834335327,12.0775375366211,12.0738973617554,12.0702600479126,12.0666236877441,12.06298828125,12.0593538284302,12.0557250976562,12.0520963668823,12.0484704971313,12.044846534729,12.0412244796753,12.0376033782959,12.0339879989624,12.0303716659546,12.026759147644,12.0231504440308,12.0195398330688,12.0159330368042,12.0123291015625,12.0087280273438,12.005126953125,12.0015306472778,11.9979343414307,11.9943399429321,11.9907484054565,11.9871606826782,11.9835729598999,11.9799880981445,11.9764060974121,11.972825050354,11.9692468643188,11.9656686782837,11.9620952606201,11.9585218429565,11.9549541473389,11.9513854980469,11.9478206634521,11.9442548751831,11.94069480896,11.9371347427368,11.9335775375366,11.9300241470337,11.9264707565308,11.9229221343994,11.9193716049194,11.9158239364624,11.9122819900513,11.9087400436401,11.9051990509033,11.9016618728638,11.8981246948242,11.8945903778076,11.8910598754883,11.8875274658203,11.8840017318726,11.8804759979248,11.8769512176514,11.8734321594238,11.8699111938477,11.8663949966431,11.8628787994385,11.8593645095825,11.8558530807495,11.8523454666138,11.8488397598267,11.8453330993652,11.841833114624,11.8383302688599,11.8348321914673,11.8313360214233,11.8278408050537,11.8243494033813,11.8208599090576,11.8173694610596,11.8138828277588,11.8104000091553,11.8069181442261,11.8034381866455,11.7999601364136,11.796483039856,11.7930097579956,11.7895393371582,11.7860689163208,11.7826023101807,11.7791328430176,11.7756690979004,11.7722091674805,11.7687501907349,11.7652931213379,11.7618379592896,11.7583837509155,11.7549314498901,11.7514820098877,11.7480363845825,11.744589805603,11.7411470413208,11.7377042770386,11.7342653274536,11.730827331543,11.7273921966553,11.7239589691162,11.7205276489258,11.7171001434326,11.7136707305908,11.7102460861206,11.706823348999,11.7034025192261,11.6999826431274,11.6965637207031,11.6931486129761,11.6897344589233,11.6863241195679,11.6829166412354,11.6795063018799,11.6761035919189,11.6726999282837,11.6692981719971,11.6659002304077,11.6625022888184,11.6591053009033,11.6557121276855,11.6523199081421,11.6489315032959,11.6455430984497,11.6421575546265,11.6387739181519,11.6353921890259,11.6320123672485,11.6286354064941,11.6252593994141,11.6218862533569,11.6185140609741,11.6151428222656,11.6117763519287,11.6084098815918,11.6050443649292,11.6016836166382,11.5983228683472,11.5949659347534,11.591609954834,11.5882558822632,11.584903717041,11.5815544128418,11.5782032012939,11.574857711792,11.5715131759644,11.568172454834,11.5648288726807,11.5614900588989,11.5581541061401,11.5548191070557,11.5514850616455,11.5481548309326,11.544825553894,11.5414962768555,11.5381727218628,11.5348482131958,11.5315265655518,11.528208732605,11.5248899459839,11.5215749740601,11.5182600021362,11.5149488449097,11.5116386413574,11.5083322525024,11.5050258636475,11.5017185211182,11.4984188079834,11.4951162338257,11.4918184280396,11.4885215759277,11.4852256774902,11.48193359375,11.4786415100098,11.4753532409668,11.4720640182495,11.4687805175781,11.4654989242554,11.462212562561,11.4589357376099,11.4556550979614,11.4523811340332,11.449107170105,11.4458332061768,11.4425640106201,11.4392948150635,11.4360294342041,11.4327611923218,11.429500579834,11.4262380599976,11.4229784011841,11.4197216033936,11.4164667129517,11.4132137298584,11.4099617004395,11.4067096710205,11.4034643173218,11.4002161026001,11.3969736099243,11.3937282562256,11.3904886245728,11.3872509002686,11.3840131759644,11.3807783126831,11.3775434494019,11.3743133544922,11.3710832595825,11.3678550720215,11.3646287918091,11.3614053726196,11.3581838607788,11.3549604415894,11.3517417907715,11.3485269546509,11.3453102111816,11.342098236084,11.3388862609863,11.3356761932373,11.3324689865112,11.3292617797852,11.326060295105,11.3228569030762,11.3196563720703,11.3164577484131,11.3132600784302,11.3100662231445,11.3068704605103,11.3036804199219,11.3004894256592,11.2973022460938,11.2941160202026,11.2909307479858,11.2877502441406,11.2845687866211,11.2813901901245,11.2782125473022,11.2750368118286,11.2718639373779,11.2686910629272,11.2655220031738,11.2623529434204,11.2591867446899,11.2560234069824,11.2528591156006,11.2496976852417,11.2465381622314,11.2433805465698,11.2402257919312,11.2370700836182,11.2339181900024,11.230767250061,11.2276191711426,11.2244729995728,11.2213277816772,11.2181844711304,11.2150411605835,11.2119026184082,11.2087631225586,11.2056283950806,11.2024927139282,11.1993579864502,11.1962299346924,11.1930999755859,11.1899728775024,11.1868457794189,11.1837205886841,11.1806001663208,11.1774787902832,11.1743602752686,11.1712408065796,11.1681270599365,11.1650133132935,11.161901473999,11.1587915420532,11.1556806564331,11.1525754928589,11.149471282959,11.1463670730591,11.1432666778564,11.1401662826538,11.1370687484741,11.1339712142944,11.1308755874634,11.1277828216553,11.1246919631958,11.121603012085,11.1185131072998,11.1154289245605,11.1123428344727,11.109260559082,11.1061811447144,11.1031017303467,11.1000242233276,11.0969476699829,11.0938730239868,11.090802192688,11.0877294540405,11.0846614837646,11.0815954208374
4.45838165283203,4.46885061264038,4.47936868667603,4.48993682861328,4.50055456161499,4.51122283935547,4.52194166183472,4.53271150588989,4.54353284835815,4.55440616607666,4.56533145904541,4.57630968093872,4.58734035491943,4.59842443466187,4.60956239700317,4.62075424194336,4.63200044631958,4.64330196380615,4.65465831756592,4.66607046127319,4.67753887176514,4.68906402587891,4.70064544677734,4.71228504180908,4.72398138046265,4.73573684692383,4.74755048751831,4.75942325592041,4.77135610580444,4.78334808349609,4.79540109634399,4.80751466751099,4.81968975067139,4.83192682266235,4.84422588348389,4.8565878868103,4.86901330947876,4.8815016746521,4.89405536651611,4.90667343139648,4.91935634613037,4.93210554122925,4.9449200630188,4.95780229568481,4.97075128555298,4.98376846313477,4.99685382843018,5.01000833511353,5.02323150634766,5.03652572631836,5.04988956451416,5.06332492828369,5.07683229446411,5.09041166305542,5.10406351089478,5.11778926849365,5.13158845901489,5.14546298980713,5.1594123840332,5.17343759536743,5.18753910064697,5.2017183303833,5.21597480773926,5.23030948638916,5.24472332000732,5.25921630859375,5.27378940582275,5.28844356536865,5.30317974090576,5.31799793243408,5.33289957046509,5.34788465499878,5.36295366287231,5.37810850143433,5.39334917068481,12.4834356307983,12.4795436859131,12.4756574630737,12.4717712402344,12.4678859710693,12.4640045166016,12.4601268768311,12.4562501907349,12.4523773193359,12.4485063552856,12.4446392059326,12.4407739639282,12.4369096755981,12.4330492019653,12.4291896820068,12.4253349304199,12.4214811325073,12.4176301956177,12.413779258728,12.4099311828613,12.4060869216919,12.4022455215454,12.3984060287476,12.394567489624,12.3907327651978,12.3868999481201,12.3830699920654,12.3792419433594,12.3754177093506,12.3715944290161,12.367772102356,12.3639545440674,12.3601388931274,12.3563241958618,12.3525142669678,12.3487033843994,12.3448972702026,12.3410949707031,12.3372917175293,12.3334922790527,12.3296957015991,12.3259000778198,12.3221063613892,12.3183174133301,12.314528465271,12.3107433319092,12.3069591522217,12.3031797409058,12.2993993759155,12.2956247329712,12.2918510437012,12.2880783081055,12.2843103408813,12.2805414199829,12.2767772674561,12.2730140686035,12.2692546844482,12.2654972076416,12.2617406845093,12.2579860687256,12.2542362213135,12.2504873275757,12.2467422485352,12.2429971694946,12.2392559051514,12.2355175018311,12.2317800521851,12.2280445098877,12.2243118286133,12.2205829620361,12.2168531417847,12.2131280899048,12.2094030380249,12.2056827545166,12.2019643783569,12.1982469558716,12.1945333480835,12.1908197402954,12.1871109008789,12.1834020614624,12.1796979904175,12.1759929656982,12.1722917556763,12.1685934066772,12.1648988723755,12.1612033843994,12.1575126647949,12.1538219451904,12.1501340866089,12.1464500427246,12.1427659988403,12.1390867233276,12.1354074478149,12.1317310333252,12.1280565261841,12.1243858337402,12.1207141876221,12.1170482635498,12.1133823394775,12.1097192764282,12.1060581207275,12.1023998260498,12.0987453460693,12.0950899124146,12.091438293457,12.0877885818481,12.0841407775879,12.0804958343506,12.0768537521362,12.0732116699219,12.0695734024048,12.0659351348877,12.0623016357422,12.0586700439453,12.0550394058228,12.0514125823975,12.0477857589722,12.0441646575928,12.0405416488647,12.0369243621826,12.0333070755005,12.0296926498413,12.0260791778564,12.0224685668945,12.0188589096069,12.0152549743652,12.0116491317749,12.0080499649048,12.0044498443604,12.0008516311646,11.997257232666,11.9936647415161,11.9900722503662,11.9864845275879,11.9828987121582,11.9793119430542,11.9757308959961,11.972149848938,11.9685716629028,11.9649972915649,11.9614229202271,11.9578514099121,11.9542818069458,11.9507150650024,11.9471483230591,11.9435863494873,11.9400234222412,11.9364652633667,11.9329090118408,11.9293537139893,11.9258012771606,11.922251701355,11.9187030792236,11.9151563644409,11.9116125106812,11.90807056427,11.9045314788818,11.900993347168,11.8974580764771,11.8939228057861,11.8903932571411,11.8868627548218,11.8833360671997,11.879810333252,11.8762874603271,11.8727674484253,11.8692483901978,11.8657321929932,11.8622159957886,11.8587036132812,11.8551931381226,11.8516855239868,11.8481779098511,11.8446731567383,11.8411703109741,11.8376712799072,11.834171295166,11.8306789398193,11.827184677124,11.8236932754517,11.8202037811279,11.8167133331299,11.8132286071777,11.8097438812256,11.8062629699707,11.8027849197388,11.7993049621582,11.7958316802979,11.7923564910889,11.7888851165771,11.7854166030884,11.7819499969482,11.7784833908081,11.7750196456909,11.771559715271,11.7680988311768,11.7646417617798,11.7611885070801,11.7577333450317,11.754282951355,11.7508344650269,11.747386932373,11.7439413070679,11.7404975891113,11.7370567321777,11.7336177825928,11.7301826477051,11.7267446517944,11.7233123779297,11.7198839187622,11.7164525985718,11.7130270004272,11.709602355957,11.7061805725098,11.7027578353882,11.6993398666382,11.6959218978882,11.6925058364868,11.689094543457,11.6856822967529,11.6822738647461,11.6788682937622,11.6754636764526,11.6720590591431,11.6686592102051,11.6652612686157,11.6618633270264,11.6584663391113,11.6550750732422,11.6516819000244,11.6482934951782,11.644905090332,11.6415205001831,11.6381387710571,11.6347570419312,11.6313781738281,11.6280002593994,11.6246252059937,11.6212511062622,11.6178798675537,11.6145105361938,11.6111421585083,11.6077766418457,11.6044130325317,11.6010522842407,11.597692489624,11.594334602356,11.5909795761108,11.5876235961914,11.5842733383179,11.5809240341187,11.5775737762451,11.5742282867432,11.5708837509155,11.5675411224365,11.5642004013062,11.5608625411987,11.5575265884399,11.5541915893555,11.5508604049683,11.5475273132324,11.5441999435425,11.5408716201782,11.5375471115112,11.5342245101929,11.5309038162231,11.5275840759277,11.524266242981,11.5209512710571,11.5176382064819,11.5143270492554,11.5110168457031,11.5077075958252,11.5044040679932,11.5010976791382,11.4977960586548,11.49449634552,11.4911975860596,11.4879007339478,11.4846057891846,11.4813146591187,11.4780244827271,11.4747343063354,11.4714469909668,11.4681615829468,11.464879989624,11.4615983963013,11.4583177566528,11.4550409317017,11.4517631530762,11.4484910964966,11.4452171325684,11.441948890686,11.438681602478,11.43541431427,11.432149887085,11.4288864135742,11.4256258010864,11.4223680496216,11.4191093444824,11.4158544540405,11.4126005172729,11.4093494415283,11.4061002731323,11.402853012085,11.3996067047119,11.3963623046875,11.3931198120117,11.3898801803589,11.3866405487061,11.3834047317505,11.3801698684692,11.3769359588623,11.3737049102783,11.3704748153687,11.3672466278076,11.3640222549438,11.3607988357544,11.3575773239136,11.3543577194214,11.3511362075806,11.34792137146,11.3447065353394,11.3414936065674,11.3382835388184,11.3350715637207,11.3318662643433,11.3286600112915,11.3254566192627,11.3222560882568,11.3190546035767,11.3158559799194,11.3126583099365,11.3094635009766,11.3062715530396,11.3030796051025,11.2998905181885,11.2967014312744,11.2935180664062,11.2903327941895,11.2871503829956,11.2839698791504,11.2807922363281,11.2776165008545,11.2744379043579,11.2712650299072,11.2680950164795,11.2649259567261,11.261757850647,11.2585906982422,11.255428314209,11.2522640228271,11.2491044998169,11.2459449768066,11.242787361145,11.239631652832,11.2364768981934,11.233325958252,11.2301759719849,11.2270269393921,11.2238817214966,11.2207355499268,11.2175931930542,11.214451789856,11.2113122940063,11.2081756591797,11.2050371170044,11.2019023895264,11.1987714767456,11.1956396102905,11.1925115585327,11.1893835067749,11.18625831604,11.1831331253052,11.1800117492676,11.1768913269043,11.1737728118896,11.1706581115723,11.1675405502319,11.1644277572632,11.1613159179688,11.1582050323486,11.1550979614258,11.1519899368286,11.1488857269287,11.1457843780518,11.1426830291748,11.1395826339722,11.1364860534668,11.1333904266357,11.1302947998047,11.1272020339966,11.1241102218628,11.121021270752,11.1179351806641,11.1148481369019,11.1117639541626,11.108681678772,11.1056003570557,11.1025228500366,11.0994453430176,11.0963716506958,11.0932950973511,11.0902223587036,11.0871515274048,11.0840854644775,11.0810174942017,11.0779514312744,11.0748891830444,11.0718259811401,11.0687665939331,11.0657081604004,11.062650680542,11.0595960617065,11.0565395355225,11.0534896850586,11.0504398345947,11.0473918914795,11.0443458557129,11.041298866272,11.038257598877,11.0352144241333,11.0321741104126,11.0291357040405,11.0260992050171,11.0230646133423,11.0200309753418
4.44703674316406,4.4579930305481,4.46879816055298,4.47931623458862,4.48988389968872,4.50050163269043,4.51116943359375,4.521888256073,4.53265810012817,4.54347896575928,4.55435228347778,4.56527709960938,4.57625484466553,4.58728551864624,4.59836959838867,4.60950708389282,4.62069845199585,4.63194465637207,4.64324569702148,4.65460205078125,4.66601371765137,4.67748212814331,4.68900632858276,4.7005877494812,4.71222686767578,4.72392320632935,4.73567819595337,4.74749183654785,4.75936412811279,4.77129650115967,4.78328847885132,4.79534101486206,4.80745458602905,4.81962919235229,4.8318657875061,4.84416484832764,4.85652637481689,4.86895132064819,4.88143968582153,4.89399242401123,4.9066104888916,4.91929292678833,4.93204164505005,4.94485664367676,4.95773792266846,4.97068691253662,4.98370361328125,4.9967885017395,5.00994253158569,5.02316570281982,5.03645896911621,5.04982328414917,5.06325817108154,5.0767650604248,5.09034395217896,5.10399532318115,5.11772060394287,5.13151979446411,5.14539384841919,5.15934324264526,5.17336797714233,5.18746948242188,5.20164775848389,5.21590375900269,5.23023796081543,5.24465179443359,5.25914478302002,5.27371835708618,5.28837203979492,5.30310773849487,5.31792545318604,5.33282661437988,5.34781122207642,5.36288022994995,5.3780345916748,5.39327478408813,5.4086012840271,12.3976850509644,12.3938484191895,12.3900127410889,12.386176109314,12.3823490142822,12.3785228729248,12.3746957778931,12.3708734512329,12.3670520782471,12.3632354736328,12.3594188690186,12.3556060791016,12.3517942428589,12.3479862213135,12.3441791534424,12.3403759002686,12.3365745544434,12.3327760696411,12.3289804458618,12.3251838684082,12.3213939666748,12.3176031112671,12.313817024231,12.3100299835205,12.3062477111816,12.3024673461914,12.2986898422241,12.2949123382568,12.2911386489868,12.2873678207397,12.2835988998413,12.2798337936401,12.2760677337646,12.2723064422607,12.2685461044312,12.2647895812988,12.2610321044922,12.2572813034058,12.2535305023193,12.2497825622559,12.2460346221924,12.2422924041748,12.2385511398315,12.2348127365112,12.2310762405396,12.2273406982422,12.2236089706421,12.2198791503906,12.2161531448364,12.2124261856079,12.2087030410767,12.204981803894,12.2012643814087,12.197546005249,12.1938333511353,12.1901216506958,12.1864128112793,12.1827058792114,12.1789989471436,12.1752967834473,12.1715965270996,12.1678981781006,12.1642007827759,12.1605091094971,12.1568164825439,12.1531276702881,12.1494407653809,12.1457548141479,12.1420726776123,12.1383934020996,12.1347160339355,12.1310386657715,12.127366065979,12.1236934661865,12.1200256347656,12.1163568496704,12.1126918792725,12.1090297698975,12.1053705215454,12.101710319519,12.0980558395386,12.0944013595581,12.0907506942749,12.087100982666,12.0834541320801,12.0798091888428,12.0761661529541,12.0725269317627,12.068886756897,12.0652523040771,12.061616897583,12.0579872131348,12.0543556213379,12.0507287979126,12.0471019744873,12.0434799194336,12.0398597717285,12.0362415313721,12.0326261520386,12.0290107727051,12.0253982543945,12.0217876434326,12.0181789398193,12.014575958252,12.0109720230103,12.0073690414429,12.0037708282471,12.0001735687256,11.9965791702271,11.9929866790771,11.9893960952759,11.9858083724976,11.9822206497192,11.9786386489868,11.9750537872314,11.971474647522,11.9678974151611,11.9643230438232,11.960747718811,11.957179069519,11.9536075592041,11.9500427246094,11.9464778900146,11.9429149627686,11.9393539428711,11.9357957839966,11.9322414398193,11.9286842346191,11.9251327514648,11.9215831756592,11.9180345535278,11.9144887924194,11.9109449386597,11.9074029922485,11.903862953186,11.9003276824951,11.8967914581299,11.8932590484619,11.8897275924683,11.8861989974976,11.8826704025269,11.8791484832764,11.8756246566772,11.8721036911011,11.8685846328735,11.8650693893433,11.8615522384644,11.8580417633057,11.8545322418213,11.8510236740112,11.8475179672241,11.8440132141113,11.8405132293701,11.8370122909546,11.833514213562,11.8300170898438,11.8265237808228,11.8230333328247,11.819543838501,11.8160562515259,11.8125715255737,11.8090887069702,11.8056058883667,11.8021278381348,11.7986497879028,11.7951755523682,11.7917003631592,11.7882308959961,11.784761428833,11.7812948226929,11.7778291702271,11.7743663787842,11.7709064483643,11.7674465179443,11.7639894485474,11.760534286499,11.7570829391479,11.7536306381226,11.7501859664917,11.7467393875122,11.7432956695557,11.7398519515991,11.7364101409912,11.7329730987549,11.7295341491699,11.7261018753052,11.7226676940918,11.7192373275757,11.7158088684082,11.7123832702637,11.7089586257935,11.7055368423462,11.7021160125732,11.6986970901489,11.6952791213989,11.6918649673462,11.6884508132935,11.6850414276123,11.6816339492798,11.6782264709473,11.6748218536377,11.6714191436768,11.6680202484131,11.6646203994751,11.6612243652344,11.6578283309937,11.6544351577759,11.6510457992554,11.6476554870605,11.6442708969116,11.6408843994141,11.6375017166138,11.6341199874878,11.6307420730591,11.6273651123047,11.6239900588989,11.6206169128418,11.6172437667847,11.6138772964478,11.6105098724365,11.6071434020996,11.6037817001343,11.6004199981689,11.5970611572266,11.5937042236328,11.5903472900391,11.5869951248169,11.5836429595947,11.5802946090698,11.5769443511963,11.5735988616943,11.5702562332153,11.5669145584106,11.5635738372803,11.5602340698242,11.5569000244141,11.5535650253296,11.5502319335938,11.5469017028809,11.5435743331909,11.540246963501,11.5369205474854,11.5335998535156,11.5302791595459,11.5269594192505,11.5236434936523,11.5203275680542,11.5170164108276,11.5137052536011,11.5103950500488,11.5070877075195,11.5037813186646,11.5004768371582,11.4971752166748,11.49387550354,11.4905776977539,11.4872827529907,11.4839878082275,11.480694770813,11.4774045944214,11.4741163253784,11.4708299636841,11.4675464630127,11.4642610549927,11.4609794616699,11.4577007293701,11.4544239044189,11.4511489868164,11.4478759765625,11.4446039199829,11.441333770752,11.4380664825439,11.4348011016846,11.4315357208252,11.4282732009888,11.4250116348267,11.4217538833618,11.4184970855713,11.4152431488037,11.4119911193848,11.4087381362915,11.4054889678955,11.4022417068481,11.398998260498,11.3957538604736,11.3925113677979,11.389271736145,11.3860311508179,11.3827953338623,11.3795614242554,11.3763284683228,11.3730974197388,11.3698692321777,11.366641998291,11.3634176254272,11.3601922988892,11.3569717407227,11.3537521362305,11.3505325317383,11.347315788269,11.3441009521484,11.3408880233765,11.3376798629761,11.3344697952271,11.3312616348267,11.3280591964722,11.3248538970947,11.3216524124146,11.318452835083,11.3152542114258,11.3120594024658,11.3088636398315,11.3056707382202,11.3024787902832,11.2992897033691,11.2961044311523,11.2929162979126,11.2897338867188,11.2865524291992,11.283371925354,11.2801952362061,11.2770195007324,11.2738428115845,11.2706699371338,11.2674980163574,11.264328956604,11.2611618041992,11.2579975128174,11.2548322677612,11.251669883728,11.2485094070435,11.2453517913818,11.2421960830688,11.2390365600586,11.2358837127686,11.2327318191528,11.2295837402344,11.2264347076416,11.2232885360718,11.2201442718506,11.217001914978,11.2138605117798,11.2107210159302,11.2075843811035,11.2044486999512,11.2013139724731,11.1981830596924,11.1950511932373,11.1919231414795,11.1887950897217,11.1856708526611,11.1825475692749,11.1794242858887,11.176305770874,11.1731863021851,11.1700716018677,11.166955947876,11.1638412475586,11.1607313156128,11.157621383667,11.1545124053955,11.1514091491699,11.1483030319214,11.1452007293701,11.1420984268188,11.1389999389648,11.1359014511108,11.1328077316284,11.1297130584717,11.1266202926636,11.1235303878784,11.1204414367676,11.1173543930054,11.1142683029175,11.1111850738525,11.1081027984619,11.1050224304199,11.1019449234009,11.0988674163818,11.0957918167114,11.0927171707153,11.0896463394165,11.0865755081177,11.0835065841675,11.0804405212402,11.0773763656616,11.074312210083,11.0712509155273,11.068190574646,11.0651330947876,11.0620746612549,11.0590219497681,11.0559673309326,11.0529146194458,11.0498666763306,11.046817779541,11.0437707901001,11.0407285690308,11.0376853942871,11.0346441268921,11.0316019058228,11.0285663604736,11.0255279541016,11.0224933624268,11.0194616317749,11.016429901123,11.0134000778198,11.0103712081909,11.007345199585,11.0043201446533,11.0012979507446,10.9982767105103,10.9952564239502,10.9922380447388,10.9892225265503,10.9862060546875,10.9831943511963,10.9801807403564,10.9771738052368,10.9741649627686,10.9711580276489,10.9681539535522,10.9651489257812,10.9621477127075,10.9591474533081
4.43528699874878,4.44618511199951,4.45713710784912,4.46814298629761,4.47920322418213,4.48983144760132,4.50044870376587,4.51111650466919,4.52183485031128,4.53260469436646,4.5434250831604,4.55429792404175,4.56522274017334,4.57620000839233,4.58723068237305,4.59831428527832,4.60945129394531,4.62064266204834,4.63188886642456,4.64318943023682,4.65454530715942,4.66595697402954,4.67742490768433,4.68894910812378,4.70053005218506,4.71216869354248,4.72386503219604,4.73561954498291,4.74743318557739,4.75930500030518,4.77123689651489,4.78322887420654,4.79528093338013,4.80739450454712,4.8195686340332,4.83180475234985,4.84410333633423,4.85646486282349,4.86888933181763,4.88137769699097,4.89392995834351,4.90654754638672,4.91922998428345,4.93197822570801,4.94479274749756,4.95767402648926,4.97062253952026,4.98363876342773,4.99672317504883,5.00987720489502,5.02309989929199,5.03639316558838,5.04975652694702,5.06319141387939,5.07669734954834,5.09027624130249,5.10392761230469,5.11765241622925,5.13145112991333,5.14532470703125,5.15927314758301,5.17329788208008,5.18739891052246,5.20157718658447,5.21583271026611,5.23016691207886,5.24457979202271,5.25907230377197,5.27364587783813,5.28829956054688,5.30303573608398,5.31785297393799,5.33275365829468,5.34773778915405,5.36280679702759,5.37796020507812,5.3931999206543,5.40852642059326,5.42394018173218,5.4394416809082,12.3093194961548,12.305534362793,12.3017539978027,12.2979755401611,12.2941999435425,12.2904272079468,12.2866582870483,12.2828893661499,12.2791223526001,12.2753582000732,12.271595954895,12.2678384780884,12.2640800476074,12.2603254318237,12.256573677063,12.2528228759766,12.2490768432617,12.2453327178955,12.2415866851807,12.237847328186,12.2341079711914,12.230372428894,12.226637840271,12.2229061126709,12.2191772460938,12.2154512405396,12.211724281311,12.2080020904541,12.2042818069458,12.2005643844604,12.1968488693237,12.1931343078613,12.1894226074219,12.1857128143311,12.1820058822632,12.1783008575439,12.174599647522,12.1708993911743,12.1672010421753,12.1635074615479,12.1598119735718,12.1561222076416,12.1524314880371,12.1487464904785,12.1450614929199,12.1413803100586,12.1376981735229,12.1340227127075,12.1303462982178,12.1266736984253,12.1230030059814,12.1193342208862,12.115668296814,12.1120023727417,12.1083402633667,12.104679107666,12.1010236740112,12.0973672866821,12.0937147140503,12.0900621414185,12.0864143371582,12.0827665328979,12.0791234970093,12.0754804611206,12.0718412399292,12.0682029724121,12.0645666122437,12.0609340667725,12.057300567627,12.0536727905273,12.0500459671021,12.0464210510254,12.0427980422974,12.0391778945923,12.0355587005615,12.031943321228,12.0283298492432,12.0247182846069,12.021107673645,12.0175008773804,12.0138959884644,12.0102920532227,12.0066919326782,12.0030927658081,11.9994964599609,11.9959011077881,11.9923105239868,11.9887199401855,11.9851303100586,11.9815464019775,11.9779624938965,11.9743804931641,11.9708013534546,11.9672241210938,11.9636478424072,11.960075378418,11.9565048217773,11.9529371261597,11.949369430542,11.9458045959473,11.9422426223755,11.9386825561523,11.9351253509521,11.9315690994263,11.9280138015747,11.9244632720947,11.9209146499634,11.9173650741577,11.9138202667236,11.9102773666382,11.9067363739014,11.9031963348389,11.8996591567993,11.8961248397827,11.8925914764404,11.8890628814697,11.8855333328247,11.8820066452026,11.8784828186035,11.874960899353,11.8714408874512,11.8679237365723,11.8644065856934,11.8608932495117,11.8573789596558,11.8538703918457,11.8503618240356,11.8468580245972,11.8433542251587,11.8398523330688,11.836353302002,11.8328542709351,11.8293600082397,11.8258657455444,11.8223762512207,11.8188858032227,11.8154001235962,11.8119144439697,11.8084316253662,11.8049488067627,11.8014726638794,11.7979955673218,11.7945203781128,11.7910480499268,11.787576675415,11.7841091156006,11.7806406021118,11.7771778106689,11.7737150192261,11.7702550888062,11.7667951583862,11.7633409500122,11.7598838806152,11.7564325332642,11.7529830932617,11.749532699585,11.7460880279541,11.7426424026489,11.7392015457153,11.7357606887817,11.7323246002197,11.7288856506348,11.72545337677,11.722020149231,11.7185916900635,11.715163230896,11.7117357254028,11.7083139419556,11.7048902511597,11.7014694213867,11.698052406311,11.6946353912354,11.6912212371826,11.6878089904785,11.6843976974487,11.6809911727905,11.677583694458,11.6741790771484,11.6707801818848,11.6673793792725,11.6639833450317,11.6605854034424,11.6571893692017,11.6537990570068,11.6504077911377,11.6470193862915,11.6436338424683,11.6402492523193,11.6368646621704,11.6334867477417,11.6301069259644,11.6267309188843,11.6233577728271,11.6199827194214,11.6166133880615,11.6132411956787,11.6098766326904,11.6065101623535,11.6031484603882,11.5997867584229,11.5964288711548,11.593071937561,11.5897169113159,11.5863637924194,11.5830135345459,11.5796632766724,11.5763149261475,11.5729694366455,11.5696268081665,11.5662851333618,11.5629444122314,11.5596075057983,11.5562725067139,11.5529384613037,11.5496044158936,11.5462770462036,11.5429487228394,11.5396213531494,11.5362968444824,11.5329732894897,11.5296545028687,11.5263366699219,11.5230188369751,11.5197048187256,11.5163908004761,11.5130815505981,11.5097723007202,11.5064659118652,11.5031604766846,11.4998559951782,11.4965543746948,11.4932546615601,11.4899568557739,11.4866628646851,11.4833679199219,11.480076789856,11.47678565979,11.4734973907471,11.4702110290527,11.4669275283813,11.4636449813843,11.4603633880615,11.4570846557617,11.4538078308105,11.450532913208,11.4472599029541,11.4439878463745,11.4407196044922,11.4374513626099,11.4341859817505,11.4309215545654,11.4276609420776,11.4244003295898,11.4211416244507,11.4178848266602,11.4146299362183,11.4113779067993,11.4081268310547,11.404878616333,11.4016332626343,11.3983860015869,11.3951435089111,11.3919010162354,11.3886623382568,11.385422706604,11.3821878433228,11.3789548873901,11.3757190704346,11.3724899291992,11.3692626953125,11.3660345077515,11.362811088562,11.3595867156982,11.3563671112061,11.3531455993652,11.3499269485474,11.3467121124268,11.3434972763062,11.3402853012085,11.3370733261108,11.3338661193848,11.3306608200073,11.3274545669556,11.3242521286011,11.3210506439209,11.3178510665894,11.3146543502808,11.3114557266235,11.3082628250122,11.3050699234009,11.3018817901611,11.2986917495728,11.2955045700073,11.2923192977905,11.2891359329224,11.2859544754028,11.2827739715576,11.2795972824097,11.2764186859131,11.2732467651367,11.270073890686,11.2669010162354,11.2637329101562,11.2605657577515,11.2574024200439,11.2542381286621,11.2510747909546,11.2479152679443,11.2447566986084,11.2416009902954,11.2384433746338,11.2352914810181,11.2321405410767,11.2289896011353,11.2258424758911,11.2226972579956,11.2195529937744,11.2164096832275,11.2132692337036,11.2101316452026,11.2069940567017,11.2038593292236,11.2007236480713,11.1975927352905,11.1944618225098,11.191333770752,11.1882076263428,11.1850833892822,11.181960105896,11.1788387298584,11.1757192611694,11.1726007461548,11.1694850921631,11.1663703918457,11.1632566452026,11.1601457595825,11.1570377349854,11.1539278030396,11.150824546814,11.1477193832397,11.1446161270142,11.1415176391602,11.1384172439575,11.1353206634521,11.1322240829468,11.1291303634644,11.1260385513306,11.1229486465454,11.1198596954346,11.1167726516724,11.1136894226074,11.1106042861938,11.1075220108032,11.1044435501099,11.1013660430908,11.0982894897461,11.0952138900757,11.0921392440796,11.0890693664551,11.0859985351562,11.0829315185547,11.0798635482788,11.0767993927002,11.0737361907959,11.0706748962402,11.0676155090332,11.0645570755005,11.061502456665,11.0584468841553,11.0553941726685,11.0523433685303,11.0492916107178,11.0462455749512,11.0431985855103,11.0401554107666,11.0371112823486,11.0340700149536,11.0310316085815,11.0279941558838,11.024959564209,11.0219230651855,11.0188903808594,11.0158605575562,11.0128288269043,11.0098028182983,11.0067768096924,11.0037517547607,11.0007286071777,10.9977083206177,10.9946889877319,10.9916706085205,10.988655090332,10.9856386184692,10.982626914978,10.9796171188354,10.9766063690186,10.9735984802246,10.970591545105,10.9675884246826,10.9645843505859,10.9615821838379,10.9585857391357,10.9555854797363,10.9525880813599,10.9495944976807,10.9466028213501,10.9436101913452,10.9406213760376,10.9376344680786,10.9346466064453,10.931661605835,10.9286775588989,10.9256954193115,10.9227180480957,10.9197368621826,10.9167613983154,10.9137859344482,10.9108114242554,10.9078407287598,10.9048700332642,10.9019021987915,10.8989343643188
