3.84745597839355,3.85447120666504,3.86151194572449,3.86857867240906,3.87567114830017,3.88278985023499,3.88993453979492,3.89710569381714,3.90430331230164,3.91152739524841,3.91877865791321,3.92605662345886,3.93336176872253,3.94069385528564,3.94805359840393,3.95544075965881,3.96285581588745,3.97029852867126,3.97776913642883,3.98526811599731,3.99279546737671,4.0003514289856,4.00793552398682,4.01554870605469,4.02319097518921,4.03086233139038,4.03856325149536,4.04629325866699,4.05405282974243,4.06184244155884,4.06966209411621,4.07751178741455,4.08539199829102,4.09330272674561,4.10124397277832,4.10921621322632,4.1172194480896,4.12525367736816,4.13331985473633,4.14141702651978,4.14954662322998,4.15770769119263,4.16590118408203,4.17412710189819,4.18238544464111,4.19067668914795,4.19900035858154,4.20735740661621,4.21574783325195,4.22417211532593,4.23262977600098,4.24112129211426,4.24964761734009,4.25820732116699,4.2668023109436,4.27543163299561,4.28409624099731,4.29279565811157,4.30153751373291,4.31031513214111,4.3191294670105,4.32797908782959,4.33686494827271,4.34578800201416,4.3547477722168,4.36374425888062,4.37277793884277,4.38184976577759,4.39095830917358,4.40010547637939,4.40929079055786,4.41851425170898,4.42777681350708,4.43707799911499,4.44641828536987,4.45579814910889,4.46521759033203,4.47467708587646,4.48417615890503,4.4937162399292,4.50329685211182,4.51291847229004,4.52258110046387,4.53228521347046,4.54203128814697,4.55181932449341,4.56164979934692,4.57152223587036,4.5814380645752,4.59139680862427,4.60176467895508,4.61233139038086,4.62294721603394,4.63361167907715,4.64432573318481,4.65508937835693,4.66590309143066,4.67676687240601,4.68768119812012,4.69864702224731,4.70966386795044,4.72073316574097,4.73185396194458,4.74302768707275,4.75425386428833,4.76553392410278,4.77686738967896,4.788254737854,4.79969644546509,4.81119346618652,4.82274532318115,4.83435249328613,4.84601640701294,4.85773611068726,4.86951303482056,4.88134670257568,4.89323854446411,4.90518808364868,4.91719627380371,4.92926359176636,4.94139003753662,4.95357608795166,4.96582317352295,4.97813034057617,4.99049854278564,5.00292873382568,5.01542091369629,5.02797555923462,5.04059314727783,5.05327463150024,5.0660195350647,5.54944467544556,5.56386613845825,5.57836294174194,5.59293508529663,5.60758352279663,5.62230920791626,5.63711214065552,5.65199375152588,5.66695356369019,5.68199300765991,5.69711256027222,5.71231269836426,5.72759389877319,5.7429575920105,5.75840377807617,5.77393293380737,5.78954648971558,5.80524444580078,5.8210277557373,5.83689737319946,5.85285377502441,5.86889743804932,5.88502931594849,5.90124988555908,5.91756057739258,5.93396139144897,5.95045375823975,5.96703767776489,5.98371410369873,6.00048446655273,6.0173487663269,6.03430843353271,6.05136394500732,6.06851577758789,6.08576536178589,6.12214183807373,6.3234486579895,6.53844404220581,6.76857376098633,7.01549386978149,7.17094421386719,7.18178749084473,7.19266319274902,7.20357227325439,7.21451425552368,7.22548913955688,7.23649787902832,7.24754047393799,7.25861644744873,7.26972627639771,7.28087043762207,7.29204845428467,7.30326128005981,7.31450843811035,7.32579040527344,7.33710670471191,7.34845876693726,7.35984563827515,7.37126779556274,7.38272571563721,7.39421892166138,7.40574836730957,7.41731357574463,7.42891502380371,7.44055271148682,7.4522271156311,7.46393823623657,7.47568607330322,7.48747110366821,7.49929332733154,7.51115274429321,7.52304983139038,7.53498458862305,7.54695749282837,7.55896854400635,7.57101774215698,7.58310508728027,7.59523153305054,7.60739707946777,7.61960077285767,7.63184452056885,7.64412689208984,7.65644979476929,7.6688117980957,7.68121433258057,7.69365644454956,7.706139087677,7.71866273880005,7.73122644424438,7.74383163452148,7.75647783279419,7.76916551589966,7.78189468383789,7.79466581344604,7.80747842788696,7.82033395767212,7.8332314491272,7.84617137908936,7.85915422439575,7.87218046188354,7.88524961471558,7.89836263656616,7.91151905059814,7.92471933364868,7.9349308013916,7.94224309921265,7.94956874847412,7.95690822601318,7.96426105499268,7.9716272354126,7.97900724411011,7.98640108108521,7.99380874633789,8.00123023986816,8.00866508483887,8.01611423492432,8.0235767364502,8.03105354309082,8.03854370117188,8.04604816436768,8.05356693267822,8.06110000610352,8.06864643096924,8.07620716094971,8.08378219604492,8.09137153625488,8.09897518157959,8.10659313201904,8.11422538757324,8.12187194824219,8.12953281402588,8.13720893859863,8.14489841461182,8.15260314941406,8.16032218933105,8.16805648803711,8.17580413818359,8.18356800079346,8.19134616851807,8.19913864135742,8.20694637298584,8.214768409729,8.22260570526123,8.23045825958252,8.23832511901855,8.24620819091797,8.25410556793213,8.26201820373535,8.26994609832764,8.27788925170898,8.28584766387939,8.29382133483887,8.3018102645874,8.309814453125,8.31783485412598,8.3258695602417,8.3339204788208,8.34198760986328,8.35006904602051,8.35816669464111,8.3662805557251,8.37440967559814,8.38255500793457,8.39071655273438,8.39889335632324,8.40708541870117,8.4152946472168,8.42351913452148,8.43176078796387,8.44001770019531,8.44829082489014,8.45658016204834,8.46488571166992,8.4732084274292,8.48154640197754,8.48990154266357,8.49827289581299,8.5066614151001,8.51506614685059,8.52348709106445,8.5319242477417,8.54037952423096,8.54885005950928,8.55733871459961,8.56584358215332,8.57436561584473,8.58290481567383,8.59146022796631,8.6000337600708,8.60862350463867,8.61723041534424,8.62585544586182,8.63449764251709,8.64315605163574,8.65183258056641,8.66052722930908,8.66923809051514,8.6779670715332,8.68671417236328,8.69547843933105,8.70425987243652,8.71306037902832,8.7218770980835
3.84136915206909,3.84836220741272,3.85538077354431,3.86242485046387,3.86949491500854,3.87659072875977,3.88371276855469,3.89086103439331,3.89803552627563,3.90523648262024,3.91246438026428,3.91971874237061,3.92700028419495,3.93430876731873,3.9416446685791,3.94900798797607,3.95639872550964,3.96381711959839,3.97126340866089,3.9787380695343,3.98624062538147,3.99377155303955,4.00133085250854,4.00891923904419,4.01653623580933,4.02418184280396,4.03185701370239,4.03956174850464,4.04729557037354,4.0550594329834,4.06285285949707,4.07067632675171,4.07852983474731,4.08641386032104,4.0943284034729,4.10227346420288,4.1102499961853,4.11825704574585,4.126296043396,4.13436555862427,4.14246702194214,4.15060091018677,4.15876626968384,4.16696357727051,4.17519378662109,4.18345642089844,4.19175148010254,4.20007991790771,4.20844125747681,4.21683597564697,4.22526454925537,4.23372650146484,4.24222278594971,4.2507529258728,4.25931787490845,4.26791667938232,4.27655076980591,4.28521966934204,4.29392385482788,4.30266380310059,4.311439037323,4.32025480270386,4.32910966873169,4.33800029754639,4.34692811965942,4.35589218139648,4.36489343643188,4.37393188476562,4.38300800323486,4.39212226867676,4.40127372741699,4.4104642868042,4.4196925163269,4.42895984649658,4.43826627731323,4.44761180877686,4.45699644088745,4.46642065048218,4.47588539123535,4.48538970947266,4.49493503570557,4.50452089309692,4.51414775848389,4.52381563186646,4.53352499008179,4.54327630996704,4.55306959152222,4.56290531158447,4.57278347015381,4.58270502090454,4.59266901016235,4.60267639160156,4.61303377151489,4.62365293502808,4.6343207359314,4.64503812789917,4.6558051109314,4.66662168502808,4.67748928070068,4.6884069442749,4.69937610626221,4.7103967666626,4.72146892547607,4.73259353637695,4.74377059936523,4.75500059127808,4.76628398895264,4.77762079238892,4.78901195526123,4.80045747756958,4.81195783615112,4.82351350784302,4.83512449264526,4.84679174423218,4.85851526260376,4.87029600143433,4.88213348388672,4.89402914047241,4.90598297119141,4.9179949760437,4.93006610870361,4.94219636917114,4.95438671112061,4.96663761138916,4.97894859313965,4.9913215637207,5.00375556945801,5.01625156402588,5.02881050109863,5.04143238067627,5.05411767959595,5.53228950500488,5.54662132263184,5.56102800369263,5.57551002502441,5.5900673866272,5.60470104217529,5.61941146850586,5.63419914245605,5.6490650177002,5.66400957107544,5.67903327941895,5.69413709640503,5.70932102203369,5.72458648681641,5.73993396759033,5.75536346435547,5.77087688446045,5.78647327423096,5.80215501785278,5.81792163848877,5.83377408981323,5.84971332550049,5.8657398223877,5.88185405731201,5.89805746078491,5.91435050964355,5.93073320388794,5.9472074508667,5.96377325057983,5.98043203353882,5.99718379974365,6.01402950286865,6.03097009658813,6.04800701141357,6.06513977050781,6.08237028121948,6.09969854354858,6.21423196792603,6.42174291610718,6.64359140396118,6.88131713867188,7.1366868019104,7.15678739547729,7.1675877571106,7.17842054367065,7.18928575515747,7.20018434524536,7.21111631393433,7.22208118438721,7.23307943344116,7.24411153793335,7.25517702102661,7.26627635955811,7.27741003036499,7.28857755661011,7.29977941513062,7.31101560592651,7.32228708267212,7.33359289169312,7.34493350982666,7.35630989074707,7.36772060394287,7.3791675567627,7.39064979553223,7.40216779708862,7.41372203826904,7.42531251907349,7.43693923950195,7.44860172271729,7.46030139923096,7.47203826904297,7.483811378479,7.49562215805054,7.50747013092041,7.51935529708862,7.53127861022949,7.54323959350586,7.55523872375488,7.56727600097656,7.5793514251709,7.59146595001221,7.60361862182617,7.61581134796143,7.62804222106934,7.64031267166138,7.65262269973755,7.66497278213501,7.6773624420166,7.68979263305664,7.70226287841797,7.71477365493774,7.72732496261597,7.73991727828979,7.75255060195923,7.76522541046143,7.77794170379639,7.79069948196411,7.80349969863892,7.81634140014648,7.82922601699829,7.84215259552002,7.85512256622314,7.86813497543335,7.88119125366211,7.89429044723511,7.90619611740112,7.91345548629761,7.92072820663452,7.92801427841187,7.93531370162964,7.942626953125,7.94995355606079,7.95729351043701,7.96464681625366,7.9720139503479,7.97939491271973,7.98678922653198,7.99419736862183,8.00161933898926,8.00905513763428,8.01650524139404,8.02396869659424,8.03144550323486,8.03893756866455,8.04644203186035,8.05396175384521,8.06149482727051,8.06904220581055,8.07660388946533,8.08417987823486,8.09177017211914,8.09937477111816,8.10699367523193,8.11462593078613,8.12227344512939,8.1299352645874,8.13761138916016,8.14530277252197,8.15300750732422,8.16072750091553,8.16846179962158,8.1762113571167,8.18397521972656,8.19175434112549,8.19954776763916,8.20735549926758,8.21517944335938,8.22301769256592,8.23087024688721,8.23873901367188,8.24662208557129,8.25452041625977,8.2624340057373,8.27036190032959,8.27830600738525,8.28626537322998,8.29423999786377,8.30222988128662,8.31023502349854,8.31825542449951,8.32629203796387,8.33434391021729,8.34241104125977,8.35049343109131,8.35859203338623,8.36670684814453,8.37483692169189,8.38298225402832,8.39114475250244,8.39932250976562,8.40751552581787,8.41572570800781,8.42395114898682,8.4321928024292,8.44045066833496,8.4487247467041,8.45701599121094,8.46532249450684,8.47364521026611,8.48198413848877,8.49034023284912,8.49871253967285,8.50710105895996,8.51550674438477,8.52392864227295,8.53236770629883,8.54082298278809,8.54929542541504,8.55778408050537,8.5662899017334,8.57481288909912,8.58335304260254,8.59190940856934,8.60048389434814,8.60907459259033,8.61768245697021,8.62630844116211,8.63495063781738,8.64361095428467,8.65228843688965,8.66098308563232,8.66969585418701,8.67842578887939
3.83530163764954,3.84227275848389,3.84926891326904,3.85629057884216,3.86333823204041,3.87041163444519,3.87751078605652,3.88463640213013,3.89178776741028,3.89896583557129,3.90617036819458,3.91340136528015,3.92065930366516,3.92794418334961,3.93525648117065,3.94259572029114,3.94996237754822,3.95735692977905,3.96477913856506,3.97222900390625,3.97970724105835,3.9872133731842,3.99474787712097,4.00231122970581,4.00990295410156,4.01752376556396,4.02517318725586,4.03285217285156,4.04056072235107,4.04829835891724,4.05606603622437,4.0638632774353,4.07169055938721,4.07954835891724,4.08743619918823,4.09535455703735,4.10330390930176,4.11128425598145,4.11929559707642,4.12733840942383,4.13541221618652,4.14351797103882,4.15165519714355,4.15982484817505,4.16802644729614,4.17626094818115,4.18452787399292,4.19282722473145,4.20115995407104,4.20952558517456,4.21792507171631,4.22635746002197,4.23482418060303,4.24332427978516,4.25185918807983,4.2604284286499,4.26903200149536,4.27767038345337,4.28634405136108,4.29505300521851,4.30379724502563,4.31257724761963,4.32139301300049,4.33024501800537,4.33913612365723,4.34806823730469,4.35703706741333,4.36604356765747,4.37508678436279,4.38416767120361,4.39328622817993,4.40244293212891,4.4116382598877,4.42087173461914,4.4301438331604,4.43945503234863,4.44880533218384,4.45819520950317,4.46762466430664,4.4770941734314,4.4866042137146,4.49615430831909,4.50574541091919,4.51537752151489,4.5250506401062,4.53476572036743,4.54452228546143,4.55432081222534,4.5641622543335,4.57404565811157,4.58397197723389,4.59394216537476,4.60395526885986,4.61401224136353,4.62435913085938,4.6350302696228,4.64575052261353,4.65652084350586,4.66734075546265,4.67821168899536,4.68913316726685,4.70010566711426,4.71112966537476,4.72220516204834,4.73333311080933,4.74451398849487,4.75574731826782,4.76703453063965,4.77837467193604,4.78976964950562,4.80121850967407,4.81272220611572,4.82428169250488,4.83589649200439,4.84756755828857,4.85929489135742,4.87107944488525,4.88292074203491,4.89482021331787,4.90677785873413,4.91879367828369,4.93086862564087,4.94300317764282,4.95519733428955,4.96745204925537,4.97976732254028,4.9921441078186,5.00458240509033,5.01708269119263,5.0296459197998,5.04227161407471,5.05496168136597,5.52948331832886,5.54380083084106,5.55819320678711,5.57265996932983,5.58720254898071,5.60182094573975,5.61651611328125,5.63128900527954,5.64613914489746,5.66106843948364,5.67607641220093,5.69116449356079,5.70633268356323,5.72158193588257,5.73691320419312,5.75232696533203,5.76782369613647,5.7834038734436,5.79906845092773,5.81481838226318,5.83065414428711,5.84657621383667,5.86258554458618,5.8786826133728,5.89486837387085,5.91114330291748,5.92750883102417,5.94396495819092,5.96051263809204,5.97715330123901,5.99388647079468,6.01071405410767,6.02763557434082,6.04465341567993,6.061767578125,6.07897853851318,6.09628772735596,6.11369609832764,6.3091344833374,6.52314138412476,6.75217628479004,6.99787998199463,7.13196086883545,7.14268589019775,7.15344381332397,7.16423368453979,7.17505645751953,7.18591213226318,7.19680023193359,7.20772171020508,7.21867609024048,7.22966432571411,7.24068593978882,7.2517409324646,7.26282978057861,7.27395248413086,7.2851095199585,7.29630088806152,7.30752658843994,7.31878709793091,7.33008193969727,7.34141206741333,7.35277700424194,7.36417722702026,7.37561321258545,7.38708448410034,7.3985915184021,7.41013431549072,7.42171335220337,7.43332862854004,7.44498014450073,7.45666837692261,7.46839332580566,7.48015546798706,7.49195432662964,7.50379085540771,7.51566457748413,7.52757596969604,7.53952503204346,7.55151224136353,7.56353759765625,7.57560157775879,7.58770370483398,7.59984493255615,7.61202478408813,7.62424373626709,7.63650226593018,7.64880037307739,7.66113758087158,7.67351484298706,7.68593263626099,7.69839000701904,7.71088838577271,7.72342681884766,7.73600673675537,7.74862718582153,7.76128911972046,7.77399253845215,7.78673791885376,7.79952430725098,7.81235361099243,7.82522487640381,7.83813858032227,7.8510947227478,7.86409425735474,7.87713623046875,7.8848762512207,7.89209651947021,7.899329662323,7.90657663345337,7.91383647918701,7.92111015319824,7.92839670181274,7.93569707870483,7.94301080703735,7.9503378868103,7.95767879486084,7.96503305435181,7.9724006652832,7.97978258132935,7.98717784881592,7.99458646774292,8.00200939178467,8.009446144104,8.01689624786377,8.02436065673828,8.03183841705322,8.03933048248291,8.04683685302734,8.05435657501221,8.06189060211182,8.06943893432617,8.07700157165527,8.0845775604248,8.0921688079834,8.09977340698242,8.10739326477051,8.11502742767334,8.1226749420166,8.13033771514893,8.138014793396,8.14570617675781,8.15341186523438,8.1611328125,8.16886806488037,8.1766185760498,8.18438339233398,8.19216251373291,8.1999568939209,8.20776557922363,8.21558952331543,8.22342872619629,8.23128318786621,8.23915195465088,8.24703598022461,8.2549352645874,8.26284885406494,8.27077865600586,8.27872276306152,8.28668308258057,8.29465866088867,8.30264949798584,8.31065559387207,8.31867694854736,8.32671356201172,8.33476638793945,8.34283447265625,8.35091781616211,8.35901737213135,8.36713314056396,8.37526321411133,8.38341045379639,8.39157295227051,8.39975166320801,8.40794658660889,8.41615676879883,8.42438316345215,8.43262577056885,8.44088459014893,8.44915962219238,8.45745086669922,8.46575832366943,8.47408199310303,8.48242282867432,8.49077892303467,8.49915218353271,8.50754165649414,8.51594829559326,8.52437114715576,8.53281116485596,8.54126739501953,8.54973983764648,8.55823040008545,8.56673717498779,8.57526016235352,8.58380126953125,8.59235858917236,8.60093402862549,8.60952568054199,8.61813545227051,8.6267614364624,8.63540458679199
3.82925319671631,3.8362021446228,3.84317660331726,3.85017609596252,3.85720109939575,3.8642520904541,3.87132883071899,3.87843132019043,3.88556003570557,3.89271521568298,3.8998966217041,3.9071044921875,3.91433882713318,3.92160034179688,3.92888903617859,3.93620467185974,3.94354724884033,3.95091772079468,3.95831561088562,3.9657416343689,3.97319507598877,3.98067665100098,3.9881865978241,3.99572491645813,4.00329208374023,4.01088714599609,4.01851177215576,4.02616548538208,4.03384828567505,4.04156017303467,4.0493016242981,4.05707311630249,4.06487464904785,4.07270574569702,4.08056688308716,4.08845901489258,4.09638166427612,4.10433483123779,4.11231899261475,4.12033462524414,4.12838125228882,4.13645935058594,4.1445689201355,4.15271091461182,4.16088438034058,4.16909027099609,4.17732858657837,4.18559980392456,4.19390344619751,4.20224046707153,4.21061038970947,4.21901416778564,4.22745132446289,4.23592185974121,4.24442672729492,4.25296592712402,4.26153945922852,4.27014780044556,4.27879095077515,4.28746891021729,4.29618215560913,4.30493116378784,4.31371593475342,4.32253646850586,4.33139276504517,4.34028625488281,4.34921550750732,4.35818290710449,4.36719369888306,4.37624168395996,4.38532733917236,4.39445114135742,4.40361261367798,4.41281270980835,4.42205095291138,4.43132829666138,4.44064426422119,4.44999933242798,4.45939445495605,4.46882915496826,4.47830390930176,4.48781871795654,4.49737405776978,4.50697040557861,4.51660776138306,4.52628660202026,4.53600645065308,4.54576873779297,4.55557250976562,4.56541919708252,4.57530832290649,4.58524036407471,4.59521579742432,4.60523414611816,4.61529684066772,4.62540340423584,4.63573980331421,4.64646339416504,4.65723705291748,4.66806030273438,4.6789345741272,4.68985939025879,4.70083522796631,4.71186256408691,4.72294187545776,4.73407316207886,4.74525737762451,4.75649404525757,4.7677845954895,4.77912902832031,4.79052686691284,4.80197954177856,4.81348752975464,4.82505035400391,4.83666896820068,4.84834337234497,4.86007499694824,4.87186288833618,4.88370847702026,4.89561128616333,4.90757274627686,4.91959285736084,4.93167161941528,4.9438099861145,4.95600843429565,4.96826696395874,4.98058652877808,4.99296712875366,5.00540924072266,5.01791429519653,5.03048133850098,5.0431113243103,5.05580520629883,5.52667999267578,5.54098320007324,5.55536079406738,5.5698127746582,5.58434057235718,5.59894418716431,5.61362409591675,5.62838172912598,5.64321660995483,5.65813016891479,5.67312288284302,5.68819522857666,5.70334768295288,5.718581199646,5.73389625549316,5.74929332733154,5.76477384567261,5.7803373336792,5.79598569869995,5.81171846389771,5.82753705978394,5.84344244003296,5.85943460464478,5.87551403045654,5.89168262481689,5.90794038772583,5.92428779602051,5.9407262802124,5.95725584030151,5.97387790679932,5.99059295654297,6.00740146636963,6.02430486679077,6.04130411148071,6.05839872360229,6.07559108734131,6.0928807258606,6.11026954650879,6.2004075050354,6.40698099136353,6.62779331207275,6.86436939239502,7.1073055267334,7.11795711517334,7.12864017486572,7.13935565948486,7.1501030921936,7.16088342666626,7.17169570922852,7.18254089355469,7.19341945648193,7.20433044433594,7.21527481079102,7.22625207901001,7.23726320266724,7.24830770492554,7.25938653945923,7.27049875259399,7.28164529800415,7.29282569885254,7.30404090881348,7.31528997421265,7.32657432556152,7.33789396286011,7.34924793243408,7.36063718795776,7.37206220626831,7.38352203369141,7.39501810073853,7.40654993057251,7.41811800003052,7.42972183227539,7.44136190414429,7.45303869247437,7.46475219726562,7.47650289535522,7.48829030990601,7.50011491775513,7.51197719573975,7.52387714385986,7.53581476211548,7.54779005050659,7.55980348587036,7.57185554504395,7.58394575119019,7.59607458114624,7.60824251174927,7.62044954299927,7.63269567489624,7.64498138427734,7.65730667114258,7.66967153549194,7.6820764541626,7.69452142715454,7.70700693130493,7.71953296661377,7.73210000991821,7.74470806121826,7.75735712051392,7.77004766464233,7.78277969360352,7.79555368423462,7.80836963653564,7.82122755050659,7.83412790298462,7.84707117080688,7.86005735397339,7.87308597564697,7.8859920501709,7.88908290863037,7.89217567443848,7.89527082443237,7.89970970153809,7.90695714950562,7.91421794891357,7.92149209976196,7.92877960205078,7.93608045578003,7.94339466094971,7.95072269439697,7.95806407928467,7.96541929244995,7.97278785705566,7.98016977310181,7.9875659942627,7.99497556686401,8.00239849090576,8.00983619689941,8.0172872543335,8.02475166320801,8.03223133087158,8.03972339630127,8.04723072052002,8.0547513961792,8.06228637695312,8.0698356628418,8.0773983001709,8.08497619628906,8.09256744384766,8.100172996521,8.10779285430908,8.11542797088623,8.12307643890381,8.13074016571045,8.13841819763184,8.14611053466797,8.15381717681885,8.16153812408447,8.16927433013916,8.17702484130859,8.18479061126709,8.19257068634033,8.20036602020264,8.20817565917969,8.2160005569458,8.22384071350098,8.2316951751709,8.23956489562988,8.24744987487793,8.25534915924072,8.26326465606689,8.27119445800781,8.27914047241211,8.28710079193115,8.29507732391357,8.30306911468506,8.31107521057129,8.3190975189209,8.32713603973389,8.33518886566162,8.34325790405273,8.35134220123291,8.35944271087646,8.36755847930908,8.37569046020508,8.38383769989014,8.39200115203857,8.40018081665039,8.40837669372559,8.41658782958984,8.42481517791748,8.4330587387085,8.44131851196289,8.44959449768066,8.45788669586182,8.46619510650635,8.47451972961426,8.48286056518555,8.49121856689453,8.49959278106689,8.50798320770264,8.51638984680176,8.52481365203857,8.53325462341309,8.54171180725098,8.55018615722656,8.55867671966553,8.56718444824219,8.57570934295654,8.58425045013428,8.59280967712402
3.82322406768799,3.83015084266663,3.83710336685181,3.84408068656921,3.85108351707458,3.8581120967865,3.86516618728638,3.87224650382996,3.8793523311615,3.88648438453674,3.89364266395569,3.90082764625549,3.908038854599,3.91527700424194,3.92254209518433,3.92983412742615,3.93715310096741,3.94449925422668,3.9518735408783,3.95927500724792,3.96670436859131,3.97416162490845,3.98164677619934,3.98916053771973,3.99670243263245,4.00427293777466,4.01187229156494,4.01950073242188,4.0271577835083,4.03484439849854,4.04256010055542,4.05030536651611,4.05808067321777,4.0658860206604,4.07372093200684,4.0815863609314,4.08948230743408,4.09740877151489,4.10536623001099,4.11335420608521,4.12137365341187,4.12942457199097,4.13750696182251,4.14562082290649,4.15376615524292,4.16194438934326,4.1701545715332,4.1783971786499,4.18667221069336,4.19498062133789,4.20332145690918,4.2116961479187,4.22010374069214,4.22854518890381,4.23702049255371,4.24552965164185,4.25407361984253,4.26265144348145,4.27126407623291,4.27991151809692,4.28859424591064,4.29731225967407,4.30606603622437,4.31485509872437,4.32367992401123,4.33254146575928,4.34143924713135,4.3503737449646,4.35934495925903,4.36835289001465,4.37739849090576,4.38648796081543,4.39561653137207,4.40478277206421,4.41398811340332,4.42323112487793,4.43251323699951,4.44183444976807,4.45119476318359,4.46059465408325,4.4700345993042,4.47951459884644,4.4890341758728,4.49859476089478,4.50819635391235,4.51783895492554,4.52752304077148,4.53724813461304,4.54701566696167,4.55682516098022,4.56667709350586,4.57657146453857,4.58650922775269,4.59648990631104,4.60651445388794,4.61658239364624,4.62669467926025,4.63685131072998,4.64717626571655,4.6579532623291,4.66878032684326,4.67965745925903,4.69058561325073,4.70156478881836,4.71259546279907,4.72367811203003,4.73481321334839,4.74600076675415,4.75724172592163,4.76853561401367,4.77988338470459,4.79128503799438,4.80274152755737,4.81425285339355,4.82581949234009,4.83744144439697,4.84912014007568,4.86085510253906,4.87264680862427,4.88449621200562,4.89640331268311,4.90836811065674,4.92039203643799,4.93247509002686,4.94461727142334,4.95681953430176,4.96908235549927,4.98140573501587,4.99379062652588,5.0062370300293,5.01874589920044,5.03131723403931,5.04395151138306,5.50966501235962,5.52388000488281,5.53816843032837,5.55253124237061,5.56696891784668,5.58148145675659,5.59607028961182,5.6107349395752,5.62547731399536,5.64029693603516,5.65519523620605,5.67017221450806,5.68522882461548,5.70036554336548,5.71558284759521,5.73088216781616,5.74626302719116,5.76172685623169,5.7772741317749,5.79290580749512,5.80862188339233,5.82442378997803,5.84031200408936,5.85628700256348,5.87234926223755,5.88850021362305,5.90474033355713,5.92107009887695,5.93749046325684,5.95400238037109,5.97060632705688,5.98730278015137,6.00409317016602,6.02097797393799,6.0379581451416,6.05503416061401,6.07220697402954,6.0894775390625,6.10684680938721,6.12431526184082,6.29488515853882,6.50791025161743,6.73585796356201,6.98035383224487,7.0933985710144,7.10400819778442,7.11464929580688,7.1253228187561,7.13602828979492,7.14676570892334,7.15753602981567,7.16833829879761,7.17917346954346,7.19004154205322,7.20094203948975,7.2118763923645,7.22284364700317,7.23384380340576,7.24487829208374,7.25594615936279,7.26704788208008,7.27818393707275,7.28935384750366,7.30055809020996,7.31179714202881,7.32307052612305,7.33437871932983,7.34572219848633,7.35710048675537,7.36851406097412,7.37996339797974,7.39144849777222,7.4029688835144,7.41452550888062,7.42611837387085,7.43774700164795,7.44941282272339,7.46111488342285,7.47285413742065,7.48463010787964,7.4964427947998,7.50829362869263,7.52018165588379,7.53210735321045,7.54407119750977,7.55607271194458,7.56811285018921,7.58019113540649,7.59230804443359,7.60446405410767,7.61665868759155,7.62889242172241,7.6411657333374,7.65347862243652,7.66583156585693,7.67822408676147,7.6906566619873,7.70312976837158,7.71564340591431,7.72819757461548,7.74079275131226,7.75342893600464,7.76610660552979,7.7788257598877,7.79158687591553,7.80438947677612,7.8172345161438,7.8301215171814,7.84305143356323,7.85602426528931,7.86904001235962,7.88209867477417,7.89520120620728,7.90431880950928,7.90742349624634,7.91053056716919,7.91364049911499,7.91675233840942,7.91986703872681,7.92298412322998,7.92610359191895,7.9292254447937,7.93646383285522,7.94377899169922,7.95110750198364,7.9584493637085,7.96580505371094,7.97317457199097,7.98055744171143,7.98795413970947,7.99536466598511,8.00278854370117,8.01022624969482,8.01767826080322,8.02514362335205,8.03262329101562,8.04011726379395,8.0476245880127,8.05514621734619,8.06268215179443,8.07023143768311,8.07779502868652,8.085373878479,8.09296607971191,8.10057258605957,8.10819339752197,8.11582851409912,8.12347793579102,8.13114261627197,8.13882064819336,8.14651393890381,8.154221534729,8.16194343566895,8.16968059539795,8.1774320602417,8.18519878387451,8.19297981262207,8.20077514648438,8.20858573913574,8.21641159057617,8.22425174713135,8.2321081161499,8.23997783660889,8.24786376953125,8.25576496124268,8.26368045806885,8.27161121368408,8.2795581817627,8.28751945495605,8.29549598693848,8.30348873138428,8.31149673461914,8.31951904296875,8.32755851745605,8.33561229705811,8.34368228912354,8.35176753997803,8.3598690032959,8.36798572540283,8.37611865997314,8.38426685333252,8.39243125915527,8.40061092376709,8.4088077545166,8.41701984405518,8.42524814605713,8.43349266052246,8.44175338745117,8.45002937316895,8.45832252502441,8.46663188934326,8.47495746612549,8.48329925537109,8.49165821075439,8.50003337860107,8.50842475891113,8.51683235168457,8.5252571105957,8.53369903564453,8.54215717315674,8.55063152313232
3.81780314445496,3.82461166381836,3.83144497871399,3.83830261230469,3.84518527984619,3.85209202766418,3.85902404785156,3.86608099937439,3.87316417694092,3.88027358055115,3.8874089717865,3.89457082748413,3.90175914764404,3.90897393226624,3.91621565818787,3.92348408699036,3.93077945709229,3.93810200691223,3.94545221328735,3.95282959938049,3.96023488044739,3.96766757965088,3.9751284122467,3.98261737823486,3.99013471603394,3.99768042564392,4.0052547454834,4.01285743713379,4.02048969268799,4.02815055847168,4.03584098815918,4.04356050491333,4.05131006240845,4.05908918380737,4.06689786911011,4.07473707199097,4.08260631561279,4.09050607681274,4.09843683242798,4.10639810562134,4.11439037322998,4.12241363525391,4.13046836853027,4.13855457305908,4.14667272567749,4.1548228263855,4.16300487518311,4.17121934890747,4.17946577072144,4.18774557113647,4.19605779647827,4.20440340042114,4.21278238296509,4.22119426727295,4.22964000701904,4.23811960220337,4.24663352966309,4.25518131256104,4.26376390457153,4.27238082885742,4.28103303909302,4.28972053527832,4.29844284057617,4.30720090866089,4.31599473953247,4.32482481002808,4.33369064331055,4.3425931930542,4.35153245925903,4.36050844192505,4.3695216178894,4.3785719871521,4.38766002655029,4.39678573608398,4.40595388412476,4.41516351699829,4.42441177368164,4.43369913101196,4.4430251121521,4.45239067077637,4.46179580688477,4.47124052047729,4.48072528839111,4.49025058746338,4.49981641769409,4.50942277908325,4.51907062530518,4.52875995635986,4.53849077224731,4.54826354980469,4.55807828903198,4.56793546676636,4.57783555984497,4.58777856826782,4.59776496887207,4.60779476165771,4.61786890029907,4.62798643112183,4.63814878463745,4.64835596084595,4.65866994857788,4.66949987411499,4.68038082122803,4.69131231307983,4.70229482650757,4.71332931518555,4.72441530227661,4.73555374145508,4.74674510955811,4.75798892974854,4.76928663253784,4.78063774108887,4.79204320907593,4.80350303649902,4.81501817703247,4.82658815383911,4.83821439743042,4.84989643096924,4.86163520812988,4.87343072891235,4.88528394699097,4.89719486236572,4.90916395187378,4.92119169235229,4.93327856063843,4.94542455673218,4.95763111114502,4.96989774703979,4.98222541809082,4.99461364746094,5.00706481933594,5.01957750320435,5.03215312957764,5.04479169845581,5.50688171386719,5.52108240127563,5.53535652160645,5.54970455169678,5.56412744522095,5.57862567901611,5.59319925308228,5.60784912109375,5.62257623672485,5.63738059997559,5.65226316452026,5.66722440719604,5.68226528167725,5.69738626480103,5.7125883102417,5.72787094116211,5.74323606491089,5.75868368148804,5.77421426773071,5.78982925415039,5.80552911758423,5.82131385803223,5.83718490600586,5.85314273834229,5.86918783187866,5.88532161712646,5.90154409408569,5.91785621643066,5.93425846099854,5.95075225830078,5.96733808517456,5.98401641845703,6.00078821182251,6.01765441894531,6.03461599349976,6.05167293548584,6.06882667541504,6.08607816696167,6.10342788696289,6.12087678909302,6.18664455413818,6.39228677749634,6.61207008361816,6.84750509262085,7.06900930404663,7.07954597473145,7.09011363983154,7.1007137298584,7.1113452911377,7.12200832366943,7.13270378112793,7.14343166351318,7.15419149398804,7.16498374938965,7.17580890655518,7.18666648864746,7.19755697250366,7.20848083496094,7.21943807601929,7.23042821884155,7.24145174026489,7.25250911712646,7.26360082626343,7.27472591400146,7.28588533401489,7.29707908630371,7.30830717086792,7.31956958770752,7.33086729049683,7.34219980239868,7.35356712341309,7.3649697303772,7.37640810012817,7.38788175582886,7.39939165115356,7.41093683242798,7.42251825332642,7.43413591384888,7.44579029083252,7.45748090744019,7.46920871734619,7.48097324371338,7.49277496337891,7.50461339950562,7.51648998260498,7.52840375900269,7.54035615921021,7.55234575271606,7.56437397003174,7.57644033432007,7.58854532241821,7.60068893432617,7.6128716468811,7.62509346008301,7.63735437393188,7.64965534210205,7.66199541091919,7.67437553405762,7.68679571151733,7.6992564201355,7.71175718307495,7.72429895401001,7.73688125610352,7.74950456619263,7.76216983795166,7.77487564086914,7.7876238822937,7.80041360855103,7.81324529647827,7.8261194229126,7.83903646469116,7.85199546813965,7.86499786376953,7.87804317474365,7.89113187789917,7.90426445007324,7.91744041442871,7.92273044586182,7.92584943771362,7.92897129058838,7.93209552764893,7.93522214889526,7.93835115432739,7.94148302078247,7.94461679458618,7.94775342941284,7.95089244842529,7.95403385162354,7.95717811584473,7.96032428741455,7.96619129180908,7.97356128692627,7.98094511032104,7.98834276199341,7.9957537651062,8.00317859649658,8.01061725616455,8.01806926727295,8.02553558349609,8.03301620483398,8.0405101776123,8.04801845550537,8.05554103851318,8.06307792663574,8.07062816619873,8.07819271087646,8.08577156066895,8.09336471557617,8.10097217559814,8.10859394073486,8.11623001098633,8.12388038635254,8.1315450668335,8.1392240524292,8.14691829681396,8.15462684631348,8.16234970092773,8.17008781433105,8.17784023284912,8.18560695648193,8.19338893890381,8.20118522644043,8.20899677276611,8.21682357788086,8.22466468811035,8.23252105712891,8.24039268493652,8.24827861785889,8.25617980957031,8.26409721374512,8.27202892303467,8.27997589111328,8.28793811798096,8.2959156036377,8.30390930175781,8.31191730499268,8.31994152069092,8.32798099517822,8.33603572845459,8.34410667419434,8.35219287872314,8.36029529571533,8.36841297149658,8.37654590606689,8.38469505310059,8.39286041259766,8.40104198455811,8.40923881530762,8.41745185852051,8.42568111419678,8.43392658233643,8.44218730926514,8.45046520233154,8.45875930786133,8.46706962585449,8.47539615631104,8.48373889923096,8.49209785461426,8.50047397613525,8.50886631011963
3.81241464614868,3.81920433044434,3.82601809501648,3.83285641670227,3.83971929550171,3.84660673141479,3.85351848602295,3.86045551300049,3.86741781234741,3.87440490722656,3.8814172744751,3.88845539093018,3.89551877975464,3.90269112586975,3.90990948677063,3.91715455055237,3.92442631721497,3.93172526359558,3.93905162811279,3.94640493392944,3.95378637313843,3.96119499206543,3.96863126754761,3.9760959148407,3.98358845710754,3.9911093711853,3.99865865707397,4.00623655319214,4.01384353637695,4.02147912979126,4.02914428710938,4.03683805465698,4.04456186294556,4.05231475830078,4.06009769439697,4.06791067123413,4.07575368881226,4.08362674713135,4.09153079986572,4.09946537017822,4.10743045806885,4.11542654037476,4.12345409393311,4.1315131187439,4.13960313796997,4.1477255821228,4.15587949752808,4.16406583786011,4.1722846031189,4.18053531646729,4.18881893157959,4.19713592529297,4.20548582077026,4.21386861801147,4.22228527069092,4.23073530197144,4.23921918869019,4.24773740768433,4.25628995895386,4.26487684249878,4.27349853515625,4.28215503692627,4.290846824646,4.29957437515259,4.30833673477173,4.31713533401489,4.32596969604492,4.33484077453613,4.34374761581421,4.35269165039062,4.36167240142822,4.37069034576416,4.37974548339844,4.38883829116821,4.39796924591064,4.40713787078857,4.41634511947632,4.42559337615967,4.43488502502441,4.44421625137329,4.4535870552063,4.46299695968628,4.47244691848755,4.48193693161011,4.49146747589111,4.50103807449341,4.51065015792847,4.52030324935913,4.52999782562256,4.53973388671875,4.54951143264771,4.5593318939209,4.56919479370117,4.57910060882568,4.58904886245728,4.59904098510742,4.60907649993896,4.6191554069519,4.62927913665771,4.63944721221924,4.64966011047363,4.6599178314209,4.67022132873535,4.68110418319702,4.69203901290894,4.70302486419678,4.71406269073486,4.72515249252319,4.73629426956177,4.7474889755249,4.7587366104126,4.77003765106201,4.7813925743103,4.79280138015747,4.80426502227783,4.81578397750854,4.82735776901245,4.83898735046387,4.85067319869995,4.86241579055786,4.8742151260376,4.88607215881348,4.8979868888855,4.90995979309082,4.9219913482666,4.93408203125,4.94623231887817,4.95844268798828,4.97071313858032,4.98304510116577,4.99543762207031,5.00789260864258,5.02040958404541,5.03298950195312,5.04563188552856,5.50410127639771,5.51828813552856,5.53254747390747,5.54688119888306,5.56128931045532,5.57577228546143,5.59033107757568,5.60496616363525,5.61967754364014,5.63446712493896,5.64933443069458,5.6642804145813,5.67930555343628,5.69441032409668,5.70959615707397,5.72486305236816,5.74021196365356,5.75564336776733,5.77115774154663,5.78675603866577,5.80243921279907,5.81820726394653,5.83406114578247,5.8500018119812,5.86602973937988,5.88214588165283,5.89835119247437,5.91464567184448,5.9310302734375,5.94750595092773,5.9640736579895,5.98073387145996,5.99748706817627,6.0143346786499,6.03127717971802,6.04831552505493,6.0654501914978,6.08268260955811,6.10001277923584,6.11744213104248,6.13497114181519,6.28070020675659,6.49274969100952,6.71961832046509,6.96291542053223,7.055251121521,7.06574726104736,7.07627391815186,7.08683252334595,7.09742212295532,7.10804414749146,7.11869764328003,7.12938261032104,7.14010047912598,7.15085029602051,7.1616325378418,7.172447681427,7.18329524993896,7.19417524337769,7.20508909225464,7.21603536605835,7.22701549530029,7.23802852630615,7.2490758895874,7.26015615463257,7.27127122879028,7.28242015838623,7.29360294342041,7.30482006072998,7.31607246398926,7.32735919952393,7.33868074417114,7.35003709793091,7.36142921447754,7.37285614013672,7.38431882858276,7.39581727981567,7.40735149383545,7.41892194747925,7.43052816390991,7.44217109680176,7.45385074615479,7.46556663513184,7.47731971740723,7.48910999298096,7.50093698501587,7.51280212402344,7.52470397949219,7.53664445877075,7.54862260818481,7.56063842773438,7.57269334793091,7.5847864151001,7.5969181060791,7.60908842086792,7.62129783630371,7.63354682922363,7.64583539962769,7.65816307067871,7.67053079605103,7.68293857574463,7.69538688659668,7.70787525177002,7.72040414810181,7.73297357559204,7.74558448791504,7.75823640823364,7.77092981338501,7.78366470336914,7.79644155502319,7.80926036834717,7.82212162017822,7.8350248336792,7.84797096252441,7.86096000671387,7.87399196624756,7.88706731796265,7.90018606185913,7.91334867477417,7.92655515670776,7.93809652328491,7.94122791290283,7.94436168670654,7.9474983215332,7.9506368637085,7.95377826690674,7.95692205429077,7.9600682258606,7.96321678161621,7.96636819839478,7.96952199935913,7.97267818450928,7.97583675384521,7.98066473007202,7.98656129837036,7.99246644973755,7.99838018417358,8.00430297851562,8.01023387908936,8.01617431640625,8.02212333679199,8.02808094024658,8.03404808044434,8.04002380371094,8.04600811004639,8.05200099945068,8.05800342559814,8.06401538848877,8.07102489471436,8.07859039306641,8.0861701965332,8.09376430511475,8.10137271881104,8.10899448394775,8.11663150787354,8.12428283691406,8.13194847106934,8.13962841033936,8.14732360839844,8.15503215789795,8.16275596618652,8.17049407958984,8.17824745178223,8.18601512908936,8.19379806518555,8.20159530639648,8.20940780639648,8.21723461151123,8.22507762908936,8.23293399810791,8.24080657958984,8.24869346618652,8.25659561157227,8.26451396942139,8.27244567871094,8.28039455413818,8.28835773468018,8.29633617401123,8.30432987213135,8.31233882904053,8.32036399841309,8.32840442657471,8.33646011352539,8.34453105926514,8.35261821746826,8.36072158813477,8.36884021759033,8.37697410583496,8.38512420654297,8.39329051971436,8.4014720916748,8.40966987609863,8.41788387298584,8.42611408233643,8.43436050415039,8.44262218475342,8.45090103149414,8.45919513702393,8.46750640869141
3.80704140663147,3.8138120174408,3.82060670852661,3.8274257183075,3.83426904678345,3.84113669395447,3.84802913665771,3.85494637489319,3.86188864707947,3.86885571479797,3.87584805488586,3.88286566734314,3.88990879058838,3.89697790145874,3.90407228469849,3.91119265556335,3.91833901405334,3.92551159858704,3.93271040916443,3.94000148773193,3.94735860824585,3.95474314689636,3.96215534210205,3.96959567070007,3.97706389427185,3.98456001281738,3.99208450317383,3.99963784217834,4.0072193145752,4.01482963562012,4.02246952056885,4.03013801574707,4.0378360748291,4.04556322097778,4.05331993103027,4.06110715866089,4.06892395019531,4.07677030563354,4.08464765548706,4.0925555229187,4.10049390792847,4.10846328735352,4.11646366119385,4.12449502944946,4.13255786895752,4.14065265655518,4.14877891540527,4.15693712234497,4.16512727737427,4.17335033416748,4.18160533905029,4.18989324569702,4.19821405410767,4.20656824111938,4.21495580673218,4.22337627410889,4.23183107376099,4.24031925201416,4.24884223937988,4.25739908218384,4.26599073410034,4.27461671829224,4.28327798843384,4.29197406768799,4.300705909729,4.30947351455688,4.31827640533447,4.32711553573608,4.33599090576172,4.34490299224854,4.35385131835938,4.36283731460571,4.37186002731323,4.38091993331909,4.39001798629761,4.39915323257446,4.40832710266113,4.41753911972046,4.4267897605896,4.43607950210571,4.4454083442688,4.45478391647339,4.46419906616211,4.47365427017212,4.48314905166626,4.49268484115601,4.50226068496704,4.51187801361084,4.52153635025024,4.53123617172241,4.54097747802734,4.5507607460022,4.56058645248413,4.57045459747314,4.5803656578064,4.59032011032104,4.60031747817993,4.61035823822021,4.62044334411621,4.63057231903076,4.64074611663818,4.65096473693848,4.66122817993164,4.67153739929199,4.68189191818237,4.6927661895752,4.70375537872314,4.7147970199585,4.72588968276978,4.73703527450562,4.74823331832886,4.75948429107666,4.77078914642334,4.78214740753174,4.79356002807617,4.8050274848938,4.81654977798462,4.82812738418579,4.83976078033447,4.85145044326782,4.863196849823,4.875,4.88686037063599,4.89877939224243,4.91075611114502,4.92279148101807,4.93488597869873,4.94704055786133,4.9592547416687,4.97152948379517,4.98386526107788,4.99626207351685,5.00872087478638,5.02124214172363,5.03382587432861,5.48722457885742,5.50132417678833,5.51549625396729,5.52974128723145,5.54406023025513,5.55845355987549,5.57292222976685,5.58746576309204,5.60208606719971,5.61678266525269,5.63155651092529,5.64640855789185,5.66133880615234,5.6763482093811,5.69143772125244,5.70660734176636,5.72185850143433,5.73719120025635,5.75260639190674,5.7681040763855,5.78368616104126,5.79935216903687,5.81510353088379,5.83094072341919,5.84686470031738,5.86287546157837,5.87897396087646,5.89516162872314,5.91143846511841,5.92780542373657,5.94426298141479,5.96081256866455,5.977454662323,5.99418973922729,6.01101875305176,6.0279426574707,6.04496192932129,6.06207752227783,6.07929039001465,6.09660148620605,6.11401128768921,6.13152074813843,6.17294216156006,6.37765979766846,6.59642124176025,6.83072328567505,7.03112316131592,7.04154682159424,7.052001953125,7.06248807907104,7.07300519943237,7.08355379104614,7.09413385391235,7.10474586486816,7.11538934707642,7.12606477737427,7.13677263259888,7.14751243591309,7.15828418731689,7.16908931732178,7.17992639541626,7.19079685211182,7.20169973373413,7.21263599395752,7.22360563278198,7.23460865020752,7.24564552307129,7.25671529769897,7.26781988143921,7.27895784378052,7.29013013839722,7.30133724212646,7.31257820129395,7.32385396957397,7.33516502380371,7.346510887146,7.35789155960083,7.36930751800537,7.38075923919678,7.39224672317505,7.40376949310303,7.41532897949219,7.42692422866821,7.43855571746826,7.45022392272949,7.46192836761475,7.47367000579834,7.48544883728027,7.49726438522339,7.509117603302,7.52100801467896,7.53293657302856,7.54490280151367,7.55690717697144,7.56894969940186,7.58103084564209,7.59315013885498,7.605309009552,7.61750650405884,7.62974309921265,7.64201927185059,7.65433502197266,7.66669034957886,7.67908573150635,7.69152116775513,7.70399713516235,7.71651315689087,7.72907018661499,7.74166822433472,7.75430774688721,7.76698780059814,7.77971029281616,7.79247379302979,7.80527973175049,7.81812763214111,7.83101749420166,7.8439507484436,7.85692596435547,7.86994504928589,7.88300657272339,7.89611196517944,7.90926074981689,7.92245388031006,7.93569040298462,7.94897174835205,7.95666599273682,7.95981216430664,7.96296072006226,7.96611166000366,7.96926546096802,7.97242116928101,7.97557973861694,7.97874069213867,7.98346757888794,7.98936796188354,7.99527740478516,8.00119495391846,8.00712203979492,8.01305770874023,8.01900196075439,8.02495574951172,8.03091716766357,8.03688812255859,8.04286766052246,8.04885673522949,8.05485439300537,8.0608606338501,8.06687641143799,8.07290077209473,8.07893466949463,8.08497714996338,8.09102916717529,8.09708976745605,8.10315895080566,8.10923862457275,8.11532592773438,8.12142372131348,8.12753009796143,8.13364505767822,8.13976955413818,8.14590358734131,8.1520471572876,8.15819931030273,8.16436100006104,8.1705322265625,8.17671298980713,8.18290233612061,8.18910121917725,8.19531059265137,8.20152854919434,8.20775604248047,8.21399211883545,8.22023868560791,8.22649478912354,8.23334789276123,8.24122047424316,8.24910831451416,8.25701141357422,8.26492977142334,8.27286338806152,8.28081226348877,8.28877639770508,8.29675579071045,8.30475044250488,8.31276035308838,8.32078647613525,8.32882690429688,8.33688354492188,8.34495639801025,8.3530445098877,8.3611478805542,8.36926746368408,8.37740230560303,8.38555335998535,8.39371967315674,8.40190315246582,8.41010189056396,8.41831588745117,8.42654705047607
3.80168342590332,3.80843496322632,3.81521058082581,3.8220100402832,3.82883405685425,3.83568215370178,3.84255504608154,3.84945273399353,3.85637497901917,3.86332249641418,3.87029480934143,3.87729239463806,3.88431525230408,3.89136385917664,3.89843797683716,3.90553784370422,3.91266345977783,3.91981506347656,3.92699313163757,3.93419742584229,3.94142818450928,3.94868564605713,3.95596981048584,3.96328091621399,3.97061920166016,3.97803211212158,3.98553204536438,3.99306035041809,4.00061702728271,4.00820255279541,4.0158166885376,4.02345991134644,4.03113222122192,4.03883409500122,4.04656505584717,4.05432605743408,4.0621166229248,4.06993722915649,4.07778787612915,4.08566904067993,4.093581199646,4.10152339935303,4.10949659347534,4.11750078201294,4.12553644180298,4.13360357284546,4.14170217514038,4.1498327255249,4.15799474716187,4.16618967056274,4.17441654205322,4.18267583847046,4.19096803665161,4.19929313659668,4.20765161514282,4.21604347229004,4.22446870803833,4.2329273223877,4.24142026901245,4.2499475479126,4.25850868225098,4.2671046257019,4.27573537826538,4.28440093994141,4.29310178756714,4.30183839797974,4.31061029434204,4.31941795349121,4.3282618522644,4.33714199066162,4.34605836868286,4.35501194000244,4.36400270462036,4.3730297088623,4.3820948600769,4.391197681427,4.4003381729126,4.40951681137085,4.41873407363892,4.42798948287964,4.43728399276733,4.446617603302,4.4559907913208,4.46540307998657,4.47486209869385,4.48436212539673,4.49390316009521,4.50348424911499,4.51310682296753,4.52277040481567,4.53247547149658,4.54222202301025,4.55201053619385,4.56184196472168,4.57171535491943,4.58163213729858,4.59159135818481,4.6015944480896,4.61164140701294,4.62173175811768,4.63186645507812,4.64204597473145,4.65227031707764,4.6625394821167,4.67285442352295,4.68321514129639,4.69362163543701,4.70448637008667,4.71553087234497,4.72662734985352,4.73777627944946,4.74897813796997,4.76023244857788,4.77154064178467,4.78290271759033,4.79431915283203,4.80578994750977,4.81731557846069,4.82889747619629,4.84053421020508,4.85222768783569,4.86397790908813,4.8757848739624,4.88764905929565,4.89957189559937,4.91155242919922,4.92359209060669,4.93569040298462,4.94784879684448,4.96006679534912,4.97234582901001,4.98468542098999,4.99708652496338,5.00954961776733,5.02207469940186,5.03466272354126,5.48446416854858,5.49854946136475,5.51270723342896,5.52693796157837,5.5412425994873,5.55562114715576,5.57007455825806,5.58460378646851,5.59920883178711,5.61389017105103,5.62864875793457,5.64348554611206,5.6584005355835,5.67339420318604,5.68846797943115,5.70362186431885,5.71885681152344,5.73417377471924,5.74957227706909,5.76505422592163,5.78061962127686,5.79626893997192,5.81200361251831,5.82782411575317,5.84373044967651,5.8597240447998,5.87580585479736,5.89197540283203,5.90823459625244,5.92458391189575,5.94102382659912,5.95755529403687,5.9741792678833,5.99089574813843,6.00770616531372,6.0246114730835,6.04161214828491,6.05870866775513,6.07590246200562,6.09319400787354,6.1105842590332,6.12807464599609,6.14566469192505,6.26657867431641,6.47766017913818,6.70345687866211,6.94556379318237,7.01751232147217,7.0278959274292,7.03831005096436,7.04875564575195,7.05923175811768,7.06973934173584,7.08027839660645,7.09084892272949,7.10145044326782,7.11208438873291,7.12274980545044,7.13344764709473,7.14417743682861,7.15493965148926,7.16573429107666,7.17656135559082,7.1874213218689,7.19831418991089,7.20924043655396,7.22019958496094,7.23119211196899,7.24221801757812,7.25327777862549,7.26437187194824,7.27549934387207,7.28666114807129,7.29785680770874,7.3090877532959,7.32035255432129,7.33165264129639,7.34298753738403,7.35435724258423,7.36576271057129,7.3772029876709,7.38867950439453,7.40019130706787,7.41173934936523,7.42332363128662,7.43494367599487,7.44660043716431,7.45829391479492,7.47002363204956,7.4817910194397,7.49359512329102,7.50543642044067,7.51731586456299,7.52923250198364,7.54118680953979,7.5531792640686,7.56520986557007,7.57727909088135,7.58938694000244,7.60153341293335,7.61371850967407,7.62594318389893,7.63820695877075,7.65051031112671,7.6628532409668,7.67523622512817,7.68765926361084,7.70012235641479,7.7126259803772,7.72517061233521,7.73775625228882,7.75038242340088,7.7630500793457,7.77575922012329,7.78850984573364,7.80130290985107,7.81413745880127,7.8270149230957,7.83993434906006,7.85289669036865,7.86590194702148,7.87895011901855,7.89204216003418,7.9051775932312,7.91835641860962,7.93157958984375,7.94484710693359,7.95815896987915,7.97151565551758,7.97532272338867,7.9784836769104,7.98164701461792,7.98627233505249,7.99217700958252,7.9980902671814,8.00401210784912,8.00994396209717,8.01588344573975,8.02183151245117,8.02778911590576,8.0337553024292,8.0397310256958,8.04571437835693,8.05170726776123,8.05770969390869,8.063720703125,8.06974029541016,8.07576942443848,8.08180713653564,8.08785343170166,8.09390926361084,8.09997463226318,8.10604858398438,8.11213207244873,8.11822414398193,8.1243257522583,8.13043689727783,8.13655662536621,8.14268589019775,8.14882373809814,8.1549711227417,8.16112804412842,8.1672945022583,8.17347049713135,8.17965507507324,8.1858491897583,8.19205284118652,8.19826602935791,8.20448875427246,8.21072006225586,8.21696186065674,8.22321224212646,8.22947311401367,8.23574256896973,8.24202251434326,8.24831104278564,8.25461006164551,8.26091861724854,8.26723670959473,8.27356433868408,8.2799015045166,8.28624820709229,8.29260540008545,8.29897212982178,8.30534839630127,8.31173419952393,8.31813049316406,8.32453632354736,8.33095169067383,8.33737754821777,8.34381294250488,8.35025787353516,8.35671329498291,8.36317920684814,8.36965465545654,8.37613964080811,8.38263511657715,8.38914108276367
3.79634046554565,3.80307292938232,3.8098292350769,3.81660985946655,3.82341432571411,3.83024311065674,3.83709692955017,3.84397482872009,3.85087752342224,3.85780501365662,3.8647575378418,3.8717348575592,3.87873768806458,3.88576602935791,3.89281964302063,3.89989900588989,3.9070041179657,3.91413497924805,3.92129230499268,3.92847585678101,3.93568563461304,3.94292187690735,3.95018482208252,3.95747447013855,3.9647912979126,3.97213506698608,3.97950601577759,3.98690462112427,3.99433040618896,4.001784324646,4.0092658996582,4.01680421829224,4.02445125579834,4.03212690353394,4.0398325920105,4.04756736755371,4.05533218383789,4.06312704086304,4.07095146179199,4.07880592346191,4.08669137954712,4.09460687637329,4.10255336761475,4.11053085327148,4.11853885650635,4.12657880783081,4.13464975357056,4.14275217056274,4.15088701248169,4.15905332565308,4.16725206375122,4.17548322677612,4.18374681472778,4.19204330444336,4.20037317276001,4.20873546600342,4.21713161468506,4.22556114196777,4.23402452468872,4.2425217628479,4.25105333328247,4.25961875915527,4.26821947097778,4.27685451507568,4.28552484512329,4.29423046112061,4.30297136306763,4.31174802780151,4.32056045532227,4.32940912246704,4.33829355239868,4.34721517562866,4.35617351531982,4.36516857147217,4.37420082092285,4.38327074050903,4.39237833023071,4.40152359008789,4.41070747375488,4.41992902755737,4.42919015884399,4.43848943710327,4.44782829284668,4.45720624923706,4.46662378311157,4.47608184814453,4.48557949066162,4.49512195587158,4.5047082901001,4.51433563232422,4.52400493621826,4.53371524810791,4.54346704483032,4.55326128005981,4.56309795379639,4.57297658920288,4.58289861679077,4.59286403656006,4.60287237167358,4.61292457580566,4.6230206489563,4.6331615447998,4.64334630966187,4.65357637405396,4.66385126113892,4.67417192459106,4.68453884124756,4.69495105743408,4.70541000366211,4.7162652015686,4.72736549377441,4.73851728439331,4.74972295761108,4.76098108291626,4.77229261398315,4.78365802764893,4.79507827758789,4.80655288696289,4.81808233261108,4.82966709136963,4.84130811691284,4.85300493240356,4.86475896835327,4.8765697479248,4.88843822479248,4.9003643989563,4.91234922409058,4.92439222335815,4.93649530410767,4.94865703582764,4.9608793258667,4.97316217422485,4.98550605773926,4.99791097640991,5.01037836074829,5.02290773391724,5.03549957275391,5.4817066192627,5.49577760696411,5.50992107391357,5.52413749694824,5.53842735290527,5.55279159545898,5.56723022460938,5.58174467086792,5.59633445739746,5.61100101470947,5.62574434280396,5.64056539535522,5.6554651260376,5.67044353485107,5.68550157546997,5.70063972473145,5.71585845947266,5.73115921020508,5.74654150009155,5.76200723648071,5.7775559425354,5.79318904876709,5.80890703201294,5.82471036911011,5.84060001373291,5.85657644271851,5.87264060974121,5.88879299163818,5.90503454208374,5.9213662147522,5.93778800964355,5.95430135726929,5.97090721130371,5.98760557174683,6.00439739227295,6.02128410339355,6.03826570510864,6.05534362792969,6.07251834869385,6.08979034423828,6.10716152191162,6.12463188171387,6.14220237731934,6.15987396240234,6.36309957504272,6.58084630966187,6.81402349472046,6.99364042282104,7.00395393371582,7.01429748535156,7.02467155456543,7.03507614135742,7.0455117225647,7.05597877502441,7.06647634506226,7.0770058631897,7.08756637573242,7.09815835952759,7.10878229141235,7.11943817138672,7.13012552261353,7.14084529876709,7.15159749984741,7.16238212585449,7.17319917678833,7.18404912948608,7.19493198394775,7.20584726333618,7.21679639816284,7.22777891159058,7.23879432678223,7.24984359741211,7.26092672348022,7.27204370498657,7.28319501876831,7.29438018798828,7.3056001663208,7.31685447692871,7.32814359664917,7.33946752548218,7.35082674026489,7.36222124099731,7.37365055084229,7.38511562347412,7.39661645889282,7.40815353393555,7.41972637176514,7.43133544921875,7.44298028945923,7.45466279983521,7.46638107299805,7.47813701629639,7.48992967605591,7.50175952911377,7.51362657546997,7.52553176879883,7.53747415542603,7.54945516586304,7.56147384643555,7.57353115081787,7.58562660217285,7.5977611541748,7.60993480682373,7.62214708328247,7.63439846038818,7.64668941497803,7.65902042388916,7.67139101028442,7.68380165100098,7.69625234603882,7.70874357223511,7.72127532958984,7.73384761810303,7.74646139144897,7.75911617279053,7.77181243896484,7.78455018997192,7.79732990264893,7.81015157699585,7.82301568984985,7.83592224121094,7.8488712310791,7.8618631362915,7.87489795684814,7.88797664642334,7.90109825134277,7.91426372528076,7.9274730682373,7.94072675704956,7.95402479171753,7.96736764907837,7.98075532913208,7.99418783187866,8.00090503692627,8.00683212280273,8.01276683807373,8.01871109008789,8.0246639251709,8.03062534332275,8.03659534454346,8.04257488250732,8.04856300354004,8.05456066131592,8.06056690216064,8.06658172607422,8.07260608673096,8.07863903045654,8.08468151092529,8.09073257446289,8.09679222106934,8.10286235809326,8.10894012451172,8.11502838134766,8.12112426757812,8.12723064422607,8.13334560394287,8.13947010040283,8.14560317993164,8.15174579620361,8.15789794921875,8.16405963897705,8.1702299118042,8.17640972137451,8.18259906768799,8.18879795074463,8.19500637054443,8.20122337341309,8.20745086669922,8.2136869430542,8.21993255615234,8.22618865966797,8.23245334625244,8.23872756958008,8.24501132965088,8.25130558013916,8.25760841369629,8.2639217376709,8.27024364471436,8.27657604217529,8.28291797637939,8.28926944732666,8.29563140869141,8.30200290679932,8.30838394165039,8.31477451324463,8.32117462158203,8.32758522033691,8.33400630950928,8.34043598175049,8.34687614440918,8.35332679748535,8.35978698730469,8.36625671386719,8.37273693084717,8.37922763824463,8.38572788238525,8.39223766326904
3.79101228713989,3.79772591590881,3.80446338653564,3.81122493743896,3.8180103302002,3.82481980323792,3.83165383338928,3.83851218223572,3.84539532661438,3.85230302810669,3.8592357635498,3.86619305610657,3.87317609786987,3.88018393516541,3.88721776008606,3.89427661895752,3.90136122703552,3.90847158432007,3.91560840606689,3.92277073860168,3.92995953559875,3.93717503547668,3.94441652297974,3.95168495178223,3.95898032188416,3.96630263328552,3.97365188598633,3.98102855682373,3.98843264579773,3.9958643913269,4.00332403182983,4.01081132888794,4.01832675933838,4.02587032318115,4.03344202041626,4.04104280471802,4.04867219924927,4.05633926391602,4.06413745880127,4.07196569442749,4.07982444763184,4.08771371841431,4.0956335067749,4.10358381271362,4.11156511306763,4.11957740783691,4.12762117385864,4.13569641113281,4.14380311965942,4.15194177627563,4.16011238098145,4.16831541061401,4.17655038833618,4.18481874465942,4.19311952590942,4.20145320892334,4.20982027053833,4.21822023391724,4.22665452957153,4.23512172698975,4.24362373352051,4.2521595954895,4.26072978973389,4.26933479309082,4.2779746055603,4.28664922714233,4.29535913467407,4.30410480499268,4.31288623809814,4.32170343399048,4.33055639266968,4.33944606781006,4.34837198257446,4.35733509063721,4.36633491516113,4.3753719329834,4.38444709777832,4.39355945587158,4.4027099609375,4.41189813613892,4.4211254119873,4.43039083480835,4.43969583511353,4.44903945922852,4.45842266082764,4.46784543991089,4.47730827331543,4.48681116104126,4.49635457992554,4.50593852996826,4.51556539535522,4.52523994445801,4.5349555015564,4.54471302032471,4.55451250076294,4.56435441970825,4.57423877716064,4.58416604995728,4.59413719177246,4.60415077209473,4.61420869827271,4.62431049346924,4.63445711135864,4.6446475982666,4.65488338470459,4.66516447067261,4.67549085617065,4.68586301803589,4.69628143310547,4.70674610137939,4.71725749969482,4.72810316085815,4.73925924301147,4.7504677772522,4.76172971725464,4.77304458618164,4.78441429138184,4.79583740234375,4.80731582641602,4.81884908676147,4.83043766021729,4.84208250045776,4.85378313064575,4.86554050445557,4.87735509872437,4.88922739028931,4.90115737915039,4.91314601898193,4.92519330978394,4.93729972839355,4.94946575164795,4.96169233322144,4.97397899627686,4.98632669448853,4.9987359046936,5.01120710372925,5.02374076843262,5.46496629714966,5.4789514541626,5.49300861358643,5.50713777542114,5.52133989334106,5.53561496734619,5.54996490478516,5.56438875198364,5.57888793945312,5.59346294403076,5.60811471939087,5.62284278869629,5.6376485824585,5.65253305435181,5.66749572753906,5.68253803253174,5.69766044616699,5.71286344528198,5.72814798355103,5.74351406097412,5.7589635848999,5.77449560165405,5.79011201858521,5.80581331253052,5.82159996032715,5.83747243881226,5.85343170166016,5.86947870254517,5.88561391830444,5.90183782577515,5.91815185546875,5.93455600738525,5.95105123519897,5.96763849258423,5.98431873321533,6.00109243392944,6.01796007156372,6.03492307662964,6.05198192596436,6.06913757324219,6.08639049530029,6.10374212265015,6.12119293212891,6.13874387741089,6.15639543533325,6.25252056121826,6.46264028549194,6.68737316131592,6.92829895019531,6.98017454147339,6.99044752120972,7.00075149536133,7.01108551025391,7.02145004272461,7.03184509277344,7.04227161407471,7.0527286529541,7.06321668624878,7.0737361907959,7.08428716659546,7.0948691368103,7.1054835319519,7.11612939834595,7.12680721282959,7.13751697540283,7.14825868606567,7.15903329849243,7.16984033584595,7.18067979812622,7.19155216217041,7.20245790481567,7.21339654922485,7.22436857223511,7.23537349700928,7.24641275405884,7.25748491287231,7.26859140396118,7.27973222732544,7.29090690612793,7.30211591720581,7.31335973739624,7.32463788986206,7.33595085144043,7.34729909896851,7.35868263244629,7.37010145187378,7.38155555725098,7.39304542541504,7.40457105636597,7.41613245010376,7.42773008346558,7.43936443328857,7.4510350227356,7.4627423286438,7.47448635101318,7.48626756668091,7.49808597564697,7.50994157791138,7.52183485031128,7.53376579284668,7.54573440551758,7.55774164199829,7.56978702545166,7.58187055587769,7.59399318695068,7.60615396499634,7.61835432052612,7.63059377670288,7.64287281036377,7.65519094467163,7.66754913330078,7.67994737625122,7.69238567352295,7.70486402511597,7.71738338470459,7.72994327545166,7.74254417419434,7.75518608093262,7.76786947250366,7.78059434890747,7.7933611869812,7.80616998672485,7.81902074813843,7.83191394805908,7.84484958648682,7.85782814025879,7.87085008621216,7.88391494750977,7.89702320098877,7.91017532348633,7.92337083816528,7.93661069869995,7.94989490509033,7.96322393417358,7.97659730911255,7.99001598358154,8.00347995758057,8.01698875427246,8.03054428100586,8.03943824768066,8.0454216003418,8.05141448974609,8.05741596221924,8.06342601776123,8.06944561004639,8.07547378540039,8.08151149749756,8.08755779266357,8.09361267089844,8.09967708587646,8.10575103759766,8.1118335723877,8.1179256439209,8.12402725219727,8.13013744354248,8.13625621795654,8.14238548278809,8.14852333068848,8.15467071533203,8.16082668304443,8.1669921875,8.17316722869873,8.17935180664062,8.18554592132568,8.19174861907959,8.19796180725098,8.20418357849121,8.21041488647461,8.21665573120117,8.2229061126709,8.22916603088379,8.23543548583984,8.24171447753906,8.24800300598145,8.25430107116699,8.26060962677002,8.26692676544189,8.27325439453125,8.27959060668945,8.28593730926514,8.29229354858398,8.298659324646,8.30503559112549,8.31142139434814,8.31781673431396,8.32422256469727,8.33063697814941,8.33706283569336,8.34349727630615,8.34994220733643,8.35639762878418,8.3628625869751,8.36933708190918,8.37582206726074,8.38231754302979,8.38882255554199,8.39533710479736
3.78569936752319,3.79239416122437,3.79911255836487,3.80585503578186,3.81262135505676,3.81941151618958,3.82622623443604,3.83306527137756,3.83992886543274,3.84681701660156,3.85372972488403,3.86066746711731,3.86763048171997,3.87461829185486,3.88163161277771,3.88867044448853,3.89573454856873,3.90282464027405,3.90994024276733,3.9170823097229,3.92425012588501,3.9314444065094,3.93866491317749,3.94591236114502,3.95318627357483,3.96048736572266,3.96781492233276,3.97516989707947,3.98255228996277,3.98996210098267,3.99739956855774,4.00486469268799,4.01235771179199,4.01987934112549,4.02742862701416,4.03500652313232,4.04261302947998,4.05024814605713,4.05791234970093,4.06560516357422,4.07332754135132,4.08107948303223,4.08886098861694,4.09667205810547,4.10461473464966,4.11259984970093,4.12061643600464,4.12866401672363,4.13674354553223,4.1448540687561,4.15299701690674,4.16117191314697,4.16937923431396,4.17761850357056,4.18589067459106,4.19419574737549,4.20253372192383,4.21090507507324,4.21930980682373,4.22774791717529,4.23621988296509,4.24472618103027,4.25326633453369,4.26184129714966,4.27045059204102,4.27909469604492,4.28777408599854,4.29648876190186,4.30523920059204,4.31402492523193,4.32284641265869,4.33170461654663,4.34059858322144,4.34952974319458,4.35849761962891,4.36750221252441,4.37654399871826,4.38562393188477,4.39474105834961,4.40389633178711,4.41309022903442,4.42232179641724,4.43159294128418,4.44090270996094,4.45025110244751,4.45963954925537,4.46906757354736,4.47853517532349,4.48804378509521,4.49759244918823,4.5071816444397,4.51681184768677,4.5264835357666,4.5361967086792,4.54595947265625,4.55576419830322,4.56561183929443,4.57550144195557,4.5854344367981,4.59541082382202,4.60543012619019,4.61549377441406,4.62560129165649,4.63575315475464,4.6459493637085,4.65619087219238,4.6664776802063,4.67680978775024,4.68718814849854,4.69761228561401,4.708083152771,4.71860074996948,4.72916507720947,4.74000120162964,4.75121307373047,4.76247835159302,4.77379703521729,4.78517007827759,4.79659700393677,4.80807876586914,4.81961584091187,4.83120822906494,4.84285640716553,4.85456132888794,4.86632251739502,4.87814092636108,4.89001703262329,4.90195083618164,4.91394329071045,4.92599439620972,4.9381046295166,4.95027494430542,4.96250534057617,4.97479629516602,4.98714780807495,4.99956130981445,5.01203680038452,5.02457427978516,5.46222829818726,5.47619962692261,5.49024200439453,5.50435733795166,5.51854515075684,5.53280591964722,5.54714107513428,5.56155014038086,5.57603454589844,5.59059476852417,5.60523128509521,5.61994409561157,5.63473510742188,5.64960336685181,5.66455078125,5.67957735061646,5.69468402862549,5.70987129211426,5.72513961791992,5.7404899597168,5.75592279434204,5.77143859863281,5.78703880310059,5.8027229309082,5.8184928894043,5.83434867858887,5.85029077529907,5.86632061004639,5.88243818283081,5.89864444732666,5.91494083404541,5.93132734298706,5.94780445098877,5.96437406539917,5.9810357093811,5.99779081344604,6.01463985443115,6.0315842628479,6.04862451553345,6.06576108932495,6.08299493789673,6.1003270149231,6.11775779724121,6.13528919219971,6.15292072296143,6.170654296875,6.34860563278198,6.56534481048584,6.79740524291992,6.95655584335327,6.96676015853882,6.97699403762817,6.98725748062134,6.99755191802979,7.00787687301636,7.0182318687439,7.02861738204956,7.03903388977051,7.04948139190674,7.05995988845825,7.07046985626221,7.08101081848145,7.09158325195312,7.1021876335144,7.11282348632812,7.12349128723145,7.13419103622437,7.14492321014404,7.15568780899048,7.16648435592651,7.17731428146362,7.18817615509033,7.19907140731812,7.20999956130981,7.22096109390259,7.23195600509644,7.24298477172852,7.25404691696167,7.26514291763306,7.27627277374268,7.28743696212769,7.29863548278809,7.30986833572388,7.32113599777222,7.33243799209595,7.34377527236938,7.35514783859253,7.36655521392822,7.37799835205078,7.38947725296021,7.40099191665649,7.41254186630249,7.42412853240967,7.43575143814087,7.44741058349609,7.4591064453125,7.47083950042725,7.48260927200317,7.49441576004028,7.50625991821289,7.51814126968384,7.53006076812744,7.54201793670654,7.5540132522583,7.56604623794556,7.57811832427979,7.59022855758667,7.60237741470337,7.6145658493042,7.62679290771484,7.63905954360962,7.65136575698853,7.66371154785156,7.67609691619873,7.68852281570435,7.70098876953125,7.71349573135376,7.72604274749756,7.73863124847412,7.75126028060913,7.7639307975769,7.77664279937744,7.7893967628479,7.80219221115112,7.81503009796143,7.82790994644165,7.84083223342896,7.85379791259766,7.86680603027344,7.87985754013062,7.89295244216919,7.90609073638916,7.91927289962769,7.93249893188477,7.94576978683472,7.95908451080322,7.9724440574646,7.98584890365601,7.99929857254028,8.01279354095459,8.02633476257324,8.03992080688477,8.05355358123779,8.06723213195801,8.07834339141846,8.08438491821289,8.09043598175049,8.09649562835693,8.10256481170654,8.108642578125,8.11472988128662,8.12082576751709,8.12693119049072,8.13304615020752,8.13916969299316,8.14530277252197,8.15144538879395,8.15759658813477,8.16375732421875,8.1699275970459,8.17610740661621,8.18229579925537,8.18849468231201,8.1947021484375,8.20091915130615,8.20714569091797,8.21338176727295,8.21962642669678,8.22588157653809,8.23214626312256,8.2384204864502,8.244704246521,8.25099658966064,8.25729942321777,8.26361179351807,8.26993465423584,8.27626609802246,8.28260707855225,8.28895854949951,8.29531955718994,8.30169010162354,8.30807113647461,8.31446170806885,8.32086181640625,8.32727146148682,8.33369159698486,8.34012126922607,8.34656047821045,8.3530101776123,8.35947036743164,8.36594009399414,8.3724193572998,8.37890911102295,8.38540935516357,8.39191913604736,8.39843940734863
3.7804012298584,3.78707718849182,3.79377698898315,3.80050015449524,3.80724740028381,3.81401872634888,3.82081413269043,3.82763385772705,3.83447790145874,3.84134650230408,3.84823966026306,3.85515761375427,3.86210060119629,3.86906862258911,3.87606167793274,3.88308024406433,3.89012408256531,3.89719367027283,3.90428900718689,3.9114100933075,3.9185574054718,3.92573070526123,3.93293046951294,3.94015645980835,3.94740915298462,3.95468878746033,3.96199512481689,3.9693284034729,3.9766891002655,3.98407697677612,3.9914927482605,3.99893593788147,4.00640678405762,4.01390552520752,4.02143287658691,4.02898788452148,4.03657197952271,4.04418420791626,4.05182552337646,4.05949544906616,4.06719446182251,4.07492303848267,4.08268070220947,4.09046840667725,4.09828567504883,4.10613250732422,4.11400985717773,4.12191724777222,4.12985563278198,4.13782405853271,4.1459059715271,4.15405321121216,4.16223192214966,4.17044305801392,4.17868709564209,4.18696355819702,4.19527292251587,4.20361518859863,4.21199083328247,4.22039937973022,4.22884225845337,4.23731851577759,4.2458291053772,4.2543740272522,4.26295328140259,4.27156686782837,4.28021621704102,4.28889989852905,4.2976188659668,4.30637407302856,4.31516408920288,4.32399082183838,4.33285331726074,4.34175252914429,4.35068798065186,4.35966062545776,4.36866998672485,4.37771701812744,4.38680124282837,4.39592361450195,4.40508413314819,4.41428232192993,4.42351961135864,4.43279504776001,4.44211006164551,4.45146369934082,4.46085739135742,4.470290184021,4.47976350784302,4.48927688598633,4.49883079528809,4.50842523574829,4.51806116104126,4.52773809432983,4.53745651245117,4.54721641540527,4.55701875686646,4.56686973571777,4.5767650604248,4.58670377731323,4.5966854095459,4.60671043395996,4.61677932739258,4.62689256668091,4.63704967498779,4.64725208282471,4.65749931335449,4.66779184341431,4.67813014984131,4.6885142326355,4.69894409179688,4.70942068099976,4.7199444770813,4.73051500320435,4.74113321304321,4.7519588470459,4.76322746276855,4.77454996109009,4.7859263420105,4.79735708236694,4.80884218215942,4.82038307189941,4.83197927474976,4.84363126754761,4.85533952713013,4.86710453033447,4.8789267539978,4.89080667495728,4.90274429321289,4.91474103927612,4.92679595947266,4.93891000747681,4.95108413696289,4.96331882476807,4.97561359405518,4.98796939849854,5.0003867149353,5.01286649703979,5.02540826797485,5.4594931602478,5.47345018386841,5.48747873306274,5.50157928466797,5.5157527923584,5.52999925613403,5.54431962966919,5.55871438980103,5.5731840133667,5.58772945404053,5.60235071182251,5.61704874038696,5.63182401657104,5.64667749404907,5.66160917282104,5.67662048339844,5.69171094894409,5.70688247680664,5.72213459014893,5.73746871948242,5.75288534164429,5.76838493347168,5.78396844863892,5.79963636398315,5.81538915634155,5.83122777938843,5.8471531867981,5.86316537857056,5.87926578521729,5.89545488357544,5.91173315048218,5.92810201644897,5.94456148147583,5.96111249923706,5.97775602340698,5.99449300765991,6.01132345199585,6.02824926376343,6.04527044296265,6.06238794326782,6.07960224151611,6.09691524505615,6.11432695388794,6.13183832168579,6.14945030212402,6.16716384887695,6.23852586746216,6.4476900100708,6.6713662147522,6.91111898422241,6.94323205947876,6.95339679718018,6.96359157562256,6.97381591796875,6.98407077789307,6.99435567855835,7.0046706199646,7.01501607894897,7.02539253234863,7.03579950332642,7.04623746871948,7.05670595169067,7.06720638275146,7.07773780822754,7.0883002281189,7.09889507293701,7.10952091217041,7.12017869949341,7.13086843490601,7.14159059524536,7.15234518051147,7.16313171386719,7.17395114898682,7.18480348587036,7.19568824768066,7.20660638809204,7.21755743026733,7.2285418510437,7.2395601272583,7.25061178207397,7.26169729232788,7.27281665802002,7.28397035598755,7.29515790939331,7.30638027191162,7.31763696670532,7.32892847061157,7.34025478363037,7.35161638259888,7.36301326751709,7.37444496154785,7.38591289520264,7.39741611480713,7.40895557403564,7.42053079605103,7.43214225769043,7.44379043579102,7.45547485351562,7.46719598770142,7.47895383834839,7.49074935913086,7.50258207321167,7.51445150375366,7.52635908126831,7.53830480575562,7.55028820037842,7.56230974197388,7.57436943054199,7.58646774291992,7.59860467910767,7.61078071594238,7.62299585342407,7.63525009155273,7.64754390716553,7.65987777709961,7.67225074768066,7.68466424942017,7.69711780548096,7.7096118927002,7.72214651107788,7.73472166061401,7.74733829498291,7.75999593734741,7.77269506454468,7.78543615341187,7.79821825027466,7.81104326248169,7.82391023635864,7.83681917190552,7.84977149963379,7.86276626586914,7.87580442428589,7.88888549804688,7.90201044082642,7.91517925262451,7.928391456604,7.94164848327637,7.95494937896729,7.96829509735107,7.98168611526489,7.99512147903442,8.00860214233398,8.02212905883789,8.03570175170898,8.04932022094727,8.06298446655273,8.07669544219971,8.09045314788818,8.10425758361816,8.11762714385986,8.12372779846191,8.12983798980713,8.13595676422119,8.14208507537842,8.14822196960449,8.15436935424805,8.16052532196045,8.16669082641602,8.17286491394043,8.17904853820801,8.18524265289307,8.19144535064697,8.19765663146973,8.20387840270996,8.21010971069336,8.21634960174561,8.22259998321533,8.22885990142822,8.23512840270996,8.24140739440918,8.24769496917725,8.25399303436279,8.2603006362915,8.26661682128906,8.2729434967041,8.27928066253662,8.28562641143799,8.29198265075684,8.29834747314453,8.30472278594971,8.31110858917236,8.31750297546387,8.32390785217285,8.33032321929932,8.33674716949463,8.34318161010742,8.3496265411377,8.35608100891113,8.36254501342773,8.36901950836182,8.37550449371338,8.38199901580811,8.388503074646,8.39501857757568,8.40154266357422
3.77511763572693,3.78177523612976,3.78845620155334,3.79516053199768,3.80188870429993,3.80864095687866,3.81541728973389,3.8222177028656,3.82904243469238,3.83589148521423,3.84276509284973,3.84966325759888,3.85658645629883,3.86353445053101,3.87050795555115,3.87750601768494,3.88452982902527,3.89157915115356,3.89865398406982,3.90575456619263,3.91288113594055,3.92003345489502,3.92721247673035,3.9344174861908,3.9416491985321,3.94890737533569,3.95619249343872,3.96350431442261,3.97084331512451,3.97820949554443,3.98560333251953,3.99302434921265,4.0004734992981,4.00795030593872,4.01545476913452,4.02298736572266,4.03054857254028,4.0381383895874,4.04575681686401,4.05340385437012,4.06107997894287,4.06878519058228,4.07651948928833,4.08428335189819,4.09207725524902,4.0999002456665,4.10775375366211,4.11563730239868,4.12355089187622,4.13149547576904,4.13947010040283,4.1474757194519,4.15551280975342,4.16358041763306,4.17167997360229,4.17981147766113,4.18803691864014,4.19635057449341,4.2046971321106,4.2130765914917,4.22149038314819,4.2299370765686,4.2384181022644,4.24693298339844,4.25548219680786,4.26406574249268,4.27268409729004,4.28133773803711,4.29002618789673,4.29874992370605,4.30750942230225,4.31630420684814,4.32513523101807,4.33400297164917,4.34290647506714,4.35184669494629,4.36082410812378,4.36983823776245,4.37889051437378,4.38797950744629,4.39710664749146,4.40627193450928,4.41547536849976,4.42471742630005,4.43399810791016,4.44331789016724,4.45267724990845,4.46207571029663,4.47151374816895,4.48099231719971,4.49051094055176,4.50007009506226,4.5096697807312,4.51931095123291,4.52899312973022,4.5387167930603,4.5484824180603,4.55829048156738,4.56814050674438,4.57803344726562,4.58797311782837,4.59796047210693,4.60799121856689,4.61806535720825,4.62818431854248,4.63834762573242,4.64855575561523,4.65880870819092,4.66910696029663,4.67945051193237,4.68984031677246,4.70027685165405,4.71075916290283,4.72128915786743,4.73186540603638,4.7424898147583,4.75316190719604,4.76397705078125,4.77530288696289,4.78668260574341,4.79811716079712,4.80960607528687,4.82115030288696,4.83275032043457,4.84440612792969,4.85611820220947,4.86788702011108,4.87971305847168,4.89159679412842,4.9035382270813,4.91553831100464,4.9275975227356,4.93971586227417,4.95189380645752,4.96413230895996,4.97643089294434,4.98879098892212,5.00121259689331,5.01369619369507,5.4428882598877,5.45676040649414,5.47070360183716,5.48471832275391,5.49880456924438,5.51296377182007,5.52719593048096,5.54150152206421,5.55588150024414,5.57033681869507,5.58486700057983,5.59947347640991,5.6141562461853,5.62891626358032,5.64375448226929,5.65867042541504,5.67366600036621,5.6887412071228,5.70389652252197,5.71913290023804,5.73445129394531,5.74985122680664,5.76533460617065,5.78090143203735,5.79655265808105,5.81228876113892,5.82811069488525,5.84401845932007,5.86001396179199,5.87609672546387,5.89226865768433,5.90852928161621,5.92488050460815,5.941321849823,5.95785474777222,5.97448015213013,5.99119853973389,6.00801086425781,6.02491760253906,6.04192018508911,6.05901861190796,6.07621383666992,6.09350728988647,6.11089944839478,6.12839126586914,6.14598369598389,6.16367673873901,6.18147230148315,6.33417749404907,6.54991579055786,6.78086805343628,6.91986227035522,6.92995929718018,6.94008493423462,6.95024061203003,6.96042585372925,6.97064113616943,6.98088645935059,6.99116230010986,7.00146770477295,7.01180362701416,7.02217054367065,7.03256797790527,7.04299640655518,7.0534553527832,7.06394577026367,7.07446765899658,7.08502054214478,7.09560489654541,7.10622119903564,7.11686944961548,7.12754917144775,7.13826131820679,7.14900541305542,7.15978240966797,7.17059135437012,7.18143367767334,7.19230842590332,7.20321607589722,7.21415662765503,7.22513103485107,7.23613882064819,7.24717998504639,7.25825500488281,7.26936388015747,7.28050661087036,7.29168367385864,7.30289506912231,7.31414127349854,7.3254222869873,7.33673763275146,7.34808826446533,7.35947370529175,7.37089490890503,7.38235187530518,7.39384412765503,7.40537214279175,7.41693639755249,7.4285364151001,7.44017314910889,7.4518461227417,7.46355581283569,7.47530269622803,7.4870867729187,7.49890756607056,7.51076555252075,7.5226616859436,7.53459501266479,7.5465669631958,7.5585765838623,7.57062435150146,7.58271074295044,7.59483575820923,7.60699987411499,7.61920261383057,7.63144493103027,7.64372634887695,7.65604734420776,7.66840839385986,7.68080949783325,7.69325065612793,7.7057318687439,7.71825361251831,7.73081636428833,7.74342012405396,7.75606536865234,7.76875114440918,7.7814793586731,7.79424905776978,7.80706024169922,7.8199143409729,7.8328104019165,7.84574890136719,7.85873079299927,7.87175512313843,7.88482332229614,7.8979344367981,7.9110894203186,7.92428827285767,7.93753147125244,7.95081853866577,7.96415042877197,7.97752714157104,7.99094915390015,8.00441646575928,8.01792812347412,8.03148651123047,8.045090675354,8.05874061584473,8.07243728637695,8.08618068695068,8.09997081756592,8.11380767822266,8.12769222259521,8.14162445068359,8.15560436248779,8.16345596313477,8.1696252822876,8.17580413818359,8.18199253082275,8.18819046020508,8.19439792633057,8.2006139755249,8.20684051513672,8.21307563781738,8.21932125091553,8.22557544708252,8.23183917999268,8.238112449646,8.2443962097168,8.25068855285645,8.25699138641357,8.26330280303955,8.26962471008301,8.27595615386963,8.28229713439941,8.28864765167236,8.29500770568848,8.30137825012207,8.30775833129883,8.31414794921875,8.32054805755615,8.32695770263672,8.33337688446045,8.33980560302734,8.34624576568604,8.35269451141357,8.35915374755859,8.36562252044678,8.37210178375244,8.37859153747559,8.38509082794189,8.39159965515137,8.39811992645264,8.40464973449707
3.76984906196594,3.7764880657196,3.78315019607544,3.78983592987061,3.7965452671051,3.80327844619751,3.81003570556641,3.81681704521179,3.82362222671509,3.83045196533203,3.83730602264404,3.84418487548828,3.85108828544617,3.85801649093628,3.8649697303772,3.87194800376892,3.87895154953003,3.8859806060791,3.89303517341614,3.90011525154114,3.90722131729126,3.91435289382935,3.92151117324829,3.92869520187378,3.93590593338013,3.94314289093018,3.95040655136108,3.95769715309143,3.96501469612122,3.97235918045044,3.97973108291626,3.98713064193726,3.99455714225769,4.00201177597046,4.00949430465698,4.01700496673584,4.02454328536987,4.03211069107056,4.03970623016357,4.04733037948608,4.05498313903809,4.0626654624939,4.0703763961792,4.07811737060547,4.08588695526123,4.09368705749512,4.10151624679565,4.10937595367432,4.11726570129395,4.1251859664917,4.13313627243042,4.14111757278442,4.14912986755371,4.15717315673828,4.16524744033813,4.17335367202759,4.18149089813232,4.18966007232666,4.19786167144775,4.20609521865845,4.21436071395874,4.22265911102295,4.231032371521,4.23951768875122,4.24803733825684,4.25659084320068,4.26517915725708,4.27380180358887,4.28245973587036,4.29115295410156,4.29988098144531,4.30864524841309,4.31744480133057,4.32628059387207,4.3351526260376,4.34406137466431,4.35300636291504,4.36198854446411,4.37100791931152,4.38006401062012,4.38915824890137,4.39829063415527,4.40746068954468,4.41666889190674,4.42591619491577,4.43520164489746,4.44452667236328,4.45389080047607,4.463294506073,4.47273826599121,4.48222160339355,4.49174547195435,4.50130987167358,4.51091480255127,4.52056121826172,4.53024864196777,4.53997802734375,4.54974889755249,4.55956268310547,4.56941795349121,4.57931661605835,4.58925771713257,4.59924268722534,4.60927248001099,4.6193528175354,4.62947702407837,4.63964605331421,4.64985990524292,4.6601185798645,4.67042255401611,4.68077230453491,4.6911678314209,4.70161008834839,4.71209859848022,4.72263431549072,4.73321676254272,4.74384737014771,4.75452518463135,4.76525163650513,4.77605581283569,4.78743934631348,4.79887723922729,4.81036996841431,4.82191801071167,4.83352136611938,4.84518098831177,4.85689687728882,4.8686695098877,4.88049936294556,4.89238691329956,4.90433263778687,4.91633653640747,4.92839956283569,4.94052171707153,4.95270347595215,4.96494579315186,4.97724914550781,4.98961305618286,5.00203847885132,5.0145263671875,5.44017219543457,5.45403051376343,5.46795988082886,5.48196029663086,5.49603271484375,5.51017713546753,5.52439498901367,5.53868627548218,5.55305194854736,5.56749200820923,5.58200740814209,5.59659862518311,5.61126661300659,5.62601137161255,5.64083433151245,5.65573501586914,5.67071485519409,5.68577432632446,5.70091390609741,5.71613454818726,5.73143625259399,5.7468204498291,5.76228713989258,5.7778377532959,5.79347229003906,5.80919170379639,5.82499647140503,5.84088754653931,5.85686588287354,5.87293148040771,5.88908576965332,5.90532875061035,5.92166185379028,5.93808555603027,5.95460081100464,5.97120809555054,5.98790788650513,6.00470161437988,6.02158975601196,6.03857326507568,6.05565309524536,6.072829246521,6.09010362625122,6.10747623443604,6.12494850158691,6.14252090454102,6.1601939201355,6.17796945571899,6.22459316253662,6.43280839920044,6.65543556213379,6.89402484893799,6.90667867660522,6.9167366027832,6.92682361602783,6.93694067001343,6.94708681106567,6.95726346969604,6.96746921539307,6.97770547866821,6.98797130584717,6.99826717376709,7.00859451293945,7.01895141601562,7.02933931350708,7.03975820541382,7.05020761489868,7.06068849563599,7.07120037078857,7.0817437171936,7.09231853485107,7.10292482376099,7.11356258392334,7.12423276901245,7.13493490219116,7.14566898345947,7.1564359664917,7.16723489761353,7.17806673049927,7.18893146514893,7.19982862472534,7.21075963973999,7.22172355651855,7.23272085189819,7.24375104904175,7.25481605529785,7.26591444015503,7.27704668045044,7.28821277618408,7.29941415786743,7.31064939498901,7.32191896438599,7.33322381973267,7.34456348419189,7.35593843460083,7.36734867095947,7.37879419326782,7.39027547836304,7.40179204940796,7.4133448600769,7.42493391036987,7.43655967712402,7.44822120666504,7.45991945266724,7.47165489196777,7.48342704772949,7.49523639678955,7.50708341598511,7.518967628479,7.5308895111084,7.54284906387329,7.55484676361084,7.5668830871582,7.57895755767822,7.59107065200806,7.60322237014771,7.61541318893433,7.62764310836792,7.63991212844849,7.65222120285034,7.66456985473633,7.67695808410645,7.68938684463501,7.70185565948486,7.71436500549316,7.72691535949707,7.73950624465942,7.75213813781738,7.76481199264526,7.77752637863159,7.790283203125,7.80308151245117,7.81592226028442,7.82880544662476,7.84173107147217,7.85469913482666,7.86771059036255,7.88076496124268,7.8938627243042,7.90700435638428,7.92018938064575,7.93341875076294,7.94669246673584,7.96001052856445,7.97337293624878,7.98678064346313,8.00023365020752,8.01373195648193,8.02727603912354,8.04086589813232,8.0545015335083,8.06818389892578,8.08191204071045,8.09568786621094,8.10951042175293,8.12338066101074,8.13729763031006,8.15126323699951,8.16527652740479,8.17933750152588,8.19344711303711,8.20357418060303,8.20980453491211,8.21604442596436,8.22229385375977,8.22855281829834,8.23482131958008,8.24109935760498,8.24738693237305,8.25368404388428,8.25999164581299,8.26630783081055,8.27263355255127,8.27896976470947,8.28531551361084,8.29167079925537,8.29803562164307,8.30441093444824,8.31079578399658,8.31719017028809,8.32359409332275,8.3300085067749,8.33643245697021,8.34286689758301,8.34931087493896,8.35576438903809,8.36222839355469,8.36870288848877,8.37518692016602,8.38168048858643,8.38818454742432,8.39469909667969,8.40122318267822,8.40775775909424
3.76459527015686,3.77121543884277,3.77785921096802,3.78452634811401,3.79121661186218,3.79793095588684,3.80466914176941,3.81143116950989,3.81821751594543,3.82502770423889,3.831862449646,3.83872175216675,3.84560561180115,3.85251402854919,3.85944771766663,3.86640572547913,3.87338948249817,3.88039827346802,3.88743257522583,3.89449214935303,3.90157747268677,3.90868878364563,3.91582608222961,3.9229896068573,3.93017911911011,3.93739533424377,3.94463753700256,3.95190691947937,3.95920300483704,3.96652626991272,3.97387647628784,3.98125410079956,3.98865866661072,3.99609136581421,4.00355195999146,4.01104021072388,4.01855611801147,4.02610063552856,4.03367376327515,4.04127502441406,4.04890537261963,4.05656433105469,4.0642523765564,4.07196950912476,4.07971620559692,4.08749198913574,4.09529781341553,4.10313367843628,4.110999584198,4.11889553070068,4.12682151794434,4.13477849960327,4.14276647567749,4.15078496932983,4.15883445739746,4.16691541671753,4.17502784729004,4.18317222595215,4.19134759902954,4.19955587387085,4.20779609680176,4.21606826782227,4.22437381744385,4.23271179199219,4.24108219146729,4.24948644638062,4.25792407989502,4.2663950920105,4.27492046356201,4.28358268737793,4.29228019714355,4.30101299285889,4.30978155136108,4.3185863494873,4.32742643356323,4.33630323410034,4.34521627426147,4.35416650772095,4.3631534576416,4.37217712402344,4.38123893737793,4.39033794403076,4.39947509765625,4.40864992141724,4.41786336898804,4.42711544036865,4.43640613555908,4.44573593139648,4.45510530471802,4.46451425552368,4.47396278381348,4.48345184326172,4.49298048019409,4.50255012512207,4.51216077804565,4.52181243896484,4.53150510787964,4.54123973846436,4.55101633071899,4.56083536148071,4.57069635391235,4.58060026168823,4.59054756164551,4.60053777694702,4.61057138442993,4.6206488609314,4.63077116012573,4.64094495773315,4.65116453170776,4.66142892837524,4.67173910140991,4.68209457397461,4.69249629974365,4.70294427871704,4.71343851089478,4.72398042678833,4.73456907272339,4.74520540237427,4.75588941574097,4.7666220664978,4.77740335464478,4.78823280334473,4.79963779449463,4.81113433837891,4.82268619537354,4.83429288864136,4.84595632553101,4.85767602920532,4.86945247650146,4.88128614425659,4.89317750930786,4.90512657165527,4.9171347618103,4.92920160293579,4.9413275718689,4.95351362228394,4.96576023101807,4.97806692123413,4.9904351234436,5.00286483764648,5.01535654067993,5.43745899200439,5.45130348205566,5.46521854400635,5.47920513153076,5.49326324462891,5.5073938369751,5.52159690856934,5.5358738899231,5.55022478103638,5.56465005874634,5.57915067672729,5.59372711181641,5.60837984085083,5.62310981750488,5.63791704177856,5.65280246734619,5.66776657104492,5.68281030654907,5.6979341506958,5.71313905715942,5.72842454910278,5.74379253387451,5.75924301147461,5.77477741241455,5.79039525985718,5.80609798431396,5.82188606262207,5.83775997161865,5.85372114181519,5.86976957321167,5.88590621948242,5.90213203430176,5.91844749450684,5.93485307693481,5.95135021209717,5.96793937683105,5.98462104797363,6.00139617919922,6.01826572418213,6.03523063659668,6.05229091644287,6.06944847106934,6.08670330047607,6.10405683517456,6.12150907516479,6.13906192779541,6.15671539306641,6.1744704246521,6.19232892990112,6.31981515884399,6.53455924987793,6.76441097259521,6.88355398178101,6.89354467391968,6.903564453125,6.91361331939697,6.92369174957275,6.93379926681519,6.94393682479858,6.95410346984863,6.96430015563965,6.97452688217163,6.98478364944458,6.9950704574585,7.00538778305054,7.0157356262207,7.02611398696899,7.03652286529541,7.04696321487427,7.05743408203125,7.06793642044067,7.07846975326538,7.08903455734253,7.09963130950928,7.11025953292847,7.12091970443726,7.13161182403564,7.14233636856079,7.15309286117554,7.16388177871704,7.1747031211853,7.18555784225464,7.19644498825073,7.2073655128479,7.21831893920898,7.22930574417114,7.24032592773438,7.25137996673584,7.26246786117554,7.27358961105347,7.28474569320679,7.29593563079834,7.30716037750244,7.31841945648193,7.32971334457397,7.34104204177856,7.35240602493286,7.36380529403687,7.37523984909058,7.38671016693115,7.39821577072144,7.40975761413574,7.42133522033691,7.43294954299927,7.44460010528564,7.45628690719604,7.46801090240479,7.47977161407471,7.49156951904297,7.50340461730957,7.51527690887451,7.52718687057495,7.53913545608521,7.5511212348938,7.56314516067505,7.57520771026611,7.58730888366699,7.59944868087769,7.61162710189819,7.62384510040283,7.63610219955444,7.64839887619019,7.66073513031006,7.67311096191406,7.68552732467651,7.6979832649231,7.71048021316528,7.72301816940308,7.73559617996216,7.74821519851685,7.76087617874146,7.77357816696167,7.78632164001465,7.79910707473755,7.81193447113037,7.82480478286743,7.83771705627441,7.85067176818848,7.86366987228394,7.87671089172363,7.88979530334473,7.90292310714722,7.91609477996826,7.92931032180786,7.94257020950317,7.9558744430542,7.96922302246094,7.98261690139771,7.99605560302734,8.00953960418701,8.02306938171387,8.03664493560791,8.05026721954346,8.06393432617188,8.07764911651611,8.09140968322754,8.10521793365479,8.11907291412354,8.13297557830811,8.1469259262085,8.16092395782471,8.17497062683105,8.18906497955322,8.20320892333984,8.2174015045166,8.23164367675781,8.2440881729126,8.25038051605225,8.25668239593506,8.26299381256104,8.26931476593018,8.27564525604248,8.28198623657227,8.28833675384521,8.29469680786133,8.30106639862061,8.30744552612305,8.31383514404297,8.32023429870605,8.3266429901123,8.33306217193604,8.33949089050293,8.3459300994873,8.35237884521484,8.35883712768555,8.36530590057373,8.37178516387939,8.37827301025391,8.38477230072021,8.39128112792969,8.39780044555664,8.40432929992676,8.41086864471436
