4.53527641296387,4.54479646682739,4.55435705184937,4.56395769119263,4.57359886169434,4.58328104019165,4.59300422668457,4.60276889801025,4.61257457733154,4.62242269515991,4.6323127746582,4.64224529266357,4.65222024917603,4.66223859786987,4.67229986190796,4.6824049949646,4.69255352020264,4.70274639129639,4.71298360824585,4.72326564788818,4.73359203338623,4.74396419525146,4.75438165664673,4.76484537124634,4.77535486221313,4.78591108322144,4.79651355743408,4.80716371536255,4.81786108016968,4.82860612869263,4.8393988609314,4.85024070739746,4.8611307144165,4.87206983566284,4.88305854797363,4.89409637451172,4.90518426895142,4.91632318496704,4.92751216888428,4.9387526512146,4.95004415512085,4.96138763427734,4.97278308868408,4.98423147201538,4.99573230743408,5.00728797912598,5.01889610290527,5.03055763244629,5.04227447509766,5.0540452003479,5.0658712387085,5.07775259017944,5.08969020843506,5.10168361663818,5.11373376846313,5.12584114074707,5.13800621032715,5.15022897720337,8.32736968994141,8.34142208099365,8.3555212020874,8.36966896057129,8.383864402771,8.39810848236084,8.4124002456665,8.42674160003662,8.44113159179688,8.45557022094727,8.47005844116211,8.54383659362793,8.55484771728516,8.56588840484619,8.5769567489624,8.58805370330811,8.59918022155762,8.61033535003662,8.62151908874512,8.63273239135742,12.3965291976929,12.3973627090454,12.3981971740723,12.3990325927734,12.3998680114746,12.4007024765015,12.4015378952026,12.4023752212524,12.403208732605,12.4040451049805,12.4048805236816,12.4057159423828,12.4065523147583,12.4073896408081,12.4082231521606,12.4090604782104,12.4098968505859,12.4107341766357,12.4115705490112,12.412407875061,12.4132452011108,12.4140825271606,12.4149188995361,12.4157562255859,12.4165935516357,12.4174318313599,12.4182691574097,12.4191045761108,12.4199438095093,12.4207801818848,12.4216194152832,12.4224586486816,12.4232959747314,12.4241342544556,12.424973487854,12.4258108139038,12.4266510009766,12.4274883270264,12.4283294677734,12.4291677474976,12.4300050735474,12.4308443069458,12.4316854476929,12.432523727417,12.4333629608154,12.4342041015625,12.4350433349609,12.4358825683594,12.4367246627808,12.4375638961792,12.4384031295776,12.4392433166504,12.4400844573975,12.4409255981445,12.4417657852173,12.4426050186157,12.4434461593628,12.4442892074585,12.4451293945312,12.4459705352783,12.446813583374,12.4476547241211,12.4484958648682,12.4493379592896,12.4501810073853,12.4510221481323,12.4518642425537,12.4527072906494,12.4535484313965,12.4543914794922,12.4552335739136,12.4560766220093,12.456919670105,12.4577627182007,12.4586048126221,12.4594459533691,12.4602909088135,12.4611339569092,12.4619779586792,12.4628210067749,12.4636659622192,12.4645099639893,12.465353012085,12.4661979675293,12.467041015625,12.4678859710693,12.4687299728394,12.4695749282837,12.470419883728,12.4712629318237,12.4721078872681,12.4729537963867,12.4737987518311,12.4746437072754,12.4754886627197,12.4763345718384,12.4771795272827,12.4780263900757,12.4788722991943,12.4797172546387,12.4805641174316,12.4814071655273,12.4822559356689,12.4831008911133,12.4839468002319,12.4847936630249,12.4856405258179,12.4864873886108,12.4873342514038,12.4881820678711,12.4890289306641,12.489875793457,12.4907245635986,12.4915704727173,12.4924173355103,12.4932680130005,12.4941148757935,12.4949617385864,12.4958095550537,12.4966583251953,12.4975051879883,12.4983558654785,12.4992027282715,12.5000505447388,12.500901222229,12.5017499923706,12.5025987625122,12.5034484863281,12.5042972564697,12.50514793396,12.5059967041016,12.5068454742432,12.5076942443848,12.5085439682007,12.5093946456909,12.5102453231812,12.5110940933228,12.5119457244873,12.5127944946289,12.5136451721191,12.5144958496094,12.5153465270996,12.5161981582642,12.5170488357544,12.5178995132446,12.5187501907349,12.5196008682251,12.520453453064,12.5213050842285,12.5221576690674,12.5230083465576,12.5238609313965,12.5247135162354,12.5255641937256,12.5264177322388,12.527268409729,12.5281209945679,12.5289735794067,12.5298271179199,12.5306787490845,12.5315322875977,12.5323848724365,12.533239364624,12.5340919494629,12.5349445343018,12.5357980728149,12.5366525650024,12.5375070571899,12.5383615493774,12.5392141342163,12.5400676727295,12.540922164917,12.5417766571045,12.5426292419434,12.5434837341309,12.544340133667,12.5451936721802,12.5460481643677,12.5469045639038,12.5477590560913,12.5486154556274,12.5494709014893,12.5503253936768,12.5511817932129,12.5520362854004,12.5528945922852,12.553747177124,12.5546035766602,12.5554609298706,12.5563173294067,12.5571737289429,12.558030128479,12.5588865280151,12.5597429275513,12.5606002807617,12.5614566802979,12.5623149871826,12.5631732940674,12.5640296936035,12.5648860931396,12.5657444000244,12.5666017532349,12.5674600601196,12.5683164596558,12.5691766738892,12.5700330734253,12.5708913803101,12.5717496871948,12.5726089477539,12.5734672546387,12.5743255615234,12.5751838684082,12.5760440826416,12.576904296875,12.5777635574341,12.5786237716675,12.5794839859009,12.5803422927856,12.581202507019,12.5820627212524,12.5829219818115,12.5837821960449,12.5846424102783,12.5855026245117,12.5863647460938,12.5872230529785,12.5880832672119,12.5889434814453,12.5898056030273,12.5906667709351,12.5915269851685,12.5923891067505,12.5932512283325,12.5941114425659,12.5949735641479,12.59583568573,12.5966968536377,12.5975589752197,12.5984210968018,12.5992832183838,12.6001453399658,12.6010093688965,12.6018714904785,12.6027336120605,12.6035966873169,12.6044578552246,12.605320930481,12.606183052063,12.6070470809937,12.6079111099243,12.608775138855,12.6096391677856,12.6105012893677,12.6113662719727,12.6122303009033,12.613094329834,12.6139583587646,12.6148223876953,12.6156883239746,12.6165523529053,12.6174163818359,12.6182823181152,12.6191463470459,12.6200113296509,12.6208772659302,12.6217412948608,12.6226053237915,12.6234712600708,12.6243371963501,12.6252031326294,12.6260690689087,12.626935005188,12.6278018951416,12.6286678314209,12.6295356750488,12.6304016113281,12.6312694549561,12.6321353912354,12.6330032348633,12.6338691711426,12.6347370147705,12.6356039047241,12.6364698410034,12.6373376846313,12.6382055282593,12.6390714645386,12.6399393081665,12.6408071517944,12.6416749954224,12.6425447463989,12.6434125900269,12.6442804336548,12.6451501846313,12.6460180282593,12.6468868255615,12.6477556228638,12.648624420166
4.52692556381226,4.53641033172607,4.54593563079834,4.55550098419189,4.56510639190674,4.57475233078003,4.58443927764893,4.59416770935059,4.60393667221069,4.61374759674072,4.62360048294067,4.63349580764771,4.64343357086182,4.65341377258301,4.66343688964844,4.67350387573242,4.68361377716064,4.69376802444458,4.70396566390991,4.71420812606812,4.72449541091919,4.73482751846313,4.74520492553711,4.75562858581543,4.76609706878662,4.77661228179932,4.78717374801636,4.79778242111206,4.80843782424927,4.81914138793945,4.82989168167114,4.84069061279297,4.85153770446777,4.86243391036987,4.87337875366211,4.8843731880188,4.89541721343994,4.9065113067627,4.91765594482422,4.92885160446167,4.94009780883789,4.9513955116272,4.96274518966675,4.97414684295654,4.9856014251709,4.99710845947266,5.00866889953613,5.02028274536133,5.03195285797119,5.04367542266846,5.05545282363892,5.06728553771973,5.07917356491089,5.09111785888672,5.10311794281006,5.11517524719238,5.12728929519653,5.13946104049683,5.15169048309326,5.16397905349731,5.17632532119751,8.32174873352051,8.33578205108643,8.34986305236816,8.36399078369141,8.37816715240479,8.39239120483398,8.40666389465332,8.42098522186279,8.43535614013672,8.44977474212646,8.46424388885498,8.47876262664795,8.56568908691406,8.57675743103027,8.58785438537598,8.59897994995117,8.61013412475586,8.62131786346436,8.63253021240234,8.64377212524414,8.65504264831543,8.66634273529053,8.67767333984375,12.3239889144897,12.3248157501221,12.3256397247314,12.3264665603638,12.3272905349731,12.3281173706055,12.3289403915405,12.3297662734985,12.3305931091309,12.3314189910889,12.3322458267212,12.3330698013306,12.3338985443115,12.3347244262695,12.3355512619019,12.3363771438599,12.3372039794922,12.3380308151245,12.3388586044312,12.3396835327148,12.3405094146729,12.3413381576538,12.3421649932861,12.3429927825928,12.3438205718994,12.3446474075317,12.3454761505127,12.3463039398193,12.3471326828003,12.3479604721069,12.3487892150879,12.3496170043945,12.3504438400269,12.3512725830078,12.3521022796631,12.352931022644,12.3537588119507,12.3545894622803,12.3554191589355,12.3562479019165,12.3570766448975,12.3579063415527,12.3587369918823,12.3595666885376,12.3603954315186,12.3612251281738,12.3620538711548,12.3628845214844,12.3637142181396,12.3645467758179,12.3653764724731,12.3662071228027,12.3670377731323,12.3678674697876,12.3687000274658,12.3695297241211,12.3703622817993,12.3711929321289,12.3720226287842,12.3728551864624,12.3736867904663,12.3745193481445,12.3753499984741,12.3761835098267,12.3770151138306,12.3778457641602,12.3786783218384,12.3795108795166,12.3803424835205,12.3811769485474,12.3820085525513,12.3828430175781,12.383674621582,12.3845071792603,12.3853416442871,12.386173248291,12.3870077133179,12.3878412246704,12.3886756896973,12.3895063400269,12.3903408050537,12.3911762237549,12.3920087814331,12.3928442001343,12.3936786651611,12.3945121765137,12.3953466415405,12.3961820602417,12.3970165252686,12.3978509902954,12.3986864089966,12.3995208740234,12.4003572463989,12.4011926651001,12.402027130127,12.4028635025024,12.403697013855,12.4045333862305,12.405369758606,12.4062051773071,12.4070415496826,12.4078769683838,12.4087133407593,12.4095516204834,12.4103870391846,12.4112253189087,12.4120607376099,12.4128971099854,12.4137334823608,12.4145708084106,12.4154071807861,12.4162454605103,12.4170827865601,12.4179210662842,12.4187574386597,12.4195966720581,12.4204349517822,12.421272277832,12.4221105575562,12.4229488372803,12.4237861633301,12.4246263504028,12.4254627227783,12.4263010025024,12.4271402359009,12.427978515625,12.4288196563721,12.4296579360962,12.4304981231689,12.4313373565674,12.4321775436401,12.4330158233643,12.4338550567627,12.4346952438354,12.4355354309082,12.4363765716553,12.4372148513794,12.4380550384521,12.4388961791992,12.4397344589233,12.4405765533447,12.4414167404175,12.4422578811646,12.4430999755859,12.4439392089844,12.4447813034058,12.4456233978271,12.4464645385742,12.447304725647,12.4481477737427,12.4489870071411,12.4498281478882,12.4506702423096,12.451512336731,12.4523553848267,12.453197479248,12.4540395736694,12.4548826217651,12.4557247161865,12.4565668106079,12.4574098587036,12.4582538604736,12.4590978622437,12.4599409103394,12.4607810974121,12.4616250991821,12.4624691009521,12.4633140563965,12.4641561508179,12.4650001525879,12.4658451080322,12.4666891098022,12.4675331115723,12.4683780670166,12.4692220687866,12.4700679779053,12.4709119796753,12.4717569351196,12.4726028442383,12.4734468460083,12.4742908477783,12.4751377105713,12.4759836196899,12.4768285751343,12.4776744842529,12.4785203933716,12.4793653488159,12.4802112579346,12.4810590744019,12.4819040298462,12.4827518463135,12.4835977554321,12.4844417572021,12.4852905273438,12.4861364364624,12.4869842529297,12.4878311157227,12.4886789321899,12.4895248413086,12.4903726577759,12.4912195205688,12.4920673370361,12.4929151535034,12.493763923645,12.4946117401123,12.4954595565796,12.4963073730469,12.4971561431885,12.4980039596558,12.4988536834717,12.4997005462646,12.5005502700806,12.5013980865479,12.5022459030151,12.5030956268311,12.5039443969727,12.5047941207886,12.5056447982788,12.5064926147461,12.507342338562,12.5081939697266,12.5090436935425,12.5098943710327,12.5107421875,12.5115938186646,12.5124435424805,12.5132942199707,12.5141439437866,12.5149965286255,12.5158462524414,12.516697883606,12.5175476074219,12.5183992385864,12.5192518234253,12.5201034545898,12.5209550857544,12.5218067169189,12.5226573944092,12.5235090255737,12.5243606567383,12.5252141952515,12.5260648727417,12.5269184112549,12.5277700424194,12.5286235809326,12.5294761657715,12.5303297042847,12.5311832427979,12.5320348739624,12.5328874588013,12.5337409973145,12.534592628479,12.5354461669922,12.5363006591797,12.5371541976929,12.5380077362061,12.5388612747192,12.5397167205811,12.5405693054199,12.5414247512817,12.5422801971436,12.5431346893311,12.5439882278442,12.5448436737061,12.5456991195679,12.5465545654297,12.5474090576172,12.5482625961304,12.5491180419922,12.5499753952026,12.5508308410645,12.5516843795776,12.5525407791138,12.5533962249756,12.554253578186,12.5551090240479,12.555965423584,12.5568208694458,12.5576782226562,12.5585355758667,12.5593919754028,12.5602474212646,12.5611066818237,12.5619640350342,12.562819480896,12.5636777877808,12.5645351409912,12.5653924942017,12.5662498474121,12.5671081542969,12.5679655075073
4.51860523223877,4.52805519104004,4.5375452041626,4.54707527160645,4.55664539337158,4.56625556945801,4.57590675354004,4.58559799194336,4.5953311920166,4.60510587692261,4.61492156982422,4.62477970123291,4.63467979431152,4.64462280273438,4.65460777282715,4.66463613510132,4.67470788955688,4.68482351303101,4.69498252868652,4.70518589019775,4.7154335975647,4.72572660446167,4.73606395721436,4.74644660949707,4.75687503814697,4.76734972000122,4.77787017822266,4.78843784332275,4.7990517616272,4.8097128868103,4.82042169570923,4.83117771148682,4.84198236465454,4.8528356552124,4.8637375831604,4.87468862533569,4.88568878173828,4.89673900604248,4.90783882141113,4.91898965835571,4.93019104003906,4.94144344329834,4.95274782180786,4.96410322189331,4.97551155090332,4.98697185516357,4.99848556518555,5.01005220413208,5.02167272567749,5.03334712982178,5.0450758934021,5.05686140060425,5.06870031356812,5.08059549331665,5.09254598617554,5.10455322265625,5.11661720275879,5.12873840332031,5.14091682434082,5.15315341949463,5.16544818878174,5.17780208587646,5.19021511077881,8.30216884613037,8.31613540649414,8.33014965057373,8.34421157836914,8.35832023620605,8.37247753143311,8.38668251037598,8.40093612670898,8.41523742675781,8.42958831787109,8.44398784637451,8.45843696594238,8.47293472290039,8.48748302459717,8.58765411376953,8.59877872467041,8.6099328994751,8.62111568450928,8.63232803344727,8.64356899261475,8.65483951568604,8.66613960266113,8.67746925354004,8.68882846832275,8.70021724700928,8.71163558959961,8.72308444976807,12.2522964477539,12.2531127929688,12.2539281845093,12.2547435760498,12.2555599212646,12.2563753128052,12.25719165802,12.2580070495605,12.2588224411011,12.2596406936646,12.2604541778564,12.2612724304199,12.2620897293091,12.2629070281982,12.2637233734131,12.2645406723022,12.2653579711914,12.2661743164062,12.2669916152954,12.2678089141846,12.268627166748,12.2694444656372,12.2702627182007,12.2710800170898,12.271897315979,12.2727155685425,12.2735328674316,12.2743511199951,12.2751703262329,12.2759895324707,12.2768077850342,12.277626991272,12.2784461975098,12.2792644500732,12.280083656311,12.2809019088745,12.2817211151123,12.2825412750244,12.2833604812622,12.2841787338257,12.2849998474121,12.2858190536499,12.286639213562,12.2874603271484,12.2882795333862,12.2890996932983,12.2899208068848,12.2907409667969,12.2915620803833,12.2923803329468,12.2932014465332,12.2940225601196,12.2948446273804,12.2956638336182,12.2964859008789,12.297308921814,12.2981290817261,12.2989501953125,12.2997722625732,12.3005952835083,12.3014163970947,12.3022384643555,12.3030614852905,12.303882598877,12.3047065734863,12.3055276870728,12.3063516616821,12.3071727752686,12.3079967498779,12.308819770813,12.309642791748,12.3104648590088,12.3112869262695,12.3121099472046,12.3129348754883,12.313756942749,12.3145818710327,12.3154058456421,12.3162288665771,12.3170537948608,12.3178777694702,12.3187026977539,12.3195266723633,12.3203496932983,12.3211755752563,12.3219985961914,12.3228244781494,12.3236474990845,12.3244733810425,12.3252983093262,12.3261241912842,12.3269491195679,12.3277740478516,12.3285999298096,12.3294267654419,12.3302526473999,12.3310775756836,12.3319034576416,12.3327283859253,12.3335542678833,12.3343811035156,12.3352069854736,12.336033821106,12.336859703064,12.3376865386963,12.3385143280029,12.3393411636353,12.3401689529419,12.3409957885742,12.3418226242065,12.3426504135132,12.3434772491455,12.3443050384521,12.3451328277588,12.3459596633911,12.3467884063721,12.3476161956787,12.3484449386597,12.3492727279663,12.3501014709473,12.3509292602539,12.3517580032349,12.3525876998901,12.3534164428711,12.3542461395264,12.3550748825073,12.3559045791626,12.3567314147949,12.3575611114502,12.3583908081055,12.3592214584351,12.360050201416,12.3608798980713,12.3617105484009,12.3625421524048,12.3633708953857,12.3642024993896,12.3650312423706,12.3658628463745,12.3666934967041,12.367525100708,12.368353843689,12.3691835403442,12.3700160980225,12.3708477020264,12.371678352356,12.3725099563599,12.3733415603638,12.374174118042,12.3750047683716,12.3758382797241,12.3766689300537,12.3775005340576,12.3783330917358,12.3791666030884,12.3799982070923,12.3808307647705,12.3816623687744,12.3824949264526,12.3833284378052,12.3841609954834,12.3849945068359,12.3858289718628,12.3866624832153,12.3874950408936,12.3883285522461,12.3891611099243,12.3899965286255,12.3908290863037,12.3916645050049,12.3924961090088,12.3933305740356,12.3941659927368,12.3950004577637,12.3958358764648,12.3966684341431,12.3975038528442,12.3983402252197,12.3991737365723,12.4000072479248,12.4008417129517,12.4016790390015,12.402515411377,12.4033489227295,12.404185295105,12.4050226211548,12.4058570861816,12.4066944122314,12.4075298309326,12.4083662033081,12.4092035293579,12.4100379943848,12.4108772277832,12.4117136001587,12.4125518798828,12.413387298584,12.4142246246338,12.4150629043579,12.4158983230591,12.4167366027832,12.4175720214844,12.4184112548828,12.4192495346069,12.4200868606567,12.4209251403809,12.4217624664307,12.4226007461548,12.4234399795532,12.4242782592773,12.4251174926758,12.4259557723999,12.4267930984497,12.4276342391968,12.4284725189209,12.4293117523193,12.4301500320435,12.4309892654419,12.4318294525146,12.4326667785645,12.4335079193115,12.43434715271,12.4351873397827,12.4360265731812,12.4368667602539,12.437707901001,12.4385471343994,12.4393892288208,12.4402294158936,12.441068649292,12.4419116973877,12.4427518844604,12.4435930252075,12.4444341659546,12.4452743530273,12.446117401123,12.4469575881958,12.4477987289429,12.4486408233643,12.4494819641113,12.4503231048584,12.4511661529541,12.4520082473755,12.4528512954712,12.4536933898926,12.4545345306396,12.4553785324097,12.4562196731567,12.4570627212524,12.4579067230225,12.4587497711182,12.4595937728882,12.4604368209839,12.4612808227539,12.4621238708496,12.4629688262939,12.4638109207153,12.4646558761597,12.465500831604,12.4663429260254,12.4671878814697,12.4680328369141,12.4688749313354,12.4697217941284,12.4705648422241,12.4714088439941,12.4722537994385,12.4730997085571,12.4739446640015,12.4747915267944,12.4756355285645,12.4764804840088,12.4773273468018,12.4781732559204,12.4790182113647,12.4798641204834,12.4807109832764,12.4815578460693,12.482403755188,12.4832487106323,12.4840955734253,12.4849414825439,12.4857883453369,12.4866352081299,12.4874830245972,12.4883298873901
4.51031494140625,4.51973056793213,4.5291862487793,4.53868055343628,4.54821538925171,4.55778980255127,4.56740522384644,4.57706117630005,4.58675765991211,4.59649562835693,4.60627508163452,4.61609601974487,4.62595891952515,4.6358642578125,4.64581203460693,4.65580272674561,4.66583585739136,4.67591285705566,4.68603372573853,4.69619798660278,4.70640659332275,4.71665954589844,4.72695779800415,4.73730039596558,4.74768877029419,4.75812292098999,4.76860284805298,4.77912950515747,4.78970193862915,4.80032157897949,4.8109884262085,4.82170295715332,4.83246517181396,4.84327554702759,4.85413408279419,4.86504173278809,4.87599849700928,4.88700485229492,4.89806079864502,4.90916728973389,4.92032384872437,4.93153142929077,4.94279003143311,4.95410013198853,4.96546220779419,4.9768762588501,4.98834323883057,4.9998631477356,5.01143646240234,5.02306318283081,5.03474426269531,5.04647922515869,5.05826997756958,5.0701150894165,5.08201789855957,5.09397554397583,5.10598945617676,5.11806011199951,5.13018798828125,5.14237356185913,5.15461683273315,5.16691875457764,5.17927932739258,5.19169950485229,5.20417976379395,5.21671962738037,8.29658126831055,8.3105297088623,8.32452487945557,8.33856773376465,8.35265827178955,8.36679553985596,8.3809814453125,8.39521503448486,8.40949726104736,8.42382907867432,8.43820858001709,8.45263767242432,8.467116355896,8.48164463043213,8.49622249603271,8.60973167419434,8.62091445922852,8.63212585449219,8.64336681365967,8.65463638305664,8.66593551635742,8.67726516723633,8.68862342834473,8.70001220703125,8.71142959594727,8.72287845611572,8.73435688018799,8.74586486816406,8.75740432739258,8.76897430419922,12.1814336776733,12.1822385787964,12.1830444335938,12.1838512420654,12.1846561431885,12.1854629516602,12.1862697601318,12.1870775222778,12.1878843307495,12.1886911392212,12.1894979476929,12.1903047561646,12.1911115646362,12.1919193267822,12.1927261352539,12.1935348510742,12.1943416595459,12.1951494216919,12.1959581375122,12.1967668533325,12.1975736618042,12.1983823776245,12.1991891860962,12.1999988555908,12.2008075714111,12.2016162872314,12.2024250030518,12.2032327651978,12.2040414810181,12.2048501968384,12.2056589126587,12.2064695358276,12.2072782516479,12.2080879211426,12.2088966369629,12.2097072601318,12.2105159759521,12.2113275527954,12.2121381759644,12.2129468917847,12.213755607605,12.2145671844482,12.2153778076172,12.2161865234375,12.2169971466064,12.2178087234497,12.2186212539673,12.2194318771362,12.2202425003052,12.2210550308228,12.2218656539917,12.222677230835,12.2234878540039,12.2243003845215,12.2251110076904,12.2259244918823,12.2267351150513,12.2275476455688,12.2283582687378,12.229172706604,12.2299842834473,12.2307968139648,12.2316093444824,12.232421875,12.2332353591919,12.2340478897095,12.2348604202271,12.2356739044189,12.2364864349365,12.2372989654541,12.2381134033203,12.2389268875122,12.2397413253784,12.2405557632446,12.2413702011108,12.2421827316284,12.2429962158203,12.2438106536865,12.2446250915527,12.2454404830933,12.2462549209595,12.2470693588257,12.2478828430176,12.2486991882324,12.2495136260986,12.2503280639648,12.2511434555054,12.2519598007202,12.2527742385864,12.2535905838013,12.2544059753418,12.255220413208,12.2560367584229,12.2568531036377,12.2576684951782,12.2584848403931,12.2593011856079,12.2601175308228,12.2609348297119,12.2617511749268,12.2625675201416,12.2633848190308,12.2642030715942,12.2650194168091,12.2658348083496,12.2666511535645,12.2674694061279,12.2682867050171,12.2691049575806,12.269923210144,12.2707395553589,12.2715587615967,12.2723770141602,12.2731952667236,12.2740135192871,12.2748327255249,12.2756509780884,12.2764673233032,12.277286529541,12.2781066894531,12.278923034668,12.2797441482544,12.2805624008179,12.2813806533813,12.2822008132935,12.2830200195312,12.2838401794434,12.2846593856812,12.2854804992676,12.2862997055054,12.2871198654175,12.2879390716553,12.2887592315674,12.2895793914795,12.2904005050659,12.2912187576294,12.2920408248901,12.2928619384766,12.2936840057373,12.2945041656494,12.2953252792358,12.2961473464966,12.2969675064087,12.2977886199951,12.2986106872559,12.299430847168,12.300253868103,12.3010721206665,12.3018951416016,12.3027172088623,12.303539276123,12.3043622970581,12.3051843643188,12.3060064315796,12.306830406189,12.307653427124,12.3084754943848,12.3092985153198,12.3101205825806,12.3109445571899,12.3117694854736,12.3125896453857,12.3134145736694,12.3142366409302,12.3150625228882,12.3158855438232,12.3167095184326,12.317533493042,12.3183584213257,12.3191823959351,12.3200063705444,12.3208312988281,12.3216552734375,12.3224792480469,12.3233060836792,12.3241300582886,12.3249549865723,12.3257808685303,12.3266067504883,12.327431678772,12.32825756073,12.3290815353394,12.3299083709717,12.3307361602783,12.3315601348877,12.3323850631714,12.3332109451294,12.334038734436,12.3348636627197,12.3356914520264,12.3365182876587,12.3373441696167,12.338171005249,12.3389987945557,12.3398246765137,12.3406524658203,12.3414793014526,12.3423070907593,12.3431358337402,12.3439617156982,12.3447914123535,12.3456182479858,12.3464460372925,12.3472747802734,12.3481006622314,12.3489294052124,12.3497591018677,12.3505868911743,12.3514156341553,12.3522453308105,12.3530731201172,12.3539037704468,12.3547315597534,12.3555612564087,12.3563919067383,12.3572196960449,12.3580503463745,12.3588800430298,12.3597097396851,12.3605403900146,12.3613681793213,12.3621988296509,12.3630304336548,12.3638591766357,12.364688873291,12.3655195236206,12.3663511276245,12.3671798706055,12.3680114746094,12.3688430786133,12.3696737289429,12.3705053329468,12.3713369369507,12.3721675872803,12.3729991912842,12.3738317489624,12.3746633529663,12.3754949569702,12.3763256072998,12.3771591186523,12.3779897689819,12.3788232803345,12.3796558380127,12.3804874420166,12.3813199996948,12.3821516036987,12.382984161377,12.3838176727295,12.3846521377563,12.3854837417603,12.3863182067871,12.3871517181396,12.3879842758179,12.3888177871704,12.3896512985229,12.3904876708984,12.3913192749023,12.3921546936035,12.3929891586304,12.3938226699829,12.3946571350098,12.3954916000366,12.3963270187378,12.3971605300903,12.3979949951172,12.3988304138184,12.3996648788452,12.400502204895,12.4013376235962,12.402172088623,12.4030084609985,12.4038438796997,12.4046792984009,12.4055156707764,12.4063510894775,12.4071893692017,12.4080247879028,12.4088611602783,12.4096965789795
4.50205564498901,4.5114369392395,4.52085733413696,4.5303168296814,4.53981637954712,4.54935598373413,4.55893564224243,4.56855535507202,4.57821607589722,4.58791780471802,4.59766054153442,4.60744524002075,4.61727094650269,4.6271390914917,4.63704919815063,4.64700222015381,4.65699768066406,4.66703653335571,4.6771183013916,4.6872444152832,4.6974139213562,4.70762825012207,4.71788644790649,4.72818994522095,4.73853826522827,4.74893188476562,4.75937128067017,4.76985692977905,4.78038835525513,4.79096698760986,4.8015923500061,4.81226491928101,4.82298469543457,4.83375263214111,4.84456872940063,4.85543346405029,4.86634683609009,4.87730932235718,4.88832187652588,4.89938354492188,4.9104962348938,4.92165851593018,4.93287229537964,4.94413709640503,4.95545339584351,4.96682167053223,4.97824192047119,4.98971509933472,5.00124168395996,5.01282119750977,5.02445459365845,5.03614187240601,5.04788398742676,5.05968046188354,5.07153272628784,5.08344030380249,5.09540414810181,5.10742616653442,5.11950349807739,5.13163805007935,5.1438307762146,5.156081199646,5.16839027404785,5.18075799942017,5.19318532943726,5.20567226409912,5.21821928024292,5.23082685470581,8.27711868286133,8.29100227355957,8.304931640625,8.31890869140625,8.33293151855469,8.34700298309326,8.36112117767334,8.37528800964355,8.38950252532959,8.40376567840576,8.41807651519775,8.4324369430542,8.4468469619751,8.46130561828613,8.47581386566162,8.49037170410156,8.50498008728027,8.63192367553711,8.64316368103027,8.65443325042725,8.66573238372803,8.6770601272583,8.6884183883667,8.69980621337891,8.71122455596924,8.72267150878906,8.73414993286133,8.7456579208374,8.7571964263916,8.76876544952393,8.78036499023438,8.79199504852295,8.80365657806396,8.81534862518311,12.1113834381104,12.1121816635132,12.1129779815674,12.1137742996216,12.1145725250244,12.1153707504272,12.1161670684814,12.1169633865356,12.1177597045898,12.1185579299927,12.1193580627441,12.1201543807983,12.1209526062012,12.121750831604,12.1225490570068,12.1233472824097,12.1241474151611,12.1249437332153,12.1257438659668,12.1265420913696,12.1273403167725,12.1281385421753,12.1289386749268,12.1297369003296,12.1305370330811,12.1313371658325,12.1321353912354,12.1329355239868,12.1337356567383,12.1345338821411,12.1353340148926,12.136134147644,12.1369342803955,12.137734413147,12.1385326385498,12.1393346786499,12.1401348114014,12.1409349441528,12.1417369842529,12.1425371170044,12.1433372497559,12.144139289856,12.1449413299561,12.1457414627075,12.1465435028076,12.1473436355591,12.1481456756592,12.1489477157593,12.1497497558594,12.1505517959595,12.1513519287109,12.1521558761597,12.1529579162598,12.1537580490112,12.15456199646,12.1553640365601,12.1561660766602,12.1569681167603,12.157772064209,12.1585741043091,12.1593780517578,12.1601800918579,12.1609840393066,12.1617879867554,12.1625909805298,12.1633958816528,12.1641988754272,12.1650009155273,12.1658048629761,12.1666088104248,12.1674127578735,12.1682186126709,12.1690225601196,12.1698265075684,12.1706323623657,12.1714363098145,12.1722402572632,12.1730461120605,12.1738500595093,12.1746559143066,12.175461769104,12.1762657165527,12.1770706176758,12.1778764724731,12.1786823272705,12.1794881820679,12.1802940368652,12.1810998916626,12.18190574646,12.1827116012573,12.1835155487061,12.1843233108521,12.1851291656494,12.1859369277954,12.1867427825928,12.1875486373901,12.1883554458618,12.1891632080078,12.1899709701538,12.1907768249512,12.1915845870972,12.1923904418945,12.1932001113892,12.1940078735352,12.1948156356812,12.1956233978271,12.1964311599731,12.1972379684448,12.1980466842651,12.1988554000854,12.1996631622314,12.2004709243774,12.2012805938721,12.2020883560181,12.2028980255127,12.2037057876587,12.2045154571533,12.2053251266479,12.2061338424683,12.2069435119629,12.2077531814575,12.2085628509521,12.2093725204468,12.2101821899414,12.2109899520874,12.2118005752563,12.212610244751,12.2134218215942,12.2142314910889,12.2150411605835,12.2158527374268,12.2166624069214,12.2174739837646,12.2182836532593,12.2190952301025,12.2199068069458,12.2207174301147,12.2215309143066,12.2223386764526,12.2231502532959,12.2239618301392,12.2247734069824,12.2255868911743,12.2263975143433,12.2272109985352,12.2280225753784,12.2288341522217,12.2296476364136,12.2304592132568,12.2312717437744,12.2320852279663,12.2328987121582,12.2337083816528,12.2345218658447,12.2353353500366,12.2361488342285,12.2369623184204,12.2377767562866,12.2385902404785,12.2394037246704,12.2402172088623,12.2410306930542,12.2418441772461,12.2426586151123,12.2434740066528,12.2442874908447,12.2451009750366,12.2459144592285,12.246729850769,12.2475442886353,12.2483596801758,12.2491731643677,12.2499885559082,12.2508039474487,12.2516202926636,12.2524356842041,12.2532510757446,12.2540664672852,12.2548818588257,12.2556972503662,12.2565145492554,12.2573308944702,12.2581462860107,12.2589635848999,12.2597789764404,12.2605962753296,12.2614126205444,12.2622299194336,12.2630472183228,12.2638645172119,12.2646799087524,12.2654962539673,12.2663135528564,12.2671308517456,12.2679481506348,12.2687654495239,12.2695846557617,12.2704010009766,12.2712202072144,12.2720375061035,12.2728548049927,12.2736740112305,12.2744922637939,12.2753114700317,12.2761287689209,12.2769479751587,12.2777671813965,12.27858543396,12.2794046401978,12.2802238464355,12.2810430526733,12.2818613052368,12.2826805114746,12.2834997177124,12.2843189239502,12.2851390838623,12.2859601974487,12.2867794036865,12.2875986099243,12.2884197235107,12.2892398834229,12.2900609970093,12.2908821105957,12.2917013168335,12.2925224304199,12.2933444976807,12.2941637039185,12.2949867248535,12.2958078384399,12.2966289520264,12.2974510192871,12.2982702255249,12.29909324646,12.2999143600464,12.3007364273071,12.3015594482422,12.3023805618286,12.303201675415,12.3040256500244,12.3048467636108,12.3056697845459,12.306492805481,12.3073148727417,12.3081378936768,12.3089609146118,12.3097839355469,12.3106079101562,12.3114309310913,12.3122539520264,12.3130769729614,12.3139009475708,12.3147239685059,12.3155469894409,12.3163709640503,12.317195892334,12.318018913269,12.3188438415527,12.3196687698364,12.3204927444458,12.3213176727295,12.3221426010132,12.3229665756226,12.3237915039062,12.3246164321899,12.3254413604736,12.3262672424316,12.3270921707153,12.3279190063477,12.3287439346313,12.3295698165894,12.3303928375244,12.3312206268311,12.3320455551147
4.49382638931274,4.50317335128784,4.51255893707275,4.5219841003418,4.53144884109497,4.54095268249512,4.55049705505371,4.56008148193359,4.56970643997192,4.5793719291687,4.58907842636108,4.59882640838623,4.60861539840698,4.61844635009766,4.62831926345825,4.63823509216309,4.64819288253784,4.65819358825684,4.66823768615723,4.67832469940186,4.6884560585022,4.69863080978394,4.70884990692139,4.71911382675171,4.7294225692749,4.73977613449097,4.75017547607422,4.7606201171875,4.77111148834229,4.78164863586426,4.79223251342773,4.80286359786987,4.81354188919067,4.82426738739014,4.83504104614258,4.845862865448,4.85673379898071,4.86765289306641,4.87862157821655,4.88963937759399,4.90070772171021,4.91182565689087,4.92299461364746,4.93421411514282,4.94548463821411,4.95680713653564,4.96818208694458,4.97960901260376,4.99108839035034,5.00262117385864,5.0142068862915,5.02584648132324,5.03754043579102,5.04928922653198,5.06109237670898,5.07295083999634,5.08486557006836,5.09683609008789,5.10886287689209,5.12094688415527,5.13308954238892,5.14528894424438,5.157546043396,5.16986227035522,5.18223714828491,5.19467163085938,5.20716571807861,5.21971988677979,5.23233509063721,5.24501132965088,5.2577486038208,8.27156543731689,8.28542995452881,8.29934120178223,8.31329917907715,8.32730388641357,8.3413553237915,8.35545539855957,8.36960220336914,8.38379764556885,8.39804077148438,8.41233253479004,8.42667388916016,8.44106292724609,8.4555025100708,8.46999073028564,8.48452854156494,8.49911689758301,8.51375484466553,8.65423011779785,8.66552829742432,8.67685604095459,8.68821430206299,8.69960117340088,8.71101856231689,8.72246551513672,8.73394298553467,8.74545001983643,8.75698852539062,8.76855659484863,8.78015613555908,8.79178524017334,8.80344581604004,8.81513786315918,8.82686042785645,8.83861446380615,8.85039901733398,8.86221599578857,12.0421371459961,12.0429248809814,12.0437126159668,12.0444993972778,12.0452871322632,12.0460748672485,12.0468626022339,12.0476512908936,12.0484409332275,12.0492286682129,12.0500164031982,12.0508060455322,12.0515947341919,12.0523843765259,12.0531721115112,12.0539617538452,12.0547504425049,12.0555400848389,12.0563297271729,12.0571193695068,12.0579099655151,12.0586996078491,12.0594892501831,12.0602769851685,12.0610675811768,12.0618572235107,12.0626487731934,12.063440322876,12.06422996521,12.0650205612183,12.0658121109009,12.0666036605835,12.0673942565918,12.0681838989258,12.0689754486084,12.069766998291,12.070556640625,12.0713481903076,12.0721387863159,12.0729322433472,12.0737237930298,12.0745153427124,12.0753078460693,12.0761013031006,12.0768909454346,12.0776844024658,12.0784769058228,12.0792684555054,12.0800619125366,12.0808553695679,12.0816469192505,12.0824403762817,12.0832328796387,12.0840263366699,12.0848197937012,12.0856132507324,12.0864057540894,12.0871992111206,12.0879926681519,12.0887861251831,12.089581489563,12.0903749465942,12.0911693572998,12.0919628143311,12.0927581787109,12.0935516357422,12.0943470001221,12.0951414108276,12.0959367752075,12.0967302322388,12.0975255966187,12.0983209609985,12.0991144180298,12.0999088287354,12.1007041931152,12.1014995574951,12.1022968292236,12.1030921936035,12.1038875579834,12.1046838760376,12.1054792404175,12.106276512146,12.1070718765259,12.1078691482544,12.1086645126343,12.1094608306885,12.1102561950684,12.1110515594482,12.1118507385254,12.1126461029053,12.1134443283081,12.1142406463623,12.1150369644165,12.1158361434937,12.1166334152222,12.1174306869507,12.1182298660278,12.119026184082,12.1198234558105,12.1206226348877,12.1214199066162,12.1222171783447,12.1230163574219,12.123815536499,12.1246128082275,12.1254110336304,12.1262102127075,12.127007484436,12.1278085708618,12.128607749939,12.1294069290161,12.1302061080933,12.1310043334961,12.1318035125732,12.1326026916504,12.1334018707275,12.1342010498047,12.1350021362305,12.1358013153076,12.1366024017334,12.1374015808105,12.1382026672363,12.1390027999878,12.1398038864136,12.1406030654907,12.1414041519165,12.1422052383423,12.1430063247681,12.1438074111938,12.1446084976196,12.1454095840454,12.1462087631226,12.1470108032227,12.1478118896484,12.1486129760742,12.1494159698486,12.150218963623,12.1510200500488,12.1518230438232,12.1526222229004,12.1534252166748,12.1542282104492,12.1550312042236,12.1558303833008,12.1566352844238,12.1574363708496,12.158239364624,12.1590423583984,12.1598463058472,12.1606492996216,12.161452293396,12.1622552871704,12.1630601882935,12.1638631820679,12.1646661758423,12.165472984314,12.1662759780884,12.1670789718628,12.1678819656372,12.1686868667603,12.1694917678833,12.170295715332,12.1710996627808,12.1719055175781,12.1727104187012,12.1735153198242,12.1743202209473,12.1751251220703,12.1759300231934,12.1767349243164,12.1775398254395,12.1783466339111,12.1791534423828,12.1799583435059,12.1807632446289,12.1815700531006,12.1823768615723,12.1831827163696,12.1839866638184,12.1847953796387,12.1856002807617,12.1864070892334,12.1872138977051,12.1880207061768,12.1888275146484,12.1896352767944,12.1904439926147,12.1912508010864,12.1920576095581,12.1928644180298,12.1936731338501,12.1944818496704,12.1952886581421,12.1960973739624,12.1969041824341,12.1977128982544,12.1985216140747,12.1993284225464,12.2001371383667,12.200945854187,12.2017545700073,12.2025632858276,12.2033720016479,12.2041807174683,12.2049894332886,12.2058000564575,12.2066087722778,12.2074174880981,12.2082281112671,12.209038734436,12.2098474502563,12.2106580734253,12.2114667892456,12.2122774124146,12.2130880355835,12.2138986587524,12.2147073745728,12.2155160903931,12.216326713562,12.217137336731,12.2179498672485,12.2187604904175,12.2195711135864,12.2203817367554,12.2211942672729,12.2220048904419,12.2228155136108,12.2236280441284,12.224440574646,12.2252511978149,12.2260637283325,12.2268743515015,12.2276887893677,12.2284994125366,12.2293119430542,12.2301244735718,12.2309370040894,12.2317485809326,12.2325611114502,12.2333755493164,12.234188079834,12.2350006103516,12.2358131408691,12.2366275787354,12.2374420166016,12.2382564544678,12.2390689849854,12.2398834228516,12.2406959533691,12.2415103912354,12.2423248291016,12.2431392669678,12.243953704834,12.2447681427002,12.2455825805664,12.2463970184326,12.2472114562988,12.2480249404907,12.2488403320312,12.2496538162231,12.250470161438,12.2512865066528,12.252100944519,12.2529153823853,12.2537317276001,12.2545480728149,12.2553625106812
4.48562717437744,4.49493980407715,4.50429153442383,4.51368188858032,4.52311182022095,4.53258085250854,4.54208993911743,4.55163860321045,4.56122779846191,4.57085800170898,4.58052825927734,4.59024000167847,4.59999227523804,4.60978651046753,4.61962270736694,4.62950086593628,4.63942098617554,4.64938449859619,4.65938997268677,4.6694393157959,4.67953157424927,4.68966817855835,4.69984817504883,4.71007299423218,4.72034168243408,4.73065614700317,4.74101495742798,4.75141954421997,4.76186990737915,4.77236652374268,4.78290939331055,4.79349899291992,4.8041353225708,4.8148193359375,4.82555103302002,4.83633041381836,4.84715795516968,4.85803413391113,4.86895942687988,4.87993383407593,4.89095783233643,4.90203189849854,4.91315603256226,4.92433071136475,4.93555641174316,4.94683361053467,4.95816230773926,4.96954298019409,4.98097610473633,4.99246215820312,5.00400066375732,5.0155930519104,5.02723932266235,5.03893995285034,5.05069494247437,5.06250476837158,5.07436990737915,5.08629131317139,5.09826803207397,5.11030197143555,5.12239265441895,5.13454103469849,5.14674663543701,5.15901231765747,5.17133522033691,5.18371725082397,5.19615888595581,5.20866012573242,5.22122144699097,5.23384380340576,5.24652719497681,5.25927209854126,5.27207946777344,8.25222015380859,8.26601982116699,8.27986621856689,8.29375839233398,8.30769729614258,8.32168292999268,8.33571624755859,8.34979629516602,8.36392402648926,8.37810039520264,8.39232444763184,8.40659713745117,8.42091751098633,8.43528747558594,8.44970703125,8.4641752243042,8.47869396209717,8.49326133728027,8.50788021087646,8.52254867553711,8.67665195465088,8.68800926208496,8.69939613342285,8.71081256866455,8.72225952148438,8.73373603820801,8.74524307250977,8.75678062438965,8.76834774017334,8.77994632720947,8.79157543182373,8.80323600769043,8.81492710113525,8.8266487121582,8.83840274810791,8.85018730163574,8.86200332641602,8.87385082244873,8.8857307434082,8.8976411819458,8.90958499908447,11.9736757278442,11.9744548797607,11.9752321243286,11.9760122299194,11.9767904281616,11.9775714874268,11.9783496856689,11.9791288375854,11.9799089431763,11.9806880950928,11.9814682006836,11.9822473526001,11.9830293655396,11.9838085174561,11.9845867156982,11.9853677749634,11.9861469268799,11.9869289398193,11.9877090454102,11.9884901046753,11.9892702102661,11.9900512695312,11.9908313751221,11.9916124343872,11.9923944473267,11.9931755065918,11.9939575195312,11.9947366714478,11.9955196380615,11.9962997436523,11.9970827102661,11.9978647232056,11.9986457824707,11.9994277954102,12.0002107620239,12.0009927749634,12.0017757415771,12.0025577545166,12.0033407211304,12.0041227340698,12.0049057006836,12.0056886672974,12.0064725875854,12.0072546005249,12.0080375671387,12.0088214874268,12.0096044540405,12.0103893280029,12.0111713409424,12.0119543075562,12.0127382278442,12.0135231018066,12.0143070220947,12.0150899887085,12.0158748626709,12.016658782959,12.0174436569214,0,12.0190124511719,12.0197973251343,12.0205812454224,12.0213670730591,12.0221519470215,12.0229368209839,12.023720741272,12.0245056152344,12.0252923965454,12.0260782241821,12.0268630981445,12.0276508331299,12.0284357070923,12.029221534729,12.0300064086914,12.0307941436768,12.0315809249878,12.0323657989502,12.0331535339355,12.0339403152466,12.034725189209,12.0355110168457,12.0362997055054,12.0370855331421,12.0378742218018,12.0386600494385,12.0394468307495,12.0402336120605,12.0410203933716,12.0418100357056,12.0425968170166,12.043384552002,12.0441732406616,12.0449600219727,12.045747756958,12.0465364456177,12.047324180603,12.0481128692627,12.0489015579224,12.0496892929077,12.0504779815674,12.0512676239014,12.052056312561,12.0528450012207,12.0536346435547,12.0544233322144,12.0552139282227,12.0560035705566,12.0567903518677,12.057580947876,12.05837059021,12.0591611862183,12.0599508285522,12.0607414245605,12.0615320205688,12.0623216629028,12.0631122589111,12.0639028549194,12.0646924972534,12.0654850006104,12.0662746429443,12.0670652389526,12.0678558349609,12.0686464309692,12.0694379806519,12.0702285766602,12.0710210800171,12.0718126296997,12.072603225708,12.0733957290649,12.0741872787476,12.0749797821045,12.0757713317871,12.076563835144,12.077356338501,12.0781478881836,12.0789384841919,12.0797328948975,12.0805253982544,12.0813188552856,12.0821113586426,12.0829038619995,12.0836973190308,12.0844898223877,12.0852832794189,12.0860757827759,12.0868701934814,12.087664604187,12.0884580612183,12.0892524719238,12.0900449752808,12.090838432312,12.0916328430176,12.0924272537231,12.0932216644287,12.09401512146,12.0948095321655,12.0956058502197,12.096399307251,12.0971937179565,12.0979900360107,12.0987854003906,12.0995798110962,12.1003761291504,12.101170539856,12.1019659042358,12.1027603149414,12.1035566329956,12.1043519973755,12.1051483154297,12.1059446334839,12.1067409515381,12.107536315918,12.1083326339722,12.109130859375,12.1099262237549,12.1107225418091,12.1115207672119,12.1123170852661,12.1131143569946,12.1139106750488,12.1147089004517,12.1155061721802,12.1163024902344,12.1171007156372,12.1178979873657,12.1186943054199,12.1194925308228,12.1202907562256,12.1210889816284,12.1218862533569,12.1226844787598,12.1234827041626,12.1242809295654,12.1250801086426,12.1258783340454,12.1266784667969,12.1274766921997,12.1282758712769,12.1290740966797,12.1298742294312,12.1306734085083,12.1314716339111,12.1322717666626,12.1330718994141,12.1338710784912,12.1346712112427,12.1354713439941,12.1362714767456,12.1370716094971,12.1378707885742,12.1386709213257,12.1394729614258,12.1402730941772,12.1410732269287,12.1418743133545,12.142674446106,12.1434764862061,12.1442766189575,12.1450777053833,12.1458797454834,12.1466817855835,12.1474828720093,12.1482839584351,12.1490869522095,12.1498889923096,12.150689125061,12.1514911651611,12.1522932052612,12.153094291687,12.1538982391357,12.1547002792358,12.1555023193359,12.156304359436,12.1571073532104,12.1579113006592,12.1587133407593,12.159517288208,12.1603202819824,12.1611223220825,12.1619262695312,12.16273021698,12.1635341644287,12.1643381118774,12.1651411056519,12.1659450531006,12.1667470932007,12.1675510406494,12.1683568954468,12.1691617965698,12.1699647903442,12.1707696914673,12.1715755462646,12.1723794937134,12.1731853485107,12.1739892959595,12.1747941970825,12.1756000518799,12.1764039993286,12.1772117614746,12.1780157089233,12.178822517395,12.1796283721924
4.47745800018311,4.48673677444458,4.49605417251587,4.50541019439697,4.51480531692505,4.52424001693726,4.53371381759644,4.5432276725769,4.55278158187866,4.56237554550171,4.5720100402832,4.58168506622314,4.59140157699585,4.60115909576416,4.61095857620239,4.62079954147339,4.63068246841431,4.64060831069946,4.65057611465454,4.66058731079102,4.67064142227173,4.680739402771,4.69088077545166,4.70106601715088,4.71129608154297,4.72157049179077,4.73188972473145,4.74225473403931,4.75266456604004,4.76312017440796,4.77362251281738,4.78417110443115,4.79476594924927,4.80540800094604,4.81609773635864,4.8268346786499,4.8376202583313,4.84845352172852,4.85933542251587,4.87026643753052,4.88124704360962,4.89227676391602,4.90335702896118,4.9144868850708,4.92566776275635,4.93689966201782,4.94818305969238,4.95951795578003,4.97090482711792,4.98234415054321,4.99383640289307,5.00538158416748,5.01698017120361,5.02863311767578,5.04033994674683,5.05210161209106,5.06391763687134,5.07578992843628,5.08771753311157,5.09970140457153,5.11174201965332,5.12383985519409,5.13599443435669,5.14820718765259,5.16047811508179,5.1728081703186,5.18519639968872,5.1976466178894,5.21015501022339,5.22272396087646,5.23535346984863,5.24804449081421,5.26079654693604,5.27361154556274,5.28648853302002,5.29942893981934,8.24670028686523,8.26048183441162,8.2743091583252,8.28818225860596,8.30210304260254,8.31606960296631,8.3300838470459,8.34414482116699,8.35825443267822,8.37241077423096,8.38661575317383,8.40086841583252,8.41516971588135,8.42952060699463,8.44392013549805,8.4583683013916,8.47286701202393,8.48741436004639,8.50201225280762,8.51666069030762,8.53135967254639,8.69919109344482,8.71060657501221,8.72205257415771,8.73352909088135,8.74503517150879,8.75657272338867,8.76813983917236,8.77973747253418,8.79136657714844,8.80302619934082,8.81471633911133,8.82643795013428,8.83819007873535,8.84997463226318,8.86178970336914,8.87363719940186,8.88551616668701,8.89742660522461,8.90936946868896,0,0,0,0,0,0,0,0,0,0,0,0,0,0,0,0,0,0,0,0,0,0,0,0,0,0,0,0,0,0,0,0,0,0,0,0,0,0,0,0,0,0,0,0,0,0,0,0,0,0,0,0,0,0,0,0,0,11.9469366073608,11.9477119445801,11.948486328125,11.9492616653442,11.9500370025635,11.950813293457,11.9515886306763,11.9523639678955,11.9531402587891,11.9539175033569,11.9546928405762,11.955470085144,11.9562463760376,11.9570217132568,11.9577989578247,11.9585771560669,11.9593524932861,11.960129737854,11.9609060287476,11.9616832733154,11.9624605178833,11.9632387161255,11.9640159606934,11.9647922515869,11.9655714035034,11.9663486480713,11.9671258926392,11.9679040908813,11.9686832427979,11.9694604873657,11.9702386856079,11.9710159301758,11.971794128418,11.9725732803345,11.973352432251,11.9741306304932,11.9749097824097,11.9756889343262,11.9764680862427,11.9772481918335,11.97802734375,11.9788064956665,11.9795866012573,11.9803657531738,11.981143951416,11.9819231033325,11.9827032089233,11.9834842681885,11.9842653274536,11.9850444793701,11.9858245849609,11.9866037368774,11.9873857498169,11.9881649017334,11.9889459609985,11.989727973938,11.9905090332031,11.9912900924683,11.9920701980591,11.9928493499756,11.993631362915,11.9944143295288,11.9951953887939,11.9959774017334,11.9967584609985,11.9975414276123,11.9983234405518,11.9991044998169,11.9998865127563,12.0006694793701,12.0014505386353,12.0022344589233,12.0030145645142,12.0037975311279,12.0045804977417,12.0053625106812,12.0061454772949,12.0069284439087,12.0077123641968,12.0084953308105,12.0092802047729,12.0100603103638,12.0108461380005,12.0116291046143,12.012412071228,12.0131959915161,12.0139789581299,12.014762878418,12.0155477523804,12.0163326263428,12.0171165466309,12.0179014205933,12.0186853408813,12.0194692611694,12.0202541351318,12.0210390090942,12.021824836731,12.0226097106934,12.0233955383301,12.0241804122925,12.0249652862549,12.025749206543,12.026535987854,12.0273218154907,12.0281066894531,12.0288944244385,12.0296792984009,12.0304660797119,12.0312519073486,12.0320386886597,12.032826423645,12.0336132049561,12.0343990325928,12.0351858139038,12.0359735488892,12.0367603302002,12.0375471115112,12.0383329391479,12.0391206741333,12.0399074554443,12.0406951904297,12.0414819717407,12.0422706604004,12.0430583953857,12.0438451766968,12.0446348190308,12.0454216003418,12.0462112426758,12.0469999313354,12.0477876663208,12.0485744476318,12.0493640899658,12.0501527786255,12.0509424209595,12.0517311096191,12.0525207519531,12.0533094406128,12.0540971755981,12.0548858642578,12.0556755065918,12.0564641952515,12.0572557449341,12.0580444335938,12.0588340759277,12.059624671936,12.06041431427,12.0612049102783,12.0619945526123,12.0627851486206,12.0635766983032,12.0643672943115,12.0651569366455,12.0659475326538,12.0667390823364,12.0675296783447,12.0683212280273,12.0691118240356,12.0699033737183,12.0706939697266,12.0714855194092,12.0722770690918,12.0730695724487,12.0738611221313,12.0746517181396,12.0754451751709,12.0762357711792,12.0770292282104,12.0778217315674,12.0786151885986,12.0794076919556,12.0801992416382,12.0809936523438,12.081787109375,12.0825777053833,12.0833730697632,12.0841646194458,12.0849571228027,12.085750579834,12.0865430831909,12.0873365402222,12.0881309509277,12.088924407959,12.0897188186646,12.0905122756958,12.0913057327271,12.0921020507812,12.0928955078125,12.0936899185181,12.0944852828979,12.0952796936035,12.0960750579834,12.0968685150146,12.0976648330688,12.0984582901001,12.0992527008057,12.1000499725342,12.1008443832397,12.1016397476196,12.1024332046509,12.1032295227051,12.1040267944336,12.1048221588135
4.46931791305542,4.47856330871582,4.48784685134888,4.49716854095459,4.50652933120728,4.51592922210693,4.52536869049072,4.53484725952148,4.54436588287354,4.55392408370972,4.56352281570435,4.57316255569458,4.5828423500061,4.59256410598755,4.60232639312744,4.61213064193726,4.62197685241699,4.63186502456665,4.64179563522339,4.65176868438721,4.66178464889526,4.67184448242188,4.68194723129272,4.69209384918213,4.70228481292725,4.71252012252808,4.72279977798462,4.73312473297119,4.74349451065063,4.75391006469727,4.76437139511108,4.77487897872925,4.78543281555176,4.79603385925293,4.80668163299561,4.81737661361694,4.8281192779541,4.8389105796814,4.84974956512451,4.86063766479492,4.87157440185547,4.88256072998047,4.89359664916992,4.90468263626099,4.91581869125366,4.92700576782227,4.9382438659668,4.94953298568726,4.96087408065796,4.97226715087891,4.98371315002441,4.99521160125732,5.00676298141479,5.01836824417114,5.03002738952637,5.04174041748047,5.05350875854492,5.06533193588257,5.07721042633057,5.08914518356323,5.10113573074341,5.11318302154541,5.12528705596924,5.13744926452637,5.14966869354248,5.16194677352905,5.17428350448608,5.18667936325073,5.199134349823,5.21164989471436,5.22422695159912,5.23686408996582,5.24956178665161,5.26232194900513,5.27514410018921,5.28802871704102,5.30097675323486,5.31398773193359,8.22747135162354,8.24118804931641,8.25495052337646,0,0,0,0,0,0,0,0,0,0,0,0,0,0,0,0,0,0,0,0,0,0,0,0,0,0,0,0,0,0,0,0,0,0,0,0,0,0,0,0,0,0,0,0,0,0,0,0,0,0,0,0,0,0,0,0,0,0,0,0,0,0,0,0,0,0,0,0,0,0,0,0,0,0,0,0,0,0,0,0,0,0,0,0,0,0,0,0,0,0,0,0,0,11.8757190704346,11.876485824585,11.8772506713867,11.8780193328857,11.8787841796875,11.8795509338379,11.8803176879883,11.8810844421387,11.8818511962891,11.8826198577881,11.8833847045898,11.8841514587402,11.8849182128906,11.885684967041,11.8864517211914,11.8872203826904,11.8879890441895,11.8887557983398,11.8895244598389,11.8902912139893,11.8910598754883,11.8918285369873,11.8925971984863,11.893364906311,11.8941335678101,11.8949022293091,11.8956689834595,11.8964376449585,11.8972082138062,11.8979768753052,11.8987436294556,11.8995122909546,11.9002809524536,11.9010515213013,11.9018201828003,11.9025897979736,11.903359413147,11.9041290283203,11.904899597168,11.9056701660156,11.9064388275146,11.9072074890137,11.90797996521,11.908748626709,11.9095191955566,11.9102897644043,11.911060333252,11.9118309020996,11.9126014709473,11.9133729934692,11.9141445159912,11.9149160385132,11.9156866073608,11.9164590835571,11.9172277450562,11.9179983139038,11.9187707901001,11.9195432662964,11.9203147888184,11.9210872650146,11.9218597412109,11.9226322174072,11.9234027862549,11.9241752624512,11.9249477386475,11.9257202148438,11.92649269104,11.9272651672363,11.9280376434326,11.9288110733032,11.9295835494995,11.9303560256958,11.9311304092407,11.931902885437,11.9326753616333,11.9334497451782,11.9342241287231,11.9349975585938,11.93577003479,11.936544418335,11.9373188018799,11.9380931854248,11.9388675689697,11.9396409988403,11.9404153823853,11.9411897659302,11.9419641494751,11.94273853302,11.9435129165649,11.9442892074585,11.9450635910034,11.9458389282227,11.9466152191162,11.9473896026611,11.9481639862061,11.9489402770996,11.9497165679932,11.9504899978638,11.9512662887573,11.9520425796509,11.9528188705444,11.953595161438,11.9543704986572,11.9551467895508,11.9559230804443,11.9566993713379,11.9574775695801,11.958251953125,11.9590301513672,11.9598054885864,11.96058177948,11.9613580703735,11.9621381759644,11.9629144668579,11.9636917114258,11.964469909668,11.9652481079102,11.9660243988037,11.9668025970459,11.9675798416138,11.9683599472046,11.9691381454468,11.969916343689,11.9706945419312,11.971471786499,11.9722499847412,11.973030090332,11.9738082885742,11.9745864868164,11.9753656387329,11.9761438369751,11.9769220352173,11.9777021408081,11.9784822463989,11.9792623519897,11.9800434112549,11.9808216094971,11.9816017150879,11.9823818206787,11.9831609725952,11.983941078186,11.9847211837769,11.9855012893677,11.9862823486328,11.9870643615723,11.9878425598145,11.9886245727539,11.9894046783447,11.9901866912842,11.9909658432007,11.9917478561401,11.992527961731,11.9933090209961,11.9940910339355,11.994873046875,11.9956541061401,11.9964361190796,11.997218132019,11.9979982376099,11.9987812042236,11.9995632171631,12.0003452301025,12.001127243042,12.0019111633301,12.0026922225952,12.0034761428833,12.0042581558228,12.0050411224365,12.005823135376,12.0066051483154,12.0073890686035,12.0081720352173,12.0089559555054,12.0097379684448,12.0105228424072,12.0113067626953,12.0120887756348,12.0128726959229,12.0136575698853,12.0144414901733,12.0152254104614,12.0160102844238,12.0167942047119,12.017578125,12.0183639526367,12.0191488265991,12.0199327468872,12.0207166671753,12.0215034484863,12.0222873687744,12.0230712890625,12.0238580703735,12.0246438980103,12.0254278182983,12.0262155532837,12.0270004272461,12.0277862548828,12.0285720825195,12.0293588638306,12.0301446914673,12.030930519104
4.4612078666687,4.47041940689087,4.47966909408569,4.48895740509033,4.49828386306763,4.50764942169189,4.51705408096313,4.52649784088135,4.53598117828369,4.54550457000732,4.55506753921509,4.56467151641846,4.57431554794312,4.58400058746338,4.59372711181641,4.60349464416504,4.61330366134644,4.62315464019775,4.63304758071899,4.64298391342163,4.65296173095703,4.66298341751099,4.67304801940918,4.68315601348877,4.69330787658691,4.70350408554077,4.71374464035034,4.72402954101562,4.73435974121094,4.74473524093628,4.75515604019165,4.76562309265137,4.77613639831543,4.78669548034668,4.79730176925659,4.80795526504517,4.81865644454956,4.82940483093262,4.84020137786865,4.85104656219482,4.86194038391113,4.87288331985474,4.88387537002563,4.89491748809814,4.90600919723511,4.91715145111084,4.92834424972534,4.93958854675293,0,0,0,0,0,0,0,0,0,0,0,0,0,0,0,0,0,0,0,0,0,0,0,0,0,0,0,0,0,0,0,0,0,0,0,0,0,0,0,0,0,0,0,0,0,0,0,0,0,0,0,0,0,0,0,0,0,0,0,0,0,0,0,0,0,0,0,0,0,0,0,0,0,0,0,0,0,0,0,0,0,0,0,0,0,0,0,0,0,0,0,0,0,0,0,0,0,0,0,0,0,0,0,0,0,0,0,0,0,0,0,0,0,0,0,0,0,0,0,0,0,0,0,0,0,0,0,11.8053464889526,11.8061027526855,11.8068609237671,11.8076181411743,11.8083744049072,11.8091325759888,11.8098907470703,11.8106479644775,11.8114042282104,11.812162399292,11.8129205703735,11.8136777877808,11.8144359588623,11.8151941299438,11.8159532546997,11.8167114257812,11.8174715042114,11.818229675293,11.8189868927002,11.8197469711304,11.8205051422119,11.8212652206421,11.8220224380493,11.8227825164795,11.8235425949097,11.8243007659912,11.8250598907471,11.8258199691772,11.8265800476074,11.827338218689,11.8280992507935,11.8288593292236,11.8296194076538,11.830379486084,11.8311405181885,11.8319005966187,11.8326587677002,11.833420753479,11.8341808319092,11.8349418640137,11.8357038497925,11.8364639282227,11.8372259140015,11.837986946106,11.8387489318848,11.8395090103149,11.8402709960938,11.8410320281982,11.8417940139771,11.8425559997559,11.843316078186,11.8440790176392,11.844841003418,11.8456010818481,11.8463649749756,11.8471269607544,11.8478899002075,11.8486518859863,11.8494138717651,11.8501777648926,11.85094165802,11.8517036437988,11.852466583252,11.8532304763794,11.8539943695068,11.854754447937,11.8555202484131,11.8562822341919,11.8570470809937,11.8578109741211,11.8585748672485,11.859338760376,11.8601016998291,11.8608655929565,11.861629486084,11.8623952865601,11.8631591796875,11.8639230728149,11.8646879196167,11.8654508590698,11.8662176132202,11.8669815063477,11.8677453994751,11.8685111999512,11.8692770004272,11.8700408935547,11.8708066940308,11.8715715408325,11.8723373413086,11.8731031417847,11.8738689422607,11.8746347427368,11.8754014968872,11.8761644363403,11.876932144165,11.8776988983154,11.8784646987915,11.8792304992676,11.8799982070923,11.8807640075684,11.8815317153931,11.8822984695435,11.8830661773682,11.8838319778442,11.8845996856689,11.885365486145,11.8861351013184,11.8869009017944,11.8876686096191,11.8884363174438,11.8892040252686,11.8899726867676,11.8907403945923,11.8915100097656,11.8922758102417,11.893045425415,11.8938131332397,11.8945817947388,11.8953514099121,11.8961191177368,11.8968887329102,11.8976545333862,11.8984241485596,11.8991937637329,11.8999633789062,11.9007329940796,11.9015026092529,11.9022703170776,11.9030408859253,11.9038105010986,11.904580116272,11.9053497314453,11.9061193466187,11.9068908691406,11.907660484314,11.9084320068359,11.9092016220093,11.9099712371826,11.9107427597046,11.9115123748779,11.9122819900513,11.9130535125732,11.9138250350952,11.9145956039429,11.9153661727905,11.9161386489868,11.9169082641602,11.9176797866821,11.9184513092041,11.9192247390747,11.9199962615967,11.9207677841187,11.9215393066406,11.9223127365112,11.9230842590332,11.9238576889038,11.9246301651001,11.9254026412964,11.9261751174927,11.9269485473633,11.9277191162109,11.9284925460815,11.9292650222778,11.9300384521484,11.9308109283447,11.9315853118896,11.9323587417603,11.9331321716309,11.9339056015015,11.9346790313721,11.9354524612427,11.9362258911133,11.9369993209839,11.9377746582031,11.9385480880737,11.9393215179443,11.9400968551636,11.9408702850342,11.9416456222534,11.9424209594727,11.9431943893433,11.9439697265625,11.9447450637817,11.9455184936523,11.9462938308716,11.9470691680908,11.9478445053101,11.9486198425293,11.9493951797485,11.9501724243164,11.9509477615356,11.9517230987549,11.9524993896484,11.953275680542,11.9540519714355,11.9548282623291,11.9556045532227,11.9563808441162,11.9571580886841,11.9579343795776
4.45312738418579,4.46230506896973,4.47152137756348,4.48077583312988,4.49006843566895,4.49939966201782,4.50876951217651,4.51817893981934,4.52762746810913,4.53711557388306,4.54664373397827,4.55621194839478,4.56582021713257,4.57546949386597,4.58515930175781,4.59489059448242,4.60466289520264,4.61447715759277,4.62433338165283,4.63423156738281,4.64417219161987,4.65415573120117,4.66418218612671,4.67425203323364,0,0,0,0,0,0,0,0,0,0,0,0,0,0,0,0,0,0,0,0,0,0,0,0,0,0,0,0,0,0,0,0,0,0,0,0,0,0,0,0,0,0,0,0,0,0,0,0,0,0,0,0,0,0,0,0,0,0,0,0,0,0,0,0,0,0,0,0,0,0,0,0,0,0,0,0,0,0,0,0,0,0,0,0,0,0,0,0,0,0,0,0,0,0,0,0,0,0,0,0,0,0,0,0,0,0,0,0,0,0,0,0,0,0,0,0,0,0,0,0,0,0,0,0,0,0,0,0,0,0,0,0,0,0,0,0,0,0,0,0,0,0,0,0,0,0,0,0,0,0,0,11.7350540161133,11.735803604126,11.7365522384644,11.7372989654541,11.7380485534668,11.7387952804565,11.7395448684692,11.7402935028076,11.741042137146,11.7417898178101,11.7425384521484,11.7432899475098,11.7440366744995,11.7447872161865,11.7455368041992,11.7462854385376,11.7470359802246,11.7477855682373,11.7485342025757,11.7492837905884,11.7500333786011,11.7507839202881,11.7515325546265,11.7522840499878,11.7530345916748,11.7537841796875,11.7545347213745,11.7552852630615,11.7560367584229,11.7567873001099,11.7575387954712,11.7582893371582,11.7590398788452,11.7597913742065,11.7605419158936,11.7612934112549,11.7620439529419,11.7627935409546,11.7635459899902,11.7642974853516,11.7650499343872,11.7658014297485,11.7665538787842,11.7673053741455,11.7680578231812,11.7688102722168,11.7695636749268,11.7703151702881,11.7710676193237,11.7718191146851,11.7725715637207,11.7733249664307,11.7740774154663,11.7748317718506,11.7755851745605,11.7763376235962,11.7770929336548,11.7778453826904,11.7785987854004,11.779351234436,11.7801065444946,11.7808609008789,11.7816123962402,11.7823667526245,11.7831220626831,11.7838745117188,11.7846298217773,11.7853841781616,11.7861394882202,11.7868938446045,11.7876491546631,11.7884016036987,11.789158821106,11.7899131774902,11.7906684875488,11.7914228439331,11.7921781539917,11.792932510376,11.7936897277832,11.7944431304932,11.7951993942261,11.795955657959,11.7967109680176,11.7974662780762,11.7982244491577,11.798978805542,11.7997360229492,11.8004922866821,11.8012495040894,11.8020057678223,11.8027610778809,11.8035182952881,11.804274559021,11.8050317764282,11.8057880401611,11.8065452575684,11.8073034286499,11.8080606460571,11.8088178634644,11.8095760345459,11.8103332519531,11.8110914230347,11.8118486404419,11.8126049041748,11.8133640289307,11.8141212463379,11.8148794174194,11.8156385421753,11.8163967132568,11.8171539306641,11.8179140090942,11.8186731338501,11.8194313049316,11.8201885223389,11.8209476470947,11.8217058181763,11.8224649429321,11.8232259750366,11.8239841461182,11.8247451782227,11.8255033493042,11.8262643814087,11.8270244598389,11.8277854919434,11.8285436630249,11.8293046951294,11.8300647735596,11.8308258056641,11.8315868377686,11.8323450088501,11.8331060409546,11.8338670730591,11.8346271514893,11.8353881835938,11.8361482620239,11.8369092941284,11.8376703262329,11.8384323120117,11.8391933441162,11.839955329895,11.8407163619995,11.8414793014526,11.8422393798828,11.8430004119873,11.8437633514404,11.8445272445679,11.8452882766724,11.8460502624512,11.8468132019043,11.8475761413574,11.8483371734619,11.8491010665894,11.8498640060425,11.8506240844727,11.8513870239258,11.8521499633789,11.8529138565063,11.8536767959595,11.8544416427612,11.85520362854,11.8559665679932,11.8567314147949,11.8574934005737,11.8582582473755,11.8590221405029,11.8597869873047,11.8605499267578,11.8613147735596,11.862078666687,11.8628416061401,11.8636083602905,11.864372253418,11.8651351928711,11.8659000396729,11.8666658401489,11.8674287796021,11.8681955337524,11.8689603805542,11.8697261810303,11.8704929351807,11.8712587356567,11.8720235824585,11.8727884292603,11.8735542297363,11.8743190765381,11.8750858306885,11.8758525848389,11.8766183853149,11.8773851394653,11.8781518936157,11.8789176940918,11.8796844482422,11.8804512023926,11.8812170028687,11.8819828033447,11.8827505111694,11.8835172653198,11.8842849731445,11.8850517272949,11.8858184814453
4.44507551193237,4.45422077178955,0,0,0,0,0,0,0,0,0,0,0,0,0,0,0,0,0,0,0,0,0,0,0,0,0,0,0,0,0,0,0,0,0,0,0,0,0,0,0,0,0,0,0,0,0,0,0,0,0,0,0,0,0,0,0,0,0,0,0,0,0,0,0,0,0,0,0,0,0,0,0,0,0,0,0,0,0,0,0,0,0,0,0,0,0,0,0,0,0,0,0,0,0,0,0,0,0,0,0,0,0,0,0,0,0,0,0,0,0,0,0,0,0,0,0,0,0,0,0,0,0,0,0,0,0,0,0,0,0,0,0,0,0,0,0,0,0,0,0,0,0,0,0,0,0,0,0,0,0,0,0,0,0,0,0,0,0,0,0,0,0,0,0,0,0,0,0,0,0,0,0,0,0,0,11.6663341522217,11.6670722961426,11.6678123474121,11.6685523986816,11.6692905426025,11.6700305938721,11.6707706451416,11.6715106964111,11.6722507476807,11.6729907989502,11.6737308502197,11.6744709014893,11.6752128601074,11.6759519577026,11.6766929626465,11.6774320602417,11.6781721115112,11.678915977478,11.6796560287476,11.6803960800171,11.6811380386353,11.6818799972534,11.6826200485229,11.6833620071411,11.6841020584106,11.6848440170288,11.685585975647,11.6863288879395,11.6870708465576,11.6878108978271,11.6885547637939,11.6892967224121,11.6900367736816,11.6907806396484,11.6915225982666,11.6922645568848,11.6930074691772,11.693751335144,11.6944952011108,11.695237159729,11.6959810256958,11.696722984314,11.6974649429321,11.6982088088989,11.6989526748657,11.6996955871582,11.700439453125,11.7011833190918,11.7019271850586,11.7026710510254,11.7034149169922,11.704158782959,11.7049026489258,11.7056474685669,11.7063913345337,11.7071352005005,11.7078809738159,11.7086248397827,11.7093687057495,11.7101135253906,11.7108592987061,11.7116031646729,11.7123489379883,11.7130928039551,11.7138385772705,11.7145843505859,11.7153310775757,11.7160749435425,11.7168207168579,11.7175664901733,11.7183122634888,11.7190580368042,11.7198047637939,11.7205505371094,11.7212963104248,11.7220439910889,11.72278881073,11.723536491394,11.7242822647095,11.7250299453735,11.725775718689,11.7265214920044,11.7272701263428,11.7280178070068,11.7287635803223,11.7295112609863,11.7302570343018,11.7310056686401,11.7317533493042,11.7325010299683,11.7332487106323,11.7339954376221,11.7347431182861,11.7354907989502,11.7362403869629,11.7369871139526,11.7377347946167,11.7384843826294,11.7392320632935,11.7399816513062,11.7407302856445,11.7414779663086,11.7422275543213,11.7429752349854,11.7437257766724,11.7444734573364,11.7452230453491,11.7459726333618,11.7467222213745,11.7474727630615,11.7482223510742,11.7489719390869,11.7497215270996,11.750470161438,11.7512216567993,11.7519731521606,11.7527208328247,11.7534732818604,11.754222869873,11.7549724578857,11.7557239532471,11.7564744949341,11.7572259902954,11.7579774856567,11.7587261199951,11.7594776153564,11.7602291107178,11.7609796524048,11.7617321014404,11.7624845504761,11.7632341384888,11.7639875411987,11.7647380828857,11.7654895782471,11.766242980957,11.7669944763184,11.767746925354,11.7684984207153,11.7692518234253,11.7700042724609,11.7707557678223,11.7715072631836,11.7722616195679,11.7730150222778,11.7737665176392,11.7745199203491,11.7752742767334,11.7760257720947,11.7767810821533,11.777533531189,11.7782869338989,11.7790403366089,11.7797946929932,11.7805480957031,11.7813034057617,11.7820568084717,11.782811164856,11.7835645675659,11.7843198776245,11.7850742340088,11.7858276367188,11.7865829467773,11.7873373031616,11.7880926132202,11.7888450622559,11.7896003723145,11.790355682373,11.7911100387573,11.7918672561646,11.7926225662231,11.7933778762817,11.794132232666,11.7948875427246,11.7956447601318,11.7963991165161,11.7971563339233,11.7979125976562,11.7986679077148,11.7994232177734,11.800181388855,11.8009366989136,11.8016939163208,11.8024520874023,11.8032073974609,11.8039636611938,11.8047189712524,11.8054761886597,11.8062343597412,11.8069915771484,11.8077487945557,11.8085069656372,11.8092622756958,11.8100204467773,11.8107795715332,11.8115358352661,11.8122930526733,11.8130521774292,11.8138103485107,11.814567565918
0,0,0,0,0,0,0,0,0,0,0,0,0,0,0,0,0,0,0,0,0,0,0,0,0,0,0,0,0,0,0,0,0,0,0,0,0,0,0,0,0,0,0,0,0,0,0,0,0,0,0,0,0,0,0,0,0,0,0,0,0,0,0,0,0,0,0,0,0,0,0,0,0,0,0,0,0,0,0,0,0,0,0,0,0,0,0,0,0,0,0,0,0,0,0,0,0,0,0,0,0,0,0,0,0,0,0,0,0,0,0,0,0,0,0,0,0,0,0,0,0,0,0,0,0,0,0,0,0,0,0,0,0,0,0,0,0,0,0,0,0,0,0,0,0,0,0,0,0,0,0,0,0,0,0,0,0,0,0,0,0,0,0,0,0,0,0,0,0,0,0,0,0,0,0,0,11.5976829528809,11.5984125137329,11.5991439819336,11.59987449646,11.6006078720093,11.6013374328613,11.6020679473877,11.602801322937,11.6035308837891,11.6042613983154,11.6049947738647,11.6057262420654,11.6064567565918,11.6071882247925,11.6079196929932,11.6086530685425,11.6093835830688,11.6101169586182,11.6108484268188,11.6115808486938,11.6123123168945,11.6130456924438,11.6137790679932,11.6145114898682,11.6152429580688,11.6159782409668,11.6167097091675,11.6174421310425,11.6181755065918,11.6189088821411,11.6196422576904,11.6203746795654,11.6211080551147,11.6218433380127,11.622576713562,11.623309135437,11.624044418335,11.6247777938843,11.6255111694336,11.6262474060059,11.6269807815552,11.6277141571045,11.6284475326538,11.6291809082031,11.6299161911011,11.6306505203247,11.6313858032227,11.6321210861206,11.6328563690186,11.6335906982422,11.6343278884888,11.6350631713867,11.6357984542847,11.6365327835083,11.6372680664062,11.6380033493042,11.6387386322021,11.6394758224487,11.6402111053467,11.6409473419189,11.6416826248169,11.6424198150635,11.6431570053101,11.643892288208,11.6446285247803,11.6453657150269,11.6461029052734,11.6468381881714,11.6475763320923,11.6483116149902,11.6490488052368,11.6497859954834,11.65052318573,11.6512603759766,11.6519985198975,11.652735710144,11.6534729003906,11.6542119979858,11.6549491882324,11.6556882858276,11.6564245223999,11.6571636199951,11.6579008102417,11.6586380004883,11.6593770980835,11.6601142883301,11.6608552932739,11.6615934371948,11.6623306274414,11.6630697250366,11.6638107299805,11.6645498275757,11.6652889251709,11.6660270690918,11.666766166687,11.6675052642822,11.6682462692261,11.6689834594727,11.6697244644165,11.6704635620117,11.6712026596069,11.6719436645508,11.6726837158203,11.6734247207642,11.6741638183594,11.6749029159546,11.6756458282471,11.6763849258423,11.6771259307861,11.67786693573,11.6786079406738,11.6793479919434,11.6800889968872,11.6808300018311,11.6815710067749,11.6823120117188,11.6830549240112,11.6837959289551,11.6845369338989,11.6852779388428,11.6860208511353,11.6867618560791,11.6875038146973,11.6882448196411,11.6889877319336,11.6897306442261,11.6904716491699,11.6912145614624,11.6919574737549,11.6927003860474,11.6934432983398,11.6941862106323,11.6949291229248,11.6956729888916,11.6964149475098,11.6971569061279,11.697901725769,11.6986436843872,11.699387550354,11.7001304626465,11.7008752822876,11.7016181945801,11.7023611068726,11.7031059265137,11.7038507461548,11.7045936584473,11.7053384780884,11.7060832977295,11.7068281173706,11.7075710296631,11.7083158493042,11.7090625762939,11.7098064422607,11.7105512619019,11.711296081543,11.7120399475098,11.7127866744995,11.7135314941406,11.7142763137817,11.7150211334229,11.7157669067383,11.7165126800537,11.7172574996948,11.7180042266846,11.7187490463257,11.7194957733154,11.7202425003052,11.7209882736206,11.7217350006104,11.7224817276001,11.7232275009155,11.7239751815796,11.7247219085693,11.7254686355591,11.7262153625488,11.7269620895386,11.7277088165283,11.7284555435181,11.7292032241821,11.7299499511719,11.7306985855103,11.7314453125,11.7321920394897,11.7329406738281,11.7336874008179,11.7344360351562,11.7351846694946,11.7359313964844,11.7366800308228,11.7374286651611,11.7381772994995,11.7389259338379,11.7396745681763,11.7404232025146,11.741171836853,11.7419204711914,11.7426681518555,11.7434177398682,11.7441654205322
0,0,0,0,0,0,0,0,0,0,0,0,0,0,0,0,0,0,0,0,0,0,0,0,0,0,0,0,0,0,0,0,0,0,0,0,0,0,0,0,0,0,0,0,0,0,0,0,0,0,0,0,0,0,0,0,0,0,0,0,0,0,0,0,0,0,0,0,0,0,0,0,0,0,0,0,0,0,0,0,0,0,0,0,0,0,0,0,0,0,0,0,0,0,0,0,0,0,0,0,0,0,0,0,0,0,0,0,0,0,0,0,0,0,0,0,0,0,0,0,0,0,0,0,0,0,0,0,0,0,0,0,0,0,0,0,0,0,0,0,0,0,0,0,0,0,0,0,0,0,0,0,0,0,0,0,0,0,0,0,0,0,0,0,0,0,0,0,0,0,0,0,0,0,0,0,11.5298347473145,11.530556678772,11.5312786102295,11.5320024490356,11.5327234268188,11.533447265625,11.5341691970825,11.5348920822144,11.5356140136719,11.5363368988037,11.5370588302612,11.5377826690674,11.5385055541992,11.5392293930054,11.5399513244629,11.5406761169434,11.5413980484009,11.5421237945557,11.5428466796875,11.5435705184937,11.5442943572998,11.5450191497803,11.5457429885864,11.5464668273926,11.5471897125244,11.5479135513306,11.548638343811,11.5493640899658,11.550087928772,11.5508127212524,11.5515365600586,11.5522623062134,11.5529870986938,11.5537128448486,11.5544376373291,11.5551633834839,11.5558891296387,11.5566139221191,11.5573377609253,11.5580644607544,11.5587902069092,11.559515953064,11.5602426528931,11.5609664916992,11.5616931915283,11.5624208450317,11.5631446838379,11.5638732910156,11.5645990371704,11.5653257369995,11.5660533905029,11.5667791366577,11.5675058364868,11.5682315826416,11.568959236145,11.5696859359741,11.5704126358032,11.5711402893066,11.5718679428101,11.5725946426392,11.5733222961426,11.5740509033203,11.5747766494751,11.5755052566528,11.5762329101562,11.5769624710083,11.5776872634888,11.5784168243408,11.5791454315186,11.579873085022,11.5806016921997,11.5813293457031,11.5820598602295,11.5827875137329,11.583517074585,11.5842456817627,11.5849742889404,11.5857038497925,11.5864315032959,11.5871620178223,11.5878896713257,11.5886201858521,11.5893487930298,11.5900783538818,11.5908079147339,11.5915384292603,11.5922679901123,11.5929985046387,11.5937280654907,11.5944585800171,11.5951900482178,11.5959205627441,11.5966501235962,11.5973806381226,11.5981101989746,11.598840713501,11.599570274353,11.6003007888794,11.6010322570801,11.6017627716064,11.6024942398071,11.6032266616821,11.6039571762085,11.6046886444092,11.6054201126099,11.6061525344849,11.6068830490112,11.6076145172119,11.6083478927612,11.6090784072876,11.6098108291626,11.6105422973633,11.6112747192383,11.6120071411133,11.6127405166626,11.6134719848633,11.6142063140869,11.6149377822876,11.6156702041626,11.6164045333862,11.6171360015869,11.6178703308105,11.6186037063599,11.6193380355835,11.6200695037842,11.6208038330078,11.6215372085571,11.6222715377808,11.6230049133301,11.6237373352051,11.6244716644287,11.625205039978,11.6259393692017,11.6266746520996,11.6274108886719,11.6281442642212,11.6288785934448,11.6296129226685,11.6303482055664,11.6310844421387,11.631817817688,11.6325521469116,11.6332874298096,11.6340236663818,11.6347579956055,11.6354932785034,11.6362295150757,11.6369647979736,11.6376991271973,11.6384353637695,11.6391706466675,11.6399068832397,11.640643119812,11.64137840271,11.6421165466309,11.6428518295288,11.6435880661011,11.6443243026733,11.6450614929199,11.6457977294922,11.6465339660645,11.647271156311,11.6480093002319,11.6487445831299,11.6494827270508,11.650218963623,11.6509561538696,11.6516942977905,11.6524314880371,11.653169631958,11.6539058685303,11.6546449661255,11.6553812026978,11.6561193466187,11.6568574905396,11.6575965881348,11.6583347320557,11.6590728759766,11.6598119735718,11.6605501174927,11.6612882614136,11.6620273590088,11.6627674102783,11.6635046005249,11.6642446517944,11.664984703064,11.6657238006592,11.6664619445801,11.6672019958496,11.6679401397705,11.6686773300171,11.6694211959839,11.6701593399048,11.6709003448486,11.6716403961182,11.6723794937134,11.6731195449829,11.6738595962524,11.6746006011963
0,0,0,0,0,0,0,0,0,0,0,0,0,0,0,0,0,0,0,0,0,0,0,0,0,0,0,0,0,0,0,0,0,0,0,0,0,0,0,0,0,0,0,0,0,0,0,0,0,0,0,0,0,0,0,0,0,0,0,0,0,0,0,0,0,0,0,0,0,0,0,0,0,0,0,0,0,0,0,0,0,0,0,0,0,0,0,0,0,0,0,0,0,0,0,0,0,0,0,0,0,0,0,0,0,0,0,0,0,0,0,0,0,0,0,0,0,0,0,0,0,0,0,0,0,0,0,0,0,0,0,0,0,0,0,0,0,0,0,0,0,0,0,0,0,0,0,0,0,0,0,0,0,0,0,0,0,0,0,0,0,0,0,0,0,0,0,0,0,0,0,0,0,0,0,0,0,11.4634895324707,11.464204788208,11.4649181365967,11.465633392334,11.4663467407227,11.46706199646,11.4677753448486,11.4684886932373,11.4692039489746,11.4699192047119,11.4706325531006,11.4713478088379,11.4720630645752,11.4727783203125,11.4734926223755,11.4742069244385,11.4749231338501,11.4756383895874,11.4763536453247,11.477068901062,11.477783203125,11.4784994125366,11.4792146682739,11.4799318313599,11.4806470870972,11.4813642501831,11.4820795059204,11.4827947616577,11.4835119247437,11.4842290878296,11.4849443435669,11.4856615066528,11.4863786697388,11.4870939254761,11.487811088562,11.4885263442993,11.4892435073853,11.4899625778198,11.4906797409058,11.4913969039917,11.4921140670776,11.4928293228149,11.4935483932495,11.4942655563354,11.4949827194214,11.495701789856,11.4964189529419,11.4971380233765,11.4978523254395,11.498571395874,11.49928855896,11.5000076293945,11.5007266998291,11.5014457702637,11.5021629333496,11.5028839111328,11.5036010742188,11.5043201446533,11.5050392150879,11.5057582855225,11.506477355957,11.5071964263916,11.5079135894775,11.5086345672607,11.5093536376953,11.5100727081299,11.5107927322388,11.5115127563477,11.5122327804565,11.5129537582397,11.5136728286743,11.5143938064575,11.5151128768921,11.5158338546753,11.5165529251099,11.5172739028931,11.5179929733276,11.5187139511108,11.519434928894,11.5201568603516,11.5208778381348,11.521598815918,11.5223197937012,11.5230407714844,11.5237617492676,11.5244827270508,11.5252056121826,11.5259265899658,11.526647567749,11.5273704528809,11.5280923843384,11.5288133621216,11.5295343399048,11.5302572250366,11.5309801101685,11.5317010879517,11.5324239730835,11.5331468582153,11.5338687896729,11.5345916748047,11.5353145599365,11.5360374450684,11.5367603302002,11.537483215332,11.5382061004639,11.5389280319214,11.5396528244019,11.5403757095337,11.5410985946655,11.5418214797974,11.5425453186035,11.543270111084,11.5439929962158,11.5447177886963,11.5454406738281,11.5461654663086,11.5468902587891,11.5476140975952,11.5483388900757,11.5490617752075,11.5497884750366,11.5505113601685,11.5512361526489,11.5519618988037,11.5526866912842,11.5534114837646,11.5541343688965,11.5548610687256,11.5555868148804,11.5563116073608,11.5570363998413,11.5577630996704,11.5584897994995,11.55921459198,11.5599403381348,11.5606670379639,11.561393737793,11.5621185302734,11.5628452301025,11.5635709762573,11.5642976760864,11.5650224685669,11.565749168396,11.5664768218994,11.5672035217285,11.5679302215576,11.5686569213867,11.5693836212158,11.5701112747192,11.5708379745483,11.5715665817261,11.5722932815552,11.5730209350586,11.5737476348877,11.5744762420654,11.5752048492432,11.5759315490723,11.57666015625,11.5773897171021,11.5781164169312,11.5788450241089,11.5795726776123,11.5802993774414,11.5810298919678,11.5817584991455,11.5824871063232,11.5832166671753,11.5839433670044,11.5846729278564,11.5854034423828,11.5861320495605,11.5868606567383,11.587589263916,11.5883188247681,11.5890493392944,11.5897779464722,11.5905075073242,11.5912380218506,11.591968536377,11.5926971435547,11.5934286117554,11.5941553115845,11.5948877334595,11.5956172943115,11.5963478088379,11.5970783233643,11.5978097915649,11.5985403060913,11.5992708206177,11.6000003814697,11.6007328033447,11.6014633178711,11.6021947860718,11.6029253005981,11.6036558151245,11.6043882369995,11.6051197052002,11.6058521270752
0,0,0,0,0,0,0,0,0,0,0,0,0,0,0,0,0,0,0,0,0,0,0,0,0,0,0,0,0,0,0,0,0,0,0,0,0,0,0,0,0,0,0,0,0,0,0,0,0,0,0,0,0,0,0,0,0,0,0,0,0,0,0,0,0,0,0,0,0,0,0,0,0,0,0,0,0,0,0,0,0,0,0,0,0,0,0,0,0,0,0,0,0,0,0,0,0,0,0,0,0,0,0,0,0,0,0,0,0,0,0,0,0,0,0,0,0,0,0,0,0,0,0,0,0,0,0,0,0,0,0,0,0,0,0,0,0,0,0,0,0,0,0,0,0,0,0,0,0,0,0,0,0,0,0,0,0,0,0,0,0,0,0,0,0,0,0,0,0,0,0,0,0,0,0,0,0,11.3971996307373,11.3979053497314,11.3986110687256,11.3993158340454,11.4000205993652,11.4007263183594,11.4014348983765,11.402138710022,11.4028472900391,11.4035520553589,11.4042596817017,11.4049654006958,11.4056720733643,11.4063787460327,11.4070863723755,11.4077930450439,11.4085006713867,11.4092054367065,11.409912109375,11.4106197357178,11.4113273620605,11.412034034729,11.4127407073975,11.4134502410889,11.414158821106,11.4148645401001,11.4155731201172,11.4162817001343,11.4169893264771,11.4176959991455,11.4184055328369,11.4191122055054,11.4198207855225,11.4205284118652,11.421238899231,11.4219465255737,11.4226551055908,11.4233646392822,11.4240713119507,11.4247817993164,11.4254913330078,11.4261999130249,11.426908493042,11.4276180267334,11.4283285140991,11.4290370941162,11.429744720459,11.4304552078247,11.4311656951904,11.4318752288818,11.4325857162476,11.433295249939,11.4340057373047,11.4347162246704,11.4354257583618,11.4361362457275,11.4368467330933,11.4375562667847,11.438268661499,11.4389781951904,11.4396886825562,11.4403991699219,11.4411106109619,11.4418210983276,11.442533493042,11.443244934082,11.4439554214478,11.4446678161621,11.4453783035278,11.4460897445679,11.4468021392822,11.4475135803223,11.4482259750366,11.448938369751,11.4496488571167,11.4503602981567,11.4510746002197,11.4517860412598,11.4524984359741,11.4532108306885,11.4539241790771,11.4546346664429,11.4553489685059,11.4560632705688,11.4567747116089,11.4574890136719,11.4582014083862,11.4589138031006,11.4596252441406,11.4603395462036,11.4610538482666,11.4617671966553,11.4624814987183,11.4631958007812,11.4639081954956,11.4646234512329,11.4653358459473,11.4660501480103,11.4667644500732,11.4674777984619,11.4681921005249,11.4689083099365,11.4696207046509,11.4703340530396,11.4710502624512,11.4717645645142,11.4724788665771,11.4731941223145,11.4739084243774,11.4746246337891,11.4753389358521,11.4760541915894,11.476770401001,11.4774866104126,11.4782028198242,11.4789171218872,11.4796323776245,11.4803466796875,11.4810647964478,11.4817810058594,11.4824962615967,11.4832124710083,11.4839305877686,11.4846467971802,11.4853620529175,11.4860801696777,11.4867963790894,11.487512588501,11.4882297515869,11.4889478683472,11.4896640777588,11.490382194519,11.4910984039307,11.4918146133423,11.4925317764282,11.4932498931885,11.4939661026001,11.494686126709,11.4954023361206,11.4961214065552,11.4968376159668,11.4975557327271,11.4982738494873,11.4989938735962,11.4997110366821,11.5004291534424,11.5011491775513,11.5018672943115,11.5025863647461,11.5033044815063,11.5040245056152,11.5047426223755,11.5054626464844,11.506178855896,11.5068988800049,11.5076169967651,11.508337020874,11.5090560913086,11.5097751617432,11.5104961395264,11.5112142562866,11.5119361877441,11.512656211853,11.5133752822876,11.5140953063965,11.5148153305054,11.5155372619629,11.5162553787231,11.5169773101807,11.5176973342896,11.5184183120728,11.5191383361816,11.5198583602905,11.5205793380737,11.5212993621826,11.5220203399658,11.5227422714233,11.5234642028809,11.5241861343384,11.5249080657959,11.5256290435791,11.5263509750366,11.5270729064941,11.5277948379517,11.5285167694092,11.5292387008667,11.5299606323242,11.5306825637817,11.5314044952393,11.5321283340454,11.5328502655029,11.5335731506348,11.5342950820923,11.5350160598755,11.5357389450073,11.5364608764648,11.537184715271,11.5379085540771
0,0,0,0,0,0,0,0,0,0,0,0,0,0,0,0,0,0,0,0,0,0,0,0,0,0,0,0,0,0,0,0,0,0,0,0,0,0,0,0,0,0,0,0,0,0,0,0,0,0,0,0,0,0,0,0,0,0,0,0,0,0,0,0,0,0,0,0,0,0,0,0,0,0,0,0,0,0,0,0,0,0,0,0,0,0,0,0,0,0,0,0,0,0,0,0,0,0,0,0,0,0,0,0,0,0,0,0,0,0,0,0,0,0,0,0,0,0,0,0,0,0,0,0,0,0,0,0,0,0,0,0,0,0,0,0,0,0,0,0,0,0,0,0,0,0,0,0,0,0,0,0,0,0,0,0,0,0,0,0,0,0,0,0,0,0,0,0,0,0,0,0,0,0,0,0,0,11.3316707611084,11.3323669433594,11.3330659866333,11.3337631225586,11.3344621658325,11.3351593017578,11.3358564376831,11.3365535736084,11.3372526168823,11.3379516601562,11.3386497497559,11.3393487930298,11.3400478363037,11.340744972229,11.3414440155029,11.3421421051025,11.3428411483765,11.3435401916504,11.3442392349243,11.3449382781982,11.3456354141235,11.3463363647461,11.34703540802,11.3477354049683,11.3484344482422,11.3491353988647,11.3498344421387,11.3505334854126,11.3512334823608,11.3519344329834,11.3526334762573,11.3533344268799,11.3540315628052,11.3547325134277,11.3554344177246,11.3561334609985,11.3568344116211,11.3575353622437,11.3582363128662,11.3589372634888,11.3596391677856,11.3603401184082,11.3610391616821,11.3617401123047,11.3624420166016,11.3631429672241,11.3638458251953,11.3645448684692,11.3652467727661,11.3659496307373,11.3666505813599,11.3673534393311,11.3680543899536,11.3687572479248,11.3694591522217,11.3701601028442,11.3708610534668,11.3715648651123,11.3722658157349,11.3729686737061,11.3736715316772,11.3743734359741,11.3750762939453,11.3757791519165,11.3764820098877,11.3771858215332,11.377890586853,11.3785934448242,11.3792963027954,11.3799991607666,11.3807029724121,11.3814058303833,11.3821086883545,11.3828144073486,11.3835172653198,11.3842220306396,11.3849248886108,11.3856287002563,11.3863334655762,11.387038230896,11.3877420425415,11.3884468078613,11.3891515731812,11.389856338501,11.3905611038208,11.3912649154663,11.3919696807861,11.3926753997803,11.3933801651001,11.3940849304199,11.3947896957397,11.3954954147339,11.3962020874023,11.3969068527222,11.3976125717163,11.3983173370361,11.399022102356,11.3997297286987,11.4004364013672,11.401141166687,11.4018468856812,11.4025535583496,11.4032583236694,11.4039659500122,11.4046726226807,11.4053773880005,11.4060850143433,11.4067916870117,11.4074983596802,11.4082059860229,11.4089126586914,11.4096193313599,11.4103269577026,11.4110317230225,11.4117393493652,11.4124479293823,11.4131546020508,11.4138641357422,11.4145708084106,11.4152793884277,11.4159870147705,11.416693687439,11.4174022674561,11.4181098937988,11.4188184738159,11.419527053833,11.4202327728271,11.4209432601929,11.4216527938843,11.4223613739014,11.4230699539185,11.4237775802612,11.4244861602783,11.4251956939697,11.4259042739868,11.4266147613525,11.4273242950439,11.428032875061,11.4287424087524,11.4294509887695,11.4301614761353,11.4308710098267,11.4315814971924,11.4322919845581,11.4330015182495,11.4337120056152,11.4344215393066,11.435131072998,11.4358434677124,11.4365520477295,11.4372634887695,11.4379739761353,11.438684463501,11.4393939971924,11.4401063919067,11.4408178329468,11.4415283203125,11.4422397613525,11.4429502487183,11.4436616897583,11.4443740844727,11.4450845718384,11.4457960128784,11.4465084075928,11.4472208023071,11.4479303359985,11.4486436843872,11.4493541717529,11.4500675201416,11.4507780075073,11.451491355896,11.4522037506104,11.4529151916504,11.4536275863647,11.4543418884277,11.4550552368164,11.4557666778564,11.4564809799194,11.4571924209595,11.4579067230225,11.4586191177368,11.4593324661255,11.4600448608398,11.4607601165771,11.4614725112915,11.4621877670288,11.4628992080688,11.4636135101318,11.4643278121948,11.4650411605835,11.4657545089722,11.4664707183838,11.4671840667725,11.4678983688354,11.4686126708984,11.4693260192871,11.4700412750244,11.4707555770874
0,0,0,0,0,0,0,0,0,0,0,0,0,0,0,0,0,0,0,0,0,0,0,0,0,0,0,0,0,0,0,0,0,0,0,0,0,0,0,0,0,0,0,0,0,0,0,0,0,0,0,0,0,0,0,0,0,0,0,0,0,0,0,0,0,0,0,0,0,0,0,0,0,0,0,0,0,0,0,0,0,0,0,0,0,0,0,0,0,0,0,0,0,0,0,0,0,0,0,0,0,0,0,0,0,0,0,0,0,0,0,0,0,0,0,0,0,0,0,0,0,0,0,0,0,0,0,0,0,0,0,0,0,0,0,0,0,0,0,0,0,0,0,0,0,0,0,0,0,0,0,0,0,0,0,0,0,0,0,0,0,0,0,0,0,0,0,0,0,0,0,0,0,9.38583564758301,9.39912605285645,9.41245460510254,9.42582130432129,9.43922519683838,9.45266819000244,9.46614933013916,9.47966861724854,11.2696495056152,11.2703418731689,11.2710285186768,11.2717199325562,11.2724103927612,11.2730989456177,11.2737903594971,11.2744808197021,11.2751712799072,11.2758617401123,11.2765512466431,11.2772417068481,11.2779340744019,11.2786245346069,11.2793159484863,11.2800064086914,11.2806968688965,11.2813901901245,11.2820806503296,11.2827730178833,11.2834634780884,11.2841548919678,11.2848453521729,11.2855377197266,11.2862300872803,11.2869215011597,11.2876119613647,11.2883062362671,11.2889986038208,11.2896900177002,11.2903823852539,11.2910747528076,11.2917680740356,11.2924604415894,11.2931528091431,11.2938470840454,11.2945375442505,11.2952308654785,11.2959232330322,11.2966156005859,11.2973117828369,11.2980041503906,11.2986974716187,11.299391746521,11.3000841140747,11.3007783889771,11.3014717102051,11.3021640777588,11.3028602600098,11.3035545349121,11.3042469024658,11.3049411773682,11.3056344985962,11.3063306808472,11.3070249557495,11.3077173233032,11.3084135055542,11.3091087341309,11.3098030090332,11.3104972839355,11.3111934661865,11.3118877410889,11.3125829696655,11.3132791519165,11.3139715194702,11.3146677017212,11.3153619766235,11.3160581588745,11.3167543411255,11.3174495697021,11.3181457519531,11.3188419342041,11.3195362091064,11.3202342987061,11.3209295272827,11.3216257095337,11.3223218917847,11.3230199813843,11.3237142562866,11.3244104385376,11.3251085281372,11.3258047103882,11.3265008926392,11.3271980285645,11.3278942108154,11.328592300415,11.329288482666,11.3299865722656,11.3306846618652,11.3313817977905,11.3320789337158,11.3327760696411,11.3334741592407,11.3341703414917,11.3348684310913,11.3355684280396,11.3362665176392,11.3369646072388,11.3376626968384,11.3383598327637,11.3390579223633,11.3397560119629,11.3404560089111,11.3411540985107,11.3418521881104,11.34255027771,11.3432483673096,11.3439464569092,11.3446464538574,11.345344543457,11.3460445404053,11.3467445373535,11.3474426269531,11.3481426239014,11.3488426208496,11.3495426177979,11.3502416610718,11.35094165802,11.3516416549683,11.3523416519165,11.3530397415161,11.353741645813,11.3544397354126,11.3551416397095,11.3558435440063,11.3565435409546,11.3572454452515,11.3579454421997,11.3586454391479,11.3593454360962,11.3600473403931,11.3607492446899,11.3614492416382,11.3621511459351,11.3628511428833,11.3635530471802,11.3642549514771,11.3649549484253,11.3656587600708,11.366358757019,11.3670606613159,11.3677625656128,11.3684644699097,11.3691682815552,11.3698701858521,11.3705720901489,11.3712739944458,11.3719758987427,11.3726797103882,11.3733816146851,11.3740835189819,11.3747873306274,11.3754911422729,11.3761930465698,11.3768949508667,11.3775968551636,11.3783006668091,11.3790044784546,11.3797082901001,11.3804121017456,11.3811140060425,11.381817817688,11.3825235366821,11.3832273483276,11.3839330673218,11.3846349716187,11.3853387832642,11.3860445022583,11.3867483139038,11.3874521255493,11.3881559371948,11.388861656189,11.3895654678345,11.3902711868286,11.3909740447998,11.3916797637939,11.3923835754395,11.3930892944336,11.3937931060791,11.3944988250732,11.395206451416,11.3959102630615,11.3966159820557,11.3973217010498,11.3980274200439,11.3987331390381,11.3994388580322,11.4001436233521,11.4008512496948,11.401556968689,11.4022626876831,11.4029684066772,11.4036741256714,11.4043817520142
0,0,0,0,0,0,0,0,0,0,0,0,0,0,0,0,0,0,0,0,0,0,0,0,0,0,0,0,0,0,0,0,0,0,0,0,0,0,0,0,0,0,0,0,0,0,0,0,0,0,0,0,0,0,0,0,0,0,0,0,0,0,0,0,0,0,0,0,0,0,0,0,0,0,0,0,0,0,0,0,0,0,0,0,0,0,0,0,0,0,0,0,0,0,0,0,0,0,0,0,0,0,0,0,0,0,0,0,0,0,0,0,0,0,0,0,0,0,0,0,0,0,0,0,0,0,0,0,0,0,0,0,0,0,0,0,0,0,0,0,0,0,0,0,0,0,0,0,0,0,0,0,0,0,0,0,0,0,0,0,0,0,0,0,0,9.25473403930664,9.26765537261963,9.28061389923096,9.29360771179199,9.30663871765137,9.31970596313477,9.33280944824219,9.34595108032227,9.35912895202637,9.37234401702881,9.38559627532959,9.39888668060303,9.4122142791748,9.42558002471924,9.43898391723633,9.45242595672607,9.46590614318848,9.47942447662354,9.49298191070557,9.50657844543457,9.52021312713623,9.53388786315918,11.2096691131592,11.2103500366211,11.2110347747803,11.2117176055908,11.2123994827271,11.2130823135376,11.2137670516968,11.2144479751587,11.2151317596436,11.2158164978027,11.2164974212646,11.2171821594238,11.2178659439087,11.2185468673706,11.2192316055298,11.2199153900146,11.2205982208252,11.2212829589844,11.2219676971436,11.2226514816284,11.223334312439,11.2240190505981,11.224705696106,11.2253894805908,11.2260723114014,11.2267580032349,11.227442741394,11.2281274795532,11.2288112640381,11.2294960021973,11.2301807403564,11.2308673858643,11.2315511703491,11.2322378158569,11.2329216003418,11.2336082458496,11.2342929840088,11.2349796295166,11.2356653213501,11.2363500595093,11.2370367050171,11.2377223968506,11.2384071350098,11.2390947341919,11.2397813796997,11.2404661178589,11.241153717041,11.2418403625488,11.242525100708,11.2432126998901,11.2438993453979,11.2445850372314,11.2452716827393,11.2459583282471,11.2466459274292,11.2473306655884,11.2480182647705,11.248706817627,11.2493934631348,11.2500810623169,11.2507696151733,11.2514572143555,11.2521457672119,11.2528324127197,11.2535219192505,11.2542085647583,11.2548971176147,11.2555847167969,11.2562732696533,11.2569589614868,11.2576475143433,11.258337020874,11.2590255737305,11.2597131729126,11.260401725769,11.2610902786255,11.2617816925049,11.2624702453613,11.2631587982178,11.2638483047485,11.264536857605,11.2652263641357,11.2659149169922,11.2666025161743,11.2672929763794,11.2679824829102,11.2686729431152,11.269362449646,11.2700529098511,11.2707424163818,11.2714328765869,11.272123336792,11.2728128433228,11.2735033035278,11.2741947174072,11.2748851776123,11.2755765914917,11.2762641906738,11.2769546508789,11.2776470184326,11.2783365249634,11.2790288925171,11.2797183990479,11.2804107666016,11.281102180481,11.281792640686,11.2824840545654,11.2831764221191,11.2838678359985,11.2845602035522,11.2852516174316,11.2859420776367,11.2866353988647,11.2873258590698,11.2880172729492,11.2887096405029,11.289402961731,11.2900953292847,11.2907867431641,11.2914791107178,11.2921724319458,11.2928638458252,11.2935562133789,11.2942495346069,11.2949438095093,11.2956371307373,11.2963314056396,11.2970237731934,11.2977170944214,11.2984104156494,11.2991027832031,11.2997980117798,11.3004903793335,11.3011837005615,11.3018779754639,11.3025712966919,11.3032655715942,11.3039608001709,11.3046541213989,11.3053483963013,11.3060436248779,11.3067359924316,11.3074312210083,11.3081254959106,11.3088207244873,11.3095140457153,11.3102102279663,11.310905456543,11.311598777771,11.312294960022,11.3129901885986,11.313684463501,11.3143815994263,11.3150749206543,11.3157711029053,11.3164672851562,11.3171606063843,11.3178577423096,11.3185539245605,11.3192510604858,11.3199462890625,11.3206405639648,11.3213376998901,11.3220329284668,11.3227291107178,11.3234262466431,11.324122428894,11.3248195648193,11.3255167007446,11.3262128829956,11.3269100189209,11.3276071548462,11.3283033370972,11.3290004730225,11.3296985626221,11.3303956985474,11.3310947418213,11.3317899703979,11.3324880599976,11.3331871032715,11.3338832855225,11.3345804214478,11.3352794647217,11.3359775543213,11.3366765975952,11.3373737335205,11.3380718231201,11.338770866394
