4.56490707397461,4.57436466217041,4.58386182785034,4.5933985710144,4.6029748916626,4.61259126663208,4.62224769592285,4.63194513320923,4.64168310165405,4.65146207809448,4.66128206253052,4.67114400863647,4.6810474395752,4.69099378585815,4.70098161697388,4.71101236343384,4.72108602523804,4.73120260238647,4.74136304855347,4.75156688690186,4.76181507110596,4.77210712432861,4.78244400024414,4.79282569885254,4.80325269699097,4.81372499465942,4.82424306869507,4.83480739593506,4.84541797637939,4.85607528686523,4.86677932739258,4.87753105163574,4.88832998275757,4.89917707443237,4.91007280349731,4.92101669311523,4.93200922012329,4.9430513381958,4.95414257049561,4.96528434753418,4.97647619247437,4.98771810531616,4.99901151657104,5.01035594940186,5.02175188064575,5.03320074081421,5.04470109939575,5.05625438690186,5.06786060333252,5.0795202255249,5.091233253479,5.1030011177063,5.11482286453247,5.12669992446899,5.13863229751587,7.88048553466797,7.89283657073975,7.9052267074585,7.91765546798706,7.93012380599976,7.94263124465942,7.95517826080322,7.96776533126831,7.98039197921753,7.99305868148804,8.00576591491699,8.01851272583008,8.03130149841309,8.04413032531738,8.05700016021729,8.06991100311279,8.08286380767822,8.09585857391357,8.10889434814453,8.12197303771973,8.13509368896484,8.14825630187988,8.16146183013916,8.17471027374268,8.18800258636475,8.20133686065674,8.21471500396729,8.2281379699707,8.24160385131836,8.25511360168457,8.26866817474365,8.28226757049561,8.29591178894043,8.30960083007812,8.32333469390869,8.33711433410645,8.35093975067139,8.36481094360352,8.37872886657715,8.58670616149902,8.59779644012451,8.60891628265381,8.62006378173828,8.63124084472656,8.64244747161865,8.65368270874023,8.66494750976562,8.67624092102051,8.6875638961792,8.69891738891602,8.71030044555664,8.72171211242676,8.73315525054932,8.74462699890137,8.75613021850586,8.76766300201416,8.77922630310059,8.79082012176514,8.80244541168213,8.81410026550293,8.82578659057617,8.83750438690186,8.84925270080566,8.86103248596191,8.87284374237061,8.88468647003174,8.89656066894531,8.90846633911133,8.9204044342041,8.93237495422363,8.94437694549561,8.95641136169434,11.4423885345459,11.443018913269,11.4436483383179,11.4442796707153,11.4449119567871,11.4455394744873,11.4461717605591,11.4468030929565,11.447434425354,11.4480648040771,11.4486961364746,11.4493255615234,11.4499578475952,11.4505891799927,11.4512205123901,11.4518518447876,11.4524822235107,11.4531154632568,11.4537467956543,11.4543790817261,11.4550085067749,11.4556436538696,11.4562721252441,11.4569053649902,11.457537651062,11.4581708908081,11.4588041305542,11.4594345092773,11.4600677490234,11.4606990814209,11.461332321167,11.4619646072388,11.4625978469849,11.4632291793823,11.4638614654541,11.4644947052002,11.4651279449463,11.4657602310181,11.4663934707642,11.4670267105103,11.467658996582,11.4682941436768,11.4689254760742,11.4695596694946,11.4701929092407,11.4708280563354,11.4714603424072,11.4720935821533,11.4727258682251,11.4733610153198,11.4739961624146,11.474627494812,11.4752635955811,11.4758968353271,11.4765319824219,11.4771661758423,11.4777994155884,11.4784326553345,11.4790687561035,11.4797039031982,11.480339050293,11.4809713363647,11.4816064834595,11.4822416305542,11.4828758239746,11.483512878418,11.4841442108154,11.4847812652588,11.4854154586792,11.4860525131226,11.4866847991943,11.4873218536377,11.4879570007324,11.4885921478271,11.4892282485962,11.4898633956909,11.4904975891113,11.4911346435547,11.491771697998,11.4924068450928,11.4930429458618,11.4936780929565,11.4943151473999,11.4949502944946,11.4955883026123,11.4962215423584,11.4968585968018,11.4974966049194,11.4981336593628,11.4987688064575,11.4994049072266,11.5000438690186,11.5006809234619,11.5013160705566,11.5019521713257,11.5025911331177,11.5032272338867,11.5038661956787,11.5045013427734,11.5051383972168,11.5057764053345,11.5064134597778,11.5070505142212,11.5076885223389,11.5083274841309,11.5089626312256,11.5096015930176,11.5102396011353,11.5108785629272,11.5115156173706,11.5121536254883,11.5127906799316,11.5134296417236,11.5140676498413,11.5147066116333,11.5153436660767,11.5159826278687,11.516622543335,11.5172595977783,11.5178985595703,11.518536567688,11.5191774368286,11.519814491272,11.5204544067383,11.5210914611816,11.5217323303223,11.5223712921143,11.5230112075806,11.5236482620239,11.5242891311646,11.5249290466309,11.5255680084229,11.5262107849121,11.5268468856812,11.5274896621704,11.5281267166138,11.5287675857544,11.5294055938721,11.5300464630127,11.5306854248047,11.5313272476196,11.5319681167603,11.5326070785522,11.5332479476929,11.5338897705078,11.5345306396484,11.5351696014404,11.5358114242554,11.5364503860474,11.537091255188,11.5377321243286,11.5383749008179,11.5390148162842,11.5396556854248,11.5402975082397,11.5409383773804,11.541579246521,11.5422201156616,11.5428619384766,11.5435028076172,11.5441446304321,11.5447874069214,11.545428276062,11.5460681915283,11.5467109680176,11.5473518371582,11.5479936599731,11.5486364364624,11.5492792129517,11.5499200820923,11.5505647659302,11.5512046813965,11.5518474578857,11.552490234375,11.5531330108643,11.5537748336792,11.5544176101685,11.5550603866577,11.5557050704956,11.5563488006592,11.5569896697998,11.5576314926147,11.558274269104,11.5589189529419,11.5595636367798,11.5602054595947,11.560848236084,11.5614929199219,11.5621356964111,11.5627794265747,11.563422203064,11.5640659332275,11.5647106170654,11.5653553009033,11.5659980773926,11.5666418075562,11.5672883987427,11.5679292678833,11.5685739517212,11.5692195892334,11.5698623657227,11.5705070495605,11.5711536407471,11.5717973709106,11.5724420547485,11.5730867385864,11.57373046875,11.5743770599365,11.5750198364258,11.5756664276123,11.5763120651245,11.5769567489624,11.5776014328003,11.5782480239868,11.5788917541504,11.5795364379883,11.5801830291748,11.580828666687,11.5814733505249,11.5821199417114,11.5827646255493,11.5834131240845,11.5840587615967,11.5847034454346,11.5853500366211,11.5859956741333,11.5866422653198,11.5872888565063,11.5879354476929,11.5885810852051,11.5892276763916,11.5898733139038,11.590521812439,11.5911664962769,11.5918130874634,11.5924606323242,11.5931091308594,11.5937557220459,11.5944023132324,11.5950508117676,11.5956964492798,11.5963430404663,11.5969915390015,11.5976390838623,11.5982875823975,11.598934173584,11.5995807647705,11.6002311706543,11.6008787155151,11.601523399353,11.6021738052368,11.6028213500977,11.6034679412842,11.604118347168,11.6047649383545,11.605414390564,11.6060628890991,11.6067113876343,11.6073589324951,11.6080093383789,11.6086559295654,11.6093044281006,11.6099548339844,11.6106042861938,0,0
4.55659437179565,4.56601810455322,4.57548046112061,4.58498239517212,4.59452342987061,4.60410451889038,4.61372566223145,4.62338733673096,4.63308906555176,4.64283180236816,4.65261554718018,4.66244077682495,4.67230749130249,4.68221616744995,4.69216680526733,4.7021598815918,4.71219539642334,4.72227430343628,4.73239612579346,4.74256134033203,4.75277090072632,4.763023853302,4.77332162857056,4.78366374969482,4.79405069351196,4.80448293685913,4.81496095657349,4.82548427581787,4.8360538482666,4.84667015075684,4.85733270645142,4.86804246902466,4.87879991531372,4.88960456848145,4.90045738220215,4.91135835647583,4.92230796813965,4.9333062171936,4.94435405731201,4.95545196533203,4.96659898757935,4.97779655456543,4.98904466629028,5.00034427642822,5.01169443130493,5.02309656143188,5.03455018997192,5.04605722427368,5.05761671066284,5.06922960281372,5.08089542388916,5.09261512756348,5.10438871383667,5.11621761322021,5.12810087203979,5.14003992080688,5.15203428268433,7.86307621002197,7.87537336349487,7.88770818710327,7.9000825881958,7.91249513626099,7.9249472618103,7.93743848800659,7.94996881484985,7.9625391960144,7.97514915466309,7.98779916763306,8.00048923492432,8.01321983337402,8.02599143981934,8.03880310058594,8.05165672302246,8.06455039978027,8.07748603820801,8.09046268463135,8.10348224639893,8.11654281616211,8.12964534759521,8.14279079437256,8.15597915649414,8.16920948028564,8.1824836730957,8.19579982757568,8.20916080474854,8.22256469726562,8.23601245880127,8.24950408935547,8.26304054260254,8.27662086486816,8.29024600982666,8.30391693115234,8.31763172149658,8.33139324188232,8.34519958496094,8.35905170440674,8.37294960021973,8.38689422607422,8.40088558197021,8.61980247497559,8.63097953796387,8.64218425750732,8.65341949462891,8.66468334197998,8.67597579956055,8.68729877471924,8.69865131378174,8.71003341674805,8.72144508361816,8.73288631439209,8.74435806274414,8.75586032867432,8.76739311218262,8.77895545959473,8.79054832458496,8.80217266082764,8.81382751464844,8.82551288604736,8.83722972869873,8.84897708892822,8.86075592041016,8.87256622314453,8.88440799713135,8.89628219604492,8.90818786621094,8.92012500762939,8.93209362030029,8.94409561157227,8.95612907409668,8.96819591522217,8.9802942276001,8.9924259185791,9.00459003448486,11.379997253418,11.3806200027466,11.3812446594238,11.3818683624268,11.3824920654297,11.3831148147583,11.3837394714355,11.3843631744385,11.3849878311157,11.385612487793,11.3862342834473,11.3868598937988,11.3874845504761,11.3881092071533,11.3887338638306,11.3893566131592,11.3899831771851,11.3906059265137,11.3912324905396,11.3918571472168,11.3924837112427,11.3931083679199,11.3937311172485,11.3943576812744,11.3949823379517,11.3956089019775,11.3962335586548,11.396858215332,11.3974828720093,11.3981094360352,11.3987340927124,11.3993606567383,11.3999853134155,11.4006118774414,11.401237487793,11.4018630981445,11.4024887084961,11.4031143188477,11.4037399291992,11.4043664932251,11.4049949645996,11.4056177139282,11.4062442779541,11.4068727493286,11.4074993133545,11.4081239700317,11.4087505340576,11.4093770980835,11.410005569458,11.4106321334839,11.4112586975098,11.4118871688843,11.4125137329102,11.413140296936,11.4137687683105,11.4143953323364,11.4150218963623,11.4156503677368,11.4162769317627,11.4169044494629,11.4175300598145,11.4181594848633,11.4187879562378,11.4194145202637,11.4200429916382,11.4206695556641,11.4212999343872,11.4219264984131,11.4225549697876,11.4231834411621,11.4238119125366,11.4244384765625,11.4250688552856,11.4256954193115,11.4263277053833,11.4269542694092,11.4275827407837,11.4282112121582,11.4288415908813,11.4294700622559,11.4300985336304,11.4307270050049,11.4313564300537,11.4319849014282,11.4326143264771,11.4332437515259,11.4338722229004,11.4345026016235,11.4351329803467,11.4357614517212,11.4363918304443,11.4370203018188,11.4376525878906,11.4382829666138,11.4389114379883,11.4395418167114,11.4401721954346,11.4408025741577,11.4414319992065,11.4420614242554,11.4426927566528,11.443323135376,11.4439535140991,11.4445858001709,11.4452142715454,11.4458465576172,11.4464769363403,11.4471073150635,11.4477376937866,11.4483699798584,11.4490003585815,11.4496326446533,11.4502630233765,11.4508934020996,11.4515256881714,11.4521570205688,11.4527893066406,11.4534215927124,11.4540500640869,11.4546823501587,11.4553146362305,11.4559469223022,11.456579208374,11.4572095870972,11.4578418731689,11.4584741592407,11.4591083526611,11.4597396850586,11.4603719711304,11.4610042572021,11.4616365432739,11.4622707366943,11.4629001617432,11.4635334014893,11.464165687561,11.4647998809814,11.4654321670532,11.4660663604736,11.4666967391968,11.4673328399658,11.4679660797119,11.4685983657837,11.4692316055298,11.4698638916016,11.4704971313477,11.4711313247681,11.4717655181885,11.4723978042603,11.4730339050293,11.4736661911011,11.4743003845215,11.4749345779419,11.4755687713623,11.4762010574341,11.4768352508545,11.4774694442749,11.4781036376953,11.4787378311157,11.4793720245361,11.4800071716309,11.480640411377,11.4812755584717,11.4819097518921,11.4825439453125,11.4831800460815,11.4838123321533,11.4844484329224,11.4850845336914,11.4857187271118,11.4863548278809,11.4869909286499,11.4876251220703,11.4882612228394,11.4888963699341,11.4895296096802,11.4901657104492,11.4908027648926,11.491436958313,11.492073059082,11.4927091598511,11.4933452606201,11.4939832687378,11.4946155548096,11.4952516555786,11.4958896636963,11.4965257644653,11.4971618652344,11.4977989196777,11.4984350204468,11.4990711212158,11.4997091293335,11.5003433227539,11.5009794235229,11.5016193389893,11.5022554397583,11.5028915405273,11.503529548645,11.5041675567627,11.5048036575317,11.5054407119751,11.5060758590698,11.5067138671875,11.5073528289795,11.5079889297485,11.5086269378662,11.5092649459839,11.5099029541016,11.5105409622192,11.5111789703369,11.511815071106,11.5124549865723,11.5130929946899,11.513729095459,11.5143690109253,11.5150060653687,11.515645980835,11.5162839889526,11.5169219970703,11.5175580978394,11.5181999206543,11.518837928772,11.5194759368896,11.520115852356,11.5207538604736,11.5213937759399,11.5220317840576,11.5226707458496,11.5233106613159,11.5239505767822,11.5245885848999,11.5252285003662,11.5258684158325,11.5265083312988,11.5271482467651,11.5277862548828,11.5284261703491,11.5290660858154,11.5297069549561,11.5303468704224,11.5309867858887,11.5316247940063,11.5322666168213,11.5329065322876,11.5335464477539,11.5341863632202,11.5348281860352,11.5354681015015,11.5361099243164,11.5367498397827,11.5373907089233,11.5380325317383,11.538670539856,11.5393123626709,11.5399541854858,11.5405941009521,11.5412359237671,11.5418787002563,11.542519569397,11.5431604385376,11.5438013076782
4.54831266403198,4.557701587677,4.56712961196899,4.57659673690796,4.5861029624939,4.59564876556396,4.60523462295532,4.61486053466797,4.62452697753906,4.63423347473145,4.64398145675659,4.65376996994019,4.66359996795654,4.67347145080566,4.68338537216187,4.69334077835083,4.70333909988403,4.71337985992432,4.72346353530884,4.7335901260376,4.74376106262207,4.75397539138794,4.76423358917236,4.77453660964966,4.78488397598267,4.79527616500854,4.80571365356445,4.81619691848755,4.82672595977783,4.8373007774353,4.84792280197144,4.85859107971191,4.8693060874939,4.8800687789917,4.89087915420532,4.90173721313477,4.9126443862915,4.92359972000122,4.93460416793823,4.94565773010254,4.9567608833313,4.96791410446167,4.97911787033081,4.99037170410156,5.0016770362854,5.01303386688232,5.02444171905518,5.03590202331543,5.04741477966309,5.05897998809814,5.07059907913208,5.08227062225342,5.09399747848511,5.10577774047852,5.11761283874512,5.12950277328491,5.14144802093506,5.15344905853271,5.16550636291504,5.17762041091919,7.85798692703247,7.87026786804199,7.88258695602417,7.89494466781616,7.90734148025513,7.91977739334106,7.93225193023682,7.94476652145386,7.95732021331787,7.96991348266602,7.98254728317261,7.99522066116333,8.0079345703125,8.02068901062012,8.03348350524902,8.04631996154785,8.05919742584229,8.07211494445801,8.08507537841797,8.09807682037354,8.11112022399902,8.12420558929443,8.13733291625977,8.15050315856934,8.16371631622314,8.17697238922119,8.19027137756348,8.20361328125,8.21699905395508,8.23042869567871,8.2439022064209,8.25741958618164,8.27098178863525,8.28458881378174,8.29824066162109,8.31193733215332,8.32567882537842,8.33946704864502,8.35330009460449,8.36717891693115,8.38110446929932,8.39507579803467,8.40909481048584,8.64192199707031,8.65315532684326,8.66441917419434,8.6757116317749,8.68703365325928,8.69838523864746,8.70976638793945,8.72117710113525,8.73261833190918,8.74408912658691,8.75559043884277,8.76712226867676,8.77868461608887,8.79027652740479,8.80189990997314,8.81355381011963,8.82523822784424,8.83695411682129,8.84870147705078,8.86048030853271,8.87228965759277,8.88413047790527,8.89600372314453,8.90790843963623,8.91984462738037,8.93181324005127,8.94381427764893,8.95584678649902,8.9679126739502,8.98001098632812,8.99214172363281,9.00430488586426,9.01650142669678,9.02873039245605,9.04099369049072,9.05328941345215,11.3182821273804,11.3188972473145,11.3195152282715,11.3201322555542,11.3207502365112,11.3213663101196,11.3219833374023,11.3226013183594,11.3232183456421,11.3238363265991,11.3244524002075,11.3250732421875,11.3256874084473,11.3263063430786,11.326922416687,11.3275413513184,11.3281593322754,11.3287763595581,11.3293962478638,11.3300132751465,11.3306312561035,11.3312511444092,11.3318681716919,11.3324861526489,11.3331050872803,11.3337230682373,11.3343420028687,11.3349599838257,11.3355779647827,11.3361968994141,11.3368167877197,11.3374357223511,11.3380537033081,11.3386735916138,11.3392906188965,11.3399124145508,11.3405294418335,11.3411493301392,11.3417692184448,11.3423881530762,11.3430080413818,11.3436269760132,11.3442449569702,11.3448657989502,11.3454856872559,11.3461065292358,11.3467264175415,11.3473443984985,11.3479652404785,11.3485851287842,11.3492059707642,11.3498239517212,11.3504457473755,11.3510665893555,11.3516864776611,11.3523063659668,11.3529272079468,11.3535490036011,11.3541679382324,11.354790687561,11.3554086685181,11.3560304641724,11.3566513061523,11.3572731018066,11.3578948974609,11.3585138320923,11.3591356277466,11.3597583770752,11.3603801727295,11.3610010147095,11.3616228103638,11.3622426986694,11.362865447998,11.3634872436523,11.364109992981,11.3647298812866,11.3653516769409,11.3659744262695,11.3665971755981,11.3672170639038,11.3678407669067,11.3684616088867,11.3690853118896,11.3697080612183,11.3703298568726,11.3709516525269,11.3715744018555,11.3721981048584,11.3728189468384,11.3734426498413,11.3740653991699,11.3746891021729,11.3753118515015,11.3759355545044,11.3765554428101,11.3771800994873,11.3778038024902,11.3784284591675,11.3790502548218,11.3796739578247,11.380298614502,11.3809223175049,11.3815469741821,11.3821687698364,11.382791519165,11.383415222168,11.3840398788452,11.3846654891968,11.3852882385254,11.3859119415283,11.3865375518799,11.3871622085571,11.3877868652344,11.3884105682373,11.3890342712402,11.3896589279175,11.390284538269,11.3909091949463,11.3915309906006,11.3921585083008,11.3927812576294,11.3934087753296,11.3940315246582,11.3946571350098,11.3952827453613,11.3959074020386,11.3965339660645,11.3971576690674,11.3977832794189,11.3984098434448,11.3990354537964,11.3996601104736,11.4002857208252,11.4009113311768,11.4015378952026,11.4021635055542,11.4027900695801,11.403416633606,11.4040403366089,11.4046697616577,11.405294418335,11.4059219360352,11.4065465927124,11.4071741104126,11.4078006744385,11.4084281921387,11.4090518951416,11.4096803665161,11.4103059768677,11.4109344482422,11.4115600585938,11.4121856689453,11.4128122329712,11.41344165802,11.4140663146973,11.4146957397461,11.415322303772,11.4159498214722,11.4165773391724,11.4172039031982,11.4178314208984,11.4184579849243,11.4190874099731,11.4197158813477,11.4203433990479,11.420970916748,11.4215993881226,11.4222269058228,11.4228534698486,11.4234809875488,11.424111366272,11.4247388839722,11.4253673553467,11.4259967803955,11.4266242980957,11.4272527694702,11.427882194519,11.4285087585449,11.4291381835938,11.4297685623169,11.4303960800171,11.4310264587402,11.4316558837891,11.4322853088379,11.4329137802124,11.4335412979126,11.4341716766357,11.4348030090332,11.4354314804077,11.4360609054565,11.4366912841797,11.4373207092285,11.4379501342773,11.4385786056519,11.4392099380493,11.4398384094238,11.4404697418213,11.4410991668701,11.4417295455933,11.4423599243164,11.4429912567139,11.4436206817627,11.4442510604858,11.4448804855347,11.4455108642578,11.4461441040039,11.4467744827271,11.4474058151245,11.4480361938477,11.4486656188965,11.4492979049683,11.4499273300171,11.4505605697632,11.4511909484863,11.4518222808838,11.4524526596069,11.453085899353,11.4537162780762,11.4543476104736,11.4549798965454,11.4556093215942,11.4562425613403,11.4568748474121,11.4575061798096,11.4581384658813,11.4587717056274,11.4594020843506,11.460033416748,11.4606676101685,11.4612989425659,11.4619331359863,11.4625644683838,11.4631967544556,11.4638299942017,11.4644632339478,11.4650955200195,11.4657287597656,11.4663610458374,11.4669923782349,11.4676265716553,11.46826171875,11.4688920974731,11.4695272445679,11.4701595306396,11.4707927703857,11.4714260101318,11.4720602035522,11.4726915359497,11.4733276367188,11.4739608764648,11.4745950698853,11.47523021698,11.4758625030518,11.4764957427979
4.54006052017212,4.54941558837891,4.55880928039551,4.56824159622192,4.57771348953247,4.58722448348999,4.59677505493164,4.60636568069458,4.61599636077881,4.62566709518433,4.63537883758545,4.64513111114502,4.6549243927002,4.66475963592529,4.674635887146,4.68455457687378,4.69451522827148,4.70451831817627,4.71456432342529,4.7246527671814,4.73478507995605,4.74496078491211,4.75518035888672,4.76544380187988,4.77575206756592,4.78610467910767,4.79650211334229,4.80694532394409,4.81743383407593,4.82796812057495,4.83854866027832,4.84917545318604,4.85984945297241,4.87057018280029,4.88133859634399,4.89215469360352,4.90301847457886,4.91393136978149,4.92489242553711,4.93590259552002,4.94696187973022,4.95807123184204,4.96923017501831,4.98043966293335,4.99169969558716,5.00301122665405,5.01437377929688,5.02578783035278,5.03725433349609,5.04877328872681,5.06034469604492,5.07196950912476,5.08364820480347,5.0953803062439,5.10716676712036,5.11900901794434,5.13090515136719,5.14285707473755,5.15486478805542,5.16692876815796,5.17904901504517,5.19122695922852,5.20346164703369,7.85290384292603,7.86516857147217,7.87747192382812,7.8898138999939,7.90219449996948,7.91461420059204,7.92707252502441,7.93957042694092,7.95210790634155,7.96468496322632,7.97730159759521,7.98995876312256,8.00265598297119,8.01539325714111,8.02817153930664,8.04099082946777,8.0538501739502,8.06675148010254,8.07969379425049,8.09267807006836,8.10570430755615,8.11877250671387,8.1318826675415,8.14503479003906,8.15822982788086,8.17146778106689,8.18474960327148,8.198073387146,8.21144104003906,8.22485256195068,8.23830795288086,8.25180721282959,8.26535129547119,8.27893924713135,8.29257202148438,8.30625057220459,8.31997299194336,8.33374214172363,8.34755611419678,8.36141586303711,8.37532234191895,8.38927459716797,8.4032735824585,8.41732025146484,8.66415500640869,8.67544651031494,8.686767578125,8.69811916351318,8.70949935913086,8.72091007232666,8.73235034942627,8.74382019042969,8.75532054901123,8.7668514251709,8.77841281890869,8.79000473022461,8.80162715911865,8.81328010559082,8.82496452331543,8.83667945861816,8.84842586517334,8.86020374298096,8.8720121383667,8.8838529586792,8.89572525024414,8.90762901306152,8.91956520080566,8.93153285980225,8.94353294372559,8.95556449890137,8.96762943267822,8.97972679138184,8.99185657501221,9.00401973724365,9.01621532440186,9.02844429016113,9.04070568084717,9.05300140380859,9.06533050537109,9.07769298553467,9.09008884429932,9.10251903533936,11.2572326660156,11.2578439712524,11.2584543228149,11.2590646743774,11.2596731185913,11.2602844238281,11.2608957290649,11.2615051269531,11.2621173858643,11.2627277374268,11.2633399963379,11.2639493942261,11.2645597457886,11.2651720046997,11.2657823562622,11.2663946151733,11.2670049667358,11.2676162719727,11.2682266235352,11.2688388824463,11.2694511413574,11.2700614929199,11.2706727981567,11.2712831497192,11.2718954086304,11.2725076675415,11.2731189727783,11.2737312316895,11.2743444442749,11.2749557495117,11.2755680084229,11.2761783599854,11.2767915725708,11.2774038314819,11.2780160903931,11.2786283493042,11.2792406082153,11.2798538208008,11.2804670333862,11.2810802459717,11.2816925048828,11.2823047637939,11.2829170227051,11.2835311889648,11.2841444015503,11.2847566604614,11.2853689193726,11.2859830856323,11.2865962982178,11.2872104644775,11.28782081604,11.2884368896484,11.2890491485596,11.2896633148193,11.2902793884277,11.2908906936646,11.2915048599243,11.2921190261841,11.2927331924438,11.2933473587036,11.2939605712891,11.2945747375488,11.2951908111572,11.2958030700684,11.2964191436768,11.2970323562622,11.2976484298706,11.2982625961304,11.2988767623901,11.2994909286499,11.3001041412354,11.3007211685181,11.3013343811035,11.3019523620605,11.3025646209717,11.3031797409058,11.3037958145142,11.3044118881226,11.3050260543823,11.3056421279907,11.3062582015991,11.3068723678589,11.3074884414673,11.3081045150757,11.3087196350098,11.3093357086182,11.3099498748779,11.310567855835,11.3111839294434,11.3117971420288,11.3124151229858,11.3130311965942,11.3136491775513,11.314263343811,11.3148803710938,11.3154964447021,11.3161125183105,11.3167304992676,11.3173456192017,11.3179626464844,11.3185796737671,11.3191976547241,11.3198137283325,11.3204298019409,11.3210468292236,11.3216648101807,11.3222827911377,11.3229007720947,11.3235168457031,11.3241329193115,11.3247509002686,11.3253688812256,11.3259878158569,11.3266019821167,11.3272218704224,11.3278379440308,11.3284578323364,11.3290748596191,11.3296928405762,11.3303108215332,11.3309288024902,11.3315486907959,11.3321657180786,11.3327836990356,11.3334035873413,11.3340215682983,11.3346395492554,11.3352575302124,11.3358764648438,11.3364963531494,11.3371143341064,11.3377342224121,11.3383522033691,11.3389701843262,11.3395900726318,11.3402099609375,11.3408298492432,11.3414468765259,11.3420667648315,11.3426866531372,11.3433065414429,11.3439235687256,11.3445453643799,11.3451633453369,11.3457851409912,11.3464050292969,11.3470220565796,11.3476438522339,11.3482618331909,11.3488817214966,11.3495035171509,11.3501234054565,11.3507442474365,11.3513641357422,11.3519821166992,11.3526039123535,11.3532238006592,11.3538455963135,11.3544645309448,11.3550882339478,11.3557081222534,11.3563261032104,11.3569478988647,11.3575687408447,11.358190536499,11.3588123321533,11.359432220459,11.3600540161133,11.3606758117676,11.3612976074219,11.3619184494019,11.3625402450562,11.3631601333618,11.3637819290161,11.3644046783447,11.365026473999,11.365650177002,11.3662700653076,11.3668899536133,11.3675127029419,11.3681344985962,11.3687562942505,11.3693799972534,11.3700017929077,11.370623588562,11.3712472915649,11.3718709945679,11.3724918365479,11.3731136322021,11.3737354278564,11.3743591308594,11.3749828338623,11.3756055831909,11.3762292861938,11.3768529891968,11.3774747848511,11.378098487854,11.3787212371826,11.3793449401855,11.3799686431885,11.3805923461914,11.3812160491943,11.3818397521973,11.3824634552002,11.3830842971802,11.3837099075317,11.3843336105347,11.3849573135376,11.3855829238892,11.3862066268921,11.3868312835693,11.3874549865723,11.3880805969238,11.3887023925781,11.3893260955811,11.3899517059326,11.3905773162842,11.3912019729614,11.3918256759644,11.3924512863159,11.3930768966675,11.3936996459961,11.3943252563477,11.3949489593506,11.3955745697021,11.3962020874023,11.3968257904053,11.3974514007568,11.3980770111084,11.3987016677856,11.3993253707886,11.3999528884888,11.4005784988403,11.4012060165405,11.4018306732178,11.4024562835693,11.4030818939209,11.4037094116211,11.4043321609497,11.4049596786499,11.4055862426758,11.4062128067017,11.4068384170532,11.4074659347534,11.408091545105,11.4087190628052,11.4093446731567,11.4099712371826
4.53183841705322,4.54115962982178,4.55051898956299,4.55991744995117,4.56935453414917,4.57883071899414,4.58834648132324,4.59790182113647,4.607497215271,4.61713218688965,4.62680816650391,4.63652420043945,4.64628171920776,4.65608024597168,4.6659197807312,4.67580127716064,4.68572473526001,4.69569063186646,4.70569849014282,4.71574926376343,4.72584342956543,4.73598051071167,4.74616098403931,4.75638580322266,4.76665449142456,4.77696800231934,4.78732585906982,4.79772901535034,4.80817699432373,4.81867122650146,4.82921075820923,4.8397970199585,4.85042953491211,4.86110877990723,4.87183523178101,4.88260936737061,4.89343070983887,4.90430068969727,4.91521883010864,4.92618560791016,4.93720149993896,4.94826698303223,4.95938205718994,4.97054719924927,4.98176240921021,4.99302864074707,5.00434589385986,5.01571464538574,5.02713489532471,5.03860759735107,5.05013275146484,5.06171035766602,5.07334136962891,5.08502578735352,5.09676456451416,5.10855770111084,5.12040519714355,5.13230800628662,5.14426708221436,5.15628099441528,5.16835165023804,5.18047904968262,5.19266319274902,5.20490503311157,5.21720409393311,7.83561658859253,7.84782743453979,7.86007642745972,7.87236404418945,7.88468980789185,7.89705419540405,7.90945768356323,7.92189979553223,7.93438148498535,7.94690227508545,7.95946311950684,7.9720630645752,7.984703540802,7.9973840713501,8.01010513305664,8.02286624908447,8.03566837310791,8.04851055145264,8.06139469146729,8.07432079315186,8.08728694915771,8.10029602050781,8.11334609985352,8.12643909454346,8.13957405090332,8.15275192260742,8.16597175598145,8.17923450469971,8.19254112243652,8.20589065551758,8.21928405761719,8.23272132873535,8.24620246887207,8.25972747802734,8.27329730987549,8.2869119644165,8.30057048797607,8.31427574157715,8.32802486419678,8.34182071685791,8.35566139221191,8.36954879760742,8.38348197937012,8.3974609375,8.4114875793457,8.42556095123291,8.68650245666504,8.69785308837891,8.70923233032227,8.72064208984375,8.73208141326904,8.74355125427246,8.755051612854,8.76658153533936,8.77814197540283,8.78973293304443,8.80135440826416,8.81300735473633,8.82469081878662,8.83640480041504,8.8481502532959,8.8599271774292,8.87173557281494,8.88357543945312,8.89544677734375,8.90734958648682,8.91928482055664,8.93125247955322,8.94325160980225,8.95528316497803,8.96734714508057,8.97944355010986,8.99157238006592,9.00373458862305,9.01592922210693,9.02815723419189,9.04041862487793,9.05271339416504,9.06504058837891,9.07740306854248,9.08979797363281,9.10222721099854,9.11469078063965,9.12718868255615,9.13971996307373,9.15228652954102,9.16488742828369,11.1974430084229,11.1980457305908,11.1986503601074,11.1992540359497,11.1998586654663,11.2004623413086,11.2010660171509,11.2016677856445,11.2022733688354,11.2028799057007,11.2034816741943,11.2040872573853,11.2046909332275,11.2052974700928,11.2059011459351,11.2065048217773,11.2071084976196,11.2077140808105,11.2083196640015,11.2089242935181,11.2095279693604,11.2101335525513,11.2107400894165,11.2113456726074,11.2119512557983,11.2125549316406,11.2131605148315,11.2137660980225,11.2143726348877,11.21497631073,11.2155818939209,11.2161874771118,11.2167930603027,11.2173976898193,11.2180051803589,11.2186107635498,11.2192182540894,11.2198247909546,11.2204284667969,11.2210359573364,11.2216415405273,11.2222480773926,11.2228536605835,11.2234630584717,11.224066734314,11.2246742248535,11.2252798080444,11.2258882522583,11.2264957427979,11.2271013259888,11.227707862854,11.2283153533936,11.2289228439331,11.2295303344727,11.2301359176636,11.2307424545288,11.2313499450684,11.2319593429565,11.2325668334961,11.233172416687,11.2337808609009,11.2343883514404,11.23499584198,11.2356033325195,11.2362108230591,11.2368192672729,11.2374286651611,11.2380361557007,11.2386426925659,11.2392501831055,11.2398595809937,11.2404689788818,11.2410764694214,11.2416849136353,11.2422943115234,11.242901802063,11.2435121536255,11.244119644165,11.2447290420532,11.2453365325928,11.245945930481,11.2465543746948,11.2471656799316,11.2477712631226,11.2483825683594,11.2489919662476,11.2496023178101,11.2502098083496,11.2508192062378,11.2514295578003,11.2520380020142,11.2526483535767,11.2532577514648,11.253867149353,11.2544775009155,11.2550888061523,11.2556962966919,11.2563076019287,11.2569179534912,11.2575273513794,11.2581367492676,11.258749961853,11.2593584060669,11.2599678039551,11.2605791091919,11.2611904144287,11.2617998123169,11.2624101638794,11.2630214691162,11.2636308670044,11.2642440795898,11.264853477478,11.2654638290405,11.266077041626,11.2666883468628,11.2672986984253,11.2679100036621,11.2685213088989,11.2691326141357,11.2697448730469,11.2703561782837,11.2709674835205,11.2715787887573,11.2721900939941,11.2728023529053,11.2734155654907,11.2740249633789,11.2746381759644,11.2752504348755,11.2758636474609,11.2764749526978,11.2770862579346,11.27769947052,11.2783107757568,11.2789249420166,11.2795343399048,11.2801494598389,11.28076171875,11.2813749313354,11.2819862365723,11.2825994491577,11.2832126617432,11.2838249206543,11.2844362258911,11.2850513458252,11.285662651062,11.2862777709961,11.2868900299072,11.2875032424927,11.2881183624268,11.2887315750122,11.289342880249,11.2899570465088,11.2905721664429,11.2911834716797,11.2917985916138,11.2924118041992,11.293025970459,11.2936410903931,11.2942543029785,11.2948684692383,11.2954835891724,11.2960948944092,11.2967100143433,11.2973251342773,11.2979393005371,11.2985525131226,11.2991695404053,11.2997846603394,11.3003988265991,11.3010139465332,11.3016271591187,11.3022422790527,11.3028573989868,11.3034715652466,11.3040885925293,11.3047037124634,11.3053188323975,11.3059329986572,11.3065500259399,11.3071632385254,11.3077783584595,11.3083953857422,11.3090114593506,11.3096265792847,11.3102436065674,11.3108587265015,11.3114748001099,11.3120899200439,11.3127069473267,11.3133220672607,11.3139381408691,11.3145551681519,11.3151702880859,11.3157873153687,11.3164052963257,11.3170204162598,11.3176355361938,11.3182544708252,11.3188695907593,11.319486618042,11.320104598999,11.3207216262817,11.3213367462158,11.3219547271729,11.3225708007812,11.3231868743896,11.323805809021,11.3244228363037,11.3250408172607,11.3256578445435,11.3262767791748,11.3268947601318,11.3275117874146,11.3281269073486,11.3287477493286,11.3293647766113,11.329981803894,11.3305997848511,11.3312187194824,11.3318357467651,11.3324556350708,11.3330726623535,11.3336915969849,11.3343086242676,11.3349275588989,11.3355474472046,11.3361663818359,11.3367834091187,11.3374042510986,11.3380222320557,11.3386392593384,11.3392581939697,11.3398771286011,11.3404979705811,11.3411159515381,11.3417367935181,11.3423557281494,11.3429756164551,11.3435945510864,11.3442134857178
4.52364587783813,4.53293371200562,4.54225921630859,4.55162334442139,4.56102609634399,4.57046794891357,4.57994890213013,4.58946895599365,4.59902906417847,4.60862874984741,4.6182689666748,4.62794971466064,4.63767051696777,4.64743280410767,4.65723609924316,4.66708087921143,4.67696714401245,4.6868953704834,4.69686603546143,4.70687913894653,4.71693515777588,4.72703409194946,4.73717641830444,4.74736261367798,4.75759220123291,4.76786613464355,4.77818489074707,4.7885479927063,4.79895639419556,4.80941009521484,4.81990909576416,4.83045434951782,4.84104585647583,4.85168409347534,4.8623685836792,4.87310075759888,4.88388013839722,4.89470767974854,4.90558338165283,4.91650676727295,4.92747974395752,4.93850088119507,4.94957208633423,4.960693359375,4.97186422348022,4.98308563232422,4.99435758590698,5.00568103790283,5.01705598831177,5.02848243713379,5.03996133804321,5.05149221420288,5.06307649612427,5.07471370697021,5.08640480041504,5.09814977645874,5.10994911193848,5.12180328369141,5.13371229171753,5.14567708969116,5.15769815444946,5.16977500915527,5.18190956115723,5.19410037994385,5.20634889602661,5.21865510940552,5.23101949691772,5.24344301223755,7.83056259155273,7.84275770187378,7.85499095916748,7.86726236343384,7.87957239151001,7.89192056655884,7.90430784225464,7.91673374176025,7.92919921875,7.94170379638672,7.95424795150757,7.96683168411255,7.97945547103882,7.99211931228638,8.00482273101807,8.01756763458252,8.03035259246826,8.04317855834961,8.05604553222656,8.06895351409912,8.0819034576416,8.09489440917969,8.10792827606201,8.12100315093994,8.13411998748779,8.14727973937988,8.16048240661621,8.17372798919678,8.18701648712158,8.20034790039062,8.21372318267822,8.22714233398438,8.24060440063477,8.25411128997803,8.26766300201416,8.28125858306885,8.29489994049072,8.30858516693115,8.32231616973877,8.33609199523926,8.34991455078125,8.36378192901611,8.37769603729248,8.39165687561035,8.40566349029541,8.41971778869629,8.43381881713867,8.70896530151367,8.72037506103516,8.73181343078613,8.74328231811523,8.75478172302246,8.7663106918335,8.77787113189697,8.78946113586426,8.80108261108398,8.81273365020752,8.82441711425781,8.83613014221191,8.84787559509277,8.85965156555176,8.87145900726318,8.88329792022705,8.89516830444336,8.90707111358643,8.91900539398193,8.93097114562988,8.94297027587891,8.95500087738037,8.96706390380859,8.97915935516357,8.99128818511963,9.00344944000244,9.01564311981201,9.02787017822266,9.04013061523438,9.05242443084717,9.06475162506104,9.07711315155029,9.08950710296631,9.10193634033203,9.11439895629883,9.1268949508667,9.13942623138428,9.15199184417725,9.16459178924561,9.17722702026367,9.18989658355713,9.20260143280029,9.21534156799316,11.1376857757568,11.1382837295532,11.138879776001,11.1394786834717,11.1400785446167,11.1406726837158,11.1412715911865,11.1418676376343,11.1424674987793,11.1430644989014,11.1436624526978,11.1442594528198,11.1448593139648,11.1454553604126,11.1460552215576,11.1466503143311,11.1472501754761,11.1478490829468,11.1484489440918,11.1490468978882,11.1496438980103,11.1502437591553,11.1508417129517,11.1514415740967,11.1520385742188,11.1526374816895,11.1532354354858,11.1538372039795,11.1544351577759,11.1550340652466,11.155632019043,11.1562328338623,11.1568307876587,11.1574306488037,11.1580295562744,11.1586294174194,11.1592292785645,11.1598300933838,11.1604299545288,11.1610269546509,11.1616287231445,11.1622266769409,11.1628284454346,11.1634273529053,11.1640272140503,11.1646280288696,11.1652278900146,11.1658296585083,11.1664295196533,11.167028427124,11.1676292419434,11.1682291030884,11.168830871582,11.1694297790527,11.1700315475464,11.17063331604,11.1712322235107,11.1718339920044,11.1724338531494,11.1730346679688,11.1736364364624,11.1742382049561,11.174840927124,11.175440788269,11.1760416030884,11.176643371582,11.1772451400757,11.1778469085693,11.1784477233887,11.1790494918823,11.1796522140503,11.1802539825439,11.1808557510376,11.1814565658569,11.1820583343506,11.1826620101929,11.1832628250122,11.1838645935059,11.1844673156738,11.1850709915161,11.1856727600098,11.1862745285034,11.1868772506714,11.187479019165,11.1880826950073,11.1886854171753,11.1892890930176,11.1898899078369,11.1904935836792,11.1910972595215,11.1917009353638,11.1923036575317,11.1929054260254,11.1935081481934,11.1941137313843,11.1947154998779,11.1953201293945,11.1959218978882,11.1965255737305,11.1971302032471,11.1977338790894,11.1983366012573,11.1989402770996,11.1995439529419,11.2001485824585,11.2007541656494,11.2013559341431,11.201961517334,11.202564239502,11.2031698226929,11.2037744522095,11.2043781280518,11.204981803894,11.2055883407593,11.2061920166016,11.2067956924438,11.2074003219604,11.2080039978027,11.208610534668,11.2092161178589,11.2098217010498,11.2104263305664,11.2110300064087,11.2116355895996,11.2122421264648,11.2128458023071,11.213451385498,11.2140579223633,11.2146615982056,11.2152690887451,11.2158737182617,11.2164793014526,11.2170848846436,11.2176923751831,11.2182970046997,11.2189016342163,11.2195072174072,11.2201147079468,11.220721244812,11.2213249206543,11.2219324111938,11.2225389480591,11.22314453125,11.2237520217896,11.2243585586548,11.2249641418457,11.2255706787109,11.2261781692505,11.2267837524414,11.2273921966553,11.2279977798462,11.2286043167114,11.2292137145996,11.2298192977905,11.2304258346558,11.2310333251953,11.2316389083862,11.2322473526001,11.2328548431396,11.2334613800049,11.2340707778931,11.2346782684326,11.2352857589722,11.2358922958374,11.2365016937256,11.2371082305908,11.2377157211304,11.2383232116699,11.2389335632324,11.2395391464233,11.2401485443115,11.2407569885254,11.2413663864136,11.2419738769531,11.242582321167,11.2431917190552,11.2437992095947,11.2444076538086,11.2450170516968,11.2456254959106,11.2462348937988,11.246844291687,11.2474508285522,11.2480602264404,11.2486696243286,11.2492799758911,11.2498874664307,11.2504978179932,11.25110912323,11.2517166137695,11.252326965332,11.2529363632202,11.2535438537598,11.2541561126709,11.2547636032104,11.2553749084473,11.2559852600098,11.2565946578979,11.2572059631348,11.2578144073486,11.2584238052368,11.2590351104736,11.2596454620361,11.2602548599243,11.2608671188354,11.2614765167236,11.2620878219604,11.2626991271973,11.2633075714111,11.2639179229736,11.2645311355591,11.2651405334473,11.2657518386841,11.2663621902466,11.2669734954834,11.2675857543945,11.2681951522827,11.2688064575195,11.2694187164307,11.2700300216675,11.27064037323,11.2712535858154,11.2718648910522,11.2724761962891,11.2730884552002,11.273699760437,11.2743101119995,11.274923324585,11.2755346298218,11.2761487960815,11.2767601013184,11.2773714065552,11.2779836654663,11.2785949707031,11.2792081832886
4.51548290252686,4.5247368812561,4.53402900695801,4.54335927963257,4.55272769927979,4.56213521957397,4.57158184051514,4.58106708526611,4.59059238433838,4.60015678405762,4.6097617149353,4.61940622329712,4.62909173965454,4.63881731033325,4.64858436584473,4.65839242935181,4.66824197769165,4.67813348770142,4.68806648254395,4.69804239273071,4.70806074142456,4.71812152862549,4.72822570800781,4.73837280273438,4.74856424331665,4.75879907608032,4.76907825469971,4.77940225601196,4.78977060317993,4.80018424987793,4.81064319610596,4.82114791870117,4.83169841766357,4.84229564666748,4.85293912887573,4.86362981796265,4.87436723709106,4.8851523399353,4.89598512649536,4.90686655044556,4.91779565811157,4.92877435684204,4.93980169296265,4.95087862014771,4.96200561523438,4.9731822013855,4.98440980911255,4.99568796157837,5.00701713562012,5.01839828491211,5.02983093261719,5.04131555557251,5.05285310745239,5.06444358825684,5.07608699798584,5.08778429031372,5.09953594207764,5.11134147644043,5.12320232391357,5.13511800765991,5.1470890045166,5.15911626815796,5.17119979858398,5.18334007263184,5.19553756713867,5.20779371261597,5.22010660171509,5.23247814178467,5.24490833282471,5.25739812850952,7.81337308883667,7.825514793396,7.83769416809082,7.8499116897583,7.86216735839844,7.87446117401123,7.88679361343384,7.89916467666626,7.91157484054565,7.92402362823486,7.9365119934082,7.94903993606567,7.96160697937012,7.97421407699585,7.98686122894287,7.99954843521118,8.01227569580078,8.02504444122314,8.0378532409668,8.05070304870605,8.06359481811523,8.0765266418457,8.08950042724609,8.10251617431641,8.11557388305664,8.1286735534668,8.14181613922119,8.15500068664551,8.16822814941406,8.18149852752686,8.1948127746582,8.20816993713379,8.22157001495361,8.23501491546631,8.24850368499756,8.26203632354736,8.27561378479004,8.28923606872559,8.302903175354,8.31661510467529,8.33037185668945,8.34417533874512,8.35802364349365,8.37191867828369,8.38586044311523,8.39984798431396,8.4138822555542,8.42796325683594,8.4420919418335,8.73154544830322,8.74301338195801,8.75451183319092,8.76604080200195,8.77760028839111,8.78918933868408,8.80080986022949,8.81246089935303,8.82414245605469,8.83585548400879,8.84759998321533,8.859375,8.87118244171143,8.88302040100098,8.89488983154297,8.90679168701172,8.91872501373291,8.93069076538086,8.94268894195557,8.95471858978271,8.96678066253662,8.9788761138916,8.99100399017334,9.00316429138184,9.01535701751709,9.02758407592773,9.03984355926514,9.05213642120361,9.06446266174316,9.07682323455811,9.08921718597412,9.10164451599121,9.11410617828369,9.12660217285156,9.13913249969482,9.15169715881348,9.16429615020752,9.17693042755127,9.18959903717041,9.20230293273926,9.21504211425781,9.22781658172607,9.24062633514404,9.25347232818604,9.26635360717773,11.0785646438599,11.079155921936,11.0797472000122,11.080340385437,11.0809297561646,11.0815191268921,11.0821123123169,11.0827035903931,11.0832948684692,11.0838871002197,11.0844774246216,11.0850696563721,11.0856609344482,11.0862522125244,11.0868453979492,11.0874366760254,11.0880279541016,11.0886211395264,11.0892124176025,11.0898036956787,11.0903968811035,11.0909881591797,11.0915813446045,11.0921726226807,11.0927658081055,11.0933570861816,11.0939502716064,11.0945444107056,11.0951375961304,11.0957269668579,11.0963201522827,11.0969133377075,11.0975065231323,11.0980997085571,11.0986928939819,11.0992860794067,11.0998792648315,11.1004724502563,11.1010656356812,11.1016597747803,11.1022520065308,11.1028461456299,11.1034393310547,11.1040344238281,11.1046276092529,11.1052188873291,11.1058158874512,11.1064071655273,11.1070022583008,11.1075954437256,11.108190536499,11.1087846755981,11.1093797683716,11.1099729537964,11.1105661392212,11.1111612319946,11.1117563247681,11.1123514175415,11.1129426956177,11.1135396957397,11.1141347885132,11.1147298812866,11.1153249740601,11.1159181594849,11.1165132522583,11.1171092987061,11.1177034378052,11.1182994842529,11.1188926696777,11.1194877624512,11.1200847625732,11.1206798553467,11.1212749481201,11.1218700408936,11.1224670410156,11.1230621337891,11.1236591339111,11.1242523193359,11.1248502731323,11.1254453659058,11.1260414123535,11.1266393661499,11.1272325515747,11.1278295516968,11.1284265518188,11.1290235519409,11.129620552063,11.1302156448364,11.1308107376099,11.1314096450806,11.132004737854,11.1326017379761,11.1331968307495,11.1337947845459,11.134391784668,11.13498878479,11.1355857849121,11.1361827850342,11.1367797851562,11.1373767852783,11.137975692749,11.1385707855225,11.1391696929932,11.1397647857666,11.1403636932373,11.1409616470337,11.1415576934814,11.1421575546265,11.1427545547485,11.1433515548706,11.1439504623413,11.1445474624634,11.1451444625854,11.1457452774048,11.1463422775269,11.1469392776489,11.1475381851196,11.1481370925903,11.148736000061,11.1493339538574,11.1499328613281,11.1505317687988,11.1511306762695,11.1517276763916,11.1523284912109,11.152925491333,11.1535243988037,11.1541233062744,11.1547241210938,11.1553230285645,11.1559200286865,11.1565208435059,11.1571197509766,11.1577196121216,11.1583156585693,11.158917427063,11.1595163345337,11.1601152420044,11.1607160568237,11.1613168716431,11.1619157791138,11.1625146865845,11.1631135940552,11.1637125015259,11.1643133163452,11.1649141311646,11.1655149459839,11.1661157608032,11.1667165756226,11.1673154830933,11.1679162979126,11.1685152053833,11.169116973877,11.169716835022,11.170316696167,11.170919418335,11.1715202331543,11.1721210479736,11.1727199554443,11.1733207702637,11.173921585083,11.174524307251,11.1751251220703,11.1757259368896,11.1763286590576,11.176929473877,11.1775312423706,11.1781311035156,11.1787338256836,11.1793346405029,11.1799364089966,11.1805372238159,11.1811399459839,11.1817426681519,11.1823434829712,11.1829462051392,11.1835470199585,11.1841497421265,11.1847543716431,11.1853551864624,11.1859579086304,11.1865606307983,11.187162399292,11.18776512146,11.1883668899536,11.1889696121216,11.1895713806152,11.1901760101318,11.1907787322998,11.1913795471191,11.1919841766357,11.1925868988037,11.1931896209717,11.1937923431396,11.1943950653076,11.1949996948242,11.1956024169922,11.1962051391602,11.1968107223511,11.197413444519,11.1980171203613,11.1986198425293,11.1992235183716,11.1998271942139,11.2004308700562,11.2010354995728,11.2016401290894,11.202244758606,11.2028474807739,11.2034521102905,11.2040567398071,11.2046613693237,11.2052640914917,11.2058706283569,11.2064752578735,11.2070798873901,11.2076835632324,11.208288192749,11.2088947296143,11.2094974517822,11.2101020812988,11.2107067108154,11.2113132476807,11.2119178771973,11.2125244140625,11.2131290435791,11.2137336730957,11.2143383026123,11.2149448394775
4.50734996795654,4.51657056808472,4.52582883834839,4.53512525558472,4.5444598197937,4.5538330078125,4.56324529647827,4.5726957321167,4.58218622207642,4.59171581268311,4.60128498077393,4.61089468002319,4.62054395675659,4.6302342414856,4.63996505737305,4.6497368812561,4.65954971313477,4.66940402984619,4.67930030822754,4.68923854827881,4.69921922683716,4.70924282073975,4.71930837631226,4.72941780090332,4.73957014083862,4.74976634979248,4.76000642776489,4.77029132843018,4.78062009811401,4.79099369049072,4.80141305923462,4.81187725067139,4.82238721847534,4.83294343948364,4.84354591369629,4.85419511795044,4.86489057540894,4.87563419342041,4.88642454147339,4.89726305007935,4.90815019607544,4.91908550262451,4.93006944656372,4.94110298156738,4.95218563079834,4.96331834793091,4.97450113296509,4.98573446273804,4.99701881408691,5.00835418701172,5.01974105834961,5.03117990493774,5.04267120361328,5.05421447753906,5.06581115722656,5.07746124267578,5.08916473388672,5.10092210769653,5.11273431777954,5.12460136413574,5.13652372360229,5.14850187301636,5.16053533554077,5.17262554168701,5.18477296829224,5.19697713851929,5.20923852920532,5.22155857086182,5.23393774032593,5.24637508392334,5.25887155532837,5.27142763137817,5.28404378890991,7.80834770202637,7.82047367095947,7.83263778686523,7.84483909606934,7.85707902908325,7.86935710906982,7.88167333602905,7.8940281867981,7.90642213821411,7.9188551902771,7.9313268661499,7.94383811950684,7.9563889503479,7.96897983551025,7.98161029815674,7.99428081512451,8.00699138641357,8.01974296569824,8.0325345993042,8.04536819458008,8.05824184417725,8.07115745544434,8.08411407470703,8.09711265563965,8.11015224456787,8.12323474884033,8.13635921478271,8.14952659606934,8.16273593902588,8.17598915100098,8.189284324646,8.20262336730957,8.2160062789917,8.22943305969238,8.2429027557373,8.2564172744751,8.26997661590576,8.28357982635498,8.29722785949707,8.31092166900635,8.3246603012085,8.33844375610352,8.35227394104004,8.36614990234375,8.38007164001465,8.39404010772705,8.40805530548096,8.42211723327637,8.43622589111328,8.45038223266602,8.75424289703369,8.76577091217041,8.77732849121094,8.78891754150391,8.800537109375,8.81218814849854,8.82386875152588,8.83558082580566,8.84732437133789,8.85909938812256,8.87090492248535,8.8827428817749,8.89461231231689,8.90651321411133,8.9184455871582,8.93041038513184,8.94240760803223,8.95443630218506,8.96649837493896,8.97859287261963,8.99071884155273,9.00287914276123,9.01507186889648,9.0272970199585,9.03955554962158,9.05184841156006,9.06417369842529,9.07653331756592,9.08892631530762,9.10135364532471,9.11381435394287,9.12630939483643,9.13883876800537,9.15140247344971,9.16400146484375,9.17663478851318,9.18930244445801,9.20200538635254,9.21474361419678,9.22751712799072,9.24032688140869,9.25317096710205,9.26605129241943,9.27896785736084,9.29192066192627,9.30490875244141,9.31793403625488,11.0200672149658,11.0206518173218,11.0212373733521,11.021821975708,11.0224075317383,11.0229911804199,11.0235776901245,11.0241613388062,11.0247478485107,11.025333404541,11.025918006897,11.0265035629272,11.0270900726318,11.0276756286621,11.0282583236694,11.0288457870483,11.0294322967529,11.0300178527832,11.0306034088135,11.0311880111694,11.0317726135254,11.0323600769043,11.0329465866089,11.0335321426392,11.0341186523438,11.0347061157227,11.0352916717529,11.0358762741089,11.0364656448364,11.0370502471924,11.0376358032227,11.0382223129272,11.0388097763062,11.0393962860107,11.0399827957153,11.0405702590942,11.0411577224731,11.0417442321777,11.042329788208,11.0429182052612,11.0435037612915,11.0440940856934,11.0446796417236,11.0452661514282,11.0458536148071,11.0464420318604,11.0470294952393,11.0476179122925,11.0482034683228,11.048791885376,11.0493812561035,11.0499687194824,11.0505571365356,11.0511436462402,11.0517330169678,11.0523195266724,11.0529088973999,11.0534963607788,11.054084777832,11.0546722412109,11.0552625656128,11.0558500289917,11.0564384460449,11.0570259094238,11.0576162338257,11.0582056045532,11.0587940216064,11.0593814849854,11.0599699020386,11.0605611801147,11.0611476898193,11.0617389678955,11.0623254776001,11.0629167556763,11.0635051727295,11.064094543457,11.0646848678589,11.0652742385864,11.0658645629883,11.0664539337158,11.0670433044434,11.0676317214966,11.0682220458984,11.068811416626,11.0694017410278,11.069993019104,11.0705823898315,11.0711708068848,11.0717639923096,11.0723543167114,11.072943687439,11.0735340118408,11.0741233825684,11.0747156143188,11.0753049850464,11.0758972167969,11.0764846801758,11.0770769119263,11.0776681900024,11.0782594680786,11.0788497924805,11.079442024231,11.0800313949585,11.080623626709,11.0812149047852,11.0818061828613,11.0823965072632,11.082986831665,11.0835800170898,11.0841703414917,11.0847616195679,11.0853538513184,11.0859470367432,11.0865383148193,11.0871305465698,11.0877208709717,11.0883121490479,11.0889053344727,11.0894975662231,11.0900907516479,11.0906810760498,11.0912742614746,11.0918664932251,11.0924577713013,11.0930519104004,11.0936431884766,11.0942354202271,11.0948286056519,11.0954208374023,11.0960140228271,11.0966081619263,11.0971975326538,11.0977916717529,11.0983848571777,11.0989770889282,11.099570274353,11.1001625061035,11.1007556915283,11.1013498306274,11.1019430160522,11.1025371551514,11.1031303405762,11.1037244796753,11.1043167114258,11.1049098968506,11.1055040359497,11.1060972213745,11.1066923141479,11.1072864532471,11.1078786849976,11.1084756851196,11.1090688705444,11.1096611022949,11.110255241394,11.1108503341675,11.1114454269409,11.11203956604,11.1126327514648,11.1132287979126,11.1138219833374,11.1144180297852,11.11501121521,11.1156072616577,11.1162014007568,11.1167964935303,11.1173915863037,11.1179857254028,11.1185827255249,11.119176864624,11.1197710037231,11.1203660964966,11.1209621429443,11.1215572357178,11.1221532821655,11.122748374939,11.1233444213867,11.1239414215088,11.1245365142822,11.1251306533813,11.1257266998291,11.1263236999512,11.1269187927246,11.1275148391724,11.1281108856201,11.1287078857422,11.1293048858643,11.129900932312,11.1304950714111,11.1310920715332,11.131688117981,11.132285118103,11.1328811645508,11.1334781646729,11.1340761184692,11.1346731185913,11.1352672576904,11.1358642578125,11.1364622116089,11.137059211731,11.1376571655273,11.1382541656494,11.1388521194458,11.1394491195679,11.1400470733643,11.1406421661377,11.1412420272827,11.1418371200562,11.1424369812012,11.1430339813232,11.1436319351196,11.1442308425903,11.1448287963867,11.1454238891602,11.1460237503052,11.1466207504272,11.1472187042236,11.1478176116943,11.1484174728394,11.1490144729614,11.1496143341064,11.1502132415771,11.1508092880249,11.1514081954956
4.49924564361572,4.50843286514282,4.51765823364258,4.52692079544067,4.53622150421143,4.54556083679199,4.55493879318237,4.56435537338257,4.57381105422974,4.58330583572388,4.59284019470215,4.60241413116455,4.61202812194824,4.62168264389038,4.63137722015381,4.64111280441284,4.65088939666748,4.66070699691772,4.67056655883789,4.68046760559082,4.69041109085083,4.70039653778076,4.71042490005493,4.72049617767334,4.73061037063599,4.74076795578003,4.75096940994263,4.76121473312378,4.77150440216064,4.78183889389038,4.79221773147583,4.80264234542847,4.81311178207397,4.82362747192383,4.83418893814087,4.84479665756226,4.85545110702515,4.8661527633667,4.87690162658691,4.88769769668579,4.89854192733765,4.90943431854248,4.92037534713745,4.93136548995972,4.94240474700928,4.95349311828613,4.96463203430176,4.97582054138184,4.98705959320068,4.99834966659546,5.00969123840332,5.02108430862427,5.03252935409546,5.04402685165405,5.05557632446289,5.06717920303345,5.07883548736572,5.09054565429688,5.1023097038269,5.11412858963013,5.12600183486938,5.13793039321899,5.14991521835327,5.1619553565979,5.17405271530151,5.18620634078979,5.19841718673706,5.21068572998047,5.22301244735718,5.23539781570435,5.24784135818481,5.26034498214722,5.27290916442871,5.28553199768066,5.29821634292603,5.31096124649048,7.80332899093628,7.81543922424316,7.82758712768555,7.83977317810059,7.85199689865112,7.86425924301147,7.87655973434448,7.8888988494873,7.90127658843994,7.91369295120239,7.92614889144897,7.93864345550537,7.95117807388306,7.96375226974487,7.97636604309082,7.98901987075806,8.00171375274658,8.01444911956787,8.02722358703613,8.04004001617432,8.05289649963379,8.06579494476318,8.07873439788818,8.09171581268311,8.10473823547363,8.1178035736084,8.13090991973877,8.14405918121338,8.15725135803223,8.17048645019531,8.18376445770264,8.1970853805542,8.21045017242432,8.22385787963867,8.2373104095459,8.25080585479736,8.2643461227417,8.27793121337891,8.29156112670898,8.30523586273193,8.31895542144775,8.33272075653076,8.34653186798096,8.36038780212402,8.37429141998291,8.38823986053467,8.40223598480225,8.41627788543701,8.4303674697876,8.44450378417969,8.45868873596191,8.47292041778564,8.78864574432373,8.80026531219482,8.81191444396973,8.82359504699707,8.83530616760254,8.84704971313477,8.8588228225708,8.87062835693359,8.88246536254883,8.8943338394165,8.90623378753662,8.9181661605835,8.93013000488281,8.94212627410889,8.95415496826172,8.96621513366699,8.97830867767334,8.99043464660645,9.00259399414062,9.01478576660156,9.02701091766357,9.03926849365234,9.0515604019165,9.06388473510742,9.07624340057373,9.08863544464111,9.10106182098389,9.11352157592773,9.12601661682129,9.13854503631592,9.15110778808594,9.16370582580566,9.17633819580078,9.18900585174561,9.20170783996582,9.21444511413574,9.22721767425537,9.24002647399902,9.25286960601807,9.26574993133545,9.27866554260254,9.29161643981934,9.30460453033447,9.31762886047363,9.33068943023682,9.34378623962402,9.35692024230957,9.37009143829346,9.38329982757568,10.9627628326416,10.9633417129517,10.9639205932617,10.9644994735718,10.9650774002075,10.9656591415405,10.966236114502,10.9668169021606,10.9673938751221,10.9679746627808,10.9685535430908,10.9691324234009,10.9697113037109,10.970290184021,10.9708700180054,10.9714498519897,10.9720296859741,10.9726095199585,10.9731893539429,10.9737682342529,10.9743499755859,10.974928855896,10.9755096435547,10.9760875701904,10.9766683578491,10.9772491455078,10.9778299331665,10.9784088134766,10.9789896011353,10.9795703887939,10.980149269104,10.9807319641113,10.9813108444214,10.9818935394287,10.9824724197388,10.9830532073975,10.9836339950562,10.9842128753662,10.9847955703735,10.9853782653809,10.9859571456909,10.9865398406982,10.9871187210083,10.9877014160156,10.9882822036743,10.9888648986816,10.989447593689,10.990026473999,10.9906091690063,10.991189956665,10.9917726516724,10.9923534393311,10.9929361343384,10.9935169219971,10.9940996170044,10.9946813583374,10.9952630996704,10.9958448410034,10.9964275360107,10.9970102310181,10.9975910186768,10.9981737136841,10.9987564086914,10.9993391036987,10.9999217987061,11.0005054473877,11.0010852813721,11.001669883728,11.0022506713867,11.0028352737427,11.00341796875,11.0040006637573,11.0045852661133,11.0051679611206,11.0057525634766,11.0063314437866,11.0069160461426,11.0075006484985,11.0080833435059,11.0086660385132,11.0092506408691,11.0098333358765,11.0104179382324,11.0110006332397,11.0115871429443,11.0121698379517,11.012752532959,11.0133371353149,11.0139207839966,11.0145063400269,11.0150890350342,11.0156726837158,11.0162572860718,11.0168418884277,11.017427444458,11.0180110931396,11.0185956954956,11.0191802978516,11.0197658538818,11.0203495025635,11.0209341049194,11.0215187072754,11.02210521698,11.0226898193359,11.0232744216919,11.0238571166992,11.0244436264038,11.0250301361084,11.0256147384644,11.0261993408203,11.0267858505249,11.0273704528809,11.0279569625854,11.02854347229,11.0291261672974,11.029712677002,11.0302991867065,11.0308856964111,11.0314702987671,11.0320568084717,11.032642364502,11.0332279205322,11.0338144302368,11.0343999862671,11.034987449646,11.0355730056763,11.0361595153809,11.0367460250854,11.0373306274414,11.037917137146,11.0385036468506,11.0390901565552,11.0396766662598,11.040265083313,11.0408515930176,11.0414400100708,11.0420236587524,11.0426111221313,11.0431985855103,11.0437850952148,11.0443735122681,11.044960975647,11.0455484390259,11.0461349487305,11.0467233657837,11.0473079681396,11.0478963851929,11.0484828948975,11.0490713119507,11.0496597290039,11.0502481460571,11.0508365631104,11.0514249801636,11.0520114898682,11.0525989532471,11.0531883239746,11.0537757873535,11.0543622970581,11.0549535751343,11.0555410385132,11.0561304092407,11.0567178726196,11.0573043823242,11.0578947067261,11.0584831237793,11.0590715408325,11.0596618652344,11.0602502822876,11.0608386993408,11.0614290237427,11.0620155334473,11.0626039505005,11.0631942749023,11.0637836456299,11.0643730163574,11.0649633407593,11.0655527114868,11.0661420822144,11.0667324066162,11.0673198699951,11.067910194397,11.0685005187988,11.0690889358521,11.0696792602539,11.0702695846558,11.0708599090576,11.0714502334595,11.07204246521,11.0726289749146,11.073221206665,11.0738096237183,11.0743999481201,11.0749921798706,11.0755825042725,11.0761728286743,11.0767650604248,11.0773544311523,11.0779447555542,11.0785350799561,11.0791273117065,11.0797176361084,11.0803098678589,11.0809001922607,11.0814924240112,11.0820827484131,11.0826730728149,11.0832653045654,11.0838556289673,11.0844478607178,11.0850381851196,11.0856304168701,11.0862216949463,11.0868148803711,11.0874061584473,11.0879964828491,11.0885887145996
4.49117040634155,4.50032472610474,4.50951671600342,4.5187463760376,4.52801322937012,4.53731918334961,4.5466628074646,4.5560450553894,4.56546640396118,4.57492637634277,4.5844259262085,4.59396457672119,4.60354375839233,4.61316251754761,4.62282133102417,4.63252115249634,4.64226150512695,4.65204286575317,4.661865234375,4.67173004150391,4.68163585662842,4.69158411026001,4.70157480239868,4.71160793304443,4.72168397903442,4.73180341720581,4.74196624755859,4.75217294692993,4.76242351531982,4.77271842956543,4.78305816650391,4.7934422492981,4.80387210845947,4.81434726715088,4.82486820220947,4.83543491363525,4.84604835510254,4.85670804977417,4.86741542816162,4.87816953659058,4.88897180557251,4.89982175827026,4.910719871521,4.92166662216187,4.93266248703003,4.94370698928833,4.95480155944824,4.96594619750977,4.97714042663574,4.9883861541748,4.99968242645264,5.0110297203064,5.02242851257324,5.03387975692749,5.04538297653198,5.05693960189819,5.06854820251465,5.08021116256714,5.09192752838135,5.10369825363159,5.11552333831787,5.12740278244019,5.13933849334717,5.1513295173645,5.1633768081665,5.17548036575317,5.18764066696167,5.19985866546631,5.21213388442993,5.22446727752686,5.23685932159424,5.24931001663208,5.2618203163147,5.27439022064209,5.28702068328857,5.29971265792847,5.31246471405029,5.32527828216553,7.78625869750977,7.79831600189209,7.81041097640991,7.82254362106323,7.83471393585205,7.84692192077637,7.85916805267334,7.87145280838013,7.88377571105957,7.89613723754883,7.90853786468506,7.9209771156311,7.93345594406128,7.94597387313843,7.95853137969971,7.97112894058228,7.98376607894897,7.99644374847412,8.0091609954834,8.02191925048828,8.03471851348877,8.04755878448486,8.06043910980225,8.07336139678955,8.08632564544678,8.09933090209961,8.11237812042236,8.12546825408936,8.13859939575195,8.15177440643311,8.16499137878418,8.17825126647949,8.19155406951904,8.20490074157715,8.21829128265381,8.23172473907471,8.24520206451416,8.25872421264648,8.27229118347168,8.28590202331543,8.29955768585205,8.31325912475586,8.32700538635254,8.34079742431641,8.35463523864746,8.3685188293457,8.38244819641113,8.39642429351807,8.4104471206665,8.42451763153076,8.43863487243652,8.45279884338379,8.46701049804688,8.4812707901001,8.81164169311523,8.82332134246826,8.83503246307373,8.84677410125732,8.85854721069336,8.87035179138184,8.88218784332275,8.89405536651611,8.90595436096191,8.91788578033447,8.92984962463379,8.94184494018555,8.95387268066406,8.96593284606934,8.97802543640137,8.99015045166016,9.00230884552002,9.01449966430664,9.02672386169434,9.03898143768311,9.05127143859863,9.06359577178955,9.07595348358154,9.08834552764893,9.10077095031738,9.11322975158691,9.12572288513184,9.13825130462646,9.15081310272217,9.16341018676758,9.17604160308838,9.18870830535889,9.20140933990479,9.21414661407471,9.22691822052002,9.23972606658936,9.2525691986084,9.26544761657715,9.27836227416992,9.29131317138672,9.30430030822754,9.31732368469238,9.33038330078125,9.34347915649414,9.35661220550537,9.36978340148926,9.38298988342285,9.3962345123291,9.40951728820801,9.42283725738525,9.43619441986084,10.9054794311523,10.9060525894165,10.9066247940063,10.9071969985962,10.907772064209,10.9083442687988,10.908917427063,10.9094896316528,10.9100618362427,10.9106369018555,10.9112100601196,10.9117822647095,10.9123554229736,10.9129276275635,10.913501739502,10.9140768051147,10.9146509170532,10.9152240753174,10.9157962799072,10.91637134552,10.9169435501099,10.9175186157227,10.9180908203125,10.918664932251,10.9192399978638,10.9198141098022,10.9203872680664,10.9209613800049,10.9215364456177,10.9221105575562,10.9226856231689,10.9232597351074,10.9238338470459,10.9244089126587,10.9249830245972,10.92555809021,10.9261341094971,10.9267063140869,10.9272813796997,10.9278573989868,10.9284324645996,10.9290084838867,10.9295816421509,10.9301595687866,10.9307327270508,10.9313106536865,10.9318828582764,10.9324579238892,10.9330339431763,10.9336109161377,10.9341869354248,10.934760093689,10.9353361129761,10.9359121322632,10.9364910125732,10.9370641708374,10.9376401901245,10.9382162094116,10.938793182373,10.9393692016602,10.9399461746216,10.9405202865601,10.9410972595215,10.9416732788086,10.94225025177,10.9428262710571,10.9434041976929,10.9439792633057,10.9445571899414,10.9451341629028,10.9457082748413,10.9462871551514,10.9468631744385,10.9474411010742,10.9480180740356,10.9485940933228,10.9491710662842,10.9497489929199,10.9503259658813,10.9509038925171,10.9514818191528,10.9520568847656,10.95263671875,10.9532136917114,10.9537935256958,10.9543676376343,10.954948425293,10.9555244445801,10.9561033248901,10.9566812515259,10.957257270813,10.957836151123,10.9584140777588,10.9589929580688,10.9595708847046,10.9601497650146,10.9607276916504,10.9613065719604,10.9618844985962,10.9624633789062,10.963041305542,10.9636211395264,10.9642000198364,10.9647798538208,10.9653558731079,10.965934753418,10.9665155410767,10.967095375061,10.9676742553711,10.9682502746582,10.9688320159912,10.9694108963013,10.9699926376343,10.9705696105957,10.9711494445801,10.9717273712158,10.9723100662231,10.9728879928589,10.9734687805176,10.9740467071533,10.974627494812,10.975209236145,10.9757852554321,10.9763660430908,10.9769458770752,10.9775257110596,10.9781084060669,10.9786863327026,10.9792671203613,10.9798488616943,10.9804267883301,10.9810075759888,10.9815893173218,10.9821701049805,10.9827499389648,10.9833307266235,10.9839105606079,10.9844923019409,10.9850730895996,10.985652923584,10.9862337112427,10.9868154525757,10.9873971939087,10.9879779815674,10.9885597229004,10.9891405105591,10.9897241592407,10.9903030395508,10.9908847808838,10.9914665222168,10.9920473098755,10.9926309585571,10.9932117462158,10.9937934875488,10.9943752288818,10.9949579238892,10.9955396652222,10.9961194992065,10.9967021942139,10.9972858428955,10.9978666305542,10.9984502792358,10.9990310668945,10.9996166229248,11.0001964569092,11.0007791519165,11.0013628005981,11.0019454956055,11.0025272369385,11.0031099319458,11.0036935806274,11.0042772293091,11.0048599243164,11.0054416656494,11.0060253143311,11.006609916687,11.00719165802,11.0077743530273,11.008358001709,11.0089426040649,11.0095262527466,11.0101089477539,11.0106925964355,11.0112781524658,11.0118608474731,11.0124444961548,11.0130290985107,11.0136108398438,11.014196395874,11.01478099823,11.015362739563,11.0159463882446,11.0165328979492,11.0171165466309,11.0177011489868,11.0182847976685,11.0188694000244,11.0194530487061,11.0200395584106,11.0206232070923,11.0212068557739,11.0217933654785,11.0223770141602,11.0229606628418,11.0235471725464,11.0241327285767,11.0247173309326,11.0253009796143,11.0258865356445,11.0264730453491
4.48312425613403,4.49224615097046,4.50140476226807,4.51060104370117,4.51983499526978,4.52910661697388,4.53841686248779,4.54776477813721,4.55715179443359,4.56657743453979,4.57604217529297,4.58554649353027,4.59508991241455,4.60467338562012,4.61429691314697,4.62396049499512,4.63366508483887,4.64341020584106,4.65319681167603,4.66302442550659,4.67289352416992,4.68280458450317,4.69275808334351,4.70275354385376,4.71279191970825,4.72287273406982,4.73299741744995,4.74316549301147,4.75337696075439,4.76363277435303,4.77393293380737,4.78427791595459,4.79466724395752,4.80510234832764,4.81558322906494,4.82610940933228,4.83668184280396,4.84730052947998,4.85796594619751,4.8686785697937,4.87943840026855,4.89024639129639,4.90110158920288,4.91200590133667,4.92295837402344,4.9339599609375,4.94501066207886,4.95611095428467,4.96726131439209,4.97846174240112,4.98971319198608,5.00101518630981,5.01236867904663,5.02377414703369,5.03523111343384,5.04674053192139,5.0583028793335,5.06991863250732,5.08158731460571,5.09330987930298,5.10508680343628,5.11691856384277,5.1288046836853,5.1407470703125,5.15274429321289,5.16479778289795,5.17690801620483,5.1890754699707,5.2012996673584,5.21358203887939,5.22592210769653,5.23832130432129,5.2507791519165,5.26329660415649,5.27587366104126,5.28851127624512,5.30120897293091,5.31396818161011,5.32678985595703,5.33967304229736,5.35261821746826,7.78126811981201,7.79331016540527,7.80538940429688,7.81750631332397,7.82966089248657,7.84185314178467,7.85408353805542,7.86635208129883,7.87865924835205,7.89100503921509,7.90338897705078,7.91581249237061,7.92827463150024,7.94077634811401,7.95331764221191,7.96589851379395,7.97851943969727,7.99117994308472,8.00388145446777,8.01662254333496,8.02940464019775,8.04222774505615,8.05509090423584,8.06799697875977,8.08094310760498,8.09393119812012,8.10696125030518,8.12003326416016,8.13314723968506,8.1463041305542,8.15950393676758,8.17274570465088,8.18603038787842,8.19935894012451,8.21273136138916,8.22614669799805,8.2396068572998,8.2531099319458,8.26665782928467,8.28025054931641,8.29388809204102,8.3075704574585,8.32129764556885,8.33507061004639,8.34888935089111,8.36275386810303,8.37666416168213,8.39062118530273,8.40462493896484,8.41867542266846,8.43277263641357,8.44691753387451,8.46111011505127,8.47535037994385,8.48963832855225,8.83475780487061,8.84649848937988,8.8582706451416,8.87007427215576,8.88191032409668,8.89377689361572,8.90567588806152,8.91760635375977,8.92956829071045,8.94156360626221,8.95359039306641,8.96564960479736,8.97774124145508,8.98986625671387,9.00202369689941,9.01421356201172,9.0264368057251,9.03869342803955,9.05098342895508,9.06330680847168,9.07566356658936,9.08805465698242,9.10047912597656,9.11293792724609,9.1254301071167,9.13795757293701,9.1505184173584,9.16311454772949,9.17574596405029,9.18841171264648,9.20111179351807,9.21384811401367,9.22661876678467,9.23942565917969,9.25226783752441,9.26514530181885,9.27805995941162,9.29100894927979,9.30399513244629,9.31701755523682,9.33007717132568,9.34317207336426,9.35630512237549,9.36947441101074,9.38268089294434,9.39592456817627,9.40920543670654,9.42252445220947,9.43588066101074,9.44927597045898,9.46270847320557,9.4761791229248,9.4896879196167,10.8487911224365,10.8493585586548,10.849925994873,10.850492477417,10.8510589599609,10.8516254425049,10.8521919250488,10.8527603149414,10.8533248901367,10.8538932800293,10.8544616699219,10.8550281524658,10.8555965423584,10.856162071228,10.8567304611206,10.8572969436646,10.8578653335571,10.8584318161011,10.8590002059937,10.8595685958862,10.8601369857788,10.8607053756714,10.861270904541,10.8618402481079,10.8624076843262,10.8629770278931,10.8635444641113,10.8641128540039,10.8646812438965,10.8652496337891,10.8658180236816,10.8663883209229,10.8669548034668,10.8675231933594,10.868091583252,10.8686599731445,10.8692283630371,10.869797706604,10.8703670501709,10.8709363937378,10.8715057373047,10.8720731735229,10.8726434707642,10.8732118606567,10.8737821578979,10.8743524551392,10.8749208450317,10.8754892349243,10.8760595321655,10.8766279220581,10.8771982192993,10.8777685165405,10.8783378601074,10.8789081573486,10.8794784545898,10.8800487518311,10.8806171417236,10.8811874389648,10.8817577362061,10.8823299407959,10.8828964233398,10.8834676742554,10.8840379714966,10.8846092224121,10.885181427002,10.8857507705688,10.8863210678101,10.8868913650513,10.8874616622925,10.8880338668823,10.8886041641235,10.8891725540161,10.889744758606,10.8903160095215,10.890887260437,10.8914566040039,10.8920288085938,10.8926019668579,10.8931732177734,10.8937454223633,10.8943138122559,10.8948860168457,10.8954582214355,10.8960304260254,10.8966007232666,10.8971719741821,10.897744178772,10.8983173370361,10.8988885879517,10.8994607925415,10.9000329971313,10.9006032943726,10.901177406311,10.9017496109009,10.9023199081421,10.9028921127319,10.9034652709961,10.9040374755859,10.9046115875244,10.9051818847656,10.9057559967041,10.9063282012939,10.9069004058838,10.9074745178223,10.9080448150635,10.908618927002,10.9091920852661,10.9097671508789,10.9103384017944,10.9109106063843,10.9114847183228,10.9120588302612,10.9126329421997,10.9132051467896,10.9137773513794,10.9143514633179,10.9149255752563,10.9154996871948,10.916072845459,10.9166450500488,10.9172210693359,10.9177932739258,10.9183654785156,10.9189414978027,10.9195137023926,10.9200868606567,10.9206628799438,10.9212369918823,10.9218111038208,10.9223852157593,10.9229593276978,10.9235334396362,10.9241075515747,10.9246826171875,10.925256729126,10.9258327484131,10.9264068603516,10.92698097229,10.9275569915771,10.9281330108643,10.9287071228027,10.9292802810669,10.929856300354,10.9304313659668,10.9310064315796,10.9315805435181,10.9321584701538,10.9327325820923,10.9333086013794,10.9338846206665,10.934458732605,10.9350337982178,10.9356098175049,10.936185836792,10.9367618560791,10.9373378753662,10.9379138946533,10.9384880065918,10.9390659332275,10.9396409988403,10.9402170181274,10.9407949447632,10.9413690567017,10.9419450759888,10.9425230026245,10.9430990219116,10.9436769485474,10.9442520141602,10.9448280334473,10.945405960083,10.9459819793701,10.9465579986572,10.9471378326416,10.9477138519287,10.9482898712158,10.9488668441772,10.9494438171387,10.9500207901001,10.9505987167358,10.9511747360229,10.9517526626587,10.9523305892944,10.9529066085815,10.9534854888916,10.9540634155273,10.9546394348145,10.9552192687988,10.9557952880859,10.9563732147217,10.9569511413574,10.9575290679932,10.9581079483032,10.958685874939,10.9592638015747,10.9598417282104,10.9604215621948,10.9609975814819,10.9615755081177,10.9621572494507,10.9627342224121,10.9633131027222,10.9638900756836,10.9644680023193,10.9650478363037
4.47510719299316,4.48419618606567,4.49332189559937,4.50248527526855,4.51168584823608,4.52092409133911,4.53020048141479,4.53951501846313,4.54886770248413,4.55825901031494,4.56768941879272,4.57715892791748,4.58666753768921,4.59621572494507,4.60580396652222,4.61543226242065,4.62510108947754,4.63480997085571,4.64456033706665,4.65435123443604,4.66418361663818,4.67405796051025,4.68397378921509,4.693932056427,4.703932762146,4.71397590637207,4.72406244277954,4.73419189453125,4.74436521530151,4.75458192825317,4.76484298706055,4.77514839172363,4.78549814224243,4.79589319229126,4.80633354187012,4.81681966781616,4.82735109329224,4.83792924880981,4.84855365753174,4.85922431945801,4.8699426651001,4.88070821762085,4.89152145385742,4.90238285064697,4.9132924079895,4.92425060272217,4.93525791168213,4.94631433486938,4.95742034912109,4.96857690811157,4.9797830581665,4.99104070663452,5.00234842300415,5.01370811462402,5.02511930465698,5.03658294677734,5.04809856414795,5.05966711044312,5.0712890625,5.08296394348145,5.09469318389893,5.10647630691528,5.11831426620483,5.13020753860474,5.14215564727783,5.1541600227356,5.16622066497803,5.17833709716797,5.19051122665405,5.20274257659912,5.21503162384033,5.22737884521484,5.23978471755981,5.25224924087524,5.26477384567261,5.27735805511475,5.29000282287598,5.30270767211914,5.31547451019287,5.32830238342285,5.3411922454834,5.35414505004883,5.36716175079346,5.38024091720581,7.77628374099731,7.78831052780151,7.80037450790405,7.81247568130493,7.82461452484131,7.83679103851318,7.84900569915771,7.8612585067749,7.87354946136475,7.8858790397644,7.89824724197388,7.91065454483032,7.92310047149658,7.93558597564697,7.94811058044434,7.96067523956299,7.97327899932861,7.98592329025269,7.99860763549805,8.01133251190186,8.02409744262695,8.03690338134766,8.04975032806396,8.06263828277588,8.0755672454834,8.08853816986084,8.1015510559082,8.11460590362549,8.1277027130127,8.14084148406982,8.15402317047119,8.1672477722168,8.18051433563232,8.19382572174072,8.20717906951904,8.22057628631592,8.23401832580566,8.24750328063965,8.2610330581665,8.27460670471191,8.2882251739502,8.30188941955566,8.31559753417969,8.3293514251709,8.3431510925293,8.35699653625488,8.37088871002197,8.38482666015625,8.39881038665771,8.412841796875,8.42691898345947,8.44104480743408,8.4552173614502,8.46943759918213,8.48370552062988,8.49802112579346,8.85799503326416,8.869797706604,8.88163280487061,8.89349842071533,8.90539646148682,8.91732597351074,8.92928791046143,8.94128227233887,8.95330810546875,8.96536731719971,8.97745800018311,8.98958206176758,9.00173854827881,9.01392841339111,9.02615070343018,9.03840637207031,9.05069541931152,9.06301784515381,9.07537364959717,9.08776378631592,9.10018730163574,9.11264514923096,9.12513732910156,9.13766384124756,9.15022468566895,9.16281986236572,9.17544937133789,9.18811416625977,9.20081424713135,9.21354866027832,9.22631931304932,9.23912525177002,9.25196647644043,9.26484394073486,9.277756690979,9.29070568084717,9.30369091033936,9.31671237945557,9.3297700881958,9.34286499023438,9.35599708557129,9.36916542053223,9.3823709487915,9.39561367034912,9.40889358520508,9.42221164703369,9.43556785583496,9.44896125793457,9.46239280700684,9.47586250305176,9.48937129974365,9.5029182434082,9.51650333404541,9.53012847900391,9.54379177093506,10.7926893234253,10.7932500839233,10.7938137054443,10.7943716049194,10.7949342727661,10.7954940795898,10.7960548400879,10.7966165542603,10.7971773147583,10.7977390289307,10.798300743103,10.7988615036011,10.7994232177734,10.7999839782715,10.8005475997925,10.8011083602905,10.8016700744629,10.8022317886353,10.8027925491333,10.8033561706543,10.8039169311523,10.8044805526733,10.8050422668457,10.8056030273438,10.8061666488647,10.8067274093628,10.8072929382324,10.8078527450562,10.8084154129028,10.8089771270752,10.8095397949219,10.8101015090942,10.8106651306152,10.8112277984619,10.8117914199829,10.8123540878296,10.812915802002,10.8134794235229,10.8140420913696,10.8146066665649,10.8151683807373,10.8157320022583,10.816294670105,10.816858291626,10.817421913147,10.8179864883423,10.8185482025146,10.81911277771,10.819676399231,10.820240020752,10.8208045959473,10.8213663101196,10.8219308853149,10.8224945068359,10.8230590820312,10.8236227035522,10.8241863250732,10.8247499465942,10.8253164291382,10.8258790969849,10.8264427185059,10.8270082473755,10.8275728225708,10.8281383514404,10.8287010192871,10.8292646408081,10.8298301696777,10.830394744873,10.830958366394,10.831524848938,10.832088470459,10.8326539993286,10.8332204818726,10.8337860107422,10.8343505859375,10.8349142074585,10.8354797363281,10.8360462188721,10.8366117477417,10.837176322937,10.8377418518066,10.8383073806763,10.8388738632202,10.8394393920898,10.8400039672852,10.8405694961548,10.841136932373,10.841703414917,10.8422689437866,10.8428354263306,10.8433990478516,10.8439674377441,10.8445329666138,10.845100402832,10.845664024353,10.846230506897,10.8467979431152,10.8473644256592,10.8479318618774,10.8484973907471,10.849063873291,10.8496313095093,10.8501977920532,10.8507633209229,10.8513317108154,10.8518972396851,10.852466583252,10.8530321121216,10.8535985946655,10.8541660308838,10.8547344207764,10.8553018569946,10.8558683395386,10.8564376831055,10.8570032119751,10.857569694519,10.8581390380859,10.8587064743042,10.8592729568481,10.8598403930664,10.8604078292847,10.8609762191772,10.8615436553955,10.8621120452881,10.862681388855,10.8632488250732,10.8638153076172,10.8643846511841,10.8649520874023,10.8655204772949,10.8660898208618,10.8666582107544,10.8672275543213,10.8677959442139,10.8683624267578,10.8689308166504,10.8695001602173,10.8700685501099,10.8706378936768,10.8712072372437,10.8717756271362,10.8723449707031,10.87291431427,10.8734827041626,10.8740520477295,10.8746213912964,10.875189781189,10.8757591247559,10.8763294219971,10.876898765564,10.8774690628052,10.8780384063721,10.878607749939,10.8791780471802,10.8797454833984,10.8803186416626,10.8808870315552,10.8814563751221,10.8820276260376,10.8825979232788,10.8831672668457,10.8837385177612,10.8843069076538,10.8848762512207,10.8854484558105,10.8860177993774,10.886589050293,10.8871612548828,10.8877325057983,10.8883018493652,10.8888721466064,10.889443397522,10.8900146484375,10.8905849456787,10.8911561965942,10.8917284011841,10.8922996520996,10.8928709030151,10.893440246582,10.8940105438232,10.8945817947388,10.8951539993286,10.8957252502441,10.8962984085083,10.8968706130981,10.897439956665,10.8980112075806,10.898585319519,10.8991546630859,10.8997287750244,10.9003000259399,10.9008712768555,10.9014434814453,10.9020166397095,10.9025897979736,10.9031600952148,10.903733253479,10.9043045043945
4.46711826324463,4.47617483139038,4.48526811599731,4.49439859390259,4.5035662651062,4.51277112960815,4.52201414108276,4.53129482269287,4.54061365127563,4.54997110366821,4.55936717987061,4.56880187988281,4.57827615737915,4.58778953552246,4.5973424911499,4.60693550109863,4.61656808853149,4.6262412071228,4.63595581054688,4.64571046829224,4.6555061340332,4.66534376144409,4.67522287368774,4.68514347076416,4.69510698318481,4.70511245727539,4.71516084671021,4.72525215148926,4.73538684844971,4.74556493759155,4.75578737258911,4.76605319976807,4.77636384963989,4.78671932220459,4.79711961746216,4.80756521224976,4.81805658340454,4.82859373092651,4.83917713165283,4.8498067855835,4.86048364639282,4.87120723724365,4.8819785118103,4.89279699325562,4.90366411209106,4.91457939147949,4.92554330825806,4.93655633926392,4.94761848449707,4.95873117446899,4.96989297866821,4.9811053276062,4.99236869812012,5.00368309020996,5.01504850387573,5.02646589279175,5.03793525695801,5.04945755004883,5.06103229522705,5.07266044616699,5.08434200286865,5.09607696533203,5.1078667640686,5.11971139907837,5.13161087036133,5.14356565475464,5.15557670593262,5.16764354705811,5.17976713180542,5.19194793701172,5.204185962677,5.21648168563843,5.22883605957031,5.2412486076355,5.25372076034546,5.26625204086304,5.27884340286255,5.29149484634399,5.30420732498169,5.31698083877563,5.32981634140015,5.34271335601807,5.35567378997803,5.36869621276855,5.38178300857544,5.39493465423584,7.75933170318604,7.77130603790283,7.78331708908081,7.79536533355713,7.80745124816895,7.8195743560791,7.83173561096191,7.84393453598022,7.85617113113403,7.86844635009766,7.88076019287109,7.89311218261719,7.90550327301025,7.91793298721313,7.93040227890015,7.94291067123413,7.95545816421509,7.96804618835449,7.98067331314087,7.99334096908569,8.00604915618896,8.01879692077637,8.03158664703369,8.0444164276123,8.05728721618652,8.07019901275635,8.08315277099609,8.09614849090576,8.10918521881104,8.12226486206055,8.13538646697998,8.14855003356934,8.16175651550293,8.17500591278076,8.18829822540283,8.20163440704346,8.21501350402832,8.22843742370605,8.24190425872803,8.25541496276855,8.26897048950195,8.28257083892822,8.29621601104736,8.30990600585938,8.32364082336426,8.33742141723633,8.35124778747559,8.36512088775635,8.37903881072998,8.39300441741943,8.40701580047607,8.42107391357422,8.43517971038818,8.44933223724365,8.46353244781494,8.47778129577637,8.4920768737793,8.50642204284668,8.88135528564453,8.89322090148926,8.90511798858643,8.91704654693604,8.9290075302124,8.94100093841553,8.95302677154541,8.96508407592773,8.97717475891113,8.98929786682129,9.0014533996582,9.01364231109619,9.02586364746094,9.03811931610107,9.05040740966797,9.06272888183594,9.0750846862793,9.08747291564941,9.09989643096924,9.11235332489014,9.12484455108643,9.13737010955811,9.14993000030518,9.16252422332764,9.1751537322998,9.18781757354736,9.20051670074463,9.21325016021729,9.22601985931396,9.23882484436035,9.25166511535645,9.26454162597656,9.27745342254639,9.29040145874023,9.30338668823242,9.31640720367432,9.32946395874023,9.34255790710449,9.35568904876709,9.36885643005371,9.38206100463867,9.39530277252197,9.40858268737793,9.42189979553223,9.43525409698486,9.44864749908447,9.46207809448242,9.47554683685303,9.48905467987061,9.50260066986084,9.51618480682373,9.52980899810791,9.54347133636475,9.55717372894287,9.57091426849365,9.58469581604004,9.5985164642334,10.7371644973755,10.737720489502,10.7382745742798,10.7388286590576,10.7393865585327,10.7399406433105,10.740496635437,10.7410497665405,10.7416076660156,10.7421636581421,10.7427177429199,10.7432737350464,10.7438278198242,10.7443838119507,10.7449398040771,10.7454977035522,10.7460536956787,10.7466087341309,10.7471647262573,10.7477216720581,10.7482786178589,10.7488346099854,10.7493886947632,10.7499465942383,10.7505025863647,10.7510585784912,10.7516145706177,10.7521705627441,10.7527284622192,10.75328540802,10.7538423538208,10.7543973922729,10.754955291748,10.7555131912231,10.7560710906982,10.7566270828247,10.7571830749512,10.7577409744263,10.7582988739014,10.7588548660278,10.7594127655029,10.7599697113037,10.7605276107788,10.7610855102539,10.761643409729,10.7622013092041,10.7627573013306,10.7633152008057,10.7638731002808,10.7644329071045,10.7649879455566,10.7655477523804,10.7661056518555,10.7666635513306,10.7672214508057,10.7677793502808,10.7683391571045,10.7688970565796,10.7694549560547,10.7700128555298,10.7705726623535,10.7711296081543,10.771689414978,10.7722473144531,10.7728071212769,10.773365020752,10.7739248275757,10.7744827270508,10.7750425338745,10.7756004333496,10.776159286499,10.7767190933228,10.7772789001465,10.7778387069702,10.7783966064453,10.778956413269,10.7795162200928,10.7800741195679,10.7806358337402,10.7811937332153,10.7817535400391,10.7823133468628,10.7828741073608,10.7834348678589,10.7839937210083,10.784553527832,10.7851133346558,10.7856731414795,10.7862348556519,10.7867918014526,10.787353515625,10.787914276123,10.7884759902954,10.7890329360962,10.7895965576172,10.7901563644409,10.7907161712646,10.791277885437,10.7918367385864,10.7923974990845,10.7929582595825,10.7935209274292,10.7940826416016,10.7946434020996,10.7952013015747,10.7957649230957,10.7963247299194,10.7968883514404,10.7974472045898,10.7980089187622,10.7985715866089,10.7991304397583,10.7996940612793,10.800253868103,10.8008146286011,10.8013772964478,10.8019380569458,10.8025016784668,10.8030633926392,10.8036251068115,10.8041849136353,10.8047466278076,10.8053092956543,10.805871963501,10.806435585022,10.80699634552,10.807559967041,10.8081216812134,10.8086833953857,10.8092451095581,10.8098077774048,10.8103694915771,10.8109350204468,10.8114967346191,10.8120584487915,10.8126220703125,10.8131856918335,10.8137464523315,10.8143100738525,10.8148736953735,10.8154354095459,10.8159990310669,10.8165626525879,10.8171243667603,10.8176898956299,10.8182525634766,10.8188161849976,10.8193798065186,10.8199415206909,10.8205070495605,10.8210687637329,10.8216333389282,10.8221979141235,10.8227624893188,10.8233242034912,10.8238897323608,10.8244514465332,10.8250169754028,10.8255825042725,10.8261451721191,10.8267107009888,10.8272762298584,10.8278379440308,10.8284015655518,10.8289670944214,10.8295316696167,10.8300952911377,10.8306608200073,10.831226348877,10.8317899703979,10.8323574066162,10.8329191207886,10.8334846496582,10.8340511322021,10.8346166610718,10.8351802825928,10.835747718811,10.836311340332,10.8368768692017,10.8374423980713,10.8380069732666,10.8385725021362,10.8391380310059,10.8397035598755,10.8402690887451,10.8408346176147,10.8414011001587,10.8419675827026,10.8425340652466,10.8430976867676,10.8436651229858,10.8442306518555
4.45915794372559,4.46818208694458,4.47724294662476,4.48634099960327,4.49547576904297,4.50464773178101,4.51385688781738,4.52310466766357,4.53238964080811,4.54171323776245,4.55107498168945,4.56047534942627,4.56991481781006,4.57939338684082,4.58891153335571,4.59846925735474,4.60806703567505,4.61770439147949,4.62738275527954,4.63710165023804,4.64686107635498,4.65666198730469,4.66650438308716,4.67638826370239,4.68631410598755,4.69628238677979,4.7062931060791,4.7163462638855,4.72644281387329,4.73658275604248,4.74676609039307,4.75699329376221,4.76726484298706,4.77758073806763,4.78794145584106,4.79834699630737,4.80879783630371,4.81929445266724,4.82983732223511,4.84042549133301,4.85106086730957,4.86174297332764,4.87247228622437,4.88324928283691,4.89407348632812,4.90494632720947,4.9158673286438,4.92683696746826,4.93785572052002,4.94892406463623,4.96004199981689,4.97121000289917,4.98242855072021,4.99369812011719,5.00501823425293,5.01638984680176,5.02781343460083,5.03928899765015,5.05081701278687,5.06239795684814,5.07403230667114,5.08572053909302,5.09746217727661,5.10925817489624,5.12110900878906,5.13301515579224,5.14497661590576,5.1569938659668,5.16906785964966,5.18119764328003,5.19338512420654,5.20562982559204,5.21793270111084,5.23029327392578,5.2427134513855,5.25519227981567,5.26773071289062,5.28032875061035,5.29298782348633,5.3057074546814,5.31848812103271,5.3313307762146,5.34423542022705,5.35720300674438,5.3702335357666,5.38332748413086,5.39648532867432,5.40970802307129,5.42299556732178,7.75437593460083,7.76633453369141,7.77833032608032,7.79036331176758,7.80243349075317,7.81454133987427,7.8266863822937,7.83886957168579,7.85109043121338,7.86334991455078,7.87564754486084,7.88798379898071,7.9003586769104,7.9127721786499,7.92522478103638,7.93771696090698,7.95024871826172,7.96281957626343,7.97543048858643,7.98808145523071,8.00077247619629,8.01350402832031,8.02627658843994,8.03908920288086,8.05194282531738,8.06483840942383,8.07777500152588,8.09075260162354,8.10377216339111,8.11683368682861,8.12993812561035,8.14308452606201,8.15627288818359,8.16950511932373,8.18277931213379,8.1960973739624,8.20945835113525,8.22286319732666,8.23631286621094,8.24980545043945,8.26334190368652,8.27692413330078,8.29055023193359,8.30422115325928,8.31793785095215,8.33170032501221,8.34550762176514,8.35936069488525,8.37325954437256,8.38720512390137,8.40119743347168,8.4152364730835,8.42932224273682,8.44345569610596,8.45763683319092,8.47186470031738,8.48614120483398,8.50046539306641,8.51483821868896,8.90483856201172,8.91676712036133,8.92872714996338,8.94071960449219,8.95274448394775,8.96480178833008,8.97689151763916,8.989013671875,9.0011682510376,9.01335620880127,9.02557754516602,9.03783130645752,9.05011940002441,9.06243991851807,9.07479476928711,9.08718299865723,9.09960556030273,9.11206150054932,9.12455177307129,9.13707637786865,9.14963531494141,9.16222858428955,9.1748571395874,9.18752002716064,9.20021820068359,9.21295166015625,9.22572040557861,9.23852443695068,9.25136470794678,9.26423931121826,9.27715110778809,9.29009819030762,9.30308151245117,9.31610202789307,9.32915782928467,9.34225082397461,9.35538101196289,9.3685474395752,9.38175201416016,9.39499282836914,9.40827083587646,9.42158699035645,9.43494129180908,9.44833278656006,9.46176338195801,9.4752311706543,9.48873805999756,9.50228309631348,9.51586627960205,9.52948951721191,9.54315090179443,9.55685234069824,9.57059288024902,9.58437252044678,9.59819221496582,9.61205196380615,9.62595176696777,9.63989162445068,9.65387153625488,9.66789245605469,10.6827592849731,10.6833066940308,10.6838579177856,10.6844062805176,10.6849575042725,10.6855058670044,10.6860551834106,10.6866044998169,10.6871547698975,10.6877059936523,10.6882543563843,10.6888055801392,10.6893539428711,10.6899070739746,10.6904554367065,10.6910047531128,10.6915559768677,10.6921062469482,10.6926555633545,10.6932077407837,10.6937570571899,10.6943082809448,10.6948585510254,10.6954107284546,10.6959619522095,10.6965112686157,10.6970615386963,10.6976127624512,10.6981649398804,10.6987161636353,10.6992673873901,10.6998167037964,10.7003688812256,10.7009210586548,10.7014722824097,10.7020235061646,10.7025756835938,10.7031278610229,10.7036771774292,10.7042284011841,10.7047815322876,10.7053337097168,10.7058849334717,10.7064371109009,10.7069864273071,10.707540512085,10.7080917358398,10.7086448669434,10.7091951370239,10.7097482681274,10.7103023529053,10.7108535766602,10.7114057540894,10.7119588851929,10.7125120162964,10.7130641937256,10.7136154174805,10.714168548584,10.7147226333618,10.7152738571167,10.7158279418945,10.7163791656494,10.7169332504272,10.7174863815308,10.7180376052856,10.7185935974121,10.7191467285156,10.7196989059448,10.7202501296997,10.7208051681519,10.7213592529297,10.7219133377075,10.722466468811,10.7230176925659,10.7235727310181,10.7241268157959,10.7246799468994,10.7252359390259,10.7257871627808,10.7263412475586,10.7268962860107,10.7274494171143,10.7280035018921,10.7285585403442,10.7291126251221,10.7296676635742,10.7302217483521,10.7307748794556,10.7313280105591,10.7318830490112,10.7324390411377,10.7329940795898,10.733546257019,10.7341032028198,10.7346572875977,10.7352123260498,10.735767364502,10.7363214492798,10.7368764877319,10.7374324798584,10.7379875183105,10.738543510437,10.7390966415405,10.7396535873413,10.7402095794678,10.7407627105713,10.7413196563721,10.7418727874756,10.7424287796021,10.7429857254028,10.7435388565063,10.7440967559814,10.7446517944336,10.7452058792114,10.7457628250122,10.7463178634644,10.7468738555908,10.7474308013916,10.7479867935181,10.7485418319702,10.7490997314453,10.7496547698975,10.7502098083496,10.7507677078247,10.7513227462769,10.7518796920776,10.7524366378784,10.7529945373535,10.7535495758057,10.7541093826294,10.7546625137329,10.7552213668823,10.7557773590088,10.7563343048096,10.7568922042847,10.7574491500854,10.7580060958862,10.7585620880127,10.7591190338135,10.7596759796143,10.760235786438,10.7607908248901,10.7613496780396,10.7619075775146,10.7624645233154,10.7630214691162,10.7635793685913,10.7641382217407,10.7646942138672,10.7652530670166,10.7658100128174,10.7663698196411,10.7669267654419,10.7674856185913,10.7680435180664,10.7686004638672,10.7691593170166,10.7697172164917,10.7702760696411,10.7708339691162,10.7713947296143,10.771951675415,10.7725114822388,10.7730703353882,10.773627281189,10.7741851806641,10.7747459411621,10.7753047943115,10.7758626937866,10.7764234542847,10.7769813537598,10.7775402069092,10.7781009674072,10.7786588668823,10.7792177200317,10.7797784805298,10.7803382873535,10.7808971405029,10.7814559936523,10.7820158004761,10.7825765609741,10.7831354141235,10.7836933135986,10.7842559814453,10.784815788269
