12.823917388916,12.8245687484741,12.8252229690552,12.8258752822876,12.82652759552,12.8271827697754,12.8278369903564,12.8284912109375,12.8291425704956,12.8297967910767,12.8304529190063,12.8311052322388,12.8317594528198,12.8324146270752,12.8330669403076,12.8337211608887,12.834376335144,12.8350305557251,12.8356828689575,12.8363389968872,12.8369941711426,12.8376483917236,12.8383026123047,12.8389568328857,12.8396120071411,12.8402662277222,12.8409223556519,12.8415756225586,12.8422298431396,12.8428859710693,12.8435401916504,12.8441972732544,12.8448514938354,12.8455076217651,12.8461618423462,12.8468170166016,12.8474731445312,12.8481273651123,12.848783493042,12.849440574646,12.8500947952271,12.8507509231567,12.8514060974121,12.8520603179932,12.8527164459229,12.8533735275269,12.8540296554565,12.8546857833862,12.8553419113159,12.8559999465942,12.8566551208496,12.8573112487793,12.8579692840576,12.8586235046387,12.859281539917,12.859938621521,12.8605947494507,12.861252784729,12.8619089126587,12.8625659942627,12.8632221221924,12.8638801574707,12.864538192749,12.8651943206787,12.865852355957,12.866509437561,12.8671674728394,12.867823600769,12.8684816360474,12.8691387176514,12.8697986602783,12.8704566955566,12.8711128234863,12.8717708587646,12.8724298477173,12.873085975647,12.8737459182739,12.8744039535522,12.8750619888306,12.8757209777832,12.8763790130615,12.8770389556885,12.8776950836182,12.8783550262451,12.8790130615234,12.8796720504761,12.880331993103,12.8809900283813,12.8816480636597,12.8823070526123,12.8829669952393,12.8836250305176,12.8842849731445,12.8849430084229,12.8856029510498,12.8862619400024,12.8869218826294,12.8875818252563,12.8882398605347,12.8888998031616,12.8895597457886,12.8902196884155,12.8908805847168,12.8915405273438,12.8922004699707,12.892858505249,12.8935203552246,12.8941802978516,12.8948402404785,12.8955011367798,12.8961629867554,12.8968210220337,12.8974828720093,12.8981447219849,12.8988027572632,12.8994646072388,12.9001264572144,12.900785446167,12.9014472961426,12.9021072387695,12.9027671813965,12.9034290313721,12.9040908813477,12.9047517776489,12.9054136276245,12.9060735702515,12.9067373275757,12.9073972702026,12.9080572128296,12.9087181091309,12.9093818664551,12.9100437164307,12.9107036590576,12.9113674163818,12.9120273590088,12.9126892089844,12.9133520126343,12.9140148162842,12.9146757125854,12.915337562561,12.9159994125366,12.9166631698608,12.9173250198364,12.917986869812,12.9186496734619,12.9193115234375,12.9199752807617,12.9206371307373,12.9212989807129,12.9219627380371,12.9226245880127,12.9232883453369,12.9239511489868,12.924614906311,12.9252786636353,12.9259424209595,12.9266042709351,12.9272680282593,12.9279317855835,12.9285936355591,12.9292583465576,12.9299230575562,12.9305858612061,12.9312477111816,12.9319114685059,12.9325790405273,12.9332408905029,12.9339046478271,12.9345684051514,12.9352340698242,12.9358978271484,12.9365615844727,12.9372262954712,12.9378900527954,12.9385538101196,12.9392194747925,12.9398832321167,12.9405488967896,12.9412145614624,12.9418783187866,12.9425439834595,12.9432096481323,12.9438734054565,12.9445381164551,12.9452018737793,12.9458703994751,12.9465351104736,12.9472007751465,12.9478645324707,12.9485321044922,12.949197769165,12.9498634338379,12.9505271911621,12.9511947631836,12.9518585205078,12.9525260925293,12.9531917572021,12.9538593292236,12.9545230865479,12.9551887512207,12.9558563232422,12.9565238952637,12.9571895599365,12.9578542709351,12.9585208892822,12.9591884613037,12.9598560333252,12.960521697998,12.9611883163452,12.9618558883667,12.9625225067139,12.9631900787354,12.9638566970825,12.9645252227783,12.9651918411255,12.965859413147,12.9665269851685,12.9671945571899,12.9678621292114,12.9685297012329,12.9691972732544,12.9698648452759,12.9705324172974,12.9711999893188,12.9718675613403,12.9725360870361,12.9732046127319,12.9738731384277,12.9745397567749,12.975209236145,12.9758777618408,12.9765453338623,12.9772138595581,12.9778823852539,12.9785509109497,12.9792213439941,12.9798879623413,12.9805583953857,12.9812259674072,12.981894493103,12.9825649261475,12.9832344055176,12.9839019775391,12.9845714569092,12.9852409362793,12.985912322998,12.9865818023682,12.9872493743896,12.9879207611084,12.9885883331299,12.9892597198486,12.9899291992188,12.9905986785889,12.991268157959,12.9919376373291,12.9926090240479,12.9932794570923,12.9939489364624,12.9946184158325,12.995288848877,12.99596118927,12.9966306686401,12.9973001480103,12.9979696273804,12.9986429214478,12.9993124008179,12.9999837875366,13.0006532669067,13.0013265609741,13.0019960403442,13.0026683807373,13.0033388137817,0,0,0,0,0,0,0,0,0,0,0,0,0,0,0,0,0,0,0,0,0,0,0,0,0,0,0,0,0,0,0,0,0,0,0,0,0,0,0,0,0,0,0,0,0,0,0,0,0,0,0,0,0,0,0,0,0,0,0,0,0,0,0,0,0,0,0,0,0,0,0,0,0,0,0,0,0,0,0,0,0,0,0,0,0,0,0,0,0,0,0,0,0,0,0,0,0,0,0,0,0,0,0,0,0,0,0,0,0,0,0,0,0,0,0,0,0,0,0,0,0,0,0
12.740816116333,12.7414608001709,12.7421064376831,12.7427501678467,12.7433958053589,12.7440414428711,12.7446870803833,12.7453308105469,12.7459764480591,12.746621131897,12.7472648620605,12.7479133605957,12.7485589981079,12.7492036819458,12.749849319458,12.7504968643188,12.7511425018311,12.7517862319946,12.7524337768555,12.7530794143677,12.7537250518799,12.7543706893921,12.7550182342529,12.7556629180908,12.7563095092773,12.7569561004639,12.7576017379761,12.7582492828369,12.7588949203491,12.7595405578613,12.7601881027222,12.7608337402344,12.7614793777466,12.7621259689331,12.7627735137939,12.7634210586548,12.764066696167,12.7647142410278,12.7653617858887,12.7660093307495,12.7666568756104,12.7673025131226,12.7679500579834,12.7685976028442,12.7692470550537,12.7698945999146,12.7705402374268,12.7711896896362,12.7718372344971,12.7724838256836,12.7731323242188,12.7737798690796,12.7744283676147,12.7750759124756,12.7757253646851,12.7763729095459,12.7770204544067,12.7776699066162,12.7783174514771,12.7789669036865,12.7796144485474,12.7802639007568,12.7809114456177,12.7815608978271,12.7822103500366,12.7828578948975,12.7835073471069,12.7841567993164,12.7848062515259,12.7854557037354,12.7861051559448,12.7867527008057,12.7874040603638,12.7880535125732,12.7887010574341,12.7893524169922,12.7900018692017,12.7906513214111,12.7913007736206,12.7919502258301,12.7925996780396,12.793249130249,12.7938985824585,12.794548034668,12.7951993942261,12.7958488464355,12.7965002059937,12.7971496582031,12.7977991104126,12.7984504699707,12.7990999221802,12.7997512817383,12.8004026412964,12.8010540008545,12.801703453064,12.8023548126221,12.8030061721802,12.8036556243896,12.8043088912964,12.8049602508545,12.805609703064,12.8062610626221,12.8069143295288,12.8075637817383,12.8082151412964,12.8088684082031,12.8095197677612,12.8101711273193,12.8108224868774,12.8114748001099,12.812126159668,12.8127784729004,12.8134307861328,12.8140821456909,12.8147354125977,12.8153867721558,12.8160381317139,12.8166913986206,12.8173446655273,12.8179960250854,12.8186492919922,12.8193006515503,12.8199520111084,12.8206052780151,12.8212604522705,12.8219118118286,12.8225631713867,12.8232164382935,12.8238677978516,12.8245210647583,12.825174331665,12.8258295059204,12.8264808654785,12.8271322250366,12.827787399292,12.8284406661987,12.8290939331055,12.8297472000122,12.8303985595703,12.8310546875,12.8317079544067,12.8323612213135,12.8330144882202,12.833667755127,12.8343229293823,12.8349761962891,12.8356313705444,12.8362846374512,12.8369379043579,12.8375930786133,12.8382482528687,12.8389015197754,12.8395547866821,12.8402099609375,12.8408660888672,12.8415193557739,12.842173576355,12.842827796936,12.8434829711914,12.8441381454468,12.8447933197021,12.8454484939575,12.8461036682129,12.8467588424683,12.8474140167236,12.848069190979,12.8487243652344,12.8493795394897,12.8500347137451,12.8506908416748,12.8513460159302,12.8520011901855,12.8526563644409,12.8533115386963,12.8539705276489,12.8546257019043,12.8552808761597,12.855936050415,12.856593132019,12.8572492599487,12.8579063415527,12.8585615158081,12.8592185974121,12.8598737716675,12.8605327606201,12.8611879348755,12.8618450164795,12.8625001907349,12.8631572723389,12.8638153076172,12.8644723892212,12.8651275634766,12.8657846450806,12.8664417266846,12.8671016693115,12.8677577972412,12.8684139251709,12.8690710067749,12.8697299957275,12.8703870773315,12.8710441589355,12.8717031478882,12.8723611831665,12.8730182647705,12.8736753463745,12.8743343353271,12.8749933242798,12.8756504058838,12.8763074874878,12.8769664764404,12.8776245117188,12.8782835006714,12.8789405822754,12.8795976638794,12.880259513855,12.8809156417847,12.8815746307373,12.8822317123413,12.8828916549683,12.8835525512695,12.8842096328735,12.8848686218262,12.8855285644531,12.8861865997314,12.8868465423584,12.887505531311,12.8881664276123,12.8888254165649,12.8894844055176,12.8901443481445,12.8908033370972,12.8914623260498,12.8921232223511,12.8927822113037,12.8934440612793,12.8941030502319,12.8947620391846,12.8954210281372,12.8960838317871,12.8967437744141,12.8974027633667,12.898063659668,12.8987245559692,12.8993864059448,12.9000453948975,12.9007062911987,12.9013671875,12.9020280838013,12.9026880264282,12.9033489227295,12.9040098190308,12.904670715332,12.9053316116333,12.9059934616089,12.9066543579102,12.9073171615601,12.9079780578613,12.908637046814,0,0,0,0,0,0,0,0,0,0,0,0,0,0,0,0,0,0,0,0,0,0,0,0,0,0,0,0,0,0,0,0,0,0,0,0,0,0,0,0,0,0,0,0,0,0,0,0,0,0,0,0,0,0,0,0,0,0,0,0,0,0,0,0,0,0,0,0,0,0,0,0,0,0,0,0,0,0,0,0,0,0,0,0,0,0,0,0,0,0,0,0,0,0,0,0,0,0,0,0,0,0,0,0,0,0,0,0,0,0,0,0,0,0,0,0,0,0,0,0,0,0,0,0,0,0,0,0,0,0,0,0,0,0,0,0,0
12.658787727356,12.6594228744507,12.660059928894,12.6606950759888,12.6613330841064,12.6619701385498,12.6626052856445,12.6632423400879,12.6638793945312,12.6645164489746,12.6651554107666,12.66579246521,12.6664304733276,12.667067527771,12.6677045822144,12.6683435440063,12.6689805984497,12.6696176528931,12.6702556610107,12.6708927154541,12.6715288162231,12.6721668243408,12.6728038787842,12.6734428405762,12.6740798950195,12.6747169494629,12.6753559112549,12.6759948730469,12.6766319274902,12.6772699356079,12.6779088973999,12.6785478591919,12.6791849136353,12.6798238754272,12.6804628372192,12.6811017990112,12.6817398071289,12.6823787689209,12.6830177307129,12.6836566925049,12.6842956542969,12.6849346160889,12.6855735778809,12.6862134933472,12.6868524551392,12.6874895095825,12.6881303787231,12.6887693405151,12.6894083023071,12.6900482177734,12.6906890869141,12.6913261413574,12.691967010498,12.6926078796387,12.6932468414307,12.693886756897,12.6945276260376,12.6951665878296,12.6958055496216,12.6964464187622,12.6970882415771,12.6977272033691,12.6983680725098,12.6990089416504,12.6996479034424,12.7002906799316,12.7009305953979,12.7015695571899,12.7022104263306,12.7028512954712,12.7034921646118,12.7041330337524,12.7047739028931,12.7054138183594,12.7060565948486,12.7066974639893,12.7073383331299,12.7079801559448,12.7086210250854,12.7092618942261,12.7099027633667,12.710545539856,12.7111873626709,12.7118282318115,12.7124710083008,12.71311378479,12.7137546539307,12.7143955230713,12.7150373458862,12.7156820297241,12.7163228988647,12.716965675354,12.7176074981689,12.7182483673096,12.7188930511475,12.7195358276367,12.7201776504517,12.7208204269409,12.7214632034302,12.7221040725708,12.7227487564087,12.7233905792236,12.7240333557129,12.7246780395508,12.72532081604,12.725962638855,12.7266073226929,12.7272500991821,12.7278938293457,12.7285356521606,12.7291793823242,12.7298240661621,12.7304668426514,12.7311105728149,12.7317552566528,12.7323980331421,12.73304271698,12.7336864471436,12.7343292236328,12.7349739074707,12.7356185913086,12.7362623214722,12.7369050979614,12.7375497817993,12.7381944656372,12.7388381958008,12.73948097229,12.7401237487793,12.7407722473145,12.741415977478,12.7420587539673,12.7427034378052,12.7433481216431,12.7439947128296,12.7446384429932,12.7452831268311,12.7459278106689,12.7465724945068,12.7472171783447,12.7478628158569,12.7485074996948,12.7491521835327,12.7497968673706,12.7504444122314,12.751091003418,12.7517356872559,12.7523784637451,12.7530241012573,12.7536725997925,12.7543172836304,12.7549619674683,12.7556076049805,12.756254196167,12.7569007873535,12.7575464248657,12.7581930160522,12.7588396072388,12.7594842910767,12.7601318359375,12.7607765197754,12.7614250183105,12.7620716094971,12.7627172470093,12.7633657455444,12.7640104293823,12.7646579742432,12.7653026580811,12.7659511566162,12.7665987014771,12.7672452926636,12.7678918838501,12.7685403823853,12.7691869735718,12.7698345184326,12.7704811096191,12.7711296081543,12.7717752456665,12.7724237442017,12.7730703353882,12.7737197875977,12.7743663787842,12.7750148773193,12.7756614685059,12.7763109207153,12.7769594192505,12.777606010437,12.7782535552979,12.7789039611816,12.7795524597168,12.7802000045776,12.7808485031128,12.7814970016479,12.7821445465088,12.7827930450439,12.7834415435791,12.7840909957886,12.7847394943237,12.7853899002075,12.7860374450684,12.7866878509521,12.7873363494873,12.7879848480225,12.7886343002319,12.7892847061157,12.7899322509766,12.7905826568604,12.7912292480469,12.791880607605,12.7925310134888,12.7931795120239,12.7938299179077,12.7944793701172,12.7951307296753,12.7957792282104,12.7964277267456,12.797080039978,12.7977294921875,12.7983798980713,12.7990303039551,12.7996816635132,12.8003301620483,12.8009805679321,12.8016319274902,12.802282333374,12.8029336929321,12.8035821914673,12.8042345046997,12.8048858642578,12.8055362701416,12.8061876296997,12.8068380355835,12.8074903488159,12.808141708374,12.8087921142578,12.8094425201416,12.8100938796997,12.8107461929321,12.8113975524902,12.812047958374,12.8127021789551,12.8133516311646,12.814003944397,12.8146562576294,12.8153095245361,12.8159599304199,12.816611289978,0,0,0,0,0,0,0,0,0,0,0,0,0,0,0,0,0,0,0,0,0,0,0,0,0,0,0,0,0,0,0,0,0,0,0,0,0,0,0,0,0,0,0,0,0,0,0,0,0,0,0,0,0,0,0,0,0,0,0,0,0,0,0,0,0,0,0,0,0,0,0,0,0,0,0,0,0,0,0,0,0,0,0,0,0,0,0,0,0,0,0,0,0,0,0,0,0,0,0,0,0,0,0,0,0,0,0,0,0,0,0,0,0,0,0,0,0,0,0,0,0,0,0,0,0,0,0,0,0,0,0,0,0,0,0,0,0,0,0,0,0,0,0,0,0,0,0,0,0
12.5778074264526,12.5784339904785,12.5790615081787,12.5796918869019,12.5803203582764,12.5809497833252,12.5815763473511,12.5822067260742,12.5828342437744,12.5834646224976,12.5840930938721,12.5847206115723,12.5853509902954,12.5859804153442,12.5866107940674,12.5872392654419,12.5878686904907,12.5884990692139,12.5891275405884,12.5897569656372,12.5903873443604,12.5910158157349,12.5916452407837,12.5922756195068,12.5929040908813,12.5935354232788,12.594165802002,12.5947952270508,12.5954236984253,12.5960540771484,12.5966854095459,12.5973138809204,12.5979461669922,12.598575592041,12.5992059707642,12.5998363494873,12.6004676818848,12.6010980606079,12.6017274856567,12.6023597717285,12.6029901504517,12.6036214828491,12.6042518615723,12.6048831939697,12.6055135726929,12.606143951416,12.6067752838135,12.6074075698853,12.6080389022827,12.6086692810059,12.6093015670776,12.6099328994751,12.6105632781982,12.61119556427,12.6118268966675,12.6124591827393,12.6130895614624,12.6137228012085,12.6143550872803,12.6149864196777,12.6156167984009,12.6162490844727,12.6168823242188,12.6175127029419,12.618145942688,12.6187782287598,12.6194105148315,12.6200437545776,12.6206760406494,12.6213073730469,12.6219415664673,12.6225748062134,12.6232070922852,12.6238393783569,12.624472618103,12.6251049041748,12.6257371902466,12.6263723373413,12.6270055770874,12.6276378631592,12.6282720565796,12.6289052963257,12.6295375823975,12.6301708221436,12.630805015564,12.6314392089844,12.6320724487305,12.6327066421509,12.633339881897,12.6339740753174,12.6346073150635,12.6352415084839,12.6358757019043,12.6365089416504,12.6371450424194,12.6377763748169,12.6384124755859,12.6390476226807,12.6396818161011,12.6403150558472,12.6409511566162,12.6415853500366,12.6422204971313,12.6428546905518,12.6434898376465,12.6441249847412,12.6447591781616,12.6453952789307,12.6460285186768,12.6466646194458,12.6472997665405,12.6479339599609,12.6485691070557,12.6492052078247,12.6498394012451,12.6504764556885,12.6511125564575,12.6517457962036,12.6523818969727,12.653018951416,12.6536550521851,12.6542901992798,12.6549272537231,12.6555633544922,12.6561994552612,12.656834602356,12.657470703125,12.6581077575684,12.6587419509888,12.6593790054321,12.6600151062012,12.6606492996216,12.6612863540649,12.6619253158569,12.6625595092773,12.6631956100464,12.6638317108154,12.6644706726074,12.6651077270508,12.6657438278198,12.6663799285889,12.6670188903809,12.6676549911499,12.6682920455933,12.6689281463623,12.6695652008057,12.6702041625977,12.6708402633667,12.6714782714844,12.6721153259277,12.6727514266968,12.6733903884888,12.6740283966064,12.6746654510498,12.6753034591675,12.6759405136108,12.6765785217285,12.6772174835205,12.6778554916382,12.6784915924072,12.6791305541992,12.6797695159912,12.6804075241089,12.6810455322266,12.6816825866699,12.6823225021362,12.6829614639282,12.6835994720459,12.6842384338379,12.6848773956299,12.6855154037476,12.6861543655396,12.6867923736572,12.6874322891235,12.6880712509155,12.6887102127075,12.6893520355225,12.6899890899658,12.6906270980835,12.6912670135498,12.6919078826904,12.6925468444824,12.6931867599487,12.6938257217407,12.694465637207,12.695104598999,12.695746421814,12.6963834762573,12.6970252990723,12.6976642608643,12.6983041763306,12.6989450454712,12.6995859146118,12.7002258300781,12.7008657455444,12.7015047073364,12.7021474838257,12.702787399292,12.7034273147583,12.7040662765503,12.7047090530396,12.7053508758545,12.7059898376465,12.7066316604614,12.7072725296021,12.7079124450684,12.7085552215576,12.7091951370239,12.7098360061646,12.7104778289795,12.7111186981201,12.7117595672607,12.7124032974243,12.7130441665649,12.7136859893799,12.7143249511719,12.7149696350098,12.7156114578247,12.7162523269653,12.7168941497803,12.7175350189209,12.7181787490845,12.7188196182251,12.7194623947144,12.7201061248779,12.7207469940186,12.7213907241821,12.7220315933228,12.7226753234863,12.7233180999756,12.7239599227905,12.7246026992798,12.725245475769,12.7258892059326,12.7265319824219,0,0,0,0,0,0,0,0,0,0,0,0,0,0,0,0,0,0,0,0,0,0,0,0,0,0,0,0,0,0,0,0,0,0,0,0,0,0,0,0,0,0,0,0,0,0,0,0,0,0,0,0,0,0,0,0,0,0,0,0,0,0,0,0,0,0,0,0,0,0,0,0,0,0,0,0,0,0,0,0,0,0,0,0,0,0,0,0,0,0,0,0,0,0,0,0,0,0,0,0,0,0,0,0,0,0,0,0,0,0,0,0,0,0,0,0,0,0,0,0,0,0,0,0,0,0,0,0,0,0,0,0,0,0,0,0,0,0,0,0,0,0,0,0,0,0,0,0,0,0,0,0,0,0,0,0,0,0,0,0
12.4978561401367,12.4984769821167,12.4990978240967,12.4997177124023,12.5003385543823,12.5009603500366,12.501579284668,12.5022010803223,12.5028219223022,12.5034427642822,12.5040626525879,12.5046854019165,12.5053052902222,12.5059261322021,12.5065488815308,12.5071706771851,12.507791519165,12.508412361145,12.5090341567993,12.5096549987793,12.5102767944336,12.5108976364136,12.5115203857422,12.5121402740479,12.5127630233765,12.5133848190308,12.5140075683594,12.5146293640137,12.5152521133423,12.5158748626709,12.5164947509766,12.5171175003052,12.5177402496338,12.5183620452881,12.5189847946167,12.5196075439453,12.5202293395996,12.5208520889282,12.5214757919312,12.5220966339111,12.5227203369141,12.5233430862427,12.5239658355713,12.5245895385742,12.5252122879028,12.5258350372314,12.5264568328857,12.527081489563,12.5277051925659,12.5283279418945,12.5289497375488,12.5295743942261,12.5301971435547,12.5308208465576,12.5314455032349,12.5320663452148,12.5326919555664,12.5333166122437,12.5339393615723,12.5345630645752,12.5351877212524,12.5358123779297,12.536434173584,12.5370588302612,12.5376834869385,12.5383071899414,12.5389318466187,12.5395574569702,12.5401821136475,12.5408048629761,12.5414304733276,12.5420570373535,12.5426797866821,12.5433053970337,12.5439300537109,12.5445537567139,12.5451803207397,12.545804977417,12.5464296340942,12.5470552444458,12.547679901123,12.5483045578003,12.5489311218262,12.5495567321777,12.550181388855,12.5508069992065,12.5514335632324,12.5520582199097,12.5526838302612,12.5533103942871,12.553936958313,12.5545606613159,12.5551891326904,12.5558156967163,12.5564393997192,12.5570678710938,12.557692527771,12.5583181381226,12.5589466094971,12.5595731735229,12.5601978302002,12.5608234405518,12.5614500045776,12.5620784759521,12.5627040863037,12.5633306503296,12.5639572143555,12.564582824707,12.5652112960815,12.5658378601074,12.5664653778076,12.5670919418335,12.567720413208,12.5683460235596,12.5689744949341,12.56960105896,12.5702295303345,12.5708570480347,12.5714836120605,12.5721120834351,12.5727386474609,12.5733680725098,12.5739946365356,12.5746231079102,12.5752515792847,12.5758810043335,12.5765056610107,12.5771360397339,12.5777635574341,12.57839012146,12.5790205001831,12.5796489715576,12.5802764892578,12.5809030532837,12.5815334320068,12.5821628570557,12.5827894210815,12.5834169387817,12.5840473175049,12.5846738815308,12.5853042602539,12.5859317779541,12.5865621566772,12.5871906280518,12.587818145752,12.5884485244751,12.5890789031982,12.5897073745728,12.5903367996216,12.5909652709961,12.5915956497192,12.5922250747681,12.5928535461426,12.5934820175171,12.5941123962402,12.5947437286377,12.5953722000122,12.5960006713867,12.5966320037842,12.5972623825073,12.5978927612305,12.598521232605,12.5991525650024,12.599781036377,12.6004114151001,12.6010427474976,12.601674079895,12.6023035049438,12.6029329299927,12.6035633087158,12.6041955947876,12.6048259735107,12.6054553985596,12.6060876846313,12.6067180633545,12.6073484420776,12.6079788208008,12.6086101531982,12.60924243927,12.6098728179932,12.6105041503906,12.6111364364624,12.6117687225342,12.6123971939087,12.6130294799805,12.6136627197266,12.6142930984497,12.6149253845215,12.6155557632446,12.6161890029907,12.6168212890625,12.6174535751343,12.6180839538574,12.6187162399292,12.6193494796753,12.6199817657471,12.6206140518188,12.6212453842163,12.6218776702881,12.6225099563599,12.6231422424316,12.6237764358521,12.6244077682495,12.6250400543213,12.6256723403931,12.6263065338135,12.6269388198853,12.6275720596313,12.6282043457031,12.6288385391235,12.6294708251953,12.6301040649414,12.6307382583618,12.6313705444336,12.632004737854,12.6326389312744,12.6332712173462,12.6339063644409,12.6345386505127,12.6351709365845,12.6358070373535,12.6364412307739,12.63707447052,12.6377067565918,12.6383409500122,12.6389770507812,12.6396112442017,12.6402444839478,12.6408786773682,12.6415147781372,12.642147064209,12.6427812576294,12.6434164047241,12.6440525054932,0,0,0,0,0,0,0,0,0,0,0,0,0,0,0,0,0,0,0,0,0,0,0,0,0,0,0,0,0,0,0,0,0,0,0,0,0,0,0,0,0,0,0,0,0,0,0,0,0,0,0,0,0,0,0,0,0,0,0,0,0,0,0,0,0,0,0,0,0,0,0,0,0,0,0,0,0,0,0,0,0,0,0,0,0,0,0,0,0,0,0,0,0,0,0,0,0,0,0,0,0,0,0,0,0,0,0,0,0,0,0,0,0,0,0,0,0,0,0,0,0,0,0,0,0,0,0,0,0,0,0,0,0,0,0,0,0,0,0,0,0,0,0,0,0,0,0,0,0,0,0,0,0,0,0,0,0,0,0,0,0
12.4189157485962,12.419529914856,12.4201421737671,12.4207544326782,12.4213666915894,12.4219789505005,12.4225931167603,12.4232063293457,12.4238185882568,12.424430847168,12.4250450134277,12.4256572723389,12.4262704849243,12.4268846511841,12.4274988174438,12.4281129837036,12.4287271499634,12.4293394088745,12.4299535751343,12.4305658340454,12.4311800003052,12.4317941665649,12.4324073791504,12.4330215454102,12.4336357116699,12.4342498779297,12.4348640441895,12.4354782104492,12.436092376709,12.4367055892944,12.4373216629028,12.4379358291626,12.4385499954224,12.4391641616821,12.4397783279419,12.4403924942017,12.4410066604614,12.4416227340698,12.4422359466553,12.442850112915,12.4434642791748,12.4440822601318,12.444694519043,12.4453105926514,12.4459266662598,12.4465417861938,12.4471578598022,12.447772026062,12.4483861923218,12.4490022659302,12.4496164321899,12.4502325057983,12.4508485794067,12.4514646530151,12.4520816802979,12.4526958465576,12.453311920166,12.4539279937744,12.4545440673828,12.4551601409912,12.4557762145996,12.456392288208,12.4570083618164,12.4576253890991,12.4582414627075,12.4588575363159,12.4594755172729,12.4600896835327,12.4607076644897,12.4613237380981,12.4619417190552,12.4625577926636,12.463173866272,12.463791847229,12.4644079208374,12.4650249481201,12.4656429290771,12.4662590026855,12.4668769836426,12.4674949645996,12.468111038208,12.468729019165,12.4693470001221,12.4699630737305,12.4705810546875,12.4711990356445,12.4718170166016,12.4724349975586,12.4730529785156,12.4736709594727,12.4742860794067,12.4749059677124,12.4755239486694,12.4761400222778,12.4767599105835,12.4773778915405,12.4779958724976,12.4786138534546,12.4792318344116,12.4798517227173,12.4804697036743,12.48108959198,12.481707572937,12.482325553894,12.4829444885254,12.4835634231567,12.4841823577881,12.4848022460938,12.4854202270508,12.4860401153564,12.4866600036621,12.4872789382935,12.4878978729248,12.4885177612305,12.4891376495361,12.4897575378418,12.4903755187988,12.4909954071045,12.4916152954102,12.4922351837158,12.4928550720215,12.4934749603271,12.4940948486328,12.4947147369385,12.4953346252441,12.4959526062012,12.4965744018555,12.4971961975098,12.4978141784668,12.4984359741211,12.4990558624268,12.4996757507324,12.5002946853638,12.5009155273438,12.5015354156494,12.5021572113037,12.5027770996094,12.5033960342407,12.504017829895,12.5046396255493,12.505259513855,12.5058794021606,12.5065011978149,12.5071210861206,12.5077428817749,12.5083646774292,12.5089845657349,12.5096063613892,12.5102281570435,12.5108480453491,12.5114698410034,12.5120916366577,12.512713432312,12.5133333206177,12.5139570236206,12.5145788192749,12.5152006149292,12.5158205032349,12.5164432525635,12.5170660018921,12.5176868438721,12.5183095932007,12.5189304351807,12.5195541381836,12.5201759338379,12.5207977294922,12.5214204788208,12.5220432281494,12.5226650238037,12.5232887268066,12.5239105224609,12.5245342254639,12.5251560211182,12.5257778167725,12.5264015197754,12.5270252227783,12.5276470184326,12.5282688140869,12.5288944244385,12.5295171737671,12.53014087677,12.5307636260986,12.5313854217529,12.5320110321045,12.5326337814331,12.5332565307617,12.5338802337646,12.5345039367676,12.5351285934448,12.5357513427734,12.5363750457764,12.5369997024536,12.5376224517822,12.5382480621338,12.5388717651367,12.5394954681396,12.5401191711426,12.5407438278198,12.5413684844971,12.5419931411743,12.5426168441772,12.5432415008545,12.5438661575317,12.5444917678833,12.5451154708862,12.5457391738892,12.5463666915894,12.5469903945923,12.5476160049438,12.5482397079468,12.5488653182983,12.5494909286499,12.5501146316528,12.550742149353,12.5513677597046,12.5519914627075,12.5526170730591,12.5532426834106,12.5538692474365,12.5544948577881,12.5551195144653,12.5557451248169,12.5563707351685,12.5569972991943,12.5576229095459,12.5582485198975,12.5588760375977,12.5594997406006,12.5601291656494,12.560754776001,12.5613822937012,12.5620079040527,12.5626335144043,0,0,0,0,0,0,0,0,0,0,0,0,0,0,0,0,0,0,0,0,0,0,0,0,0,0,0,0,0,0,0,0,0,0,0,0,0,0,0,0,0,0,0,0,0,0,0,0,0,0,0,0,0,0,0,0,0,0,0,0,0,0,0,0,0,0,0,0,0,0,0,0,0,0,0,0,0,0,0,0,0,0,0,0,0,0,0,0,0,0,0,0,0,0,0,0,0,0,0,0,0,0,0,0,0,0,0,0,0,0,0,0,0,0,0,0,0,0,0,0,0,0,0,0,0,0,0,0,0,0,0,0,0,0,0,0,0,0,0,0,0,0,0,0,0,0,0,0,0,0,0,0,0,0,0,0,0,0,0,0,0,0
12.3409662246704,12.3415718078613,12.3421773910522,12.3427810668945,12.3433876037598,12.3439912796021,12.344596862793,12.3452005386353,12.3458061218262,12.3464117050171,12.347017288208,12.3476209640503,12.3482284545898,12.3488349914551,12.3494386672974,12.3500442504883,12.3506536483765,12.3512601852417,12.351863861084,12.3524713516235,12.3530769348145,12.3536825180054,12.3542900085449,12.3548965454102,12.3555021286011,12.356107711792,12.3567152023315,12.3573226928711,12.3579263687134,12.3585338592529,12.3591413497925,12.3597469329834,12.3603525161743,12.3609590530396,12.3615665435791,12.3621740341187,12.3627796173096,12.3633880615234,12.3639945983887,12.3646011352539,12.3652086257935,12.365816116333,12.3664236068726,12.3670310974121,12.3676385879517,12.3682451248169,12.3688545227051,12.369460105896,12.3700675964355,12.3706769943237,12.371283531189,12.3718910217285,12.3724985122681,12.3731079101562,12.3737154006958,12.374324798584,12.3749313354492,12.3755388259888,12.376148223877,12.3767576217651,12.3773651123047,12.3779735565186,12.3785829544067,12.3791904449463,12.3797979354858,12.380407333374,12.3810167312622,12.3816251754761,12.3822345733643,12.3828439712524,12.383451461792,12.3840618133545,12.3846712112427,12.3852787017822,12.3858880996704,12.3864994049072,12.3871068954468,12.3877172470093,12.3883266448975,12.3889331817627,12.3895435333252,12.390154838562,12.3907642364502,12.3913726806641,12.3919820785522,12.3925933837891,12.3932027816772,12.3938121795654,12.3944225311279,12.3950319290161,12.3956432342529,12.3962526321411,12.3968620300293,12.3974723815918,12.3980836868286,12.3986930847168,12.3993062973022,12.3999166488647,12.4005279541016,12.4011373519897,12.4017486572266,12.4023590087891,12.4029703140259,12.4035797119141,12.4041929244995,12.4048023223877,12.4054145812988,12.4060258865356,12.4066352844238,12.4072484970093,12.4078588485718,12.4084701538086,12.4090814590454,12.4096946716309,12.4103050231934,12.4109163284302,12.4115295410156,12.4121408462524,12.4127531051636,12.4133644104004,12.4139776229858,12.4145889282227,12.4152011871338,12.4158124923706,12.4164257049561,12.4170370101929,12.417649269104,12.4182624816895,12.4188756942749,12.419487953186,12.4200992584229,12.4207105636597,12.4213237762451,12.4219379425049,12.4225492477417,12.4231605529785,12.4237756729126,12.424388885498,12.4250011444092,12.425612449646,12.4262256622314,12.4268388748169,12.4274530410767,12.4280652999878,12.4286794662476,12.429292678833,12.4299039840698,12.4305181503296,12.4311332702637,12.4317464828491,12.4323596954346,12.43297290802,12.4335870742798,12.4342002868652,12.4348134994507,12.4354267120361,12.4360408782959,12.43665599823,12.4372692108154,12.4378843307495,12.4384984970093,12.4391117095947,12.4397268295288,12.4403400421143,12.440954208374,12.4415693283081,12.4421825408936,12.442798614502,12.443413734436,12.4440269470215,12.4446420669556,12.445255279541,12.445873260498,12.4464883804321,12.4471015930176,12.4477167129517,12.4483308792114,12.4489479064941,12.4495630264282,12.450177192688,12.4507942199707,12.4514074325562,12.4520244598389,12.4526386260986,12.4532556533813,12.4538707733154,12.4544858932495,12.4551019668579,12.4557189941406,12.4563341140747,12.4569501876831,12.4575634002686,12.4581823348999,12.4587984085083,12.4594135284424,12.4600286483765,12.4606475830078,12.4612636566162,12.4618806838989,12.462495803833,12.4631128311157,12.4637289047241,12.4643478393555,12.4649629592896,12.4655809402466,12.4661960601807,12.4668130874634,12.4674301147461,12.4680480957031,12.4686651229858,12.4692802429199,12.469898223877,12.4705171585083,12.471134185791,12.4717502593994,12.4723672866821,12.4729862213135,12.4736042022705,12.4742212295532,12.4748401641846,12.475456237793,12.4760732650757,12.476692199707,12.4773120880127,12.4779291152954,12.4785461425781,12.4791650772095,12.4797849655151,12.4804019927979,12.4810190200806,12.4816370010376,12.4822578430176,12.4828758239746,0,0,0,0,0,0,0,0,0,0,0,0,0,0,0,0,0,0,0,0,0,0,0,0,0,0,0,0,0,0,0,0,0,0,0,0,0,0,0,0,0,0,0,0,0,0,0,0,0,0,0,0,0,0,0,0,0,0,0,0,0,0,0,0,0,0,0,0,0,0,0,0,0,0,0,0,0,0,0,0,0,0,0,0,0,0,0,0,0,0,0,0,0,0,0,0,0,0,0,0,0,0,0,0,0,0,0,0,0,0,0,0,0,0,0,0,0,0,0,0,0,0,0,0,0,0,0,0,0,0,0,0,0,0,0,0,0,0,0,0,0,0,0,0,0,0,0,0,0,0,0,0,0,0,0,0,0,0,0,0,0,0
12.263988494873,12.2645854949951,12.2651834487915,12.2657804489136,12.26637840271,12.266975402832,12.2675752639771,12.2681703567505,12.2687692642212,12.2693691253662,12.2699661254883,12.270562171936,12.2711610794067,12.2717590332031,12.2723579406738,12.2729549407959,12.2735548019409,12.2741527557373,12.274751663208,12.2753505706787,12.2759485244751,12.2765474319458,12.2771453857422,12.2777462005615,12.2783422470093,12.27894115448,12.279541015625,12.2801380157471,12.2807388305664,12.2813367843628,12.2819356918335,12.2825355529785,12.2831363677979,12.2837343215942,12.2843332290649,12.28493309021,12.2855319976807,12.2861318588257,12.2867307662964,12.2873306274414,12.2879295349121,12.2885303497314,12.2891302108765,12.2897291183472,12.2903289794922,12.2909297943115,12.2915277481079,12.2921285629272,12.2927284240723,12.2933292388916,12.2939291000366,12.294529914856,12.295129776001,12.2957305908203,12.2963314056396,12.2969331741333,12.297532081604,12.298131942749,12.2987327575684,12.299334526062,12.2999353408813,12.300537109375,12.3011360168457,12.3017358779907,12.3023386001587,12.3029384613037,12.3035411834717,12.3041410446167,12.3047437667847,12.3053426742554,12.3059463500977,12.3065462112427,12.307147026062,12.30774974823,12.3083515167236,12.308952331543,12.3095541000366,12.3101568222046,12.3107566833496,12.3113603591919,12.3119611740112,12.3125638961792,12.3131656646729,12.3137683868408,12.3143701553345,12.3149728775024,12.3155746459961,12.3161783218384,12.3167791366577,12.3173818588257,12.317985534668,12.3185863494873,12.3191900253296,12.3197937011719,12.3203964233398,12.3209981918335,12.3216009140015,12.3222045898438,12.3228073120117,12.3234100341797,12.324013710022,12.3246173858643,12.3252201080322,12.3258237838745,12.3264265060425,12.3270301818848,12.3276348114014,12.328236579895,12.3288412094116,12.3294448852539,12.3300476074219,12.3306512832642,12.3312559127808,12.3318614959717,12.3324642181396,12.3330678939819,12.3336715698242,12.3342761993408,12.3348798751831,12.3354845046997,12.336088180542,12.3366928100586,12.3372964859009,12.3379011154175,12.3385047912598,12.339111328125,12.3397169113159,12.3403196334839,12.3409252166748,12.3415307998657,12.3421354293823,12.3427410125732,12.3433456420898,12.3439493179321,12.3445558547974,12.3451595306396,12.3457660675049,12.3463697433472,12.3469762802124,12.3475799560547,12.3481845855713,12.3487920761108,12.3493967056274,12.3500022888184,12.350606918335,12.3512125015259,12.3518199920654,12.352424621582,12.3530292510986,12.3536348342896,12.3542413711548,12.3548488616943,12.3554525375366,12.3560590744019,12.3566646575928,12.357271194458,12.3578786849976,12.3584852218628,12.3590908050537,12.3596973419189,12.3603029251099,12.3609104156494,12.3615169525146,12.3621225357056,12.3627290725708,12.3633365631104,12.3639450073242,12.3645486831665,12.3651571273804,12.3657646179199,12.3663711547852,12.3669786453247,12.3675851821899,12.3681926727295,12.368800163269,12.3694067001343,12.3700141906738,12.3706226348877,12.3712282180786,12.3718366622925,12.3724422454834,12.3730535507202,12.3736600875854,12.374267578125,12.3748741149902,12.3754835128784,12.3760919570923,12.3766994476318,12.3773059844971,12.3779153823853,12.3785238265991,12.3791313171387,12.3797397613525,12.3803491592407,12.3809566497803,12.3815670013428,12.3821744918823,12.3827838897705,12.3833923339844,12.3839998245239,12.3846082687378,12.3852195739746,12.3858280181885,12.386435508728,12.3870449066162,12.3876552581787,12.3882646560669,12.3888731002808,12.3894824981689,12.3900918960571,12.390700340271,12.3913097381592,12.3919200897217,12.3925294876099,12.3931398391724,12.3937511444092,12.3943586349487,12.3949689865112,12.3955783843994,12.3961887359619,12.3968000411987,12.3974094390869,12.3980197906494,12.3986291885376,12.3992395401001,12.3998508453369,12.4004602432251,12.4010705947876,12.4016799926758,12.4022922515869,12.4029035568237,12.4035129547119,12.404125213623,0,0,0,0,0,0,0,0,0,0,0,0,0,0,0,0,0,0,0,0,0,0,0,0,0,0,0,0,0,0,0,0,0,0,0,0,0,0,0,0,0,0,0,0,0,0,0,0,0,0,0,0,0,0,0,0,0,0,0,0,0,0,0,0,0,0,0,0,0,0,0,0,0,0,0,0,0,0,0,0,0,0,0,0,0,0,0,0,0,0,0,0,0,0,0,0,0,0,0,0,0,0,0,0,0,0,0,0,0,0,0,0,0,0,0,0,0,0,0,0,0,0,0,0,0,0,0,0,0,0,0,0,0,0,0,0,0,0,0,0,0,0,0,0,0,0,0,0,0,0,0,0,0,0,0,0,0,0,0,0,0,0
12.1879653930664,12.1885566711426,12.1891450881958,12.189736366272,12.1903257369995,12.19091796875,12.1915073394775,12.1920967102051,12.1926879882812,12.1932783126831,12.1938695907593,12.1944589614868,12.195050239563,12.1956405639648,12.196231842041,12.1968231201172,12.1974124908447,12.1980028152466,12.1985969543457,12.1991872787476,12.1997766494751,12.2003698348999,12.2009611129761,12.2015514373779,12.2021427154541,12.2027339935303,12.2033262252808,12.2039175033569,12.2045106887817,12.2051000595093,12.2056922912598,12.2062854766846,12.2068748474121,12.2074680328369,12.2080593109131,12.2086515426636,12.2092428207397,12.2098360061646,12.2104272842407,12.2110195159912,12.2116107940674,12.2122039794922,12.2127952575684,12.2133884429932,12.2139825820923,12.2145738601685,12.2151651382446,12.2157583236694,12.2163505554199,12.2169437408447,12.2175369262695,12.2181301116943,12.2187223434448,12.2193155288696,12.2199087142944,12.2204999923706,12.2210941314697,12.2216873168945,12.2222785949707,12.2228717803955,12.2234668731689,12.2240591049194,12.2246522903442,12.2252473831177,12.2258405685425,12.2264337539673,12.2270278930664,12.2276210784912,12.228214263916,12.2288093566895,12.2294025421143,12.2299966812134,12.2305898666382,12.2311849594116,12.2317781448364,12.2323732376099,12.232967376709,12.2335605621338,12.2341556549072,12.2347507476807,12.2353458404541,12.2359399795532,12.2365350723267,12.2371301651001,12.2377233505249,12.2383184432983,12.2389135360718,12.2395076751709,12.2401027679443,12.2406978607178,12.2412929534912,12.2418880462646,12.2424840927124,12.2430791854858,12.2436742782593,12.2442693710327,12.2448644638062,12.2454605102539,12.246057510376,12.2466526031494,12.2472457885742,12.2478427886963,12.2484397888184,12.2490339279175,12.2496309280396,12.2502279281616,12.2508230209351,12.2514181137085,12.2520151138306,12.2526111602783,12.2532043457031,12.2538013458252,12.2543983459473,12.2549953460693,12.2555913925171,12.2561893463135,12.2567834854126,12.2573823928833,12.2579793930054,12.2585744857788,12.2591714859009,12.2597684860229,12.2603664398193,12.2609634399414,12.2615604400635,12.2621574401855,12.2627544403076,12.2633504867554,12.2639484405518,12.2645463943481,12.2651433944702,12.2657403945923,12.266339302063,12.2669363021851,12.2675333023071,12.2681312561035,12.2687301635742,12.2693271636963,12.2699241638184,12.2705211639404,12.2711200714111,12.2717170715332,12.2723150253296,12.2729120254517,12.2735109329224,12.2741098403931,12.2747087478638,12.2753047943115,12.2759037017822,12.2765007019043,12.2771015167236,12.2776985168457,12.2782955169678,12.2788934707642,12.2794942855835,12.2800931930542,12.2806921005249,12.281289100647,12.2818880081177,12.2824869155884,12.2830867767334,12.2836837768555,12.2842845916748,12.2848834991455,12.2854824066162,12.2860813140869,12.2866811752319,12.2872800827026,12.2878789901733,12.288477897644,12.2890787124634,12.2896776199341,12.2902774810791,12.2908763885498,12.2914781570435,12.2920761108398,12.2926750183105,12.2932758331299,12.2938766479492,12.2944755554199,12.2950763702393,12.2956762313843,12.2962770462036,12.2968759536743,12.2974786758423,12.298077583313,12.2986783981323,12.2992782592773,12.299877166748,12.3004779815674,12.3010807037354,12.3016796112061,12.3022804260254,12.3028812408447,12.3034839630127,12.3040838241577,12.3046846389771,12.3052854537964,12.3058881759644,12.3064889907837,12.307089805603,12.3076906204224,12.3082914352417,12.3088932037354,12.3094959259033,12.3100967407227,12.3106994628906,12.3112983703613,12.3118991851807,12.3125019073486,12.3131065368652,12.3137073516846,12.3143091201782,12.3149099349976,12.3155145645142,12.3161153793335,12.3167161941528,12.3173189163208,12.3179216384888,12.3185243606567,12.3191270828247,12.3197288513184,12.3203315734863,12.3209342956543,12.3215370178223,12.3221397399902,12.3227424621582,12.3233451843262,12.3239479064941,12.3245506286621,12.3251552581787,12.325756072998,0,0,0,0,0,0,0,0,0,0,0,0,0,0,0,0,0,0,0,0,0,0,0,0,0,0,0,0,0,0,0,0,0,0,0,0,0,0,0,0,0,0,0,0,0,0,0,0,0,0,0,0,0,0,0,0,0,0,0,0,0,0,0,0,0,0,0,0,0,0,0,0,0,0,0,0,0,0,0,0,0,0,0,0,0,0,0,0,0,0,0,0,0,0,0,0,0,0,0,0,0,0,0,0,0,0,0,0,0,0,0,0,0,0,0,0,0,0,0,0,0,0,0,0,0,0,0,0,0,0,0,0,0,0,0,0,0,0,0,0,0,0,0,0,0,0,0,0,0,0,0,0,0,0,0,0,0,0,0,0,0,0,0
12.1128797531128,12.1134624481201,12.1140451431274,12.1146297454834,12.1152124404907,12.115795135498,12.1163778305054,12.1169624328613,12.1175451278687,12.118127822876,12.1187114715576,12.1192932128906,12.1198768615723,12.1204614639282,12.1210441589355,12.1216268539429,12.1222114562988,12.1227960586548,12.1233787536621,12.1239643096924,12.1245470046997,12.1251316070557,12.125714302063,12.1262989044189,12.1268835067749,12.1274662017822,12.1280527114868,12.1286373138428,12.1292200088501,12.1298046112061,12.1303882598877,12.1309719085693,12.1315574645996,12.1321420669556,12.1327266693115,12.1333112716675,12.1338958740234,12.134482383728,12.1350650787354,12.1356496810913,12.1362352371216,12.1368198394775,12.1374044418335,12.1379909515381,12.138575553894,12.1391620635986,12.1397466659546,12.1403312683105,12.1409139633179,12.1415023803711,12.1420869827271,12.142671585083,12.1432571411133,12.1438436508179,12.1444282531738,12.1450147628784,12.145601272583,12.146185874939,12.1467723846436,12.1473579406738,12.1479444503784,12.1485290527344,12.149115562439,12.1497039794922,12.1502885818481,12.1508750915527,12.1514616012573,12.1520481109619,12.1526355743408,12.1532220840454,12.1538066864014,12.154393196106,12.1549816131592,12.1555681228638,12.1561546325684,12.1567411422729,12.1573276519775,12.1579151153564,12.1585035324097,12.1590900421143,12.1596765518188,12.1602649688721,12.1608514785767,12.1614379882812,12.1620254516602,12.1626138687134,12.163200378418,12.1637887954712,12.1643772125244,12.164963722229,12.1655511856079,12.1661396026611,12.1667261123657,12.1673145294189,12.1679029464722,12.1684913635254,12.1690788269043,12.1696672439575,12.1702537536621,12.170841217041,12.1714305877686,12.1720209121704,12.172607421875,12.1731958389282,12.1737852096558,12.1743717193604,12.1749620437622,12.1755504608154,12.1761407852173,12.1767272949219,12.1773166656494,12.1779050827026,12.1784954071045,12.1790838241577,12.1796741485596,12.1802625656128,12.1808519363403,12.1814403533936,12.1820287704468,12.1826190948486,12.1832094192505,12.1837978363037,12.1843881607056,12.1849775314331,12.185567855835,12.1861562728882,12.1867485046387,12.1873369216919,12.1879262924194,12.1885166168213,12.1891069412231,12.189697265625,12.1902875900269,12.1908769607544,12.1914663314819,12.1920576095581,12.19264793396,12.1932382583618,12.1938285827637,12.1944198608398,12.1950101852417,12.1955986022949,12.1961889266968,12.1967811584473,12.1973714828491,12.197961807251,12.1985511779785,12.199143409729,12.1997356414795,12.2003240585327,12.2009143829346,12.2015066146851,12.2020978927612,12.2026901245117,12.2032804489136,12.2038707733154,12.2044630050659,12.2050533294678,12.2056446075439,12.2062368392944,12.2068271636963,12.2074174880981,12.2080097198486,12.2086038589478,12.2091951370239,12.2097854614258,12.2103776931763,12.2109699249268,12.2115631103516,12.2121543884277,12.2127456665039,12.2133378982544,12.2139282226562,12.2145223617554,12.2151145935059,12.2157077789307,12.2162981033325,12.216890335083,12.2174844741821,12.2180786132812,12.2186689376831,12.2192611694336,12.2198543548584,12.2204484939575,12.221040725708,12.2216329574585,12.222225189209,12.2228183746338,12.2234125137329,12.224006652832,12.2245988845825,12.2251920700073,12.2257843017578,12.2263803482056,12.2269706726074,12.2275648117065,12.2281589508057,12.2287511825562,12.2293462753296,12.2299404144287,12.2305345535278,12.2311267852783,12.2317209243774,12.2323160171509,12.23291015625,12.2335042953491,12.2340965270996,12.2346906661987,12.2352857589722,12.2358798980713,12.2364740371704,12.2370691299438,12.2376623153687,12.2382593154907,12.2388515472412,12.239447593689,12.2400417327881,12.2406368255615,12.2412309646606,12.2418270111084,12.2424211502075,12.243016242981,12.2436094284058,12.2442064285278,12.2448024749756,12.2453966140747,12.2459907531738,12.2465877532959,12.2471837997437,12.2477779388428,12.2483730316162,12.248969078064,0,0,0,0,0,0,0,0,0,0,0,0,0,0,0,0,0,0,0,0,0,0,0,0,0,0,0,0,0,0,0,0,0,0,0,0,0,0,0,0,0,0,0,0,0,0,0,0,0,0,0,0,0,0,0,0,0,0,0,0,0,0,0,0,0,0,0,0,0,0,0,0,0,0,0,0,0,0,0,0,0,0,0,0,0,0,0,0,0,0,0,0,0,0,0,0,0,0,0,0,0,0,0,0,0,0,0,0,0,0,0,0,0,0,0,0,0,0,0,0,0,0,0,0,0,0,0,0,0,0,0,0,0,0,0,0,0,0,0,0,0,0,0,0,0,0,0,0,0,0,0,0,0,0,0,0,0,0,0,0,0,0,0
12.0387144088745,12.039288520813,12.0398645401001,12.0404396057129,12.0410175323486,12.0415925979614,12.0421705245972,12.0427446365356,12.0433216094971,12.0438976287842,12.044472694397,12.0450487136841,12.0456256866455,12.046199798584,12.0467758178711,12.0473527908325,12.0479307174683,12.0485057830811,12.0490818023682,12.0496597290039,12.050238609314,12.0508155822754,12.0513935089111,12.0519685745239,12.052544593811,12.0531225204468,12.0536994934082,12.0542755126953,12.0548543930054,12.0554323196411,12.0560073852539,12.0565853118896,12.0571622848511,12.0577421188354,12.0583181381226,12.058895111084,12.0594711303711,12.0600490570068,12.0606260299683,12.0612049102783,12.0617809295654,12.0623607635498,12.0629377365112,12.063515663147,12.064094543457,12.0646724700928,12.0652513504028,12.0658273696899,12.06640625,12.0669860839844,12.0675621032715,12.0681409835815,12.0687208175659,12.0692977905273,12.0698757171631,12.0704565048218,12.0710344314575,12.0716114044189,12.0721912384033,12.0727691650391,12.0733480453491,12.0739278793335,12.0745067596436,12.0750865936279,12.075665473938,12.0762453079224,12.0768241882324,12.0774021148682,12.0779829025269,12.0785608291626,12.0791416168213,12.0797214508057,12.0803003311157,12.0808801651001,12.0814590454102,12.0820388793945,12.0826177597046,12.083197593689,12.0837783813477,12.084358215332,12.0849380493164,12.0855188369751,12.0860986709595,12.0866775512695,12.0872583389282,12.0878381729126,12.0884199142456,12.0889987945557,12.08957862854,12.0901584625244,12.0907411575317,12.0913200378418,12.0918998718262,12.0924806594849,12.0930624008179,12.0936422348022,12.0942230224609,12.0948057174683,12.0953855514526,12.0959663391113,12.0965480804443,12.097128868103,12.097710609436,12.0982913970947,12.0988731384277,12.0994539260864,12.1000356674194,12.1006183624268,12.1011981964111,12.1017799377441,12.1023626327515,12.1029424667358,12.1035251617432,12.1041078567505,12.1046876907349,12.1052703857422,12.1058540344238,12.1064348220825,12.1070165634155,12.1075992584229,12.1081809997559,12.1087636947632,12.1093454360962,12.1099300384521,12.1105117797852,12.1110925674438,12.1116771697998,12.1122589111328,12.1128425598145,12.1134252548218,12.1140069961548,12.1145896911621,12.1151733398438,12.1157541275024,12.1163387298584,12.11692237854,12.1175050735474,12.118088722229,12.118670463562,12.119255065918,12.119836807251,12.1204195022583,12.1210041046143,12.1215877532959,12.1221694946289,12.1227540969849,12.1233358383179,12.1239204406738,12.1245040893555,12.1250886917114,12.1256713867188,12.1262550354004,12.126838684082,12.127423286438,12.1280059814453,12.128589630127,12.1291732788086,12.1297597885132,12.1303424835205,12.1309261322021,12.1315107345581,12.1320943832397,12.1326789855957,12.1332626342773,12.1338481903076,12.1344327926636,12.1350164413452,12.1356029510498,12.1361856460571,12.1367712020874,12.1373558044434,12.137939453125,12.1385259628296,12.1391115188599,12.1396961212158,12.1402797698975,12.1408643722534,12.1414518356323,12.1420364379883,12.1426219940186,12.1432065963745,12.1437921524048,12.1443786621094,12.144962310791,12.1455488204956,12.1461343765259,12.1467189788818,12.1473045349121,12.1478910446167,12.148476600647,12.1490631103516,12.1496486663818,12.1502370834351,12.150821685791,12.1514072418213,12.1519918441772,12.1525793075562,12.1531658172607,12.153751373291,12.1543378829956,12.1549253463745,12.1555118560791,12.1560974121094,12.156683921814,12.1572713851929,12.1578578948975,12.1584444046021,12.159031867981,12.1596183776855,12.1602058410645,12.1607913970947,12.1613798141479,12.1619682312012,12.1625547409058,12.163140296936,12.1637277603149,12.1643161773682,12.1649026870728,12.1654901504517,12.1660776138306,12.1666660308838,12.167254447937,12.1678419113159,12.1684284210205,12.1690158843994,12.1696043014526,12.1701927185059,12.1707801818848,12.171368598938,12.1719560623169,12.1725444793701,0,0,0,0,0,0,0,0,0,0,0,0,0,0,0,0,0,0,0,0,0,0,0,0,0,0,0,0,0,0,0,0,0,0,0,0,0,0,0,0,0,0,0,0,0,0,0,0,0,0,0,0,0,0,0,0,0,0,0,0,0,0,0,0,0,0,0,0,0,0,0,0,0,0,0,0,0,0,0,0,0,0,0,0,0,0,0,0,0,0,0,0,0,0,0,0,0,0,0,0,0,0,0,0,0,0,0,0,0,0,0,0,0,0,0,0,0,0,0,0,0,0,0,0,0,0,0,0,0,0,0,0,0,0,0,0,0,0,0,0,0,0,0,0,0,0,0,0,0,0,0,0,0,0,0,0,0,0,0,0,0,0,0,0
11.9654502868652,11.9660186767578,11.9665880203247,11.9671564102173,11.9677248001099,11.9682931900024,11.9688606262207,11.9694309234619,11.9699993133545,11.9705677032471,11.9711380004883,11.9717073440552,11.9722776412964,11.9728441238403,11.9734144210815,11.9739847183228,11.9745540618896,11.9751224517822,11.9756927490234,11.976261138916,11.9768323898315,11.9774055480957,11.9779739379883,11.9785451889038,11.9791135787964,11.9796838760376,11.9802522659302,11.9808235168457,11.9813938140869,11.9819641113281,11.9825325012207,11.9831047058105,11.9836750030518,11.9842443466187,11.9848146438599,11.9853868484497,11.9859552383423,11.9865264892578,11.9870986938477,11.9876670837402,11.9882373809814,11.9888095855713,11.9893789291382,11.989951133728,11.9905233383179,11.9910936355591,11.9916639328003,11.9922361373901,11.9928073883057,11.9933776855469,11.9939498901367,11.9945201873779,11.9950904846191,11.995662689209,11.9962358474731,11.9968061447144,11.9973783493042,11.9979486465454,11.9985208511353,11.9990921020508,11.9996662139893,12.0002365112305,12.0008068084717,12.0013809204102,12.001953125,12.0025243759155,12.0030965805054,12.0036687850952,12.0042409896851,12.0048131942749,12.0053853988647,12.0059585571289,12.0065307617188,12.0071029663086,12.0076770782471,12.0082473754883,12.0088205337524,12.0093927383423,12.0099649429321,12.0105390548706,12.0111112594604,12.0116844177246,12.0122585296631,12.0128307342529,12.0134029388428,12.0139770507812,12.0145511627197,12.0151233673096,12.0156965255737,12.0162706375122,12.0168447494507,12.0174169540405,12.017991065979,12.0185651779175,12.0191373825073,12.0197124481201,12.0202865600586,12.0208587646484,12.0214328765869,12.0220069885254,12.0225811004639,12.0231552124023,12.0237302780151,12.024302482605,12.0248765945435,12.0254526138306,12.026026725769,12.0265998840332,12.027174949646,12.0277509689331,12.0283241271973,12.0289001464844,12.0294742584229,12.0300483703613,12.0306224822998,12.0311975479126,12.0317716598511,12.0323476791382,12.0329236984253,12.0334997177124,12.0340719223022,12.0346479415894,12.0352239608765,12.0357971191406,12.0363731384277,12.0369510650635,12.0375232696533,12.0380992889404,12.0386734008789,12.0392503738403,12.0398244857788,12.0404024124146,12.040976524353,12.0415525436401,12.0421304702759,12.042706489563,12.0432806015015,12.0438566207886,12.04443359375,12.0450096130371,12.0455856323242,12.0461616516113,12.0467376708984,12.0473155975342,12.0478897094727,12.0484666824341,12.0490436553955,12.0496206283569,12.0501947402954,12.0507707595825,12.0513505935669,12.0519247055054,12.0525016784668,12.0530776977539,12.0536556243896,12.0542335510254,12.0548095703125,12.0553846359253,12.0559616088867,12.0565395355225,12.0571174621582,12.057692527771,12.0582723617554,12.0588483810425,12.0594244003296,12.0600023269653,12.0605802536011,12.0611581802368,12.0617351531982,12.0623111724854,12.0628929138184,12.0634689331055,12.0640449523926,12.0646228790283,12.0652017593384,12.0657806396484,12.0663576126099,12.0669355392456,12.0675134658813,12.0680913925171,12.0686693191528,12.0692481994629,12.0698270797729,12.0704040527344,12.0709819793701,12.0715637207031,12.0721397399902,12.072717666626,12.073296546936,12.0738754272461,12.0744552612305,12.0750341415405,12.0756120681763,12.0761919021606,12.0767698287964,12.0773496627808,12.0779275894165,12.0785074234009,12.0790863037109,12.0796642303467,12.0802459716797,12.0808258056641,12.0814037322998,12.0819816589355,12.0825605392456,12.0831432342529,12.0837230682373,12.084300994873,12.0848798751831,12.0854597091675,12.0860414505005,12.0866212844849,12.0872011184692,12.0877809524536,12.088360786438,12.0889406204224,12.0895204544067,12.0901012420654,12.0906810760498,12.0912609100342,12.0918426513672,12.0924224853516,12.0930023193359,12.0935821533203,12.0941619873047,12.0947456359863,12.0953254699707,12.0959062576294,12.0964860916138,12.0970678329468,12.0976495742798,0,0,0,0,0,0,0,0,0,0,0,0,0,0,0,0,0,0,0,0,0,0,0,0,0,0,0,0,0,0,0,0,0,0,0,0,0,0,0,0,0,0,0,0,0,0,0,0,0,0,0,0,0,0,0,0,0,0,0,0,0,0,0,0,0,0,0,0,0,0,0,0,0,0,0,0,0,0,0,0,0,0,0,0,0,0,0,0,0,0,0,0,0,0,0,0,0,0,0,0,0,0,0,0,0,0,0,0,0,0,0,0,0,0,0,0,0,0,0,0,0,0,0,0,0,0,0,0,0,0,0,0,0,0,0,0,0,0,0,0,0,0,0,0,0,0,0,0,0,0,0,0,0,0,0,0,0,0,0,0,0,0,0,0
11.8930721282959,11.8936338424683,11.8941955566406,11.8947582244873,11.8953199386597,11.8958797454834,11.8964433670044,11.8970060348511,11.8975667953491,11.8981294631958,11.8986911773682,11.8992547988892,11.8998165130615,11.9003801345825,11.9009428024292,11.9015045166016,11.9020662307739,11.9026298522949,11.9031915664673,11.9037551879883,11.904317855835,11.904881477356,11.905445098877,11.9060087203979,11.9065704345703,11.907133102417,11.907696723938,11.908260345459,11.9088249206543,11.9093866348267,11.9099502563477,11.9105138778687,11.911075592041,11.9116411209106,11.9122047424316,11.9127674102783,11.9133310317993,11.9138965606689,11.9144582748413,11.9150218963623,11.9155864715576,11.9161500930786,11.9167137145996,11.9172773361206,11.9178428649902,11.9184064865112,11.9189710617065,11.9195346832275,11.9200983047485,11.9206638336182,11.9212274551392,11.9217910766602,11.9223575592041,11.9229211807251,11.9234867095947,11.9240503311157,11.924614906311,11.925178527832,11.9257440567017,11.9263095855713,11.9268751144409,11.9274387359619,11.9280052185059,11.9285688400269,11.9291343688965,11.9296979904175,11.9302635192871,11.9308280944824,11.9313936233521,11.9319591522217,11.9325246810913,11.9330902099609,11.9336557388306,11.9342222213745,11.9347858428955,11.9353532791138,11.9359197616577,11.9364852905273,11.937050819397,11.9376163482666,11.9381818771362,11.9387483596802,11.9393138885498,11.9398794174194,11.9404468536377,11.9410123825073,11.9415788650513,11.9421463012695,11.9427118301392,11.9432792663574,11.9438447952271,11.944411277771,11.9449787139893,11.9455461502075,11.9461116790771,11.9466781616211,11.9472455978394,11.947811126709,11.9483804702759,11.9489459991455,11.9495124816895,11.9500799179077,11.9506454467773,11.9512147903442,11.9517812728882,11.9523487091064,11.9529161453247,11.953483581543,11.9540519714355,11.9546175003052,11.9551868438721,11.9557542800903,11.9563217163086,11.9568891525269,11.9574575424194,11.9580249786377,11.9585943222046,11.9591598510742,11.9597282409668,11.9602956771851,11.9608631134033,11.9614334106445,11.9620008468628,11.9625682830811,11.9631376266479,11.9637050628662,11.9642734527588,11.9648427963257,11.9654102325439,11.9659795761108,11.9665479660034,11.9671154022217,11.9676866531372,11.9682540893555,11.9688243865967,11.9693918228149,11.9699630737305,11.9705324172974,11.9710998535156,11.9716701507568,11.9722394943237,11.972806930542,11.9733772277832,11.9739465713501,11.974515914917,11.9750852584839,11.9756555557251,11.9762229919434,11.9767923355103,11.9773635864258,11.9779329299927,11.9785013198853,11.9790706634521,11.979640007019,11.9802112579346,11.9807815551758,11.981348991394,11.9819202423096,11.9824895858765,11.9830617904663,11.9836311340332,11.9842004776001,11.984769821167,11.9853410720825,11.9859113693237,11.9864807128906,11.9870500564575,11.9876232147217,11.9881925582886,11.9887628555298,11.9893341064453,11.9899053573608,11.9904747009277,11.9910449981689,11.9916162490845,11.9921875,11.9927587509155,11.9933280944824,11.9938983917236,11.9944715499878,11.9950428009033,11.9956130981445,11.9961843490601,11.9967555999756,11.9973287582397,11.997899055481,11.9984703063965,11.999041557312,11.9996128082275,12.0001850128174,12.0007562637329,12.0013294219971,12.0019006729126,12.0024719238281,12.003044128418,12.0036153793335,12.0041885375977,12.0047597885132,12.005331993103,12.0059051513672,12.0064783096313,12.0070476531982,12.0076217651367,12.0081930160522,12.0087661743164,12.0093383789062,12.0099115371704,12.0104827880859,12.0110559463501,12.0116291046143,12.0122013092041,12.0127744674683,12.0133457183838,12.0139188766479,12.0144948959351,12.0150661468506,12.0156393051147,12.0162124633789,12.0167865753174,12.0173597335815,12.0179328918457,12.0185050964355,12.0190782546997,12.0196533203125,12.0202264785767,12.0207986831665,12.0213737487793,12.0219469070435,12.0225200653076,12.0230941772461,12.0236692428589,0,0,0,0,0,0,0,0,0,0,0,0,0,0,0,0,0,0,0,0,0,0,0,0,0,0,0,0,0,0,0,0,0,0,0,0,0,0,0,0,0,0,0,0,0,0,0,0,0,0,0,0,0,0,0,0,0,0,0,0,0,0,0,0,0,0,0,0,0,0,0,0,0,0,0,0,0,0,0,0,0,0,0,0,0,0,0,0,0,0,0,0,0,0,0,0,0,0,0,0,0,0,0,0,0,0,0,0,0,0,0,0,0,0,0,0,0,0,0,0,0,0,0,0,0,0,0,0,0,0,0,0,0,0,0,0,0,0,0,0,0,0,0,0,0,0,0,0,0,0,0,0,0,0,0,0,0,0,0,0,0,0,0,0
11.8215646743774,11.8221187591553,11.8226757049561,11.8232316970825,11.8237867355347,11.8243408203125,11.824896812439,11.8254499435425,11.8260068893433,11.8265628814697,11.8271169662476,11.8276739120483,11.8282299041748,11.828784942627,11.8293409347534,11.8298969268799,11.830451965332,11.8310070037842,11.8315649032593,11.8321208953857,11.8326768875122,11.8332319259644,11.8337879180908,11.8343467712402,11.8349008560181,11.8354587554932,11.8360157012939,11.8365716934204,11.8371286392212,11.8376846313477,11.8382415771484,11.8387975692749,11.8393545150757,11.8399124145508,11.8404674530029,11.8410234451294,11.8415832519531,11.8421382904053,11.8426961898804,11.8432521820068,11.8438091278076,11.8443660736084,11.8449239730835,11.8454818725586,11.8460388183594,11.8465948104858,11.8471527099609,11.8477096557617,11.8482675552368,11.8488264083862,11.8493824005127,11.8499412536621,11.8504991531372,11.8510551452637,11.8516139984131,11.8521699905396,11.8527307510376,11.8532848358154,11.8538436889648,11.8544015884399,11.8549604415894,11.8555183410645,11.8560781478882,11.856635093689,11.8571929931641,11.8577518463135,11.8583097457886,11.8588676452637,11.8594284057617,11.8599843978882,11.8605451583862,11.8611030578613,11.8616609573364,11.8622217178345,11.8627796173096,11.8633394241333,11.8638963699341,11.8644561767578,11.8650169372559,11.865574836731,11.8661346435547,11.8666934967041,11.8672523498535,11.8678102493286,11.868371963501,11.8689289093018,11.8694906234741,11.8700485229492,11.8706092834473,11.8711671829224,11.8717288970947,11.8722896575928,11.8728475570679,11.8734083175659,11.8739681243896,11.8745269775391,11.8750867843628,11.8756484985352,11.8762073516846,11.8767671585083,11.8773288726807,11.8778877258301,11.8784475326538,11.8790082931519,11.8795700073242,11.8801298141479,11.8806886672974,11.8812494277954,11.8818111419678,11.8823709487915,11.8829326629639,11.8834934234619,11.8840532302856,11.8846158981323,11.8851737976074,11.8857364654541,11.8862981796265,11.8868579864502,11.8874206542969,11.8879823684692,11.888542175293,11.8891048431396,11.8896646499634,11.8902263641357,11.8907871246338,11.8913488388062,11.8919115066528,11.8924732208252,11.8930349349976,11.8935976028442,11.894157409668,11.8947200775146,11.8952836990356,11.8958435058594,11.8964061737061,11.8969678878784,11.8975296020508,11.8980922698975,11.8986539840698,11.8992176055908,11.8997783660889,11.9003419876099,11.9009037017822,11.9014663696289,11.9020280838013,11.9025917053223,11.9031543731689,11.9037160873413,11.9042806625366,11.904842376709,11.9054040908813,11.905966758728,11.9065284729004,11.9070930480957,11.9076566696167,11.9082174301147,11.9087810516357,11.9093427658081,11.9099082946777,11.9104690551758,11.9110336303711,11.9115972518921,11.9121589660645,11.9127235412598,11.9132871627808,11.9138507843018,11.9144134521484,11.9149770736694,11.9155426025391,11.9161052703857,11.9166669845581,11.9172315597534,11.9177951812744,11.918360710144,11.9189252853394,11.9194869995117,11.920051574707,11.920615196228,11.921178817749,11.9217433929443,11.9223070144653,11.922872543335,11.9234371185303,11.9240007400513,11.9245662689209,11.9251289367676,11.9256935119629,11.9262590408325,11.9268245697021,11.9273891448975,11.9279527664185,11.9285163879395,11.9290838241577,11.929648399353,11.930212020874,11.9307765960693,11.931342124939,11.9319095611572,11.9324741363525,11.9330377578735,11.9336042404175,11.9341697692871,11.9347352981567,11.9353008270264,11.9358654022217,11.9364309310913,11.9369955062866,11.9375648498535,11.9381284713745,11.9386949539185,11.9392585754395,11.9398260116577,11.9403924942017,11.9409580230713,11.9415245056152,11.9420900344849,11.9426555633545,11.9432220458984,11.9437875747681,11.9443550109863,11.9449214935303,11.9454870223999,11.9460544586182,11.9466209411621,11.9471864700317,11.94775390625,11.9483184814453,11.9488878250122,11.9494543075562,11.9500217437744,0,0,0,0,0,0,0,0,0,0,0,0,0,0,0,0,0,0,0,0,0,0,0,0,0,0,0,0,0,0,0,0,0,0,0,0,0,0,0,0,0,0,0,0,0,0,0,0,0,0,0,0,0,0,0,0,0,0,0,0,0,0,0,0,0,0,0,0,0,0,0,0,0,0,0,0,0,0,0,0,0,0,0,0,0,0,0,0,0,0,0,0,0,0,0,0,0,0,0,0,0,0,0,0,0,0,0,0,0,0,0,0,0,0,0,0,0,0,0,0,0,0,0,0,0,0,0,0,0,0,0,0,0,0,0,0,0,0,0,0,0,0,0,0,0,0,0,0,0,0,0,0,0,0,0,0,0,0,0,0,0,0,0,0,0
11.7509136199951,11.7514610290527,11.752010345459,11.7525577545166,11.7531070709229,11.7536563873291,11.754204750061,11.7547521591187,11.7553024291992,11.7558507919312,11.7564001083374,11.7569494247437,11.7574987411499,11.7580461502075,11.7585973739624,11.7591466903687,11.7596940994263,11.7602434158325,11.7607927322388,11.7613401412964,11.7618894577026,11.7624387741089,11.7629899978638,11.76353931427,11.7640924453735,11.7646417617798,11.765191078186,11.7657403945923,11.7662897109985,11.7668409347534,11.7673902511597,11.7679395675659,11.7684907913208,11.7690401077271,11.7695894241333,11.7701406478882,11.7706899642944,11.7712392807007,11.7717905044556,11.7723417282104,11.7728910446167,11.7734422683716,11.7739934921265,11.7745428085327,11.775092124939,11.7756433486938,11.7761936187744,11.7767448425293,11.7772960662842,11.7778463363647,11.7783975601196,11.7789478302002,11.7794990539551,11.78005027771,11.7806024551392,11.781153678894,11.7817039489746,11.7822551727295,11.7828073501587,11.7833595275879,11.7839088439941,11.7844619750977,11.7850131988525,11.7855644226074,11.7861156463623,11.7866687774658,11.7872200012207,11.7877721786499,11.7883224487305,11.788875579834,11.7894287109375,11.7899799346924,11.7905311584473,11.7910842895508,11.7916355133057,11.7921867370605,11.7927398681641,11.7932929992676,11.7938442230225,11.794397354126,11.7949504852295,11.7955017089844,11.7960548400879,11.7966079711914,11.7971611022949,11.7977123260498,11.7982654571533,11.7988195419312,11.7993717193604,11.7999248504639,11.8004779815674,11.8010311126709,11.8015842437744,11.8021373748779,11.8026905059814,11.8032417297363,11.8037948608398,11.8043479919434,11.8049030303955,11.8054542541504,11.8060092926025,11.8065624237061,11.8071155548096,11.8076705932617,11.8082237243652,11.8087768554688,11.8093318939209,11.8098850250244,11.8104381561279,11.8109931945801,11.8115463256836,11.8121013641357,11.8126544952393,11.8132076263428,11.8137626647949,11.8143177032471,11.8148717880249,11.8154258728027,11.8159809112549,11.8165369033813,11.8170890808105,11.817645072937,11.8182001113892,11.8187532424927,11.8193082809448,11.819863319397,11.8204164505005,11.8209714889526,11.8215284347534,11.8220834732056,11.8226385116577,11.8231935501099,11.823748588562,11.8243036270142,11.8248586654663,11.8254156112671,11.8259687423706,11.8265256881714,11.8270826339722,11.8276357650757,11.8281927108765,11.8287477493286,11.8293027877808,11.8298597335815,11.830415725708,11.8309717178345,11.831524848938,11.8320817947388,11.8326387405396,11.8331937789917,11.8337507247925,11.8343067169189,11.8348617553711,11.8354177474976,11.8359746932983,11.8365297317505,11.8370866775513,11.8376426696777,11.8381996154785,11.838755607605,11.8393106460571,11.8398685455322,11.840425491333,11.8409814834595,11.8415365219116,11.8420944213867,11.8426532745361,11.8432083129883,11.8437643051147,11.8443222045898,11.8448781967163,11.8454360961914,11.8459930419922,11.846549987793,11.8471069335938,11.8476629257202,11.8482208251953,11.8487777709961,11.8493366241455,11.8498916625977,11.8504495620728,11.8510093688965,11.8515663146973,11.852123260498,11.8526802062988,11.8532390594482,11.8537979125977,11.8543548583984,11.8549118041992,11.8554706573486,11.8560276031494,11.8565864562988,11.8571434020996,11.857702255249,11.8582592010498,11.8588180541992,11.8593769073486,11.8599376678467,11.8604946136475,11.8610515594482,11.861608505249,11.8621692657471,11.8627281188965,11.8632850646973,11.8638439178467,11.8644027709961,11.8649635314941,11.8655223846436,11.866081237793,11.8666400909424,11.8671989440918,11.8677577972412,11.8683166503906,11.86887550354,11.8694353103638,11.8699932098389,11.8705530166626,11.8711137771606,11.8716726303101,11.8722314834595,11.8727922439575,11.8733510971069,11.873911857605,11.8744707107544,11.8750314712524,11.8755884170532,11.8761510848999,11.8767099380493,11.8772706985474,11.8778295516968,0,0,0,0,0,0,0,0,0,0,0,0,0,0,0,0,0,0,0,0,0,0,0,0,0,0,0,0,0,0,0,0,0,0,0,0,0,0,0,0,0,0,0,0,0,0,0,0,0,0,0,0,0,0,0,0,0,0,0,0,0,0,0,0,0,0,0,0,0,0,0,0,0,0,0,0,0,0,0,0,0,0,0,0,0,0,0,0,0,0,0,0,0,0,0,0,0,0,0,0,0,0,0,0,0,0,0,0,0,0,0,0,0,0,0,0,0,0,0,0,0,0,0,0,0,0,0,0,0,0,0,0,0,0,0,0,0,0,0,0,0,0,0,0,0,0,0,0,0,0,0,0,0,0,0,0,0,0,0,0,0,0,0,0,0
11.6811008453369,11.6816415786743,11.6821842193604,11.6827259063721,11.6832685470581,11.6838111877441,11.6843528747559,11.6848955154419,11.6854372024536,11.685977935791,11.6865224838257,11.6870641708374,11.6876049041748,11.6881475448608,11.6886911392212,11.6892337799072,11.6897764205933,11.6903200149536,11.690860748291,11.6914043426514,11.6919469833374,11.6924915313721,11.6930332183838,11.6935758590698,11.6941194534302,11.6946659088135,11.6952095031738,11.6957521438599,11.6962957382202,11.6968383789062,11.6973829269409,11.6979246139526,11.6984691619873,11.6990118026733,11.6995553970337,11.7000980377197,11.7006416320801,11.7011861801147,11.7017307281494,11.7022724151611,11.7028169631958,11.7033624649048,11.7039051055908,11.7044496536255,11.7049932479858,11.7055377960205,11.7060813903809,11.7066278457642,11.7071704864502,11.7077140808105,11.7082586288452,11.7088031768799,11.7093486785889,11.7098932266235,11.7104387283325,11.7109813690186,11.7115268707275,11.7120714187622,11.7126159667969,11.7131614685059,11.7137079238892,11.7142496109009,11.7147960662842,11.7153406143188,11.7158861160278,11.7164306640625,11.7169761657715,11.7175207138062,11.7180671691895,11.7186126708984,11.7191572189331,11.7197027206421,11.7202491760254,11.7207937240601,11.721339225769,11.7218856811523,11.7224311828613,11.7229776382446,11.7235221862793,11.7240695953369,11.7246141433716,11.7251596450806,11.7257080078125,11.7262535095215,11.7267961502075,11.7273445129395,11.7278900146484,11.7284345626831,11.7289819717407,11.7295303344727,11.7300748825073,11.7306222915649,11.7311687469482,11.7317142486572,11.7322607040405,11.7328081130981,11.7333545684814,11.7339010238647,11.7344484329224,11.7349967956543,11.7355403900146,11.7360887527466,11.7366361618042,11.7371826171875,11.7377309799194,11.7382764816284,11.7388229370117,11.739372253418,11.7399206161499,11.7404661178589,11.7410144805908,11.7415618896484,11.7421083450317,11.7426567077637,11.7432041168213,11.7437524795532,11.7442998886108,11.7448463439941,11.7453956604004,11.7459421157837,11.7464923858643,11.7470397949219,11.7475881576538,11.7481355667114,11.7486839294434,11.7492303848267,11.7497797012329,11.7503290176392,11.7508773803711,11.751425743103,11.7519731521606,11.7525234222412,11.7530698776245,11.7536191940308,11.754168510437,11.754714012146,11.7552633285522,11.7558126449585,11.7563610076904,11.7569103240967,11.7574605941772,11.7580070495605,11.7585582733154,11.7591075897217,11.7596559524536,11.7602043151855,11.7607536315918,11.7613039016724,11.7618522644043,11.7624034881592,11.7629528045654,11.7635011672974,11.7640523910522,11.7646007537842,11.7651510238647,11.765700340271,11.7662487030029,11.7667989730835,11.7673482894897,11.7678985595703,11.7684478759766,11.7689981460571,11.7695474624634,11.7700977325439,11.7706460952759,11.7711973190308,11.7717475891113,11.7722969055176,11.7728471755981,11.7733974456787,11.7739486694336,11.7744989395142,11.7750482559204,11.775598526001,11.7761497497559,11.7767000198364,11.7772512435913,11.7778015136719,11.7783536911011,11.7789030075073,11.7794551849365,11.7800045013428,11.7805547714233,11.7811069488525,11.7816581726074,11.7822093963623,11.7827615737915,11.7833099365234,11.7838611602783,11.7844114303589,11.784966468811,11.785514831543,11.7860670089722,11.7866182327271,11.7871704101562,11.7877235412598,11.7882738113403,11.7888240814209,11.7893772125244,11.7899293899536,11.7904806137085,11.7910327911377,11.7915840148926,11.7921361923218,11.7926874160767,11.7932395935059,11.7937927246094,11.7943449020386,11.7948951721191,11.7954483032227,11.7960023880005,11.7965536117554,11.7971057891846,11.7976579666138,11.7982110977173,11.7987642288208,11.79931640625,11.7998685836792,11.8004217147827,11.8009738922119,11.8015270233154,11.8020792007446,11.8026342391968,11.803186416626,11.8037395477295,11.8042936325073,11.8048467636108,11.80539894104,11.8059530258179,11.8065061569214,0,0,0,0,0,0,0,0,0,0,0,0,0,0,0,0,0,0,0,0,0,0,0,0,0,0,0,0,0,0,0,0,0,0,0,0,0,0,0,0,0,0,0,0,0,0,0,0,0,0,0,0,0,0,0,0,0,0,0,0,0,0,0,0,0,0,0,0,0,0,0,0,0,0,0,0,0,0,0,0,0,0,0,0,0,0,0,0,0,0,0,0,0,0,0,0,0,0,0,0,0,0,0,0,0,0,0,0,0,0,0,0,0,0,0,0,0,0,0,0,0,0,0,0,0,0,0,0,0,0,0,0,0,0,0,0,0,0,0,0,0,0,0,0,0,0,0,0,0,0,0,0,0,0,0,0,0,0,0,0,0,0,0,0,0
11.6121120452881,11.6126470565796,11.6131830215454,11.6137180328369,11.6142530441284,11.6147880554199,11.6153249740601,11.6158609390259,11.6163959503174,11.6169328689575,11.617467880249,11.6180038452148,11.618540763855,11.6190776824951,11.6196126937866,11.6201477050781,11.6206846237183,11.6212215423584,11.6217575073242,11.6222944259644,11.6228313446045,11.6233682632446,11.6239042282104,11.6244421005249,11.6249780654907,11.6255149841309,11.626051902771,11.6265888214111,11.6271257400513,11.6276626586914,11.6282014846802,11.628737449646,11.6292743682861,11.6298112869263,11.6303482055664,11.6308851242065,11.631422996521,11.6319618225098,11.6324987411499,11.63303565979,11.6335744857788,11.6341104507446,11.6346473693848,11.6351861953735,11.6357231140137,11.6362600326538,11.6367988586426,11.637336730957,11.6378755569458,11.6384143829346,11.6389493942261,11.6394882202148,11.6400270462036,11.6405639648438,11.6411037445068,11.641640663147,11.6421794891357,11.6427183151245,11.6432552337646,11.6437959671021,11.6443319320679,11.6448707580566,11.645411491394,11.6459484100342,11.6464872360229,11.6470260620117,11.6475648880005,11.6481046676636,11.6486434936523,11.6491823196411,11.6497192382812,11.65025806427,11.6507987976074,11.6513366699219,11.6518754959106,11.6524143218994,11.6529531478882,11.6534929275513,11.6540336608887,11.6545705795288,11.6551113128662,11.6556520462036,11.6561908721924,11.6567296981812,11.6572694778442,11.6578102111816,11.6583490371704,11.6588897705078,11.6594305038452,11.659969329834,11.6605081558228,11.6610488891602,11.6615886688232,11.6621294021606,11.6626682281494,11.6632089614868,11.6637487411499,11.6642904281616,11.6648302078247,11.6653709411621,11.6659116744995,11.6664524078369,11.6669912338257,11.6675338745117,11.6680746078491,11.6686143875122,11.6691551208496,11.669695854187,11.6702365875244,11.6707773208618,11.6713180541992,11.6718606948853,11.6724004745483,11.6729412078857,11.6734838485718,11.6740245819092,11.6745653152466,11.675106048584,11.6756477355957,11.6761894226074,11.6767311096191,11.6772718429565,11.6778144836426,11.67835521698,11.6788959503174,11.6794376373291,11.6799802780151,11.6805229187012,11.6810636520386,11.681604385376,11.682147026062,11.6826877593994,11.6832323074341,11.6837739944458,11.6843166351318,11.6848573684692,11.6854019165039,11.6859407424927,11.6864833831787,11.6870279312134,11.6875696182251,11.6881122589111,11.6886548995972,11.6891975402832,11.6897401809692,11.6902828216553,11.6908254623413,11.6913681030273,11.6919107437134,11.6924543380737,11.6929969787598,11.6935415267944,11.6940822601318,11.6946268081665,11.6951694488525,11.6957139968872,11.6962556838989,11.696798324585,11.697340965271,11.6978855133057,11.6984281539917,11.6989707946777,11.6995143890381,11.7000570297241,11.7006034851074,11.7011442184448,11.7016868591309,11.7022314071655,11.7027759552002,11.7033205032349,11.7038621902466,11.7044086456299,11.7049493789673,11.7054958343506,11.7060384750366,11.7065830230713,11.7071266174316,11.7076692581177,11.7082138061523,11.7087602615356,11.7093048095703,11.7098474502563,11.7103910446167,11.7109384536743,11.7114820480347,11.7120265960693,11.7125692367554,11.71311378479,11.7136602401733,11.7142038345337,11.7147483825684,11.715292930603,11.7158374786377,11.716383934021,11.7169284820557,11.7174730300903,11.7180185317993,11.718563079834,11.7191095352173,11.719654083252,11.7201986312866,11.7207431793213,11.7212886810303,11.7218360900879,11.7223796844482,11.7229261398315,11.7234706878662,11.7240171432495,11.7245635986328,11.7251081466675,11.7256536483765,11.7262001037598,11.7267446517944,11.7272930145264,11.727837562561,11.7283840179443,11.728928565979,11.729474067688,11.7300224304199,11.7305698394775,11.7311153411865,11.7316598892212,11.7322063446045,11.7327547073364,11.7333011627197,11.7338466644287,11.734393119812,11.7349395751953,11.7354860305786,0,0,0,0,0,0,0,0,0,0,0,0,0,0,0,0,0,0,0,0,0,0,0,0,0,0,0,0,0,0,0,0,0,0,0,0,0,0,0,0,0,0,0,0,0,0,0,0,0,0,0,0,0,0,0,0,0,0,0,0,0,0,0,0,0,0,0,0,0,0,0,0,0,0,0,0,0,0,0,0,0,0,0,0,0,0,0,0,0,0,0,0,0,0,0,0,0,0,0,0,0,0,0,0,0,0,0,0,0,0,0,0,0,0,0,0,0,0,0,0,0,0,0,0,0,0,0,0,0,0,0,0,0,0,0,0,0,0,0,0,0,0,0,0,0,0,0,0,0,0,0,0,0,0,0,0,0,0,0,0,0,0,0,0,0,0
11.5439338684082,11.5444622039795,11.5449905395508,11.5455198287964,11.5460500717163,11.5465793609619,11.5471096038818,11.5476379394531,11.5481700897217,11.5486974716187,11.5492277145386,11.5497579574585,11.5502882003784,11.550817489624,11.5513477325439,11.5518779754639,11.5524082183838,11.5529375076294,11.5534677505493,11.5539979934692,11.5545282363892,11.5550594329834,11.5555896759033,11.5561180114746,11.5566492080688,11.5571794509888,11.5577096939087,11.5582418441772,11.5587711334229,11.5593032836914,11.5598344802856,11.5603647232056,11.5608968734741,11.5614252090454,11.5619583129883,11.5624885559082,11.5630207061768,11.563549041748,11.5640821456909,11.5646142959595,11.5651445388794,11.5656747817993,11.5662059783936,11.5667381286621,11.5672702789307,11.5677995681763,11.5683317184448,11.5688638687134,11.5693950653076,11.5699272155762,11.5704574584961,11.5709896087646,11.5715227127075,11.5720529556274,11.5725870132446,11.5731182098389,11.5736484527588,11.5741806030273,11.5747146606445,11.5752458572388,11.5757780075073,11.5763101577759,11.5768423080444,11.5773725509644,11.5779056549072,11.5784378051758,11.5789699554443,11.5795021057129,11.5800352096558,11.5805673599243,11.5810995101929,11.5816345214844,11.5821647644043,11.5826988220215,11.5832319259644,11.5837640762329,11.5842962265015,11.5848302841187,11.5853633880615,11.5858955383301,11.5864295959473,11.5869626998901,11.5874967575073,11.5880289077759,11.5885629653931,11.5890941619873,11.5896301269531,11.5901622772217,11.5906953811646,11.5912294387817,11.5917634963989,11.5922956466675,11.592830657959,11.5933647155762,11.5938987731934,11.5944318771362,11.5949659347534,11.5954999923706,11.5960340499878,11.5965671539307,11.5971031188965,11.597635269165,11.5981702804565,11.5987043380737,11.5992383956909,11.5997724533081,11.6003074645996,11.6008415222168,11.601375579834,11.6019105911255,11.6024465560913,11.6029806137085,11.603515625,11.6040496826172,11.6045818328857,11.6051187515259,11.6056528091431,11.6061868667603,11.6067228317261,11.6072578430176,11.6077919006348,11.6083278656006,11.6088638305664,11.6093969345093,11.6099328994751,11.6104688644409,11.6110038757324,11.6115398406982,11.6120758056641,11.6126108169556,11.6131467819214,11.6136827468872,11.6142177581787,11.6147537231445,11.6152896881104,11.6158256530762,11.6163606643677,11.6168966293335,11.6174325942993,11.6179676055908,11.6185054779053,11.6190414428711,11.6195783615112,11.6201124191284,11.6206502914429,11.621187210083,11.6217212677002,11.6222591400146,11.6227960586548,11.6233320236206,11.6238679885864,11.6244049072266,11.6249408721924,11.6254787445068,11.6260147094727,11.6265535354614,11.6270895004272,11.6276264190674,11.6281642913818,11.628698348999,11.6292362213135,11.6297721862793,11.6303091049194,11.6308469772339,11.6313848495483,11.6319208145142,11.6324577331543,11.6329936981201,11.6335325241089,11.6340684890747,11.6346063613892,11.635142326355,11.6356811523438,11.6362190246582,11.6367568969727,11.6372947692871,11.6378316879272,11.6383695602417,11.6389074325562,11.6394443511963,11.6399841308594,11.6405200958252,11.641058921814,11.6415967941284,11.6421346664429,11.6426725387573,11.6432104110718,11.6437492370605,11.6442890167236,11.6448249816895,11.6453628540039,11.6459016799927,11.6464414596558,11.6469783782959,11.6475162506104,11.6480541229248,11.6485939025879,11.6491327285767,11.6496725082397,11.6502103805542,11.650749206543,11.6512889862061,11.6518268585205,11.6523656845093,11.6529054641724,11.6534433364868,11.6539831161499,11.6545219421387,11.6550617218018,11.6556015014648,11.6561403274536,11.6566781997681,11.6572208404541,11.6577587127686,11.6582984924316,11.6588382720947,11.6593780517578,11.6599187850952,11.6604585647583,11.6609964370728,11.6615352630615,11.6620769500732,11.6626167297363,11.6631555557251,11.6636972427368,11.6642351150513,11.664776802063,11.6653156280518,11.6658573150635,0,0,0,0,0,0,0,0,0,0,0,0,0,0,0,0,0,0,0,0,0,0,0,0,0,0,0,0,0,0,0,0,0,0,0,0,0,0,0,0,0,0,0,0,0,0,0,0,0,0,0,0,0,0,0,0,0,0,0,0,0,0,0,0,0,0,0,0,0,0,0,0,0,0,0,0,0,0,0,0,0,0,0,0,0,0,0,0,0,0,0,0,0,0,0,0,0,0,0,0,0,0,0,0,0,0,0,0,0,0,0,0,0,0,0,0,0,0,0,0,0,0,0,0,0,0,0,0,0,0,0,0,0,0,0,0,0,0,0,0,0,0,0,0,0,0,0,0,0,0,0,0,0,0,0,0,0,0,0,0,0,0,0,0,0,0
11.4765520095825,11.4770736694336,11.4775981903076,11.478120803833,11.4786434173584,11.4791669845581,11.4796895980835,11.4802141189575,11.4807357788086,11.4812622070312,11.4817848205566,11.4823093414307,11.4828329086304,11.4833555221558,11.4838781356812,11.4844017028809,11.4849262237549,11.4854507446289,11.4859733581543,11.4864988327026,11.4870233535767,11.4875478744507,11.4880704879761,11.4885959625244,11.4891185760498,11.4896430969238,11.4901666641235,11.4906911849976,11.4912176132202,11.4917421340942,11.4922666549683,11.4927921295166,11.4933166503906,11.4938411712646,11.4943647384644,11.494891166687,11.495415687561,11.4959402084351,11.4964647293091,11.4969902038574,11.4975147247314,11.4980392456055,11.4985647201538,11.4990892410278,11.4996156692505,11.5001401901245,11.5006656646729,11.5011901855469,11.5017166137695,11.5022411346436,11.5027685165405,11.5032930374146,11.5038175582886,11.5043430328369,11.5048675537109,11.5053930282593,11.5059194564819,11.5064458847046,11.5069704055786,11.5074968338013,11.5080223083496,11.5085487365723,11.5090732574463,11.5096015930176,11.5101280212402,11.5106515884399,11.5111799240112,11.5117063522339,11.5122318267822,11.5127582550049,11.5132846832275,11.5138111114502,11.5143384933472,11.5148649215698,11.5153913497925,11.5159177780151,11.5164451599121,11.5169696807861,11.5174980163574,11.5180253982544,11.5185518264771,11.5190782546997,11.519606590271,11.5201330184937,11.5206604003906,11.5211868286133,11.5217132568359,11.5222406387329,11.5227670669556,11.5232973098755,11.5238237380981,11.5243511199951,11.5248794555664,11.5254058837891,11.5259323120117,11.5264616012573,11.5269899368286,11.5275144577026,11.5280437469482,11.5285730361938,11.5290985107422,11.5296287536621,11.5301551818848,11.5306806564331,11.531210899353,11.5317373275757,11.5322666168213,11.5327930450439,11.5333232879639,11.5338516235352,11.5343799591064,11.5349092483521,11.5354375839233,11.535964012146,11.5364933013916,11.5370216369629,11.5375499725342,11.5380783081055,11.5386085510254,11.539137840271,11.5396642684937,11.5401945114136,11.5407238006592,11.5412521362305,11.5417823791504,11.5423107147217,11.5428400039673,11.5433683395386,11.5438985824585,11.5444269180298,11.5449571609497,11.5454864501953,11.5460147857666,11.5465431213379,11.5470733642578,11.5476045608521,11.548134803772,11.5486631393433,11.5491933822632,11.5497226715088,11.5502529144287,11.55078125,11.5513114929199,11.5518426895142,11.5523729324341,11.5529012680054,11.5534315109253,11.5539617538452,11.5544929504395,11.5550231933594,11.5555534362793,11.5560827255249,11.5566129684448,11.5571451187134,11.5576734542847,11.5582027435303,11.5587348937988,11.5592651367188,11.5597953796387,11.5603265762329,11.5608568191528,11.5613889694214,11.5619192123413,11.5624494552612,11.5629806518555,11.5635108947754,11.5640411376953,11.5645723342896,11.5651044845581,11.565634727478,11.5661649703979,11.5666971206665,11.5672264099121,11.5677585601807,11.5682897567749,11.5688219070435,11.569354057312,11.5698843002319,11.5704164505005,11.5709457397461,11.5714778900146,11.5720100402832,11.5725421905518,11.573073387146,11.5736036300659,11.5741357803345,11.5746698379517,11.5752010345459,11.5757331848145,11.576265335083,11.5767965316772,11.5773305892944,11.5778589248657,11.5783929824829,11.5789251327515,11.5794563293457,11.5799884796143,11.5805225372314,11.5810537338257,11.5815858840942,11.5821180343628,11.58265209198,11.5831851959229,11.5837154388428,11.58424949646,11.5847816467285,11.5853157043457,11.5858488082886,11.5863790512085,11.5869131088257,11.5874471664429,11.5879802703857,11.5885124206543,11.5890455245972,11.5895795822144,11.5901136398315,11.5906438827515,11.5911798477173,11.5917110443115,11.5922451019287,11.5927791595459,11.5933132171631,11.593846321106,11.5943784713745,11.5949115753174,11.5954484939575,11.5959815979004,11.5965156555176,11.5970478057861,0,0,0,0,0,0,0,0,0,0,0,0,0,0,0,0,0,0,0,0,0,0,0,0,0,0,0,0,0,0,0,0,0,0,0,0,0,0,0,0,0,0,0,0,0,0,0,0,0,0,0,0,0,0,0,0,0,0,0,0,0,0,0,0,0,0,0,0,0,0,0,0,0,0,0,0,0,0,0,0,0,0,0,0,0,0,0,0,0,0,0,0,0,0,0,0,0,0,0,0,0,0,0,0,0,0,0,0,0,0,0,0,0,0,0,0,0,0,0,0,0,0,0,0,0,0,0,0,0,0,0,0,0,0,0,0,0,0,0,0,0,0,0,0,0,0,0,0,0,0,0,0,0,0,0,0,0,0,0,0,0,0,0,0,0,0
11.4099502563477,11.4104671478271,11.410984992981,11.4115028381348,11.4120187759399,11.4125366210938,11.4130554199219,11.4135694503784,11.4140892028809,11.4146070480347,11.4151239395142,11.4156408309937,11.4161577224731,11.4166774749756,11.4171934127808,11.4177112579346,11.4182300567627,11.4187450408936,11.4192638397217,11.4197816848755,11.4202995300293,11.4208173751831,11.4213361740112,11.421854019165,11.4223718643188,11.4228897094727,11.4234094619751,11.4239263534546,11.4244441986084,11.4249658584595,11.4254846572876,11.42600440979,11.4265222549438,11.4270401000977,11.4275598526001,11.4280767440796,11.428596496582,11.4291143417358,11.4296340942383,11.4301538467407,11.4306707382202,11.431188583374,11.4317083358765,11.4322280883789,11.4327459335327,11.4332656860352,11.4337844848633,11.4343042373657,11.4348220825195,11.4353437423706,11.4358615875244,11.4363803863525,11.436900138855,11.4374198913574,11.4379396438599,11.4384593963623,11.4389781951904,11.4394979476929,11.4400177001953,11.4405393600464,11.4410572052002,11.441577911377,11.4420976638794,11.4426193237305,11.4431371688843,11.443657875061,11.4441776275635,11.4446973800659,11.445219039917,11.4457397460938,11.4462585449219,11.4467792510986,11.4473009109497,11.4478187561035,11.4483404159546,11.4488611221313,11.4493827819824,11.4499025344849,11.4504241943359,11.4509449005127,11.4514646530151,11.4519863128662,11.4525079727173,11.4530277252197,11.4535474777222,11.4540700912476,11.45458984375,11.4551115036011,11.4556331634521,11.4561529159546,11.45667552948,11.4571952819824,11.4577169418335,11.4582366943359,11.458758354187,11.4592809677124,11.4598026275635,11.4603242874146,11.4608459472656,11.4613676071167,11.4618883132935,11.4624118804932,11.4629316329956,11.4634532928467,11.4639759063721,11.4644975662231,11.4650211334229,11.4655427932739,11.4660654067993,11.4665861129761,11.4671087265015,11.4676303863525,11.4681539535522,11.4686756134033,11.4691982269287,11.4697198867798,11.4702434539795,11.4707660675049,11.471287727356,11.4718112945557,11.4723348617554,11.4728565216064,11.4733791351318,11.4739007949829,11.4744243621826,11.4749479293823,11.475471496582,11.4759941101074,11.4765157699585,11.4770393371582,11.4775629043579,11.4780855178833,11.478609085083,11.4791326522827,11.4796543121338,11.4801778793335,11.4807024002075,11.4812278747559,11.4817495346069,11.4822731018066,11.4827976226807,11.4833211898804,11.4838447570801,11.4843664169312,11.4848899841309,11.4854145050049,11.4859399795532,11.4864616394043,11.4869871139526,11.4875106811523,11.4880332946777,11.4885587692261,11.4890842437744,11.4896078109741,11.4901313781738,11.4906558990479,11.4911813735962,11.4917049407959,11.4922294616699,11.4927549362183,11.493278503418,11.4938039779663,11.4943284988403,11.4948511123657,11.4953775405884,11.4959011077881,11.4964265823364,11.4969501495361,11.4974746704102,11.4980001449585,11.4985256195068,11.4990491867065,11.4995746612549,11.5000991821289,11.5006246566772,11.5011520385742,11.5016756057739,11.5021991729736,11.5027256011963,11.5032510757446,11.503776550293,11.5043020248413,11.5048274993896,11.5053520202637,11.505877494812,11.5064029693604,11.5069303512573,11.507453918457,11.5079793930054,11.508505821228,11.509033203125,11.5095567703247,11.5100841522217,11.5106086730957,11.5111360549927,11.511661529541,11.512188911438,11.512713432312,11.5132389068604,11.5137662887573,11.5142917633057,11.5148191452026,11.5153455734253,11.5158700942993,11.5163984298706,11.5169239044189,11.5174512863159,11.5179767608643,11.5185031890869,11.5190305709839,11.5195579528809,11.5200853347778,11.5206108093262,11.5211372375488,11.5216665267944,11.5221920013428,11.5227193832397,11.5232448577881,11.5237712860107,11.5243005752563,11.5248279571533,11.5253534317017,11.5258817672729,11.5264091491699,11.5269384384155,11.5274639129639,11.5279922485352,11.5285196304321,11.5290451049805,0,0,0,0,0,0,0,0,0,0,0,0,0,0,0,0,0,0,0,0,0,0,0,0,0,0,0,0,0,0,0,0,0,0,0,0,0,0,0,0,0,0,0,0,0,0,0,0,0,0,0,0,0,0,0,0,0,0,0,0,0,0,0,0,0,0,0,0,0,0,0,0,0,0,0,0,0,0,0,0,0,0,0,0,0,0,0,0,0,0,0,0,0,0,0,0,0,0,0,0,0,0,0,0,0,0,0,0,0,0,0,0,0,0,0,0,0,0,0,0,0,0,0,0,0,0,0,0,0,0,0,0,0,0,0,0,0,0,0,0,0,0,0,0,0,0,0,0,0,0,0,0,0,0,0,0,0,0,0,0,0,0,0,0,0,0
11.3441181182861,11.3446311950684,11.3451414108276,11.3456516265869,11.3461647033691,11.3466768264771,11.3471870422363,11.3476982116699,11.3482103347778,11.3487195968628,11.3492317199707,11.3497438430786,11.3502540588379,11.3507671356201,11.3512773513794,11.3517913818359,11.3523006439209,11.3528127670288,11.3533267974854,11.3538379669189,11.3543500900269,11.3548603057861,11.3553733825684,11.3558855056763,11.3563976287842,11.3569107055664,11.3574209213257,11.3579349517822,11.3584480285645,11.3589601516724,11.3594741821289,11.3599863052368,11.360499382019,11.361011505127,11.3615236282349,11.3620367050171,11.362548828125,11.3630609512329,11.3635740280151,11.3640880584717,11.3646001815796,11.3651132583618,11.3656272888184,11.3661394119263,11.3666524887085,11.367166519165,11.3676805496216,11.3681926727295,11.3687057495117,11.3692178726196,11.3697319030762,11.370246887207,11.3707590103149,11.3712711334229,11.3717861175537,11.3723001480103,11.3728122711182,11.373327255249,11.3738412857056,11.3743534088135,11.3748683929443,11.3753824234009,11.3758964538574,11.3764095306396,11.3769235610962,11.3774375915527,11.3779516220093,11.3784666061401,11.3789806365967,11.3794946670532,11.3800096511841,11.3805255889893,11.3810377120972,11.381552696228,11.3820667266846,11.3825826644897,11.383095741272,11.3836116790771,11.3841257095337,11.3846397399902,11.3851566314697,11.3856687545776,11.3861837387085,11.386697769165,11.3872137069702,11.3877267837524,11.3882427215576,11.3887586593628,11.3892726898193,11.3897895812988,11.390305519104,11.3908195495605,11.3913345336914,11.3918504714966,11.3923645019531,11.3928813934326,11.3933954238892,11.393913269043,11.3944263458252,11.394944190979,11.3954601287842,11.3959741592407,11.3964891433716,11.3970050811768,11.3975210189819,11.3980379104614,11.3985538482666,11.3990697860718,11.3995847702026,11.4001026153564,11.4006185531616,11.4011344909668,11.4016494750977,11.4021673202515,11.4026832580566,11.4032001495361,11.4037160873413,11.4042320251465,11.4047498703003,11.4052667617798,11.405782699585,11.4062986373901,11.4068155288696,11.4073333740234,11.4078493118286,11.4083662033081,11.4088840484619,11.4093999862671,11.4099168777466,11.4104347229004,11.4109506607056,11.4114675521851,11.4119834899902,11.412501335144,11.4130182266235,11.4135360717773,11.4140520095825,11.4145708084106,11.4150886535645,11.4156064987183,11.4161224365234,11.4166412353516,11.4171590805054,11.4176750183105,11.4181938171387,11.4187116622925,11.4192295074463,11.4197473526001,11.4202661514282,11.4207820892334,11.4213018417358,11.4218187332153,11.4223384857178,11.4228563308716,11.4233732223511,11.4238929748535,11.4244108200073,11.4249286651611,11.4254484176636,11.4259653091431,11.4264831542969,11.4270029067993,11.4275217056274,11.4280395507812,11.4285593032837,11.4290781021118,11.429594039917,11.4301128387451,11.4306325912476,11.4311504364014,11.4316701889038,11.4321889877319,11.4327087402344,11.4332265853882,11.4337453842163,11.4342651367188,11.4347829818726,11.4353036880493,11.4358215332031,11.4363412857056,11.4368600845337,11.4373779296875,11.4378967285156,11.4384183883667,11.4389381408691,11.4394559860229,11.4399766921997,11.4404945373535,11.4410161972046,11.4415349960327,11.4420547485352,11.4425745010376,11.4430932998657,11.4436149597168,11.4441347122192,11.4446535110474,11.4451732635498,11.4456930160522,11.4462146759033,11.4467353820801,11.4472551345825,11.4477739334106,11.4482936859131,11.4488172531128,11.4493350982666,11.4498558044434,11.4503755569458,11.4508972167969,11.4514179229736,11.4519376754761,11.4524583816528,11.4529800415039,11.4534997940063,11.4540214538574,11.4545421600342,11.4550638198853,11.4555835723877,11.4561042785645,11.4566259384155,11.4571475982666,11.4576683044434,11.4581880569458,11.4587097167969,11.4592313766479,11.4597539901733,11.4602737426758,11.4607944488525,11.4613161087036,11.4618377685547,11.4623594284058,11.4628801345825,11.4634037017822,11.4639253616333,11.4644460678101,11.4649677276611,11.4654912948608,11.4660120010376,11.4665336608887,0,0,0,0,0,0,0,0,0,0,0,0,0,0,0,0,0,0,0,0,0,0,0,0,0,0,0,0,0,0,0,0,0,0,0,0,0,0,0,0,0,0,0,0,0,0,0,0,0,0,0,0,0,0,0,0,0,0,0,0,0,0,0,0,0,0,0,0,0,0,0,0,0,0,0,0,0,0,0,0,0,0,0,0,0,0,0,0,0,0,0,0,0,0,0,0,0,0,0,0,0,0,0,0,0,0,0,0,0,0,0,0,0,0,0,0,0,0,0,0,0,0,0,0,0,0,0,0,0,0,0,0,0,0,0,0,0,0,0,0,0,0,0,0,0,0,0,0,0,0,0,0,0,0,0,0,0
11.2790412902832,11.2795467376709,11.2800521850586,11.2805595397949,11.2810649871826,11.281569480896,11.2820749282837,11.2825803756714,11.2830858230591,11.2835912704468,11.2840967178345,11.2846031188965,11.2851085662842,11.2856140136719,11.2861213684082,11.2866268157959,11.2871322631836,11.2876386642456,11.2881441116333,11.288649559021,11.2891569137573,11.2896642684937,11.2901678085327,11.290675163269,11.2911815643311,11.2916870117188,11.2921943664551,11.2927017211914,11.2932081222534,11.2937126159668,11.2942190170288,11.2947282791138,11.2952356338501,11.2957420349121,11.2962474822998,11.2967548370361,11.2972602844238,11.2977695465088,11.2982769012451,11.2987823486328,11.2992887496948,11.2997980117798,11.3003034591675,11.3008108139038,11.3013181686401,11.3018264770508,11.3023338317871,11.3028411865234,11.3033485412598,11.3038558959961,11.3043632507324,11.3048696517944,11.3053770065308,11.3058862686157,11.3063936233521,11.3069009780884,11.3074083328247,11.3079166412354,11.3084239959717,11.3089332580566,11.309440612793,11.3099479675293,11.3104562759399,11.3109636306763,11.3114728927612,11.3119821548462,11.3124895095825,11.3129978179932,11.3135051727295,11.3140144348145,11.3145236968994,11.3150272369385,11.3155364990234,11.3160457611084,11.3165559768677,11.3170623779297,11.3175706863403,11.3180818557739,11.3185892105103,11.3190984725952,11.3196067810059,11.3201160430908,11.3206253051758,11.3211345672607,11.3216438293457,11.3221521377563,11.3226613998413,11.3231687545776,11.3236780166626,11.3241891860962,11.3246984481812,11.3252067565918,11.3257160186768,11.3262271881104,11.3267364501953,11.3272457122803,11.3277549743652,11.3282632827759,11.3287744522095,11.3292837142944,11.329794883728,11.330304145813,11.3308143615723,11.3313236236572,11.3318328857422,11.3323440551758,11.3328542709351,11.33336353302,11.333872795105,11.3343839645386,11.3348932266235,11.3354043960571,11.3359146118164,11.3364238739014,11.336935043335,11.3374462127686,11.3379554748535,11.3384666442871,11.338978767395,11.33948802948,11.3399991989136,11.3405103683472,11.3410196304321,11.3415288925171,11.3420400619507,11.3425521850586,11.3430614471436,11.3435726165771,11.3440856933594,11.3445959091187,11.3451070785522,11.3456182479858,11.3461294174194,11.346640586853,11.3471517562866,11.3476638793945,11.3481750488281,11.3486862182617,11.3491973876953,11.3497085571289,11.3502206802368,11.350733757019,11.351243019104,11.3517560958862,11.3522672653198,11.3527793884277,11.3532905578613,11.3538036346436,11.3543148040771,11.3548259735107,11.3553400039673,11.3558530807495,11.3563642501831,11.3568773269653,11.3573884963989,11.3578996658325,11.3584117889404,11.3589267730713,11.3594379425049,11.3599510192871,11.360463142395,11.3609743118286,11.3614873886108,11.3620004653931,11.3625154495239,11.3630266189575,11.3635387420654,11.3640518188477,11.3645629882812,11.3650760650635,11.3655891418457,11.3661003112793,11.3666152954102,11.3671274185181,11.3676404953003,11.3681516647339,11.3686647415161,11.3691816329956,11.3696928024292,11.3702058792114,11.3707180023193,11.3712310791016,11.3717460632324,11.3722591400146,11.3727722167969,11.3732852935791,11.3737993240356,11.3743124008179,11.3748254776001,11.375340461731,11.3758544921875,11.3763675689697,11.376880645752,11.3773956298828,11.377908706665,11.3784236907959,11.3789377212524,11.3794527053833,11.3799657821655,11.3804788589478,11.3809938430786,11.3815088272095,11.382022857666,11.3825359344482,11.3830509185791,11.3835639953613,11.3840808868408,11.384593963623,11.3851089477539,11.3856229782104,11.3861379623413,11.3866529464722,11.387167930603,11.3876829147339,11.3881978988647,11.388710975647,11.3892288208008,11.389741897583,11.3902568817139,11.3907718658447,11.3912868499756,11.3918018341064,11.3923177719116,11.3928327560425,11.3933477401733,11.3938627243042,11.3943786621094,11.3948926925659,11.3954105377197,11.3959255218506,11.3964385986328,11.3969554901123,11.3974714279175,11.3979864120483,11.3985013961792,11.3990163803101,11.3995351791382,11.400050163269,11.4005661010742,11.4010810852051,11.4015979766846,11.4021148681641,11.4026317596436,11.4031467437744,11.4036626815796,11.4041776657104,11.4046945571899,0,0,0,0,0,0,0,0,0,0,0,0,0,0,0,0,0,0,0,0,0,0,0,0,0,0,0,0,0,0,0,0,0,0,0,0,0,0,0,0,0,0,0,0,0,0,0,0,0,0,0,0,0,0,0,0,0,0,0,0,0,0,0,0,0,0,0,0,0,0,0,0,0,0,0,0,0,0,0,0,0,0,0,0,0,0,0,0,0,0,0,0,0,0,0,0,0,0,0,0,0,0,0,0,0,0,0,0,0,0,0,0,0,0,0,0,0,0,0,0,0,0,0,0,0,0,0,0,0,0,0,0,0,0,0,0,0,0,0,0,0,0,0,0,0,0,0,0
