18.9703826904297,17.0256023406982,17.0255699157715,18.9702739715576,18.9702377319336,18.9702014923096,18.9701652526855,18.9701290130615,18.9700927734375,18.9700565338135,18.9700202941895,18.9699840545654,18.9699478149414,18.9699115753174,17.0251789093018,17.0251483917236,17.0251178741455,18.9697666168213,18.9697303771973,18.9696941375732,18.9696598052979,18.9696235656738,18.9695873260498,18.9695510864258,18.9695148468018,18.9694786071777,18.9694423675537,18.9694061279297,17.0247249603271,17.0246925354004,18.7528553009033,18.8259925842285,18.8259563446045,18.8259201049805,18.8258838653564,18.8258476257324,18.8258113861084,18.825777053833,18.825740814209,18.825704574585,18.8256702423096,17.0243053436279,17.0242748260498,18.8255615234375,18.8255271911621,18.8254909515381,18.8254547119141,18.8254203796387,18.8253841400146,18.8253479003906,18.8253135681152,18.8252773284912,18.8252410888672,18.8252048492432,18.8251705169678,17.0238494873047,17.0238170623779,18.8250617980957,18.8250274658203,18.8249912261963,18.8249549865723,18.7517490386963,18.7517127990723,18.8851413726807,18.8851051330566,18.8850688934326,18.8850326538086,18.8849964141846,17.0234260559082,17.0233936309814,18.8848896026611,18.8848533630371,18.8848171234131,18.8847808837891,18.884744644165,18.884708404541,18.884672164917,18.884635925293,18.5606174468994,18.1762046813965,17.7917957305908,17.0682811737061,17.0229759216309,17.0229415893555,18.8843841552734,18.8843479156494,18.884313583374,18.88427734375,18.884241104126,18.884204864502,18.8841686248779,18.8841323852539,18.8840961456299,18.8840599060059,18.8840255737305,18.8839893341064,18.8839530944824,18.8839168548584,18.8838806152344,18.8838443756104,18.8838081359863,18.8837718963623,18.8837356567383,18.8837013244629,18.8836650848389,18.8836288452148,18.8835926055908,18.8835563659668,18.8835201263428,18.8834838867188,18.8834476470947,18.8834133148193,18.8833770751953,18.8833408355713,18.8833045959473,18.8832683563232,18.8832321166992,18.8831958770752,18.8831596374512,18.8831253051758,18.8830890655518,18.8830528259277,18.8830165863037,18.8829803466797,18.8829441070557,18.8829078674316,18.8828716278076,18.8828372955322,18.8828010559082,18.8827648162842,18.8827285766602,18.8826923370361,18.8826560974121,18.8826198577881,18.8825836181641,18.8825492858887,18.8825130462646,18.8824768066406,18.8824405670166,18.8824043273926,18.8823680877686,18.8823318481445,18.8822956085205,18.8822612762451,18.8822250366211,18.8821887969971,18.882152557373,18.882116317749,18.882080078125,18.882043838501,18.882007598877,18.8442535400391,18.844217300415,18.844181060791,18.844144821167,18.955394744873,18.955358505249,18.955322265625,18.955286026001,18.955249786377,18.9552135467529,18.9551773071289,18.9551410675049,18.9551048278809,18.9550685882568,18.9550342559814,18.9549980163574,18.9549617767334,18.9549255371094,18.9548892974854,18.9548530578613,18.9548187255859,18.9547805786133,18.9547424316406,18.9547061920166,18.9546699523926,18.9546337127686,18.9545974731445,18.9545612335205,18.9545249938965,18.9544887542725,18.9544525146484,18.9544162750244,18.954381942749,18.954345703125,18.954309463501,18.954273223877,18.9542369842529,18.9542007446289,18.9541664123535,18.9541301727295,18.916410446167,18.8427829742432,18.8427467346191,18.8427104949951,18.8426742553711,18.8804397583008,18.8804035186768,18.8803672790527,18.8803310394287,18.8802947998047
18.972261428833,17.0272884368896,17.0272560119629,18.9721527099609,18.9721164703369,18.9720802307129,18.9720439910889,18.9720077514648,18.9719734191895,18.9719371795654,18.9719009399414,18.9718647003174,18.9718284606934,18.9717922210693,17.0268650054932,17.026834487915,17.0268039703369,18.9716472625732,18.9716110229492,18.9715747833252,18.9715385437012,18.9715023040771,18.9714660644531,18.9714298248291,18.9713935852051,18.9713573455811,18.971321105957,18.971284866333,17.0264110565186,17.0263786315918,18.7547130584717,18.8278579711914,18.8278198242188,18.8277835845947,18.8277492523193,18.8277130126953,18.8276767730713,18.8276405334473,18.8276062011719,18.8275699615479,18.8275337219238,17.0259914398193,17.0259609222412,18.8274269104004,18.8273906707764,18.827356338501,18.827320098877,18.8272838592529,18.8272495269775,18.8272132873535,18.8271770477295,18.8271408081055,18.8271064758301,18.8270702362061,18.827033996582,17.0255374908447,17.0255031585693,18.8269271850586,18.8268909454346,18.8268547058105,18.8268203735352,18.7536067962646,18.7535705566406,18.8870105743408,18.8869743347168,18.8869400024414,18.8869037628174,18.8868675231934,17.0251121520996,17.0250797271729,18.8867588043213,18.8867225646973,18.8866863250732,18.8866519927979,18.8866157531738,18.8865795135498,18.8865432739258,18.8865070343018,18.5624561309814,18.1780052185059,17.7935581207275,17.0678234100342,17.0246620178223,17.0246276855469,18.8862552642822,18.8862190246582,18.8861827850342,18.8861465454102,18.8861103057861,18.8860740661621,18.8860397338867,18.8860034942627,18.8859672546387,18.8859310150146,18.8858947753906,18.8858585357666,18.8858222961426,18.8857860565186,18.8857498168945,18.8857154846191,18.8856792449951,18.8856430053711,18.8856067657471,18.885570526123,18.885534286499,18.885498046875,18.885461807251,18.8854274749756,18.8853912353516,18.8853549957275,18.8853187561035,18.8852825164795,18.8852462768555,18.8852100372314,18.8851737976074,18.885139465332,18.885103225708,18.885066986084,18.88503074646,18.8849945068359,18.8849582672119,18.8849220275879,18.8848857879639,18.8848495483398,18.8848152160645,18.8847789764404,18.8847427368164,18.8847064971924,18.8846702575684,18.8846340179443,18.8845977783203,18.8845615386963,18.8845272064209,18.8844909667969,18.8844547271729,18.8844184875488,18.8843822479248,18.8843460083008,18.8843097686768,18.8842735290527,18.8842391967773,18.8842029571533,18.8841667175293,18.8841304779053,18.8840942382812,18.8840579986572,18.8840217590332,18.8839855194092,18.8839492797852,18.8839149475098,18.8838787078857,18.846118927002,18.8460826873779,18.8460464477539,18.8460102081299,18.9572715759277,18.9572353363037,18.9571990966797,18.9571628570557,18.9571266174316,18.9570903778076,18.9570541381836,18.9570178985596,18.9569816589355,18.9569454193115,18.9569091796875,18.9568748474121,18.9568386077881,18.9568023681641,18.95676612854,18.956729888916,18.956693649292,18.956657409668,18.9566192626953,18.9565830230713,18.9565467834473,18.9565105438232,18.9564743041992,18.9564380645752,18.9564018249512,18.9563655853271,18.9563293457031,18.9562931060791,18.9562568664551,18.9562225341797,18.9561862945557,18.9561500549316,18.9561138153076,18.9560775756836,18.9560413360596,18.9560070037842,18.9162693023682,18.8446483612061,18.844612121582,18.844575881958,18.844539642334,18.8822956085205,18.8822593688965,18.8822231292725,18.8821868896484,18.8821506500244
18.974142074585,17.0289764404297,17.0289421081543,18.9740333557129,18.9739971160889,18.9739608764648,18.9739246368408,18.9738883972168,18.9738521575928,18.9738159179688,18.9737796783447,18.9737434387207,18.9737071990967,18.9736709594727,17.0285530090332,17.0285205841064,17.028491973877,18.9735260009766,18.9734897613525,18.9734535217285,18.9734172821045,18.9733810424805,18.9733448028564,18.9733085632324,18.9732723236084,18.9732360839844,18.9731998443604,18.9731636047363,17.02809715271,17.0280666351318,18.75657081604,18.8297233581543,18.8296852111816,18.8296489715576,18.8296127319336,18.8295783996582,18.8295421600342,18.8295059204102,18.8294715881348,18.8294353485107,18.8293991088867,17.0276794433594,17.0276470184326,18.8292922973633,18.8292560577393,18.8292217254639,18.8291854858398,18.8291492462158,18.8291130065918,18.8290786743164,18.8290424346924,18.8290061950684,18.828971862793,18.8289356231689,18.8288993835449,17.0272235870361,17.0271892547607,18.8287925720215,18.8287563323975,18.8287200927734,18.8286838531494,18.755464553833,18.7554264068604,18.8888816833496,18.8888454437256,18.8888092041016,18.8887748718262,18.8887386322021,17.0268001556396,17.0267658233643,18.8886299133301,18.8885936737061,18.888557434082,18.888521194458,18.888484954834,18.8884506225586,18.8884143829346,18.8883781433105,18.5642948150635,18.1798057556152,17.7953205108643,17.0673637390137,17.0263481140137,17.0263137817383,18.888126373291,18.888090133667,18.888053894043,18.8880176544189,18.8879814147949,18.8879451751709,18.8879089355469,18.8878726959229,18.8878364562988,18.8878021240234,18.8877658843994,18.8877296447754,18.8876934051514,18.8876571655273,18.8876209259033,18.8875846862793,18.8875484466553,18.8875141143799,18.8874778747559,18.8874416351318,18.8874053955078,18.8873691558838,18.8873329162598,18.8872966766357,18.8872604370117,18.8872241973877,18.8871898651123,18.8871536254883,18.8871173858643,18.8870811462402,18.8870449066162,18.8870086669922,18.8869724273682,18.8869361877441,18.8868999481201,18.8868656158447,18.8868293762207,18.8867931365967,18.8867568969727,18.8867206573486,18.8866844177246,18.8866481781006,18.8866119384766,18.8865776062012,18.8865413665771,18.8865051269531,18.8864688873291,18.8864326477051,18.8863964080811,18.886360168457,18.886323928833,18.886287689209,18.8862533569336,18.8862171173096,18.8861808776855,18.8861446380615,18.8861083984375,18.8860721588135,18.8860359191895,18.8859996795654,18.88596534729,18.885929107666,18.885892868042,18.885856628418,18.8858203887939,18.8857841491699,18.8857479095459,18.8479862213135,18.8479499816895,18.8479137420654,18.8478775024414,18.9591484069824,18.9591121673584,18.9590759277344,18.9590396881104,18.959005355835,18.9589691162109,18.9589328765869,18.9588966369629,18.9588603973389,18.9588241577148,18.9587879180908,18.9587516784668,18.9587154388428,18.9586791992188,18.9586429595947,18.9586067199707,18.9585723876953,18.9585361480713,18.9584980010986,18.9584617614746,18.9584255218506,18.9583892822266,18.9583530426025,18.9583168029785,18.9582805633545,18.9582443237305,18.9582080841064,18.9581718444824,18.9581356048584,18.9580993652344,18.9580631256104,18.9580268859863,18.9579906463623,18.9579544067383,18.9579200744629,18.9578838348389,18.9161281585693,18.8465137481689,18.8464775085449,18.8464431762695,18.8464069366455,18.8841514587402,18.8841152191162,18.8840789794922,18.8840427398682,18.8840084075928
18.9760227203369,17.0306625366211,17.0306301116943,18.9759140014648,18.9758777618408,18.9758415222168,18.9758052825928,18.9757690429688,18.9757328033447,18.9756965637207,18.9756603240967,18.9756240844727,18.9755878448486,18.9755516052246,17.0302391052246,17.0302085876465,17.0301780700684,18.9754066467285,18.9753704071045,18.9753341674805,18.9752979278564,18.9752616882324,18.9752254486084,18.9751892089844,18.9751529693604,18.9751167297363,18.9750804901123,18.9750442504883,17.0297832489014,17.0297527313232,18.7584285736084,18.8315887451172,18.8315505981445,18.8315143585205,18.8314800262451,18.8314437866211,18.8314075469971,18.831371307373,18.8313369750977,18.8313007354736,18.8312644958496,17.0293655395508,17.029333114624,18.8311576843262,18.8311214447021,18.8310871124268,18.8310508728027,18.8310146331787,18.8309783935547,18.8309440612793,18.8309078216553,18.8308715820312,18.8308372497559,18.8308010101318,18.8307647705078,17.0289096832275,17.0288753509521,18.8306579589844,18.8306217193604,18.8305854797363,18.8305492401123,18.7573223114014,18.7572860717773,18.8907527923584,18.8907165527344,18.8906803131104,18.890645980835,18.8906097412109,17.0284862518311,17.0284538269043,18.8905010223389,18.8904647827148,18.8904285430908,18.8903923034668,18.8903560638428,18.8903217315674,18.8902854919434,18.8902492523193,18.5661334991455,18.1816062927246,17.7970848083496,17.0669059753418,17.0280342102051,17.0280017852783,18.8899974822998,18.8899612426758,18.8899250030518,18.8898887634277,18.8898525238037,18.8898162841797,18.8897800445557,18.8897438049316,18.8897075653076,18.8896732330322,18.8896369934082,18.8896007537842,18.8895645141602,18.8895282745361,18.8894920349121,18.8894557952881,18.8894195556641,18.88938331604,18.8893489837646,18.8893127441406,18.8892765045166,18.8892402648926,18.8892040252686,18.8891677856445,18.8891315460205,18.8890953063965,18.8890590667725,18.8890247344971,18.888988494873,18.888952255249,18.888916015625,18.888879776001,18.888843536377,18.8888072967529,18.8887710571289,18.8887348175049,18.8887004852295,18.8886642456055,18.8886280059814,18.8885917663574,18.8885555267334,18.8885192871094,18.8884830474854,18.8884468078613,18.8884105682373,18.8883762359619,18.8883399963379,18.8883037567139,18.8882675170898,18.8882312774658,18.8881950378418,18.8881587982178,18.8881225585938,18.8880863189697,18.8880519866943,18.8880157470703,18.8879795074463,18.8879432678223,18.8879070281982,18.8878707885742,18.8878345489502,18.8877983093262,18.8877620697021,18.8877277374268,18.8876914978027,18.8876552581787,18.8876190185547,18.849853515625,18.849817276001,18.849781036377,18.8497447967529,18.9610271453857,18.9609909057617,18.9609546661377,18.9609184265137,18.9608821868896,18.9608459472656,18.9608097076416,18.9607734680176,18.9607372283936,18.9607009887695,18.9606647491455,18.9606304168701,18.9605941772461,18.9605579376221,18.960521697998,18.960485458374,18.96044921875,18.960412979126,18.960376739502,18.9603404998779,18.9603042602539,18.9602680206299,18.9602317810059,18.9601955413818,18.9601593017578,18.9601230621338,18.9600868225098,18.9600505828857,18.9600143432617,18.9599781036377,18.9599418640137,18.9599056243896,18.9598693847656,18.9598331451416,18.9597969055176,18.9597606658936,18.9159870147705,18.8483810424805,18.8483448028564,18.8483085632324,18.8482723236084,18.88600730896,18.8859729766846,18.8859367370605,18.8859004974365,18.8858642578125
18.9779014587402,17.0323505401611,17.0323181152344,18.9777927398682,18.9777565002441,18.9777202606201,18.9776840209961,18.9776477813721,18.977611541748,18.977575302124,18.9775390625,18.977502822876,18.977466583252,18.9774303436279,17.0319271087646,17.0318965911865,17.0318660736084,18.9772853851318,18.9772491455078,18.9772129058838,18.9771766662598,18.9771404266357,18.9771041870117,18.9770679473877,18.9770317077637,18.9769954681396,18.9769592285156,18.9769229888916,17.0314712524414,17.0314407348633,18.7602863311768,18.8334541320801,18.8334178924561,18.833381652832,18.833345413208,18.833309173584,18.83327293396,18.8332386016846,18.8332023620605,18.8331661224365,18.8331298828125,17.0310535430908,17.0310211181641,18.8330230712891,18.8329887390137,18.8329524993896,18.8329162597656,18.8328800201416,18.8328456878662,18.8328094482422,18.8327732086182,18.8327388763428,18.8327026367188,18.8326663970947,18.8326301574707,17.0305976867676,17.0305633544922,18.8325233459473,18.8324871063232,18.8324527740479,18.8324165344238,18.7591800689697,18.7591438293457,18.8926239013672,18.8925895690918,18.8925533294678,18.8925170898438,18.8924808502197,17.0301723480225,17.0301399230957,18.8923721313477,18.8923358917236,18.8922996520996,18.8922634124756,18.8922290802002,18.8921928405762,18.8921566009521,18.8921203613281,18.5679740905762,18.1834087371826,17.7988471984863,17.0664539337158,17.0297222137451,17.0296878814697,18.8918685913086,18.8918323516846,18.8917961120605,18.8917598724365,18.8917236328125,18.8916873931885,18.8916511535645,18.8916149139404,18.8915786743164,18.891544342041,18.891508102417,18.891471862793,18.8914356231689,18.8913993835449,18.8913631439209,18.8913269042969,18.8912906646729,18.8912544250488,18.8912200927734,18.8911838531494,18.8911476135254,18.8911113739014,18.8910751342773,18.8910388946533,18.8910026550293,18.8909664154053,18.8909301757812,18.8908958435059,18.8908596038818,18.8908233642578,18.8907871246338,18.8907508850098,18.8907146453857,18.8906784057617,18.8906421661377,18.8906059265137,18.8905715942383,18.8905353546143,18.8904991149902,18.8904628753662,18.8904266357422,18.8903903961182,18.8903541564941,18.8903179168701,18.8902816772461,18.8902473449707,18.8902111053467,18.8901748657227,18.8901386260986,18.8901023864746,18.8900661468506,18.8900299072266,18.8899936676025,18.8899574279785,18.8899230957031,18.8898868560791,18.8898506164551,18.8898143768311,18.889778137207,18.889741897583,18.889705657959,18.889669418335,18.8896331787109,18.8895969390869,18.8895626068115,18.8895263671875,18.8894901275635,18.8517208099365,18.8516845703125,18.8516483306885,18.8516120910645,0,0,0,0,0,0,0,0,0,0,0,0,0,0,0,0,0,0,0,0,0,0,0,0,0,0,0,0,0,0,0,0,0,0,0,19.0411319732666,18.915843963623,18.850248336792,18.850212097168,18.8501758575439,18.8501396179199,18.8878650665283,18.8878288269043,18.8877925872803,18.8877563476562,18.8877220153809
18.9797821044922,17.0340385437012,17.0340061187744,18.9796733856201,18.9796371459961,18.9796009063721,18.979564666748,18.979528427124,18.9794921875,18.979455947876,18.979419708252,18.9793834686279,18.9793472290039,18.9793109893799,17.0336151123047,17.0335845947266,17.0335540771484,18.9791660308838,18.9791297912598,18.9790935516357,18.9790573120117,18.9790210723877,18.9789848327637,18.9789485931396,18.9789123535156,18.9788761138916,18.9788398742676,18.9788036346436,17.0331592559814,17.0331287384033,18.7621459960938,18.8353214263916,18.8352832794189,18.8352470397949,18.8352108001709,18.8351764678955,18.8351402282715,18.8351039886475,18.8350677490234,18.835033416748,18.834997177124,17.0327415466309,17.0327091217041,18.8348903656006,18.8348541259766,18.8348178863525,18.8347835540771,18.8347473144531,18.8347110748291,18.8346748352051,18.8346405029297,18.8346042633057,18.8345680236816,18.8345336914062,18.8344974517822,17.032283782959,17.0322513580322,18.8343906402588,18.8343544006348,18.8343181610107,18.8342819213867,18.7610397338867,18.7610015869141,18.8944969177246,18.8944606781006,18.8944244384766,18.8943881988525,18.8943519592285,17.0318603515625,17.0318279266357,18.8942451477051,18.8942089080811,18.894172668457,18.894136428833,18.894100189209,18.894063949585,18.8940277099609,18.8939914703369,18.5698127746582,18.185209274292,17.8006114959717,17.0660247802734,17.0314102172852,17.0313758850098,18.8937397003174,18.8937034606934,18.8936672210693,18.8936309814453,18.8935947418213,18.8935585021973,18.8935241699219,18.8934879302979,18.8934516906738,18.8934154510498,18.8933792114258,18.8933429718018,18.8933067321777,18.8932704925537,18.8932342529297,18.8931999206543,18.8931636810303,18.8931274414062,18.8930912017822,18.8930549621582,18.8930187225342,18.8929824829102,18.8929462432861,18.8929100036621,18.8928737640381,18.8928394317627,18.8928031921387,18.8927669525146,18.8927307128906,18.8926944732666,18.8926582336426,18.8926219940186,18.8925857543945,18.8925495147705,18.8925132751465,18.8924789428711,18.8924427032471,18.892406463623,18.892370223999,18.892333984375,18.892297744751,18.892261505127,18.8922252655029,18.8921890258789,18.8921546936035,18.8921184539795,18.8920822143555,18.8920459747314,18.8920097351074,18.8919734954834,18.8919372558594,18.8919010162354,18.8918647766113,18.8918304443359,18.8917942047119,18.8917579650879,18.8917217254639,18.8916854858398,18.8916492462158,18.8916130065918,18.8915767669678,18.8915405273438,18.8915042877197,18.8914699554443,18.8914337158203,18.8913974761963,18.8913612365723,18.8184795379639,18.8184432983398,18.8184070587158,18.8183708190918,18.8183364868164,18.8183002471924,18.8182640075684,18.8182277679443,18.8181934356689,18.8181571960449,18.8181209564209,18.8180847167969,18.8180484771729,18.8180141448975,18.8179779052734,18.8179416656494,18.8179054260254,18.8178691864014,18.817834854126,18.817798614502,18.8177623748779,18.8177261352539,18.8176898956299,18.8176555633545,18.8176193237305,18.8175830841064,18.8175468444824,18.8175106048584,18.8174743652344,18.8174381256104,18.8174018859863,18.8173675537109,18.8173313140869,18.8172950744629,18.8172588348389,18.8172225952148,18.8171863555908,18.8171501159668,18.8171138763428,18.8170795440674,18.8170433044434,18.8170070648193,18.8169708251953,18.8169345855713,18.8168983459473,18.8897228240967,18.8896865844727,18.8896503448486,18.8896141052246,18.8895778656006
18.9816646575928,17.0357265472412,17.0356941223145,18.9815559387207,18.9815196990967,18.9814834594727,18.9814472198486,18.9814109802246,18.9813747406006,18.9813385009766,18.9813022613525,18.9812660217285,18.9812297821045,18.9811935424805,17.0353031158447,17.0352725982666,17.0352420806885,18.9810485839844,18.9810123443604,18.9809761047363,18.9809398651123,18.9809017181396,18.9808654785156,18.9808292388916,18.9807929992676,18.9807586669922,18.9807224273682,18.9806842803955,17.0348472595215,17.0348167419434,18.7640056610107,18.8371868133545,18.8371505737305,18.8371143341064,18.8370780944824,18.8370418548584,18.8370056152344,18.836971282959,18.836935043335,18.8368988037109,18.8368644714355,17.0344295501709,17.0343971252441,18.8367557525635,18.8367214202881,18.8366851806641,18.83664894104,18.836612701416,18.8365783691406,18.8365421295166,18.8365058898926,18.8364715576172,18.8364353179932,18.8363990783691,18.8363628387451,17.033971786499,17.0339393615723,18.8362560272217,18.8362197875977,18.8361854553223,18.8361492156982,18.7628974914551,18.7628612518311,18.8963680267334,18.8963317871094,18.896297454834,18.89626121521,18.8962249755859,17.0335483551025,17.0335159301758,18.8961162567139,18.8960800170898,18.8960437774658,18.8960075378418,18.8959712982178,18.8959369659424,18.8959007263184,18.8958644866943,18.5716533660889,18.18701171875,17.8023738861084,17.0655956268311,17.0330963134766,17.0330638885498,18.8956108093262,18.8955764770508,18.8955402374268,18.8955039978027,18.8954677581787,18.8954315185547,18.8953952789307,18.8953590393066,18.8953227996826,18.8952865600586,18.8952503204346,18.8952159881592,18.8951797485352,18.8951435089111,18.8951072692871,18.8950710296631,18.8950347900391,18.894998550415,18.894962310791,18.894926071167,18.894889831543,18.8948554992676,18.8948192596436,18.8947830200195,18.8947467803955,18.8947105407715,18.8946743011475,18.8946380615234,18.8946018218994,18.8945655822754,18.8945293426514,18.894495010376,18.894458770752,18.8944225311279,18.8943862915039,18.8943500518799,18.8943138122559,18.8942775726318,18.8942413330078,18.8942050933838,18.8941688537598,18.8941345214844,18.8940982818604,18.8940620422363,18.8940258026123,18.8939895629883,18.8939533233643,18.8939170837402,18.8938808441162,18.8938446044922,18.8938102722168,18.8937740325928,18.8937377929688,18.8937015533447,18.8936653137207,18.8936290740967,18.8935928344727,18.8935565948486,18.8935203552246,18.8934841156006,18.8934497833252,18.8934135437012,18.8933773040771,18.8933410644531,18.8933048248291,18.8932685852051,18.8932323455811,18.893196105957,18.893159866333,0,0,0,0,0,0,0,0,0,0,0,0,0,0,0,0,0,0,0,0,0,0,0,0,0,0,0,0,0,0,0,0,0,0,0,0,0,0,0,0,0,18.8916530609131,18.8916168212891,18.891580581665,18.891544342041,18.891508102417,18.891471862793,18.8914356231689
18.9835453033447,17.0374145507812,17.0373821258545,18.9834365844727,18.9834003448486,18.9833641052246,18.9833278656006,18.9832916259766,18.9832553863525,18.9832191467285,18.9831829071045,18.9831466674805,18.9831104278564,18.9830741882324,17.0369911193848,17.0369606018066,17.0369300842285,18.9829292297363,18.9828929901123,18.9828567504883,18.9828205108643,18.9827842712402,18.9827480316162,18.9827117919922,18.9826755523682,18.9826393127441,18.9826030731201,18.9825668334961,17.0365352630615,17.0365047454834,18.7658653259277,18.839054107666,18.839017868042,18.838981628418,18.8389453887939,18.8389091491699,18.8388729095459,18.8388385772705,18.8388023376465,18.8387660980225,18.8387298583984,17.0361175537109,17.0360851287842,18.838623046875,18.838586807251,18.8385524749756,18.8385162353516,18.8384799957275,18.8384456634521,18.8384094238281,18.8383731842041,18.8383369445801,18.8383026123047,18.8382663726807,18.8382301330566,17.0356597900391,17.0356273651123,18.8381233215332,18.8380870819092,18.8380508422852,18.8380165100098,18.7647571563721,18.764720916748,18.8982410430908,18.8982048034668,18.8981685638428,18.8981342315674,18.8980979919434,17.0352363586426,17.0352039337158,18.8979892730713,18.8979530334473,18.8979167938232,18.8978805541992,18.8978443145752,18.8978080749512,18.8977737426758,18.8977375030518,18.5734939575195,18.188814163208,17.8041381835938,17.0651664733887,17.0347843170166,17.0347518920898,18.8974838256836,18.8974475860596,18.8974113464355,18.8973770141602,18.8973407745361,18.8973045349121,18.8972682952881,18.8972320556641,18.89719581604,18.897159576416,18.897123336792,18.897087097168,18.8970508575439,18.8970165252686,18.8969802856445,18.8969440460205,18.8969078063965,18.8968715667725,18.8968353271484,18.8967990875244,18.8967628479004,18.8967266082764,18.8966903686523,18.8966541290283,18.8966197967529,18.8965835571289,18.8965473175049,18.8965110778809,18.8964748382568,18.8964385986328,18.8964023590088,18.8963661193848,18.8963298797607,18.8962936401367,18.8962593078613,18.8962230682373,18.8961868286133,18.8961505889893,18.8961143493652,18.8960781097412,18.8960418701172,18.8960056304932,18.8959693908691,18.8959331512451,18.8958988189697,18.8958625793457,18.8958263397217,18.8957901000977,18.8957538604736,18.8957176208496,18.8956813812256,18.8956451416016,18.8956089019775,18.8955726623535,18.8955383300781,18.8955020904541,18.8954658508301,18.8954296112061,18.895393371582,18.895357131958,18.895320892334,18.89528465271,18.8952484130859,18.8952121734619,18.8951778411865,18.8951416015625,18.8951053619385,18.8950691223145,18.8950328826904,18.8949966430664,18.8949604034424,18.8949241638184,18.8948879241943,18.8948535919189,18.8948173522949,18.8947811126709,18.8947448730469,18.8947086334229,18.8946723937988,18.8946361541748,18.8946018218994,18.8945655822754,18.8945293426514,18.8944931030273,18.8944568634033,18.8944206237793,18.8943843841553,18.8943481445312,18.8943138122559,18.8942775726318,18.8942413330078,18.8942050933838,18.8941688537598,18.8941326141357,18.8940963745117,18.8940620422363,18.8940258026123,18.8939895629883,18.8939533233643,18.8939170837402,18.8938808441162,18.8938446044922,18.8938083648682,18.8937740325928,18.8937377929688,18.8937015533447,18.8936653137207,18.8936290740967,18.8935928344727,18.8935585021973,18.8935222625732,18.8934860229492,18.8934497833252,18.8934135437012,18.8933773040771,18.8933410644531,18.8933048248291
18.9854278564453,17.0391044616699,17.0390701293945,18.9853191375732,18.9852828979492,18.9852466583252,18.9852104187012,18.9851741790771,18.9851379394531,18.9851016998291,18.9850654602051,18.9850292205811,18.984992980957,18.9849548339844,17.0386791229248,17.0386486053467,17.0386199951172,18.9848098754883,18.9847736358643,18.9847373962402,18.9847011566162,18.9846649169922,18.9846286773682,18.9845924377441,18.9845561981201,18.9845199584961,18.9844837188721,18.984447479248,17.0382232666016,17.0381946563721,18.7677249908447,18.8409214019775,18.8408851623535,18.8408489227295,18.8408126831055,18.8407764434814,18.8407402038574,18.840705871582,18.840669631958,18.840633392334,18.84059715271,17.037805557251,17.0377731323242,18.8404903411865,18.8404560089111,18.8404197692871,18.8403835296631,18.8403472900391,18.8403129577637,18.8402767181396,18.8402404785156,18.8402042388916,18.8401699066162,18.8401336669922,18.8400974273682,17.0373497009277,17.0373153686523,18.8399906158447,18.8399543762207,18.8399181365967,18.8398838043213,18.7666168212891,18.766580581665,18.9001140594482,18.9000778198242,18.9000434875488,18.9000072479248,18.8999710083008,17.0369243621826,17.0368938446045,18.8998622894287,18.8998260498047,18.8997898101807,18.8997535705566,18.8997173309326,18.8996810913086,18.8996467590332,18.8996105194092,18.5753345489502,18.190616607666,17.4819087982178,17.0647373199463,17.0364742279053,17.0364398956299,18.899356842041,18.899320602417,18.899284362793,18.8992500305176,18.8992137908936,18.8991775512695,18.8991413116455,18.8991050720215,18.8990688323975,18.8990325927734,18.8989963531494,18.8989601135254,18.8989238739014,18.8988876342773,18.898853302002,18.8988170623779,18.8987808227539,18.8987445831299,18.8987083435059,18.8986721038818,18.8986358642578,18.8985996246338,18.8985633850098,18.8985271453857,18.8984928131104,18.8984565734863,18.8984203338623,18.8983840942383,18.8983478546143,18.8983116149902,18.8982753753662,18.8982391357422,18.8982028961182,18.8981666564941,18.8981304168701,18.8980960845947,18.8980598449707,18.8980236053467,18.8979873657227,18.8979511260986,18.8979148864746,18.8978786468506,18.8978424072266,18.8978061676025,18.8977699279785,18.8977336883545,18.8976993560791,18.8976631164551,18.8976268768311,18.897590637207,18.897554397583,18.897518157959,18.897481918335,18.8974456787109,18.8974094390869,18.8973731994629,18.8973388671875,18.8973026275635,18.8972663879395,18.8972301483154,18.8971939086914,18.8971576690674,18.8971214294434,18.8970851898193,18.8970489501953,18.8970127105713,18.8969783782959,18.8969421386719,18.8969058990479,18.8968696594238,18.8968334197998,18.8967971801758,18.8967609405518,18.8967247009277,18.8966903686523,18.8966541290283,18.8966178894043,18.8965816497803,18.8965454101562,18.8965091705322,18.8964729309082,18.8964366912842,18.8964023590088,18.8963661193848,18.8963298797607,18.8962936401367,18.8962574005127,18.8962211608887,18.8961849212646,18.8961486816406,18.8961143493652,18.8960781097412,18.8960418701172,18.8960056304932,18.8959693908691,18.8959331512451,18.8958969116211,18.8958625793457,18.8958263397217,18.8957901000977,18.8957538604736,18.8957176208496,18.8956813812256,18.8956451416016,18.8956089019775,18.8955745697021,18.8955383300781,18.8955020904541,18.8954658508301,18.8954296112061,18.895393371582,18.8953590393066,18.8953227996826,18.8952865600586,18.8952503204346,18.8952140808105,18.8951778411865
18.9873085021973,17.04079246521,17.0407600402832,18.9871997833252,18.9871635437012,18.9871273040771,18.9870910644531,18.9870548248291,18.9870185852051,18.9869823455811,18.986946105957,18.986909866333,18.986873626709,18.986837387085,17.0403690338135,17.0403385162354,17.0403079986572,18.9866924285889,18.9866561889648,18.9866199493408,18.9865837097168,18.9865474700928,18.9865112304688,18.9864749908447,18.9864387512207,18.9864025115967,18.9863662719727,18.9863300323486,17.0399131774902,17.0398826599121,18.7695865631104,18.8427906036377,18.842752456665,18.842716217041,18.842679977417,18.842643737793,18.8426094055176,18.8425731658936,18.8425369262695,18.8425006866455,18.8424663543701,17.0394954681396,17.0394630432129,18.842357635498,18.8423233032227,18.8422870635986,18.8422508239746,18.8422164916992,18.8421802520752,18.8421440124512,18.8421077728271,18.8420734405518,18.8420372009277,18.8420009613037,18.8419647216797,17.0390377044678,17.0390033721924,18.8418579101562,18.8418216705322,18.8417873382568,18.8417510986328,18.7684783935547,18.768440246582,18.9019889831543,18.9019527435303,18.9019165039062,18.9018802642822,18.9018440246582,17.0386142730713,17.0385818481445,18.9017353057861,18.9016990661621,18.9016628265381,18.9016284942627,18.9015922546387,18.9015560150146,18.9015197753906,18.9014835357666,18.5771751403809,18.1924209594727,17.4814224243164,17.0643100738525,17.0381622314453,17.0381278991699,18.9012298583984,18.901195526123,18.901159286499,18.901123046875,18.901086807251,18.901050567627,18.9010143280029,18.9009780883789,18.9009418487549,18.9009056091309,18.9008693695068,18.9008331298828,18.9007987976074,18.9007625579834,18.9007263183594,18.9006900787354,18.9006538391113,18.9006175994873,18.9005813598633,18.9005451202393,18.9005088806152,18.9004726409912,18.9004364013672,18.9004020690918,18.9003658294678,18.9003295898438,18.9002933502197,18.9002571105957,18.9002208709717,18.9001846313477,18.9001483917236,18.9001121520996,18.9000759124756,18.9000396728516,18.9000053405762,18.8999691009521,18.8999328613281,18.8998966217041,18.8998603820801,18.8998241424561,18.899787902832,18.899751663208,18.899715423584,18.89967918396,18.8996429443359,18.8996086120605,18.8995723724365,18.8995361328125,18.8994998931885,18.8994636535645,18.8994274139404,18.8993911743164,18.8993549346924,18.8993186950684,18.8992824554443,18.8992481231689,18.8992118835449,18.8991756439209,18.8991394042969,18.8991031646729,18.8990669250488,18.8990306854248,18.8989944458008,18.8989582061768,18.8989219665527,18.8988857269287,18.8988513946533,18.8988151550293,18.8987789154053,18.8987426757812,18.8987064361572,18.8986701965332,18.8986339569092,18.8985977172852,18.8985633850098,18.8985271453857,18.8984909057617,18.8984546661377,18.8984184265137,18.8983821868896,18.8983459472656,18.8983097076416,18.8982753753662,18.8982391357422,18.8982028961182,18.8981666564941,18.8981304168701,18.8980941772461,18.8980579376221,18.898021697998,18.8979873657227,18.8979511260986,18.8979148864746,18.8978786468506,18.8978424072266,18.8978061676025,18.8977699279785,18.8977336883545,18.8976993560791,18.8976631164551,18.8976268768311,18.897590637207,18.897554397583,18.897518157959,18.8974838256836,18.8974475860596,18.8974113464355,18.8973751068115,18.8973388671875,18.8973026275635,18.8972663879395,18.8972320556641,18.89719581604,18.897159576416,18.897123336792,18.897087097168,18.8970508575439
18.9891910552979,17.0424823760986,17.0424499511719,18.9890823364258,18.9890460968018,18.9890098571777,18.9889736175537,18.9889373779297,18.9889011383057,18.9888648986816,18.9888286590576,18.9887924194336,18.9887561798096,18.9887199401855,17.0420589447021,17.042028427124,17.0419979095459,18.9885749816895,18.9885387420654,18.9885025024414,18.9884662628174,18.9884300231934,18.9883937835693,18.9883575439453,18.9883213043213,18.9882850646973,18.9882488250732,18.9882125854492,17.0416030883789,17.0415725708008,18.7714462280273,18.8446578979492,18.8446197509766,18.8445835113525,18.8445491790771,18.8445129394531,18.8444766998291,18.8444404602051,18.8444061279297,18.8443698883057,18.8443336486816,17.0411853790283,17.0411510467529,18.8442268371582,18.8441905975342,18.8441543579102,18.8441200256348,18.8440837860107,18.8440475463867,18.8440113067627,18.8439769744873,18.8439407348633,18.8439044952393,18.8438682556152,18.8438339233398,17.0407276153564,17.0406932830811,18.8437252044678,18.8436908721924,18.8436546325684,18.8436183929443,18.7703380584717,18.7703018188477,18.9038619995117,18.9038257598877,18.9037895202637,18.9037532806396,18.9037170410156,17.0403022766113,17.0402717590332,18.9036102294922,18.9035739898682,18.9035377502441,18.9035015106201,18.9034652709961,18.9034290313721,18.903392791748,18.903356552124,18.5790176391602,18.1942234039307,17.4809379577637,17.0638809204102,17.039852142334,17.0398178100586,18.9031047821045,18.9030685424805,18.9030323028564,18.9029960632324,18.9029598236084,18.9029235839844,18.9028873443604,18.9028511047363,18.9028167724609,18.9027805328369,18.9027442932129,18.9027080535889,18.9026718139648,18.9026355743408,18.9025993347168,18.9025630950928,18.9025268554688,18.9024906158447,18.9024543762207,18.9024181365967,18.9023838043213,18.9023475646973,18.9023113250732,18.9022750854492,18.9022388458252,18.9022026062012,18.9021663665771,18.9021301269531,18.9020938873291,18.9020576477051,18.9020214080811,18.9019870758057,18.9019508361816,18.9019145965576,18.9018783569336,18.9018421173096,18.9018058776855,18.9017696380615,18.9017333984375,18.9016971588135,18.9016609191895,18.9016246795654,18.90159034729,18.901554107666,18.901517868042,18.901481628418,18.9014453887939,18.9014091491699,18.9013729095459,18.9013366699219,18.9013004302979,18.9012641906738,18.9012279510498,18.9011936187744,18.9011573791504,18.9011211395264,18.9010848999023,18.9010486602783,18.9010124206543,18.9009761810303,18.9009399414062,18.9009037017822,18.9008674621582,18.9008331298828,18.9007968902588,18.9007606506348,18.9007244110107,18.9006881713867,18.9006519317627,18.9006156921387,18.9005794525146,18.9005432128906,18.9005069732666,18.9004726409912,18.9004364013672,18.9004001617432,18.9003639221191,18.9003276824951,18.9002914428711,18.9002552032471,18.900218963623,18.9001846313477,18.9001483917236,18.9001121520996,18.9000759124756,18.9000396728516,18.9000034332275,18.8999671936035,18.8999309539795,18.8998966217041,18.8998603820801,18.8998241424561,18.899787902832,18.899751663208,18.899715423584,18.89967918396,18.8996429443359,18.8996086120605,18.8995723724365,18.8995361328125,18.8994998931885,18.8994636535645,18.8994274139404,18.899393081665,18.899356842041,18.899320602417,18.899284362793,18.8992481231689,18.8992118835449,18.8991775512695,18.8991413116455,18.8991050720215,18.8990688323975,18.8990325927734,18.8989963531494,18.8989601135254,18.8989238739014
18.9910755157471,17.0441722869873,17.0441398620605,18.990966796875,18.990930557251,18.990894317627,18.9908580780029,18.9908218383789,18.9907855987549,18.9907474517822,18.9907112121582,18.9906749725342,18.9906387329102,18.9906024932861,17.0437488555908,17.0437183380127,17.0436878204346,18.99045753479,18.990421295166,18.990385055542,18.990348815918,18.9903125762939,18.9902763366699,18.9902400970459,18.9902038574219,18.9901676177979,18.9901313781738,18.9900951385498,17.0432929992676,17.0432624816895,18.773307800293,18.8465270996094,18.8464889526367,18.8464527130127,18.8464164733887,18.8463802337646,18.8463459014893,18.8463096618652,18.8462734222412,18.8462371826172,18.8462028503418,17.042875289917,17.0428409576416,18.8460941314697,18.8460597991943,18.8460235595703,18.8459873199463,18.8459510803223,18.8459167480469,18.8458805084229,18.8458442687988,18.8458099365234,18.8457736968994,18.8457374572754,18.8457012176514,17.0424175262451,17.0423831939697,18.8455944061279,18.8455581665039,18.8455238342285,18.8454875946045,18.7721996307373,18.7721614837646,18.9057369232178,18.9057006835938,18.9056644439697,18.9056282043457,18.9055919647217,17.0419921875,17.0419616699219,18.9054832458496,18.9054470062256,18.9054126739502,18.9053764343262,18.9053401947021,18.9053039550781,18.9052677154541,18.9052314758301,18.5808582305908,18.1960277557373,17.4804515838623,17.0634517669678,17.041540145874,17.0415077209473,18.9049777984619,18.9049434661865,18.9049072265625,18.9048709869385,18.9048347473145,18.9047985076904,18.9047622680664,18.9047260284424,18.9046897888184,18.9046535491943,18.9046173095703,18.9045810699463,18.9045448303223,18.9045104980469,18.9044742584229,18.9044380187988,18.9044017791748,18.9043655395508,18.9043292999268,18.9042930603027,18.9042568206787,18.9042205810547,18.9041843414307,18.9041481018066,18.9041118621826,18.9040775299072,18.9040412902832,18.9040050506592,18.9039688110352,18.9039325714111,18.9038963317871,18.9038600921631,18.9038238525391,18.903787612915,18.903751373291,18.903715133667,18.903678894043,18.9036445617676,18.9036083221436,18.9035720825195,18.9035358428955,18.9034996032715,18.9034633636475,18.9034271240234,18.9033908843994,18.9033546447754,18.9033184051514,18.9032821655273,18.903247833252,18.9032115936279,18.9031753540039,18.9031391143799,18.9031028747559,18.9030666351318,18.9030303955078,18.9029941558838,18.9029579162598,18.9029216766357,18.9028854370117,18.9028511047363,18.9028148651123,18.9027786254883,18.9027423858643,18.9027061462402,18.9026699066162,18.9026336669922,18.9025974273682,18.9025611877441,18.9025249481201,18.9024887084961,18.9024543762207,18.9024181365967,18.9023818969727,18.9023456573486,18.9023094177246,18.9022731781006,18.9022369384766,18.9022006988525,18.9021663665771,18.9021301269531,18.9020938873291,18.9020576477051,18.9020214080811,18.901985168457,18.901948928833,18.901912689209,18.901876449585,18.9018421173096,18.9018058776855,18.9017696380615,18.9017333984375,18.9016971588135,18.9016609191895,18.9016246795654,18.90159034729,18.901554107666,18.901517868042,18.901481628418,18.9014453887939,18.9014091491699,18.9013748168945,18.9013385772705,18.9013023376465,18.9012660980225,18.9012298583984,18.9011936187744,18.9011573791504,18.901123046875,18.901086807251,18.901050567627,18.9010143280029,18.9009780883789,18.9009418487549,18.9009056091309,18.9008712768555,18.9008350372314,18.9007987976074
18.9929580688477,17.045862197876,17.0458297729492,18.9928493499756,18.9928131103516,18.9927768707275,18.9927406311035,18.9927043914795,18.9926681518555,18.9926319122314,18.9925956726074,18.9925594329834,18.9925231933594,18.9924869537354,17.0454387664795,17.0454082489014,17.0453777313232,18.9923419952393,18.9923057556152,18.9922695159912,18.9922332763672,18.9921970367432,18.9921588897705,18.9921226501465,18.9920864105225,18.9920501708984,18.9920139312744,18.9919776916504,17.0449829101562,17.0449523925781,18.7751693725586,18.8483943939209,18.8483581542969,18.8483219146729,18.8482856750488,18.8482494354248,18.8482151031494,18.8481788635254,18.8481426239014,18.8481063842773,18.848072052002,17.0445652008057,17.0445308685303,18.8479633331299,18.8479290008545,18.8478927612305,18.8478565216064,18.8478202819824,18.847785949707,18.847749710083,18.847713470459,18.847677230835,18.8476428985596,18.8476066589355,18.8475704193115,17.0441074371338,17.0440731048584,18.8474636077881,18.8474273681641,18.84739112854,18.8473567962646,18.7740612030029,18.7740230560303,18.9076118469238,18.9075756072998,18.9075393676758,18.9075031280518,18.9074668884277,17.0436820983887,17.0436515808105,18.9073581695557,18.9073219299316,18.9072856903076,18.9072494506836,18.9072151184082,18.9071788787842,18.9071426391602,18.9071063995361,18.5827007293701,18.1978321075439,17.4799709320068,17.0630226135254,17.0432300567627,17.0431957244873,18.906852722168,18.9068164825439,18.9067802429199,18.9067459106445,18.9067096710205,18.9066734313965,18.9066371917725,18.9066009521484,18.9065647125244,18.9065284729004,18.9064922332764,18.9064559936523,18.9064197540283,18.9063835144043,18.9063472747803,18.9063110351562,18.9062767028809,18.9062404632568,18.9062042236328,18.9061679840088,18.9061317443848,18.9060955047607,18.9060592651367,18.9060230255127,18.9059867858887,18.9059505462646,18.9059143066406,18.9058780670166,18.9058437347412,18.9058074951172,18.9057712554932,18.9057350158691,18.9056987762451,18.9056625366211,18.9056262969971,18.905590057373,18.905553817749,18.905517578125,18.905481338501,18.905445098877,18.9054107666016,18.9053745269775,18.9053382873535,18.9053020477295,18.9052658081055,18.9052295684814,18.9051933288574,18.9051570892334,18.9051208496094,18.9050846099854,18.9050483703613,18.9050121307373,18.9049777984619,18.9049415588379,18.9049053192139,18.9048690795898,18.9048328399658,18.9047966003418,18.9047603607178,18.9047241210938,18.9046878814697,18.9046516418457,18.9046154022217,18.9045810699463,18.9045448303223,18.9045085906982,18.9044723510742,18.9044361114502,18.9043998718262,18.9043636322021,18.9043273925781,18.9042911529541,18.9042549133301,18.9042205810547,18.9041843414307,18.9041481018066,18.9041118621826,18.9040756225586,18.9040393829346,18.9040031433105,18.9039669036865,18.9039306640625,18.9038963317871,18.9038600921631,18.9038238525391,18.903787612915,18.903751373291,18.903715133667,18.903678894043,18.9036426544189,18.9036083221436,18.9035720825195,18.9035358428955,18.9034996032715,18.9034633636475,18.9034271240234,18.903392791748,18.903356552124,18.9033203125,18.903284072876,18.903247833252,18.9032115936279,18.9031753540039,18.9031410217285,18.9031047821045,18.9030685424805,18.9030323028564,18.9029960632324,18.9029598236084,18.902925491333,18.902889251709,18.902853012085,18.9028167724609,18.9027805328369,18.9027442932129,18.9027080535889,18.9026718139648
18.9247016906738,17.0475540161133,17.0475196838379,18.9245929718018,18.9245567321777,18.9245204925537,18.9244842529297,18.9244480133057,18.9244117736816,18.9243774414062,18.9243412017822,18.9243049621582,18.9242687225342,18.9242324829102,17.0471286773682,17.04709815979,17.0470695495605,18.9240875244141,18.92405128479,18.924015045166,18.9239807128906,18.9239444732666,18.9239082336426,18.9238719940186,18.9238357543945,18.9237995147705,18.9237632751465,18.9237270355225,17.0466728210449,17.0466423034668,18.7770309448242,18.7769947052002,18.7769584655762,18.7769222259521,18.7768878936768,18.7768516540527,18.7768154144287,18.7767791748047,18.7767448425293,18.7767086029053,18.7766723632812,17.0462551116943,17.0462207794189,18.7765655517578,18.7765293121338,18.7764949798584,18.7764587402344,18.7764225006104,18.7763862609863,18.7763519287109,18.7763156890869,18.7762794494629,18.7762451171875,18.7762088775635,18.7761726379395,17.0457973480225,17.0457630157471,18.776065826416,18.776029586792,18.775993347168,18.7759590148926,18.7759227752686,18.7758846282959,18.9094867706299,18.9094505310059,18.9094142913818,18.9093780517578,18.9093418121338,17.0453720092773,17.0453414916992,18.9092330932617,18.9091968536377,18.9091606140137,18.9091243743896,18.9090900421143,18.9090538024902,18.9090175628662,18.9089813232422,18.5845432281494,18.1996364593506,17.479513168335,17.0625953674316,17.0449199676514,17.0448875427246,18.908727645874,18.90869140625,18.908655166626,18.908618927002,18.9085845947266,18.9085483551025,18.9085121154785,18.9084758758545,18.9084396362305,18.9084033966064,18.9083671569824,18.9083309173584,18.9082946777344,18.9082584381104,18.9082221984863,18.9081859588623,18.9081497192383,18.9081153869629,18.9080791473389,18.9080429077148,18.9080066680908,18.9079704284668,18.9079341888428,18.9078979492188,18.9078617095947,18.9078254699707,18.9077892303467,18.9077529907227,18.9077167510986,18.9076824188232,18.9076461791992,18.9076099395752,18.9075736999512,18.9075374603271,18.9075012207031,18.9074649810791,18.9074287414551,18.9073925018311,18.907356262207,18.907320022583,18.907283782959,18.9072494506836,18.9072132110596,18.9071769714355,18.9071407318115,18.9071044921875,18.9070682525635,18.9070320129395,18.9069957733154,18.9069595336914,18.9069232940674,18.9068870544434,18.9068508148193,18.9068145751953,18.9067802429199,18.9067440032959,18.9067077636719,18.9066715240479,18.9066352844238,18.9065990447998,18.9065628051758,18.9065265655518,18.9064903259277,18.9064540863037,18.9064178466797,18.9063816070557,18.9063472747803,18.9063110351562,18.9062747955322,18.9062385559082,18.9062023162842,18.9061660766602,18.9061298370361,18.9060935974121,18.9060573577881,18.9060211181641,18.9059867858887,18.9059505462646,18.9059143066406,18.9058780670166,18.9058418273926,18.9058055877686,18.9057693481445,18.9057331085205,18.9056987762451,18.9056625366211,18.9056262969971,18.905590057373,18.905553817749,18.905517578125,18.905481338501,18.9054470062256,18.9054107666016,18.9053745269775,18.9053382873535,18.9053020477295,18.9052658081055,18.9052314758301,18.9051952362061,18.905158996582,18.905122756958,18.905086517334,18.90505027771,18.9050140380859,18.9049797058105,18.9049434661865,18.9049072265625,18.9048709869385,18.9048347473145,18.9047985076904,18.9047622680664,18.904727935791,18.904691696167,18.904655456543,18.9046192169189,18.9045829772949,18.9045467376709
18.9265766143799,17.049243927002,17.0492115020752,18.9264698028564,18.9264335632324,18.9263973236084,18.9263610839844,18.9263248443604,18.9262886047363,18.9262542724609,18.9262180328369,18.9261817932129,18.9261455535889,18.9261093139648,17.0488204956055,17.0487899780273,17.0487594604492,18.9259643554688,18.9259281158447,18.9258937835693,18.9258575439453,18.9258213043213,18.9257850646973,18.9257488250732,18.9257125854492,18.9256763458252,18.9256401062012,18.9256038665771,17.0483627319336,17.0483341217041,18.7788944244385,18.7788581848145,18.7788219451904,18.778787612915,18.778751373291,18.778715133667,18.7786808013916,18.7786445617676,18.7786083221436,18.7785720825195,18.7785377502441,17.047945022583,17.0479125976562,18.7784290313721,18.7783946990967,18.7783584594727,18.7783222198486,18.7782878875732,18.7782516479492,18.7782154083252,18.7781791687012,18.7781429290771,18.7781066894531,18.7780723571777,18.7780361175537,17.0474872589111,17.0474529266357,18.7779273986816,18.7778911590576,18.7778549194336,18.7778205871582,18.7777843475342,18.7777481079102,18.9113616943359,18.9113254547119,18.9112892150879,18.9112529754639,18.9112167358398,17.0470638275146,17.0470333099365,18.9111080169678,18.9110736846924,18.9110374450684,18.9110012054443,18.9109649658203,18.9109287261963,18.9108924865723,18.9108562469482,18.5863876342773,18.2014427185059,17.4790573120117,17.0621662139893,17.0466117858887,17.0465774536133,18.9106025695801,18.9105682373047,18.9105319976807,18.9104957580566,18.9104595184326,18.9104232788086,18.9103870391846,18.9103507995605,18.9103145599365,18.9102783203125,18.9102420806885,18.9102058410645,18.9101696014404,18.9101333618164,18.910099029541,18.910062789917,18.910026550293,18.9099903106689,18.9099540710449,18.9099178314209,18.9098815917969,18.9098453521729,18.9098091125488,18.9097728729248,18.9097366333008,18.9097003936768,18.9096641540527,18.9096298217773,18.9095935821533,18.9095573425293,18.9095211029053,18.9094848632812,18.9094486236572,18.9094123840332,18.9093761444092,18.9093399047852,18.9093036651611,18.9092674255371,18.9092311859131,18.9091949462891,18.9091606140137,18.9091243743896,18.9090881347656,18.9090518951416,18.9090156555176,18.9089794158936,18.9089431762695,18.9089069366455,18.9088706970215,18.9088344573975,18.9087982177734,18.9087619781494,18.9087257385254,18.90869140625,18.908655166626,18.908618927002,18.9085826873779,18.9085464477539,18.9085102081299,18.9084739685059,18.9084377288818,18.9084014892578,18.9083652496338,18.9083290100098,18.9082927703857,18.9082565307617,18.9082221984863,18.9081859588623,18.9081497192383,18.9081134796143,18.9080772399902,18.9080410003662,18.9080047607422,18.9079685211182,18.9079322814941,18.9078960418701,18.9078617095947,18.9078254699707,18.9077892303467,18.9077529907227,18.9077167510986,18.9076805114746,18.9076442718506,18.9076099395752,18.9075736999512,18.9075374603271,18.9075012207031,18.9074649810791,18.9074287414551,18.9073925018311,18.9073581695557,18.9073219299316,18.9072856903076,18.9072494506836,18.9072132110596,18.9071769714355,18.9071407318115,18.9071063995361,18.9070701599121,18.9070339202881,18.9069976806641,18.90696144104,18.906925201416,18.906888961792,18.9068546295166,18.9068183898926,18.9067821502686,18.9067459106445,18.9067096710205,18.9066734313965,18.9066371917725,18.9066028594971,18.906566619873,18.906530380249,18.906494140625,18.906457901001,18.906421661377
18.9284534454346,17.0509357452393,17.0509033203125,18.9283466339111,18.9283103942871,18.9282741546631,18.9282379150391,18.928201675415,18.928165435791,18.9281311035156,18.9280948638916,18.9280586242676,18.9280223846436,18.9279861450195,17.0505104064941,17.0504817962646,17.0504512786865,18.9278430938721,18.927806854248,18.927770614624,18.927734375,18.927698135376,18.927661895752,18.9276256561279,18.9275894165039,18.9275531768799,18.9275169372559,18.9274806976318,17.0500545501709,17.0500240325928,18.7807579040527,18.7807235717773,18.7806873321533,18.7806510925293,18.7806167602539,18.7805805206299,18.7805442810059,18.7805080413818,18.7804737091064,18.7804374694824,18.7804012298584,17.0496368408203,17.0496025085449,18.7802925109863,18.7802581787109,18.7802219390869,18.7801856994629,18.7801494598389,18.7801132202148,18.7800769805908,18.7800407409668,18.7800064086914,18.7799701690674,18.7799339294434,18.7798976898193,17.0491771697998,17.049144744873,18.7797889709473,18.7797546386719,18.7797183990479,18.7796821594238,18.7796459197998,18.7796096801758,18.913236618042,18.9132022857666,18.9131660461426,18.9131298065186,18.9130935668945,17.0487537384033,17.0487232208252,18.9129848480225,18.9129486083984,18.9129123687744,18.9128761291504,18.9128398895264,18.9128036499023,18.9127674102783,18.9127311706543,18.5882301330566,18.2032470703125,17.4786014556885,17.0617370605469,17.0483016967773,17.048267364502,18.9124794006348,18.9124431610107,18.9124069213867,18.9123706817627,18.9123344421387,18.9122982025146,18.9122619628906,18.9122257232666,18.9121894836426,18.9121551513672,18.9121189117432,18.9120826721191,18.9120464324951,18.9120101928711,18.9119739532471,18.911937713623,18.911901473999,18.911865234375,18.911828994751,18.911792755127,18.9117565155029,18.9117202758789,18.9116840362549,18.9116497039795,18.9116134643555,18.9115772247314,18.9115409851074,18.9115047454834,18.9114685058594,18.9114322662354,18.9113960266113,18.9113597869873,18.9113235473633,18.9112873077393,18.9112510681152,18.9112148284912,18.9111785888672,18.9111442565918,18.9111080169678,18.9110717773438,18.9110355377197,18.9109992980957,18.9109630584717,18.9109268188477,18.9108905792236,18.9108543395996,18.9108180999756,18.9107818603516,18.9107456207275,18.9107093811035,18.9106750488281,18.9106388092041,18.9106025695801,18.9105663299561,18.910530090332,18.910493850708,18.910457611084,18.91042137146,18.9103851318359,18.9103488922119,18.9103126525879,18.9102764129639,18.9102401733398,18.9102039337158,18.9101696014404,18.9101333618164,18.9100971221924,18.9100608825684,18.9100246429443,18.9099884033203,18.9099521636963,18.9099159240723,18.9098796844482,18.9098434448242,18.9098091125488,18.9097728729248,18.9097366333008,18.9097003936768,18.9096641540527,18.9096279144287,18.9095916748047,18.9095573425293,18.9095211029053,18.9094848632812,18.9094486236572,18.9094123840332,18.9093761444092,18.9093399047852,18.9093055725098,18.9092693328857,18.9092330932617,18.9091968536377,18.9091606140137,18.9091243743896,18.9090881347656,18.9090538024902,18.9090175628662,18.9089813232422,18.9089450836182,18.9089088439941,18.9088726043701,18.9088363647461,18.9088020324707,18.9087657928467,18.9087295532227,18.9086933135986,18.9086570739746,18.9086208343506,18.9085845947266,18.9085502624512,18.9085140228271,18.9084777832031,18.9084415435791,18.9084053039551,18.9083690643311,18.908332824707,18.908296585083
18.5704116821289,17.0526275634766,17.0525951385498,18.5818557739258,18.58567237854,18.5894927978516,18.5933132171631,18.5971355438232,18.600959777832,18.6047859191895,18.6086139678955,18.6124420166016,18.6162738800049,18.6201057434082,17.0522022247314,17.0521717071533,17.0521430969238,18.6354484558105,18.639289855957,18.6431312561035,18.6469745635986,18.6508178710938,18.6546649932861,18.6585121154785,18.6623630523682,18.6662139892578,18.6700668334961,18.6739196777344,17.0517463684082,17.0517158508301,18.6854934692383,18.6893539428711,18.6932163238525,18.697078704834,18.7009429931641,18.7048091888428,18.7086772918701,18.7125473022461,18.7164173126221,18.7202911376953,18.7241649627686,17.0513286590576,17.0512943267822,18.7357959747314,18.7396774291992,18.743558883667,18.7474422454834,18.7513275146484,18.7552146911621,18.7591037750244,18.7629947662354,18.7668857574463,18.7707786560059,18.7746734619141,18.7785701751709,17.0508689880371,17.0508346557617,18.7816524505615,18.7816162109375,18.7815799713135,18.7815437316895,18.7815074920654,18.78147315979,18.8137130737305,18.817626953125,18.8215408325195,18.8254566192627,18.8293743133545,17.0504455566406,17.0504150390625,18.8411388397217,18.8450622558594,18.8489894866943,18.8529167175293,18.8568458557129,18.8607769012451,18.8645782470703,18.8683700561523,18.5900745391846,18.2050533294678,17.4781455993652,17.0613079071045,17.0499935150146,17.0499591827393,18.9143562316895,18.9143199920654,18.9142837524414,18.9142475128174,18.9142112731934,18.9141750335693,18.9141387939453,18.9141025543213,18.9140663146973,18.9140300750732,18.9139938354492,18.9139575958252,18.9139213562012,18.9138851165771,18.9138488769531,18.9138145446777,18.9137783050537,18.9137420654297,18.9137058258057,18.9136695861816,18.9136333465576,18.9135971069336,18.9135608673096,18.9135246276855,18.9134883880615,18.9134521484375,18.9134159088135,18.9133796691895,18.9133434295654,18.9133071899414,18.913272857666,18.913236618042,18.913200378418,18.9131641387939,18.9131278991699,18.9130916595459,18.9130554199219,18.9130191802979,18.9129829406738,18.9129467010498,18.9129104614258,18.9128742218018,18.9128379821777,18.9128017425537,18.9127674102783,18.9127311706543,18.9126949310303,18.9126586914062,18.9126224517822,18.9125862121582,18.9125499725342,18.9125137329102,18.9124774932861,18.9124412536621,18.9124050140381,18.9123687744141,18.91233253479,18.912296295166,18.9122619628906,18.9122257232666,18.9121894836426,18.9121532440186,18.9121170043945,18.9120807647705,18.9120445251465,18.9120082855225,18.9119720458984,18.9119358062744,18.9118995666504,18.9118633270264,18.9118270874023,18.911792755127,18.9117565155029,18.9117202758789,18.9116840362549,18.9116477966309,18.9116115570068,18.9115753173828,18.9115409851074,18.9115047454834,18.9114685058594,18.9114322662354,18.9113960266113,18.9113597869873,18.9113235473633,18.9112892150879,18.9112529754639,18.9112167358398,18.9111804962158,18.9111442565918,18.9111080169678,18.9110717773438,18.9110374450684,18.9110012054443,18.9109649658203,18.9109287261963,18.9108924865723,18.9108562469482,18.9108200073242,18.9107856750488,18.9107494354248,18.9107131958008,18.9106769561768,18.9106407165527,18.9106044769287,18.9105682373047,18.9105319976807,18.9104976654053,18.9104614257812,18.9104251861572,18.9103889465332,18.9103527069092,18.9103164672852,18.9102802276611,18.9102439880371,18.9102077484131,18.9101715087891
17.0331439971924,17.033109664917,17.0330772399902,17.0330448150635,17.0330123901367,17.03297996521,17.0329475402832,17.0329151153564,17.0328826904297,17.0328502655029,17.0328178405762,17.0327854156494,17.0327529907227,17.0327205657959,17.0326881408691,17.0326557159424,17.032621383667,17.0325889587402,17.0325565338135,17.0325241088867,17.03249168396,17.0324592590332,17.0324268341064,17.0323944091797,17.0323619842529,17.0323295593262,17.0322971343994,17.0322647094727,17.0322322845459,17.0321998596191,17.0321674346924,17.032133102417,17.0321006774902,17.0320682525635,17.0320358276367,17.03200340271,17.0319709777832,17.0319385528564,17.0319061279297,17.0318737030029,17.0318412780762,17.0318088531494,17.0317764282227,17.0317440032959,17.0317115783691,17.0316791534424,17.0316467285156,17.0316143035889,17.0315818786621,17.0315494537354,17.0315170288086,17.0314846038818,17.0314521789551,17.0314197540283,17.0313873291016,17.0313549041748,17.0313205718994,17.0312881469727,17.0312557220459,17.0312232971191,17.0311908721924,17.0311584472656,17.0311260223389,17.0310935974121,17.0310611724854,17.0310287475586,17.0309963226318,17.0309638977051,17.0309314727783,17.0308990478516,17.0308666229248,17.030834197998,17.0308017730713,17.0307693481445,17.0307369232178,17.030704498291,17.0306720733643,17.0306396484375,17.0306072235107,17.030574798584,17.0305423736572,17.0305099487305,17.0304775238037,17.030445098877,17.0304126739502,18.9161949157715,18.9161586761475,18.9161243438721,18.916088104248,18.916051864624,18.916015625,18.915979385376,18.915943145752,18.9159069061279,18.9158706665039,18.9158344268799,18.9157981872559,18.9157619476318,18.9157257080078,18.9156894683838,18.9156532287598,18.9156169891357,18.9155826568604,18.9155464172363,18.9155101776123,18.9154739379883,18.9154376983643,18.9154014587402,18.9153652191162,18.9153289794922,18.9152927398682,18.9152565002441,18.9152202606201,18.9151840209961,18.9151477813721,18.915111541748,18.915075302124,18.9150390625,18.9150047302246,18.9149684906006,18.9149322509766,18.9148960113525,18.9148597717285,18.9148235321045,18.9147872924805,18.9147510528564,18.9147148132324,18.9146785736084,18.9146423339844,18.9146060943604,18.9145698547363,18.9145336151123,18.9144973754883,18.9144630432129,18.9144268035889,18.9143905639648,18.9143543243408,18.9143180847168,18.9142818450928,18.9142456054688,18.9142093658447,18.9141731262207,18.9141368865967,18.9141006469727,18.9140644073486,18.9140281677246,18.9139919281006,18.9139556884766,18.9139213562012,18.9138851165771,18.9138488769531,18.9138126373291,18.9137763977051,18.9137401580811,18.913703918457,18.913667678833,18.913631439209,18.9135971069336,18.9135608673096,18.9135246276855,18.9134883880615,18.9134521484375,18.9134159088135,18.9133796691895,18.9133434295654,18.91330909729,18.913272857666,18.913236618042,18.913200378418,18.9131641387939,18.9131278991699,18.9130916595459,18.9130573272705,18.9130210876465,18.9129848480225,18.9129486083984,18.9129123687744,18.9128761291504,18.9128398895264,18.9128036499023,18.912769317627,18.9127330780029,18.9126968383789,18.9126605987549,18.9126243591309,18.9125881195068,18.9125518798828,18.9125175476074,18.9124813079834,18.9124450683594,18.9124088287354,18.9123725891113,18.9123363494873,18.9123001098633,18.9122638702393,18.9122276306152,18.9121913909912,18.9121551513672,18.9121208190918,18.9120845794678,18.9120483398438
17.0348339080811,17.0347995758057,17.0347671508789,17.0347347259521,17.0347023010254,17.0346698760986,17.0346374511719,17.0346050262451,17.0345726013184,17.0345401763916,17.0345077514648,17.0344753265381,17.0344429016113,17.0344104766846,17.0343780517578,17.0343437194824,17.0343112945557,17.0342788696289,17.0342464447021,17.0342140197754,17.0341815948486,17.0341491699219,17.0341167449951,17.0340843200684,17.0340518951416,17.0340194702148,17.0339870452881,17.0339546203613,17.0339221954346,17.0338897705078,17.0338554382324,17.0338230133057,17.0337905883789,17.0337581634521,17.0337257385254,17.0336933135986,17.0336608886719,17.0336284637451,17.0335960388184,17.0335636138916,17.0335311889648,17.0334987640381,17.0334663391113,17.0334339141846,17.0334014892578,17.0333690643311,17.0333366394043,17.0333042144775,17.0332717895508,17.033239364624,17.0332069396973,17.0331745147705,17.0331401824951,17.0331077575684,17.0330753326416,17.0330429077148,17.0330104827881,17.0329780578613,17.0329456329346,17.0329132080078,17.0328807830811,17.0328483581543,17.0328159332275,17.0327835083008,17.032751083374,17.0327186584473,17.0326862335205,17.0326538085938,17.032621383667,17.0325889587402,17.0325565338135,17.0325241088867,17.03249168396,17.0324592590332,17.0324268341064,17.0323944091797,17.0323619842529,17.0323295593262,17.0322971343994,17.0322647094727,17.0322322845459,17.0321998596191,17.0321674346924,17.0321350097656,17.0321025848389,18.9180717468262,18.9180374145508,18.9180011749268,18.9179649353027,18.9179286956787,18.9178924560547,18.9178562164307,18.9178199768066,18.9177837371826,18.9177474975586,18.9177112579346,18.9176750183105,18.9176387786865,18.9176025390625,18.9175662994385,18.9175300598145,18.9174938201904,18.9174575805664,18.917423248291,18.917387008667,18.917350769043,18.9173145294189,18.9172782897949,18.9172420501709,18.9172058105469,18.9171695709229,18.9171333312988,18.9170970916748,18.9170608520508,18.9170246124268,18.9169883728027,18.9169521331787,18.9169158935547,18.9168796539307,18.9168453216553,18.9168090820312,18.9167728424072,18.9167366027832,18.9167003631592,18.9166641235352,18.9166278839111,18.9165916442871,18.9165554046631,18.9165191650391,18.916482925415,18.916446685791,18.916410446167,18.916374206543,18.9163379669189,18.9163017272949,18.9162673950195,18.9162311553955,18.9161949157715,18.9161586761475,18.9161224365234,18.9160861968994,18.9160499572754,18.9160137176514,18.9159774780273,18.9159412384033,18.9159049987793,18.9158687591553,18.9158325195312,18.9157962799072,18.9157600402832,18.9157238006592,18.9156894683838,18.9156532287598,18.9156169891357,18.9155807495117,18.9155445098877,18.9155082702637,18.9154720306396,18.9154357910156,18.9154014587402,18.9153652191162,18.9153289794922,18.9152927398682,18.9152565002441,18.9152202606201,18.9151840209961,18.9151477813721,18.9151134490967,18.9150772094727,18.9150409698486,18.9150047302246,18.9149684906006,18.9149322509766,18.9148960113525,18.9148616790771,18.9148254394531,18.9147891998291,18.9147529602051,18.9147167205811,18.914680480957,18.914644241333,18.914608001709,18.9145736694336,18.9145374298096,18.9145011901855,18.9144649505615,18.9144287109375,18.9143924713135,18.9143562316895,18.9143199920654,18.91428565979,18.914249420166,18.914213180542,18.914176940918,18.9141407012939,18.9141044616699,18.9140682220459,18.9140319824219,18.9139957427979,18.9139595031738,18.9139232635498
17.0365238189697,17.036491394043,17.0364589691162,17.0364265441895,17.0363922119141,17.0363597869873,17.0363273620605,17.0362949371338,17.036262512207,17.0362300872803,17.0361976623535,17.0361652374268,17.0361328125,17.0361003875732,17.0360679626465,17.0360355377197,17.036003112793,17.0359687805176,17.0359363555908,17.0359039306641,17.0358715057373,17.0358390808105,17.0358066558838,17.035774230957,17.0357418060303,17.0357093811035,17.0356769561768,17.03564453125,17.0356121063232,17.0355796813965,17.0355472564697,17.0355129241943,17.0354804992676,17.0354480743408,17.0354156494141,17.0353832244873,17.0353507995605,17.0353183746338,17.035285949707,17.0352535247803,17.0352210998535,17.0351886749268,17.03515625,17.0351238250732,17.0350914001465,17.0350589752197,17.035026550293,17.0349941253662,17.0349617004395,17.0349292755127,17.0348968505859,17.0348644256592,17.0348300933838,17.034797668457,17.0347652435303,17.0347328186035,17.0347003936768,17.03466796875,17.0346355438232,17.0346031188965,17.0345706939697,17.034538269043,17.0345058441162,17.0344734191895,17.0344409942627,17.0344085693359,17.0343761444092,17.0343437194824,17.0343112945557,17.0342788696289,17.0342464447021,17.0342140197754,17.0341815948486,17.0341491699219,17.0341167449951,17.0340843200684,17.0340518951416,17.0340194702148,17.0339870452881,17.0339546203613,17.0339221954346,17.0338897705078,17.0338573455811,17.0338249206543,17.0337924957275,18.9199504852295,18.9199142456055,18.9198780059814,18.9198417663574,18.9198055267334,18.9197692871094,18.9197330474854,18.9196968078613,18.9196605682373,18.9196243286133,18.9195880889893,18.9195518493652,18.9195156097412,18.9194793701172,18.9194431304932,18.9194087982178,18.9193725585938,18.9193363189697,18.9193000793457,18.9192638397217,18.9192276000977,18.9191913604736,18.9191551208496,18.9191188812256,18.9190826416016,18.9190464019775,18.9190101623535,18.9189739227295,18.9189376831055,18.9189014434814,18.9188652038574,18.9188289642334,18.918794631958,18.918758392334,18.91872215271,18.9186859130859,18.9186496734619,18.9186134338379,18.9185771942139,18.9185409545898,18.9185047149658,18.9184684753418,18.9184322357178,18.9183959960938,18.9183597564697,18.9183235168457,18.9182872772217,18.9182510375977,18.9182147979736,18.9181804656982,18.9181442260742,18.9181079864502,18.9180717468262,18.9180355072021,18.9179992675781,18.9179630279541,18.9179267883301,18.9178905487061,18.917854309082,18.917818069458,18.917781829834,18.91774559021,18.9177093505859,18.9176731109619,18.9176368713379,18.9176006317139,18.9175662994385,18.9175300598145,18.9174938201904,18.9174575805664,18.9174213409424,18.9173851013184,18.9173488616943,18.9173126220703,18.9172782897949,18.9172420501709,18.9172058105469,18.9171695709229,18.9171333312988,18.9170970916748,18.9170608520508,18.9170246124268,18.9169902801514,18.9169540405273,18.9169178009033,18.9168815612793,18.9168453216553,18.9168090820312,18.9167728424072,18.9167366027832,18.9167022705078,18.9166660308838,18.9166297912598,18.9165935516357,18.9165573120117,18.9165210723877,18.9164848327637,18.9164485931396,18.9164142608643,18.9163780212402,18.9163417816162,18.9163055419922,18.9162693023682,18.9162330627441,18.9161968231201,18.9161605834961,18.9161243438721,18.916088104248,18.916051864624,18.916015625,18.915979385376,18.915943145752,18.9159088134766,18.9158725738525,18.9158363342285,18.9158000946045
17.0382137298584,17.0381813049316,17.0381488800049,17.0381164550781,17.0380840301514,17.0380516052246,17.0380191802979,17.0379867553711,17.0379543304443,17.0379199981689,17.0378875732422,17.0378551483154,17.0378227233887,17.0377902984619,17.0377578735352,17.0377254486084,17.0376930236816,17.0376605987549,17.0376281738281,17.0375957489014,17.0375633239746,17.0375308990479,17.0374965667725,17.0374641418457,17.0374317169189,17.0373992919922,17.0373668670654,17.0373344421387,17.0373020172119,17.0372695922852,17.0372371673584,17.0372047424316,17.0371723175049,17.0371398925781,17.0371074676514,17.0370750427246,17.0370407104492,17.0370082855225,17.0369758605957,17.0369434356689,17.0369110107422,17.0368785858154,17.0368461608887,17.0368137359619,17.0367813110352,17.0367488861084,17.0367164611816,17.0366840362549,17.0366516113281,17.0366191864014,17.0365867614746,17.0365543365479,17.0365219116211,17.0364894866943,17.0364570617676,17.0364246368408,17.0363922119141,17.0363597869873,17.0363273620605,17.0362949371338,17.036262512207,17.0362300872803,17.0361957550049,17.0361633300781,17.0361309051514,17.0360984802246,17.0360660552979,17.0360336303711,17.0360012054443,17.0359687805176,17.0359363555908,17.0359039306641,17.0358715057373,17.0358390808105,17.0358066558838,17.035774230957,17.0357418060303,17.0357093811035,17.0356769561768,17.03564453125,17.0356121063232,17.0355796813965,17.0355472564697,17.035514831543,17.0354824066162,18.9218273162842,18.9217910766602,18.9217548370361,18.9217185974121,18.9216823577881,18.9216461181641,18.92160987854,18.921573638916,18.9215393066406,18.9215030670166,18.9214668273926,18.9214305877686,18.9213943481445,18.9213581085205,18.9213218688965,18.9212856292725,18.9212493896484,18.9212131500244,18.9211769104004,18.9211406707764,18.9211044311523,18.9210681915283,18.9210319519043,18.9209957122803,18.9209594726562,18.9209232330322,18.9208889007568,18.9208526611328,18.9208164215088,18.9207801818848,18.9207439422607,18.9207077026367,18.9206714630127,18.9206352233887,18.9205989837646,18.9205627441406,18.9205265045166,18.9204902648926,18.9204540252686,18.9204177856445,18.9203815460205,18.9203453063965,18.9203090667725,18.9202728271484,18.920238494873,18.920202255249,18.920166015625,18.920129776001,18.920093536377,18.9200572967529,18.9200210571289,18.9199848175049,18.9199485778809,18.9199123382568,18.9198760986328,18.9198398590088,18.9198036193848,18.9197673797607,18.9197311401367,18.9196949005127,18.9196586608887,18.9196224212646,18.9195880889893,18.9195518493652,18.9195156097412,18.9194793701172,18.9194431304932,18.9194068908691,18.9193706512451,18.9193344116211,18.9192981719971,18.919261932373,18.919225692749,18.9191913604736,18.9191551208496,18.9191188812256,18.9190826416016,18.9190464019775,18.9190101623535,18.9189739227295,18.9189376831055,18.9189033508301,18.9188671112061,18.918830871582,18.918794631958,18.918758392334,18.91872215271,18.9186859130859,18.9186496734619,18.9186153411865,18.9185791015625,18.9185428619385,18.9185066223145,18.9184703826904,18.9184341430664,18.9183979034424,18.9183616638184,18.918327331543,18.9182910919189,18.9182548522949,18.9182186126709,18.9181823730469,18.9181461334229,18.9181098937988,18.9180736541748,18.9180374145508,18.9180011749268,18.9179649353027,18.9179286956787,18.9178924560547,18.9178562164307,18.9178199768066,18.9177837371826,18.9177474975586,18.9177112579346,18.9176750183105
17.0399055480957,17.0398731231689,17.0398406982422,17.0398082733154,17.0397758483887,17.0397415161133,17.0397090911865,17.0396766662598,17.039644241333,17.0396118164062,17.0395793914795,17.0395469665527,17.039514541626,17.0394821166992,17.0394496917725,17.0394172668457,17.0393829345703,17.0393505096436,17.0393180847168,17.03928565979,17.0392532348633,17.0392208099365,17.0391883850098,17.039155960083,17.0391235351562,17.0390911102295,17.0390586853027,17.039026260376,17.0389919281006,17.0389595031738,17.0389270782471,17.0388946533203,17.0388622283936,17.0388298034668,17.03879737854,17.0387649536133,17.0387325286865,17.0387001037598,17.038667678833,17.0386352539062,17.0386028289795,17.0385704040527,17.038537979126,17.0385055541992,17.0384712219238,17.0384387969971,17.0384063720703,17.0383739471436,17.0383415222168,17.03830909729,17.0382766723633,17.0382442474365,17.0382118225098,17.038179397583,17.0381469726562,17.0381145477295,17.0380821228027,17.038049697876,17.0380172729492,17.0379848480225,17.0379524230957,17.0379199981689,17.0378875732422,17.0378551483154,17.0378227233887,17.0377902984619,17.0377578735352,17.0377254486084,17.0376930236816,17.0376605987549,17.0376281738281,17.0375957489014,17.0375633239746,17.0375308990479,17.0374984741211,17.0374660491943,17.0374336242676,17.0374011993408,17.0373687744141,17.0373363494873,17.0373039245605,17.0372714996338,17.037239074707,17.0372066497803,17.0371742248535,18.9237060546875,18.9236698150635,18.9236335754395,18.9235973358154,18.9235610961914,18.9235248565674,18.9234886169434,18.9234523773193,18.9234161376953,18.9233798980713,18.9233436584473,18.9233074188232,18.9232711791992,18.9232349395752,18.9231986999512,18.9231624603271,18.9231281280518,18.9230918884277,18.9230556488037,18.9230194091797,18.9229831695557,18.9229469299316,18.9229106903076,18.9228744506836,18.9228382110596,18.9228019714355,18.9227657318115,18.9227294921875,18.9226932525635,18.9226570129395,18.9226207733154,18.9225845336914,18.9225482940674,18.9225120544434,18.9224758148193,18.9224414825439,18.9224052429199,18.9223690032959,18.9223327636719,18.9222965240479,18.9222602844238,18.9222240447998,18.9221878051758,18.9221515655518,18.9221153259277,18.9220790863037,18.9220428466797,18.9220066070557,18.9219703674316,18.9219341278076,18.9218978881836,18.9218616485596,18.9218254089355,18.9217891693115,18.9217529296875,18.9217185974121,18.9216823577881,18.9216461181641,18.92160987854,18.921573638916,18.921537399292,18.921501159668,18.9214649200439,18.9214286804199,18.9213924407959,18.9213562011719,18.9213199615479,18.9212837219238,18.9212474822998,18.9212112426758,18.9211769104004,18.9211406707764,18.9211044311523,18.9210681915283,18.9210319519043,18.9209957122803,18.9209594726562,18.9209232330322,18.9208869934082,18.9208526611328,18.9208164215088,18.9207801818848,18.9207439422607,18.9207077026367,18.9206714630127,18.9206352233887,18.9205989837646,18.9205646514893,18.9205284118652,18.9204921722412,18.9204559326172,18.9204196929932,18.9203834533691,18.9203472137451,18.9203109741211,18.9202766418457,18.9202404022217,18.9202041625977,18.9201679229736,18.9201316833496,18.9200954437256,18.9200592041016,18.9200229644775,18.9199867248535,18.9199504852295,18.9199142456055,18.9198780059814,18.9198417663574,18.9198055267334,18.9197692871094,18.9197330474854,18.9196968078613,18.9196605682373,18.9196243286133,18.9195880889893,18.9195518493652
17.041597366333,17.0415649414062,17.0415325164795,17.0414981842041,17.0414657592773,17.0414333343506,17.0414009094238,17.0413684844971,17.0413360595703,17.0413036346436,17.0412712097168,17.04123878479,17.0412063598633,17.0411739349365,17.0411396026611,17.0411071777344,17.0410747528076,17.0410423278809,17.0410099029541,17.0409774780273,17.0409450531006,17.0409126281738,17.0408802032471,17.0408477783203,17.0408134460449,17.0407810211182,17.0407485961914,17.0407161712646,17.0406837463379,17.0406513214111,17.0406188964844,17.0405864715576,17.0405540466309,17.0405216217041,17.0404891967773,17.0404567718506,17.0404243469238,17.0403919219971,17.0403575897217,17.0403251647949,17.0402927398682,17.0402603149414,17.0402278900146,17.0401954650879,17.0401630401611,17.0401306152344,17.0400981903076,17.0400657653809,17.0400333404541,17.0400009155273,17.0399684906006,17.0399360656738,17.0399036407471,17.0398712158203,17.0398387908936,17.0398063659668,17.03977394104,17.0397415161133,17.0397090911865,17.0396766662598,17.039644241333,17.0396118164062,17.0395793914795,17.0395469665527,17.039514541626,17.0394821166992,17.0394496917725,17.0394172668457,17.0393848419189,17.0393524169922,17.0393199920654,17.0392875671387,17.0392551422119,17.0392227172852,17.0391902923584,17.0391578674316,17.0391254425049,17.0390930175781,17.0390586853027,17.039026260376,17.0389938354492,17.0389614105225,17.0389289855957,17.0388965606689,17.0388641357422,18.9255828857422,18.9255466461182,18.9255104064941,18.9254760742188,18.9254398345947,18.9254035949707,18.9253673553467,18.9253311157227,18.9252948760986,18.9252586364746,18.9252223968506,18.9251861572266,18.9251499176025,18.9251136779785,18.9250774383545,18.9250411987305,18.9250049591064,18.9249687194824,18.9249324798584,18.9248962402344,18.9248600006104,18.924825668335,18.9247894287109,18.9247531890869,18.9247169494629,18.9246807098389,18.9246444702148,18.9246082305908,18.9245719909668,18.9245357513428,18.9244995117188,18.9244632720947,18.9244270324707,18.9243907928467,18.9243545532227,18.9243183135986,18.9242820739746,18.9242458343506,18.9242095947266,18.9241733551025,18.9241371154785,18.9241008758545,18.9240665435791,18.9240303039551,18.9239940643311,18.923957824707,18.923921585083,18.923885345459,18.923849105835,18.9238128662109,18.9237766265869,18.9237403869629,18.9237041473389,18.9236679077148,18.9236316680908,18.9235954284668,18.9235591888428,18.9235229492188,18.9234867095947,18.9234504699707,18.9234142303467,18.9233779907227,18.9233417510986,18.9233074188232,18.9232711791992,18.9232349395752,18.9231986999512,18.9231624603271,18.9231262207031,18.9230899810791,18.9230537414551,18.9230175018311,18.922981262207,18.922945022583,18.9229106903076,18.9228744506836,18.9228382110596,18.9228019714355,18.9227657318115,18.9227294921875,18.9226932525635,18.9226570129395,18.9226207733154,18.92258644104,18.922550201416,18.922513961792,18.922477722168,18.9224414825439,18.9224052429199,18.9223690032959,18.9223327636719,18.9222984313965,18.9222621917725,18.9222259521484,18.9221897125244,18.9221534729004,18.9221172332764,18.9220809936523,18.9220447540283,18.9220085144043,18.9219722747803,18.9219360351562,18.9218997955322,18.9218635559082,18.9218273162842,18.9217910766602,18.9217548370361,18.9217185974121,18.9216823577881,18.9216461181641,18.92160987854,18.921573638916,18.9215393066406,18.9215030670166,18.9214668273926,18.9214305877686
18.9305362701416,18.9305000305176,18.9304637908936,18.9304275512695,18.9303913116455,18.9303550720215,18.9303188323975,18.9302825927734,18.9302463531494,18.9302101135254,18.9301738739014,18.9301376342773,18.9301013946533,18.9300651550293,18.9300289154053,18.9299926757812,18.9299583435059,18.9299221038818,18.9298858642578,18.9298496246338,18.9298133850098,18.9297771453857,18.9297409057617,18.9297046661377,18.9296684265137,18.9296321868896,18.9295959472656,18.9295597076416,18.9295234680176,18.9294872283936,18.9294509887695,18.9294147491455,18.9293785095215,18.9293422698975,18.9293060302734,18.9292697906494,18.9292335510254,18.9291973114014,18.9291610717773,18.9291248321533,18.9290885925293,18.9290523529053,18.9290161132812,18.9289798736572,18.9289436340332,18.9289073944092,18.9288711547852,18.9288349151611,18.9287986755371,18.9287624359131,18.9287261962891,18.928689956665,18.928653717041,18.928617477417,18.928581237793,18.9285449981689,18.9285087585449,18.9284725189209,18.9284362792969,18.9284000396729,18.9283638000488,18.9283275604248,18.9282913208008,18.9282550811768,18.9282188415527,18.9281845092773,18.9281482696533,18.9281120300293,18.9280757904053,18.9280395507812,18.9280033111572,18.9279670715332,18.9279308319092,18.9278945922852,18.9278583526611,18.9278221130371,18.9277858734131,18.9277496337891,18.9277153015137,18.9276790618896,18.9276428222656,18.9276065826416,18.9275703430176,18.9275341033936,18.9274978637695,18.9274616241455,18.9274253845215,18.9273891448975,18.9273529052734,18.9273166656494,18.927282333374,18.92724609375,18.927209854126,18.927173614502,18.9271373748779,18.9271011352539,18.9270648956299,18.9270286560059,18.9269924163818,18.9269561767578,18.9269199371338,18.9268836975098,18.9268474578857,18.9268112182617,18.9267749786377,18.9267387390137,18.9267024993896,18.9266681671143,18.9266319274902,18.9265956878662,18.9265594482422,18.9265232086182,18.9264869689941,18.9264507293701,18.9264144897461,18.9263782501221,18.926342010498,18.926305770874,18.92626953125,18.926233291626,18.926197052002,18.9261608123779,18.9261245727539,18.9260883331299,18.9260520935059,18.9260158538818,18.9259796142578,18.9259433746338,18.9259071350098,18.9258708953857,18.9258365631104,18.9258003234863,18.9257640838623,18.9257278442383,18.9256916046143,18.9256553649902,18.9256191253662,18.9255828857422,18.9255466461182,18.9255104064941,18.9254741668701,18.9254379272461,18.9254016876221,18.925365447998,18.925329208374,18.92529296875,18.925256729126,18.925220489502,18.9251842498779,18.9251480102539,18.9251117706299,18.9250755310059,18.9250411987305,18.9250049591064,18.9249687194824,18.9249324798584,18.9248962402344,18.9248600006104,18.9248237609863,18.9247875213623,18.9247512817383,18.9247169494629,18.9246807098389,18.9246444702148,18.9246082305908,18.9245719909668,18.9245357513428,18.9244995117188,18.9244632720947,18.9244270324707,18.9243927001953,18.9243564605713,18.9243202209473,18.9242839813232,18.9242477416992,18.9242115020752,18.9241752624512,18.9241390228271,18.9241027832031,18.9240665435791,18.9240303039551,18.9239940643311,18.923957824707,18.923921585083,18.9238872528076,18.9238510131836,18.9238147735596,18.9237785339355,18.9237422943115,18.9237060546875,18.9236698150635,18.9236335754395,18.9235973358154,18.9235610961914,18.9235248565674,18.9234886169434,18.9234523773193,18.9234161376953,18.9233798980713,18.9233436584473,18.9233074188232
18.9324150085449,18.9323787689209,18.9323425292969,18.9323081970215,18.9322719573975,18.9322357177734,18.9321994781494,18.9321632385254,18.9321269989014,18.9320907592773,18.9320545196533,18.9320182800293,18.9319820404053,18.9319458007812,18.9319095611572,18.9318733215332,18.9318370819092,18.9318008422852,18.9317646026611,18.9317283630371,18.9316921234131,18.9316558837891,18.931619644165,18.931583404541,18.931547164917,18.931510925293,18.9314746856689,18.9314384460449,18.9314022064209,18.9313659667969,18.9313297271729,18.9312953948975,18.9312591552734,18.9312229156494,18.9311866760254,18.9311504364014,18.9311141967773,18.9310779571533,18.9310417175293,18.9310054779053,18.9309692382812,18.9309310913086,18.9308948516846,18.9308586120605,18.9308223724365,18.9307861328125,18.9307498931885,18.9307136535645,18.9306774139404,18.9306411743164,18.9306049346924,18.9305686950684,18.9305324554443,18.9304962158203,18.9304599761963,18.9304237365723,18.9303874969482,18.9303512573242,18.9303150177002,18.9302787780762,18.9302425384521,18.9302062988281,18.9301700592041,18.9301338195801,18.9300994873047,18.9300632476807,18.9300270080566,18.9299907684326,18.9299545288086,18.9299182891846,18.9298820495605,18.9298458099365,18.9298095703125,18.9297733306885,18.9297370910645,18.9297008514404,18.9296646118164,18.929630279541,18.929594039917,18.929557800293,18.9295215606689,18.9294853210449,18.9294490814209,18.9294128417969,18.9293766021729,18.9293403625488,18.9293041229248,18.9292678833008,18.9292316436768,18.9291954040527,18.9291610717773,18.9291248321533,18.9290885925293,18.9290523529053,18.9290161132812,18.9289798736572,18.9289436340332,18.9289073944092,18.9288711547852,18.9288349151611,18.9287986755371,18.9287624359131,18.9287261962891,18.9286918640137,18.9286556243896,18.9286193847656,18.9285831451416,18.9285469055176,18.9285106658936,18.9284744262695,18.9284381866455,18.9284019470215,18.9283657073975,18.9283294677734,18.9282932281494,18.9282569885254,18.9282207489014,18.9281845092773,18.9281482696533,18.9281120300293,18.9280757904053,18.9280395507812,18.9280033111572,18.9279670715332,18.9279308319092,18.9278945922852,18.9278583526611,18.9278221130371,18.9277858734131,18.9277515411377,18.9277153015137,18.9276790618896,18.9276428222656,18.9276065826416,18.9275703430176,18.9275341033936,18.9274978637695,18.9274616241455,18.9274253845215,18.9273891448975,18.9273529052734,18.9273166656494,18.9272804260254,18.9272441864014,18.9272079467773,18.9271717071533,18.9271354675293,18.9270992279053,18.9270629882812,18.9270267486572,18.9269905090332,18.9269542694092,18.9269180297852,18.9268836975098,18.9268474578857,18.9268112182617,18.9267749786377,18.9267387390137,18.9267024993896,18.9266662597656,18.9266300201416,18.9265937805176,18.9265594482422,18.9265232086182,18.9264869689941,18.9264507293701,18.9264144897461,18.9263782501221,18.926342010498,18.926305770874,18.92626953125,18.9262351989746,18.9261989593506,18.9261627197266,18.9261264801025,18.9260902404785,18.9260540008545,18.9260177612305,18.9259815216064,18.9259452819824,18.9259090423584,18.9258728027344,18.9258365631104,18.9258003234863,18.9257640838623,18.9257278442383,18.9256916046143,18.9256553649902,18.9256191253662,18.9255828857422,18.9255466461182,18.9255104064941,18.9254741668701,18.9254379272461,18.9254016876221,18.925365447998,18.925329208374,18.92529296875,18.9252586364746,18.9252223968506,18.9251861572266
18.9342956542969,18.9342594146729,18.9342231750488,18.9341869354248,18.9341506958008,18.9341144561768,18.9340782165527,18.9340419769287,18.9340057373047,18.9339694976807,18.9339332580566,18.9338970184326,18.9338607788086,18.9338264465332,18.9337902069092,18.9337539672852,18.9337177276611,18.9336814880371,18.9336452484131,18.9336090087891,18.933572769165,18.933536529541,18.933500289917,18.933464050293,18.9334278106689,18.9333915710449,18.9333553314209,18.9333190917969,18.9332828521729,18.9332466125488,18.9332103729248,18.9331741333008,18.9331378936768,18.9331016540527,18.9330654144287,18.9330291748047,18.9329929351807,18.9329566955566,18.9329204559326,18.9328842163086,18.9328479766846,18.9328117370605,18.9327754974365,18.9327392578125,18.9327030181885,18.9326667785645,18.9326305389404,18.9325942993164,18.9325580596924,18.9325218200684,18.9324855804443,18.9324493408203,18.9324131011963,18.9323768615723,18.9323406219482,18.9323043823242,18.9322681427002,18.9322319030762,18.9321956634521,18.9321594238281,18.9321231842041,18.9320869445801,18.9320507049561,18.932014465332,18.931978225708,18.931941986084,18.93190574646,18.9318695068359,18.9318332672119,18.9317970275879,18.9317607879639,18.9317245483398,18.9316883087158,18.9316520690918,18.9316177368164,18.9315814971924,18.9315452575684,18.9315090179443,18.9314727783203,18.9314365386963,18.9314002990723,18.9313640594482,18.9313278198242,18.9312915802002,18.9312553405762,18.9312191009521,18.9311828613281,18.9311466217041,18.9311122894287,18.9310760498047,18.9310398101807,18.9310035705566,18.9309673309326,18.9309310913086,18.9308948516846,18.9308586120605,18.9308223724365,18.9307861328125,18.9307498931885,18.9307136535645,18.9306774139404,18.930643081665,18.930606842041,18.930570602417,18.930534362793,18.9304981231689,18.9304618835449,18.9304256439209,18.9303894042969,18.9303531646729,18.9303169250488,18.9302806854248,18.9302444458008,18.9302082061768,18.9301719665527,18.9301357269287,18.9300994873047,18.9300632476807,18.9300270080566,18.9299907684326,18.9299545288086,18.9299182891846,18.9298839569092,18.9298477172852,18.9298114776611,18.9297752380371,18.9297389984131,18.9297027587891,18.929666519165,18.929630279541,18.929594039917,18.929557800293,18.9295215606689,18.9294853210449,18.9294490814209,18.9294128417969,18.9293766021729,18.9293403625488,18.9293041229248,18.9292678833008,18.9292316436768,18.9291954040527,18.9291591644287,18.9291229248047,18.9290866851807,18.9290504455566,18.9290142059326,18.9289779663086,18.9289417266846,18.9289073944092,18.9288711547852,18.9288349151611,18.9287986755371,18.9287624359131,18.9287261962891,18.928689956665,18.928653717041,18.928617477417,18.928581237793,18.9285449981689,18.9285087585449,18.9284744262695,18.9284381866455,18.9284019470215,18.9283657073975,18.9283294677734,18.9282932281494,18.9282569885254,18.9282207489014,18.9281845092773,18.928150177002,18.9281139373779,18.9280776977539,18.9280414581299,18.9280052185059,18.9279689788818,18.9279327392578,18.9278964996338,18.9278602600098,18.9278240203857,18.9277877807617,18.9277515411377,18.9277153015137,18.9276790618896,18.9276428222656,18.9276065826416,18.9275703430176,18.9275341033936,18.9274978637695,18.9274616241455,18.9274253845215,18.9273891448975,18.9273529052734,18.9273166656494,18.9272804260254,18.9272441864014,18.9272079467773,18.9271717071533,18.9271354675293,18.9270992279053,18.9270629882812
18.9361763000488,18.9361400604248,18.9361038208008,18.9360675811768,18.9360313415527,18.9359951019287,18.9359588623047,18.9359226226807,18.9358863830566,18.9358501434326,18.9358139038086,18.9357776641846,18.9357414245605,18.9357051849365,18.9356689453125,18.9356327056885,18.9355964660645,18.9355602264404,18.935525894165,18.935489654541,18.935453414917,18.935417175293,18.9353809356689,18.9353446960449,18.9353084564209,18.9352722167969,18.9352359771729,18.9351997375488,18.9351634979248,18.9351272583008,18.9350910186768,18.9350547790527,18.9350185394287,18.9349822998047,18.9349460601807,18.9349098205566,18.9348735809326,18.93483543396,18.9347991943359,18.9347629547119,18.9347267150879,18.9346904754639,18.9346542358398,18.9346179962158,18.9345817565918,18.9345455169678,18.9345092773438,18.9344730377197,18.9344367980957,18.9344005584717,18.9343643188477,18.9343280792236,18.9342918395996,18.9342555999756,18.9342193603516,18.9341831207275,18.9341468811035,18.9341106414795,18.9340744018555,18.9340381622314,18.9340019226074,18.9339656829834,18.9339294433594,18.9338932037354,18.9338569641113,18.9338207244873,18.9337844848633,18.9337482452393,18.9337139129639,18.9336776733398,18.9336414337158,18.9336051940918,18.9335689544678,18.9335327148438,18.9334964752197,18.9334602355957,18.9334239959717,18.9333877563477,18.9333515167236,18.9333152770996,18.9332790374756,18.9332427978516,18.9332084655762,18.9331722259521,18.9331359863281,18.9330997467041,18.9330635070801,18.9330272674561,18.932991027832,18.932954788208,18.932918548584,18.93288230896,18.9328460693359,18.9328098297119,18.9327735900879,18.9327373504639,18.9327030181885,18.9326667785645,18.9326305389404,18.9325942993164,18.9325580596924,18.9325218200684,18.9324855804443,18.9324493408203,18.9324131011963,18.9323768615723,18.9323406219482,18.9323043823242,18.9322681427002,18.9322319030762,18.9321975708008,18.9321613311768,18.9321250915527,18.9320888519287,18.9320526123047,18.9320163726807,18.9319801330566,18.9319438934326,18.9319076538086,18.9318714141846,18.9318351745605,18.9317989349365,18.9317626953125,18.9317264556885,18.9316902160645,18.9316539764404,18.9316177368164,18.9315814971924,18.9315452575684,18.9315090179443,18.9314727783203,18.9314365386963,18.9314002990723,18.9313640594482,18.9313278198242,18.9312915802002,18.9312553405762,18.9312191009521,18.9311847686768,18.9311485290527,18.9311122894287,18.9310760498047,18.9310398101807,18.9310035705566,18.9309673309326,18.9309310913086,18.9308948516846,18.9308586120605,18.9308223724365,18.9307861328125,18.9307498931885,18.9307136535645,18.9306774139404,18.9306411743164,18.9306049346924,18.9305686950684,18.9305324554443,18.9304981231689,18.9304618835449,18.9304256439209,18.9303894042969,18.9303531646729,18.9303169250488,18.9302806854248,18.9302444458008,18.9302082061768,18.9301719665527,18.9301376342773,18.9301013946533,18.9300651550293,18.9300289154053,18.9299926757812,18.9299564361572,18.9299201965332,18.9298839569092,18.9298477172852,18.9298114776611,18.9297752380371,18.9297389984131,18.9297027587891,18.929666519165,18.929630279541,18.929594039917,18.929557800293,18.9295215606689,18.9294853210449,18.9294490814209,18.9294128417969,18.9293766021729,18.9293403625488,18.9293041229248,18.9292678833008,18.9292316436768,18.9291954040527,18.9291591644287,18.9291229248047,18.9290866851807,18.9290504455566,18.9290142059326,18.9289779663086,18.9289417266846
18.9380569458008,18.9380207061768,18.9379844665527,18.9379482269287,18.9379119873047,18.9378757476807,18.9378395080566,18.9378032684326,18.9377670288086,18.9377307891846,18.9376945495605,18.9376583099365,18.9376220703125,18.9375858306885,18.9375495910645,18.9375133514404,18.9374771118164,18.937442779541,18.937406539917,18.937370300293,18.9373340606689,18.9372978210449,18.9372615814209,18.9372253417969,18.9371891021729,18.9371528625488,18.9371166229248,18.9370784759521,18.9370422363281,18.9370059967041,18.9369697570801,18.9369335174561,18.936897277832,18.936861038208,18.936824798584,18.93678855896,18.9367523193359,18.9367160797119,18.9366798400879,18.9366436004639,18.9366073608398,18.9365711212158,18.9365348815918,18.9364986419678,18.9364624023438,18.9364261627197,18.9363899230957,18.9363536834717,18.9363174438477,18.9362812042236,18.9362449645996,18.9362087249756,18.9361724853516,18.9361362457275,18.9361000061035,18.9360637664795,18.9360275268555,18.9359912872314,18.9359550476074,18.9359188079834,18.9358825683594,18.9358463287354,18.9358100891113,18.9357738494873,18.9357376098633,18.9357013702393,18.9356651306152,18.9356288909912,18.9355926513672,18.9355564117432,18.9355201721191,18.9354839324951,18.9354476928711,18.9354133605957,18.9353771209717,18.9353408813477,18.9353046417236,18.9352684020996,18.9352321624756,18.9351959228516,18.9351596832275,18.9351234436035,18.9350872039795,18.9350509643555,18.9350147247314,18.9349784851074,18.9349422454834,18.9349060058594,18.934871673584,18.93483543396,18.9347991943359,18.9347629547119,18.9347267150879,18.9346904754639,18.9346542358398,18.9346179962158,18.9345817565918,18.9345455169678,18.9345092773438,18.9344730377197,18.9344367980957,18.9344005584717,18.9343643188477,18.9343299865723,18.9342937469482,18.9342575073242,18.9342212677002,18.9341850280762,18.9341487884521,18.9341125488281,18.9340763092041,18.9340400695801,18.9340038299561,18.933967590332,18.933931350708,18.933895111084,18.93385887146,18.9338226318359,18.9337882995605,18.9337520599365,18.9337158203125,18.9336795806885,18.9336433410645,18.9336071014404,18.9335708618164,18.9335346221924,18.9334983825684,18.9334621429443,18.9334259033203,18.9333896636963,18.9333534240723,18.9333171844482,18.9332809448242,18.9332447052002,18.9332084655762,18.9331722259521,18.9331359863281,18.9330997467041,18.9330635070801,18.9330272674561,18.932991027832,18.932954788208,18.932918548584,18.93288230896,18.9328460693359,18.9328098297119,18.9327735900879,18.9327373504639,18.9327011108398,18.9326648712158,18.9326286315918,18.9325942993164,18.9325580596924,18.9325218200684,18.9324855804443,18.9324493408203,18.9324131011963,18.9323768615723,18.9323406219482,18.9323043823242,18.9322681427002,18.9322319030762,18.9321975708008,18.9321613311768,18.9321250915527,18.9320888519287,18.9320526123047,18.9320163726807,18.9319801330566,18.9319438934326,18.9319076538086,18.9318714141846,18.9318351745605,18.9317989349365,18.9317626953125,18.9317264556885,18.9316902160645,18.9316539764404,18.9316177368164,18.9315814971924,18.9315452575684,18.9315090179443,18.9314727783203,18.9314365386963,18.9314002990723,18.9313640594482,18.9313278198242,18.9312915802002,18.9312553405762,18.9312191009521,18.9311828613281,18.9311466217041,18.9311103820801,18.9310741424561,18.931037902832,18.931001663208,18.930965423584,18.93092918396,18.9308929443359,18.9308567047119,18.9308204650879
