18.3153114318848,18.3152370452881,18.3151626586914,18.3150882720947,18.315013885498,18.3149394989014,18.3148651123047,18.3147926330566,18.31471824646,18.3146438598633,18.3145694732666,18.3144950866699,18.3144207000732,18.3143463134766,18.3142719268799,18.3141994476318,18.3141250610352,18.3140506744385,18.3139877319336,18.3139419555664,18.3138961791992,18.3138484954834,18.3138027191162,18.313756942749,18.3137092590332,18.313663482666,18.3136157989502,18.313570022583,18.3135242462158,18.3134765625,18.3134307861328,18.3133850097656,18.3133373260498,18.3132915496826,18.3132457733154,18.3131980895996,18.3131523132324,18.3131046295166,18.3130588531494,18.3130130767822,18.3129653930664,18.3129196166992,18.312873840332,18.3128261566162,18.312780380249,18.3127346038818,18.312686920166,18.3126335144043,18.3125801086426,18.3125267028809,18.3124732971191,18.3124179840088,18.3123645782471,18.3123111724854,18.3122577667236,18.3122043609619,18.3121490478516,18.3120956420898,18.3120422363281,18.3119888305664,18.3119335174561,18.3118553161621,18.311767578125,18.3116798400879,18.3115921020508,18.3115043640137,18.3114147186279,18.3113269805908,18.3112392425537,18.3111515045166,18.3110637664795,18.3109741210938,18.3108863830566,18.3107986450195,18.3107109069824,18.3106231689453,18.3105335235596,18.3104457855225,18.3103580474854,18.3102703094482,18.3101825714111,18.310094833374,18.3100051879883,18.3099174499512,18.3098297119141,18.309741973877,18.3096542358398,18.3095645904541,18.309476852417,18.3093891143799,18.3093013763428,18.3092136383057,18.3091259002686,18.3090362548828,18.3089485168457,18.3088607788086,18.3087730407715,18.3086853027344,18.3085975646973,18.3085079193115,18.3084201812744,18.3083324432373,18.3082447052002,18.3081569671631,18.3080673217773,18.3079795837402,18.3078918457031,18.307804107666,18.3077163696289,18.3076286315918,18.3075389862061,18.3074512481689,18.3073635101318,18.3072757720947,18.3071880340576,18.3071002960205,18.3070106506348,18.3069267272949,18.3068428039551,18.3067569732666,18.3066730499268,18.3065891265869,18.3065052032471,18.3064193725586,18.3063354492188,18.3062515258789,18.3061676025391,18.3060836791992,18.3059978485107,18.3059139251709,18.3058300018311,18.3057460784912,18.3056621551514,18.3055763244629,18.305492401123,18.3054084777832,18.3053245544434,18.3052387237549,18.305154800415,18.3050708770752,18.3049869537354,18.3049030303955,18.304817199707,18.3047332763672,18.3046493530273,18.2713451385498,18.2521343231201,18.2520599365234,18.2519855499268,18.2519130706787,18.251838684082,18.251766204834,18.2516918182373,18.2516193389893,18.2515449523926,0,0,0,0,0,0,0,0,0,0,0,0,0,0,0,0,0,0,0,0,0,0,0,0,0,0,0,0,0,0,0,0,0,0,0,0,0,0,0,0,0,0,0,0,0,0
18.3171234130859,18.3170509338379,18.3169765472412,18.3169021606445,18.3168277740479,18.3167533874512,18.3166790008545,18.3166046142578,18.3165302276611,18.3164558410645,18.3163833618164,18.3163089752197,18.316234588623,18.3161602020264,18.3160858154297,18.316011428833,18.3159370422363,18.3158626556396,18.3158016204834,18.3157558441162,18.3157081604004,18.3156623840332,18.315616607666,18.3155689239502,18.315523147583,18.3154754638672,18.3154296875,18.3153839111328,18.315336227417,18.3152904510498,18.3152446746826,18.3151969909668,18.3151512145996,18.3151035308838,18.3150577545166,18.3150119781494,18.3149642944336,18.3149185180664,18.3148727416992,18.3148250579834,18.3147792816162,18.314733505249,18.3146858215332,18.314640045166,18.3145923614502,18.3145427703857,18.3144874572754,18.3144340515137,18.314380645752,18.3143272399902,18.3142719268799,18.3142185211182,18.3141651153564,18.3141117095947,18.3140563964844,18.3140029907227,18.3139495849609,18.3138961791992,18.3138427734375,18.3137874603271,18.3137340545654,18.3136558532715,18.3135662078857,18.3134784698486,18.3133907318115,18.3133029937744,18.3132152557373,18.3131256103516,18.3130378723145,18.3129501342773,18.3128623962402,18.3127746582031,18.3126850128174,18.3125972747803,18.3125095367432,18.3124217987061,18.3123340606689,18.3122463226318,18.3121566772461,18.312068939209,18.3119812011719,18.3118934631348,18.3118057250977,18.3117160797119,18.3116283416748,18.3115406036377,18.3114528656006,18.3113651275635,18.3112754821777,18.3111877441406,18.3111000061035,18.3110122680664,18.3109245300293,18.3108348846436,18.3107471466064,18.3106594085693,18.3105716705322,18.3104839324951,18.310396194458,18.3103065490723,18.3102188110352,18.310131072998,18.3100433349609,18.3099555969238,18.3098659515381,18.309778213501,18.3096904754639,18.3096027374268,18.3095149993896,18.3094272613525,18.3093376159668,18.3092498779297,18.3091621398926,18.3090744018555,18.3089904785156,18.3089065551758,18.3088226318359,18.3087368011475,18.3086528778076,18.3085689544678,18.3084850311279,18.3083992004395,18.3083152770996,18.3082313537598,18.3081474304199,18.3080635070801,18.3079776763916,18.3078937530518,18.3078098297119,18.3077259063721,18.3076400756836,18.3075561523438,18.3074722290039,18.3073883056641,18.3073043823242,18.3072185516357,18.3071346282959,18.3070507049561,18.3069667816162,18.3068809509277,18.3067970275879,18.306713104248,18.3066291809082,18.3065452575684,18.3064594268799,18.2714157104492,18.2539405822754,18.2538661956787,18.253791809082,18.253719329834,18.2536449432373,18.2535724639893,18.2534980773926,18.2534255981445,18.2533512115479,0,0,0,0,0,0,0,0,0,0,0,0,0,0,0,0,0,0,0,0,0,0,0,0,0,0,0,0,0,0,0,0,0,0,0,0,0,0,0,0,0,0,0,0,0,0
18.3189373016357,18.3188629150391,18.3187885284424,18.3187160491943,18.3186416625977,18.318567276001,18.3184928894043,18.3184185028076,18.3183441162109,18.3182697296143,18.3181953430176,18.3181209564209,18.3180465698242,18.3179740905762,18.3178997039795,18.3178253173828,18.3177509307861,18.3176765441895,18.3176155090332,18.3175678253174,18.3175220489502,18.317476272583,18.3174285888672,18.3173828125,18.3173370361328,18.317289352417,18.3172435760498,18.317195892334,18.3171501159668,18.3171043395996,18.3170566558838,18.3170108795166,18.3169651031494,18.3169174194336,18.3168716430664,18.3168239593506,18.3167781829834,18.3167324066162,18.3166847229004,18.3166389465332,18.316593170166,18.3165454864502,18.316499710083,18.3164501190186,18.3163967132568,18.3163414001465,18.3162879943848,18.316234588623,18.3161811828613,18.3161277770996,18.3160724639893,18.3160190582275,18.3159656524658,18.3159122467041,18.3158569335938,18.315803527832,18.3157501220703,18.3156967163086,18.3156414031982,18.3155879974365,18.3155345916748,18.3154544830322,18.3153667449951,18.315279006958,18.3151912689209,18.3151016235352,18.315013885498,18.3149261474609,18.3148384094238,18.3147506713867,18.314661026001,18.3145732879639,18.3144855499268,18.3143978118896,18.3143100738525,18.3142204284668,18.3141326904297,18.3140449523926,18.3139572143555,18.3138694763184,18.3137798309326,18.3136920928955,18.3136043548584,18.3135166168213,18.3134288787842,18.3133392333984,18.3132514953613,18.3131637573242,18.3130760192871,18.31298828125,18.3128986358643,18.3128108978271,18.31272315979,18.3126354217529,18.3125476837158,18.3124580383301,18.312370300293,18.3122825622559,18.3121948242188,18.3121070861816,18.3120174407959,18.3119297027588,18.3118419647217,18.3117542266846,18.3116664886475,18.3115768432617,18.3114891052246,18.3114013671875,18.3113136291504,18.3112258911133,18.3111400604248,18.3110542297363,18.3109703063965,18.3108863830566,18.3108024597168,18.310718536377,18.3106327056885,18.3105487823486,18.3104648590088,18.3103809356689,18.3102951049805,18.3102111816406,18.3101272583008,18.3100433349609,18.3099575042725,18.3098735809326,18.3097896575928,18.3097057342529,18.3096218109131,18.3095359802246,18.3094520568848,18.3093681335449,18.3092842102051,18.3091983795166,18.3091144561768,18.3090305328369,18.3089466094971,18.3088607788086,18.3087768554688,18.3086929321289,18.3086090087891,18.3085250854492,18.3084392547607,18.3083553314209,18.3082714080811,18.2714862823486,18.2557468414307,18.255672454834,18.2555980682373,18.2555255889893,18.2554512023926,18.2553768157959,18.2553043365479,18.2552299499512,18.2551574707031,0,0,0,0,0,0,0,0,0,0,0,0,0,0,0,0,0,0,0,0,0,0,0,0,0,0,0,0,0,0,0,0,0,0,0,0,0,0,0,0,0,0,0,0,0,0
18.3207511901855,18.3206768035889,18.3206024169922,18.3205299377441,18.3204555511475,18.3203811645508,18.3203067779541,18.3202323913574,18.3201580047607,18.3200836181641,18.3200092315674,18.3199348449707,18.319860458374,18.3197860717773,18.3197135925293,18.3196392059326,18.3195648193359,18.3194904327393,18.319429397583,18.3193817138672,18.3193359375,18.3192901611328,18.319242477417,18.3191967010498,18.3191509246826,18.3191032409668,18.3190574645996,18.3190097808838,18.3189640045166,18.3189182281494,18.3188705444336,18.3188247680664,18.3187789916992,18.3187313079834,18.3186855316162,18.3186378479004,18.3185920715332,18.318546295166,18.3184986114502,18.318452835083,18.3184070587158,18.318359375,18.3183040618896,18.3182506561279,18.3181972503662,18.3181438446045,18.3180885314941,18.3180351257324,18.3179817199707,18.317928314209,18.3178730010986,18.3178195953369,18.3177661895752,18.3177127838135,18.3176574707031,18.3176040649414,18.3175506591797,18.317497253418,18.3174419403076,18.3173885345459,18.3173351287842,18.3172550201416,18.3171672821045,18.3170795440674,18.3169898986816,18.3169021606445,18.3168144226074,18.3167266845703,18.3166370391846,18.3165493011475,18.3164615631104,18.3163738250732,18.3162860870361,18.3161964416504,18.3161087036133,18.3160209655762,18.3159332275391,18.315845489502,18.3157558441162,18.3156681060791,18.315580368042,18.3154926300049,18.3154029846191,18.315315246582,18.3152275085449,18.3151397705078,18.3150520324707,18.314962387085,18.3148746490479,18.3147869110107,18.3146991729736,18.3146114349365,18.3145217895508,18.3144340515137,18.3143463134766,18.3142585754395,18.3141708374023,18.3140811920166,18.3139934539795,18.3139057159424,18.3138179779053,18.3137302398682,18.3136405944824,18.3135528564453,18.3134651184082,18.3133773803711,18.313289642334,18.3132038116455,18.3131198883057,18.3130359649658,18.312952041626,18.3128681182861,18.3127822875977,18.3126983642578,18.312614440918,18.3125305175781,18.3124446868896,18.3123607635498,18.31227684021,18.3121929168701,18.3121070861816,18.3120231628418,18.311939239502,18.3118553161621,18.3117694854736,18.3116855621338,18.3116016387939,18.3115177154541,18.3114318847656,18.3113479614258,18.3112640380859,18.3111801147461,18.3110942840576,18.3110103607178,18.3109264373779,18.3108425140381,18.3107585906982,18.3106727600098,18.3105888366699,18.3105049133301,18.3104209899902,18.3103351593018,18.3102512359619,18.3101673126221,18.3100833892822,18.271556854248,18.2575531005859,18.2574787139893,18.2574043273926,18.2573318481445,18.2572574615479,18.2571849822998,18.2571105957031,18.2570381164551,18.2569637298584,0,0,0,0,0,0,0,0,0,0,0,0,0,0,0,0,0,0,0,0,0,0,0,0,0,0,0,0,0,0,0,0,0,0,0,0,0,0,0,0,0,0,0,0,0,0
18.3225650787354,18.3224925994873,18.3224182128906,18.3223438262939,18.3222694396973,18.3221950531006,18.3221206665039,18.3220462799072,18.3219718933105,18.3218975067139,18.3218231201172,18.3217487335205,18.3216743469238,18.3216018676758,18.3215274810791,18.3214530944824,18.3213787078857,18.3213043212891,18.3212432861328,18.3211975097656,18.3211498260498,18.3211040496826,18.3210582733154,18.3210105895996,18.3209648132324,18.3209171295166,18.3208713531494,18.3208255767822,18.3207778930664,18.3207321166992,18.3206844329834,18.3206386566162,18.320592880249,18.3205451965332,18.320499420166,18.3204536437988,18.320405960083,18.3203601837158,18.3203125,18.3202667236328,18.3202133178711,18.3201599121094,18.3201065063477,18.3200511932373,18.3199977874756,18.3199443817139,18.3198909759521,18.3198356628418,18.3197822570801,18.3197288513184,18.3196754455566,18.3196201324463,18.3195667266846,18.3195133209229,18.3194599151611,18.3194046020508,18.3193511962891,18.3192977905273,18.3192443847656,18.3191890716553,18.3191356658936,18.319055557251,18.3189678192139,18.3188781738281,18.318790435791,18.3187026977539,18.3186149597168,18.3185272216797,18.3184375762939,18.3183498382568,18.3182621002197,18.3181743621826,18.3180847167969,18.3179969787598,18.3179092407227,18.3178215026855,18.3177337646484,18.3176441192627,18.3175563812256,18.3174686431885,18.3173809051514,18.3172912597656,18.3172035217285,18.3171157836914,18.3170280456543,18.3169403076172,18.3168506622314,18.3167629241943,18.3166751861572,18.3165874481201,18.316499710083,18.3164100646973,18.3163223266602,18.316234588623,18.3161468505859,18.3160572052002,18.3159694671631,18.315881729126,18.3157939910889,18.3157062530518,18.315616607666,18.3155288696289,18.3154411315918,18.3153553009033,18.3152713775635,18.315185546875,18.3151016235352,18.3150177001953,18.3149318695068,18.314847946167,18.3147640228271,18.3146800994873,18.3145942687988,18.314510345459,18.3144264221191,18.3143424987793,18.3142566680908,18.314172744751,18.3140888214111,18.3140048980713,18.3139190673828,18.313835144043,18.3137512207031,18.3136672973633,18.3135814666748,18.313497543335,18.3134136199951,18.3133296966553,18.3132438659668,18.313159942627,18.3130760192871,18.3129920959473,18.3129062652588,18.3128223419189,18.3127384185791,18.3126544952393,18.3125705718994,18.3124847412109,18.3124008178711,18.3123168945312,18.3122329711914,18.3121471405029,18.3120632171631,18.3119792938232,18.3118953704834,18.2716274261475,18.2593593597412,18.2592849731445,18.2592105865479,18.2591381072998,18.2590637207031,18.2589912414551,18.2589168548584,18.2588443756104,18.2587699890137,0,0,0,0,0,0,0,0,0,0,0,0,0,0,0,0,0,0,0,0,0,0,0,0,0,0,0,0,0,0,0,0,0,0,0,0,0,0,0,0,0,0,0,0,0,0
18.3243808746338,18.3243064880371,18.3242321014404,18.3241577148438,18.3240833282471,18.3240089416504,18.3239345550537,18.323860168457,18.3237857818604,18.3237133026123,18.3236389160156,18.3235645294189,18.3234901428223,18.3234157562256,18.3233413696289,18.3232669830322,18.3231925964355,18.3231182098389,18.3230571746826,18.3230113983154,18.3229656219482,18.3229179382324,18.3228721618652,18.322826385498,18.3227787017822,18.322732925415,18.3226852416992,18.322639465332,18.3225936889648,18.322546005249,18.3225002288818,18.322452545166,18.3224067687988,18.3223609924316,18.3223133087158,18.3222675323486,18.3222198486328,18.3221740722656,18.3221225738525,18.3220691680908,18.3220157623291,18.3219604492188,18.321907043457,18.3218536376953,18.3218002319336,18.3217449188232,18.3216915130615,18.3216381072998,18.3215847015381,18.3215293884277,18.321475982666,18.3214225769043,18.3213691711426,18.3213138580322,18.3212604522705,18.3212070465088,18.3211536407471,18.3210983276367,18.321044921875,18.3209915161133,18.3209381103516,18.3208560943604,18.3207683563232,18.3206806182861,18.3205909729004,18.3205032348633,18.3204154968262,18.3203277587891,18.3202381134033,18.3201503753662,18.3200626373291,18.319974899292,18.3198852539062,18.3197975158691,18.319709777832,18.3196220397949,18.3195343017578,18.3194446563721,18.319356918335,18.3192691802979,18.3191814422607,18.319091796875,18.3190040588379,18.3189163208008,18.3188285827637,18.3187389373779,18.3186511993408,18.3185634613037,18.3184757232666,18.3183879852295,18.3182983398438,18.3182106018066,18.3181228637695,18.3180351257324,18.3179454803467,18.3178577423096,18.3177700042725,18.3176822662354,18.3175945281982,18.3175048828125,18.3174209594727,18.3173370361328,18.3172512054443,18.3171672821045,18.3170833587646,18.3169994354248,18.3169136047363,18.3168296813965,18.3167457580566,18.3166618347168,18.3165760040283,18.3164920806885,18.3164081573486,18.3163242340088,18.3162384033203,18.3161544799805,18.3160705566406,18.3159866333008,18.3159008026123,18.3158168792725,18.3157329559326,18.3156490325928,18.3155632019043,18.3154792785645,18.3153953552246,18.3153095245361,18.3152256011963,18.3151416778564,18.3150577545166,18.3149719238281,18.3148880004883,18.3148040771484,18.3147201538086,18.3146343231201,18.3145503997803,18.3144664764404,18.3143825531006,18.3142967224121,18.3142127990723,18.3141288757324,18.3140449523926,18.3139591217041,18.3138751983643,18.3137912750244,18.3137073516846,18.2716979980469,18.2611656188965,18.2610931396484,18.2610187530518,18.2609443664551,18.260871887207,18.2607975006104,18.2607250213623,18.2606506347656,18.2605781555176,0,0,0,0,0,0,0,0,0,0,0,0,0,0,0,0,0,0,0,0,0,0,0,0,0,0,0,0,0,0,0,0,0,0,0,0,0,0,0,0,0,0,0,0,0,0
18.3261947631836,18.3261203765869,18.3260478973389,18.3259735107422,18.3258991241455,18.3258247375488,18.3257503509521,18.3256759643555,18.3256015777588,18.3255271911621,18.3254528045654,18.3253784179688,18.3253040313721,18.3252296447754,18.3251552581787,18.325080871582,18.325008392334,18.3249340057373,18.3248729705811,18.3248271942139,18.324779510498,18.3247337341309,18.324686050415,18.3246402740479,18.3245944976807,18.3245468139648,18.3245010375977,18.3244552612305,18.3244075775146,18.3243618011475,18.3243141174316,18.3242683410645,18.3242225646973,18.3241748809814,18.3241291046143,18.3240814208984,18.324031829834,18.3239784240723,18.3239250183105,18.3238716125488,18.3238162994385,18.3237628936768,18.323709487915,18.3236560821533,18.323600769043,18.3235473632812,18.3234939575195,18.3234386444092,18.3233852386475,18.3233318328857,18.323278427124,18.3232231140137,18.323169708252,18.3231163024902,18.3230628967285,18.3230075836182,18.3229541778564,18.3229007720947,18.322847366333,18.3227920532227,18.3227386474609,18.3226566314697,18.3225688934326,18.3224811553955,18.3223934173584,18.3223037719727,18.3222160339355,18.3221282958984,18.3220405578613,18.3219509124756,18.3218631744385,18.3217754364014,18.3216876983643,18.3215980529785,18.3215103149414,18.3214225769043,18.3213348388672,18.3212451934814,18.3211574554443,18.3210697174072,18.3209819793701,18.320894241333,18.3208045959473,18.3207168579102,18.320629119873,18.3205413818359,18.3204517364502,18.3203639984131,18.320276260376,18.3201885223389,18.3200988769531,18.320011138916,18.3199234008789,18.3198356628418,18.3197460174561,18.3196582794189,18.3195724487305,18.3194885253906,18.3194026947021,18.3193187713623,18.3192348480225,18.319149017334,18.3190650939941,18.3189811706543,18.3188972473145,18.318811416626,18.3187274932861,18.3186435699463,18.3185596466064,18.318473815918,18.3183898925781,18.3183059692383,18.3182201385498,18.31813621521,18.3180522918701,18.3179683685303,18.3178825378418,18.317798614502,18.3177146911621,18.3176307678223,18.3175449371338,18.3174610137939,18.3173770904541,18.3172912597656,18.3172073364258,18.3171234130859,18.3170394897461,18.3169536590576,18.3168697357178,18.3167858123779,18.3167018890381,18.3166160583496,18.3165321350098,18.3164482116699,18.3163642883301,18.3162784576416,18.3161945343018,18.3161106109619,18.3160266876221,18.3159408569336,18.3158569335938,18.3157730102539,18.3156871795654,18.3156032562256,18.3155193328857,18.2717685699463,18.2629737854004,18.2628993988037,18.2628269195557,18.262752532959,18.2626800537109,18.2626056671143,18.2625312805176,18.2624588012695,18.2623844146729,0,0,0,0,0,0,0,0,0,0,0,0,0,0,0,0,0,0,0,0,0,0,0,0,0,0,0,0,0,0,0,0,0,0,0,0,0,0,0,0,0,0,0,0,0,0
18.328010559082,18.3279361724854,18.3278617858887,18.327787399292,18.3277130126953,18.3276386260986,18.3275661468506,18.3274917602539,18.3274173736572,18.3273429870605,18.3272686004639,18.3271942138672,18.3271198272705,18.3270454406738,18.3269710540771,18.3268966674805,18.3268222808838,18.3267478942871,18.3266887664795,18.3266410827637,18.3265953063965,18.3265495300293,18.3265018463135,18.3264560699463,18.3264083862305,18.3263626098633,18.3263168334961,18.3262691497803,18.3262233734131,18.3261756896973,18.3261299133301,18.3260841369629,18.3260364532471,18.3259906768799,18.3259429931641,18.3258895874023,18.325834274292,18.3257808685303,18.3257274627686,18.3256721496582,18.3256187438965,18.3255653381348,18.325511932373,18.3254566192627,18.325403213501,18.3253498077393,18.3252964019775,18.3252410888672,18.3251876831055,18.3251342773438,18.325080871582,18.3250255584717,18.32497215271,18.3249187469482,18.3248634338379,18.3248100280762,18.3247566223145,18.3247032165527,18.3246479034424,18.3245944976807,18.3245410919189,18.3244590759277,18.3243713378906,18.3242816925049,18.3241939544678,18.3241062164307,18.3240184783936,18.3239288330078,18.3238410949707,18.3237533569336,18.3236656188965,18.3235759735107,18.3234882354736,18.3234004974365,18.3233127593994,18.3232231140137,18.3231353759766,18.3230476379395,18.3229598999023,18.3228702545166,18.3227825164795,18.3226947784424,18.3226070404053,18.3225173950195,18.3224296569824,18.3223419189453,18.3222541809082,18.3221645355225,18.3220767974854,18.3219890594482,18.3219013214111,18.3218116760254,18.3217239379883,18.3216400146484,18.32155418396,18.3214702606201,18.3213863372803,18.3213005065918,18.321216583252,18.3211326599121,18.3210487365723,18.3209629058838,18.3208789825439,18.3207950592041,18.3207092285156,18.3206253051758,18.3205413818359,18.3204574584961,18.3203716278076,18.3202877044678,18.3202037811279,18.3201179504395,18.3200340270996,18.3199501037598,18.3198661804199,18.3197803497314,18.3196964263916,18.3196125030518,18.3195285797119,18.3194427490234,18.3193588256836,18.3192749023438,18.3191890716553,18.3191051483154,18.3190212249756,18.3189373016357,18.3188514709473,18.3187675476074,18.3186836242676,18.3185977935791,18.3185138702393,18.3184299468994,18.3183460235596,18.3182601928711,18.3181762695312,18.3180923461914,18.3180084228516,18.3179225921631,18.3178386688232,18.3177547454834,18.3176708221436,18.3175849914551,18.3175010681152,18.3174171447754,18.3173313140869,18.2718391418457,18.2647819519043,18.2647075653076,18.2646350860596,18.2645606994629,18.2644863128662,18.2644138336182,18.2643394470215,18.2642669677734,18.2641925811768,0,0,0,0,0,0,0,0,0,0,0,0,0,0,0,0,0,0,0,0,0,0,0,0,0,0,0,0,0,0,0,0,0,0,0,0,0,0,0,0,0,0,0,0,0,0
18.3298263549805,18.3297519683838,18.3296775817871,18.3296031951904,18.3295288085938,18.3294544219971,18.3293800354004,18.3293056488037,18.3292331695557,18.329158782959,18.3290843963623,18.3290100097656,18.3289356231689,18.3288612365723,18.3287868499756,18.3287124633789,18.3286380767822,18.3285636901855,18.3285045623779,18.3284568786621,18.3284111022949,18.3283653259277,18.3283176422119,18.3282718658447,18.3282241821289,18.3281784057617,18.3281326293945,18.3280849456787,18.3280391693115,18.3279914855957,18.3279457092285,18.3278999328613,18.3278522491455,18.3277988433838,18.3277454376221,18.3276920318604,18.32763671875,18.3275833129883,18.3275299072266,18.3274765014648,18.3274211883545,18.3273677825928,18.3273143768311,18.3272590637207,18.327205657959,18.3271522521973,18.3270988464355,18.3270435333252,18.3269901275635,18.3269367218018,18.32688331604,18.3268280029297,18.326774597168,18.3267211914062,18.3266658782959,18.3266124725342,18.3265590667725,18.3265056610107,18.3264503479004,18.3263969421387,18.326343536377,18.3262615203857,18.326171875,18.3260841369629,18.3259963989258,18.32590675354,18.3258190155029,18.3257312774658,18.3256435394287,18.325553894043,18.3254661560059,18.3253784179688,18.3252906799316,18.3252010345459,18.3251132965088,18.3250255584717,18.3249378204346,18.3248481750488,18.3247604370117,18.3246726989746,18.3245849609375,18.3244953155518,18.3244075775146,18.3243198394775,18.3242321014404,18.3241424560547,18.3240547180176,18.3239669799805,18.3238792419434,18.3237915039062,18.3237075805664,18.3236217498779,18.3235378265381,18.3234539031982,18.3233680725098,18.3232841491699,18.3232002258301,18.3231163024902,18.3230304718018,18.3229465484619,18.3228626251221,18.3227767944336,18.3226928710938,18.3226089477539,18.3225231170654,18.3224391937256,18.3223552703857,18.3222713470459,18.3221855163574,18.3221015930176,18.3220176696777,18.3219318389893,18.3218479156494,18.3217639923096,18.3216800689697,18.3215942382812,18.3215103149414,18.3214263916016,18.3213405609131,18.3212566375732,18.3211727142334,18.3210887908936,18.3210029602051,18.3209190368652,18.3208351135254,18.3207492828369,18.3206653594971,18.3205814361572,18.3204975128174,18.3204116821289,18.3203277587891,18.3202438354492,18.3201580047607,18.3200740814209,18.3199901580811,18.3199062347412,18.3198204040527,18.3197364807129,18.319652557373,18.3195686340332,18.3194828033447,18.3193988800049,18.319314956665,18.3192291259766,18.3191452026367,18.2719116210938,18.2665901184082,18.2665157318115,18.2664432525635,18.2663688659668,18.2662944793701,18.2662220001221,18.2661476135254,18.2660751342773,0,0,0,0,0,0,0,0,0,0,0,0,0,0,0,0,0,0,0,0,0,0,0,0,0,0,0,0,0,0,0,0,0,0,0,0,0,0,0,0,0,0,0,0,0,0,0
18.3316421508789,18.3315677642822,18.3314933776855,18.3314189910889,18.3313446044922,18.3312702178955,18.3311977386475,18.3311233520508,18.3310489654541,18.3309745788574,18.3309001922607,18.3308258056641,18.3307514190674,18.3306770324707,18.330602645874,18.3305282592773,18.3304538726807,18.330379486084,18.3303203582764,18.3302745819092,18.3302268981934,18.3301811218262,18.3301334381104,18.3300876617432,18.3300399780273,18.3299942016602,18.329948425293,18.3299007415771,18.32985496521,18.3298072814941,18.329761505127,18.3297100067139,18.3296566009521,18.3296012878418,18.3295478820801,18.3294944763184,18.3294410705566,18.3293857574463,18.3293323516846,18.3292789459229,18.3292255401611,18.3291702270508,18.3291168212891,18.3290634155273,18.329008102417,18.3289546966553,18.3289012908936,18.3288478851318,18.3287925720215,18.3287391662598,18.328685760498,18.3286304473877,18.328577041626,18.3285236358643,18.3284702301025,18.3284149169922,18.3283615112305,18.3283081054688,18.328254699707,18.3281993865967,18.328145980835,18.3280620574951,18.327974319458,18.3278865814209,18.3277988433838,18.327709197998,18.3276214599609,18.3275337219238,18.3274440765381,18.327356338501,18.3272686004639,18.3271808624268,18.327091217041,18.3270034790039,18.3269157409668,18.3268280029297,18.3267383575439,18.3266506195068,18.3265628814697,18.3264751434326,18.3263854980469,18.3262977600098,18.3262100219727,18.3261203765869,18.3260326385498,18.3259449005127,18.3258590698242,18.3257751464844,18.3256912231445,18.3256053924561,18.3255214691162,18.3254375457764,18.3253517150879,18.325267791748,18.3251838684082,18.3250980377197,18.3250141143799,18.32493019104,18.3248443603516,18.3247604370117,18.3246765136719,18.324592590332,18.3245067596436,18.3244228363037,18.3243389129639,18.3242530822754,18.3241691589355,18.3240852355957,18.3239994049072,18.3239154815674,18.3238315582275,18.3237476348877,18.3236618041992,18.3235778808594,18.3234939575195,18.3234081268311,18.3233242034912,18.3232402801514,18.3231563568115,18.323070526123,18.3229866027832,18.3229026794434,18.3228168487549,18.322732925415,18.3226490020752,18.3225631713867,18.3224792480469,18.322395324707,18.3223114013672,18.3222255706787,18.3221416473389,18.322057723999,18.3219718933105,18.3218879699707,18.3218040466309,18.321720123291,18.3216342926025,18.3215503692627,18.3214664459229,18.3213806152344,18.3212966918945,18.3212127685547,18.3211288452148,18.3210430145264,18.3209590911865,18.2719821929932,18.2683982849121,18.2683258056641,18.2682514190674,18.2681770324707,18.2681045532227,18.268030166626,18.2679576873779,18.2678833007812,0,0,0,0,0,0,0,0,0,0,0,0,0,0,0,0,0,0,0,0,0,0,0,0,0,0,0,0,0,0,0,0,0,0,0,0,0,0,0,0,0,0,0,0,0,0,0
18.333459854126,18.3333854675293,18.3333110809326,18.3332366943359,18.3331623077393,18.3330879211426,18.3330135345459,18.3329391479492,18.3328647613525,18.3327903747559,18.3327159881592,18.3326416015625,18.3325672149658,18.3324928283691,18.3324184417725,18.3323440551758,18.3322696685791,18.3321952819824,18.3321361541748,18.3320903778076,18.3320426940918,18.3319969177246,18.3319511413574,18.3319034576416,18.3318576812744,18.3318099975586,18.3317642211914,18.3317184448242,18.3316707611084,18.3316211700439,18.3315677642822,18.3315124511719,18.3314590454102,18.3314056396484,18.3313522338867,18.3312969207764,18.3312435150146,18.3311901092529,18.3311367034912,18.3310813903809,18.3310279846191,18.3309745788574,18.3309192657471,18.3308658599854,18.3308124542236,18.3307590484619,18.3307037353516,18.3306503295898,18.3305969238281,18.3305416107178,18.3304882049561,18.3304347991943,18.3303813934326,18.3303260803223,18.3302726745605,18.3302192687988,18.3301639556885,18.3301105499268,18.330057144165,18.3300037384033,18.329948425293,18.3298645019531,18.329776763916,18.3296890258789,18.3296012878418,18.3295116424561,18.3294239044189,18.3293361663818,18.3292465209961,18.329158782959,18.3290710449219,18.3289833068848,18.328893661499,18.3288059234619,18.3287181854248,18.3286304473877,18.328540802002,18.3284530639648,18.3283653259277,18.328275680542,18.3281879425049,18.3281002044678,18.3280124664307,18.3279285430908,18.3278427124023,18.3277587890625,18.3276748657227,18.3275890350342,18.3275051116943,18.3274211883545,18.327335357666,18.3272514343262,18.3271675109863,18.3270816802979,18.326997756958,18.3269138336182,18.3268299102783,18.3267440795898,18.32666015625,18.3265762329102,18.3264904022217,18.3264064788818,18.326322555542,18.3262367248535,18.3261528015137,18.3260688781738,18.3259830474854,18.3258991241455,18.3258152008057,18.3257312774658,18.3256454467773,18.3255615234375,18.3254776000977,18.3253917694092,18.3253078460693,18.3252239227295,18.325138092041,18.3250541687012,18.3249702453613,18.3248844146729,18.324800491333,18.3247165679932,18.3246326446533,18.3245468139648,18.324462890625,18.3243789672852,18.3242931365967,18.3242092132568,18.324125289917,18.3240394592285,18.3239555358887,18.3238716125488,18.323787689209,18.3237018585205,18.3236179351807,18.3235340118408,18.3234481811523,18.3233642578125,18.3232803344727,18.3231964111328,18.3231105804443,18.3230266571045,18.3229427337646,18.3228569030762,18.3227729797363,18.2720527648926,18.2702083587646,18.270133972168,18.2700595855713,18.2699871063232,18.2699127197266,18.2698402404785,18.2697658538818,18.2696914672852,0,0,0,0,0,0,0,0,0,0,0,0,0,0,0,0,0,0,0,0,0,0,0,0,0,0,0,0,0,0,0,0,0,0,0,0,0,0,0,0,0,0,0,0,0,0,0
18.3352756500244,18.3352012634277,18.3351268768311,18.3350524902344,18.3349781036377,18.334903717041,18.3348293304443,18.3347549438477,18.334680557251,18.3346061706543,18.3345317840576,18.3344573974609,18.3343830108643,18.3343105316162,18.3342361450195,18.3341617584229,18.3340873718262,18.3340129852295,18.3339538574219,18.3339061737061,18.3338603973389,18.3338146209717,18.3337669372559,18.3337211608887,18.3336734771729,18.3336277008057,18.3335800170898,18.333532333374,18.3334789276123,18.3334255218506,18.3333702087402,18.3333168029785,18.3332633972168,18.3332099914551,18.3331546783447,18.333101272583,18.3330478668213,18.3329925537109,18.3329391479492,18.3328857421875,18.3328323364258,18.3327770233154,18.3327236175537,18.332670211792,18.3326148986816,18.3325614929199,18.3325080871582,18.3324546813965,18.3323993682861,18.3323459625244,18.3322925567627,18.3322372436523,18.3321838378906,18.3321304321289,18.3320770263672,18.3320217132568,18.3319683074951,18.3319149017334,18.331859588623,18.3318061828613,18.3317527770996,18.3316688537598,18.331579208374,18.3314914703369,18.3314037322998,18.3313159942627,18.331226348877,18.3311386108398,18.3310508728027,18.330961227417,18.3308734893799,18.3307857513428,18.3306980133057,18.3306083679199,18.3305206298828,18.3304328918457,18.33034324646,18.3302555084229,18.3301677703857,18.3300819396973,18.3299961090088,18.3299121856689,18.3298282623291,18.3297424316406,18.3296585083008,18.3295745849609,18.3294887542725,18.3294048309326,18.3293209075928,18.3292350769043,18.3291511535645,18.3290672302246,18.3289833068848,18.3288974761963,18.3288135528564,18.3287296295166,18.3286437988281,18.3285598754883,18.3284759521484,18.32839012146,18.3283061981201,18.3282222747803,18.3281364440918,18.328052520752,18.3279685974121,18.3278827667236,18.3277988433838,18.3277149200439,18.3276290893555,18.3275451660156,18.3274612426758,18.3273754119873,18.3272914886475,18.3272075653076,18.3271217346191,18.3270378112793,18.3269538879395,18.3268699645996,18.3267841339111,18.3267002105713,18.3266162872314,18.326530456543,18.3264465332031,18.3263626098633,18.3262767791748,18.326192855835,18.3261089324951,18.3260231018066,18.3259391784668,18.325855255127,18.3257713317871,18.3256855010986,18.3256015777588,18.3255176544189,18.3254318237305,18.3253479003906,18.3252639770508,18.3251781463623,18.3250942230225,18.3250102996826,18.3249244689941,18.3248405456543,18.3247566223145,18.3246726989746,18.3245868682861,18.272123336792,18.2720165252686,18.2719440460205,18.2718696594238,18.2717952728271,18.2717227935791,18.2716484069824,18.2715759277344,18.2715015411377,0,0,0,0,0,0,0,0,0,0,0,0,0,0,0,0,0,0,0,0,0,0,0,0,0,0,0,0,0,0,0,0,0,0,0,0,0,0,0,0,0,0,0,0,0,0,0
18.3370933532715,18.3370189666748,18.3369445800781,18.3368701934814,18.3367958068848,18.3367214202881,18.3366470336914,18.3365726470947,18.336498260498,18.3364238739014,18.3363494873047,18.336275100708,18.3362007141113,18.3361263275146,18.336051940918,18.3359775543213,18.3359031677246,18.3358287811279,18.3357715606689,18.3357238769531,18.3356781005859,18.3356304168701,18.3355846405029,18.3355369567871,18.3354911804199,18.3354454040527,18.335391998291,18.3353366851807,18.3352832794189,18.3352298736572,18.3351745605469,18.3351211547852,18.3350677490234,18.3350124359131,18.3349590301514,18.3349056243896,18.3348522186279,18.3347969055176,18.3347434997559,18.3346900939941,18.3346347808838,18.3345813751221,18.3345279693604,18.3344745635986,18.3344192504883,18.3343658447266,18.3343124389648,18.3342571258545,18.3342037200928,18.3341503143311,18.3340950012207,18.334041595459,18.3339881896973,18.3339347839355,18.3338794708252,18.3338260650635,18.3337726593018,18.3337173461914,18.3336639404297,18.333610534668,18.3335571289062,18.3334712982178,18.3333835601807,18.3332958221436,18.3332061767578,18.3331184387207,18.3330307006836,18.3329410552979,18.3328533172607,18.3327655792236,18.3326759338379,18.3325881958008,18.3325004577637,18.3324127197266,18.3323230743408,18.3322353363037,18.3321514129639,18.3320655822754,18.3319816589355,18.3318977355957,18.3318119049072,18.3317279815674,18.3316440582275,18.3315582275391,18.3314743041992,18.3313903808594,18.3313045501709,18.3312206268311,18.3311367034912,18.3310508728027,18.3309669494629,18.330883026123,18.3307971954346,18.3307132720947,18.3306293487549,18.3305435180664,18.3304595947266,18.3303756713867,18.3302898406982,18.3302059173584,18.3301219940186,18.3300361633301,18.3299522399902,18.3298683166504,18.3297824859619,18.3296985626221,18.3296146392822,18.3295288085938,18.3294448852539,18.3293609619141,18.3292751312256,18.3291912078857,18.3291072845459,18.3290233612061,18.3289375305176,18.3288536071777,18.3287696838379,18.3286838531494,18.3285999298096,18.3285160064697,18.3284301757812,18.3283462524414,18.3282623291016,18.3281764984131,18.3280925750732,18.3280086517334,18.3279228210449,18.3278388977051,18.3277549743652,18.3276691436768,18.3275852203369,18.3275012969971,18.3274154663086,18.3273315429688,18.3272476196289,18.3271617889404,18.3270778656006,18.3269939422607,18.3269100189209,18.3268241882324,18.3267402648926,18.3266563415527,18.3265705108643,18.3264865875244,18.3264026641846,18.2739009857178,18.2738265991211,18.2737522125244,18.2736797332764,18.2736053466797,18.2735328674316,18.273458480835,18.2733840942383,18.2733116149902,0,0,0,0,0,0,0,0,0,0,0,0,0,0,0,0,0,0,0,0,0,0,0,0,0,0,0,0,0,0,0,0,0,0,0,0,0,0,0,0,0,0,0,0,0,0,0
18.3389110565186,18.3388366699219,18.3387622833252,18.3386878967285,18.3386135101318,18.3385391235352,18.3384647369385,18.3383903503418,18.3383159637451,18.3382415771484,18.3381671905518,18.3380928039551,18.3380184173584,18.3379440307617,18.337869644165,18.3377952575684,18.3377208709717,18.337646484375,18.3375873565674,18.3375415802002,18.337495803833,18.3374481201172,18.33740234375,18.3373546600342,18.3373031616211,18.3372497558594,18.3371963500977,18.3371410369873,18.3370876312256,18.3370342254639,18.3369789123535,18.3369255065918,18.3368721008301,18.3368167877197,18.336763381958,18.3367099761963,18.3366565704346,18.3366012573242,18.3365478515625,18.3364944458008,18.3364391326904,18.3363857269287,18.336332321167,18.3362770080566,18.3362236022949,18.3361701965332,18.3361167907715,18.3360614776611,18.3360080718994,18.3359546661377,18.3358993530273,18.3358459472656,18.3357925415039,18.3357391357422,18.3356838226318,18.3356304168701,18.3355770111084,18.335521697998,18.3354682922363,18.3354148864746,18.3353595733643,18.3352756500244,18.3351860046387,18.3350982666016,18.3350105285645,18.3349208831787,18.3348331451416,18.3347454071045,18.3346576690674,18.3345680236816,18.3344802856445,18.3343925476074,18.3343048095703,18.3342208862305,18.3341369628906,18.3340511322021,18.3339672088623,18.3338832855225,18.333797454834,18.3337135314941,18.3336296081543,18.3335437774658,18.333459854126,18.3333759307861,18.3332901000977,18.3332061767578,18.333122253418,18.3330364227295,18.3329524993896,18.3328666687012,18.3327827453613,18.3326988220215,18.332612991333,18.3325290679932,18.3324451446533,18.3323593139648,18.332275390625,18.3321914672852,18.3321056365967,18.3320217132568,18.331937789917,18.3318519592285,18.3317680358887,18.3316841125488,18.3315982818604,18.3315143585205,18.3314304351807,18.3313446044922,18.3312606811523,18.3311767578125,18.331090927124,18.3310070037842,18.3309230804443,18.3308372497559,18.330753326416,18.3306694030762,18.3305835723877,18.3304996490479,18.330415725708,18.3303298950195,18.3302459716797,18.3301620483398,18.3300762176514,18.3299922943115,18.3299083709717,18.3298225402832,18.3297386169434,18.3296546936035,18.329568862915,18.3294849395752,18.3294010162354,18.3293151855469,18.329231262207,18.3291473388672,18.3290634155273,18.3289775848389,18.328893661499,18.3288097381592,18.3287239074707,18.3286399841309,18.328556060791,18.3284702301025,18.3283863067627,18.3283023834229,18.3282165527344,18.2757110595703,18.2756366729736,18.275562286377,18.2754898071289,18.2754154205322,18.2753429412842,18.2752685546875,18.2751941680908,18.2751216888428,0,0,0,0,0,0,0,0,0,0,0,0,0,0,0,0,0,0,0,0,0,0,0,0,0,0,0,0,0,0,0,0,0,0,0,0,0,0,0,0,0,0,0,0,0,0,0
18.3407287597656,18.3406543731689,18.3405799865723,18.3405055999756,18.3404312133789,18.3403568267822,18.3402824401855,18.3402080535889,18.3401336669922,18.3400592803955,18.3399848937988,18.3399105072021,18.3398361206055,18.3397617340088,18.3396873474121,18.3396129608154,18.3395385742188,18.3394641876221,18.3394069671631,18.3393592834473,18.3393135070801,18.3392658233643,18.3392162322998,18.3391628265381,18.3391075134277,18.339054107666,18.3390007019043,18.3389472961426,18.3388919830322,18.3388385772705,18.3387851715088,18.3387298583984,18.3386764526367,18.338623046875,18.3385677337646,18.3385143280029,18.3384609222412,18.3384056091309,18.3383522033691,18.3382987976074,18.3382453918457,18.3381900787354,18.3381366729736,18.3380832672119,18.3380279541016,18.3379745483398,18.3379211425781,18.3378658294678,18.3378124237061,18.3377590179443,18.3377056121826,18.3376502990723,18.3375968933105,18.3375434875488,18.3374881744385,18.3374347686768,18.337381362915,18.3373260498047,18.337272644043,18.3372192382812,18.3371658325195,18.3370800018311,18.3369903564453,18.3369026184082,18.3368148803711,18.3367252349854,18.3366374969482,18.3365497589111,18.3364601135254,18.3363761901855,18.3362903594971,18.3362064361572,18.3361225128174,18.3360366821289,18.3359527587891,18.3358688354492,18.3357830047607,18.3356990814209,18.3356151580811,18.3355293273926,18.3354454040527,18.3353614807129,18.3352756500244,18.3351917266846,18.3351078033447,18.3350219726562,18.3349380493164,18.3348522186279,18.3347682952881,18.3346843719482,18.3345985412598,18.3345146179199,18.3344306945801,18.3343448638916,18.3342609405518,18.3341770172119,18.3340911865234,18.3340072631836,18.3339233398438,18.3338375091553,18.3337535858154,18.3336696624756,18.3335838317871,18.3334999084473,18.3334159851074,18.3333301544189,18.3332462310791,18.3331623077393,18.3330764770508,18.3329925537109,18.3329067230225,18.3328227996826,18.3327388763428,18.3326530456543,18.3325691223145,18.3324851989746,18.3323993682861,18.3323154449463,18.3322315216064,18.332145690918,18.3320617675781,18.3319778442383,18.3318920135498,18.33180809021,18.3317241668701,18.3316383361816,18.3315544128418,18.331470489502,18.3313846588135,18.3313007354736,18.3312168121338,18.3311309814453,18.3310470581055,18.3309631347656,18.3308773040771,18.3307933807373,18.3307094573975,18.330623626709,18.3305397033691,18.3304557800293,18.3303699493408,18.330286026001,18.3302021026611,18.3301162719727,18.3300323486328,18.2775211334229,18.2774467468262,18.2773742675781,18.2772998809814,18.2772254943848,18.2771530151367,18.27707862854,18.277006149292,18.2769317626953,0,0,0,0,0,0,0,0,0,0,0,0,0,0,0,0,0,0,0,0,0,0,0,0,0,0,0,0,0,0,0,0,0,0,0,0,0,0,0,0,0,0,0,0,0,0,0
18.3425464630127,18.342472076416,18.3423976898193,18.3423233032227,18.342248916626,18.3421745300293,18.3421001434326,18.3420257568359,18.3419513702393,18.3418769836426,18.3418025970459,18.3417282104492,18.3416538238525,18.3415794372559,18.3415050506592,18.3414306640625,18.3413562774658,18.3412818908691,18.3412246704102,18.3411769866943,18.3411293029785,18.3410758972168,18.3410224914551,18.3409671783447,18.340913772583,18.3408603668213,18.3408050537109,18.3407516479492,18.3406982421875,18.3406429290771,18.3405895233154,18.3405361175537,18.3404808044434,18.3404273986816,18.3403739929199,18.3403186798096,18.3402652740479,18.3402118682861,18.3401584625244,18.3401031494141,18.3400497436523,18.3399963378906,18.3399410247803,18.3398876190186,18.3398342132568,18.3397789001465,18.3397254943848,18.339672088623,18.3396167755127,18.339563369751,18.3395099639893,18.3394565582275,18.3394012451172,18.3393478393555,18.3392944335938,18.3392391204834,18.3391857147217,18.33913230896,18.3390769958496,18.3390235900879,18.3389701843262,18.3388824462891,18.338794708252,18.3387069702148,18.3386192321777,18.3385314941406,18.3384475708008,18.3383617401123,18.3382778167725,18.3381938934326,18.3381080627441,18.3380241394043,18.3379383087158,18.337854385376,18.3377704620361,18.3376846313477,18.3376007080078,18.337516784668,18.3374309539795,18.3373470306396,18.3372611999512,18.3371772766113,18.3370933532715,18.337007522583,18.3369235992432,18.3368396759033,18.3367538452148,18.336669921875,18.3365859985352,18.3365001678467,18.3364162445068,18.336332321167,18.3362464904785,18.3361625671387,18.3360767364502,18.3359928131104,18.3359088897705,18.335823059082,18.3357391357422,18.3356552124023,18.3355693817139,18.335485458374,18.3354015350342,18.3353157043457,18.3352317810059,18.335147857666,18.3350620269775,18.3349781036377,18.3348922729492,18.3348083496094,18.3347244262695,18.3346385955811,18.3345546722412,18.3344707489014,18.3343849182129,18.334300994873,18.3342170715332,18.3341312408447,18.3340473175049,18.333963394165,18.3338775634766,18.3337936401367,18.3337097167969,18.3336238861084,18.3335399627686,18.3334560394287,18.3333702087402,18.3332862854004,18.3332023620605,18.3331165313721,18.3330326080322,18.3329486846924,18.3328628540039,18.3327789306641,18.3326930999756,18.3326091766357,18.3325252532959,18.3324394226074,18.3323554992676,18.3322715759277,18.3321857452393,18.3321018218994,18.3320178985596,18.3319320678711,18.3318481445312,18.279333114624,18.2792587280273,18.2791843414307,18.279109954834,18.2790374755859,18.2789630889893,18.2788887023926,18.2788162231445,18.2787418365479,0,0,0,0,0,0,0,0,0,0,0,0,0,0,0,0,0,0,0,0,0,0,0,0,0,0,0,0,0,0,0,0,0,0,0,0,0,0,0,0,0,0,0,0,0,0,0
18.3443641662598,18.3442897796631,18.3442153930664,18.3441410064697,18.344066619873,18.3439922332764,18.3439178466797,18.343843460083,18.3437690734863,18.3436946868896,18.343620300293,18.3435459136963,18.3434715270996,18.3433971405029,18.3433227539062,18.3432483673096,18.3105735778809,18.3056240081787,18.305549621582,18.3054752349854,18.3054008483887,18.305326461792,18.3052520751953,18.3051776885986,18.305103302002,18.3050289154053,18.3049564361572,18.3048820495605,18.3048076629639,18.3047332763672,18.3046588897705,18.3045845031738,18.3045101165771,18.3044357299805,18.3043613433838,18.3042869567871,18.3042125701904,18.3041381835938,18.3040637969971,18.3039894104004,18.3039169311523,18.3038425445557,18.303768157959,18.3036937713623,18.3036193847656,18.3035449981689,18.3034706115723,18.3033962249756,18.3033218383789,18.3032474517822,18.3031730651855,18.3030986785889,18.3030242919922,18.3029518127441,18.3028774261475,18.3028030395508,18.3027286529541,18.3026542663574,18.3025798797607,18.3025054931641,18.3024311065674,18.3023567199707,18.3406028747559,18.340518951416,18.3404331207275,18.3403491973877,18.3402633666992,18.3401794433594,18.3400955200195,18.3400096893311,18.3399257659912,18.3398418426514,18.3397560119629,18.339672088623,18.3395862579346,18.3395023345947,18.3394184112549,18.3393325805664,18.3392486572266,18.3391647338867,18.3390789031982,18.3389949798584,18.3389091491699,18.3388252258301,18.3387413024902,18.3386554718018,18.3385715484619,18.3384876251221,18.3384017944336,18.3383178710938,18.3382339477539,18.3381481170654,18.3380641937256,18.3379783630371,18.3378944396973,18.3378105163574,18.3377246856689,18.3376407623291,18.3375568389893,18.3374710083008,18.3373870849609,18.3373031616211,18.3372173309326,18.3371334075928,18.3370475769043,18.3369636535645,18.3368797302246,18.3367938995361,18.3367099761963,18.3366260528564,18.336540222168,18.3364562988281,18.3363723754883,18.3362865447998,18.33620262146,18.3361167907715,18.3360328674316,18.3359489440918,18.3358631134033,18.3357791900635,18.3356952667236,18.3356094360352,18.3355255126953,18.3354415893555,18.335355758667,18.3352718353271,18.3351879119873,18.3351020812988,18.335018157959,18.3349342346191,18.3348484039307,18.3347644805908,18.3346786499023,18.3345947265625,18.3345108032227,18.3344249725342,18.3343410491943,18.3342571258545,18.334171295166,18.3340873718262,18.3340034484863,18.3339176177979,18.333833694458,18.3337497711182,18.3336639404297,18.2811431884766,18.2810688018799,18.2809963226318,18.2809219360352,18.2808475494385,18.2807750701904,18.2807006835938,18.2806262969971,18.280553817749,0,0,0,0,0,0,0,0,0,0,0,0,0,0,0,0,0,0,0,0,0,0,0,0,0,0,0,0,0,0,0,0,0,0,0,0,0,0,0,0,0,0,0,0,0,0,0
18.3461837768555,18.3461093902588,18.3460350036621,18.3459606170654,18.3458862304688,18.3458118438721,18.3457374572754,18.3456630706787,18.345588684082,18.3455142974854,18.3454399108887,18.345365524292,18.3452911376953,18.3452167510986,18.345142364502,18.3450679779053,18.3107089996338,18.3074398040771,18.3073654174805,18.3072910308838,18.3072166442871,18.3071422576904,18.3070678710938,18.3069934844971,18.3069190979004,18.3068447113037,18.306770324707,18.3066959381104,18.3066215515137,18.3065490722656,18.3064746856689,18.3064002990723,18.3063259124756,18.3062515258789,18.3061771392822,18.3061027526855,18.3060283660889,18.3059539794922,18.3058795928955,18.3058052062988,18.3057308197021,18.3056564331055,18.3055820465088,18.3055076599121,18.3054351806641,18.3053607940674,18.3052864074707,18.305212020874,18.3051376342773,18.3050632476807,18.304988861084,18.3049144744873,18.3048400878906,18.3047657012939,18.3046913146973,18.3046169281006,18.3045425415039,18.3044681549072,18.3043937683105,18.3043193817139,18.3042449951172,18.3041706085205,18.3424129486084,18.3423271179199,18.3422431945801,18.3421573638916,18.3420734405518,18.3419895172119,18.3419036865234,18.3418197631836,18.3417339324951,18.3416500091553,18.3415660858154,18.341480255127,18.3413963317871,18.3413105010986,18.3412265777588,18.3411426544189,18.3410568237305,18.3409729003906,18.3408870697021,18.3408031463623,18.3407192230225,18.340633392334,18.3405494689941,18.3404655456543,18.3403797149658,18.340295791626,18.3402099609375,18.3401260375977,18.3400421142578,18.3399562835693,18.3398723602295,18.339786529541,18.3397026062012,18.3396186828613,18.3395328521729,18.339448928833,18.3393650054932,18.3392791748047,18.3391952514648,18.3391094207764,18.3390254974365,18.3389415740967,18.3388557434082,18.3387718200684,18.3386878967285,18.33860206604,18.3385181427002,18.3384323120117,18.3383483886719,18.338264465332,18.3381786346436,18.3380947113037,18.3380088806152,18.3379249572754,18.3378410339355,18.3377552032471,18.3376712799072,18.3375873565674,18.3375015258789,18.3374176025391,18.3373317718506,18.3372478485107,18.3371639251709,18.3370780944824,18.3369941711426,18.3369102478027,18.3368244171143,18.3367404937744,18.3366565704346,18.3365707397461,18.3364868164062,18.3364009857178,18.3363170623779,18.3362331390381,18.3361473083496,18.3360633850098,18.3359794616699,18.3358936309814,18.3358097076416,18.3357238769531,18.3356399536133,18.3355598449707,18.3354797363281,18.2829551696777,18.2828807830811,18.2828063964844,18.2827339172363,18.2826595306396,18.282585144043,18.2825126647949,18.2824382781982,18.2823638916016,0,0,0,0,0,0,0,0,0,0,0,0,0,0,0,0,0,0,0,0,0,0,0,0,0,0,0,0,0,0,0,0,0,0,0,0,0,0,0,0,0,0,0,0,0,0,0
18.3480033874512,18.3479290008545,18.3478546142578,18.3477802276611,18.3477058410645,18.3476314544678,18.3475570678711,18.3474826812744,18.3474082946777,18.3473339080811,18.3472595214844,18.3471851348877,18.347110748291,18.3470363616943,18.3469619750977,18.346887588501,18.3108425140381,18.3092555999756,18.3091812133789,18.3091068267822,18.3090324401855,18.3089580535889,18.3088836669922,18.3088092803955,18.3087348937988,18.3086605072021,18.3085861206055,18.3085117340088,18.3084373474121,18.3083648681641,18.3082904815674,18.3082160949707,18.308141708374,18.3080673217773,18.3079929351807,18.307918548584,18.3078441619873,18.3077697753906,18.3076953887939,18.3076210021973,18.3075466156006,18.3074722290039,18.3073978424072,18.3073234558105,18.3072490692139,18.3071746826172,18.3071002960205,18.3070259094238,18.3069515228271,18.3068771362305,18.3068027496338,18.3067302703857,18.3066558837891,18.3065814971924,18.3065071105957,18.306432723999,18.3063583374023,18.3062839508057,18.306209564209,18.3061351776123,18.3060607910156,18.3059864044189,18.344217300415,18.3441333770752,18.3440475463867,18.3439636230469,18.343879699707,18.3437938690186,18.3437099456787,18.3436241149902,18.3435401916504,18.3434562683105,18.3433704376221,18.3432865142822,18.3432006835938,18.3431167602539,18.3430328369141,18.3429470062256,18.3428630828857,18.3427772521973,18.3426933288574,18.3426094055176,18.3425235748291,18.3424396514893,18.3423538208008,18.3422698974609,18.3421859741211,18.3421001434326,18.3420162200928,18.3419303894043,18.3418464660645,18.3417625427246,18.3416767120361,18.3415927886963,18.3415069580078,18.341423034668,18.3413391113281,18.3412532806396,18.3411693572998,18.3410835266113,18.3409996032715,18.3409156799316,18.3408298492432,18.3407459259033,18.3406620025635,18.340576171875,18.3404922485352,18.3404064178467,18.3403224945068,18.340238571167,18.3401527404785,18.3400688171387,18.3399829864502,18.3398990631104,18.3398151397705,18.339729309082,18.3396453857422,18.3395614624023,18.3394756317139,18.339391708374,18.3393058776855,18.3392219543457,18.3391380310059,18.3390522003174,18.3389682769775,18.3388824462891,18.3387985229492,18.3387145996094,18.3386287689209,18.3385448455811,18.3384609222412,18.3383750915527,18.3382911682129,18.3382053375244,18.3381214141846,18.3380374908447,18.3379516601562,18.3378677368164,18.3377838134766,18.3376979827881,18.3376140594482,18.3375358581543,18.3374557495117,18.3373756408691,18.3372974395752,18.2847671508789,18.2846927642822,18.2846183776855,18.2845458984375,18.2844715118408,18.2843971252441,18.2843246459961,18.2842502593994,18.2841758728027,0,0,0,0,0,0,0,0,0,0,0,0,0,0,0,0,0,0,0,0,0,0,0,0,0,0,0,0,0,0,0,0,0,0,0,0,0,0,0,0,0,0,0,0,0,0,0
18.3498229980469,18.3497486114502,18.3496742248535,18.3495998382568,18.3495254516602,18.3494510650635,18.3493766784668,18.3493022918701,18.3492279052734,18.3491535186768,18.3490791320801,18.3490047454834,18.3489303588867,18.34885597229,18.3487815856934,18.3487071990967,18.3111438751221,18.3110694885254,18.3109970092773,18.3109226226807,18.310848236084,18.3107738494873,18.3106994628906,18.3106250762939,18.3105506896973,18.3104782104492,18.3104038238525,18.3103294372559,18.3102550506592,18.3101806640625,18.3101062774658,18.3100318908691,18.3099575042725,18.3098831176758,18.3098087310791,18.3097343444824,18.3096599578857,18.3095855712891,18.3095111846924,18.3094367980957,18.309362411499,18.3092880249023,18.3092136383057,18.309139251709,18.3090648651123,18.3089904785156,18.3089160919189,18.3088417053223,18.3087673187256,18.3086929321289,18.3086185455322,18.3085441589355,18.3084697723389,18.3083953857422,18.3083209991455,18.3082466125488,18.3081722259521,18.3080978393555,18.3080234527588,18.3079490661621,18.3078746795654,18.3078002929688,18.3460235595703,18.3459396362305,18.345853805542,18.3457698822021,18.3456840515137,18.3456001281738,18.345516204834,18.3454303741455,18.3453464508057,18.3452606201172,18.3451766967773,18.3450927734375,18.345006942749,18.3449230194092,18.3448371887207,18.3447532653809,18.3446674346924,18.3445835113525,18.3444995880127,18.3444137573242,18.3443298339844,18.3442440032959,18.3441600799561,18.3440761566162,18.3439903259277,18.3439064025879,18.3438205718994,18.3437366485596,18.3436527252197,18.3435668945312,18.3434829711914,18.3433971405029,18.3433132171631,18.3432292938232,18.3431434631348,18.3430595397949,18.3429737091064,18.3428897857666,18.3428058624268,18.3427200317383,18.3426361083984,18.34255027771,18.3424663543701,18.3423824310303,18.3422966003418,18.342212677002,18.3421268463135,18.3420429229736,18.3419589996338,18.3418731689453,18.3417892456055,18.341703414917,18.3416194915771,18.3415355682373,18.3414497375488,18.341365814209,18.3412799835205,18.3411960601807,18.3411121368408,18.3410263061523,18.3409423828125,18.3408584594727,18.3407726287842,18.3406887054443,18.3406028747559,18.340518951416,18.3404350280762,18.3403491973877,18.3402652740479,18.3401794433594,18.3400955200195,18.3400115966797,18.3399257659912,18.3398418426514,18.3397579193115,18.339672088623,18.3395919799805,18.3395118713379,18.3394317626953,18.3393535614014,18.3392734527588,18.3391933441162,18.3391151428223,18.2865791320801,18.2865047454834,18.2864303588867,18.2863578796387,18.286283493042,18.2862091064453,18.2861366271973,18.2860622406006,18.2859878540039,0,0,0,0,0,0,0,0,0,0,0,0,0,0,0,0,0,0,0,0,0,0,0,0,0,0,0,0,0,0,0,0,0,0,0,0,0,0,0,0,0,0,0,0,0,0,0
18.3516426086426,18.3515682220459,18.3514938354492,18.3514194488525,18.3513450622559,18.3512706756592,18.3511962890625,18.3511219024658,18.3510475158691,18.3509731292725,18.3508987426758,18.3508243560791,18.3507499694824,18.3506755828857,18.3506011962891,18.3505268096924,18.3129596710205,18.3128871917725,18.3128128051758,18.3127384185791,18.3675022125244,18.3677520751953,18.3680019378662,18.3682518005371,18.3684997558594,18.3687496185303,18.3689994812012,18.3692493438721,18.369499206543,18.3697471618652,18.3699970245361,18.370246887207,18.3704967498779,18.3707466125488,18.3709945678711,18.371244430542,18.3714942932129,18.371753692627,18.3720378875732,18.3723201751709,18.3726043701172,18.3728866577148,18.3731708526611,18.3734531402588,18.3737373352051,18.3740196228027,18.374303817749,18.3745861053467,18.374870300293,18.3751525878906,18.3754367828369,18.3757190704346,18.3451480865479,18.3450736999512,18.3449993133545,18.3449249267578,18.3448505401611,18.3447761535645,18.3112392425537,18.3097648620605,18.3096904754639,18.3096160888672,18.3478298187256,18.3477458953857,18.3476600646973,18.3475761413574,18.3474903106689,18.3474063873291,18.3473224639893,18.3472366333008,18.3471527099609,18.3470668792725,18.3469829559326,18.3468971252441,18.3468132019043,18.3467292785645,18.346643447876,18.3465595245361,18.3464736938477,18.3463897705078,18.346305847168,18.3462200164795,18.3461360931396,18.3460502624512,18.3459663391113,18.3458805084229,18.345796585083,18.3457126617432,18.3456268310547,18.3455429077148,18.3454570770264,18.3453731536865,18.3452892303467,18.3452033996582,18.3451194763184,18.3450336456299,18.34494972229,18.3448638916016,18.3447799682617,18.3446960449219,18.3446102142334,18.3445262908936,18.3444404602051,18.3443565368652,18.3442726135254,18.3441867828369,18.3441028594971,18.3440170288086,18.3439331054688,18.3438491821289,18.3437633514404,18.3436794281006,18.3435935974121,18.3435096740723,18.3434257507324,18.3433399200439,18.3432559967041,18.3431701660156,18.3430862426758,18.3430023193359,18.3429164886475,18.3428325653076,18.3427467346191,18.3426628112793,18.3425788879395,18.342493057251,18.3424091339111,18.3423233032227,18.3422393798828,18.342155456543,18.3420696258545,18.3419857025146,18.3418998718262,18.3418159484863,18.3417320251465,18.3416481018066,18.3415679931641,18.3414878845215,18.3414096832275,18.341329574585,18.3412494659424,18.3411712646484,18.3410911560059,18.3410110473633,18.3409328460693,18.2883911132812,18.2883186340332,18.2882442474365,18.2881698608398,18.2880954742432,18.2880229949951,18.2879486083984,18.2878742218018,18.2878017425537,0,0,0,0,0,0,0,0,0,0,0,0,0,0,0,0,0,0,0,0,0,0,0,0,0,0,0,0,0,0,0,0,0,0,0,0,0,0,0,0,0,0,0,0,0,0,0
18.3534622192383,18.3533878326416,18.3533134460449,18.3532390594482,18.3531646728516,18.3530902862549,18.3530158996582,18.3529415130615,18.3528671264648,18.3527927398682,18.3527183532715,18.3526439666748,18.3525695800781,18.3524951934814,18.3524208068848,18.3523464202881,18.3147773742676,18.3147029876709,18.3146286010742,18.3145561218262,18.3493518829346,18.3492755889893,18.3492012023926,18.3491268157959,18.3490524291992,18.3489761352539,18.3489017486572,18.3488273620605,18.3487529754639,18.3486785888672,18.3486042022705,18.3485298156738,18.3484573364258,18.3483829498291,18.3483085632324,18.3482341766357,18.3481597900391,18.3480854034424,18.3480110168457,18.3479347229004,18.3478603363037,18.347785949707,18.3477115631104,18.3476371765137,18.347562789917,18.3474884033203,18.3474140167236,18.347339630127,18.3472652435303,18.3471908569336,18.3471164703369,18.3470401763916,18.3469657897949,18.3468914031982,18.3468170166016,18.3467426300049,18.3466682434082,18.3465938568115,18.3116550445557,18.311580657959,18.3115062713623,18.3114318847656,18.3496360778809,18.349552154541,18.3494663238525,18.3493824005127,18.3492984771729,18.3492126464844,18.3491287231445,18.3490428924561,18.3489589691162,18.3488731384277,18.3487892150879,18.348705291748,18.3486194610596,18.3485355377197,18.3484497070312,18.3483657836914,18.3482799530029,18.3481960296631,18.3481121063232,18.3480262756348,18.3479423522949,18.3478565216064,18.3477725982666,18.3476867675781,18.3476028442383,18.3475189208984,18.34743309021,18.3473491668701,18.3472633361816,18.3471794128418,18.3470935821533,18.3470096588135,18.3469257354736,18.3468399047852,18.3467559814453,18.3466701507568,18.346586227417,18.3465023040771,18.3464164733887,18.3463325500488,18.3462467193604,18.3461627960205,18.346076965332,18.3459930419922,18.3459091186523,18.3458232879639,18.345739364624,18.3456535339355,18.3455696105957,18.3454856872559,18.3453998565674,18.3453159332275,18.3452301025391,18.3451461791992,18.3450622558594,18.3449764251709,18.3448925018311,18.3448066711426,18.3447227478027,18.3446369171143,18.3445529937744,18.3444690704346,18.3443832397461,18.3442993164062,18.3442134857178,18.3441295623779,18.3440456390381,18.3439598083496,18.3438758850098,18.3437900543213,18.3437061309814,18.3436241149902,18.3435459136963,18.3434658050537,18.3433856964111,18.3433074951172,18.3432273864746,18.343147277832,18.3430690765381,18.3429889678955,18.3429088592529,18.3428287506104,18.3427505493164,18.2902050018311,18.2901306152344,18.2900562286377,18.2899837493896,18.289909362793,18.2898349761963,18.2897624969482,18.2896881103516,18.2896137237549,0,0,0,0,0,0,0,0,0,0,0,0,0,0,0,0,0,0,0,0,0,0,0,0,0,0,0,0,0,0,0,0,0,0,0,0,0,0,0,0,0,0,0,0,0,0,0
18.3552837371826,18.3552093505859,18.3551349639893,18.3550605773926,18.3549861907959,18.3549118041992,18.3548374176025,18.3547630310059,18.3546886444092,18.3546142578125,18.3545398712158,18.3544654846191,18.3543891906738,18.3543148040771,18.3542404174805,18.3541660308838,18.316593170166,18.3165187835693,18.3164463043213,18.3163719177246,18.3511714935303,18.351095199585,18.3888854980469,18.3888111114502,18.3887367248535,18.3886623382568,18.3885879516602,18.3885135650635,18.3884391784668,18.3883647918701,18.3882904052734,18.3882160186768,18.3881416320801,18.3880672454834,18.3879928588867,18.38791847229,18.3878440856934,18.3877696990967,18.34983253479,18.3497543334961,18.3875465393066,18.38747215271,18.3873977661133,18.3873233795166,18.3872489929199,18.3871746063232,18.3871002197266,18.3870258331299,18.3869514465332,18.3868770599365,18.3868026733398,18.3867282867432,18.3866539001465,18.3865795135498,18.3865051269531,18.3864307403564,18.3484859466553,18.3484134674072,18.3134727478027,18.3133983612061,18.3133239746094,18.3132495880127,18.3514442443848,18.3513584136963,18.3512744903564,18.351188659668,18.3511047363281,18.3510189056396,18.3509349822998,18.35085105896,18.3507652282715,18.3506813049316,18.3505954742432,18.3505115509033,18.3504257202148,18.350341796875,18.3502578735352,18.3501720428467,18.3500881195068,18.3500022888184,18.3499183654785,18.34983253479,18.3497486114502,18.3496627807617,18.3495788574219,18.349494934082,18.3494091033936,18.3493251800537,18.3492393493652,18.3491554260254,18.3490695953369,18.3489856719971,18.3489017486572,18.3488159179688,18.3487319946289,18.3486461639404,18.3485622406006,18.3484764099121,18.3483924865723,18.3483085632324,18.3482227325439,18.3481388092041,18.3480529785156,18.3479690551758,18.3478832244873,18.3477993011475,18.3477153778076,18.3476295471191,18.3475456237793,18.3474597930908,18.347375869751,18.3472919464111,18.3472061157227,18.3471221923828,18.3470363616943,18.3469524383545,18.346866607666,18.3467826843262,18.3466987609863,18.3466129302979,18.346529006958,18.3464431762695,18.3463592529297,18.3462753295898,18.3461894989014,18.3461055755615,18.346019744873,18.3459358215332,18.3458499908447,18.3457660675049,18.345682144165,18.3456020355225,18.3455238342285,18.3454437255859,18.3453636169434,18.3452835083008,18.3452053070068,18.3451251983643,18.3450450897217,18.3449668884277,18.3448867797852,18.3448066711426,18.3447284698486,18.3446483612061,18.3445682525635,18.2920188903809,18.2919445037842,18.2918701171875,18.2917957305908,18.2917232513428,18.2916488647461,18.2915744781494,18.2915019989014,18.2914276123047,0,0,0,0,0,0,0,0,0,0,0,0,0,0,0,0,0,0,0,0,0,0,0,0,0,0,0,0,0,0,0,0,0,0,0,0,0,0,0,0,0,0,0,0,0,0,0
18.357105255127,18.3570308685303,18.3569564819336,18.3568820953369,18.3568077087402,18.3567333221436,18.3566589355469,18.3565826416016,18.3565082550049,18.3564338684082,18.3563594818115,18.3562850952148,18.3562107086182,18.3561363220215,18.3560619354248,18.3559875488281,18.3184108734131,18.3183364868164,18.3182621002197,18.3181896209717,18.352991104126,18.3529148101807,18.3907108306885,18.3906364440918,18.3905620574951,18.3904876708984,18.3904132843018,18.3903388977051,18.3902645111084,18.3901901245117,18.390115737915,18.3900413513184,18.3899669647217,18.389892578125,18.3898181915283,18.3897438049316,18.389669418335,18.3895950317383,18.3516521453857,18.3515758514404,18.3893718719482,18.3892974853516,18.3892230987549,18.3891487121582,18.3890743255615,18.3889999389648,18.3889255523682,18.3888511657715,18.3887767791748,18.3887023925781,18.3886280059814,18.3885536193848,18.3884792327881,18.3884048461914,18.3883285522461,18.3882541656494,18.3503074645996,18.3502349853516,18.3152885437012,18.3152141571045,18.3151397705078,18.3150653839111,18.35325050354,18.3531665802002,18.3530807495117,18.3529968261719,18.3529109954834,18.3528270721436,18.3527431488037,18.3526573181152,18.3525733947754,18.3524875640869,18.3524036407471,18.3523178100586,18.3522338867188,18.3521480560303,18.3520641326904,18.3519802093506,18.3518943786621,18.3518104553223,18.3517246246338,18.3516407012939,18.3515548706055,18.3514709472656,18.3513851165771,18.3513011932373,18.3512172698975,18.351131439209,18.3510475158691,18.3509616851807,18.3508777618408,18.3507919311523,18.3507080078125,18.350622177124,18.3505382537842,18.3504543304443,18.3503684997559,18.350284576416,18.3501987457275,18.3501148223877,18.3500289916992,18.3499450683594,18.3498611450195,18.3497753143311,18.3496913909912,18.3496055603027,18.3495216369629,18.3494358062744,18.3493518829346,18.3492679595947,18.3491821289062,18.3490982055664,18.3490123748779,18.3489284515381,18.3488426208496,18.3487586975098,18.3486747741699,18.3485889434814,18.3485050201416,18.3484191894531,18.3483352661133,18.3482494354248,18.348165512085,18.3480815887451,18.3479957580566,18.3479118347168,18.3478260040283,18.3477420806885,18.3476600646973,18.3475799560547,18.3475017547607,18.3474216461182,18.3473415374756,18.347261428833,18.3471832275391,18.3471031188965,18.3470230102539,18.34694480896,18.3468647003174,18.3467845916748,18.3467063903809,18.3466262817383,18.3465461730957,18.3464660644531,18.3463878631592,18.2938327789307,18.293758392334,18.2936840057373,18.2936096191406,18.2935371398926,18.2934627532959,18.2933883666992,18.2933139801025,18.2932415008545,0,0,0,0,0,0,0,0,0,0,0,0,0,0,0,0,0,0,0,0,0,0,0,0,0,0,0,0,0,0,0,0,0,0,0,0,0,0,0,0,0,0,0,0,0,0,0
18.3589267730713,18.3588523864746,18.3587779998779,18.3587036132812,18.3586292266846,18.3585529327393,18.3584785461426,18.3584041595459,18.3583297729492,18.3582553863525,18.3581809997559,18.3581066131592,18.3580322265625,18.3579578399658,18.3578834533691,18.3578090667725,18.3202285766602,18.3201541900635,18.3200798034668,18.3200073242188,18.3548126220703,18.354736328125,18.3925361633301,18.3924617767334,18.3923873901367,18.39231300354,18.3922367095947,18.392162322998,18.3920879364014,18.3920135498047,18.391939163208,18.3918647766113,18.3917903900146,18.391716003418,18.3916416168213,18.3915672302246,18.3914928436279,18.3914184570312,18.3534736633301,18.3533954620361,18.3911952972412,18.3911209106445,18.3910465240479,18.3909721374512,18.3908977508545,18.3908233642578,18.3907489776611,18.3906745910645,18.3906002044678,18.3905258178711,18.3904514312744,18.3903770446777,18.3903026580811,18.3902282714844,18.3901538848877,18.390079498291,18.3521270751953,18.3520545959473,18.3171062469482,18.3170318603516,18.3169574737549,18.3168811798096,18.3550586700439,18.3549747467041,18.3548889160156,18.3548049926758,18.3547191619873,18.3546352386475,18.354549407959,18.3544654846191,18.3543796539307,18.3542957305908,18.3542098999023,18.3541259765625,18.3540420532227,18.3539562225342,18.3538722991943,18.3537864685059,18.353702545166,18.3536167144775,18.3535327911377,18.3534469604492,18.3533630371094,18.3532772064209,18.3531932830811,18.3531093597412,18.3530235290527,18.3529396057129,18.3528537750244,18.3527698516846,18.3526840209961,18.3526000976562,18.3525142669678,18.3524303436279,18.3523464202881,18.3522605895996,18.3521766662598,18.3520908355713,18.3520069122314,18.351921081543,18.3518371582031,18.3517513275146,18.3516674041748,18.351583480835,18.3514976501465,18.3514137268066,18.3513278961182,18.3512439727783,18.3511581420898,18.35107421875,18.3509883880615,18.3509044647217,18.3508205413818,18.3507347106934,18.3506507873535,18.350564956665,18.3504810333252,18.3503952026367,18.3503112792969,18.350227355957,18.3501415252686,18.3500576019287,18.3499717712402,18.3498878479004,18.3498020172119,18.3497180938721,18.3496379852295,18.3495597839355,18.349479675293,18.3493995666504,18.3493194580078,18.3492412567139,18.3491611480713,18.3490810394287,18.3490028381348,18.3489227294922,18.3488426208496,18.348762512207,18.3486843109131,18.3486042022705,18.3485240936279,18.348445892334,18.3483657836914,18.3482856750488,18.3482074737549,18.2956466674805,18.2955722808838,18.2954978942871,18.2954235076904,18.2953510284424,18.2952766418457,18.295202255249,18.2951278686523,18.2950553894043,0,0,0,0,0,0,0,0,0,0,0,0,0,0,0,0,0,0,0,0,0,0,0,0,0,0,0,0,0,0,0,0,0,0,0,0,0,0,0,0,0,0,0,0,0,0,0
18.3607482910156,18.3606739044189,18.3605995178223,18.3605251312256,18.3604507446289,18.3603763580322,18.3603019714355,18.3602256774902,18.3601512908936,18.3600769042969,18.3600025177002,18.3599281311035,18.3598537445068,18.3597793579102,18.3597049713135,18.3596305847168,18.3220462799072,18.3219718933105,18.3218975067139,18.3218250274658,18.3566341400146,18.3565578460693,18.394359588623,18.3942852020264,18.3942108154297,18.394136428833,18.3940620422363,18.3939876556396,18.393913269043,18.3938388824463,18.3937644958496,18.3936901092529,18.3936157226562,18.3935413360596,18.3934669494629,18.3933925628662,18.3933181762695,18.3932437896729,18.3552932739258,18.3552169799805,18.3930206298828,18.3929462432861,18.3928718566895,18.3927974700928,18.3927230834961,18.3926486968994,18.3925743103027,18.3924999237061,18.3924255371094,18.3923511505127,18.392276763916,18.3922023773193,18.3921279907227,18.3920516967773,18.3919773101807,18.391902923584,18.3539485931396,18.3538761138916,18.3189220428467,18.31884765625,18.3187732696533,18.3186988830566,18.3568668365479,18.3567810058594,18.3566970825195,18.3566131591797,18.3565273284912,18.3564434051514,18.3563575744629,18.356273651123,18.3561878204346,18.3561038970947,18.3560180664062,18.3559341430664,18.3558483123779,18.3557643890381,18.3556785583496,18.3555946350098,18.3555107116699,18.3554248809814,18.3553409576416,18.3552551269531,18.3551712036133,18.3550853729248,18.355001449585,18.3549156188965,18.3548316955566,18.3547458648682,18.3546619415283,18.3545761108398,18.3544921875,18.3544082641602,18.3543224334717,18.3542385101318,18.3541526794434,18.3540687561035,18.353982925415,18.3538990020752,18.3538131713867,18.3537292480469,18.3536434173584,18.3535594940186,18.3534755706787,18.3533897399902,18.3533058166504,18.3532199859619,18.3531360626221,18.3530502319336,18.3529663085938,18.3528804779053,18.3527965545654,18.3527126312256,18.3526268005371,18.3525428771973,18.3524570465088,18.3523731231689,18.3522872924805,18.3522033691406,18.3521175384521,18.3520336151123,18.3519496917725,18.351863861084,18.3517799377441,18.3516979217529,18.3516178131104,18.3515377044678,18.3514575958252,18.3513793945312,18.3512992858887,18.3512191772461,18.3511409759521,18.3510608673096,18.350980758667,18.3509006500244,18.3508224487305,18.3507423400879,18.3506622314453,18.3505821228027,18.3505039215088,18.3504238128662,18.3503437042236,18.3502655029297,18.3501853942871,18.3501052856445,18.3484916687012,18.2974605560303,18.2973861694336,18.2973117828369,18.2972393035889,18.2971649169922,18.2970905303955,18.2970161437988,18.2969436645508,18.2968692779541,0,0,0,0,0,0,0,0,0,0,0,0,0,0,0,0,0,0,0,0,0,0,0,0,0,0,0,0,0,0,0,0,0,0,0,0,0,0,0,0,0,0,0,0,0,0,0
18.36256980896,18.3624954223633,18.3624210357666,18.3623466491699,18.3622722625732,18.3621978759766,18.3621234893799,18.3620491027832,18.3619747161865,18.3619003295898,18.3618240356445,18.3617496490479,18.3616752624512,18.3616008758545,18.3615264892578,18.3614521026611,18.3238639831543,18.3237895965576,18.3237171173096,18.3236427307129,18.358455657959,18.3583793640137,18.3961868286133,18.396110534668,18.3960361480713,18.3959617614746,18.3958873748779,18.3958129882812,18.3957386016846,18.3956642150879,18.3955898284912,18.3955154418945,18.3954410552979,18.3953666687012,18.3952922821045,18.3952178955078,18.3951435089111,18.3950691223145,18.3571147918701,18.3570384979248,18.3948459625244,18.3947715759277,18.3946971893311,18.3946228027344,18.3945484161377,18.394474029541,18.3943996429443,18.3943252563477,18.394250869751,18.3941764831543,18.3941020965576,18.3940258026123,18.3939514160156,18.3938770294189,18.3938026428223,18.3937282562256,18.3557682037354,18.3556957244873,18.3207397460938,18.3206653594971,18.3205909729004,18.3205165863037,18.3586750030518,18.3585910797119,18.3585052490234,18.3584213256836,18.3583354949951,18.3582515716553,18.3581657409668,18.358081817627,18.3579959869385,18.3579120635986,18.3578262329102,18.3577423095703,18.3576564788818,18.357572555542,18.3574867248535,18.3574028015137,18.3573188781738,18.3572330474854,18.3571491241455,18.357063293457,18.3569793701172,18.3568935394287,18.3568096160889,18.3567237854004,18.3566398620605,18.3565540313721,18.3564701080322,18.3563842773438,18.3563003540039,18.3562145233154,18.3561305999756,18.3560466766357,18.3559608459473,18.3558769226074,18.3557910919189,18.3557071685791,18.3556213378906,18.3555374145508,18.3554515838623,18.3553676605225,18.355281829834,18.3551979064941,18.3551120758057,18.3550281524658,18.354944229126,18.3548583984375,18.3547744750977,18.3546886444092,18.3546047210693,18.3545188903809,18.354434967041,18.3543491363525,18.3542652130127,18.3541793823242,18.3540954589844,18.3540115356445,18.3539257049561,18.3538417816162,18.3537559509277,18.3536758422852,18.3535976409912,18.3535175323486,18.3534374237061,18.3533573150635,18.3532791137695,18.353199005127,18.3531188964844,18.3530406951904,18.3529605865479,18.3528804779053,18.3528003692627,18.3527221679688,18.3526420593262,18.3525619506836,18.352481842041,18.3524036407471,18.3523235321045,18.3522434234619,18.3521633148193,18.3520851135254,18.3520050048828,18.3519248962402,18.3485546112061,18.2992744445801,18.2992000579834,18.2991275787354,18.2990531921387,18.298978805542,18.2989063262939,18.2988319396973,18.2987575531006,18.2986831665039,0,0,0,0,0,0,0,0,0,0,0,0,0,0,0,0,0,0,0,0,0,0,0,0,0,0,0,0,0,0,0,0,0,0,0,0,0,0,0,0,0,0,0,0,0,0,0
18.3643932342529,18.3643188476562,18.3642444610596,18.3641700744629,18.3640937805176,18.3640193939209,18.3639450073242,18.3638706207275,18.3637962341309,18.3637218475342,18.3636474609375,18.3635730743408,18.3634986877441,18.3634243011475,18.3633499145508,18.3632736206055,18.32568359375,18.3256092071533,18.3255348205566,18.32546043396,18.3602771759033,18.360200881958,18.3980121612549,18.3979377746582,18.3978633880615,18.3977890014648,18.3977146148682,18.3976402282715,18.3975658416748,18.3974895477295,18.3974151611328,18.3973407745361,18.3972663879395,18.3971920013428,18.3971176147461,18.3970432281494,18.3969688415527,18.3968944549561,18.3589363098145,18.3588600158691,18.396671295166,18.3965969085693,18.3965225219727,18.396448135376,18.3963737487793,18.3962993621826,18.3962249755859,18.3961505889893,18.3960762023926,18.3960018157959,18.3959255218506,18.3958511352539,18.3957767486572,18.3957023620605,18.3956279754639,18.3955535888672,18.3575897216797,18.3575172424316,18.3225574493408,18.3224830627441,18.3224086761475,18.3223342895508,18.3604831695557,18.3603992462158,18.3603134155273,18.3602294921875,18.360143661499,18.3600597381592,18.3599739074707,18.3598899841309,18.359806060791,18.3597202301025,18.3596363067627,18.3595504760742,18.3594665527344,18.3593807220459,18.3592967987061,18.3592109680176,18.3591270446777,18.3590412139893,18.3589572906494,18.3588714599609,18.3587875366211,18.3587017059326,18.3586177825928,18.3585319519043,18.3584480285645,18.358362197876,18.3582782745361,18.3581924438477,18.3581085205078,18.358024597168,18.3579387664795,18.3578548431396,18.3577690124512,18.3576850891113,18.3575992584229,18.357515335083,18.3574295043945,18.3573455810547,18.3572597503662,18.3571758270264,18.3570899963379,18.357006072998,18.3569202423096,18.3568363189697,18.3567504882812,18.3566665649414,18.3565826416016,18.3564968109131,18.3564128875732,18.3563270568848,18.3562431335449,18.3561573028564,18.3560733795166,18.3559875488281,18.3559036254883,18.3558177947998,18.3557357788086,18.355655670166,18.3555774688721,18.3554973602295,18.3554172515869,18.3553371429443,18.3552589416504,18.3551788330078,18.3550987243652,18.3550186157227,18.3549404144287,18.3548603057861,18.3547801971436,18.354700088501,18.354621887207,18.3545417785645,18.3544616699219,18.3543834686279,18.3543033599854,18.3542232513428,18.3541431427002,18.3540649414062,18.3539848327637,18.3539047241211,18.3538246154785,18.3537464141846,18.3486156463623,18.3010902404785,18.3010158538818,18.3009414672852,18.3008689880371,18.3007946014404,18.3007202148438,18.3006458282471,18.300573348999,18.3004989624023,0,0,0,0,0,0,0,0,0,0,0,0,0,0,0,0,0,0,0,0,0,0,0,0,0,0,0,0,0,0,0,0,0,0,0,0,0,0,0,0,0,0,0,0,0,0,0
18.3662166595459,18.3661403656006,18.3660659790039,18.3659915924072,18.3659172058105,18.3658428192139,18.3657684326172,18.3656940460205,18.3656196594238,18.3655452728271,18.3654708862305,18.3653945922852,18.3653202056885,18.3652458190918,18.3651714324951,18.3650970458984,18.3275012969971,18.3274269104004,18.3273544311523,18.3272800445557,18.3621006011963,18.3620223999023,18.3998374938965,18.3997631072998,18.3996887207031,18.3996143341064,18.3995399475098,18.3994655609131,18.3993911743164,18.3993167877197,18.399242401123,18.3991680145264,18.3990936279297,18.399019241333,18.3989448547363,18.3988704681396,18.3987941741943,18.3987197875977,18.3607597351074,18.3606815338135,18.3984966278076,18.3984222412109,18.3983478546143,18.3982734680176,18.3981990814209,18.3981246948242,18.3980503082275,18.3979759216309,18.3979015350342,18.3978271484375,18.3977527618408,18.3976764678955,18.3976020812988,18.3975276947021,18.3974533081055,18.3973789215088,18.3594131469727,18.359338760376,18.3243770599365,18.3243026733398,18.3242282867432,18.3241539001465,18.3622932434082,18.3622074127197,18.3621234893799,18.3620376586914,18.3619537353516,18.3618679046631,18.3617839813232,18.3616981506348,18.3616142272949,18.3615283966064,18.3614444732666,18.3613586425781,18.3612747192383,18.3611907958984,18.36110496521,18.3610210418701,18.3609352111816,18.3608512878418,18.3607654571533,18.3606815338135,18.360595703125,18.3605117797852,18.3604259490967,18.3603420257568,18.3602561950684,18.3601722717285,18.36008644104,18.3600025177002,18.3599166870117,18.3598327636719,18.3597469329834,18.3596630096436,18.3595771789551,18.3594932556152,18.3594074249268,18.3593235015869,18.3592376708984,18.3591537475586,18.3590679168701,18.3589839935303,18.3588981628418,18.358814239502,18.3587303161621,18.3586444854736,18.3585605621338,18.3584747314453,18.3583908081055,18.358304977417,18.3582210540771,18.3581352233887,18.3580513000488,18.3579654693604,18.3578815460205,18.357795715332,18.3577156066895,18.3576374053955,18.3575572967529,18.3574771881104,18.3573970794678,18.3573188781738,18.3572387695312,18.3571586608887,18.3570785522461,18.3570003509521,18.3569202423096,18.356840133667,18.3567600250244,18.3566818237305,18.3566017150879,18.3565216064453,18.3564414978027,18.3563632965088,18.3562831878662,18.3562030792236,18.3561229705811,18.3560447692871,18.3559646606445,18.355884552002,18.3558044433594,18.3557262420654,18.3556461334229,18.3555660247803,18.3486785888672,18.302906036377,18.3028316497803,18.3027572631836,18.3026828765869,0,0,0,0,0,0,0,0,0,0,0,0,0,0,0,0,0,0,0,0,0,0,0,0,0,0,0,0,0,0,0,0,0,0,0,0,0,0,0,0,0,0,0,0,0,0,0,0,0,0,0,0
18.3680381774902,18.3679637908936,18.3678894042969,18.3678150177002,18.3677406311035,18.3676662445068,18.3675918579102,18.3675174713135,18.3674430847168,18.3673667907715,18.3672924041748,18.3672180175781,18.3671436309814,18.3670692443848,18.3669948577881,18.3669204711914,18.3293209075928,18.3292465209961,18.3291721343994,18.3290996551514,18.3639221191406,18.3638458251953,18.4016647338867,18.40159034729,18.4015159606934,18.4014415740967,18.4013671875,18.4012928009033,18.4012184143066,18.4011421203613,18.4010677337646,18.400993347168,18.4009189605713,18.4008445739746,18.4007701873779,18.4006958007812,18.4006214141846,18.4005470275879,18.3625812530518,18.3625049591064,18.4003238677979,18.4002494812012,18.4001750946045,18.4001007080078,18.4000263214111,18.3999519348145,18.3998756408691,18.3998012542725,18.3997268676758,18.3996524810791,18.3995780944824,18.3995037078857,18.3994293212891,18.3993530273438,18.3992786407471,18.3992042541504,18.361234664917,18.3611621856689,18.3261947631836,18.3261203765869,18.3260459899902,18.3259716033936,18.3641033172607,18.3640174865723,18.3639335632324,18.3638477325439,18.3637638092041,18.3636779785156,18.3635940551758,18.3635082244873,18.3634243011475,18.363338470459,18.3632545471191,18.3631687164307,18.3630847930908,18.3629989624023,18.3629150390625,18.362829208374,18.3627452850342,18.3626594543457,18.3625755310059,18.3624897003174,18.3624057769775,18.3623199462891,18.3622360229492,18.3621501922607,18.3620662689209,18.3619804382324,18.3618965148926,18.3618106842041,18.3617267608643,18.3616409301758,18.3615570068359,18.3614711761475,18.3613872528076,18.3613014221191,18.3612174987793,18.3611316680908,18.361047744751,18.3609619140625,18.3608779907227,18.3607921600342,18.3607082366943,18.3606224060059,18.360538482666,18.3604526519775,18.3603687286377,18.3602828979492,18.3601989746094,18.3601131439209,18.3600292205811,18.3599433898926,18.3598594665527,18.3597774505615,18.3596973419189,18.3596172332764,18.3595371246338,18.3594589233398,18.3593788146973,18.3592987060547,18.3592185974121,18.3591384887695,18.3590602874756,18.358980178833,18.3589000701904,18.3588199615479,18.3587417602539,18.3586616516113,18.3585815429688,18.3585014343262,18.3584232330322,18.3583431243896,18.3582630157471,18.3581829071045,18.3581047058105,18.358024597168,18.3579444885254,18.3578643798828,18.3577861785889,18.3577060699463,18.3576259613037,18.3575458526611,0,0,0,0,0,0,0,0,0,0,0,0,0,0,0,0,0,0,0,0,0,0,0,0,0,0,0,0,0,0,0,0,0,0,0,0,0,0,0,0,0,0,0,0,0,0,0,0,0,0,0,0,0,0,0,0,0,0,0
18.3698635101318,18.3697872161865,18.3697128295898,18.3696384429932,18.3695640563965,18.3694896697998,18.3694152832031,18.3693408966064,18.3692665100098,18.3691921234131,18.3691158294678,18.3690414428711,18.3689670562744,18.3688926696777,18.3688182830811,18.3687438964844,18.3311405181885,18.3310661315918,18.3309917449951,18.3309192657471,18.3657455444336,18.3656692504883,18.403491973877,18.4034175872803,18.4033432006836,18.4032688140869,18.4031925201416,18.4031181335449,18.4030437469482,18.4029693603516,18.4028949737549,18.4028205871582,18.4027462005615,18.4026718139648,18.4025974273682,18.4025230407715,18.4024486541748,18.4023742675781,18.3644046783447,18.3643264770508,18.4021492004395,18.4020748138428,18.4020004272461,18.4019260406494,18.4018516540527,18.4017772674561,18.4017028808594,18.4016284942627,18.401554107666,18.4014797210693,18.401403427124,18.4013290405273,18.4012546539307,18.401180267334,18.4011058807373,18.4010314941406,18.36305809021,18.3629837036133,18.3280143737793,18.3279399871826,18.3278656005859,18.3277912139893,18.3659114837646,18.3658275604248,18.3657417297363,18.3656578063965,18.365571975708,18.3654880523682,18.3654022216797,18.3653182983398,18.3652324676514,18.3651485443115,18.365062713623,18.3649787902832,18.3648929595947,18.3648090362549,18.3647232055664,18.3646392822266,18.3645534515381,18.3644695281982,18.3643836975098,18.3642997741699,18.3642139434814,18.3641300201416,18.3640441894531,18.3639602661133,18.3638744354248,18.363790512085,18.3637046813965,18.3636207580566,18.3635349273682,18.3634510040283,18.3633651733398,18.36328125,18.3631954193115,18.3631114959717,18.3630256652832,18.3629417419434,18.3628559112549,18.362771987915,18.3626861572266,18.3626022338867,18.3625164031982,18.3624324798584,18.3623466491699,18.3622627258301,18.3621768951416,18.3620929718018,18.3620071411133,18.3619232177734,18.361837387085,18.3617572784424,18.3616771697998,18.3615989685059,18.3615188598633,18.3614387512207,18.3613586425781,18.3612804412842,18.3612003326416,18.361120223999,18.3610401153564,18.3609619140625,18.3608818054199,18.3608016967773,18.3607215881348,18.3606433868408,18.3605632781982,18.3604831695557,18.3604030609131,18.3603229522705,18.3602447509766,18.360164642334,18.3600845336914,18.3600044250488,18.3599262237549,18.3598461151123,0,0,0,0,0,0,0,0,0,0,0,0,0,0,0,0,0,0,0,0,0,0,0,0,0,0,0,0,0,0,0,0,0,0,0,0,0,0,0,0,0,0,0,0,0,0,0,0,0,0,0,0,0,0,0,0,0,0,0,0,0,0,0,0,0
18.3716869354248,18.3716125488281,18.3715381622314,18.3714618682861,18.3713874816895,18.3713130950928,18.3712387084961,18.3711643218994,18.3710899353027,18.3710155487061,18.3709411621094,18.3708648681641,18.3707904815674,18.3707160949707,18.370641708374,18.3705673217773,18.3329601287842,18.3328857421875,18.3328132629395,18.3327388763428,18.3675689697266,18.3674926757812,18.4053192138672,18.4052448272705,18.4051704406738,18.4050960540771,18.4050197601318,18.4049453735352,18.4048709869385,18.4047966003418,18.4047222137451,18.4046478271484,18.4045734405518,18.4044990539551,18.4044246673584,18.4043502807617,18.404275894165,18.4042015075684,18.3662281036377,18.3661499023438,18.4039764404297,18.403902053833,18.4038276672363,18.4037532806396,18.403678894043,18.4036045074463,18.4035301208496,18.4034557342529,18.4033794403076,18.4033050537109,18.4032306671143,18.4031562805176,18.4030818939209,18.4030075073242,18.4029312133789,18.4028568267822,18.3648796081543,18.3648071289062,18.329833984375,18.3297595977783,18.3296852111816,18.329610824585,18.3677234649658,18.3676376342773,18.3675518035889,18.367467880249,18.3673820495605,18.3672981262207,18.3672122955322,18.3671283721924,18.3670425415039,18.3669586181641,18.3668727874756,18.3667888641357,18.3667030334473,18.3666191101074,18.3665332794189,18.3664493560791,18.3663635253906,18.3662796020508,18.3661937713623,18.3661098480225,18.366024017334,18.3659400939941,18.3658542633057,18.3657703399658,18.3656845092773,18.3656005859375,18.365514755249,18.3654308319092,18.3653450012207,18.3652610778809,18.3651752471924,18.3650913238525,18.3650054931641,18.3649215698242,18.3648357391357,18.3647518157959,18.3646659851074,18.3645820617676,18.3644962310791,18.3644123077393,18.3643264770508,18.3642425537109,18.3641567230225,18.3640727996826,18.3639869689941,18.3639030456543,18.3638191223145,18.3637390136719,18.3636589050293,18.3635807037354,18.3635005950928,18.3634204864502,18.3633403778076,18.3632621765137,18.3631820678711,18.3631019592285,18.3630218505859,18.3629417419434,18.3628635406494,18.3627834320068,18.3627033233643,18.3626232147217,18.3625450134277,18.3624649047852,18.3623847961426,18.3623046875,18.3622245788574,0,0,0,0,0,0,0,0,0,0,0,0,0,0,0,0,0,0,0,0,0,0,0,0,0,0,0,0,0,0,0,0,0,0,0,0,0,0,0,0,0,0,0,0,0,0,0,0,0,0,0,0,0,0,0,0,0,0,0,0,0,0,0,0,0,0,0,0,0,0,0,0
