16.1959228515625,16.1958427429199,16.1957607269287,16.1956787109375,16.1955986022949,16.1955165863037,16.1954364776611,16.1953544616699,16.1952743530273,16.1951923370361,16.1951103210449,16.1950302124023,16.1949481964111,16.1948680877686,16.1947860717773,16.1947040557861,16.1946239471436,16.1945419311523,16.1944618225098,16.2959823608398,16.5663719177246,16.8458843231201,17.1349906921387,17.4341468811035,17.7439002990723,18.0649871826172,18.1561870574951,18.1560974121094,18.156005859375,18.1559162139893,18.1558246612549,18.1557350158691,18.1556434631348,18.155553817749,18.1554622650146,18.1553726196289,18.1682758331299,18.1681842803955,18.2385520935059,18.2384624481201,18.2383708953857,18.2382793426514,18.238187789917,18.2380962371826,18.2380046844482,18.2379131317139,18.2378215789795,18.2377300262451,18.2376384735107,18.2375469207764,18.237455368042,18.2373638153076,18.2372722625732,18.2371807098389,18.2370891571045,18.2369976043701,18.2369060516357,18.2368144989014,18.236722946167,18.2366313934326,18.2365398406982,18.2364482879639,18.2363567352295,18.2362651824951,18.2361736297607,18.2360820770264,18.235990524292,18.2358989715576,18.2358074188232,18.0180358886719,18.0179462432861,18.0914459228516,18.0913562774658,18.0912647247314,18.0911750793457,18.0910835266113,18.090991973877,18.0909023284912,18.0908107757568,18.0907192230225,18.0906295776367,18.0905380249023,18.090446472168,18.0903568267822,18.0902652740479,18.0901756286621,18.0900840759277,18.089994430542,18.0899028778076,18.0898132324219,18.0897216796875,18.0896320343018,18.0895404815674,18.089448928833,18.0893592834473,18.0892677307129,18.0891780853271,18.0890865325928,18.088996887207,18.0889053344727,18.0888156890869,18.0887241363525,18.0150566101074,18.0149669647217,18.1490898132324,18.148998260498,18.1489086151123,18.1488170623779,18.1487255096436,18.1486339569092,18.1485443115234,18.1484527587891,18.1483612060547,18.1482696533203,18.1481800079346,18.1480884552002,18.1479969024658,18.1479053497314,18.1478157043457,18.1477241516113,18.147632598877,18.1475410461426,18.1474514007568,18.1473598480225,18.1472682952881,18.1471786499023,18.147087097168,18.1469955444336,18.1469039916992,18.1468143463135,18.1467227935791,18.1466312408447,18.1465396881104,18.1464500427246,18.1463584899902,18.1462669372559,18.1461753845215,18.1460857391357,18.1459941864014,18.145902633667,18.1458129882812,18.1457214355469,18.1456298828125,18.1455402374268,18.1454486846924,18.145357131958,18.1452655792236,18.1451759338379,18.1450843811035,18.1449928283691,18.1449031829834,18.144811630249,18.1447200775146,18.1446304321289,18.1445388793945,18.1444473266602,18.1443576812744,18.14426612854,18.1441745758057,18.1440830230713,18.1439933776855,18.1439018249512,18.1438102722168,18.1437206268311,18.1436290740967,18.1435375213623,18.1434478759766,18.1433563232422,18.1432647705078,18.1431751251221,18.1430835723877,18.1429920196533,18.1429023742676,18.1428108215332,18.1427192687988,18.1426296234131,18.1425380706787,18.1424465179443,18.1423568725586,18.1422653198242,18.1421737670898,18.1420822143555,18.1419925689697,18.1419010162354,18.141809463501,18.1417198181152,18.1416282653809,18.1415367126465,18.1414470672607,18.1413555145264,18.141263961792,18.1411743164062,18.1410827636719,18.1409912109375,18.1409015655518,18.1092777252197,18.1028003692627,18.1027088165283,18.1026172637939,18.137788772583,18.1377010345459,18.1759033203125,18.1758117675781,18.1757202148438,18.1756286621094
16.1975421905518,16.1974620819092,16.197380065918,16.1972980499268,16.1972179412842,16.197135925293,16.1970558166504,16.1969738006592,16.196891784668,16.1968116760254,16.1967296600342,16.1966495513916,16.1965675354004,16.1964855194092,16.1964054107666,16.1963233947754,16.1962432861328,16.1961612701416,16.1960792541504,16.2956256866455,16.5660018920898,16.8455028533936,17.1345958709717,17.4337730407715,17.7434730529785,18.0645427703857,18.1580028533936,18.1579113006592,18.1578216552734,18.1577301025391,18.1576404571533,18.1575489044189,18.1574592590332,18.1573677062988,18.1572780609131,18.1571865081787,18.1700916290283,18.1700000762939,18.2403755187988,18.2402839660645,18.2401924133301,18.2401008605957,18.24001121521,18.2399196624756,18.2398281097412,18.2397365570068,18.2396450042725,18.2395534515381,18.2394618988037,18.2393703460693,18.239278793335,18.2391872406006,18.2390956878662,18.2390041351318,18.2389125823975,18.2388210296631,18.2387294769287,18.2386379241943,18.23854637146,18.2384548187256,18.2383632659912,18.2382717132568,18.2381801605225,18.2380886077881,18.2379970550537,18.2379055023193,18.237813949585,18.2377223968506,18.2376308441162,18.0198364257812,18.0197467803955,18.0932540893555,18.0931644439697,18.0930728912354,18.0929832458496,18.0928916931152,18.0928001403809,18.0927085876465,18.0926189422607,18.0925273895264,18.092435836792,18.0923461914062,18.0922546386719,18.0921649932861,18.0920734405518,18.091983795166,18.0918922424316,18.0918006896973,18.0917110443115,18.0916194915771,18.0915298461914,18.091438293457,18.0913486480713,18.0912570953369,18.0911674499512,18.0910758972168,18.0909862518311,18.0908946990967,18.0908031463623,18.0907135009766,18.0906219482422,18.0905323028564,18.0168571472168,18.0167675018311,18.1509037017822,18.1508121490479,18.1507205963135,18.1506309509277,18.1505393981934,18.150447845459,18.1503562927246,18.1502666473389,18.1501750946045,18.1500835418701,18.1499919891357,18.14990234375,18.1498107910156,18.1497192382812,18.1496276855469,18.1495380401611,18.1494464874268,18.1493549346924,18.149263381958,18.1491737365723,18.1490821838379,18.1489906311035,18.1488990783691,18.1488094329834,18.148717880249,18.1486263275146,18.1485347747803,18.1484451293945,18.1483535766602,18.1482620239258,18.1481704711914,18.1480808258057,18.1479892730713,18.1478977203369,18.1478061676025,18.1477165222168,18.1476249694824,18.147533416748,18.1474437713623,18.1473522186279,18.1472606658936,18.1471691131592,18.1470794677734,18.1469879150391,18.1468963623047,18.1468067169189,18.1467151641846,18.1466236114502,18.1465339660645,18.1464424133301,18.1463508605957,18.1462593078613,18.1461696624756,18.1460781097412,18.1459865570068,18.1458969116211,18.1458053588867,18.1457138061523,18.1456241607666,18.1455326080322,18.1454410552979,18.1453514099121,18.1452598571777,18.1451683044434,18.145076751709,18.1449871063232,18.1448955535889,18.1448040008545,18.1447143554688,18.1446228027344,18.14453125,18.1444416046143,18.1443500518799,18.1442584991455,18.1441688537598,18.1440773010254,18.143985748291,18.1438941955566,18.1438045501709,18.1437129974365,18.1436214447021,18.1435317993164,18.143440246582,18.1433486938477,18.1432590484619,18.1431674957275,18.1430759429932,18.1429862976074,18.142894744873,18.1428031921387,18.1427135467529,18.1094913482666,18.1046085357666,18.1045169830322,18.1044254302979,18.1396007537842,18.1395130157471,18.1777172088623,18.1776275634766,18.1775360107422,18.1774444580078
16.199161529541,16.1990814208984,16.1989994049072,16.198917388916,16.1988372802734,16.1987552642822,16.1986751556396,16.1985931396484,16.1985111236572,16.1984310150146,16.1983489990234,16.1982669830322,16.1981868743896,16.1981048583984,16.1980247497559,16.1979427337646,16.1978607177734,16.1977806091309,16.1976985931396,16.2952690124512,16.5656337738037,16.845121383667,17.1342010498047,17.4334011077881,17.7430458068848,18.0641002655029,18.159818649292,18.1597270965576,18.1596355438232,18.1595458984375,18.1594543457031,18.1593647003174,18.159273147583,18.1591835021973,18.1590919494629,18.1590023040771,18.1719093322754,18.1718158721924,18.2421989440918,18.2421073913574,18.242015838623,18.2419242858887,18.2418327331543,18.2417430877686,18.2416515350342,18.2415599822998,18.2414684295654,18.2413768768311,18.2412853240967,18.2411937713623,18.2411022186279,18.2410106658936,18.2409191131592,18.2408275604248,18.2407360076904,18.2406444549561,18.240550994873,18.2404594421387,18.2403678894043,18.2402763366699,18.2401847839355,18.2400932312012,18.2400016784668,18.2399101257324,18.239818572998,18.2397270202637,18.2396354675293,18.2395458221436,18.2394542694092,18.0216369628906,18.0215473175049,18.0950622558594,18.0949726104736,18.0948810577393,18.0947914123535,18.0946998596191,18.0946083068848,18.094518661499,18.0944271087646,18.0943355560303,18.0942440032959,18.0941543579102,18.0940628051758,18.09397315979,18.0938816070557,18.0937919616699,18.0937004089355,18.0936088562012,18.0935192108154,18.0934276580811,18.0933380126953,18.0932464599609,18.0931568145752,18.0930652618408,18.0929737091064,18.0928840637207,18.0927925109863,18.0927028656006,18.0926113128662,18.0925216674805,18.0924301147461,18.0923404693604,18.0186576843262,18.0185680389404,18.152717590332,18.1526260375977,18.1525344848633,18.1524448394775,18.1523532867432,18.1522617340088,18.1521701812744,18.15207862854,18.1519889831543,18.1518974304199,18.1518058776855,18.1517143249512,18.1516246795654,18.1515331268311,18.1514415740967,18.1513500213623,18.1512603759766,18.1511688232422,18.1510772705078,18.1509857177734,18.1508960723877,18.1508045196533,18.1507129669189,18.1506214141846,18.1505317687988,18.1504402160645,18.1503486633301,18.1502571105957,18.15016746521,18.1500759124756,18.1499843597412,18.1498928070068,18.1498031616211,18.1497116088867,18.1496200561523,18.149528503418,18.1494388580322,18.1493473052979,18.1492557525635,18.1491641998291,18.1490745544434,18.148983001709,18.1488914489746,18.1488018035889,18.1487102508545,18.1486186981201,18.1485271453857,18.1484375,18.1483459472656,18.1482543945312,18.1481647491455,18.1480731964111,18.1479816436768,18.1478900909424,18.1478004455566,18.1477088928223,18.1476173400879,18.1475276947021,18.1474361419678,18.1473445892334,18.1472549438477,18.1471633911133,18.1470718383789,18.1469802856445,18.1468906402588,18.1467990875244,18.14670753479,18.1466178894043,18.1465263366699,18.1464347839355,18.1463451385498,18.1462535858154,18.1461620330811,18.1460704803467,18.1459808349609,18.1458892822266,18.1457977294922,18.1457080841064,18.1456165313721,18.1455249786377,18.145435333252,18.1453437805176,18.1452522277832,18.1451606750488,18.1450710296631,18.1449794769287,18.1448879241943,18.1447982788086,18.1447067260742,18.1446151733398,18.1445255279541,18.1097068786621,18.1064167022705,18.1063251495361,18.1062335968018,18.1414127349854,18.1413249969482,18.1795330047607,18.179443359375,18.1793518066406,18.1792602539062
16.2007808685303,16.2007007598877,16.2006187438965,16.2005386352539,16.2004566192627,16.2003746032715,16.2002944946289,16.2002124786377,16.2001304626465,16.2000503540039,16.1999683380127,16.1998882293701,16.1998062133789,16.1997241973877,16.1996440887451,16.1995620727539,16.1994819641113,16.1993999481201,16.1993179321289,16.2949123382568,16.5652637481689,16.8447380065918,17.1338062286377,17.4330272674561,17.742618560791,18.0636577606201,18.1616325378418,18.1615428924561,18.1614513397217,18.1613616943359,18.1612701416016,18.1611804962158,18.1610889434814,18.1609992980957,18.1609077453613,18.1608180999756,18.1737251281738,18.1736335754395,18.2440223693848,18.2439308166504,18.243839263916,18.2437477111816,18.2436580657959,18.2435665130615,18.2434749603271,18.2433834075928,18.2432918548584,18.243200302124,18.2431087493896,18.2430171966553,18.2429256439209,18.2428340911865,18.2427425384521,18.2426509857178,18.2425594329834,18.242467880249,18.242374420166,18.2422828674316,18.2421913146973,18.2420997619629,18.2420082092285,18.2419166564941,18.2418251037598,18.2417335510254,18.241641998291,18.2415504455566,18.2414588928223,18.2413673400879,18.2412757873535,18.0234394073486,18.0233497619629,18.0968704223633,18.0967807769775,18.0966911315918,18.0965995788574,18.096508026123,18.0964164733887,18.0963268280029,18.0962352752686,18.0961437225342,18.0960540771484,18.0959625244141,18.0958709716797,18.0957813262939,18.0956897735596,18.0956001281738,18.0955085754395,18.0954170227051,18.0953273773193,18.095235824585,18.0951461791992,18.0950546264648,18.0949649810791,18.0948734283447,18.094783782959,18.0946922302246,18.0946006774902,18.0945110321045,18.0944194793701,18.0943298339844,18.09423828125,18.0941486358643,18.0204582214355,18.0203685760498,18.1545314788818,18.1544399261475,18.1543483734131,18.1542587280273,18.154167175293,18.1540756225586,18.1539840698242,18.1538944244385,18.1538028717041,18.1537113189697,18.1536197662354,18.153528213501,18.1534385681152,18.1533470153809,18.1532554626465,18.1531639099121,18.1530742645264,18.152982711792,18.1528911590576,18.1527996063232,18.1527099609375,18.1526184082031,18.1525268554688,18.1524353027344,18.1523456573486,18.1522541046143,18.1521625518799,18.1520709991455,18.1519794464111,18.1518898010254,18.151798248291,18.1517066955566,18.1516151428223,18.1515254974365,18.1514339447021,18.1513423919678,18.1512508392334,18.1511611938477,18.1510696411133,18.1509780883789,18.1508865356445,18.1507968902588,18.1507053375244,18.15061378479,18.1505241394043,18.1504325866699,18.1503410339355,18.1502494812012,18.1501598358154,18.1500682830811,18.1499767303467,18.1498870849609,18.1497955322266,18.1497039794922,18.1496124267578,18.1495227813721,18.1494312286377,18.1493396759033,18.1492500305176,18.1491584777832,18.1490669250488,18.1489753723145,18.1488857269287,18.1487941741943,18.14870262146,18.1486129760742,18.1485214233398,18.1484298706055,18.1483383178711,18.1482486724854,18.148157119751,18.1480655670166,18.1479759216309,18.1478843688965,18.1477928161621,18.1477012634277,18.147611618042,18.1475200653076,18.1474285125732,18.1473388671875,18.1472473144531,18.1471557617188,18.147066116333,18.1469745635986,18.1468830108643,18.1467914581299,18.1467018127441,18.1466102600098,18.1465187072754,18.1464290618896,18.1463375091553,18.109920501709,18.1082248687744,18.1081352233887,18.1080417633057,18.1432247161865,18.1431369781494,18.1813507080078,18.1812591552734,18.1811676025391,18.1810760498047
16.2024021148682,16.202320098877,16.2022399902344,16.2021579742432,16.202075958252,16.2019958496094,16.2019138336182,16.201831817627,16.2017517089844,16.2016696929932,16.2015895843506,16.2015075683594,16.2014255523682,16.2013454437256,16.2012634277344,16.2011814117432,16.2011013031006,16.2010192871094,16.2009391784668,16.2945537567139,16.5648956298828,16.8443565368652,17.1334114074707,17.4326553344727,17.7421913146973,18.0632152557373,18.1634502410889,18.1633586883545,18.1632671356201,18.1631774902344,18.1630859375,18.1629962921143,18.1629047393799,18.1628150939941,18.1627235412598,18.162633895874,18.1755428314209,18.1754493713379,18.2458477020264,18.245756149292,18.2456645965576,18.2455730438232,18.2454814910889,18.2453899383545,18.2452983856201,18.2452068328857,18.2451152801514,18.245023727417,18.2449321746826,18.2448406219482,18.2447490692139,18.2446575164795,18.2445659637451,18.2444744110107,18.2443828582764,18.244291305542,18.2441997528076,18.2441082000732,18.2440166473389,18.2439250946045,18.2438316345215,18.2437400817871,18.2436485290527,18.2435569763184,18.243465423584,18.2433738708496,18.2432823181152,18.2431926727295,18.2431011199951,18.025239944458,18.0251502990723,18.0986804962158,18.0985908508301,18.0984992980957,18.0984077453613,18.0983180999756,18.0982265472412,18.0981349945068,18.0980453491211,18.0979537963867,18.0978622436523,18.097770690918,18.0976810455322,18.0975894927979,18.0974998474121,18.0974082946777,18.0973167419434,18.0972270965576,18.0971355438232,18.0970458984375,18.0969543457031,18.0968627929688,18.096773147583,18.0966815948486,18.0965919494629,18.0965003967285,18.0964107513428,18.0963191986084,18.096227645874,18.0961380004883,18.0960464477539,18.0959568023682,18.0222587585449,18.0221691131592,18.1563453674316,18.1562557220459,18.1561641693115,18.1560726165771,18.1559810638428,18.1558895111084,18.1557998657227,18.1557083129883,18.1556167602539,18.1555252075195,18.1554355621338,18.1553440093994,18.155252456665,18.1551609039307,18.1550693511963,18.1549797058105,18.1548881530762,18.1547966003418,18.1547050476074,18.1546154022217,18.1545238494873,18.1544322967529,18.1543407440186,18.1542491912842,18.1541595458984,18.1540679931641,18.1539764404297,18.1538848876953,18.1537952423096,18.1537036895752,18.1536121368408,18.1535205841064,18.1534290313721,18.1533393859863,18.153247833252,18.1531562805176,18.1530647277832,18.1529750823975,18.1528835296631,18.1527919769287,18.1527004241943,18.1526107788086,18.1525192260742,18.1524276733398,18.1523361206055,18.1522464752197,18.1521549224854,18.152063369751,18.1519737243652,18.1518821716309,18.1517906188965,18.1516990661621,18.1516094207764,18.151517868042,18.1514263153076,18.1513347625732,18.1512451171875,18.1511535644531,18.1510620117188,18.150972366333,18.1508808135986,18.1507892608643,18.1506977081299,18.1506080627441,18.1505165100098,18.1504249572754,18.150333404541,18.1502437591553,18.1501522064209,18.1500606536865,18.1499710083008,18.1498794555664,18.149787902832,18.1496963500977,18.1496067047119,18.1495151519775,18.1494235992432,18.1493339538574,18.149242401123,18.1491508483887,18.1490592956543,18.1489696502686,18.1488780975342,18.1487865447998,18.1486968994141,18.1486053466797,18.1485137939453,18.1484222412109,18.1483325958252,18.1482410430908,18.1481494903564,18.1101360321045,18.110034942627,18.1099433898926,18.1098518371582,18.1450366973877,18.1449489593506,18.1831665039062,18.1830749511719,18.1829833984375,18.1828937530518
16.2040214538574,16.2039413452148,16.2038593292236,16.2037792205811,16.2036972045898,16.2036151885986,16.2035350799561,16.2034530639648,16.2033710479736,16.2032909393311,16.2032089233398,16.2031269073486,16.2030467987061,16.2029647827148,16.2028827667236,16.2028026580811,16.2027206420898,16.2026405334473,16.2025585174561,16.2941970825195,16.564525604248,16.8439750671387,17.1330165863037,17.4322681427002,17.7417640686035,18.0627708435059,18.1652660369873,18.1651744842529,18.1650848388672,18.1649932861328,18.1649017333984,18.1648120880127,18.1647205352783,18.1646308898926,18.1645393371582,18.1644496917725,18.177360534668,18.177267074585,18.2476711273193,18.247579574585,18.2474880218506,18.2473964691162,18.2473049163818,18.2472133636475,18.2471218109131,18.2470302581787,18.2469387054443,18.2468490600586,18.2467575073242,18.2466640472412,18.2465724945068,18.2464809417725,18.2463893890381,18.2462978363037,18.2462062835693,18.246114730835,18.2460231781006,18.2459316253662,18.2458400726318,18.2457485198975,18.2456569671631,18.2455654144287,18.2454738616943,18.24538230896,18.2452907562256,18.2451992034912,18.2451076507568,18.2450160980225,18.2449245452881,18.027042388916,18.0269527435303,18.1004886627197,18.100399017334,18.1003093719482,18.1002178192139,18.1001262664795,18.1000366210938,18.0999450683594,18.099853515625,18.0997619628906,18.0996723175049,18.0995807647705,18.0994892120361,18.0993995666504,18.099308013916,18.0992164611816,18.0991268157959,18.0990352630615,18.0989456176758,18.0988540649414,18.0987644195557,18.0986728668213,18.0985813140869,18.0984916687012,18.0984001159668,18.0983104705811,18.0982189178467,18.0981273651123,18.0980377197266,18.0979461669922,18.0978565216064,18.0977649688721,18.0240612030029,18.0239696502686,18.1581611633301,18.1580696105957,18.1579780578613,18.1578884124756,18.1577968597412,18.1577053070068,18.1576137542725,18.1575222015381,18.1574325561523,18.157341003418,18.1572494506836,18.1571578979492,18.1570663452148,18.1569766998291,18.1568851470947,18.1567935943604,18.156702041626,18.1566104888916,18.1565208435059,18.1564292907715,18.1563377380371,18.1562461853027,18.156156539917,18.1560649871826,18.1559734344482,18.1558818817139,18.1557903289795,18.1557006835938,18.1556091308594,18.155517578125,18.1554260253906,18.1553344726562,18.1552448272705,18.1551532745361,18.1550617218018,18.1549701690674,18.1548805236816,18.1547889709473,18.1546974182129,18.1546058654785,18.1545143127441,18.1544246673584,18.154333114624,18.1542415618896,18.1541519165039,18.1540603637695,18.1539688110352,18.1538772583008,18.153787612915,18.1536960601807,18.1536045074463,18.1535129547119,18.1534233093262,18.1533317565918,18.1532402038574,18.153148651123,18.1530590057373,18.1529674530029,18.1528759002686,18.1527843475342,18.1526947021484,18.1526031494141,18.1525115966797,18.1524219512939,18.1523303985596,18.1522388458252,18.1521472930908,18.1520576477051,18.1519660949707,18.1518745422363,18.151782989502,18.1516933441162,18.1516017913818,18.1515102386475,18.1514205932617,18.1513290405273,18.151237487793,18.1511459350586,18.1510562896729,18.1509647369385,18.1508731842041,18.1507816314697,18.150691986084,18.1506004333496,18.1505088806152,18.1504192352295,18.1503276824951,18.1502361297607,18.1501445770264,18.1500549316406,18.1499633789062,18.1119346618652,18.1118431091309,18.1117534637451,18.1116619110107,18.1468505859375,18.1467609405518,18.1849822998047,18.1848926544189,18.1848011016846,18.1847095489502
16.2056427001953,16.2055625915527,16.2054805755615,16.2053985595703,16.2053184509277,16.2052364349365,16.2051544189453,16.2050743103027,16.2049922943115,16.2049102783203,16.2048301696777,16.2047481536865,16.2046661376953,16.2045860290527,16.2045040130615,16.2044219970703,16.2043418884277,16.2042598724365,16.2041797637939,16.2938404083252,16.5641574859619,16.8435955047607,17.1326217651367,17.4318161010742,17.7413368225098,18.062328338623,18.1670818328857,18.1669921875,18.1669006347656,18.1668090820312,18.1667194366455,18.1666278839111,18.1665382385254,18.166446685791,18.1663570404053,18.1662654876709,18.179178237915,18.179084777832,18.2494964599609,18.2494049072266,18.2493133544922,18.2492218017578,18.2491302490234,18.2490386962891,18.2489471435547,18.2488555908203,18.2487640380859,18.2486724853516,18.2485809326172,18.2484893798828,18.2483978271484,18.2483062744141,18.2482147216797,18.2481231689453,18.2480316162109,18.2479400634766,18.2478485107422,18.2477569580078,18.2476634979248,18.2475719451904,18.2474803924561,18.2473888397217,18.2472972869873,18.2472057342529,18.2471141815186,18.2470226287842,18.2469310760498,18.2468395233154,18.2467479705811,18.028844833374,18.0287551879883,18.1022987365723,18.1022090911865,18.1021194458008,18.1020278930664,18.101936340332,18.1018447875977,18.1017551422119,18.1016635894775,18.1015720367432,18.1014823913574,18.101390838623,18.1012992858887,18.1012077331543,18.1011180877686,18.1010265350342,18.1009368896484,18.1008453369141,18.1007537841797,18.1006641387939,18.1005725860596,18.1004829406738,18.1003913879395,18.1002998352051,18.1002101898193,18.100118637085,18.1000289916992,18.0999374389648,18.0998458862305,18.0997562408447,18.0996646881104,18.0995750427246,18.0258636474609,18.0257720947266,18.1599769592285,18.1598854064941,18.1597938537598,18.1597023010254,18.159610748291,18.1595211029053,18.1594295501709,18.1593379974365,18.1592464447021,18.1591548919678,18.159065246582,18.1589736938477,18.1588821411133,18.1587905883789,18.1586990356445,18.1586093902588,18.1585178375244,18.15842628479,18.1583347320557,18.1582431793213,18.1581535339355,18.1580619812012,18.1579704284668,18.1578788757324,18.157787322998,18.1576976776123,18.1576061248779,18.1575145721436,18.1574230194092,18.1573314666748,18.1572418212891,18.1571502685547,18.1570587158203,18.1569671630859,18.1568775177002,18.1567859649658,18.1566944122314,18.1566028594971,18.1565113067627,18.156421661377,18.1563301086426,18.1562385559082,18.1561470031738,18.1560573577881,18.1559658050537,18.1558742523193,18.155782699585,18.1556930541992,18.1556015014648,18.1555099487305,18.1554183959961,18.1553287506104,18.155237197876,18.1551456451416,18.1550540924072,18.1549644470215,18.1548728942871,18.1547813415527,18.1546897888184,18.1546001434326,18.1545085906982,18.1544170379639,18.1543254852295,18.1542358398438,18.1541442871094,18.154052734375,18.1539611816406,18.1538715362549,18.1537799835205,18.1536884307861,18.1535968780518,18.153507232666,18.1534156799316,18.1533241271973,18.1532325744629,18.1531429290771,18.1530513763428,18.1529598236084,18.1528701782227,18.1527786254883,18.1526870727539,18.1525955200195,18.1525058746338,18.1524143218994,18.152322769165,18.1522312164307,18.1521415710449,18.1520500183105,18.1519584655762,18.1518688201904,18.1517772674561,18.1137447357178,18.1136531829834,18.113561630249,18.1134700775146,18.1486625671387,18.1485748291016,18.1868000030518,18.1867084503174,18.1866188049316,18.1865272521973
16.2072639465332,16.207181930542,16.2071018218994,16.2070198059082,16.206937789917,16.2068576812744,16.2067756652832,16.206693649292,16.2066135406494,16.2065315246582,16.2064514160156,16.2063694000244,16.2062873840332,16.2062072753906,16.2061252593994,16.2060432434082,16.2059631347656,16.2058811187744,16.2057991027832,16.2934837341309,16.5637893676758,16.8432140350342,17.1322269439697,17.4313640594482,17.740909576416,18.0618858337402,18.1688995361328,18.1688079833984,18.1687183380127,18.1686267852783,18.1685352325439,18.1684455871582,18.1683540344238,18.1682643890381,18.1681728363037,18.168083190918,18.1809959411621,18.1809024810791,18.2513217926025,18.2512302398682,18.2511386871338,18.2510471343994,18.250955581665,18.2508640289307,18.2507724761963,18.2506809234619,18.2505893707275,18.2504978179932,18.2504062652588,18.2503147125244,18.25022315979,18.2501316070557,18.2500400543213,18.2499485015869,18.2498569488525,18.2497634887695,18.2496719360352,18.2495803833008,18.2494888305664,18.249397277832,18.2493057250977,18.2492141723633,18.2491226196289,18.2490310668945,18.2489395141602,18.2488479614258,18.2487564086914,18.248664855957,18.2485733032227,18.030647277832,18.0305576324463,18.1041088104248,18.1040191650391,18.1039295196533,18.1038379669189,18.1037464141846,18.1036548614502,18.1035652160645,18.1034736633301,18.1033821105957,18.1032905578613,18.1032009124756,18.1031093597412,18.1030178070068,18.1029281616211,18.1028366088867,18.1027450561523,18.1026554107666,18.1025638580322,18.1024742126465,18.1023826599121,18.1022911071777,18.102201461792,18.1021099090576,18.1020202636719,18.1019287109375,18.1018371582031,18.1017475128174,18.101655960083,18.1015663146973,18.1014747619629,18.1013832092285,18.0276660919189,18.0275745391846,18.161792755127,18.1617012023926,18.1616096496582,18.1615180969238,18.1614265441895,18.1613349914551,18.1612453460693,18.161153793335,18.1610622406006,18.1609706878662,18.1608791351318,18.1607894897461,18.1606979370117,18.1606063842773,18.160514831543,18.1604232788086,18.1603336334229,18.1602420806885,18.1601505279541,18.1600589752197,18.1599674224854,18.1598777770996,18.1597862243652,18.1596946716309,18.1596031188965,18.1595115661621,18.1594219207764,18.159330368042,18.1592388153076,18.1591472625732,18.1590557098389,18.1589660644531,18.1588745117188,18.1587829589844,18.15869140625,18.1585998535156,18.1585102081299,18.1584186553955,18.1583271026611,18.1582355499268,18.1581439971924,18.1580543518066,18.1579627990723,18.1578712463379,18.1577796936035,18.1576881408691,18.1575984954834,18.157506942749,18.1574153900146,18.1573238372803,18.1572341918945,18.1571426391602,18.1570510864258,18.1569595336914,18.1568698883057,18.1567783355713,18.1566867828369,18.1565952301025,18.1565055847168,18.1564140319824,18.156322479248,18.1562309265137,18.1561412811279,18.1560497283936,18.1559581756592,18.1558666229248,18.1557769775391,18.1556854248047,18.1555938720703,18.1555023193359,18.1554126739502,18.1553211212158,18.1552295684814,18.1551380157471,18.1550483703613,18.154956817627,18.1548652648926,18.1547737121582,18.1546840667725,18.1545925140381,18.1545009613037,18.1544094085693,18.1543197631836,18.1542282104492,18.1541366577148,18.1540451049805,18.1539554595947,18.1538639068604,18.153772354126,18.1536827087402,18.1535911560059,18.1155548095703,18.1154632568359,18.1153736114502,18.1152801513672,18.1504764556885,18.1503887176514,18.1886177062988,18.1885261535645,18.1884346008301,18.1883449554443
16.2088851928711,16.2088050842285,16.2087230682373,16.2086410522461,16.2085609436035,16.2084789276123,16.2083969116211,16.2083168029785,16.2082347869873,16.2081527709961,16.2080726623535,16.2079906463623,16.2079086303711,16.2078285217285,16.2077465057373,16.2076644897461,16.2075843811035,16.2075023651123,16.2074203491211,16.2931270599365,16.563419342041,16.8428325653076,17.1318321228027,17.4309234619141,17.7404823303223,18.0614433288574,18.1707172393799,18.1706256866455,18.1705341339111,18.1704444885254,18.170352935791,18.1702632904053,18.1701717376709,18.1700801849365,18.1699905395508,18.1698989868164,18.1828136444092,18.1827220916748,18.2531471252441,18.2530555725098,18.2529640197754,18.252872467041,18.2527809143066,18.2526893615723,18.2525978088379,18.2525062561035,18.2524147033691,18.2523231506348,18.2522315979004,18.252140045166,18.2520484924316,18.2519569396973,18.2518653869629,18.2517738342285,18.2516803741455,18.2515888214111,18.2514972686768,18.2514057159424,18.251314163208,18.2512226104736,18.2511310577393,18.2510395050049,18.2509479522705,18.2508563995361,18.2507648468018,18.2506732940674,18.2505798339844,18.2504901885986,18.2503986358643,18.0324516296387,18.0323619842529,18.105920791626,18.1058311462402,18.1057395935059,18.1056480407715,18.1055564880371,18.1054668426514,18.105375289917,18.1052837371826,18.1051921844482,18.1051025390625,18.1050109863281,18.1049194335938,18.1048278808594,18.1047382354736,18.1046466827393,18.1045551300049,18.1044654846191,18.1043739318848,18.104284286499,18.1041927337646,18.1041011810303,18.1040115356445,18.1039199829102,18.1038303375244,18.10373878479,18.1036472320557,18.1035575866699,18.1034660339355,18.1033744812012,18.1032848358154,18.1031932830811,18.029468536377,18.0293769836426,18.1636085510254,18.163516998291,18.1634254455566,18.1633338928223,18.1632423400879,18.1631526947021,18.1630611419678,18.1629695892334,18.162878036499,18.1627864837646,18.1626949310303,18.1626052856445,18.1625137329102,18.1624221801758,18.1623306274414,18.162239074707,18.1621494293213,18.1620578765869,18.1619663238525,18.1618747711182,18.1617832183838,18.1616916656494,18.1616020202637,18.1615104675293,18.1614189147949,18.1613273620605,18.1612358093262,18.1611461639404,18.1610546112061,18.1609630584717,18.1608715057373,18.1607799530029,18.1606903076172,18.1605987548828,18.1605072021484,18.1604156494141,18.1603240966797,18.1602325439453,18.1601428985596,18.1600513458252,18.1599597930908,18.1598682403564,18.1597766876221,18.1596870422363,18.159595489502,18.1595039367676,18.1594123840332,18.1593227386475,18.1592311859131,18.1591396331787,18.1590480804443,18.15895652771,18.1588668823242,18.1587753295898,18.1586837768555,18.1585922241211,18.1585025787354,18.158411026001,18.1583194732666,18.1582279205322,18.1581382751465,18.1580467224121,18.1579551696777,18.1578636169434,18.1577739715576,18.1576824188232,18.1575908660889,18.1574993133545,18.1574096679688,18.1573181152344,18.1572265625,18.1571350097656,18.1570453643799,18.1569538116455,18.1568622589111,18.1567707061768,18.1566791534424,18.1565895080566,18.1564979553223,18.1564064025879,18.1563148498535,18.1562252044678,18.1561336517334,18.156042098999,18.1559505462646,18.1558609008789,18.1557693481445,18.1556777954102,18.1555862426758,18.15549659729,18.1554050445557,18.1173648834229,18.1172733306885,18.1171836853027,18.1170921325684,18.1522903442383,18.1522026062012,18.1521110534668,18.1520214080811,18.1519298553467,18.1518383026123
16.210506439209,16.2104263305664,16.2103443145752,16.210262298584,16.2101821899414,16.2101001739502,16.210018157959,16.2099380493164,16.2098560333252,16.209774017334,16.2096939086914,16.2096118927002,16.209529876709,16.2094497680664,16.2093677520752,16.209285736084,16.2092056274414,16.2091236114502,16.209041595459,16.2927703857422,16.5630512237549,16.8424510955811,17.1314373016357,17.4305152893066,17.7400550842285,18.0610008239746,18.172534942627,18.1724433898926,18.1723518371582,18.1722621917725,18.1721706390381,18.1720790863037,18.171989440918,18.1718978881836,18.1718082427979,18.1717166900635,18.1846332550049,18.1845397949219,18.2549724578857,18.2548809051514,18.254789352417,18.2546977996826,18.2546062469482,18.2545146942139,18.2544231414795,18.2543315887451,18.2542400360107,18.2541484832764,18.254056930542,18.2539653778076,18.2538738250732,18.2537822723389,18.2536907196045,18.2535991668701,18.2535076141357,18.2534160614014,18.2533226013184,18.253231048584,18.2531394958496,18.2530479431152,18.2529563903809,18.2528648376465,18.2527732849121,18.2526817321777,18.2525901794434,18.252498626709,18.2524070739746,18.2523155212402,18.2522239685059,18.0342540740967,18.0341644287109,18.1077308654785,18.1076412200928,18.1075496673584,18.1074600219727,18.1073684692383,18.1072769165039,18.1071853637695,18.1070957183838,18.1070041656494,18.106912612915,18.1068210601807,18.1067314147949,18.1066398620605,18.1065483093262,18.1064567565918,18.1063671112061,18.1062755584717,18.1061840057373,18.1060943603516,18.1060028076172,18.1059131622314,18.1058216094971,18.1057300567627,18.105640411377,18.1055488586426,18.1054573059082,18.1053676605225,18.1052761077881,18.1051864624023,18.105094909668,18.1050033569336,18.031270980835,18.0311794281006,18.1654243469238,18.1653327941895,18.1652412414551,18.1651496887207,18.165060043335,18.1649684906006,18.1648769378662,18.1647853851318,18.1646938323975,18.1646022796631,18.1645126342773,18.164421081543,18.1643295288086,18.1642379760742,18.1641464233398,18.1640548706055,18.1639652252197,18.1638736724854,18.163782119751,18.1636905670166,18.1635990142822,18.1635093688965,18.1634178161621,18.1633262634277,18.1632347106934,18.163143157959,18.1630516052246,18.1629619598389,18.1628704071045,18.1627788543701,18.1626873016357,18.1625957489014,18.1625061035156,18.1624145507812,18.1623229980469,18.1622314453125,18.1621398925781,18.1620483398438,18.161958694458,18.1618671417236,18.1617755889893,18.1616840362549,18.1615924835205,18.1615028381348,18.1614112854004,18.161319732666,18.1612281799316,18.1611366271973,18.1610469818115,18.1609554290771,18.1608638763428,18.1607723236084,18.160680770874,18.1605911254883,18.1604995727539,18.1604080200195,18.1603164672852,18.1602268218994,18.160135269165,18.1600437164307,18.1599521636963,18.1598625183105,18.1597709655762,18.1596794128418,18.1595878601074,18.159496307373,18.1594066619873,18.1593151092529,18.1592235565186,18.1591320037842,18.1590423583984,18.1589508056641,18.1588592529297,18.1587677001953,18.1586780548096,18.1585865020752,18.1584949493408,18.1584033966064,18.1583118438721,18.1582221984863,18.158130645752,18.1580390930176,18.1579475402832,18.1578578948975,18.1577663421631,18.1576747894287,18.1575832366943,18.1574935913086,18.1574020385742,18.1573104858398,18.1572189331055,18.1191749572754,18.1190853118896,18.1189937591553,18.1189022064209,18.1541042327881,18.1540145874023,18.153923034668,18.1538314819336,18.1537418365479,18.1536502838135
16.2121295928955,16.2120475769043,16.2119655609131,16.2118854522705,16.2118034362793,16.2117214202881,16.2116413116455,16.2115592956543,16.2114772796631,16.2113971710205,16.2113151550293,16.2112331390381,16.2111530303955,16.2110710144043,16.2109889984131,16.2109088897705,16.2108268737793,16.2107448577881,16.2106647491455,16.2924137115479,16.5626811981201,16.8420696258545,17.1310424804688,17.4301071166992,17.7396278381348,18.0605564117432,18.174352645874,18.1742610931396,18.1741714477539,18.1740798950195,18.1739883422852,18.1738986968994,18.173807144165,18.1737155914307,18.1736259460449,18.1735343933105,18.1864528656006,18.1863594055176,18.2567977905273,18.256706237793,18.2566146850586,18.2565231323242,18.2564315795898,18.2563400268555,18.2562484741211,18.2561569213867,18.2560653686523,18.255973815918,18.2558822631836,18.2557907104492,18.2556991577148,18.2556076049805,18.2555160522461,18.2554244995117,18.2553329467773,18.255241394043,18.2551498413086,18.2550582885742,18.2549667358398,18.2548732757568,18.2547817230225,18.2546901702881,18.2545986175537,18.2545070648193,18.254415512085,18.2543239593506,18.2542324066162,18.2541408538818,18.2540493011475,18.0360584259033,18.0359687805176,18.1095428466797,18.1094532012939,18.1093616485596,18.1092700958252,18.1091785430908,18.1090888977051,18.1089973449707,18.1089057922363,18.108814239502,18.1087245941162,18.1086330413818,18.1085414886475,18.1084499359131,18.1083602905273,18.108268737793,18.1081771850586,18.1080875396729,18.1079959869385,18.1079044342041,18.1078147888184,18.107723236084,18.1076316833496,18.1075420379639,18.1074504852295,18.1073589324951,18.1072692871094,18.107177734375,18.1070880889893,18.1069965362549,18.1069049835205,18.1068153381348,18.033073425293,18.0329837799072,18.1672401428223,18.1671504974365,18.1670589447021,18.1669673919678,18.1668758392334,18.166784286499,18.1666927337646,18.1666030883789,18.1665115356445,18.1664199829102,18.1663284301758,18.1662368774414,18.166145324707,18.1660556793213,18.1659641265869,18.1658725738525,18.1657810211182,18.1656894683838,18.1655979156494,18.165506362915,18.1654167175293,18.1653251647949,18.1652336120605,18.1651420593262,18.1650505065918,18.1649589538574,18.1648693084717,18.1647777557373,18.1646862030029,18.1645946502686,18.1645030975342,18.1644134521484,18.1643218994141,18.1642303466797,18.1641387939453,18.1640472412109,18.1639556884766,18.1638660430908,18.1637744903564,18.1636829376221,18.1635913848877,18.1634998321533,18.1634082794189,18.1633186340332,18.1632270812988,18.1631355285645,18.1630439758301,18.1629524230957,18.16286277771,18.1627712249756,18.1626796722412,18.1625881195068,18.1624965667725,18.1624069213867,18.1623153686523,18.162223815918,18.1621322631836,18.1620407104492,18.1619510650635,18.1618595123291,18.1617679595947,18.1616764068604,18.1615867614746,18.1614952087402,18.1614036560059,18.1613121032715,18.1612205505371,18.1611309051514,18.161039352417,18.1609477996826,18.1608562469482,18.1607666015625,18.1606750488281,18.1605834960938,18.1604919433594,18.160400390625,18.1603107452393,18.1602191925049,18.1601276397705,18.1600360870361,18.1599464416504,18.159854888916,18.1597633361816,18.1596717834473,18.1595821380615,18.1594905853271,18.1593990325928,18.1593074798584,18.159215927124,18.1591262817383,18.1590347290039,18.1209869384766,18.1208953857422,18.1208057403564,18.1207141876221,18.232608795166,18.269214630127,18.2691230773926,18.2690315246582,18.2689399719238,18.2688484191895
16.2137508392334,16.2136707305908,16.2135887145996,16.2135066986084,16.2134265899658,16.2133445739746,16.2132625579834,16.2131824493408,16.2131004333496,16.2130184173584,16.2129383087158,16.2128562927246,16.2127742767334,16.2126922607422,16.2126121520996,16.2125301361084,16.2124481201172,16.2123680114746,16.2122859954834,16.2920570373535,16.562313079834,16.8416881561279,17.1306476593018,17.4296989440918,17.739200592041,18.0601139068604,18.1761703491211,18.1760807037354,18.175989151001,18.1758975982666,18.1758079528809,18.1757164001465,18.1756248474121,18.1755352020264,18.175443649292,18.1753540039062,18.1882724761963,18.1881790161133,18.2586250305176,18.2585334777832,18.2584419250488,18.2583503723145,18.2582588195801,18.2581672668457,18.2580757141113,18.257984161377,18.2578926086426,18.2578010559082,18.2577095031738,18.2576179504395,18.2575263977051,18.2574348449707,18.2573432922363,18.257251739502,18.2571601867676,18.2570667266846,18.2569751739502,18.2568836212158,18.2567920684814,18.2567005157471,18.2566089630127,18.2565174102783,18.2564258575439,18.2563343048096,18.2562408447266,18.2561492919922,18.2560577392578,18.2559661865234,18.2558746337891,18.03786277771,18.0377731323242,18.1113548278809,18.1112651824951,18.1111736297607,18.1110820770264,18.110990524292,18.1108989715576,18.1108093261719,18.1107177734375,18.1106262207031,18.1105346679688,18.110445022583,18.1103534698486,18.1102619171143,18.1101703643799,18.1100788116455,18.1099891662598,18.1098976135254,18.1098079681396,18.1097164154053,18.1096248626709,18.1095352172852,18.1094436645508,18.1093521118164,18.1092624664307,18.1091709136963,18.1090793609619,18.1089897155762,18.1088981628418,18.1088066101074,18.1087169647217,18.1086254119873,18.0348777770996,18.0347862243652,18.1690578460693,18.168966293335,18.1688747406006,18.1687850952148,18.1686935424805,18.1686019897461,18.1685104370117,18.1684188842773,18.168327331543,18.1682357788086,18.1681461334229,18.1680545806885,18.1679630279541,18.1678714752197,18.1677799224854,18.167688369751,18.1675987243652,18.1675071716309,18.1674156188965,18.1673240661621,18.1672325134277,18.1671409606934,18.167049407959,18.1669597625732,18.1668682098389,18.1667766571045,18.1666851043701,18.1665935516357,18.1665019989014,18.1664123535156,18.1663208007812,18.1662292480469,18.1661376953125,18.1660461425781,18.1659545898438,18.165864944458,18.1657733917236,18.1656818389893,18.1655902862549,18.1654987335205,18.1654071807861,18.1653175354004,18.165225982666,18.1651344299316,18.1650428771973,18.1649513244629,18.1648597717285,18.1647701263428,18.1646785736084,18.164587020874,18.1644954681396,18.1644039154053,18.1643142700195,18.1642227172852,18.1641311645508,18.1640396118164,18.163948059082,18.1638584136963,18.1637668609619,18.1636753082275,18.1635837554932,18.1634922027588,18.163402557373,18.1633110046387,18.1632194519043,18.1631278991699,18.1630363464355,18.1629467010498,18.1628551483154,18.1627635955811,18.1626720428467,18.1625823974609,18.1624908447266,18.1623992919922,18.1623077392578,18.1622161865234,18.1621265411377,18.1620349884033,18.1619434356689,18.1618518829346,18.1617622375488,18.1616706848145,18.1615791320801,18.1614875793457,18.1613960266113,18.1613063812256,18.1612148284912,18.1611232757568,18.1610317230225,18.1609401702881,18.1608505249023,18.1227989196777,18.1227073669434,18.1226177215576,18.1225242614746,18.2344303131104,18.2710399627686,18.2709484100342,18.2708568572998,18.2707653045654,18.2706737518311
16.2153739929199,16.2152938842773,16.2152118682861,16.2151298522949,16.2150478363037,16.2149677276611,16.2148857116699,16.2148036956787,16.2147235870361,16.2146415710449,16.2145595550537,16.2144794464111,16.2143974304199,16.2143154144287,16.2142333984375,16.2141532897949,16.2140712738037,16.2139892578125,16.2139091491699,16.2916984558105,16.5619449615479,16.8413066864014,17.1302547454834,17.4292907714844,17.7387733459473,18.0596714019775,18.1779899597168,18.1778984069824,18.177806854248,18.1777172088623,18.1776256561279,18.1775341033936,18.1774444580078,18.1773529052734,18.1772632598877,18.1771717071533,18.190092086792,18.189998626709,18.2604522705078,18.2603607177734,18.2602691650391,18.2601776123047,18.2600860595703,18.2599945068359,18.2599029541016,18.2598114013672,18.2597198486328,18.2596282958984,18.2595367431641,18.2594451904297,18.2593536376953,18.2592620849609,18.2591705322266,18.2590770721436,18.2589855194092,18.2588939666748,18.2588024139404,18.2587108612061,18.2586193084717,18.2585277557373,18.2584362030029,18.2583427429199,18.2582511901855,18.2581596374512,18.2580680847168,18.2579765319824,18.257884979248,18.2577934265137,18.2577018737793,18.0396671295166,18.0395774841309,18.113166809082,18.1130771636963,18.1129856109619,18.1128940582275,18.1128025054932,18.1127109527588,18.112621307373,18.1125297546387,18.1124382019043,18.1123466491699,18.1122550964355,18.1121654510498,18.1120738983154,18.1119823455811,18.1118907928467,18.1118011474609,18.1117095947266,18.1116180419922,18.1115283966064,18.1114368438721,18.1113452911377,18.111255645752,18.1111640930176,18.1110725402832,18.1109828948975,18.1108913421631,18.1107997894287,18.110710144043,18.1106185913086,18.1105270385742,18.1104373931885,18.0366821289062,18.0365905761719,18.1708755493164,18.170783996582,18.1706924438477,18.1706008911133,18.1705112457275,18.1704196929932,18.1703281402588,18.1702365875244,18.17014503479,18.1700534820557,18.1699619293213,18.1698722839355,18.1697807312012,18.1696891784668,18.1695976257324,18.169506072998,18.1694145202637,18.1693229675293,18.1692333221436,18.1691417694092,18.1690502166748,18.1689586639404,18.1688671112061,18.1687755584717,18.1686840057373,18.1685943603516,18.1685028076172,18.1684112548828,18.1683197021484,18.1682281494141,18.1681365966797,18.1680450439453,18.1679553985596,18.1678638458252,18.1677722930908,18.1676807403564,18.1675891876221,18.1674976348877,18.167407989502,18.1673164367676,18.1672248840332,18.1671333312988,18.1670417785645,18.1669502258301,18.1668586730957,18.16676902771,18.1666774749756,18.1665859222412,18.1664943695068,18.1664028167725,18.1663112640381,18.1662216186523,18.166130065918,18.1660385131836,18.1659469604492,18.1658554077148,18.1657657623291,18.1656742095947,18.1655826568604,18.165491104126,18.1653995513916,18.1653099060059,18.1652183532715,18.1651268005371,18.1650352478027,18.1649436950684,18.1648540496826,18.1647624969482,18.1646709442139,18.1645793914795,18.1644878387451,18.1643981933594,18.164306640625,18.1642150878906,18.1641235351562,18.1640338897705,18.1639423370361,18.1638507843018,18.1637592315674,18.163667678833,18.1635780334473,18.1634864807129,18.1633949279785,18.1633033752441,18.1632118225098,18.163122177124,18.1630306243896,18.1629390716553,18.1628475189209,18.1627559661865,18.1626663208008,18.1246109008789,18.1245193481445,18.1244297027588,18.1243362426758,18.2362537384033,18.2728672027588,18.2727756500244,18.27268409729,18.2725925445557,18.2725009918213
16.2169971466064,16.2169151306152,16.2168350219727,16.2167530059814,16.2166709899902,16.2165908813477,16.2165088653564,16.2164268493652,16.216344833374,16.2162647247314,16.2161827087402,16.216100692749,16.2160205841064,16.2159385681152,16.215856552124,16.2157764434814,16.2156944274902,16.215612411499,16.2155303955078,16.2913417816162,16.5615749359131,16.8409252166748,17.1298599243164,17.428882598877,17.7383460998535,18.0592288970947,18.1798095703125,18.1797180175781,18.1796264648438,18.179536819458,18.1794452667236,18.1793537139893,18.1792640686035,18.1791725158691,18.1790809631348,18.178991317749,18.1919116973877,18.1918201446533,18.262279510498,18.2621879577637,18.2620964050293,18.2620048522949,18.2619132995605,18.2618217468262,18.2617301940918,18.2616386413574,18.261547088623,18.2614555358887,18.2613639831543,18.2612724304199,18.2611808776855,18.2610893249512,18.2609958648682,18.2609043121338,18.2608127593994,18.260721206665,18.2606296539307,18.2605381011963,18.2604465484619,18.2603549957275,18.2602615356445,18.2601699829102,18.2600784301758,18.2599868774414,18.259895324707,18.2598037719727,18.2597122192383,18.2596206665039,18.2595291137695,18.0414714813232,18.0413818359375,18.1149787902832,18.1148891448975,18.1147975921631,18.1147060394287,18.1146144866943,18.1145248413086,18.1144332885742,18.1143417358398,18.1142501831055,18.1141586303711,18.1140689849854,18.113977432251,18.1138858795166,18.1137943267822,18.1137027740479,18.1136131286621,18.1135215759277,18.1134300231934,18.1133403778076,18.1132488250732,18.1131572723389,18.1130676269531,18.1129760742188,18.1128845214844,18.1127948760986,18.1127033233643,18.1126117706299,18.1125221252441,18.1124305725098,18.1123390197754,18.1122493743896,18.0384864807129,18.0383949279785,18.1726932525635,18.1726016998291,18.1725101470947,18.1724185943604,18.1723289489746,18.1722373962402,18.1721458435059,18.1720542907715,18.1719627380371,18.1718711853027,18.1717796325684,18.171688079834,18.1715984344482,18.1715068817139,18.1714153289795,18.1713237762451,18.1712322235107,18.1711406707764,18.171049118042,18.1709594726562,18.1708679199219,18.1707763671875,18.1706848144531,18.1705932617188,18.1705017089844,18.17041015625,18.1703205108643,18.1702289581299,18.1701374053955,18.1700458526611,18.1699542999268,18.1698627471924,18.169771194458,18.1696815490723,18.1695899963379,18.1694984436035,18.1694068908691,18.1693153381348,18.1692237854004,18.169132232666,18.1690425872803,18.1689510345459,18.1688594818115,18.1687679290771,18.1686763763428,18.1685848236084,18.168493270874,18.1684036254883,18.1683120727539,18.1682205200195,18.1681289672852,18.1680374145508,18.1679458618164,18.1678562164307,18.1677646636963,18.1676731109619,18.1675815582275,18.1674900054932,18.1674003601074,18.167308807373,18.1672172546387,18.1671257019043,18.1670341491699,18.1669425964355,18.1668529510498,18.1667613983154,18.1666698455811,18.1665782928467,18.1664867401123,18.1663970947266,18.1663055419922,18.1662139892578,18.1661224365234,18.1660308837891,18.1659412384033,18.1658496856689,18.1657581329346,18.1656665802002,18.1655750274658,18.1654853820801,18.1653938293457,18.1653022766113,18.165210723877,18.1651191711426,18.1650295257568,18.1649379730225,18.1648464202881,18.1647548675537,18.1646633148193,18.1645736694336,18.1644821166992,18.1264228820801,18.1263313293457,18.12624168396,18.1261501312256,18.2380771636963,18.274694442749,18.2746028900146,18.2745113372803,18.2744197845459,18.2743282318115
16.218620300293,16.2185401916504,16.2184581756592,16.218376159668,16.2182941436768,16.2182140350342,16.218132019043,16.2180500030518,16.2179698944092,16.217887878418,16.2178058624268,16.2177238464355,16.217643737793,16.2175617218018,16.2174797058105,16.2173976898193,16.2173175811768,16.2172355651855,16.2171535491943,16.2909851074219,16.561206817627,16.8405437469482,17.1294651031494,17.4284725189209,17.7379188537598,18.0587863922119,18.1816291809082,18.1815376281738,18.1814460754395,18.1813545227051,18.1812648773193,18.181173324585,18.1810817718506,18.1809921264648,18.1809005737305,18.1808109283447,18.193733215332,18.193639755249,18.2641067504883,18.2640151977539,18.2639236450195,18.2638320922852,18.2637405395508,18.2636489868164,18.263557434082,18.2634658813477,18.2633743286133,18.2632827758789,18.2631912231445,18.2630996704102,18.2630081176758,18.2629165649414,18.262825012207,18.262731552124,18.2626399993896,18.2625484466553,18.2624568939209,18.2623653411865,18.2622737884521,18.2621822357178,18.2620887756348,18.2619972229004,18.261905670166,18.2618141174316,18.2617225646973,18.2616310119629,18.2615394592285,18.2614479064941,18.2613563537598,18.0432777404785,18.0431880950928,18.1167907714844,18.1167011260986,18.1166095733643,18.1165199279785,18.1164283752441,18.1163368225098,18.1162452697754,18.116153717041,18.1160621643066,18.1159725189209,18.1158809661865,18.1157894134521,18.1156978607178,18.1156063079834,18.1155166625977,18.1154251098633,18.1153335571289,18.1152439117432,18.1151523590088,18.1150608062744,18.11496925354,18.1148796081543,18.1147880554199,18.1146965026855,18.1146068572998,18.1145153045654,18.1144237518311,18.1143341064453,18.1142425537109,18.1141510009766,18.1133422851562,18.0402908325195,18.0402011871338,18.1745109558105,18.1744194030762,18.1743297576904,18.1742382049561,18.1741466522217,18.1740550994873,18.1739635467529,18.1738719940186,18.1737804412842,18.1736888885498,18.1735992431641,18.1735076904297,18.1734161376953,18.1733245849609,18.1732330322266,18.1731414794922,18.1730499267578,18.1729583740234,18.1728687286377,18.1727771759033,18.1726856231689,18.1725940704346,18.1725025177002,18.1724109649658,18.1723194122314,18.1722278594971,18.1721382141113,18.172046661377,18.1719551086426,18.1718635559082,18.1717720031738,18.1716804504395,18.1715888977051,18.1714973449707,18.171407699585,18.1713161468506,18.1712245941162,18.1711330413818,18.1710414886475,18.1709499359131,18.1708583831787,18.170768737793,18.1706771850586,18.1705856323242,18.1704940795898,18.1704025268555,18.1703109741211,18.1702194213867,18.170129776001,18.1700382232666,18.1699466705322,18.1698551177979,18.1697635650635,18.1696720123291,18.1695804595947,18.169490814209,18.1693992614746,18.1693077087402,18.1692161560059,18.1691246032715,18.1690349578857,18.1689434051514,18.168851852417,18.1687602996826,18.1686687469482,18.1685771942139,18.1684875488281,18.1683959960938,18.1683044433594,18.168212890625,18.1681213378906,18.1680316925049,18.1679401397705,18.1678485870361,18.1677570343018,18.1676654815674,18.167573928833,18.1674842834473,18.1673927307129,18.1673011779785,18.1672096252441,18.1671180725098,18.167028427124,18.1669368743896,18.1668453216553,18.1667537689209,18.1666622161865,18.1665725708008,18.1664810180664,18.166389465332,18.1662979125977,18.1282348632812,18.1281452178955,18.1280536651611,18.1279621124268,18.2399024963379,18.2765216827393,18.2764301300049,18.2763385772705,18.2762470245361,18.2761554718018
16.2202453613281,16.2201633453369,16.2200813293457,16.2199993133545,16.2199192047119,16.2198371887207,16.2197551727295,16.2196731567383,16.2195930480957,16.2195110321045,16.2194290161133,16.2193489074707,16.2192668914795,16.2191848754883,16.2191028594971,16.2190227508545,16.2189407348633,16.2188587188721,16.2187767028809,16.2906284332275,16.5608386993408,16.8401622772217,17.1290702819824,17.4280643463135,17.7375240325928,18.0583438873291,18.1834487915039,18.1833572387695,18.1832656860352,18.1831760406494,18.183084487915,18.1829929351807,18.1829032897949,18.1828117370605,18.1827201843262,18.1826305389404,18.1955547332764,18.1954612731934,18.2659358978271,18.2658443450928,18.2657508850098,18.2656593322754,18.265567779541,18.2654762268066,18.2653846740723,18.2652931213379,18.2652015686035,18.2651100158691,18.2650184631348,18.2649269104004,18.264835357666,18.2647438049316,18.2646522521973,18.2645606994629,18.2644691467285,18.2643756866455,18.2642841339111,18.2641925811768,18.2641010284424,18.264009475708,18.2639179229736,18.2638263702393,18.2637329101562,18.2636413574219,18.2635498046875,18.2634582519531,18.2633666992188,18.2632751464844,18.26318359375,18.0450839996338,18.0449924468994,18.1186046600342,18.1185150146484,18.1184234619141,18.1183319091797,18.1182403564453,18.1181488037109,18.1180591583252,18.1179676055908,18.1178760528564,18.1177845001221,18.1176929473877,18.117603302002,18.1175117492676,18.1174201965332,18.1173286437988,18.1172370910645,18.1171474456787,18.1170558929443,18.11696434021,18.1168746948242,18.1167831420898,18.1166915893555,18.1166000366211,18.1165103912354,18.116418838501,18.1163272857666,18.1162376403809,18.1161460876465,18.1160545349121,18.1159648895264,18.1145057678223,18.0420970916748,18.0420055389404,18.1763305664062,18.1762390136719,18.1761474609375,18.1760559082031,18.1759643554688,18.1758728027344,18.17578125,18.1756916046143,18.1756000518799,18.1755084991455,18.1754169464111,18.1753253936768,18.1752338409424,18.175142288208,18.1750507354736,18.1749591827393,18.1748695373535,18.1747779846191,18.1746864318848,18.1745948791504,18.174503326416,18.1744117736816,18.1743202209473,18.1742286682129,18.1741371154785,18.1740474700928,18.1739559173584,18.173864364624,18.1737728118896,18.1736812591553,18.1735897064209,18.1734981536865,18.1734066009521,18.1733169555664,18.173225402832,18.1731338500977,18.1730422973633,18.1729507446289,18.1728591918945,18.1727676391602,18.1726760864258,18.17258644104,18.1724948883057,18.1724033355713,18.1723117828369,18.1722202301025,18.1721286773682,18.1720371246338,18.171947479248,18.1718559265137,18.1717643737793,18.1716728210449,18.1715812683105,18.1714897155762,18.1713981628418,18.1713066101074,18.1712169647217,18.1711254119873,18.1710338592529,18.1709423065186,18.1708507537842,18.1707611083984,18.1706695556641,18.1705780029297,18.1704864501953,18.1703948974609,18.1703033447266,18.1702136993408,18.1701221466064,18.1700305938721,18.1699390411377,18.1698474884033,18.1697559356689,18.1696662902832,18.1695747375488,18.1694831848145,18.1693916320801,18.1693000793457,18.1692085266113,18.1691188812256,18.1690273284912,18.1689357757568,18.1688442230225,18.1687526702881,18.1686630249023,18.168571472168,18.1684799194336,18.1683883666992,18.1682968139648,18.1682071685791,18.1681156158447,18.1300487518311,18.1299571990967,18.1298675537109,18.1297760009766,18.2417259216309,18.2783508300781,18.2782573699951,18.2781658172607,18.2780742645264,18.277982711792
16.2218685150146,16.2217864990234,16.2217063903809,16.2216243743896,16.2215423583984,16.2214603424072,16.2213802337646,16.2212982177734,16.2212162017822,16.221134185791,16.2210540771484,16.2209720611572,16.220890045166,16.2208080291748,16.2207279205322,16.220645904541,16.2205638885498,16.2204837799072,16.220401763916,16.2902717590332,16.5604686737061,16.8397808074951,17.1286754608154,17.4276561737061,17.7371368408203,18.0579013824463,18.1852684020996,18.1851768493652,18.1850872039795,18.1849956512451,18.1849040985107,18.1848125457764,18.1847229003906,18.1846313476562,18.1845417022705,18.1844501495361,18.1973743438721,18.1972827911377,18.2677631378174,18.267671585083,18.2675800323486,18.2674884796143,18.2673969268799,18.2673053741455,18.2672138214111,18.2671222686768,18.2670307159424,18.266939163208,18.2668476104736,18.2667560577393,18.2666645050049,18.2665729522705,18.2664794921875,18.2663879394531,18.2662963867188,18.2662048339844,18.26611328125,18.2660217285156,18.2659282684326,18.2658367156982,18.2657451629639,18.2656536102295,18.2655620574951,18.2654705047607,18.2653789520264,18.2652854919434,18.265193939209,18.2651023864746,18.2650108337402,18.0468902587891,18.0467987060547,18.120418548584,18.1203269958496,18.1202373504639,18.1201457977295,18.1200542449951,18.1199626922607,18.1198711395264,18.1197814941406,18.1196899414062,18.1195983886719,18.1195068359375,18.1194152832031,18.1193237304688,18.119234085083,18.1191425323486,18.1190509796143,18.1189594268799,18.1188678741455,18.1187782287598,18.1186866760254,18.118595123291,18.1185054779053,18.1184139251709,18.1183223724365,18.1182327270508,18.1181411743164,18.118049621582,18.1179599761963,18.1178684234619,18.1177768707275,18.1156692504883,18.0439014434814,18.0438098907471,18.1781482696533,18.1780567169189,18.1779670715332,18.1778755187988,18.1777839660645,18.1776924133301,18.1776008605957,18.1775093078613,18.177417755127,18.1773262023926,18.1772346496582,18.1771450042725,18.1770534515381,18.1769618988037,18.1768703460693,18.176778793335,18.1766872406006,18.1765956878662,18.1765041351318,18.1764125823975,18.1763210296631,18.1762313842773,18.176139831543,18.1760482788086,18.1759567260742,18.1758651733398,18.1757736206055,18.1756820678711,18.1755905151367,18.1754989624023,18.1754093170166,18.1753177642822,18.1752262115479,18.1751346588135,18.1750431060791,18.1749515533447,18.1748600006104,18.174768447876,18.1746768951416,18.1745872497559,18.1744956970215,18.1744041442871,18.1743125915527,18.1742210388184,18.174129486084,18.1740379333496,18.1739463806152,18.1738567352295,18.1737651824951,18.1736736297607,18.1735820770264,18.173490524292,18.1733989715576,18.1733074188232,18.1732158660889,18.1731262207031,18.1730346679688,18.1729431152344,18.1728515625,18.1727600097656,18.1726684570312,18.1725788116455,18.1724872589111,18.1723957061768,18.1723041534424,18.172212600708,18.1721210479736,18.1720294952393,18.1719398498535,18.1718482971191,18.1717567443848,18.1716651916504,18.171573638916,18.1714820861816,18.1713924407959,18.1713008880615,18.1712093353271,18.1711177825928,18.1710262298584,18.1709365844727,18.1708450317383,18.1707534790039,18.1706619262695,18.1705703735352,18.1704788208008,18.170389175415,18.1702976226807,18.1702060699463,18.1701145172119,18.1700229644775,18.1699314117432,18.1318626403809,18.1317710876465,18.1316795349121,18.1315879821777,18.2435512542725,18.2801780700684,18.280086517334,18.2799949645996,18.2799034118652,18.2798118591309
16.2234935760498,16.2234115600586,16.2233295440674,16.2232475280762,16.2231674194336,16.2230854034424,16.2230033874512,16.22292137146,16.2228412628174,16.2227592468262,16.222677230835,16.2225952148438,16.2225151062012,16.22243309021,16.2223510742188,16.2222690582275,16.222188949585,16.2221069335938,16.2220249176025,16.2899150848389,16.5601005554199,16.8393993377686,17.1282806396484,17.4272480010986,17.7367515563965,18.0574569702148,18.1870899200439,18.1869983673096,18.1869068145752,18.1868152618408,18.1867256164551,18.1866340637207,18.1865425109863,18.1864528656006,18.1863613128662,18.1862697601318,18.199197769165,18.199104309082,18.2695922851562,18.2695007324219,18.2694091796875,18.2693176269531,18.2692260742188,18.2691345214844,18.26904296875,18.2689514160156,18.2688579559326,18.2687664031982,18.2686748504639,18.2685832977295,18.2684917449951,18.2684001922607,18.2683086395264,18.268217086792,18.2681255340576,18.2680339813232,18.2679405212402,18.2678489685059,18.2677574157715,18.2676658630371,18.2675743103027,18.2674827575684,18.2673892974854,18.267297744751,18.2672061920166,18.2671146392822,18.2670230865479,18.2669315338135,18.2668399810791,18.0486965179443,18.04860496521,18.1222324371338,18.1221408843994,18.1220512390137,18.1219596862793,18.1218681335449,18.1217765808105,18.1216850280762,18.1215934753418,18.1215038299561,18.1214122772217,18.1213207244873,18.1212291717529,18.1211376190186,18.1210460662842,18.1209564208984,18.1208648681641,18.1207733154297,18.1206817626953,18.1205921173096,18.1205005645752,18.1204090118408,18.1203174591064,18.1202278137207,18.1201362609863,18.120044708252,18.1199550628662,18.1198635101318,18.1197719573975,18.1196823120117,18.1195907592773,18.116828918457,18.0457077026367,18.0456161499023,18.179967880249,18.1798763275146,18.1797847747803,18.1796932220459,18.1796035766602,18.1795120239258,18.1794204711914,18.179328918457,18.1792373657227,18.1791458129883,18.1790542602539,18.1789627075195,18.1788711547852,18.1787796020508,18.178689956665,18.1785984039307,18.1785068511963,18.1784152984619,18.1783237457275,18.1782321929932,18.1781406402588,18.1780490875244,18.17795753479,18.1778659820557,18.1777744293213,18.1776847839355,18.1775932312012,18.1775016784668,18.1774101257324,18.177318572998,18.1772270202637,18.1771354675293,18.1770439147949,18.1769523620605,18.1768627166748,18.1767711639404,18.1766796112061,18.1765880584717,18.1764965057373,18.1764049530029,18.1763134002686,18.1762218475342,18.1761302947998,18.1760387420654,18.1759490966797,18.1758575439453,18.1757659912109,18.1756744384766,18.1755828857422,18.1754913330078,18.1753997802734,18.1753082275391,18.1752185821533,18.1751270294189,18.1750354766846,18.1749439239502,18.1748523712158,18.1747608184814,18.1746692657471,18.1745777130127,18.174488067627,18.1743965148926,18.1743049621582,18.1742134094238,18.1741218566895,18.1740303039551,18.1739387512207,18.173849105835,18.1737575531006,18.1736660003662,18.1735744476318,18.1734828948975,18.1733913421631,18.1733016967773,18.173210144043,18.1731185913086,18.1730270385742,18.1729354858398,18.1728439331055,18.1727542877197,18.1726627349854,18.172571182251,18.1724796295166,18.1723880767822,18.1722965240479,18.1722068786621,18.1721153259277,18.1720237731934,18.171932220459,18.1718406677246,18.1717491149902,18.1336765289307,18.1335849761963,18.1334934234619,18.1334018707275,18.2453746795654,18.2820072174072,18.2819156646729,18.2818222045898,18.2817306518555,18.2816390991211
16.2251167297363,16.2250366210938,16.2249546051025,16.2248725891113,16.2247905731201,16.2247104644775,16.2246284484863,16.2245464324951,16.2244644165039,16.2243843078613,16.2243022918701,16.2242202758789,16.2241382598877,16.2240581512451,16.2239761352539,16.2238941192627,16.2238121032715,16.2237319946289,16.2236499786377,16.2895584106445,16.5597324371338,16.839017868042,17.1278877258301,17.4268398284912,17.736364364624,18.057014465332,18.1889095306396,18.1888198852539,18.1887283325195,18.1886367797852,18.1885452270508,18.188455581665,18.1883640289307,18.1882724761963,18.1881828308105,18.1880912780762,18.2010192871094,18.200927734375,18.2714214324951,18.2713298797607,18.2712383270264,18.271146774292,18.2710552215576,18.2709636688232,18.2708721160889,18.2707786560059,18.2706871032715,18.2705955505371,18.2705039978027,18.2704124450684,18.270320892334,18.2702293395996,18.2701377868652,18.2700462341309,18.2699546813965,18.2698631286621,18.2697696685791,18.2696781158447,18.2695865631104,18.269495010376,18.2694034576416,18.2693099975586,18.2692184448242,18.2691268920898,18.2690353393555,18.2689437866211,18.2688522338867,18.2687606811523,18.268669128418,18.0505027770996,18.0504131317139,18.1240463256836,18.1239566802979,18.1238651275635,18.1237735748291,18.1236820220947,18.1235904693604,18.123498916626,18.1234092712402,18.1233177185059,18.1232261657715,18.1231346130371,18.1230430603027,18.1229515075684,18.122859954834,18.1227703094482,18.1226787567139,18.1225872039795,18.1224956512451,18.1224040985107,18.122314453125,18.1222229003906,18.1221313476562,18.1220417022705,18.1219501495361,18.1218585968018,18.1217670440674,18.1216773986816,18.1215858459473,18.1214942932129,18.1214046478271,18.1179790496826,18.047513961792,18.0474224090576,18.1817874908447,18.1816959381104,18.181604385376,18.1815128326416,18.1814231872559,18.1813316345215,18.1812400817871,18.1811485290527,18.1810569763184,18.180965423584,18.1808738708496,18.1807823181152,18.1806907653809,18.1805992126465,18.1805076599121,18.1804161071777,18.180326461792,18.1802349090576,18.1801433563232,18.1800518035889,18.1799602508545,18.1798686981201,18.1797771453857,18.1796855926514,18.179594039917,18.1795024871826,18.1794109344482,18.1793212890625,18.1792297363281,18.1791381835938,18.1790466308594,18.178955078125,18.1788635253906,18.1787719726562,18.1786804199219,18.1785888671875,18.1784973144531,18.1784076690674,18.178316116333,18.1782245635986,18.1781330108643,18.1780414581299,18.1779499053955,18.1778583526611,18.1777667999268,18.1776752471924,18.177583694458,18.1774940490723,18.1774024963379,18.1773109436035,18.1772193908691,18.1771278381348,18.1770362854004,18.176944732666,18.1768531799316,18.1767616271973,18.1766700744629,18.1765804290771,18.1764888763428,18.1763973236084,18.176305770874,18.1762142181396,18.1761226654053,18.1760311126709,18.1759414672852,18.1758499145508,18.1757583618164,18.175666809082,18.1755752563477,18.1754837036133,18.1753921508789,18.1753025054932,18.1752109527588,18.1751194000244,18.17502784729,18.1749362945557,18.1748447418213,18.1747531890869,18.1746635437012,18.1745719909668,18.1744804382324,18.174388885498,18.1742973327637,18.1742057800293,18.1741142272949,18.1740245819092,18.1739330291748,18.1738414764404,18.1737499237061,18.1736583709717,18.1735668182373,18.1354904174805,18.1353988647461,18.1353073120117,18.1352157592773,18.247200012207,18.2838363647461,18.2837429046631,18.2836513519287,18.2835597991943,18.28346824646
16.2267417907715,16.2266616821289,16.2265796661377,16.2264976501465,16.2264156341553,16.2263355255127,16.2262535095215,16.2261714935303,16.2260894775391,16.2260074615479,16.2259273529053,16.2258453369141,16.2257633209229,16.2256813049316,16.2256011962891,16.2255191802979,16.2254371643066,16.2253551483154,16.2252750396729,16.2892017364502,16.559362411499,16.8386363983154,17.1274929046631,17.4264316558838,17.7359790802002,18.0565719604492,18.190731048584,18.1906394958496,18.1905498504639,18.1904582977295,18.1903667449951,18.1902770996094,18.190185546875,18.1900939941406,18.1900024414062,18.1899127960205,18.2028408050537,18.2027492523193,18.273250579834,18.2731590270996,18.2730674743652,18.2729759216309,18.2728843688965,18.2727928161621,18.2727012634277,18.2726097106934,18.2725162506104,18.272424697876,18.2723331451416,18.2722415924072,18.2721500396729,18.2720584869385,18.2719669342041,18.2718753814697,18.2717838287354,18.271692276001,18.271598815918,18.2715072631836,18.2714157104492,18.2713241577148,18.2712326049805,18.2711391448975,18.2710475921631,18.2709560394287,18.2708644866943,18.27077293396,18.2706813812256,18.2705898284912,18.2704982757568,18.0523109436035,18.0522193908691,18.1258602142334,18.1257705688477,18.1256790161133,18.1255874633789,18.1254959106445,18.1254062652588,18.1253147125244,18.12522315979,18.1251316070557,18.1250400543213,18.1249485015869,18.1248569488525,18.1247673034668,18.1246757507324,18.124584197998,18.1244926452637,18.1244010925293,18.1243095397949,18.1242198944092,18.1241283416748,18.1240367889404,18.1239452362061,18.1238555908203,18.1237640380859,18.1236724853516,18.1235828399658,18.1234912872314,18.1233997344971,18.1233081817627,18.123218536377,18.1191291809082,18.0493202209473,18.0492286682129,18.1836071014404,18.1835174560547,18.1834259033203,18.1833343505859,18.1832427978516,18.1831512451172,18.1830596923828,18.1829681396484,18.1828765869141,18.1827850341797,18.1826934814453,18.1826019287109,18.1825103759766,18.1824188232422,18.1823272705078,18.1822376251221,18.1821460723877,18.1820545196533,18.1819629669189,18.1818714141846,18.1817798614502,18.1816883087158,18.1815967559814,18.1815052032471,18.1814136505127,18.1813220977783,18.1812305450439,18.1811389923096,18.1810493469238,18.1809577941895,18.1808662414551,18.1807746887207,18.1806831359863,18.180591583252,18.1805000305176,18.1804084777832,18.1803169250488,18.1802253723145,18.1801338195801,18.1800441741943,18.17995262146,18.1798610687256,18.1797695159912,18.1796779632568,18.1795864105225,18.1794948577881,18.1794033050537,18.1793117523193,18.179220199585,18.1791286468506,18.1790390014648,18.1789474487305,18.1788558959961,18.1787643432617,18.1786727905273,18.178581237793,18.1784896850586,18.1783981323242,18.1783065795898,18.1782150268555,18.1781253814697,18.1780338287354,18.177942276001,18.1778507232666,18.1777591705322,18.1776676177979,18.1775760650635,18.1774845123291,18.1773948669434,18.177303314209,18.1772117614746,18.1771202087402,18.1770286560059,18.1769371032715,18.1768455505371,18.1767559051514,18.176664352417,18.1765727996826,18.1764812469482,18.1763896942139,18.1762981414795,18.1762065887451,18.1761169433594,18.176025390625,18.1759338378906,18.1758422851562,18.1757507324219,18.1756591796875,18.1755676269531,18.1754779815674,18.175386428833,18.1373043060303,18.1372127532959,18.1371231079102,18.1370315551758,18.2490253448486,18.285665512085,18.2855739593506,18.2854804992676,18.2853889465332,18.2852973937988
16.2283687591553,16.2282867431641,16.2282047271729,16.2281227111816,16.2280406951904,16.2279605865479,16.2278785705566,16.2277965545654,16.2277145385742,16.2276344299316,16.2275524139404,16.2274703979492,16.227388381958,16.2273063659668,16.2272262573242,16.227144241333,16.2270622253418,16.2269802093506,16.226900100708,16.2888450622559,16.5589942932129,16.8382568359375,17.1270980834961,17.4260234832764,17.7355937957764,18.0561294555664,18.1925525665283,18.1924629211426,18.1923713684082,18.1922798156738,18.1921882629395,18.1920986175537,18.1920070648193,18.191915512085,18.1918239593506,18.1917343139648,18.2046642303467,18.2045726776123,18.2750816345215,18.2749881744385,18.2748966217041,18.2748050689697,18.2747135162354,18.274621963501,18.2745304107666,18.2744388580322,18.2743473052979,18.2742557525635,18.2741641998291,18.2740726470947,18.2739791870117,18.2738876342773,18.273796081543,18.2737045288086,18.2736129760742,18.2735214233398,18.2734298706055,18.2733364105225,18.2732448577881,18.2731533050537,18.2730617523193,18.272970199585,18.272876739502,18.2727851867676,18.2726936340332,18.2726020812988,18.2725105285645,18.2724189758301,18.2723274230957,18.0541172027588,18.054027557373,18.1276760101318,18.1275844573975,18.1274948120117,18.1274032592773,18.127311706543,18.1272201538086,18.1271286010742,18.1270370483398,18.1269454956055,18.1268558502197,18.1267642974854,18.126672744751,18.1265811920166,18.1264896392822,18.1263980865479,18.1263065338135,18.1262168884277,18.1261253356934,18.126033782959,18.1259422302246,18.1258506774902,18.1257610321045,18.1256694793701,18.1255779266357,18.12548828125,18.1253967285156,18.1253051757812,18.1252136230469,18.1251239776611,18.1250324249268,18.1202774047852,18.0511264801025,18.0510368347168,18.1854286193848,18.1853370666504,18.185245513916,18.1851539611816,18.1850624084473,18.1849708557129,18.1848793029785,18.1847877502441,18.1846961975098,18.1846046447754,18.184513092041,18.1844234466553,18.1843318939209,18.1842403411865,18.1841487884521,18.1840572357178,18.1839656829834,18.183874130249,18.1837825775146,18.1836910247803,18.1835994720459,18.1835079193115,18.1834163665771,18.1833248138428,18.1832332611084,18.183141708374,18.1830520629883,18.1829605102539,18.1828689575195,18.1827774047852,18.1826858520508,18.1825942993164,18.182502746582,18.1824111938477,18.1823196411133,18.1822280883789,18.1821365356445,18.1820449829102,18.1819534301758,18.18186378479,18.1817722320557,18.1816806793213,18.1815891265869,18.1814975738525,18.1814060211182,18.1813144683838,18.1812229156494,18.181131362915,18.1810398101807,18.1809482574463,18.1808567047119,18.1807670593262,18.1806755065918,18.1805839538574,18.180492401123,18.1804008483887,18.1803092956543,18.1802177429199,18.1801261901855,18.1800346374512,18.1799430847168,18.1798515319824,18.1797618865967,18.1796703338623,18.1795787811279,18.1794872283936,18.1793956756592,18.1793041229248,18.1792125701904,18.1791210174561,18.1790313720703,18.1789398193359,18.1788482666016,18.1787567138672,18.1786651611328,18.1785736083984,18.1784820556641,18.1783905029297,18.1783008575439,18.1782093048096,18.1781177520752,18.1780261993408,18.1779346466064,18.1778430938721,18.1777515411377,18.177661895752,18.1775703430176,18.1774787902832,18.1773872375488,18.1772956848145,18.1772041320801,18.1391201019287,18.1390285491943,18.13893699646,18.1388454437256,18.2508525848389,18.2874946594238,18.2874031066895,18.2873115539551,18.2872180938721,18.2871265411377
16.2299938201904,16.2299118041992,16.229829788208,16.2297477722168,16.2296676635742,16.229585647583,16.2295036315918,16.2294216156006,16.229341506958,16.2292594909668,16.2291774749756,16.2290954589844,16.2290134429932,16.2289333343506,16.2288513183594,16.2287693023682,16.228687286377,16.2286071777344,16.2285251617432,16.2884883880615,16.5586261749268,16.8378753662109,17.1267032623291,17.4256153106689,17.7352066040039,18.0556869506836,18.1943759918213,18.1942844390869,18.1941928863525,18.1941013336182,18.1940116882324,18.193920135498,18.1938285827637,18.1937370300293,18.1936473846436,18.1935558319092,18.2064876556396,18.2063961029053,18.2769107818604,18.276819229126,18.2767276763916,18.2766361236572,18.2765445709229,18.2764530181885,18.2763595581055,18.2762680053711,18.2761764526367,18.2760848999023,18.275993347168,18.2759017944336,18.2758102416992,18.2757186889648,18.2756271362305,18.2755355834961,18.2754440307617,18.2753505706787,18.2752590179443,18.27516746521,18.2750759124756,18.2749824523926,18.2748908996582,18.2747993469238,18.2747077941895,18.2746162414551,18.2745227813721,18.2744312286377,18.2743396759033,18.2742481231689,18.2741565704346,18.0559253692627,18.0558338165283,18.1294898986816,18.1294002532959,18.1293087005615,18.1292171478271,18.1291275024414,18.129035949707,18.1289443969727,18.1288528442383,18.1287612915039,18.1286697387695,18.1285781860352,18.1284866333008,18.128396987915,18.1283054351807,18.1282138824463,18.1281223297119,18.1280307769775,18.1279392242432,18.1278476715088,18.127758026123,18.1276664733887,18.1275749206543,18.1274833679199,18.1273937225342,18.1273021697998,18.1272106170654,18.1271190643311,18.1270294189453,18.1269378662109,18.1268463134766,18.1214275360107,18.0529346466064,18.0528430938721,18.1872482299805,18.1871566772461,18.1870670318604,18.186975479126,18.1868839263916,18.1867923736572,18.1867008209229,18.1866092681885,18.1865177154541,18.1864261627197,18.1863346099854,18.186243057251,18.1861515045166,18.1860599517822,18.1859683990479,18.1858768463135,18.1857852935791,18.1856937408447,18.1856021881104,18.185510635376,18.1854209899902,18.1853294372559,18.1852378845215,18.1851463317871,18.1850547790527,18.1849632263184,18.184871673584,18.1847801208496,18.1846885681152,18.1845970153809,18.1845054626465,18.1844139099121,18.1843223571777,18.1842308044434,18.184139251709,18.1840476989746,18.1839580535889,18.1838665008545,18.1837749481201,18.1836833953857,18.1835918426514,18.183500289917,18.1834087371826,18.1833171844482,18.1832256317139,18.1831340789795,18.1830425262451,18.1829509735107,18.1828594207764,18.182767868042,18.1826782226562,18.1825866699219,18.1824951171875,18.1824035644531,18.1823120117188,18.1822204589844,18.18212890625,18.1820373535156,18.1819458007812,18.1818542480469,18.1817626953125,18.1816711425781,18.1815795898438,18.181489944458,18.1813983917236,18.1813068389893,18.1812152862549,18.1811237335205,18.1810321807861,18.1809406280518,18.1808490753174,18.1807594299316,18.1806678771973,18.1805763244629,18.1804847717285,18.1803932189941,18.1803016662598,18.1802101135254,18.180118560791,18.1800289154053,18.1799373626709,18.1798458099365,18.1797542572021,18.1796627044678,18.1795711517334,18.179479598999,18.1793880462646,18.1792984008789,18.1792068481445,18.1791152954102,18.1790237426758,18.1409339904785,18.1408443450928,18.1407527923584,18.140661239624,18.2526779174805,18.2893238067627,18.2892322540283,18.2891407012939,18.2890491485596,18.2889575958252
16.2316188812256,16.231538772583,16.2314567565918,16.2313747406006,16.2312927246094,16.2312107086182,16.2311305999756,16.2310485839844,16.2309665679932,16.230884552002,16.2308025360107,16.2307224273682,16.230640411377,16.2305583953857,16.2304763793945,16.2303943634033,16.2303142547607,16.2302322387695,16.2301502227783,16.2881317138672,16.558256149292,16.8374938964844,17.1263084411621,17.4252071380615,17.7348213195801,18.0552444458008,18.1961975097656,18.1961059570312,18.1960163116455,18.1959247589111,18.1958332061768,18.1957416534424,18.1956520080566,18.1955604553223,18.1954689025879,18.1953773498535,18.2083110809326,18.2082195281982,18.2787418365479,18.2786502838135,18.2785587310791,18.2784671783447,18.2783737182617,18.2782821655273,18.278190612793,18.2780990600586,18.2780075073242,18.2779159545898,18.2778244018555,18.2777328491211,18.2776412963867,18.2775478363037,18.2774562835693,18.277364730835,18.2772731781006,18.2771816253662,18.2770900726318,18.2769966125488,18.2769050598145,18.2768135070801,18.2767219543457,18.2766304016113,18.2765369415283,18.2764453887939,18.2763538360596,18.2762622833252,18.2761707305908,18.2760791778564,18.2759876251221,18.0577335357666,18.0576419830322,18.1313056945801,18.1312160491943,18.13112449646,18.1310329437256,18.1309413909912,18.1308517456055,18.1307601928711,18.1306686401367,18.1305770874023,18.130485534668,18.1303939819336,18.1303024291992,18.1302108764648,18.1301212310791,18.1300296783447,18.1299381256104,18.129846572876,18.1297550201416,18.1296634674072,18.1295719146729,18.1294822692871,18.1293907165527,18.1292991638184,18.129207611084,18.1291179656982,18.1290264129639,18.1289348602295,18.1288433074951,18.1287536621094,18.128662109375,18.1225776672363,18.0547428131104,18.054651260376,18.1890697479248,18.1889781951904,18.1888866424561,18.1887950897217,18.1887035369873,18.1886119842529,18.1885204315186,18.1884288787842,18.1883392333984,18.1882476806641,18.1881561279297,18.1880645751953,18.1879730224609,18.1878814697266,18.1877899169922,18.1876983642578,18.1876068115234,18.1875152587891,18.1874237060547,18.1873321533203,18.1872406005859,18.1871490478516,18.1870574951172,18.1869659423828,18.1868743896484,18.1867828369141,18.1866912841797,18.1865997314453,18.1865100860596,18.1864185333252,18.1863269805908,18.1862354278564,18.1861438751221,18.1860523223877,18.1859607696533,18.1858692169189,18.1857776641846,18.1856861114502,18.1855945587158,18.1855030059814,18.1854114532471,18.1853199005127,18.1852283477783,18.1851367950439,18.1850452423096,18.1849555969238,18.1848640441895,18.1847724914551,18.1846809387207,18.1845893859863,18.184497833252,18.1844062805176,18.1843147277832,18.1842231750488,18.1841316223145,18.1840400695801,18.1839485168457,18.1838569641113,18.183765411377,18.1836738586426,18.1835842132568,18.1834926605225,18.1834011077881,18.1833095550537,18.1832180023193,18.183126449585,18.1830348968506,18.1829433441162,18.1828517913818,18.1827602386475,18.1826686859131,18.1825790405273,18.182487487793,18.1823959350586,18.1823043823242,18.1822128295898,18.1821212768555,18.1820297241211,18.1819381713867,18.1818466186523,18.1817569732666,18.1816654205322,18.1815738677979,18.1814823150635,18.1813907623291,18.1812992095947,18.1812076568604,18.181116104126,18.1810264587402,18.1809349060059,18.1808433532715,18.142749786377,18.1426582336426,18.1425685882568,18.1424770355225,18.2545051574707,18.2911548614502,18.2910633087158,18.2909717559814,18.2908802032471,18.2907867431641
16.2332458496094,16.2331638336182,16.233081817627,16.2330017089844,16.2329196929932,16.232837677002,16.2327556610107,16.2326736450195,16.2325916290283,16.2325115203857,16.2324295043945,16.2323474884033,16.2322654724121,16.2321853637695,16.2321033477783,16.2320213317871,16.2319393157959,16.2318572998047,16.2317771911621,16.2877750396729,16.5578880310059,16.8371124267578,17.1259155273438,17.4247989654541,17.7344360351562,18.054801940918,18.1980209350586,18.1979293823242,18.1978378295898,18.1977462768555,18.1976566314697,18.1975650787354,18.197473526001,18.1973819732666,18.1972923278809,18.1972007751465,18.2101345062256,18.2100429534912,18.2805728912354,18.280481338501,18.2803897857666,18.2802963256836,18.2802047729492,18.2801132202148,18.2800216674805,18.2799301147461,18.2798385620117,18.2797470092773,18.279655456543,18.2795639038086,18.2794704437256,18.2793788909912,18.2792873382568,18.2791957855225,18.2791042327881,18.2790126800537,18.2789211273193,18.2788276672363,18.278736114502,18.2786445617676,18.2785530090332,18.2784595489502,18.2783679962158,18.2782764434814,18.2781848907471,18.2780914306641,18.2779998779297,18.2779083251953,18.2778167724609,18.0595417022705,18.0594520568848,18.1331214904785,18.1330318450928,18.1329402923584,18.132848739624,18.1327590942383,18.1326675415039,18.1325759887695,18.1324844360352,18.1323928833008,18.1323013305664,18.132209777832,18.1321182250977,18.1320266723633,18.1319351196289,18.1318454742432,18.1317539215088,18.1316623687744,18.13157081604,18.1314792633057,18.1313877105713,18.1312961578369,18.1312065124512,18.1311149597168,18.1310234069824,18.130931854248,18.1308422088623,18.1307506561279,18.1306591033936,18.1305675506592,18.1304779052734,18.1237277984619,18.0565509796143,18.0564594268799,18.1908912658691,18.1907997131348,18.1907081604004,18.190616607666,18.1905250549316,18.1904335021973,18.1903419494629,18.1902503967285,18.1901588439941,18.1900672912598,18.189977645874,18.1898860931396,18.1897945404053,18.1897029876709,18.1896114349365,18.1895198822021,18.1894283294678,18.1893367767334,18.189245223999,18.1891536712646,18.1890621185303,18.1889705657959,18.1888790130615,18.1887874603271,18.1886959075928,18.1886043548584,18.188512802124,18.1884212493896,18.1883296966553,18.1882381439209,18.1881465911865,18.1880550384521,18.1879634857178,18.1878719329834,18.1877822875977,18.1876907348633,18.1875991821289,18.1875076293945,18.1874160766602,18.1873245239258,18.1872329711914,18.187141418457,18.1870498657227,18.1869583129883,18.1868667602539,18.1867752075195,18.1866836547852,18.1865921020508,18.1865005493164,18.186408996582,18.1863174438477,18.1862258911133,18.1861343383789,18.1860446929932,18.1859531402588,18.1858615875244,18.18577003479,18.1856784820557,18.1855869293213,18.1854953765869,18.1854038238525,18.1853122711182,18.1852207183838,18.1851291656494,18.185037612915,18.1849460601807,18.1848545074463,18.1847629547119,18.1846733093262,18.1845817565918,18.1844902038574,18.184398651123,18.1843070983887,18.1842155456543,18.1841239929199,18.1840324401855,18.1839408874512,18.1838493347168,18.1837596893311,18.1836681365967,18.1835765838623,18.1834850311279,18.1833934783936,18.1833019256592,18.1832103729248,18.1831188201904,18.1830272674561,18.1829357147217,18.1828460693359,18.1827545166016,18.1826629638672,18.1445655822754,18.144474029541,18.1443843841553,18.1442928314209,18.2563323974609,18.2929859161377,18.2928943634033,18.2928028106689,18.2927093505859,18.2926177978516
16.2348728179932,16.234790802002,16.2347087860107,16.2346267700195,16.2345447540283,16.2344646453857,16.2343826293945,16.2343006134033,16.2342185974121,16.2341365814209,16.2340564727783,16.2339744567871,16.2338924407959,16.2338104248047,16.2337284088135,16.2336483001709,16.2335662841797,16.2334842681885,16.2334022521973,16.2874183654785,16.5575199127197,16.8367309570312,17.1255207061768,17.4243907928467,17.7340126037598,18.0543594360352,18.1998443603516,18.1997528076172,18.1996612548828,18.1995697021484,18.1994800567627,18.1993885040283,18.1992969512939,18.1992053985596,18.1991138458252,18.1990242004395,18.2119598388672,18.2118663787842,18.2824039459229,18.2823123931885,18.2822208404541,18.2821292877197,18.2820358276367,18.2819442749023,18.281852722168,18.2817611694336,18.2816696166992,18.2815780639648,18.2814865112305,18.2813949584961,18.2813014984131,18.2812099456787,18.2811183929443,18.28102684021,18.2809352874756,18.2808437347412,18.2807521820068,18.2806587219238,18.2805671691895,18.2804756164551,18.2803840637207,18.2802906036377,18.2801990509033,18.2801074981689,18.2800159454346,18.2799224853516,18.2798309326172,18.2797393798828,18.2796478271484,18.061351776123,18.0612602233887,18.1349391937256,18.1348476409912,18.1347579956055,18.1346664428711,18.1345748901367,18.1344833374023,18.134391784668,18.1343002319336,18.1342086791992,18.1341171264648,18.1340255737305,18.1339340209961,18.1338443756104,18.133752822876,18.1336612701416,18.1335697174072,18.1334781646729,18.1333866119385,18.1332950592041,18.1332035064697,18.133113861084,18.1330223083496,18.1329307556152,18.1328392028809,18.1327476501465,18.1326580047607,18.1325664520264,18.132474899292,18.1323833465576,18.1322937011719,18.1248798370361,18.0583591461182,18.0582675933838,18.1927127838135,18.1926212310791,18.1925296783447,18.1924381256104,18.192346572876,18.1922550201416,18.1921634674072,18.1920719146729,18.1919822692871,18.1918907165527,18.1917991638184,18.191707611084,18.1916160583496,18.1915245056152,18.1914329528809,18.1913414001465,18.1912498474121,18.1911582946777,18.1910667419434,18.190975189209,18.1908836364746,18.1907920837402,18.1907005310059,18.1906089782715,18.1905174255371,18.1904258728027,18.1903343200684,18.190242767334,18.1901512145996,18.1900596618652,18.1899681091309,18.1898765563965,18.1897850036621,18.1896934509277,18.1896018981934,18.189510345459,18.1894187927246,18.1893272399902,18.1892375946045,18.1891460418701,18.1890544891357,18.1889629364014,18.188871383667,18.1887798309326,18.1886882781982,18.1885967254639,18.1885051727295,18.1884136199951,18.1883220672607,18.1882305145264,18.188138961792,18.1880474090576,18.1879558563232,18.1878643035889,18.1877727508545,18.1876811981201,18.1875896453857,18.1874980926514,18.187406539917,18.1873149871826,18.1872253417969,18.1871337890625,18.1870422363281,18.1869506835938,18.1868591308594,18.186767578125,18.1866760253906,18.1865844726562,18.1864929199219,18.1864013671875,18.1863098144531,18.1862182617188,18.1861267089844,18.18603515625,18.1859455108643,18.1858539581299,18.1857624053955,18.1856708526611,18.1855792999268,18.1854877471924,18.185396194458,18.1853046417236,18.1852130889893,18.1851215362549,18.1850299835205,18.1849403381348,18.1848487854004,18.184757232666,18.1846656799316,18.1845741271973,18.1844825744629,18.1463832855225,18.1462917327881,18.1462001800537,18.1461086273193,18.2581596374512,18.2948169708252,18.2947254180908,18.2946338653564,18.2945404052734,18.2944488525391
16.236499786377,16.2364177703857,16.2363357543945,16.2362537384033,16.2361717224121,16.2360916137695,16.2360095977783,16.2359275817871,16.2358455657959,16.2357635498047,16.2356834411621,16.2356014251709,16.2355194091797,16.2354373931885,16.2353553771973,16.2352733612061,16.2351932525635,16.2351112365723,16.2350292205811,16.2870616912842,16.5571517944336,16.8363494873047,17.1251258850098,17.4239826202393,17.7335453033447,18.0539169311523,18.2016677856445,18.2015762329102,18.2014846801758,18.2013931274414,18.2013034820557,18.2012119293213,18.2011203765869,18.2010288238525,18.2009372711182,18.2008476257324,18.2137851715088,18.2136917114258,18.2842350006104,18.284143447876,18.2840518951416,18.2839603424072,18.2838687896729,18.2837772369385,18.2836837768555,18.2835922241211,18.2835006713867,18.2834091186523,18.283317565918,18.2832260131836,18.2831344604492,18.2830410003662,18.2829494476318,18.2828578948975,18.2827663421631,18.2826747894287,18.2825832366943,18.28249168396,18.282398223877,18.2823066711426,18.2822151184082,18.2821235656738,18.2820301055908,18.2819385528564,18.2818470001221,18.2817554473877,18.2816619873047,18.2815704345703,18.2814788818359,18.0631618499756,18.0630702972412,18.136754989624,18.1366653442383,18.1365737915039,18.1364822387695,18.1363906860352,18.1362991333008,18.1362075805664,18.1361179351807,18.1360263824463,18.1359348297119,18.1358432769775,18.1357517242432,18.1356601715088,18.1355686187744,18.13547706604,18.1353855133057,18.1352939605713,18.1352024078369,18.1351127624512,18.1350212097168,18.1349296569824,18.134838104248,18.1347465515137,18.1346549987793,18.1345653533936,18.1344738006592,18.1343822479248,18.1342906951904,18.1342010498047,18.1341094970703,18.1260299682617,18.0601673126221,18.0600757598877,18.1945362091064,18.1944446563721,18.1943531036377,18.1942615509033,18.1941699981689,18.1940784454346,18.1939868927002,18.1938953399658,18.1938037872314,18.1937122344971,18.1936206817627,18.1935291290283,18.1934375762939,18.1933460235596,18.1932544708252,18.1931629180908,18.1930713653564,18.1929798126221,18.1928882598877,18.1927967071533,18.1927051544189,18.1926136016846,18.1925220489502,18.1924304962158,18.1923389434814,18.1922473907471,18.1921558380127,18.1920642852783,18.1919727325439,18.1918811798096,18.1917896270752,18.1916980743408,18.1916065216064,18.1915149688721,18.1914234161377,18.1913318634033,18.1912403106689,18.1911487579346,18.1910591125488,18.1909675598145,18.1908760070801,18.1907844543457,18.1906929016113,18.190601348877,18.1905097961426,18.1904182434082,18.1903266906738,18.1902351379395,18.1901435852051,18.1900520324707,18.1899604797363,18.189868927002,18.1897773742676,18.1896858215332,18.1895942687988,18.1895027160645,18.1894111633301,18.1893196105957,18.1892280578613,18.189136505127,18.1890449523926,18.1889533996582,18.1888618469238,18.1887702941895,18.1886787414551,18.1885890960693,18.188497543335,18.1884059906006,18.1883144378662,18.1882228851318,18.1881313323975,18.1880397796631,18.1879482269287,18.1878566741943,18.18776512146,18.1876735687256,18.1875820159912,18.1874904632568,18.1873989105225,18.1873092651367,18.1872177124023,18.187126159668,18.1870346069336,18.1869430541992,18.1868515014648,18.1867599487305,18.1866683959961,18.1865768432617,18.1864852905273,18.186393737793,18.1863021850586,18.1481990814209,18.1481075286865,18.1480159759521,18.1479244232178,18.2599868774414,18.2966480255127,18.2965564727783,18.2964649200439,18.2963733673096,18.2962799072266
16.2381267547607,16.2380447387695,16.2379627227783,16.2378807067871,16.2378005981445,16.2377185821533,16.2376365661621,16.2375545501709,16.2374725341797,16.2373905181885,16.2373104095459,16.2372283935547,16.2371463775635,16.2370643615723,16.2369823455811,16.2369022369385,16.2368202209473,16.2367382049561,16.2366561889648,16.2867050170898,16.5567817687988,16.8359699249268,17.1247329711914,17.4235744476318,17.7330780029297,18.0534744262695,18.2034912109375,18.2033996582031,18.2033081054688,18.203218460083,18.2031269073486,18.2030353546143,18.2029438018799,18.2028522491455,18.2027626037598,18.2026710510254,18.2156085968018,18.2155170440674,18.2860679626465,18.2859764099121,18.2858848571777,18.2857913970947,18.2856998443604,18.285608291626,18.2855167388916,18.2854251861572,18.2853336334229,18.2852401733398,18.2851486206055,18.2850570678711,18.2849655151367,18.2848739624023,18.284782409668,18.2846908569336,18.2845973968506,18.2845058441162,18.2844142913818,18.2843227386475,18.2842311859131,18.2841377258301,18.2840461730957,18.2839546203613,18.283863067627,18.2837696075439,18.2836780548096,18.2835865020752,18.2834949493408,18.2834033966064,18.2833118438721,18.0649700164795,18.0648784637451,18.1385726928711,18.1384830474854,18.138391494751,18.1382999420166,18.1382083892822,18.1381168365479,18.1380252838135,18.1379337310791,18.1378421783447,18.1377506256104,18.137659072876,18.1375675201416,18.1374778747559,18.1373863220215,18.1372947692871,18.1372032165527,18.1371116638184,18.137020111084,18.1369285583496,18.1368370056152,18.1367454528809,18.1366539001465,18.1365642547607,18.1364727020264,18.136381149292,18.1362895965576,18.1361999511719,18.1361083984375,18.1360168457031,18.1359252929688,18.1271800994873,18.061975479126,18.0618858337402,18.1963577270508,18.1962661743164,18.196174621582,18.1960830688477,18.1959915161133,18.1958999633789,18.1958084106445,18.1957168579102,18.1956253051758,18.1955337524414,18.195442199707,18.1953506469727,18.1952590942383,18.1951675415039,18.1950759887695,18.1949844360352,18.1948928833008,18.1948013305664,18.194709777832,18.1946182250977,18.1945266723633,18.1944351196289,18.1943435668945,18.1942520141602,18.1941604614258,18.1940689086914,18.193977355957,18.1938858032227,18.1937942504883,18.1937046051025,18.1936130523682,18.1935214996338,18.1934299468994,18.193338394165,18.1932468414307,18.1931552886963,18.1930637359619,18.1929721832275,18.1928806304932,18.1927890777588,18.1926975250244,18.19260597229,18.1925144195557,18.1924228668213,18.1923313140869,18.1922397613525,18.1921482086182,18.1920566558838,18.1919651031494,18.191873550415,18.1917819976807,18.1916904449463,18.1915988922119,18.1915073394775,18.1914157867432,18.1913242340088,18.1912326812744,18.19114112854,18.1910495758057,18.1909580230713,18.1908664703369,18.1907749176025,18.1906833648682,18.1905918121338,18.1905002593994,18.190408706665,18.1903171539307,18.1902275085449,18.1901359558105,18.1900444030762,18.1899528503418,18.1898612976074,18.189769744873,18.1896781921387,18.1895866394043,18.1894950866699,18.1894035339355,18.1893119812012,18.1892204284668,18.1891288757324,18.189037322998,18.1889457702637,18.1888542175293,18.1887645721436,18.1886730194092,18.1885814666748,18.1884899139404,18.1883983612061,18.1883068084717,18.1882152557373,18.1881237030029,18.150016784668,18.1499252319336,18.1498336791992,18.1497421264648,18.2618160247803,18.2984809875488,18.2983875274658,18.2982959747314,18.2982044219971,18.2981128692627
