17.6696929931641,17.6696071624756,17.6695232391357,17.6694374084473,15.8040466308594,15.8039712905884,15.8271417617798,17.669095993042,17.6690101623535,17.668924331665,16.1887397766113,16.188663482666,16.1994113922119,17.6685829162598,17.6684970855713,17.6684131622314,16.5734176635742,16.573335647583,15.8029766082764,15.8029012680054,15.8028249740601,15.8629856109619,16.9580669403076,16.9579849243164,16.9989624023438,17.6675586700439,17.6674728393555,17.3427791595459,17.3426952362061,17.3558387756348,17.6671314239502,17.6670455932617,17.6669616699219,15.801830291748,15.8017559051514,15.8348340988159,17.6666202545166,17.6665344238281,17.6664485931396,17.6663627624512,17.6662788391113,17.6661930084229,17.6661071777344,17.6660213470459,17.6659374237061,17.6658515930176,17.6657657623291,15.8007612228394,15.8006868362427,15.8031024932861,17.5905342102051,17.6049346923828,17.6048488616943,17.6047649383545,17.604679107666,17.6045932769775,17.6045093536377,17.6044235229492,17.6043395996094,17.6042537689209,17.6041679382324,17.6040840148926,15.799617767334,15.7995433807373,15.8446264266968,17.6037425994873,17.6036586761475,17.603572845459,17.6034889221191,17.6034030914307,17.6033172607422,17.6032333374023,17.6031475067139,17.603063583374,17.6029777526855,17.6028919219971,15.7985486984253,15.7984743118286,15.8088426589966,17.6025524139404,17.602466583252,17.6023826599121,17.5290107727051,17.5289249420166,17.6082172393799,17.6990013122559,17.7454490661621,17.7453651428223,17.7452793121338,17.7451934814453,17.7451076507568,15.7974033355713,15.7973289489746,15.8578119277954,17.7447643280029,17.7446804046631,17.7445945739746,17.7445087432861,17.7444229125977,17.7443370819092,17.7442512512207,17.7441654205322,17.7440795898438,17.7439937591553,17.7439079284668,15.7963380813599,15.7962608337402,15.8165321350098,17.7435646057129,17.743480682373,17.7433948516846,17.7433090209961,15.7065649032593,15.706488609314,15.706413269043,15.7063369750977,15.7062616348267,15.7061853408813,15.706109046936,15.706033706665,15.7059574127197,15.7058811187744,15.7058057785034,15.7057294845581,15.7056541442871,15.7055778503418,15.7055015563965,15.7054262161255,15.7053499221802,15.7052745819092,15.7051982879639,15.7051219940186,15.7050466537476,15.7049703598022,15.7048940658569,15.7048187255859,15.7047424316406,15.7046670913696,15.7045907974243,15.704514503479,15.704439163208,15.7043628692627,15.7042875289917,15.7042112350464,15.7041349411011,15.7040596008301,15.7039833068848,15.7039079666138,15.7038316726685,15.7037563323975,15.7036800384521,15.7036037445068,15.7035284042358,15.7034521102905,15.7033767700195,15.7033004760742,15.7032251358032,15.7031488418579,15.7030735015869,15.7029972076416,15.7029218673706,15.7028455734253,15.7027702331543,15.702693939209,15.702618598938,15.7025423049927,15.7024669647217,15.7023916244507,15.7023153305054,15.7022399902344,15.7021636962891,15.7020883560181,15.7020120620728,15.7019367218018,15.7018604278564,15.7017850875854,15.7017087936401,15.7016334533691,15.7015581130981,15.7014818191528,15.7014064788818,15.7013301849365,15.7012548446655,15.7011785507202,15.7011032104492,15.7010269165039,15.7009515762329,15.7008752822876,15.7007999420166,15.7007246017456,15.7006483078003,15.7005729675293,15.700496673584,15.700421333313,15.7003450393677,15.7002696990967,15.7001934051514,15.7001180648804,15.7000427246094,15.6999664306641,15.6998910903931
17.6714134216309,17.6713275909424,17.6712436676025,17.6711578369141,15.8055849075317,15.8055095672607,15.8270034790039,17.6708164215088,17.6707305908203,17.6706447601318,16.190315246582,16.1902389526367,16.1992645263672,17.6703033447266,17.6702175140381,17.6701316833496,16.5750293731689,16.5749492645264,15.8045148849487,15.8044395446777,15.8043632507324,15.8628301620483,16.9597187042236,16.9596347808838,16.99880027771,17.6692790985107,17.6691932678223,17.3444671630859,17.3443832397461,17.3556671142578,17.668851852417,17.6687660217285,17.66868019104,15.8033685684204,15.8032941818237,15.8346834182739,17.6683387756348,17.6682548522949,17.6681690216064,17.668083190918,17.6679973602295,17.667911529541,17.6678276062012,17.6677417755127,17.6676559448242,17.6675701141357,17.6674861907959,15.8022994995117,15.8022241592407,15.8029384613037,17.5903472900391,17.6066474914551,17.6065635681152,17.6064777374268,17.6063919067383,17.6063079833984,17.60622215271,17.6061382293701,17.6060523986816,17.6059665679932,17.6058826446533,17.6057968139648,15.801155090332,15.8010807037354,15.8444471359253,17.6054573059082,17.6053714752197,17.6052856445312,17.6052017211914,17.6051158905029,17.6050319671631,17.6049461364746,17.6048603057861,17.6047763824463,17.6046905517578,17.604606628418,15.8000860214233,15.8000116348267,15.8086414337158,17.6042652130127,17.6041812896729,17.6040954589844,17.5307178497314,17.530632019043,17.6079940795898,17.6987724304199,17.7471752166748,17.747091293335,17.7470054626465,17.746919631958,17.7468357086182,15.7989406585693,15.7988662719727,15.8576011657715,17.7464923858643,17.7464065551758,17.7463207244873,17.7462348937988,17.7461490631104,17.7460632324219,17.7459774017334,17.7458915710449,17.7458057403564,17.745719909668,17.7456340789795,15.7978754043579,15.7977981567383,15.8163032531738,17.7452926635742,17.7452068328857,17.7451210021973,17.7450351715088,15.7080936431885,15.7080173492432,15.7079410552979,15.7078657150269,15.7077894210815,15.7077131271362,15.7076377868652,15.7075614929199,15.7074851989746,15.7074098587036,15.7073335647583,15.7072582244873,15.707181930542,15.7071056365967,15.7070302963257,15.7069540023804,15.7068777084351,15.7068023681641,15.7067260742188,15.7066497802734,15.7065744400024,15.7064981460571,15.7064228057861,15.7063465118408,15.7062702178955,15.7061948776245,15.7061185836792,15.7060422897339,15.7059669494629,15.7058906555176,15.7058153152466,15.7057390213013,15.705662727356,15.705587387085,15.7055110931396,15.7054357528687,15.7053594589233,15.705283164978,15.705207824707,15.7051315307617,15.7050561904907,15.7049798965454,15.7049045562744,15.7048282623291,15.7047519683838,15.7046766281128,15.7046003341675,15.7045249938965,15.7044486999512,15.7043733596802,15.7042970657349,15.7042217254639,15.7041463851929,15.7040700912476,15.7039947509766,15.7039184570312,15.7038431167603,15.7037668228149,15.7036914825439,15.7036151885986,15.7035398483276,15.7034635543823,15.7033882141113,15.703311920166,15.703236579895,15.7031602859497,15.7030849456787,15.7030096054077,15.7029333114624,15.7028579711914,15.7027816772461,15.7027063369751,15.7026300430298,15.7025547027588,15.7024784088135,15.7024030685425,15.7023267745972,15.7022514343262,15.7021751403809,15.7020998001099,15.7020235061646,15.7019481658936,15.7018728256226,15.7017965316772,15.7017211914062,15.7016448974609,15.7015695571899,15.7014932632446,15.7014179229736
17.6731338500977,17.6730480194092,17.6729640960693,17.6728782653809,15.8071231842041,15.8070487976074,15.8268642425537,17.6725368499756,17.6724510192871,17.6723651885986,16.1918907165527,16.1918144226074,16.1991157531738,17.6720237731934,17.6719379425049,17.6718521118164,16.5766429901123,16.5765628814697,15.8060531616211,15.8059787750244,15.8059024810791,15.8626747131348,16.9613704681396,16.9612865447998,16.9986400604248,17.6709995269775,17.6709136962891,17.3461570739746,17.3460712432861,17.3554935455322,17.6705722808838,17.6704864501953,17.6704006195068,15.8049068450928,15.8048324584961,15.8345336914062,17.6700592041016,17.6699733734131,17.6698894500732,17.6698036193848,17.6697177886963,17.6696319580078,17.6695461273193,17.6694622039795,17.669376373291,17.6692905426025,17.6692047119141,15.8038377761841,15.8037624359131,15.8036880493164,17.5901584625244,17.608362197876,17.6082763671875,17.6081924438477,17.6081066131592,17.6080207824707,17.6079368591309,17.6078510284424,17.6077651977539,17.6076812744141,17.6075954437256,17.6075115203857,15.8026933670044,15.8026180267334,15.8442735671997,17.6071701049805,17.607084274292,17.6070003509521,17.6069145202637,17.6068305969238,17.6067447662354,17.6066589355469,17.606575012207,17.6064891815186,17.6064033508301,17.6063194274902,15.8016233444214,15.8015489578247,15.8084411621094,17.605978012085,17.6058940887451,17.6058101654053,17.5324230194092,17.5323371887207,17.6077709197998,17.6985454559326,17.7489032745361,17.7488174438477,17.7487335205078,17.7486476898193,17.7485618591309,15.8004779815674,15.8004035949707,15.8573904037476,17.748218536377,17.7481327056885,17.748046875,17.7479610443115,17.747875213623,17.7477893829346,17.7477054595947,17.7476196289062,17.7475337982178,17.7474479675293,17.7473621368408,15.799412727356,15.7993354797363,15.8160743713379,17.7470188140869,17.7469329833984,17.74684715271,17.7467613220215,15.7096214294434,15.7095460891724,15.7094697952271,15.7093935012817,15.7093181610107,15.7092418670654,15.7091655731201,15.7090902328491,15.7090139389038,15.7089376449585,15.7088623046875,15.7087860107422,15.7087097167969,15.7086343765259,15.7085580825806,15.7084827423096,15.7084064483643,15.7083301544189,15.7082548141479,15.7081785202026,15.7081022262573,15.7080268859863,15.707950592041,15.7078742980957,15.7077989578247,15.7077226638794,15.7076463699341,15.7075710296631,15.7074947357178,15.7074193954468,15.7073431015015,15.7072668075562,15.7071914672852,15.7071151733398,15.7070388793945,15.7069635391235,15.7068872451782,15.7068119049072,15.7067356109619,15.7066593170166,15.7065839767456,15.7065076828003,15.7064323425293,15.706356048584,15.7062797546387,15.7062044143677,15.7061281204224,15.7060527801514,15.7059764862061,15.7059011459351,15.7058248519897,15.7057495117188,15.7056741714478,15.7055978775024,15.7055225372314,15.7054462432861,15.7053709030151,15.7052946090698,15.7052192687988,15.7051429748535,15.7050676345825,15.7049913406372,15.7049160003662,15.7048397064209,15.7047643661499,15.7046880722046,15.7046127319336,15.7045364379883,15.7044610977173,15.704384803772,15.704309463501,15.7042331695557,15.7041578292847,15.7040815353394,15.7040061950684,15.703929901123,15.7038545608521,15.7037782669067,15.7037029266357,15.7036266326904,15.7035512924194,15.7034759521484,15.7033996582031,15.7033243179321,15.7032480239868,15.7031726837158,15.7030963897705,15.7030210494995,15.7029447555542
17.6748561859131,17.6747703552246,17.6746845245361,17.6745986938477,15.8086624145508,15.8085880279541,15.8267259597778,17.6742572784424,17.6741714477539,17.6740856170654,16.1934680938721,16.1933917999268,16.1989688873291,17.6737442016602,17.6736583709717,17.6735744476318,16.5782585144043,16.5781764984131,15.8075914382935,15.8075170516968,15.8074417114258,15.8625183105469,16.9630222320557,16.9629383087158,16.998477935791,17.6727199554443,17.6726341247559,17.3478450775146,17.3477611541748,17.3553199768066,17.6722927093506,17.6722068786621,17.6721210479736,15.8064460754395,15.8063707351685,15.8343830108643,17.6717796325684,17.6716938018799,17.6716079711914,17.6715240478516,17.6714382171631,17.6713523864746,17.6712665557861,17.6711826324463,17.6710968017578,17.6710109710693,17.6709251403809,15.8053760528564,15.8053007125854,15.8052263259888,17.5899715423584,17.6100749969482,17.6099910736084,17.6099052429199,17.6098213195801,17.6097354888916,17.6096496582031,17.6095657348633,17.6094799041748,17.6093940734863,17.6093101501465,17.609224319458,15.8042316436768,15.8041563034058,15.8440999984741,17.6088848114014,17.6087989807129,17.6087131500244,17.6086292266846,17.6085433959961,17.6084594726562,17.6083736419678,17.6082878112793,17.6082038879395,17.608118057251,17.6080322265625,15.8031616210938,15.8030872344971,15.8082399368286,17.6076927185059,17.6076068878174,17.6075229644775,17.5341300964355,17.5340442657471,17.6075477600098,17.6983184814453,17.7506313323975,17.750545501709,17.7504615783691,17.7503757476807,17.7502899169922,15.8020162582397,15.8019418716431,15.8571786880493,17.7499465942383,17.7498607635498,17.7497749328613,17.7496891021729,17.7496032714844,17.7495174407959,17.7494316101074,17.7493457794189,17.7492599487305,17.749174118042,17.7490882873535,15.800950050354,15.8008728027344,15.815845489502,17.7487449645996,17.7486610412598,17.7485752105713,17.7484893798828,15.7111501693726,15.7110748291016,15.7109985351562,15.7109222412109,15.7108469009399,15.7107706069946,15.7106943130493,15.7106189727783,15.710542678833,15.7104663848877,15.7103910446167,15.7103147506714,15.7102384567261,15.7101631164551,15.7100868225098,15.7100105285645,15.7099351882935,15.7098588943481,15.7097826004028,15.7097072601318,15.7096309661865,15.7095546722412,15.7094793319702,15.7094030380249,15.7093267440796,15.7092514038086,15.7091751098633,15.7090997695923,15.709023475647,15.7089471817017,15.7088718414307,15.7087955474854,15.70871925354,15.708643913269,15.7085676193237,15.7084913253784,15.7084159851074,15.7083396911621,15.7082643508911,15.7081880569458,15.7081117630005,15.7080364227295,15.7079601287842,15.7078838348389,15.7078084945679,15.7077322006226,15.7076568603516,15.7075805664062,15.7075052261353,15.7074289321899,15.7073535919189,15.7072772979736,15.7072019577026,15.7071256637573,15.7070503234863,15.706974029541,15.70689868927,15.7068223953247,15.7067470550537,15.7066707611084,15.7065954208374,15.7065191268921,15.7064437866211,15.7063674926758,15.7062921524048,15.7062158584595,15.7061405181885,15.7060642242432,15.7059888839722,15.7059125900269,15.7058372497559,15.7057609558105,15.7056856155396,15.7056093215942,15.7055339813232,15.7054576873779,15.7053823471069,15.7053060531616,15.7052307128906,15.7051544189453,15.7050790786743,15.705002784729,15.704927444458,15.7048511505127,15.7047758102417,15.7046995162964,15.7046241760254,15.7045478820801,15.7044725418091
17.6765766143799,17.6764907836914,17.6764049530029,17.6763210296631,15.8102016448975,15.8101272583008,15.826587677002,17.6759777069092,17.6758937835693,17.6758079528809,16.1950454711914,16.1949691772461,16.1988201141357,17.6754665374756,17.6753807067871,17.6752948760986,16.5798721313477,16.5797901153564,15.8091306686401,15.8090562820435,15.8089809417725,15.8623628616333,16.9646739959717,16.9645900726318,16.9983158111572,17.6744403839111,17.6743545532227,17.3495349884033,17.3494491577148,17.3551464080811,17.6740131378174,17.6739273071289,17.6738414764404,15.8079843521118,15.8079099655151,15.8342332839966,17.6735000610352,17.6734142303467,17.6733303070068,17.6732444763184,17.6731586456299,17.6730728149414,17.6729869842529,17.6729030609131,17.6728172302246,17.6727313995361,17.6726455688477,15.8069143295288,15.8068399429321,15.8067655563354,17.5897846221924,17.6117897033691,17.6117057800293,17.6116199493408,17.6115341186523,17.6114501953125,17.611364364624,17.6112804412842,17.6111946105957,17.6111087799072,17.6110248565674,17.6109390258789,15.8057699203491,15.8056955337524,15.8439264297485,17.6105976104736,17.6105136871338,17.6104278564453,17.6103439331055,17.610258102417,17.6101722717285,17.6100883483887,17.6100025177002,17.6099166870117,17.6098327636719,17.6097469329834,15.8046998977661,15.8046255111694,15.8080396652222,17.6094074249268,17.6093215942383,17.6092376708984,17.5358371734619,17.5357513427734,17.6073265075684,17.6980895996094,17.7523574829102,17.7522735595703,17.7521877288818,17.7521018981934,17.7520160675049,15.8035545349121,15.8034791946411,15.8569679260254,17.7516746520996,17.7515888214111,17.7515029907227,17.7514171600342,17.7513313293457,17.7512454986572,17.7511596679688,17.7510738372803,17.7509880065918,17.7509021759033,17.7508163452148,15.8024883270264,15.8024110794067,15.815616607666,17.7504730224609,17.7503871917725,17.750301361084,17.7502155303955,15.7126798629761,15.7126035690308,15.7125272750854,15.7124519348145,15.7123756408691,15.7122993469238,15.7122240066528,15.7121477127075,15.7120714187622,15.7119960784912,15.7119197845459,15.7118434906006,15.7117681503296,15.7116918563843,15.711615562439,15.711540222168,15.7114639282227,15.7113876342773,15.711311340332,15.711236000061,15.7111597061157,15.7110834121704,15.7110080718994,15.7109317779541,15.7108554840088,15.7107801437378,15.7107038497925,15.7106275558472,15.7105522155762,15.7104759216309,15.7103996276855,15.7103242874146,15.7102479934692,15.7101716995239,15.7100963592529,15.7100200653076,15.7099447250366,15.7098684310913,15.709792137146,15.709716796875,15.7096405029297,15.7095642089844,15.7094888687134,15.7094125747681,15.7093372344971,15.7092609405518,15.7091846466064,15.7091093063354,15.7090330123901,15.7089576721191,15.7088813781738,15.7088060379028,15.7087297439575,15.7086544036865,15.7085781097412,15.7085027694702,15.7084264755249,15.7083511352539,15.7082748413086,15.7081995010376,15.7081232070923,15.7080478668213,15.707971572876,15.707896232605,15.7078199386597,15.7077445983887,15.7076683044434,15.7075929641724,15.7075166702271,15.7074413299561,15.7073650360107,15.7072896957397,15.7072134017944,15.7071380615234,15.7070617675781,15.7069864273071,15.7069101333618,15.7068347930908,15.7067584991455,15.7066831588745,15.7066068649292,15.7065315246582,15.7064552307129,15.7063789367676,15.7063035964966,15.7062273025513,15.7061519622803,15.706075668335,15.706000328064
17.6782989501953,17.6782131195068,17.6781272888184,17.6780414581299,15.8117418289185,15.8116664886475,15.8264493942261,17.6777000427246,17.6776142120361,17.6775283813477,16.1966209411621,16.1965446472168,16.198673248291,17.6771869659424,17.6771011352539,17.6770153045654,16.5814876556396,16.5814056396484,15.8106698989868,15.8105955123901,15.8105201721191,15.8622074127197,16.9663257598877,16.9662418365479,16.9981536865234,17.6761608123779,17.6760768890381,17.3512229919434,17.3511390686035,17.3549747467041,17.6757335662842,17.6756477355957,17.6755638122559,15.8095235824585,15.8094491958618,15.8340826034546,17.675220489502,17.6751365661621,17.6750507354736,17.6749649047852,17.6748790740967,17.6747932434082,17.6747093200684,17.6746234893799,17.6745376586914,17.6744518280029,17.6743659973145,15.8084535598755,15.8083791732788,15.8083038330078,17.5895977020264,17.61350440979,17.6134204864502,17.6133346557617,17.6132488250732,17.6131649017334,17.6130790710449,17.6129951477051,17.6129093170166,17.6128234863281,17.6127395629883,17.6126537322998,15.8073081970215,15.8072338104248,15.8437528610229,17.6123123168945,17.6122283935547,17.6121425628662,17.6120567321777,17.6119728088379,17.6118869781494,17.6118011474609,17.6117172241211,17.6116313934326,17.6115474700928,17.6114616394043,15.8062381744385,15.8061637878418,15.8078384399414,17.611120223999,17.6110363006592,17.6109523773193,17.5375442504883,17.5374584197998,17.6071033477783,17.6978626251221,17.7540855407715,17.7540016174316,17.7539157867432,17.7538299560547,17.7537460327148,15.8050928115845,15.8050184249878,15.8567571640015,17.7534027099609,17.7533168792725,17.753231048584,17.7531452178955,17.753059387207,17.7529735565186,17.7528877258301,17.7528018951416,17.7527160644531,17.7526302337646,17.7525444030762,15.8040266036987,15.8039493560791,15.8153877258301,17.7522010803223,17.7521152496338,17.7520294189453,17.7519435882568,15.7142086029053,15.7141332626343,15.714056968689,15.7139806747437,15.7139053344727,15.7138290405273,15.713752746582,15.713677406311,15.7136011123657,15.7135248184204,15.7134485244751,15.7133731842041,15.7132968902588,15.7132205963135,15.7131452560425,15.7130689620972,15.7129926681519,15.7129173278809,15.7128410339355,15.7127647399902,15.7126893997192,15.7126131057739,15.7125368118286,15.7124605178833,15.7123851776123,15.712308883667,15.7122325897217,15.7121572494507,15.7120809555054,15.7120046615601,15.7119293212891,15.7118530273438,15.7117767333984,15.7117013931274,15.7116250991821,15.7115488052368,15.7114734649658,15.7113971710205,15.7113208770752,15.7112455368042,15.7111692428589,15.7110939025879,15.7110176086426,15.7109413146973,15.7108659744263,15.710789680481,15.7107133865356,15.7106380462646,15.7105617523193,15.7104864120483,15.710410118103,15.710334777832,15.7102584838867,15.7101831436157,15.7101068496704,15.7100315093994,15.7099552154541,15.7098798751831,15.7098035812378,15.7097282409668,15.7096519470215,15.7095766067505,15.7095003128052,15.7094249725342,15.7093486785889,15.7092723846436,15.7091970443726,15.7091207504272,15.7090454101562,15.7089691162109,15.7088937759399,15.7088174819946,15.7087421417236,15.7086658477783,15.7085905075073,15.708514213562,15.708438873291,15.7083625793457,15.7082872390747,15.7082109451294,15.7081346511841,15.7080593109131,15.7079830169678,15.7079076766968,15.7078313827515,15.7077560424805,15.7076797485352,15.7076044082642,15.7075281143188
17.6800193786621,17.6799335479736,17.6798477172852,17.6797637939453,15.8132820129395,15.8132066726685,15.8263111114502,17.6794204711914,17.6793365478516,17.6792507171631,16.1981983184814,16.1981220245361,16.1985263824463,17.6789093017578,17.6788234710693,17.6787376403809,16.583101272583,16.5830192565918,15.8122100830078,15.8121356964111,15.8120603561401,15.8620615005493,16.9679775238037,16.9678936004639,16.9979915618896,17.6778831481934,17.6777973175049,17.352912902832,17.3528289794922,17.3548011779785,17.6774559020996,17.6773700714111,17.6772842407227,15.8110637664795,15.8109884262085,15.8339328765869,17.6769428253174,17.6768569946289,17.6767711639404,17.6766872406006,17.6766014099121,17.6765155792236,17.6764297485352,17.6763439178467,17.6762580871582,17.6761741638184,17.6760883331299,15.8099927902222,15.8099184036255,15.8098430633545,17.5894088745117,17.6152210235596,17.6151351928711,17.6150493621826,17.6149654388428,17.6148796081543,17.6147937774658,17.614709854126,17.6146240234375,17.614538192749,17.6144542694092,17.6143684387207,15.8088474273682,15.8087730407715,15.8435792922974,17.6140270233154,17.6139430999756,17.6138572692871,17.6137733459473,17.6136875152588,17.6136016845703,17.6135177612305,17.613431930542,17.6133460998535,17.6132621765137,17.6131763458252,15.8077774047852,15.8077020645142,15.8076372146606,17.6128349304199,17.6127510070801,17.6126670837402,17.5392513275146,17.5391654968262,17.6068801879883,17.6976356506348,17.7558155059814,17.755729675293,17.7556457519531,17.7555599212646,17.7554740905762,15.8066310882568,15.8065567016602,15.8565521240234,17.7551307678223,17.7550449371338,17.7549591064453,17.7548732757568,17.7547874450684,17.7547016143799,17.7546157836914,17.7545299530029,17.7544441223145,17.754358291626,17.7542724609375,15.8055658340454,15.8054885864258,15.8151588439941,17.7539291381836,17.7538433074951,17.7537574768066,17.7536716461182,15.7157382965088,15.7156629562378,15.7155866622925,15.7155103683472,15.7154350280762,15.7153587341309,15.7152824401855,15.7152061462402,15.7151308059692,15.7150545120239,15.7149782180786,15.7149028778076,15.7148265838623,15.714750289917,15.7146739959717,15.7145986557007,15.7145223617554,15.7144460678101,15.7143707275391,15.7142944335938,15.7142181396484,15.7141427993774,15.7140665054321,15.7139902114868,15.7139139175415,15.7138385772705,15.7137622833252,15.7136859893799,15.7136106491089,15.7135343551636,15.7134580612183,15.7133827209473,15.713306427002,15.7132301330566,15.7131547927856,15.7130784988403,15.713002204895,15.712926864624,15.7128505706787,15.7127742767334,15.7126989364624,15.7126226425171,15.7125463485718,15.7124710083008,15.7123947143555,15.7123184204102,15.7122430801392,15.7121667861938,15.7120914459229,15.7120151519775,15.7119398117065,15.7118635177612,15.7117881774902,15.7117118835449,15.7116355895996,15.7115602493286,15.7114839553833,15.7114086151123,15.711332321167,15.711256980896,15.7111806869507,15.7111053466797,15.7110290527344,15.7109537124634,15.7108774185181,15.7108011245728,15.7107257843018,15.7106494903564,15.7105741500854,15.7104978561401,15.7104225158691,15.7103462219238,15.7102708816528,15.7101945877075,15.7101192474365,15.7100429534912,15.7099666595459,15.7098913192749,15.7098150253296,15.7097396850586,15.7096633911133,15.7095880508423,15.709511756897,15.709436416626,15.7093601226807,15.7092847824097,15.7092084884644,15.7091331481934,15.709056854248
17.6817417144775,17.6816558837891,17.6815700531006,17.6814842224121,15.8148221969604,15.8147468566895,15.826171875,17.6811428070068,17.6810569763184,17.6809730529785,16.1997776031494,16.1997013092041,16.1996250152588,17.6806297302246,17.6805458068848,17.6804599761963,16.584716796875,16.5846347808838,15.8137502670288,15.8136749267578,15.8136005401611,15.8619174957275,16.9696311950684,16.9695472717285,16.9978294372559,17.6796054840088,17.6795196533203,17.3546028137207,17.3545188903809,17.3546276092529,17.679178237915,17.6790924072266,17.6790065765381,15.8126039505005,15.8125286102295,15.8337821960449,17.6786651611328,17.6785793304443,17.6784934997559,17.6784076690674,17.6783218383789,17.6782379150391,17.6781520843506,17.6780662536621,17.6779804229736,17.6778945922852,17.6778087615967,15.8115329742432,15.8114576339722,15.8113832473755,17.5436687469482,17.5435829162598,17.5434989929199,17.5434131622314,17.5433292388916,17.5432453155518,17.5431594848633,17.5430755615234,17.542989730835,17.5429058074951,17.5428218841553,17.5427360534668,15.8103866577148,15.8103122711182,15.8434057235718,17.5423984527588,17.5423126220703,17.5422286987305,17.5421447753906,17.5420589447021,17.5419750213623,17.5418910980225,17.541805267334,17.5417213439941,17.5416355133057,17.5415515899658,15.8093166351318,15.8092412948608,15.8091659545898,17.5412139892578,17.5411281585693,17.5410442352295,17.540958404541,17.5408725738525,17.6066570281982,17.687427520752,17.6873416900635,17.687255859375,17.6871719360352,17.6870861053467,17.6870002746582,15.8081703186035,15.8080959320068,15.8563470840454,17.6866588592529,17.6865730285645,17.686487197876,17.6864013671875,17.686315536499,17.6862297058105,17.6861457824707,17.6860599517822,17.6859741210938,17.6858882904053,17.6858024597168,15.8071041107178,15.8070268630981,15.8149299621582,17.6854610443115,17.685375213623,17.6852893829346,17.6852054595947,15.7172689437866,15.7171926498413,15.717116355896,15.717041015625,15.7169647216797,15.7168884277344,15.7168121337891,15.7167367935181,15.7166604995728,15.7165842056274,15.7165079116821,15.7164325714111,15.7163562774658,15.7162799835205,15.7162046432495,15.7161283493042,15.7160520553589,15.7159757614136,15.7159004211426,15.7158241271973,15.715747833252,15.715672492981,15.7155961990356,15.7155199050903,15.715443611145,15.715368270874,15.7152919769287,15.7152156829834,15.7151403427124,15.7150640487671,15.7149877548218,15.7149114608765,15.7148361206055,15.7147598266602,15.7146835327148,15.7146081924438,15.7145318984985,15.7144556045532,15.7143802642822,15.7143039703369,15.7142276763916,15.7141523361206,15.7140760421753,15.71399974823,15.713924407959,15.7138481140137,15.7137718200684,15.7136964797974,15.7136201858521,15.7135448455811,15.7134685516357,15.7133932113647,15.7133169174194,15.7132415771484,15.7131652832031,15.7130889892578,15.7130136489868,15.7129373550415,15.7128620147705,15.7127857208252,15.7127103805542,15.7126340866089,15.7125587463379,15.7124824523926,15.7124061584473,15.7123308181763,15.712254524231,15.71217918396,15.7121028900146,15.7120275497437,15.7119512557983,15.711874961853,15.711799621582,15.7117233276367,15.7116479873657,15.7115716934204,15.7114963531494,15.7114200592041,15.7113437652588,15.7112684249878,15.7111921310425,15.7111167907715,15.7110404968262,15.7109651565552,15.7108888626099,15.7108135223389,15.7107372283936,15.7106618881226,15.7105855941772
17.683464050293,17.6833782196045,17.683292388916,17.6832065582275,15.8163623809814,15.8162870407104,15.8260335922241,17.6828651428223,17.6827793121338,17.6826934814453,16.2013549804688,16.2012786865234,16.2012023925781,16.2618923187256,17.6822662353516,17.6821823120117,16.586332321167,16.5862503051758,16.5884056091309,15.8152151107788,15.8151407241821,15.8617725372314,16.9712829589844,16.9712009429932,16.9976692199707,17.6813259124756,17.6812419891357,17.356294631958,17.3562088012695,17.3561248779297,17.6808986663818,17.680814743042,17.6807289123535,15.8141441345215,15.8140687942505,15.8336324691772,17.6803855895996,17.6803016662598,17.6802158355713,17.6801300048828,17.6800441741943,17.6799583435059,17.6798725128174,17.6797885894775,17.6797027587891,17.6796169281006,17.6795310974121,15.8130722045898,15.8129978179932,15.8129234313965,17.5453777313232,17.5452919006348,17.5452079772949,17.5451221466064,17.5450382232666,17.5449523925781,17.5448684692383,17.5447845458984,17.54469871521,17.5446147918701,17.5445289611816,17.5444450378418,15.8119268417358,15.8118515014648,15.8432312011719,17.5441055297852,17.5440216064453,17.5439357757568,17.543851852417,17.5437679290771,17.5436820983887,17.5435981750488,17.543514251709,17.5434284210205,17.5433444976807,17.5432586669922,15.8108558654785,15.8107805252075,15.8107061386108,17.5429210662842,17.5428352355957,17.5427513122559,17.542667388916,17.5425815582275,17.6064338684082,17.6891498565674,17.6890640258789,17.6889781951904,17.688892364502,17.6888084411621,17.6887226104736,15.8097095489502,15.8096351623535,15.8561420440674,17.6883792877197,17.6882953643799,17.6882095336914,17.6881237030029,17.6880378723145,17.687952041626,17.6878662109375,17.687780380249,17.6876964569092,17.6876106262207,17.6875247955322,15.8086433410645,15.8085660934448,15.8147010803223,17.6871814727783,17.6870956420898,17.6870098114014,17.6869258880615,15.7187986373901,15.7187232971191,15.7186470031738,15.7185707092285,15.7184944152832,15.7184190750122,15.7183427810669,15.7182664871216,15.7181901931763,15.7181148529053,15.71803855896,15.7179622650146,15.7178869247437,15.7178106307983,15.717734336853,15.7176580429077,15.7175827026367,15.7175064086914,15.7174301147461,15.7173538208008,15.7172784805298,15.7172021865845,15.7171258926392,15.7170495986938,15.7169742584229,15.7168979644775,15.7168216705322,15.7167453765869,15.7166700363159,15.7165937423706,15.7165174484253,15.7164421081543,15.716365814209,15.7162895202637,15.7162132263184,15.7161378860474,15.7160615921021,15.7159852981567,15.7159099578857,15.7158336639404,15.7157573699951,15.7156820297241,15.7156057357788,15.7155294418335,15.7154541015625,15.7153778076172,15.7153015136719,15.7152261734009,15.7151498794556,15.7150745391846,15.7149982452393,15.7149219512939,15.7148466110229,15.7147703170776,15.7146949768066,15.7146186828613,15.7145433425903,15.714467048645,15.714391708374,15.7143154144287,15.7142391204834,15.7141637802124,15.7140874862671,15.7140121459961,15.7139358520508,15.7138595581055,15.7137842178345,15.7137079238892,15.7136325836182,15.7135562896729,15.7134809494019,15.7134046554565,15.7133283615112,15.7132530212402,15.7131767272949,15.7131013870239,15.7130250930786,15.7129497528076,15.7128734588623,15.712797164917,15.712721824646,15.7126455307007,15.7125701904297,15.7124938964844,15.7124185562134,15.7123422622681,15.7122659683228,15.7121906280518,15.7121143341064
17.6851863861084,17.6851005554199,17.6850147247314,17.684928894043,15.8179035186768,15.8178281784058,15.8258953094482,17.6845874786377,17.6845016479492,17.6844158172607,16.2029323577881,16.2028560638428,16.2027797698975,16.2617473602295,17.683988571167,17.6839027404785,16.587947845459,16.5878658294678,16.5882549285889,15.8167562484741,15.8166809082031,15.8616275787354,16.972936630249,16.9728527069092,16.9975070953369,17.683048248291,17.6829624176025,17.3579845428467,17.3579006195068,17.3578147888184,17.6826210021973,17.6825351715088,17.6824512481689,15.8156843185425,15.8156089782715,15.8334817886353,17.682107925415,17.6820240020752,17.6819381713867,17.6818523406982,17.6817665100098,17.6816806793213,17.6815948486328,17.681510925293,17.6814250946045,17.681339263916,17.6812534332275,15.8146123886108,15.8145380020142,15.8144636154175,15.8743953704834,17.5470008850098,17.5469169616699,17.5468311309814,17.5467472076416,17.5466613769531,17.5465774536133,17.5464935302734,17.546407699585,17.5463237762451,17.5462379455566,17.5461540222168,15.8134670257568,15.8133916854858,15.8430576324463,17.5458145141602,17.5457305908203,17.5456447601318,17.545560836792,17.5454750061035,17.5453910827637,17.5453071594238,17.5452213287354,17.5451374053955,17.545051574707,17.5449676513672,15.8123950958252,15.8123207092285,15.8122463226318,17.5446281433105,17.5445442199707,17.5444602966309,17.5443744659424,17.5442905426025,17.6062126159668,17.6908721923828,17.6907863616943,17.6907005310059,17.6906147003174,17.6905288696289,17.6904449462891,15.8112487792969,15.8111743927002,15.8559370040894,17.6901016235352,17.6900157928467,17.6899299621582,17.6898441314697,17.6897583007812,17.6896743774414,17.6895885467529,17.6895027160645,17.689416885376,17.6893310546875,17.689245223999,15.8101835250854,15.8101062774658,15.8144721984863,17.6889019012451,17.6888179779053,17.6887321472168,17.6886463165283,15.720329284668,15.720253944397,15.7201776504517,15.7201013565063,15.720025062561,15.71994972229,15.7198734283447,15.7197971343994,15.7197208404541,15.7196455001831,15.7195692062378,15.7194929122925,15.7194166183472,15.7193412780762,15.7192649841309,15.7191886901855,15.7191123962402,15.7190361022949,15.7189607620239,15.7188844680786,15.7188081741333,15.718731880188,15.718656539917,15.7185802459717,15.7185039520264,15.7184286117554,15.7183523178101,15.7182760238647,15.7181997299194,15.7181243896484,15.7180480957031,15.7179718017578,15.7178955078125,15.7178201675415,15.7177438735962,15.7176675796509,15.7175912857056,15.7175159454346,15.7174396514893,15.7173633575439,15.7172880172729,15.7172117233276,15.7171354293823,15.7170600891113,15.716983795166,15.7169075012207,15.7168321609497,15.7167558670044,15.7166795730591,15.7166042327881,15.7165279388428,15.7164525985718,15.7163763046265,15.7163000106812,15.7162246704102,15.7161483764648,15.7160730361938,15.7159967422485,15.7159214019775,15.7158451080322,15.7157688140869,15.7156934738159,15.7156171798706,15.7155418395996,15.7154655456543,15.715389251709,15.715313911438,15.7152376174927,15.7151622772217,15.7150859832764,15.7150096893311,15.7149343490601,15.7148580551147,15.7147827148438,15.7147064208984,15.7146301269531,15.7145547866821,15.7144784927368,15.7144031524658,15.7143268585205,15.7142515182495,15.7141752243042,15.7140989303589,15.7140235900879,15.7139472961426,15.7138719558716,15.7137956619263,15.713719367981,15.71364402771
17.6869087219238,17.6868228912354,17.6867370605469,17.686653137207,15.8194446563721,15.8193693161011,15.8257570266724,17.6863098144531,17.6862239837646,17.6861400604248,16.2045116424561,16.2044353485107,16.2043590545654,16.2615985870361,17.6857109069824,17.6856269836426,16.5895652770996,16.5894832611084,16.5894012451172,15.8182973861694,15.8182220458984,15.8614835739136,16.9745903015137,16.9745063781738,16.9973449707031,17.6847705841064,17.6846866607666,17.3785381317139,17.3595905303955,17.3595066070557,17.3527240753174,17.3441352844238,17.3355560302734,15.8172245025635,15.8171501159668,15.8333320617676,17.3013229370117,17.2927875518799,17.2842578887939,17.2757396697998,17.267240524292,17.2587490081787,17.25026512146,17.2417907714844,17.233325958252,17.2248687744141,17.2164192199707,15.8161535263062,15.8160781860352,15.8160037994385,15.8742256164551,17.174295425415,17.1658954620361,17.1575031280518,17.1491203308105,17.1407451629639,17.1323776245117,17.1240196228027,17.1156692504883,17.1073265075684,17.098991394043,17.0906639099121,15.8150072097778,15.8149318695068,15.8428840637207,17.0574398040771,17.0491542816162,17.0408763885498,17.0326061248779,17.0243434906006,17.0160903930664,17.0078449249268,16.9996070861816,16.9913768768311,16.9831600189209,16.9749526977539,15.8139352798462,15.8138608932495,15.8137855529785,16.9421977996826,16.9340286254883,16.9258670806885,16.9177131652832,16.9095687866211,16.9014301300049,16.8933010101318,16.8851795196533,16.8770656585693,16.8689594268799,16.860860824585,16.8527698516846,15.8127889633179,15.8127145767212,15.8557319641113,16.820484161377,16.8124332427979,16.8043880462646,16.7963485717773,16.7883033752441,16.7802658081055,16.7722339630127,16.7642116546631,16.756196975708,16.7481899261475,16.7401905059814,15.8117227554321,15.8116455078125,15.8142433166504,16.7082691192627,16.7003078460693,16.6923542022705,16.6844081878662,15.7218608856201,15.7217845916748,15.7217082977295,15.7216320037842,15.7215566635132,15.7214803695679,15.7214040756226,15.7213277816772,15.7212514877319,15.7211761474609,15.7210998535156,15.7210235595703,15.720947265625,15.720871925354,15.7207956314087,15.7207193374634,15.7206430435181,15.7205667495728,15.7204914093018,15.7204151153564,15.7203388214111,15.7202625274658,15.7201871871948,15.7201108932495,15.7200345993042,15.7199583053589,15.7198829650879,15.7198066711426,15.7197303771973,15.719654083252,15.719578742981,15.7195024490356,15.7194261550903,15.719349861145,15.719274520874,15.7191982269287,15.7191219329834,15.7190456390381,15.7189702987671,15.7188940048218,15.7188177108765,15.7187423706055,15.7186660766602,15.7185897827148,15.7185134887695,15.7184381484985,15.7183618545532,15.7182855606079,15.7182102203369,15.7181339263916,15.7180585861206,15.7179822921753,15.7179069519043,15.717830657959,15.7177543640137,15.7176790237427,15.7176027297974,15.7175273895264,15.7174510955811,15.7173748016357,15.7172994613647,15.7172231674194,15.7171478271484,15.7170715332031,15.7169952392578,15.7169198989868,15.7168436050415,15.7167673110962,15.7166919708252,15.7166156768799,15.7165403366089,15.7164640426636,15.7163877487183,15.7163124084473,15.716236114502,15.716160774231,15.7160844802856,15.7160081863403,15.7159328460693,15.715856552124,15.715781211853,15.7157049179077,15.7156286239624,15.7155532836914,15.7154769897461,15.7154016494751,15.7153253555298,15.7152490615845,15.7151737213135
17.6886329650879,17.6885471343994,17.6884613037109,15.7998275756836,15.7997512817383,15.7996740341187,15.7995977401733,15.799521446228,15.7994451522827,15.7993688583374,15.7992925643921,15.7992162704468,15.7991390228271,15.7990627288818,15.7989864349365,15.7989101409912,15.7988338470459,15.7987575531006,15.7986812591553,15.7986040115356,15.7985277175903,15.798451423645,15.7983751296997,15.7982988357544,15.7982225418091,15.7981462478638,15.7980690002441,15.7979927062988,15.7979164123535,15.7978401184082,15.7977638244629,15.7976875305176,15.7976112365723,15.7975339889526,15.7974576950073,15.797381401062,15.7973051071167,15.7972288131714,15.7971525192261,15.7970762252808,15.7969999313354,15.7969226837158,15.7968463897705,15.7967700958252,15.7966938018799,15.7966175079346,15.7965412139893,15.7964649200439,15.7963886260986,15.796311378479,15.7962350845337,15.7961587905884,15.7960824966431,15.7960062026978,15.7959299087524,15.7958536148071,15.7957773208618,15.7957000732422,15.7956237792969,15.7955474853516,15.7954711914062,15.7953948974609,15.7953186035156,15.7952423095703,15.795166015625,15.7950897216797,15.7950124740601,15.7949361801147,15.7948598861694,15.7947835922241,15.7947072982788,15.7946310043335,15.7945547103882,15.7944784164429,15.7944021224976,15.7943258285522,15.7942485809326,15.7941722869873,15.794095993042,15.7940196990967,15.7939434051514,15.7938671112061,15.7937908172607,15.7937145233154,15.7936382293701,15.7935619354248,15.7934856414795,15.7934083938599,15.7933320999146,15.7932558059692,15.7931795120239,15.7931032180786,15.7930269241333,15.792950630188,15.7928743362427,15.7927980422974,15.7927217483521,15.7926454544067,15.7925691604614,15.7924919128418,15.7924156188965,15.7923393249512,15.7922630310059,15.7921867370605,15.7921104431152,15.7920341491699,15.7919578552246,15.7918815612793,15.791805267334,15.7917289733887,15.7916526794434,15.791576385498,15.7233915328979,15.7233152389526,15.7232398986816,15.7231636047363,15.723087310791,15.7230110168457,15.7229347229004,15.7228593826294,15.7227830886841,15.7227067947388,15.7226305007935,15.7225551605225,15.7224788665771,15.7224025726318,15.7223262786865,15.7222499847412,15.7221746444702,15.7220983505249,15.7220220565796,15.7219457626343,15.721869468689,15.721794128418,15.7217178344727,15.7216415405273,15.721565246582,15.721489906311,15.7214136123657,15.7213373184204,15.7212610244751,15.7211847305298,15.7211093902588,15.7210330963135,15.7209568023682,15.7208805084229,15.7208051681519,15.7207288742065,15.7206525802612,15.7205762863159,15.7205009460449,15.7204246520996,15.7203483581543,15.7202730178833,15.720196723938,15.7201204299927,15.7200441360474,15.7199687957764,15.7198925018311,15.7198162078857,15.7197408676147,15.7196645736694,15.7195892333984,15.7195129394531,15.7194366455078,15.7193613052368,15.7192850112915,15.7192087173462,15.7191333770752,15.7190570831299,15.7189817428589,15.7189054489136,15.7188291549683,15.7187538146973,15.718677520752,15.718602180481,15.7185258865356,15.7184495925903,15.7183742523193,15.718297958374,15.7182216644287,15.7181463241577,15.7180700302124,15.7179946899414,15.7179183959961,15.7178421020508,15.7177667617798,15.7176904678345,15.7176141738892,15.7175388336182,15.7174625396729,15.7173871994019,15.7173109054565,15.7172346115112,15.7171592712402,15.7170829772949,15.7170066833496,15.7169313430786,15.7168550491333,15.7167797088623,15.716703414917
17.690357208252,17.6902713775635,17.690185546875,15.8013668060303,15.801290512085,15.8012142181396,15.80113697052,15.8010606765747,15.8009843826294,15.8009080886841,15.8008317947388,15.8007555007935,15.8006792068481,15.8006029129028,15.8005266189575,15.8004493713379,15.8003730773926,15.8002967834473,15.800220489502,15.8001441955566,15.8000679016113,15.799991607666,15.7999143600464,15.7998380661011,15.7997617721558,15.7996854782104,15.7996091842651,15.7995328903198,15.7994556427002,15.7993793487549,15.7993030548096,15.7992267608643,15.7991504669189,15.7990741729736,15.7989978790283,15.7989206314087,15.7988443374634,15.7987680435181,15.7986917495728,15.7986154556274,15.7985391616821,15.7984628677368,15.7983856201172,15.7983093261719,15.7982330322266,15.7981567382812,15.7980804443359,15.7980041503906,15.7979278564453,15.7978506088257,15.7977743148804,15.7976980209351,15.7976217269897,15.7975454330444,15.7974691390991,15.7973928451538,15.7973155975342,15.7972393035889,15.7971630096436,15.7970867156982,15.7970104217529,15.7969341278076,15.7968578338623,15.796781539917,15.7967042922974,15.7966279983521,15.7965517044067,15.7964754104614,15.7963991165161,15.7963228225708,15.7962465286255,15.7961702346802,15.7960929870605,15.7960166931152,15.7959403991699,15.7958641052246,15.7957878112793,15.795711517334,15.7956352233887,15.7955589294434,15.795482635498,15.7954053878784,15.7953290939331,15.7952527999878,15.7951765060425,15.7951002120972,15.7950239181519,15.7949476242065,15.7948713302612,15.7947950363159,15.7947177886963,15.794641494751,15.7945652008057,15.7944889068604,15.794412612915,15.7943363189697,15.7942600250244,15.7941837310791,15.7941074371338,15.7940311431885,15.7939548492432,15.7938785552979,15.7938013076782,15.7937250137329,15.7936487197876,15.7935724258423,15.793496131897,15.7934198379517,15.7933435440063,15.793267250061,15.7931909561157,15.7931146621704,15.7249231338501,15.7248468399048,15.7247714996338,15.7246952056885,15.7246189117432,15.7245426177979,15.7244663238525,15.7243900299072,15.7243146896362,15.7242383956909,15.7241621017456,15.7240858078003,15.724009513855,15.723934173584,15.7238578796387,15.7237815856934,15.723705291748,15.7236289978027,15.7235536575317,15.7234773635864,15.7234010696411,15.7233247756958,15.7232484817505,15.7231731414795,15.7230968475342,15.7230205535889,15.7229442596436,15.7228679656982,15.7227926254272,15.7227163314819,15.7226400375366,15.7225637435913,15.7224884033203,15.722412109375,15.7223358154297,15.7222595214844,15.7221841812134,15.7221078872681,15.7220315933228,15.7219552993774,15.7218799591064,15.7218036651611,15.7217273712158,15.7216510772705,15.7215757369995,15.7214994430542,15.7214231491089,15.7213468551636,15.7212715148926,15.7211952209473,15.7211198806763,15.721043586731,15.7209672927856,15.7208919525146,15.7208156585693,15.7207403182983,15.720664024353,15.7205877304077,15.7205123901367,15.7204360961914,15.7203598022461,15.7202844619751,15.7202081680298,15.7201318740845,15.7200565338135,15.7199802398682,15.7199048995972,15.7198286056519,15.7197523117065,15.7196769714355,15.7196006774902,15.7195243835449,15.7194490432739,15.7193727493286,15.7192964553833,15.7192211151123,15.719144821167,15.7190685272217,15.7189931869507,15.7189168930054,15.7188415527344,15.7187652587891,15.7186889648438,15.7186136245728,15.7185373306274,15.7184610366821,15.7183856964111,15.7183094024658,15.7182340621948
17.692081451416,17.6919956207275,17.6919097900391,15.802906036377,15.8028297424316,15.8027534484863,15.802677154541,15.8026008605957,15.8025245666504,15.8024473190308,15.8023710250854,15.8022947311401,15.8022184371948,15.8021421432495,15.8020658493042,15.8019895553589,15.8019132614136,15.8018360137939,15.8017597198486,15.8016834259033,15.801607131958,15.8015308380127,15.8014545440674,15.8013782501221,15.8013019561768,15.8012256622314,15.8011484146118,15.8010721206665,15.8009958267212,15.8009195327759,15.8008432388306,15.8007669448853,15.8006896972656,15.8006134033203,15.800537109375,15.8004608154297,15.8003845214844,15.8003082275391,15.8002309799194,15.8001546859741,15.8000783920288,15.8000020980835,15.7999258041382,15.7998495101929,15.7997722625732,15.7996959686279,15.7996196746826,15.7995433807373,15.799467086792,15.7993907928467,15.7993135452271,15.7992372512817,15.7991609573364,15.7990846633911,15.7990083694458,15.7989320755005,15.7988557815552,15.7987785339355,15.7987022399902,15.7986259460449,15.7985496520996,15.7984733581543,15.798397064209,15.7983207702637,15.798243522644,15.7981672286987,15.7980909347534,15.7980146408081,15.7979383468628,15.7978620529175,15.7977857589722,15.7977094650269,15.7976322174072,15.7975559234619,15.7974796295166,15.7974033355713,15.797327041626,15.7972507476807,15.7971744537354,15.7970972061157,15.7970209121704,15.7969446182251,15.7968683242798,15.7967920303345,15.7967157363892,15.7966394424438,15.7965631484985,15.7964859008789,15.7964096069336,15.7963333129883,15.796257019043,15.7961807250977,15.7961044311523,15.796028137207,15.7959518432617,15.7958755493164,15.7957992553711,15.7957229614258,15.7956466674805,15.7955703735352,15.7954940795898,15.7954168319702,15.7953405380249,15.7952642440796,15.7951879501343,15.795111656189,15.7950353622437,15.7949590682983,15.794882774353,15.7948064804077,15.7947301864624,15.7946538925171,15.7264547348022,15.7263793945312,15.7263031005859,15.7262268066406,15.7261505126953,15.72607421875,15.7259979248047,15.7259225845337,15.7258462905884,15.7257699966431,15.7256937026978,15.7256174087524,15.7255411148071,15.7254657745361,15.7253894805908,15.7253131866455,15.7252368927002,15.7251605987549,15.7250852584839,15.7250089645386,15.7249326705933,15.7248563766479,15.7247800827026,15.7247047424316,15.7246284484863,15.724552154541,15.7244758605957,15.7243995666504,15.7243232727051,15.7242479324341,15.7241716384888,15.7240953445435,15.7240190505981,15.7239437103271,15.7238674163818,15.7237911224365,15.7237148284912,15.7236385345459,15.7235631942749,15.7234869003296,15.7234106063843,15.723334312439,15.723258972168,15.7231826782227,15.7231063842773,15.723030090332,15.722954750061,15.7228784561157,15.7228021621704,15.7227268218994,15.7226505279541,15.7225742340088,15.7224988937378,15.7224225997925,15.7223472595215,15.7222709655762,15.7221946716309,15.7221193313599,15.7220430374146,15.7219667434692,15.7218914031982,15.7218151092529,15.7217388153076,15.7216634750366,15.7215871810913,15.721510887146,15.721435546875,15.7213592529297,15.7212829589844,15.7212076187134,15.7211313247681,15.7210550308228,15.7209796905518,15.7209033966064,15.7208271026611,15.7207517623901,15.7206754684448,15.7206001281738,15.7205238342285,15.7204475402832,15.7203722000122,15.7202959060669,15.7202196121216,15.7201442718506,15.7200679779053,15.71999168396,15.719916343689,15.7198400497437,15.7197637557983
17.6938056945801,17.6937198638916,17.6936340332031,15.8044462203979,15.8043699264526,15.8042936325073,15.804217338562,15.8041400909424,15.8040637969971,15.8039875030518,15.8039112091064,15.8038349151611,15.8037586212158,15.8036823272705,15.8036050796509,15.8035287857056,15.8034524917603,15.8033761978149,15.8032999038696,15.8032236099243,15.803147315979,15.8030710220337,15.8029937744141,15.8029174804688,15.8028411865234,15.8027648925781,15.8026885986328,15.8026123046875,15.8025360107422,15.8024587631226,15.8023824691772,15.8023061752319,15.8022298812866,15.8021535873413,15.802077293396,15.8020009994507,15.8019237518311,15.8018474578857,15.8017711639404,15.8016948699951,15.8016185760498,15.8015422821045,15.8014650344849,15.8013887405396,15.8013124465942,15.8012361526489,15.8011598587036,15.8010835647583,15.8010063171387,15.8009300231934,15.800853729248,15.8007774353027,15.8007011413574,15.8006248474121,15.8005475997925,15.8004713058472,15.8003950119019,15.8003187179565,15.8002424240112,15.8001661300659,15.8000888824463,15.800012588501,15.7999362945557,15.7998600006104,15.799783706665,15.7997074127197,15.7996301651001,15.7995538711548,15.7994775772095,15.7994012832642,15.7993249893188,15.7992486953735,15.7991724014282,15.7990951538086,15.7990188598633,15.798942565918,15.7988662719727,15.7987899780273,15.798713684082,15.7986373901367,15.7985601425171,15.7984838485718,15.7984075546265,15.7983312606812,15.7982549667358,15.7981786727905,15.7981023788452,15.7980260848999,15.7979497909546,15.7978734970093,15.797797203064,15.7977199554443,15.797643661499,15.7975673675537,15.7974910736084,15.7974147796631,15.7973384857178,15.7972621917725,15.7971858978271,15.7971096038818,15.7970333099365,15.7969570159912,15.7968807220459,15.7968044281006,15.7967281341553,15.79665184021,15.7965745925903,15.796498298645,15.7964220046997,15.7963457107544,15.7962694168091,15.7961931228638,15.7279872894287,15.7279109954834,15.7278347015381,15.7277584075928,15.7276821136475,15.7276067733765,15.7275304794312,15.7274541854858,15.7273778915405,15.7273015975952,15.7272253036499,15.7271499633789,15.7270736694336,15.7269973754883,15.726921081543,15.7268447875977,15.7267684936523,15.7266931533813,15.726616859436,15.7265405654907,15.7264642715454,15.7263879776001,15.7263116836548,15.7262363433838,15.7261600494385,15.7260837554932,15.7260074615479,15.7259311676025,15.7258558273315,15.7257795333862,15.7257032394409,15.7256269454956,15.7255506515503,15.7254753112793,15.725399017334,15.7253227233887,15.7252464294434,15.725170135498,15.7250947952271,15.7250185012817,15.7249422073364,15.7248659133911,15.7247896194458,15.7247142791748,15.7246379852295,15.7245616912842,15.7244853973389,15.7244100570679,15.7243337631226,15.7242574691772,15.7241821289062,15.7241058349609,15.7240295410156,15.7239542007446,15.7238779067993,15.7238025665283,15.723726272583,15.7236499786377,15.7235746383667,15.7234983444214,15.7234220504761,15.7233467102051,15.7232704162598,15.7231941223145,15.7231187820435,15.7230424880981,15.7229661941528,15.7228908538818,15.7228145599365,15.7227382659912,15.7226629257202,15.7225866317749,15.7225103378296,15.7224349975586,15.7223587036133,15.722282409668,15.722207069397,15.7221307754517,15.7220544815063,15.7219791412354,15.72190284729,15.7218265533447,15.7217512130737,15.7216749191284,15.7215986251831,15.7215232849121,15.7214469909668,15.7213706970215,15.7212953567505
17.6955299377441,17.6954441070557,17.6953601837158,15.8059864044189,15.8059101104736,15.8058338165283,15.805757522583,15.8056802749634,15.8056039810181,15.8055276870728,15.8054513931274,15.8053750991821,15.8052988052368,15.8052225112915,15.8051452636719,15.8050689697266,15.8049926757812,15.8049163818359,15.8048400878906,15.8047637939453,15.8046865463257,15.8046102523804,15.8045339584351,15.8044576644897,15.8043813705444,15.8043050765991,15.8042287826538,15.8041515350342,15.8040752410889,15.8039989471436,15.8039226531982,15.8038463592529,15.8037700653076,15.8036937713623,15.8036165237427,15.8035402297974,15.8034639358521,15.8033876419067,15.8033113479614,15.8032350540161,15.8031587600708,15.8030815124512,15.8030052185059,15.8029289245605,15.8028526306152,15.8027763366699,15.8027000427246,15.802622795105,15.8025465011597,15.8024702072144,15.802393913269,15.8023176193237,15.8022413253784,15.8021640777588,15.8020877838135,15.8020114898682,15.8019351959229,15.8018589019775,15.8017816543579,15.8017053604126,15.8016290664673,15.801552772522,15.8014764785767,15.8014001846313,15.8013229370117,15.8012466430664,15.8011703491211,15.8010940551758,15.8010177612305,15.8009414672852,15.8008642196655,15.8007879257202,15.8007116317749,15.8006353378296,15.8005590438843,15.800482749939,15.8004064559937,15.8003301620483,15.8002529144287,15.8001766204834,15.8001003265381,15.8000240325928,15.7999477386475,15.7998714447021,15.7997951507568,15.7997188568115,15.7996425628662,15.7995662689209,15.7994899749756,15.799412727356,15.7993364334106,15.7992601394653,15.79918384552,15.7991075515747,15.7990312576294,15.7989549636841,15.7988786697388,15.7988023757935,15.7987260818481,15.7986497879028,15.7985725402832,15.7984962463379,15.7984199523926,15.7983436584473,15.798267364502,15.7981910705566,15.7981147766113,15.798038482666,15.7979621887207,15.7978858947754,15.7978096008301,15.7977333068848,15.7295198440552,15.7294435501099,15.7293672561646,15.7292909622192,15.7292146682739,15.7291383743286,15.7290630340576,15.7289867401123,15.728910446167,15.7288341522217,15.7287578582764,15.7286815643311,15.7286052703857,15.7285299301147,15.7284536361694,15.7283773422241,15.7283010482788,15.7282247543335,15.7281484603882,15.7280731201172,15.7279968261719,15.7279205322266,15.7278442382812,15.7277679443359,15.7276916503906,15.7276153564453,15.7275400161743,15.727463722229,15.7273874282837,15.7273111343384,15.7272348403931,15.7271585464478,15.7270832061768,15.7270069122314,15.7269306182861,15.7268543243408,15.7267780303955,15.7267026901245,15.7266263961792,15.7265501022339,15.7264738082886,15.7263975143433,15.7263221740723,15.726245880127,15.7261695861816,15.7260932922363,15.7260179519653,15.72594165802,15.7258653640747,15.7257900238037,15.7257137298584,15.7256374359131,15.7255620956421,15.7254858016968,15.7254095077515,15.7253341674805,15.7252578735352,15.7251815795898,15.7251062393188,15.7250299453735,15.7249536514282,15.7248783111572,15.7248020172119,15.7247257232666,15.7246494293213,15.7245740890503,15.724497795105,15.7244215011597,15.7243461608887,15.7242698669434,15.724193572998,15.7241182327271,15.7240419387817,15.7239656448364,15.7238903045654,15.7238140106201,15.7237377166748,15.7236623764038,15.7235860824585,15.7235097885132,15.7234334945679,15.7233581542969,15.7232818603516,15.7232055664062,15.7231302261353,15.7230539321899,15.7229776382446,15.7229022979736,15.7228260040283
17.6972560882568,17.6971702575684,17.6970844268799,15.8075275421143,15.8074502944946,15.8073740005493,15.807297706604,15.8072214126587,15.8071451187134,15.8070688247681,15.8069915771484,15.8069152832031,15.8068389892578,15.8067626953125,15.8066864013672,15.8066091537476,15.8065328598022,15.8064565658569,15.8063802719116,15.8063039779663,15.806227684021,15.8061504364014,15.8060741424561,15.8059978485107,15.8059215545654,15.8058452606201,15.8057689666748,15.8056917190552,15.8056154251099,15.8055391311646,15.8054628372192,15.8053865432739,15.8053102493286,15.8052339553833,15.8051567077637,15.8050804138184,15.805004119873,15.8049278259277,15.8048515319824,15.8047752380371,15.8046979904175,15.8046216964722,15.8045454025269,15.8044691085815,15.8043928146362,15.8043165206909,15.8042402267456,15.804162979126,15.8040866851807,15.8040103912354,15.80393409729,15.8038578033447,15.8037815093994,15.8037052154541,15.8036279678345,15.8035516738892,15.8034753799438,15.8033990859985,15.8033227920532,15.8032455444336,15.8031692504883,15.803092956543,15.8030166625977,15.8029403686523,15.8028631210327,15.8027868270874,15.8027105331421,15.8026342391968,15.8025579452515,15.8024816513062,15.8024053573608,15.8023290634155,15.8022518157959,15.8021755218506,15.8020992279053,15.80202293396,15.8019466400146,15.8018703460693,15.801794052124,15.8017177581787,15.8016414642334,15.8015642166138,15.8014879226685,15.8014116287231,15.8013353347778,15.8012590408325,15.8011827468872,15.8011064529419,15.8010301589966,15.8009538650513,15.8008766174316,15.8008003234863,15.800724029541,15.8006477355957,15.8005714416504,15.8004951477051,15.8004188537598,15.8003425598145,15.8002662658691,15.8001890182495,15.8001127243042,15.8000364303589,15.7999601364136,15.7998838424683,15.7998075485229,15.7997312545776,15.7996549606323,15.799578666687,15.7995023727417,15.7994260787964,15.7993488311768,15.7992725372314,15.7310523986816,15.7309761047363,15.730899810791,15.7308235168457,15.7307472229004,15.7306709289551,15.7305955886841,15.7305192947388,15.7304430007935,15.7303667068481,15.7302904129028,15.7302141189575,15.7301378250122,15.7300624847412,15.7299861907959,15.7299098968506,15.7298336029053,15.72975730896,15.7296810150146,15.7296047210693,15.729528427124,15.729453086853,15.7293767929077,15.7293004989624,15.7292242050171,15.7291479110718,15.7290716171265,15.7289962768555,15.7289199829102,15.7288436889648,15.7287673950195,15.7286911010742,15.7286148071289,15.7285385131836,15.7284631729126,15.7283868789673,15.728310585022,15.7282342910767,15.7281579971313,15.7280826568604,15.728006362915,15.7279300689697,15.7278537750244,15.7277774810791,15.7277021408081,15.7276258468628,15.7275495529175,15.7274732589722,15.7273979187012,15.7273216247559,15.7272453308105,15.7271699905396,15.7270936965942,15.7270174026489,15.7269411087036,15.7268657684326,15.7267894744873,15.726713180542,15.726637840271,15.7265615463257,15.7264852523804,15.7264099121094,15.7263336181641,15.7262573242188,15.7261819839478,15.7261056900024,15.7260293960571,15.7259531021118,15.7258777618408,15.7258014678955,15.7257251739502,15.7256498336792,15.7255735397339,15.7254972457886,15.7254219055176,15.7253456115723,15.725269317627,15.7251930236816,15.7251176834106,15.7250413894653,15.72496509552,15.724889755249,15.7248134613037,15.7247371673584,15.7246618270874,15.7245855331421,15.7245092391968,15.7244338989258,15.7243576049805
17.6989822387695,17.6988964080811,17.6988105773926,17.6987247467041,17.6986389160156,17.6985530853271,17.6984672546387,17.6983814239502,17.6982975006104,17.6982116699219,17.6981258392334,17.6980400085449,17.6979541778564,17.697868347168,17.6977825164795,17.697696685791,17.6976108551025,17.6975250244141,17.6974411010742,17.6973552703857,17.6972694396973,17.6971836090088,17.6970977783203,17.6970119476318,17.6969261169434,17.6968402862549,17.6967544555664,17.6966686248779,17.6965827941895,17.6964988708496,17.6964130401611,17.6963272094727,17.6962413787842,17.6961555480957,17.6960697174072,17.6959838867188,17.6958980560303,17.6958122253418,17.6957263946533,17.6956405639648,17.695556640625,17.6954708099365,17.695384979248,17.6952991485596,17.6952133178711,17.6951274871826,17.6950416564941,17.6949558258057,17.6948699951172,17.6947841644287,17.6947002410889,17.6946144104004,17.6945285797119,17.6944427490234,17.694356918335,17.6942710876465,17.694185256958,17.6940994262695,17.6940135955811,17.6939296722412,17.6938438415527,17.6937580108643,17.6936721801758,17.6935863494873,17.6935005187988,17.6934146881104,17.6933288574219,17.6932430267334,17.6931571960449,17.6930732727051,17.6929874420166,17.6929016113281,17.6928157806396,17.6927299499512,17.6926441192627,17.6925582885742,17.6924724578857,17.6923866271973,17.6923027038574,17.6922168731689,17.6921310424805,17.692045211792,17.6919593811035,17.691873550415,17.6917877197266,17.6917037963867,17.6916179656982,17.6915321350098,17.6914463043213,17.6913604736328,17.6912746429443,17.6911888122559,17.6911029815674,17.6910190582275,17.6909332275391,17.6908473968506,17.6907615661621,17.6906757354736,17.6905899047852,17.6905040740967,17.6904201507568,17.6903343200684,17.6902484893799,17.6901626586914,17.6900768280029,17.6899909973145,17.689905166626,17.6898193359375,17.6897354125977,17.6896495819092,17.6895637512207,17.6894779205322,15.7325849533081,15.7325086593628,15.7324333190918,15.7323570251465,15.7322807312012,15.7322044372559,15.7321281433105,15.7320518493652,15.7319755554199,15.7318992614746,15.7318229675293,15.7317476272583,15.731671333313,15.7315950393677,15.7315187454224,15.7314424514771,15.7313661575317,15.7312898635864,15.7312135696411,15.7311382293701,15.7310619354248,15.7309856414795,15.7309093475342,15.7308330535889,15.7307567596436,15.7306804656982,15.7306041717529,15.7305288314819,15.7304525375366,15.7303762435913,15.730299949646,15.7302236557007,15.7301473617554,15.7300710678101,15.7299957275391,15.7299194335938,15.7298431396484,15.7297668457031,15.7296905517578,15.7296142578125,15.7295389175415,15.7294626235962,15.7293863296509,15.7293100357056,15.7292337417603,15.7291574478149,15.7290821075439,15.7290058135986,15.7289295196533,15.7288541793823,15.728777885437,15.7287015914917,15.7286262512207,15.7285499572754,15.7284736633301,15.7283973693848,15.7283220291138,15.7282457351685,15.7281694412231,15.7280941009521,15.7280178070068,15.7279415130615,15.7278661727905,15.7277898788452,15.7277135848999,15.7276372909546,15.7275619506836,15.7274856567383,15.727409362793,15.7273330688477,15.7272577285767,15.7271814346313,15.727105140686,15.727029800415,15.7269535064697,15.7268772125244,15.7268009185791,15.7267255783081,15.7266492843628,15.7265729904175,15.7264976501465,15.7264213562012,15.7263450622559,15.7262687683105,15.7261934280396,15.7261171340942,15.7260408401489,15.7259654998779,15.7258892059326
17.7007083892822,17.7006225585938,17.7005367279053,17.7004508972168,17.7003650665283,17.7002792358398,17.7001934051514,17.7001075744629,17.7000217437744,17.6999359130859,17.6998519897461,17.6997661590576,17.6996803283691,17.6995944976807,17.6995086669922,17.6994228363037,17.6993370056152,17.6992511749268,17.6991653442383,17.6990795135498,17.6989936828613,17.6989078521729,17.698823928833,17.6987380981445,17.6986522674561,17.6985664367676,17.6984806060791,17.6983947753906,17.6983089447021,17.6982231140137,17.6981372833252,17.6980514526367,17.6979656219482,17.6978797912598,17.6977958679199,17.6977100372314,17.697624206543,17.6975383758545,17.697452545166,17.6973667144775,17.6972808837891,17.6971950531006,17.6971092224121,17.6970233917236,17.6969375610352,17.6968536376953,17.6967678070068,17.6966819763184,17.6965961456299,17.6965103149414,17.6964244842529,17.6963386535645,17.696252822876,17.6961669921875,17.696081161499,17.6959953308105,17.6959114074707,17.6958255767822,17.6957397460938,17.6956539154053,17.6955680847168,17.6954822540283,17.6953964233398,17.6953105926514,17.6952247619629,17.6951389312744,17.6950550079346,17.6949691772461,17.6948833465576,17.6947975158691,17.6947116851807,17.6946258544922,17.6945400238037,17.6944541931152,17.6943683624268,17.6942825317383,17.6941986083984,17.69411277771,17.6940269470215,17.693941116333,17.6938552856445,17.6937694549561,17.6936836242676,17.6935977935791,17.6935119628906,17.6934280395508,17.6933422088623,17.6932563781738,17.6931705474854,17.6930847167969,17.6929988861084,17.6929130554199,17.6928272247314,17.6927433013916,17.6926574707031,17.6925716400146,17.6924858093262,17.6923999786377,17.6923141479492,17.6922283172607,17.6921424865723,17.6920585632324,17.6919727325439,17.6918869018555,17.691801071167,17.6917152404785,17.69162940979,17.6915435791016,17.6914577484131,17.6913738250732,17.6912879943848,17.6912021636963,15.7341184616089,15.7340421676636,15.7339658737183,15.7338895797729,15.7338132858276,15.7337379455566,15.7336616516113,15.733585357666,15.7335090637207,15.7334327697754,15.7333564758301,15.7332801818848,15.7332038879395,15.7331275939941,15.7330513000488,15.7329759597778,15.7328996658325,15.7328233718872,15.7327470779419,15.7326707839966,15.7325944900513,15.732518196106,15.7324419021606,15.7323656082153,15.7322902679443,15.732213973999,15.7321376800537,15.7320613861084,15.7319850921631,15.7319087982178,15.7318325042725,15.7317562103271,15.7316808700562,15.7316045761108,15.7315282821655,15.7314519882202,15.7313756942749,15.7312994003296,15.7312231063843,15.7311477661133,15.731071472168,15.7309951782227,15.7309188842773,15.730842590332,15.7307662963867,15.7306909561157,15.7306146621704,15.7305383682251,15.7304620742798,15.7303867340088,15.7303104400635,15.7302341461182,15.7301578521729,15.7300825119019,15.7300062179565,15.7299299240112,15.7298545837402,15.7297782897949,15.7297019958496,15.7296257019043,15.7295503616333,15.729474067688,15.7293977737427,15.7293224334717,15.7292461395264,15.7291698455811,15.7290935516357,15.7290182113647,15.7289419174194,15.7288656234741,15.7287893295288,15.7287139892578,15.7286376953125,15.7285614013672,15.7284860610962,15.7284097671509,15.7283334732056,15.7282571792603,15.7281818389893,15.7281055450439,15.7280292510986,15.7279529571533,15.7278776168823,15.727801322937,15.7277250289917,15.7276496887207,15.7275733947754,15.7274971008301,15.7274208068848
17.7024345397949,17.7023487091064,17.702262878418,17.7021770477295,17.702091217041,17.7020053863525,17.7019195556641,17.7018337249756,17.7017478942871,17.7016620635986,17.7015762329102,17.7014923095703,17.7014064788818,17.7013206481934,17.7012348175049,17.7011489868164,17.7010631561279,17.7009773254395,17.700891494751,17.7008056640625,17.700719833374,17.7006340026855,17.7005481719971,17.7004623413086,17.7003765106201,17.7002925872803,17.7002067565918,17.7001209259033,17.7000350952148,17.6999492645264,17.6998634338379,17.6997776031494,17.6996917724609,17.6996059417725,17.699520111084,17.6994342803955,17.699348449707,17.6992626190186,17.6991786956787,17.6990928649902,17.6990070343018,17.6989212036133,17.6988353729248,17.6987495422363,17.6986637115479,17.6985778808594,17.6984920501709,17.6984062194824,17.6983203887939,17.6982345581055,17.6981506347656,17.6980648040771,17.6979789733887,17.6978931427002,17.6978073120117,17.6977214813232,17.6976356506348,17.6975498199463,17.6974639892578,17.6973781585693,17.6972923278809,17.6972064971924,17.6971225738525,17.6970367431641,17.6969509124756,17.6968650817871,17.6967792510986,17.6966934204102,17.6966075897217,17.6965217590332,17.6964359283447,17.6963500976562,17.6962642669678,17.6961803436279,17.6960945129395,17.696008682251,17.6959228515625,17.695837020874,17.6957511901855,17.6956653594971,17.6955795288086,17.6954936981201,17.6954078674316,17.6953239440918,17.6952381134033,17.6951522827148,17.6950664520264,17.6949806213379,17.6948947906494,17.6948089599609,17.6947231292725,17.694637298584,17.6945533752441,17.6944675445557,17.6943817138672,17.6942958831787,17.6942100524902,17.6941242218018,17.6940383911133,17.6939525604248,17.6938667297363,17.6937828063965,17.693696975708,17.6936111450195,17.6935253143311,17.6934394836426,17.6933536529541,17.6932678222656,17.6931819915771,17.6930980682373,17.6930122375488,17.6929264068604,15.7356519699097,15.7355756759644,15.735499382019,15.7354230880737,15.7353467941284,15.7352714538574,15.7351951599121,15.7351188659668,15.7350425720215,15.7349662780762,15.7348899841309,15.7348136901855,15.7347373962402,15.7346611022949,15.7345848083496,15.7345085144043,15.734432220459,15.734356880188,15.7342805862427,15.7342042922974,15.7341279983521,15.7340517044067,15.7339754104614,15.7338991165161,15.7338228225708,15.7337465286255,15.7336702346802,15.7335948944092,15.7335186004639,15.7334423065186,15.7333660125732,15.7332897186279,15.7332134246826,15.7331371307373,15.733060836792,15.732985496521,15.7329092025757,15.7328329086304,15.7327566146851,15.7326803207397,15.7326040267944,15.7325277328491,15.7324523925781,15.7323760986328,15.7322998046875,15.7322235107422,15.7321472167969,15.7320709228516,15.7319955825806,15.7319192886353,15.7318429946899,15.7317667007446,15.7316913604736,15.7316150665283,15.731538772583,15.731463432312,15.7313871383667,15.7313108444214,15.7312345504761,15.7311592102051,15.7310829162598,15.7310066223145,15.7309303283691,15.7308549880981,15.7307786941528,15.7307024002075,15.7306261062622,15.7305507659912,15.7304744720459,15.7303981781006,15.7303218841553,15.7302465438843,15.730170249939,15.7300939559937,15.7300176620483,15.7299423217773,15.729866027832,15.7297897338867,15.7297134399414,15.7296380996704,15.7295618057251,15.7294855117798,15.7294101715088,15.7293338775635,15.7292575836182,15.7291812896729,15.7291059494019,15.7290296554565,15.7289533615112
17.7041606903076,17.7040748596191,17.7039890289307,17.7039031982422,17.7038173675537,17.7037315368652,17.7036457061768,17.7035598754883,17.7034740447998,17.7033882141113,17.7033042907715,17.703218460083,17.7031326293945,17.7030467987061,17.7029609680176,17.7028751373291,17.7027893066406,17.7027034759521,17.7026176452637,17.7025318145752,17.7024459838867,17.7023601531982,17.7022743225098,17.7021884918213,17.7021026611328,17.7020168304443,17.7019329071045,17.701847076416,17.7017612457275,17.7016754150391,17.7015895843506,17.7015037536621,17.7014179229736,17.7013320922852,17.7012462615967,17.7011604309082,17.7010746002197,17.7009887695312,17.7009029388428,17.7008171081543,17.7007331848145,17.700647354126,17.7005615234375,17.700475692749,17.7003898620605,17.7003040313721,17.7002182006836,17.7001323699951,17.7000465393066,17.6999607086182,17.6998748779297,17.6997890472412,17.6997032165527,17.6996192932129,17.6995334625244,17.6994476318359,17.6993618011475,17.699275970459,17.6991901397705,17.699104309082,17.6990184783936,17.6989326477051,17.6988468170166,17.6987609863281,17.6986751556396,17.6985893249512,17.6985054016113,17.6984195709229,17.6983337402344,17.6982479095459,17.6981620788574,17.6980762481689,17.6979904174805,17.697904586792,17.6978187561035,17.697732925415,17.6976470947266,17.6975612640381,17.6974773406982,17.6973915100098,17.6973056793213,17.6972198486328,17.6971340179443,17.6970481872559,17.6969623565674,17.6968765258789,17.6967906951904,17.696704864502,17.6966190338135,17.6965351104736,17.6964492797852,17.6963634490967,17.6962776184082,17.6961917877197,17.6961059570312,17.6960201263428,17.6959342956543,17.6958484649658,17.695764541626,17.6956787109375,17.695592880249,17.6955070495605,17.6954212188721,17.6953353881836,17.6952495574951,17.6951637268066,17.6950778961182,17.6949939727783,17.6949081420898,17.6948223114014,17.6947364807129,17.6946506500244,15.7371864318848,15.7371101379395,15.7370338439941,15.7369575500488,15.7368812561035,15.7368049621582,15.7367286682129,15.7366523742676,15.7365760803223,15.736499786377,15.7364234924316,15.7363471984863,15.736270904541,15.7361946105957,15.7361183166504,15.7360429763794,15.7359666824341,15.7358903884888,15.7358140945435,15.7357378005981,15.7356615066528,15.7355852127075,15.7355089187622,15.7354326248169,15.7353563308716,15.7352800369263,15.735203742981,15.73512840271,15.7350521087646,15.7349758148193,15.734899520874,15.7348232269287,15.7347469329834,15.7346706390381,15.7345943450928,15.7345180511475,15.7344427108765,15.7343664169312,15.7342901229858,15.7342138290405,15.7341375350952,15.7340612411499,15.7339849472046,15.7339086532593,15.7338333129883,15.733757019043,15.7336807250977,15.7336044311523,15.733528137207,15.733452796936,15.7333765029907,15.7333002090454,15.7332239151001,15.7331485748291,15.7330722808838,15.7329959869385,15.7329196929932,15.7328443527222,15.7327680587769,15.7326917648315,15.7326154708862,15.7325401306152,15.7324638366699,15.7323875427246,15.7323112487793,15.7322359085083,15.732159614563,15.7320833206177,15.7320070266724,15.7319316864014,15.7318553924561,15.7317790985107,15.7317028045654,15.7316265106201,15.7315511703491,15.7314748764038,15.7313985824585,15.7313222885132,15.7312469482422,15.7311706542969,15.7310943603516,15.7310180664062,15.7309427261353,15.7308664321899,15.7307901382446,15.7307138442993,15.7306385040283,15.730562210083,15.7304859161377
17.7058868408203,17.7058010101318,17.7057151794434,17.7056293487549,17.705545425415,17.7054595947266,17.7053737640381,17.7052879333496,17.7052021026611,17.7051162719727,17.7050304412842,17.7049446105957,17.7048587799072,17.7047729492188,17.7046871185303,17.7046012878418,17.7045154571533,17.7044296264648,17.7043437957764,17.7042579650879,17.7041721343994,17.7040863037109,17.7040004730225,17.7039165496826,17.7038307189941,17.7037448883057,17.7036590576172,17.7035732269287,17.7034873962402,17.7034015655518,17.7033157348633,17.7032299041748,17.7031440734863,17.7030582427979,17.7029724121094,17.7028865814209,17.7028007507324,17.7027149200439,17.7026290893555,17.702543258667,17.7024593353271,17.7023735046387,17.7022876739502,17.7022018432617,17.7021160125732,17.7020301818848,17.7019443511963,17.7018585205078,17.7017726898193,17.7016868591309,17.7016010284424,17.7015151977539,17.7014293670654,17.701343536377,17.7012577056885,17.7011737823486,17.7010879516602,17.7010021209717,17.7009162902832,17.7008304595947,17.7007446289062,17.7006587982178,17.7005729675293,17.7004871368408,17.7004013061523,17.7003154754639,17.7002296447754,17.7001438140869,17.7000579833984,17.6999740600586,17.6998882293701,17.6998023986816,17.6997165679932,17.6996307373047,17.6995449066162,17.6994590759277,17.6993732452393,17.6992874145508,17.6992015838623,17.6991157531738,17.6990299224854,17.6989440917969,17.698860168457,17.6987743377686,17.6986885070801,17.6986026763916,17.6985168457031,17.6984310150146,17.6983451843262,17.6982593536377,17.6981735229492,17.6980876922607,17.6980018615723,17.6979160308838,17.6978321075439,17.6977462768555,17.697660446167,17.6975746154785,17.69748878479,17.6974029541016,17.6973171234131,17.6972312927246,17.6971454620361,17.6970596313477,17.6969757080078,17.6968898773193,17.6968040466309,17.6967182159424,17.6966323852539,17.6965465545654,17.696460723877,17.6963748931885,15.7387199401855,15.7386436462402,15.7385673522949,15.7384910583496,15.7384147644043,15.738338470459,15.738263130188,15.7381868362427,15.7381105422974,15.7380342483521,15.7379579544067,15.7378816604614,15.7378053665161,15.7377290725708,15.7376527786255,15.7375764846802,15.7375001907349,15.7374238967896,15.7373476028442,15.7372713088989,15.7371950149536,15.7371187210083,15.737042427063,15.736967086792,15.7368907928467,15.7368144989014,15.7367382049561,15.7366619110107,15.7365856170654,15.7365093231201,15.7364330291748,15.7363567352295,15.7362804412842,15.7362041473389,15.7361278533936,15.7360525131226,15.7359762191772,15.7358999252319,15.7358236312866,15.7357473373413,15.735671043396,15.7355947494507,15.7355184555054,15.7354421615601,15.7353668212891,15.7352905273438,15.7352142333984,15.7351379394531,15.7350616455078,15.7349863052368,15.7349100112915,15.7348337173462,15.7347574234009,15.7346820831299,15.7346057891846,15.7345294952393,15.7344532012939,15.7343769073486,15.7343015670776,15.7342252731323,15.734148979187,15.7340726852417,15.7339973449707,15.7339210510254,15.7338447570801,15.7337684631348,15.7336931228638,15.7336168289185,15.7335405349731,15.7334642410278,15.7333879470825,15.7333126068115,15.7332363128662,15.7331600189209,15.7330837249756,15.7330083847046,15.7329320907593,15.732855796814,15.7327795028687,15.7327032089233,15.7326278686523,15.732551574707,15.7324752807617,15.7323989868164,15.7323236465454,15.7322473526001,15.7321710586548,15.7320947647095,15.7320184707642
17.7076148986816,17.7075290679932,17.7074432373047,17.7073574066162,17.7072715759277,17.7071857452393,17.7070999145508,17.7070140838623,17.7069282531738,17.7068424224854,17.7067565917969,17.7066707611084,17.7065849304199,17.7064990997314,17.706413269043,17.7063274383545,17.7062435150146,17.7061576843262,17.7060718536377,17.7059860229492,17.7059001922607,17.7058143615723,17.7057285308838,17.7056427001953,17.7055568695068,17.7054710388184,17.7053852081299,17.7052993774414,17.7052135467529,17.7051277160645,17.705041885376,17.7049560546875,17.704870223999,17.7047843933105,17.7046985626221,17.7046127319336,17.7045269012451,17.7044429779053,17.7043571472168,17.7042713165283,17.7041854858398,17.7040996551514,17.7040138244629,17.7039279937744,17.7038421630859,17.7037563323975,17.703670501709,17.7035846710205,17.703498840332,17.7034130096436,17.7033271789551,17.7032413482666,17.7031555175781,17.7030696868896,17.7029857635498,17.7028999328613,17.7028141021729,17.7027282714844,17.7026424407959,17.7025566101074,17.7024707794189,17.7023849487305,17.702299118042,17.7022132873535,17.702127456665,17.7020416259766,17.7019557952881,17.7018699645996,17.7017841339111,17.7016983032227,17.7016143798828,17.7015285491943,17.7014427185059,17.7013568878174,17.7012710571289,17.7011852264404,17.701099395752,17.7010135650635,17.700927734375,17.7008419036865,17.700756072998,17.7006702423096,17.7005844116211,17.7004985809326,17.7004127502441,17.7003288269043,17.7002429962158,17.7001571655273,17.7000713348389,17.6999855041504,17.6998996734619,17.6998138427734,17.699728012085,17.6996421813965,17.699556350708,17.6994705200195,17.6993846893311,17.6992988586426,17.6992149353027,17.6991291046143,17.6990432739258,17.6989574432373,17.6988716125488,17.6987857818604,17.6986999511719,17.6986141204834,17.6985282897949,17.6984424591064,17.6983585357666,17.6982727050781,17.6981868743896,17.6981010437012,15.7402544021606,15.7401781082153,15.74010181427,15.7400255203247,15.7399492263794,15.7398729324341,15.7397966384888,15.7397212982178,15.7396450042725,15.7395687103271,15.7394924163818,15.7394161224365,15.7393398284912,15.7392635345459,15.7391872406006,15.7391109466553,15.73903465271,15.7389583587646,15.7388820648193,15.738805770874,15.7387294769287,15.7386531829834,15.7385768890381,15.7385005950928,15.7384243011475,15.7383480072021,15.7382717132568,15.7381954193115,15.7381191253662,15.7380437850952,15.7379674911499,15.7378911972046,15.7378149032593,15.737738609314,15.7376623153687,15.7375860214233,15.737509727478,15.7374334335327,15.7373571395874,15.7372808456421,15.7372055053711,15.7371292114258,15.7370529174805,15.7369766235352,15.7369003295898,15.7368240356445,15.7367477416992,15.7366714477539,15.7365961074829,15.7365198135376,15.7364435195923,15.736367225647,15.7362909317017,15.7362155914307,15.7361392974854,15.73606300354,15.7359867095947,15.7359113693237,15.7358350753784,15.7357587814331,15.7356824874878,15.7356071472168,15.7355308532715,15.7354545593262,15.7353782653809,15.7353019714355,15.7352266311646,15.7351503372192,15.7350740432739,15.7349977493286,15.7349214553833,15.7348461151123,15.734769821167,15.7346935272217,15.7346172332764,15.7345409393311,15.7344655990601,15.7343893051147,15.7343130111694,15.7342367172241,15.7341604232788,15.7340850830078,15.7340087890625,15.7339324951172,15.7338562011719,15.7337799072266,15.7337045669556,15.7336282730103,15.7335519790649
17.709342956543,17.7092571258545,17.709171295166,17.7090854644775,17.7089996337891,17.7089138031006,17.7088279724121,17.7087421417236,17.7086563110352,17.7085704803467,17.7084846496582,17.7083988189697,17.7083129882812,17.7082271575928,17.7081413269043,17.7080554962158,17.7079696655273,17.7078838348389,17.7077980041504,17.7077121734619,17.7076263427734,17.707540512085,17.7074546813965,17.707368850708,17.7072830200195,17.7071971893311,17.7071113586426,17.7070274353027,17.7069416046143,17.7068557739258,17.7067699432373,17.7066841125488,17.7065982818604,17.7065124511719,17.7064266204834,17.7063407897949,17.7062549591064,17.706169128418,17.7060832977295,17.705997467041,17.7059116363525,17.7058258056641,17.7057399749756,17.7056541442871,17.7055683135986,17.7054824829102,17.7053966522217,17.7053108215332,17.7052249908447,17.7051410675049,17.7050552368164,17.7049694061279,17.7048835754395,17.704797744751,17.7047119140625,17.704626083374,17.7045402526855,17.7044544219971,17.7043685913086,17.7042827606201,17.7041969299316,17.7041110992432,17.7040252685547,17.7039394378662,17.7038536071777,17.7037677764893,17.7036819458008,17.7035961151123,17.7035102844238,17.703426361084,17.7033405303955,17.703254699707,17.7031688690186,17.7030830383301,17.7029972076416,17.7029113769531,17.7028255462646,17.7027397155762,17.7026538848877,17.7025680541992,17.7024822235107,17.7023963928223,17.7023105621338,17.7022247314453,17.7021389007568,17.702054977417,17.7019691467285,17.70188331604,17.7017974853516,17.7017116546631,17.7016258239746,17.7015399932861,17.7014541625977,17.7013683319092,17.7012825012207,17.7011966705322,17.7011108398438,17.7010250091553,17.7009391784668,17.7008533477783,17.7007694244385,17.70068359375,17.7005977630615,17.700511932373,17.7004261016846,17.7003402709961,17.7002544403076,17.7001686096191,17.7000827789307,17.6999969482422,17.6999111175537,17.6998252868652,15.7417898178101,15.7417135238647,15.7416372299194,15.7415609359741,15.7414846420288,15.7414083480835,15.7413320541382,15.7412557601929,15.7411794662476,15.7411031723022,15.7410268783569,15.7409505844116,15.7408742904663,15.740797996521,15.7407217025757,15.7406454086304,15.7405691146851,15.7404928207397,15.7404165267944,15.7403402328491,15.7402639389038,15.7401876449585,15.7401113510132,15.7400350570679,15.7399587631226,15.7398824691772,15.7398061752319,15.7397298812866,15.7396535873413,15.739577293396,15.739501953125,15.7394256591797,15.7393493652344,15.7392730712891,15.7391967773438,15.7391204833984,15.7390441894531,15.7389678955078,15.7388916015625,15.7388153076172,15.7387390136719,15.7386627197266,15.7385864257812,15.7385101318359,15.7384347915649,15.7383584976196,15.7382822036743,15.738205909729,15.7381296157837,15.7380533218384,15.7379779815674,15.7379016876221,15.7378253936768,15.7377490997314,15.7376728057861,15.7375974655151,15.7375211715698,15.7374448776245,15.7373685836792,15.7372922897339,15.7372169494629,15.7371406555176,15.7370643615723,15.736988067627,15.736912727356,15.7368364334106,15.7367601394653,15.73668384552,15.7366075515747,15.7365312576294,15.7364559173584,15.7363796234131,15.7363033294678,15.7362270355225,15.7361507415771,15.7360754013062,15.7359991073608,15.7359228134155,15.7358465194702,15.7357702255249,15.7356948852539,15.7356185913086,15.7355422973633,15.735466003418,15.7353897094727,15.7353143692017,15.7352380752563,15.735161781311,15.7350854873657
17.7110691070557,17.7109832763672,17.7108974456787,17.7108135223389,17.7107276916504,17.7106418609619,17.7105560302734,17.710470199585,17.7103843688965,17.710298538208,17.7102127075195,17.7101268768311,17.7100410461426,17.7099552154541,17.7098693847656,17.7097835540771,17.7096977233887,17.7096118927002,17.7095260620117,17.7094402313232,17.7093544006348,17.7092685699463,17.7091827392578,17.7090969085693,17.7090110778809,17.7089252471924,17.7088394165039,17.7087535858154,17.708667755127,17.7085819244385,17.70849609375,17.7084102630615,17.708324432373,17.7082386016846,17.7081527709961,17.7080669403076,17.7079811096191,17.7078952789307,17.7078113555908,17.7077255249023,17.7076396942139,17.7075538635254,17.7074680328369,17.7073822021484,17.70729637146,17.7072105407715,17.707124710083,17.7070388793945,17.7069530487061,17.7068672180176,17.7067813873291,17.7066955566406,17.7066097259521,17.7065238952637,17.7064380645752,17.7063522338867,17.7062664031982,17.7061805725098,17.7060947418213,17.7060089111328,17.7059230804443,17.7058372497559,17.7057514190674,17.7056674957275,17.7055816650391,17.7054958343506,17.7054100036621,17.7053241729736,17.7052383422852,17.7051525115967,17.7050666809082,17.7049808502197,17.7048950195312,17.7048091888428,17.7047233581543,17.7046375274658,17.7045516967773,17.7044658660889,17.7043800354004,17.7042942047119,17.7042083740234,17.704122543335,17.7040367126465,17.7039527893066,17.7038669586182,17.7037811279297,17.7036952972412,17.7036094665527,17.7035236358643,17.7034378051758,17.7033519744873,17.7032661437988,17.7031803131104,17.7030944824219,17.7030086517334,17.7029228210449,17.7028369903564,17.702751159668,17.7026653289795,17.702579498291,17.7024955749512,17.7024097442627,17.7023239135742,17.7022380828857,17.7021522521973,17.7020664215088,17.7019805908203,17.7018947601318,17.7018089294434,17.7017230987549,17.7016372680664,17.7015514373779,15.7433242797852,15.7432479858398,15.7431716918945,15.7430953979492,15.7430191040039,15.7429428100586,15.7428665161133,15.742790222168,15.7427139282227,15.7426376342773,15.742561340332,15.7424850463867,15.7424087524414,15.7423324584961,15.7422561645508,15.7421798706055,15.7421035766602,15.7420272827148,15.7419509887695,15.7418746948242,15.7417984008789,15.7417221069336,15.7416458129883,15.741569519043,15.741494178772,15.7414178848267,15.7413415908813,15.741265296936,15.7411890029907,15.7411127090454,15.7410364151001,15.7409601211548,15.7408838272095,15.7408075332642,15.7407312393188,15.7406549453735,15.7405786514282,15.7405023574829,15.7404260635376,15.7403497695923,15.740273475647,15.7401971817017,15.7401208877563,15.740044593811,15.73996925354,15.7398929595947,15.7398166656494,15.7397403717041,15.7396640777588,15.7395877838135,15.7395114898682,15.7394361495972,15.7393598556519,15.7392835617065,15.7392072677612,15.7391309738159,15.7390556335449,15.7389793395996,15.7389030456543,15.738826751709,15.7387504577637,15.7386751174927,15.7385988235474,15.7385225296021,15.7384462356567,15.7383699417114,15.7382946014404,15.7382183074951,15.7381420135498,15.7380657196045,15.7379894256592,15.7379131317139,15.7378377914429,15.7377614974976,15.7376852035522,15.7376089096069,15.7375326156616,15.7374563217163,15.7373809814453,15.7373046875,15.7372283935547,15.7371520996094,15.7370758056641,15.7370004653931,15.7369241714478,15.7368478775024,15.7367715835571,15.7366952896118,15.7366189956665
17.7127990722656,17.7127132415771,17.7126274108887,17.7125415802002,17.7124557495117,17.7123699188232,17.7122840881348,17.7121982574463,17.7121124267578,17.7120265960693,17.7119407653809,17.7118549346924,17.7117691040039,17.7116832733154,17.711597442627,17.7115116119385,17.71142578125,17.7113399505615,17.711254119873,17.7111682891846,17.7110824584961,17.7109966278076,17.7109107971191,17.7108249664307,17.7107391357422,17.7106533050537,17.7105674743652,17.7104816436768,17.7103958129883,17.7103099822998,17.7102241516113,17.7101383209229,17.7100524902344,17.7099666595459,17.7098808288574,17.7097949981689,17.7097091674805,17.709623336792,17.7095375061035,17.709451675415,17.7093658447266,17.7092800140381,17.7091941833496,17.7091083526611,17.7090225219727,17.7089366912842,17.7088508605957,17.7087669372559,17.7086811065674,17.7085952758789,17.7085094451904,17.708423614502,17.7083377838135,17.708251953125,17.7081661224365,17.708080291748,17.7079944610596,17.7079086303711,17.7078227996826,17.7077369689941,17.7076511383057,17.7075653076172,17.7074794769287,17.7073936462402,17.7073078155518,17.7072219848633,17.7071361541748,17.7070503234863,17.7069644927979,17.7068786621094,17.7067928314209,17.7067070007324,17.7066211700439,17.7065353393555,17.706449508667,17.7063655853271,17.7062797546387,17.7061939239502,17.7061080932617,17.7060222625732,17.7059364318848,17.7058506011963,17.7057647705078,17.7056789398193,17.7055931091309,17.7055072784424,17.7054214477539,17.7053356170654,17.705249786377,17.7051639556885,17.705078125,17.7049922943115,17.704906463623,17.7048206329346,17.7047348022461,17.7046489715576,17.7045631408691,17.7044792175293,17.7043933868408,17.7043075561523,17.7042217254639,17.7041358947754,17.7040500640869,17.7039642333984,17.70387840271,17.7037925720215,17.703706741333,17.7036209106445,17.7035350799561,17.7034492492676,17.7033634185791,17.7032775878906,15.7448596954346,15.7447834014893,15.7447071075439,15.7446308135986,15.7445545196533,15.744478225708,15.7444019317627,15.7443256378174,15.7442493438721,15.7441730499268,15.7440967559814,15.7440204620361,15.7439441680908,15.7438678741455,15.7437915802002,15.7437152862549,15.7436389923096,15.7435626983643,15.7434864044189,15.7434101104736,15.7433338165283,15.743257522583,15.7431812286377,15.7431049346924,15.7430286407471,15.7429523468018,15.7428760528564,15.7427997589111,15.7427234649658,15.7426471710205,15.7425708770752,15.7424945831299,15.7424182891846,15.7423419952393,15.7422657012939,15.7421894073486,15.7421131134033,15.742036819458,15.741961479187,15.7418851852417,15.7418088912964,15.7417325973511,15.7416563034058,15.7415800094604,15.7415037155151,15.7414274215698,15.7413511276245,15.7412748336792,15.7411985397339,15.7411222457886,15.7410469055176,15.7409706115723,15.740894317627,15.7408180236816,15.7407417297363,15.7406663894653,15.74059009552,15.7405138015747,15.7404375076294,15.7403612136841,15.7402849197388,15.7402095794678,15.7401332855225,15.7400569915771,15.7399806976318,15.7399044036865,15.7398281097412,15.7397527694702,15.7396764755249,15.7396001815796,15.7395238876343,15.739447593689,15.7393712997437,15.7392959594727,15.7392196655273,15.739143371582,15.7390670776367,15.7389907836914,15.7389144897461,15.7388391494751,15.7387628555298,15.7386865615845,15.7386102676392,15.7385339736938,15.7384576797485,15.7383823394775,15.7383060455322,15.7382297515869,15.7381534576416
17.714527130127,17.7144412994385,17.71435546875,17.7142696380615,17.714183807373,17.7140979766846,17.7140121459961,17.7139263153076,17.7138404846191,17.7137546539307,17.7136688232422,17.7135829925537,17.7134971618652,17.7134113311768,17.7133255004883,17.7132396697998,17.7131538391113,17.7130680084229,17.7129821777344,17.7128963470459,17.7128105163574,17.7127246856689,17.7126388549805,17.712553024292,17.7124671936035,17.712381362915,17.7122955322266,17.7122097015381,17.7121238708496,17.7120380401611,17.7119522094727,17.7118663787842,17.7117805480957,17.7116947174072,17.7116088867188,17.7115230560303,17.7114372253418,17.7113513946533,17.7112655639648,17.7111797332764,17.7110939025879,17.7110080718994,17.7109222412109,17.7108364105225,17.710750579834,17.7106647491455,17.710578918457,17.7104930877686,17.7104072570801,17.7103214263916,17.7102355957031,17.7101497650146,17.7100639343262,17.7099781036377,17.7098941802979,17.7098083496094,17.7097225189209,17.7096366882324,17.7095508575439,17.7094650268555,17.709379196167,17.7092933654785,17.70920753479,17.7091217041016,17.7090358734131,17.7089500427246,17.7088642120361,17.7087783813477,17.7086925506592,17.7086067199707,17.7085208892822,17.7084350585938,17.7083492279053,17.7082633972168,17.7081775665283,17.7080917358398,17.7080059051514,17.7079200744629,17.7078342437744,17.7077484130859,17.7076625823975,17.707576751709,17.7074909210205,17.707405090332,17.7073192596436,17.7072334289551,17.7071475982666,17.7070636749268,17.7069778442383,17.7068920135498,17.7068061828613,17.7067203521729,17.7066345214844,17.7065486907959,17.7064628601074,17.7063770294189,17.7062911987305,17.706205368042,17.7061195373535,17.706033706665,17.7059478759766,17.7058620452881,17.7057762145996,17.7056903839111,17.7056045532227,17.7055187225342,17.7054328918457,17.7053470611572,17.7052612304688,17.7051753997803,17.7050914764404,17.705005645752,15.746395111084,15.7463188171387,15.7462425231934,15.746166229248,15.7460899353027,15.7460136413574,15.7459373474121,15.7458610534668,15.7457847595215,15.7457084655762,15.7456321716309,15.7455558776855,15.7454795837402,15.7454032897949,15.7453269958496,15.7452507019043,15.745174407959,15.7450981140137,15.7450218200684,15.744945526123,15.7448692321777,15.7447929382324,15.7447166442871,15.7446403503418,15.7445640563965,15.7444877624512,15.7444114685059,15.7443351745605,15.7442588806152,15.7441825866699,15.7441062927246,15.7440299987793,15.743953704834,15.7438774108887,15.7438011169434,15.743724822998,15.7436485290527,15.7435722351074,15.7434959411621,15.7434196472168,15.7433433532715,15.7432670593262,15.7431907653809,15.7431144714355,15.7430381774902,15.7429618835449,15.7428865432739,15.7428102493286,15.7427339553833,15.742657661438,15.7425813674927,15.7425050735474,15.7424287796021,15.7423534393311,15.7422771453857,15.7422008514404,15.7421245574951,15.7420482635498,15.7419719696045,15.7418966293335,15.7418203353882,15.7417440414429,15.7416677474976,15.7415914535522,15.7415151596069,15.7414398193359,15.7413635253906,15.7412872314453,15.7412109375,15.7411346435547,15.7410583496094,15.7409820556641,15.7409067153931,15.7408304214478,15.7407541275024,15.7406778335571,15.7406015396118,15.7405252456665,15.7404489517212,15.7403736114502,15.7402973175049,15.7402210235596,15.7401447296143,15.7400684356689,15.7399921417236,15.7399158477783,15.7398405075073,15.739764213562,15.7396879196167
17.7162551879883,17.7161693572998,17.7160835266113,17.7159976959229,17.7159118652344,17.7158260345459,17.7157402038574,17.7156543731689,17.7155685424805,17.715482711792,17.7153968811035,17.715311050415,17.7152252197266,17.7151393890381,17.7150535583496,17.7149677276611,17.7148818969727,17.7147960662842,17.7147102355957,17.7146244049072,17.7145385742188,17.7144527435303,17.7143669128418,17.7142810821533,17.7141952514648,17.7141094207764,17.7140235900879,17.7139377593994,17.7138519287109,17.7137660980225,17.713680267334,17.7135944366455,17.713508605957,17.7134227752686,17.7133369445801,17.7132511138916,17.7131652832031,17.7130794525146,17.7129936218262,17.7129077911377,17.7128219604492,17.7127361297607,17.7126502990723,17.7125644683838,17.7124786376953,17.7123928070068,17.7123069763184,17.7122211456299,17.7121353149414,17.6601028442383,17.6580924987793,17.6560840606689,17.6540756225586,17.6520671844482,17.6500587463379,17.6480522155762,17.6460456848145,17.6440391540527,17.642032623291,17.6400279998779,17.6380214691162,17.6360168457031,17.6340141296387,17.6320095062256,17.6300067901611,17.6280040740967,17.6260013580322,17.6239986419678,17.621997833252,17.6199970245361,17.6179962158203,17.6159973144531,17.6139965057373,17.6119976043701,17.6099987030029,17.6080017089844,17.6060028076172,17.6040058135986,17.6020431518555,17.6000862121582,17.5981311798096,17.5961761474609,17.5942230224609,17.5922679901123,17.6020832061768,17.6987762451172,17.7088756561279,17.7087898254395,17.708703994751,17.7086181640625,17.708532333374,17.7084465026855,17.7083606719971,17.7082748413086,17.7081890106201,17.7081031799316,17.7080173492432,17.7079315185547,17.7078475952148,17.7077617645264,17.7076759338379,17.7075901031494,17.7075042724609,17.7074184417725,17.707332611084,17.7072467803955,17.707160949707,17.7070751190186,17.7069892883301,17.7069034576416,17.7068176269531,17.7067317962646,15.7479314804077,15.7478551864624,15.7477788925171,15.7477025985718,15.7476263046265,15.7475500106812,15.7474737167358,15.7473974227905,15.7473211288452,15.7472448348999,15.7471685409546,15.7470922470093,15.747015953064,15.7469396591187,15.7468633651733,15.746787071228,15.7467098236084,15.7466335296631,15.7465572357178,15.7464809417725,15.7464046478271,15.7463283538818,15.7462520599365,15.7461757659912,15.7460994720459,15.7460231781006,15.7459468841553,15.74587059021,15.7457942962646,15.7457180023193,15.745641708374,15.7455654144287,15.7454891204834,15.7454128265381,15.7453365325928,15.7452602386475,15.7451839447021,15.7451076507568,15.7450313568115,15.7449550628662,15.7448787689209,15.7448024749756,15.7447261810303,15.744649887085,15.7445735931396,15.7444972991943,15.744421005249,15.744345664978,15.7442693710327,15.7441930770874,15.7441167831421,15.7440404891968,15.7439641952515,15.7438879013062,15.7438125610352,15.7437362670898,15.7436599731445,15.7435836791992,15.7435073852539,15.7434310913086,15.7433547973633,15.7432794570923,15.743203163147,15.7431268692017,15.7430505752563,15.742974281311,15.7428979873657,15.7428216934204,15.7427463531494,15.7426700592041,15.7425937652588,15.7425174713135,15.7424411773682,15.7423648834229,15.7422885894775,15.7422122955322,15.7421369552612,15.7420606613159,15.7419843673706,15.7419080734253,15.74183177948,15.7417554855347,15.7416791915894,15.7416038513184,15.741527557373,15.7414512634277,15.7413749694824,15.7412986755371,15.7412223815918
