16.8294792175293,16.8294296264648,16.8293800354004,16.8293304443359,16.8292808532715,16.829231262207,16.8291835784912,14.8884477615356,14.8884048461914,16.6130332946777,16.6129837036133,16.6859569549561,16.6859092712402,16.6858615875244,16.6858139038086,16.6857643127441,16.6857147216797,16.6856670379639,16.6856174468994,16.685567855835,16.6855201721191,16.6854705810547,14.887791633606,14.8877487182617,16.68532371521,16.6852741241455,16.6852264404297,16.6851768493652,16.6851272583008,16.685079574585,16.6850299835205,16.6849803924561,16.6849327087402,16.6848831176758,16.6848335266113,16.6847839355469,16.6847362518311,14.8871355056763,14.887092590332,14.8870487213135,16.6845378875732,16.6844902038574,16.684440612793,16.6843910217285,16.6596660614014,16.6112747192383,16.6112270355225,16.7443656921387,16.7443161010742,16.7442665100098,16.7442188262939,16.7441692352295,16.744119644165,14.886435508728,14.8863925933838,16.7439708709717,16.7439231872559,16.7438735961914,16.743824005127,16.7437744140625,16.743724822998,16.7436752319336,16.7436275482178,16.7435779571533,16.4202308654785,16.0366134643555,15.6529989242554,15.2693881988525,14.8857793807983,14.8857364654541,16.7432327270508,16.7431831359863,16.7431335449219,16.7430839538574,16.7430362701416,16.7429866790771,16.7429370880127,16.7428874969482,16.7428379058838,16.7427883148193,16.7427406311035,16.7426910400391,16.7426414489746,16.7425918579102,16.7425422668457,16.7424945831299,16.7424449920654,16.742395401001,16.7423458099365,16.7422962188721,16.7422466278076,16.7421989440918,16.7421493530273,16.7420997619629,16.7420501708984,16.742000579834,16.7419528961182,16.7419033050537,16.7418537139893,16.7418041229248,16.741756439209,16.7417068481445,16.7416572570801,16.7416076660156,16.7415580749512,16.7415103912354,16.7414608001709,16.7414112091064,16.741361618042,16.7413120269775,16.7412643432617,16.7412147521973,16.7411651611328,16.7411155700684,16.7410659790039,16.7410182952881,16.7409687042236,16.7409191131592,16.7408695220947,16.7408199310303,16.7407722473145,16.74072265625,16.7406730651855,16.7406234741211,16.7405738830566,16.7405261993408,16.7404766082764,16.7404270172119,16.7403774261475,16.740327835083,16.7402801513672,16.7402305603027,16.7401809692383,16.7401313781738,16.740083694458,16.7400341033936,16.7399845123291,16.7399349212646,16.7398853302002,16.7398376464844,16.7397880554199,16.7397384643555,16.739688873291,16.7396392822266,16.7395915985107,16.7395420074463,16.7018566131592,16.7018089294434,16.7017593383789,16.7017097473145,16.8126983642578,16.8126468658447,16.8489837646484,16.848934173584,16.8488845825195,16.8488349914551,16.8487854003906,16.8487358093262,16.8486862182617,16.8486366271973,16.8485870361328,16.8485374450684,16.8484878540039,16.8484382629395,16.848388671875,16.8483390808105,16.8482894897461,16.8482398986816,16.8481903076172,16.8481407165527,16.811710357666,16.8480415344238,16.8479919433594,16.8479423522949,16.8478927612305,16.847843170166,16.8477935791016,16.8477439880371,16.8476943969727,16.8476448059082,16.8475971221924,16.8475475311279,16.8474979400635,16.847448348999,16.8473987579346,16.8473491668701,16.8472995758057,16.8472499847412,16.8472003936768,16.8107719421387,16.8107242584229
16.8312511444092,16.8312015533447,16.8311519622803,16.8311023712158,16.8310527801514,16.8310031890869,16.8309555053711,14.8900156021118,14.8899717330933,16.614782333374,16.6147327423096,16.6877155303955,16.6876659393311,16.6876182556152,16.6875705718994,16.687520980835,16.6874713897705,16.6874237060547,16.6873741149902,16.6873245239258,16.68727684021,16.6872272491455,14.8893585205078,14.8893156051636,16.6870803833008,16.6870307922363,16.6869812011719,16.6869335174561,16.6868839263916,16.6868343353271,16.6867866516113,16.6867370605469,16.6866874694824,16.6866397857666,16.6865901947021,16.6865406036377,16.6864910125732,14.8887033462524,14.8886594772339,14.8886156082153,16.6862945556641,16.6862468719482,16.6861972808838,16.6861476898193,16.6540088653564,16.6130237579346,16.6129760742188,16.7461280822754,16.7460803985596,16.7460308074951,16.7459812164307,16.7459316253662,14.9483270645142,14.8880023956299,14.8879594802856,16.745735168457,16.7456855773926,16.7456359863281,16.7455863952637,16.7455368041992,16.7454872131348,16.7454395294189,16.7453899383545,16.74534034729,16.4219589233398,16.0383014678955,15.6546468734741,15.2709951400757,14.8873462677002,14.887303352356,16.7449951171875,16.744945526123,16.7448959350586,16.7448482513428,16.7447986602783,16.7447490692139,16.7446994781494,16.744649887085,16.7446002960205,16.7445526123047,16.7445030212402,16.7444534301758,16.7444038391113,16.7443542480469,16.7443046569824,16.744255065918,16.7442073822021,16.7441577911377,16.7441082000732,16.7440586090088,16.7440090179443,16.7439613342285,16.7439117431641,16.7438621520996,16.7438125610352,16.7437629699707,16.7437152862549,16.7436656951904,16.743616104126,16.7435665130615,16.7435169219971,16.7434692382812,16.7434196472168,16.7433700561523,16.7433204650879,16.7432708740234,16.7432231903076,16.7431735992432,16.7431240081787,16.7430744171143,16.7430248260498,16.742977142334,16.7429275512695,16.7428779602051,16.7428283691406,16.7427787780762,16.7427310943604,16.7426815032959,16.7426319122314,16.742582321167,16.7425327301025,16.7424850463867,16.7424354553223,16.7423858642578,16.7423362731934,16.7422866821289,16.7422389984131,16.7421894073486,16.7421398162842,16.7420902252197,16.7420406341553,16.7419929504395,16.741943359375,16.7418937683105,16.7418441772461,16.7417945861816,16.7417469024658,16.7416973114014,16.7416477203369,16.7415981292725,16.741548538208,16.7415008544922,16.7414512634277,16.7414016723633,16.7413520812988,16.7413024902344,16.7036151885986,16.7035655975342,16.7035160064697,16.7034664154053,16.8144664764404,16.8144149780273,16.8507556915283,16.8507061004639,16.8506565093994,16.850606918335,16.8505573272705,16.8505077362061,16.8504581451416,16.8504085540771,16.8503589630127,16.8503093719482,16.8502597808838,16.8502101898193,16.8501605987549,16.8501110076904,16.850061416626,16.8500118255615,16.8499622344971,16.8480911254883,16.8134803771973,16.8498134613037,16.8497638702393,16.8497142791748,16.849666595459,16.8496170043945,16.8495674133301,16.8495178222656,16.8494682312012,16.8494186401367,16.8493690490723,16.8493194580078,16.8492698669434,16.8492202758789,16.8491706848145,16.84912109375,16.8490715026855,16.8490238189697,16.8489742279053,16.8125400543213,16.8124923706055
16.8330230712891,16.8329734802246,16.8329238891602,16.8328742980957,16.8328247070312,16.8327751159668,16.832727432251,14.891583442688,14.8915395736694,16.6165313720703,16.6164817810059,16.6894721984863,16.6894245147705,16.6893749237061,16.6893272399902,16.6892776489258,16.6892280578613,16.6891803741455,16.6891307830811,16.6890811920166,16.6890335083008,16.6889839172363,14.890926361084,14.8908834457397,16.6888370513916,16.6887874603271,16.6887397766113,16.6886901855469,16.6886405944824,16.6885929107666,16.6885433197021,16.6884937286377,16.6884460449219,16.6883964538574,16.688346862793,16.6882972717285,16.6882495880127,14.8902702331543,14.8902273178101,14.8901834487915,16.6880512237549,16.6880035400391,16.6879539489746,16.6879043579102,16.6483573913574,16.6147727966309,16.614725112915,16.7478923797607,16.7478427886963,16.7477931976318,16.7477436065674,16.7476940155029,14.9445371627808,14.8895702362061,14.8895273208618,16.7474975585938,16.7474479675293,16.7473983764648,16.7473487854004,16.7473011016846,16.7472515106201,16.7472019195557,16.7471523284912,16.7471027374268,16.4236888885498,16.0399894714355,15.6562948226929,15.2726030349731,14.8889141082764,14.8888702392578,16.7467575073242,16.7467079162598,16.7466602325439,16.7466106414795,16.746561050415,16.7465114593506,16.7464618682861,16.7464122772217,16.7463645935059,16.7463150024414,16.746265411377,16.7462158203125,16.746166229248,16.7461166381836,16.7460689544678,16.7460193634033,16.7459697723389,16.7459201812744,16.74587059021,16.7458209991455,16.7457714080811,16.7457237243652,16.7456741333008,16.7456245422363,16.7455749511719,16.7455253601074,16.7454776763916,16.7454280853271,16.7453784942627,16.7453289031982,16.7452793121338,16.745231628418,16.7451820373535,16.7451324462891,16.7450828552246,16.7450332641602,16.7449836730957,16.7449359893799,16.7448863983154,16.744836807251,16.7447872161865,16.7447376251221,16.7446899414062,16.7446403503418,16.7445907592773,16.7445411682129,16.7444915771484,16.7444438934326,16.7443943023682,16.7443447113037,16.7442951202393,16.7442455291748,16.744197845459,16.7441482543945,16.7440986633301,16.7440490722656,16.7439994812012,16.7439517974854,16.7439022064209,16.7438526153564,16.743803024292,16.7437534332275,16.7437057495117,16.7436561584473,16.7436065673828,16.7435569763184,16.7435073852539,16.7434597015381,16.7434101104736,16.7433605194092,16.7433109283447,16.7432613372803,16.7432136535645,16.7431640625,16.7431144714355,16.7430648803711,16.7053718566895,16.7053241729736,16.7052745819092,16.7052249908447,16.8162364959717,16.8161849975586,16.8525295257568,16.8524799346924,16.8524303436279,16.8523807525635,16.852331161499,16.8522815704346,16.8522319793701,16.8521823883057,16.8521327972412,16.8520832061768,16.8520336151123,16.8519840240479,16.8519344329834,16.8518848419189,16.8518352508545,16.85178565979,16.8517360687256,16.8472671508789,16.8152484893799,16.8515872955322,16.8515377044678,16.8514881134033,16.8514385223389,16.8513889312744,16.85133934021,16.8512897491455,16.8512420654297,16.8511924743652,16.8511428833008,16.8510932922363,16.8510437011719,16.8509941101074,16.850944519043,16.8508949279785,16.8508453369141,16.8507957458496,16.8507461547852,16.8143100738525,16.8142604827881
16.8347949981689,16.8347454071045,16.83469581604,16.8346462249756,16.8345985412598,16.8345489501953,16.8344993591309,14.8931512832642,14.8931083679199,16.6182823181152,16.6182327270508,16.6912288665771,16.6911811828613,16.6911334991455,16.6910839080811,16.6910343170166,16.6909866333008,16.6909370422363,16.6908874511719,16.6908397674561,16.6907901763916,16.6907405853271,14.8924942016602,14.8924512863159,16.6905937194824,16.6905460357666,16.6904964447021,16.6904468536377,16.6903991699219,16.6903495788574,16.690299987793,16.6902503967285,16.6902027130127,16.6901531219482,16.6901035308838,16.690055847168,16.6900062561035,14.8918380737305,14.8917951583862,14.8917503356934,16.6898097991943,16.6897602081299,16.6897106170654,16.689661026001,16.6427097320557,16.6165218353271,16.6164741516113,16.7496547698975,16.749605178833,16.7495574951172,16.7495079040527,16.7494583129883,14.9407501220703,14.8911380767822,14.8910942077637,16.7492599487305,16.7492122650146,16.7491626739502,16.7491130828857,16.7490634918213,16.7490139007568,16.7489643096924,16.7489166259766,16.7488670349121,16.4254169464111,16.0416793823242,15.6579427719116,15.2742109298706,14.8904809951782,14.890438079834,16.7485218048096,16.7484722137451,16.7484226226807,16.7483730316162,16.7483234405518,16.7482757568359,16.7482261657715,16.748176574707,16.7481269836426,16.7480773925781,16.7480278015137,16.7479782104492,16.7479305267334,16.7478809356689,16.7478313446045,16.74778175354,16.7477321624756,16.7476825714111,16.7476329803467,16.7475852966309,16.7475357055664,16.747486114502,16.7474365234375,16.747386932373,16.7473373413086,16.7472896575928,16.7472400665283,16.7471904754639,16.7471408843994,16.747091293335,16.7470436096191,16.7469940185547,16.7469444274902,16.7468948364258,16.7468452453613,16.7467956542969,16.7467479705811,16.7466983795166,16.7466487884521,16.7465991973877,16.7465496063232,16.7465019226074,16.746452331543,16.7464027404785,16.7463531494141,16.7463035583496,16.7462558746338,16.7462062835693,16.7461566925049,16.7461071014404,16.746057510376,16.7460098266602,16.7459602355957,16.7459106445312,16.7458610534668,16.7458114624023,16.7457618713379,16.7457141876221,16.7456645965576,16.7456150054932,16.7455654144287,16.7455158233643,16.7454681396484,16.745418548584,16.7453689575195,16.7453193664551,16.7452697753906,16.7452220916748,16.7451725006104,16.7451229095459,16.7450733184814,16.745023727417,16.7449760437012,16.7449264526367,16.7448768615723,16.7448272705078,16.7071304321289,16.7070827484131,16.7070331573486,16.7069835662842,16.8180065155029,16.8179550170898,16.8543033599854,16.8542537689209,16.8542041778564,16.854154586792,16.8541049957275,16.8540554046631,16.8540058135986,16.8539562225342,16.8539066314697,16.8538570404053,16.8538074493408,16.8537559509277,16.8537063598633,16.8536586761475,16.853609085083,16.8535594940186,16.8535099029541,16.8464431762695,16.8170185089111,16.8533611297607,16.8533115386963,16.8532619476318,16.8532123565674,16.8531627655029,16.8531131744385,16.853063583374,16.8530139923096,16.8529644012451,16.8529167175293,16.8528671264648,16.8528175354004,16.8527679443359,16.8527183532715,16.852668762207,16.8526191711426,16.8525695800781,16.8525199890137,16.8160800933838,16.8160305023193
16.8365688323975,16.836519241333,16.8364696502686,16.8364200592041,16.8363704681396,16.8363208770752,16.8362712860107,14.8947200775146,14.8946762084961,16.6200313568115,16.6199817657471,16.6929874420166,16.6929397583008,16.6928901672363,16.6928424835205,16.6927928924561,16.6927433013916,16.6926956176758,16.6926460266113,16.6925964355469,16.6925468444824,16.6924991607666,14.8940629959106,14.8940200805664,16.6923522949219,16.6923027038574,16.692253112793,16.6922054290771,16.6921558380127,16.6921062469482,16.6920585632324,16.692008972168,16.6919593811035,16.6919116973877,16.6918621063232,16.6918125152588,16.6917629241943,14.893406867981,14.8933629989624,14.8933191299438,16.6915664672852,16.6915168762207,16.6914691925049,16.6914196014404,16.6370639801025,16.6182727813721,16.6182231903076,16.7514190673828,16.7513694763184,16.7513198852539,16.7512722015381,16.7512226104736,14.9369649887085,14.8927059173584,14.8926630020142,16.7510242462158,16.7509746551514,16.7509269714355,16.7508773803711,16.7508277893066,16.7507781982422,16.7507286071777,16.7506790161133,16.7506294250488,16.4271469116211,16.0433673858643,15.6595916748047,15.2758188247681,14.8920488357544,14.8920059204102,16.7502841949463,16.7502365112305,16.750186920166,16.7501373291016,16.7500877380371,16.7500381469727,16.7499885559082,16.7499389648438,16.7498912811279,16.7498416900635,16.749792098999,16.7497425079346,16.7496929168701,16.7496433258057,16.7495937347412,16.7495460510254,16.7494964599609,16.7494468688965,16.749397277832,16.7493476867676,16.7492980957031,16.7492485046387,16.7492008209229,16.7491512298584,16.7491016387939,16.7490520477295,16.749002456665,16.7489528656006,16.7489051818848,16.7488555908203,16.7488059997559,16.7487564086914,16.748706817627,16.7486572265625,16.7486095428467,16.7485599517822,16.7485103607178,16.7484607696533,16.7484111785889,16.748363494873,16.7483139038086,16.7482643127441,16.7482147216797,16.7481651306152,16.7481155395508,16.748067855835,16.7480182647705,16.7479686737061,16.7479190826416,16.7478694915771,16.7478218078613,16.7477722167969,16.7477226257324,16.747673034668,16.7476234436035,16.7475757598877,16.7475261688232,16.7474765777588,16.7474269866943,16.7473773956299,16.7473278045654,16.7472801208496,16.7472305297852,16.7471809387207,16.7471313476562,16.7470817565918,16.747034072876,16.7469844818115,16.7469348907471,16.7468852996826,16.7468357086182,16.7467880249023,16.7467384338379,16.7466888427734,16.746639251709,16.7465896606445,16.7088890075684,16.7088413238525,16.7087917327881,16.7087421417236,16.8197765350342,16.8197269439697,16.8560771942139,16.8560276031494,16.855978012085,16.8559284210205,16.8558788299561,16.8558292388916,16.8557796478271,16.8557300567627,16.8556804656982,16.8556308746338,16.8555812835693,16.8555316925049,16.8554821014404,16.855432510376,16.8553829193115,16.8553333282471,16.8552837371826,16.8456192016602,16.8187885284424,16.8551349639893,16.8550853729248,16.8550357818604,16.8549861907959,16.8549365997314,16.854887008667,16.8548374176025,16.8547897338867,16.8547401428223,16.8546905517578,16.8546409606934,16.8545913696289,16.8545417785645,16.8544921875,16.8544425964355,16.8543930053711,16.8543434143066,16.8542938232422,16.817850112915,16.8178005218506
16.8383407592773,16.8382911682129,16.8382415771484,16.8381938934326,16.8381443023682,16.8380947113037,16.8380451202393,14.8962888717651,14.8962450027466,16.6217823028564,16.621732711792,16.6947460174561,16.6946964263916,16.6946487426758,16.6945991516113,16.6945514678955,16.6945018768311,16.6944522857666,16.6944046020508,16.6943550109863,16.6943054199219,16.6942577362061,14.8956317901611,14.8955879211426,16.6941089630127,16.6940612792969,16.6940116882324,16.693962097168,16.6939144134521,16.6938648223877,16.6938152313232,16.6937675476074,16.693717956543,16.6936683654785,16.6936206817627,16.6935710906982,16.6935214996338,14.8949756622314,14.8949317932129,14.89488697052,16.6933250427246,16.6932754516602,16.6932258605957,16.6931762695312,16.6314239501953,16.6200218200684,16.6199741363525,16.7531833648682,16.7531337738037,16.7530841827393,16.7530345916748,16.752986907959,14.9331817626953,14.8942737579346,14.8942308425903,16.7527885437012,16.7527389526367,16.7526893615723,16.7526416778564,16.752592086792,16.7525424957275,16.7524929046631,16.7524433135986,16.7523937225342,16.4288768768311,16.0450572967529,15.6612405776978,15.2774276733398,14.8936176300049,14.8935737609863,16.7520484924316,16.7519989013672,16.7519512176514,16.7519016265869,16.7518520355225,16.751802444458,16.7517528533936,16.7517032623291,16.7516536712646,16.7516059875488,16.7515563964844,16.7515068054199,16.7514572143555,16.751407623291,16.7513580322266,16.7513084411621,16.7512607574463,16.7512111663818,16.7511615753174,16.7511119842529,16.7510623931885,16.751012802124,16.7509632110596,16.7509155273438,16.7508659362793,16.7508163452148,16.7507667541504,16.7507171630859,16.7506675720215,16.750617980957,16.7505702972412,16.7505207061768,16.7504711151123,16.7504215240479,16.7503719329834,16.7503223419189,16.7502746582031,16.7502250671387,16.7501754760742,16.7501258850098,16.7500762939453,16.7500267028809,16.749979019165,16.7499294281006,16.7498798370361,16.7498302459717,16.7497806549072,16.7497329711914,16.749683380127,16.7496337890625,16.749584197998,16.7495346069336,16.7494850158691,16.7494373321533,16.7493877410889,16.7493381500244,16.74928855896,16.7492389678955,16.7491912841797,16.7491416931152,16.7490921020508,16.7490425109863,16.7489929199219,16.7489433288574,16.7488956451416,16.7488460540771,16.7487964630127,16.7487468719482,16.7486972808838,16.748649597168,16.7486000061035,16.7485504150391,16.7485008239746,16.7484512329102,16.7484016418457,16.7483539581299,16.7106494903564,16.710599899292,16.7105503082275,16.7105007171631,16.8215484619141,16.821496963501,16.8578510284424,16.8578014373779,16.8577518463135,16.857702255249,16.8576526641846,16.8576030731201,16.8575534820557,16.8575038909912,16.8574542999268,16.8574047088623,16.8573551177979,16.8573055267334,16.8572559356689,16.8572063446045,16.85715675354,16.8571071624756,16.8570575714111,16.8447933197021,16.8205585479736,16.8569087982178,16.8568592071533,16.8568115234375,16.856761932373,16.8567123413086,16.8566627502441,16.8566131591797,16.8565635681152,16.8565139770508,16.8564643859863,16.8564147949219,16.8563652038574,16.856315612793,16.8562660217285,16.8562164306641,16.8561668395996,16.8561172485352,16.8560676574707,16.8196201324463,16.8195705413818
16.8401145935059,16.8400650024414,16.840015411377,16.8399658203125,16.8399181365967,16.8398685455322,16.8398189544678,14.8978576660156,14.8978147506714,16.6235332489014,16.6234836578369,16.6965045928955,16.6964550018311,16.6964073181152,16.6963577270508,16.696310043335,16.6962604522705,16.6962108612061,16.6961631774902,16.6961135864258,16.6960639953613,16.6960144042969,14.8972005844116,14.8971576690674,16.6958675384521,16.6958198547363,16.6957702636719,16.6957206726074,16.6956729888916,16.6956233978271,16.6955738067627,16.6955242156982,16.6954765319824,16.695426940918,16.6953773498535,16.6953296661377,16.6952800750732,14.8965444564819,14.8965005874634,14.8964557647705,16.6950836181641,16.6950340270996,16.6949844360352,16.6949348449707,16.6257858276367,16.6217727661133,16.6217231750488,16.7549476623535,16.7548980712891,16.7548484802246,16.7548007965088,16.7547512054443,14.9293994903564,14.8958425521851,14.8957996368408,16.7545528411865,16.7545032501221,16.7544555664062,16.7544059753418,16.7543563842773,16.7543067932129,16.7542572021484,16.754207611084,16.7541580200195,16.430606842041,16.0467472076416,15.6628904342651,15.2790365219116,14.8951854705811,14.8951425552368,16.753812789917,16.7537631988525,16.7537155151367,16.7536659240723,16.7536163330078,16.7535667419434,16.7535171508789,16.7534675598145,16.75341796875,16.7533683776855,16.7533206939697,16.7532711029053,16.7532215118408,16.7531719207764,16.7531223297119,16.7530727386475,16.753023147583,16.7529754638672,16.7529258728027,16.7528762817383,16.7528266906738,16.7527770996094,16.7527275085449,16.7526779174805,16.7526302337646,16.7525806427002,16.7525310516357,16.7524814605713,16.7524318695068,16.7523822784424,16.7523326873779,16.7522850036621,16.7522354125977,16.7521858215332,16.7521362304688,16.7520866394043,16.7520370483398,16.7519874572754,16.7519397735596,16.7518901824951,16.7518405914307,16.7517910003662,16.7517414093018,16.7516937255859,16.7516441345215,16.751594543457,16.7515449523926,16.7514953613281,16.7514457702637,16.7513980865479,16.7513484954834,16.7512989044189,16.7512493133545,16.75119972229,16.7511501312256,16.7511024475098,16.7510528564453,16.7510032653809,16.7509536743164,16.750904083252,16.7508563995361,16.7508068084717,16.7507572174072,16.7507076263428,16.7506580352783,16.7506084442139,16.750560760498,16.7505111694336,16.7504615783691,16.7504119873047,16.7503623962402,16.7503128051758,16.75026512146,16.7502155303955,16.7501659393311,16.7501163482666,16.7124080657959,16.7123584747314,16.712308883667,16.7122611999512,16.8233184814453,16.8232688903809,16.8596267700195,16.8595771789551,16.8595275878906,16.8594779968262,16.8594284057617,16.8593769073486,16.8593273162842,16.8592777252197,16.8592281341553,16.8591785430908,16.8591289520264,16.8590793609619,16.8590316772461,16.8589820861816,16.8589324951172,16.8588829040527,16.8588333129883,16.8439693450928,16.8223304748535,16.8586845397949,16.8586349487305,16.858585357666,16.8585357666016,16.8584861755371,16.8584365844727,16.8583869934082,16.8583374023438,16.8582878112793,16.8582382202148,16.8581886291504,16.8581409454346,16.8580913543701,16.8580417633057,16.8579921722412,16.8579425811768,16.8578929901123,16.8578433990479,16.8213920593262,16.8213424682617
16.8418884277344,16.8418388366699,16.8417892456055,16.8417415618896,16.8416919708252,16.8416423797607,16.8415927886963,14.8994264602661,14.8993835449219,16.6252841949463,16.6252346038818,16.698263168335,16.6982135772705,16.6981658935547,16.6981163024902,16.6980686187744,16.69801902771,16.6979694366455,16.6979217529297,16.6978721618652,16.6978225708008,16.697774887085,14.8987693786621,14.8987264633179,16.6976261138916,16.6975784301758,16.6975288391113,16.6974792480469,16.6974315643311,16.6973819732666,16.6973323822021,16.6972846984863,16.6972351074219,16.6971855163574,16.697135925293,16.6970882415771,16.6970386505127,14.8981132507324,14.8980703353882,14.898024559021,16.6968421936035,16.6967926025391,16.6967430114746,16.6966934204102,16.623571395874,16.6235237121582,16.6234741210938,16.7567138671875,16.756664276123,16.7566146850586,16.7565650939941,16.7565155029297,14.9256200790405,14.8974113464355,14.8973684310913,16.7563190460205,16.7562694549561,16.7562198638916,16.7561702728271,16.7561206817627,16.7560710906982,16.7560214996338,16.7559719085693,16.7559242248535,16.432336807251,16.0484371185303,15.6645402908325,15.2806463241577,14.8967542648315,14.8967113494873,16.755578994751,16.7555294036865,16.7554798126221,16.7554302215576,16.7553806304932,16.7553310394287,16.7552814483643,16.7552318572998,16.755184173584,16.7551345825195,16.7550849914551,16.7550354003906,16.7549858093262,16.7549362182617,16.7548866271973,16.7548370361328,16.754789352417,16.7547397613525,16.7546901702881,16.7546405792236,16.7545909881592,16.7545413970947,16.7544918060303,16.7544441223145,16.75439453125,16.7543449401855,16.7542953491211,16.7542457580566,16.7541961669922,16.7541465759277,16.7540969848633,16.7540493011475,16.753999710083,16.7539501190186,16.7539005279541,16.7538509368896,16.7538013458252,16.7537517547607,16.7537040710449,16.7536544799805,16.753604888916,16.7535552978516,16.7535057067871,16.7534561157227,16.7534084320068,16.7533588409424,16.7533092498779,16.7532596588135,16.753210067749,16.7531604766846,16.7531127929688,16.7530632019043,16.7530136108398,16.7529640197754,16.7529144287109,16.7528648376465,16.7528171539307,16.7527675628662,16.7527179718018,16.7526683807373,16.7526187896729,16.7525691986084,16.7525215148926,16.7524719238281,16.7524223327637,16.7523727416992,16.7523231506348,16.7522754669189,16.7522258758545,16.75217628479,16.7521266937256,16.7520771026611,16.7520275115967,16.7519798278809,16.7519302368164,16.751880645752,16.714168548584,16.7141189575195,16.7140693664551,16.7140197753906,16.8250904083252,16.8250389099121,16.861400604248,16.8613510131836,16.8613014221191,16.8612518310547,16.8612022399902,16.8611526489258,16.8611030578613,16.8610534667969,16.8610038757324,16.860954284668,16.8609046936035,16.8608551025391,16.8608055114746,16.8607559204102,16.8607063293457,16.8606567382812,16.8606071472168,16.8431453704834,16.8241004943848,16.8604602813721,16.8604106903076,16.8603610992432,16.8603115081787,16.8602619171143,16.8602123260498,16.8601627349854,16.8601131439209,16.8600635528564,16.860013961792,16.8599643707275,16.8599147796631,16.8598651885986,16.8598155975342,16.8597660064697,16.8597164154053,16.8596668243408,16.8596172332764,16.8231620788574,16.823112487793
16.8436622619629,16.8436145782471,16.8435649871826,16.8435153961182,16.8434658050537,16.8434162139893,16.8433666229248,14.9009971618652,14.9009532928467,16.6270351409912,16.6269855499268,16.7000217437744,16.6999740600586,16.6999244689941,16.6998767852783,16.6998271942139,16.6997776031494,16.6997299194336,16.6996803283691,16.6996307373047,16.6995830535889,16.6995334625244,14.9003391265869,14.9002962112427,16.6993865966797,16.6993370056152,16.6992874145508,16.699239730835,16.6991901397705,16.6991405487061,16.6990909576416,16.6990432739258,16.6989936828613,16.6989440917969,16.6988964080811,16.6988468170166,16.6987972259521,14.8996829986572,14.8996391296387,14.8995943069458,16.698600769043,16.6985511779785,16.6985015869141,16.6984519958496,16.6253223419189,16.6252746582031,16.6252250671387,16.7584781646729,16.7584285736084,16.7583789825439,16.7583293914795,16.7582817077637,14.9218425750732,14.8989810943604,14.8989381790161,16.7580833435059,16.7580337524414,16.757984161377,16.7579345703125,16.7578868865967,16.7578372955322,16.7577877044678,16.7577381134033,16.7576885223389,16.4340686798096,16.0501289367676,15.6661901473999,15.2822561264038,14.8983240127563,14.8982810974121,16.7573432922363,16.7572937011719,16.7572441101074,16.757194519043,16.7571449279785,16.7570972442627,16.7570476531982,16.7569980621338,16.7569484710693,16.7568988800049,16.7568492889404,16.756799697876,16.7567501068115,16.7567024230957,16.7566528320312,16.7566032409668,16.7565536499023,16.7565040588379,16.7564544677734,16.756404876709,16.7563552856445,16.7563076019287,16.7562580108643,16.7562084197998,16.7561588287354,16.7561092376709,16.7560596466064,16.756010055542,16.7559604644775,16.7559127807617,16.7558631896973,16.7558135986328,16.7557640075684,16.7557144165039,16.7556648254395,16.755615234375,16.7555656433105,16.7555179595947,16.7554683685303,16.7554187774658,16.7553691864014,16.7553195953369,16.7552700042725,16.7552223205566,16.7551727294922,16.7551231384277,16.7550735473633,16.7550239562988,16.7549743652344,16.7549266815186,16.7548770904541,16.7548274993896,16.7547779083252,16.7547283172607,16.7546787261963,16.7546310424805,16.754581451416,16.7545318603516,16.7544822692871,16.7544326782227,16.7543830871582,16.7543354034424,16.7542858123779,16.7542362213135,16.754186630249,16.7541370391846,16.7540874481201,16.7540378570557,16.7539901733398,16.7539405822754,16.7538909912109,16.7538414001465,16.753791809082,16.7537422180176,16.7536945343018,16.7536449432373,16.7159271240234,16.7158794403076,16.7158298492432,16.7157802581787,16.8268623352051,16.826810836792,16.8631763458252,16.8631267547607,16.8630771636963,16.8630275726318,16.8629779815674,16.8629283905029,16.8628787994385,16.862829208374,16.8627796173096,16.8627300262451,16.8626804351807,16.8626308441162,16.8625812530518,16.8625316619873,16.8624820709229,16.8624324798584,16.8623828887939,16.842321395874,16.8258724212646,16.8622360229492,16.8621864318848,16.8621368408203,16.8620872497559,16.8620376586914,16.861988067627,16.8619384765625,16.861888885498,16.8618392944336,16.8617897033691,16.8617401123047,16.8616905212402,16.8616409301758,16.8615913391113,16.8615417480469,16.8614921569824,16.861442565918,16.8613929748535,16.8249340057373,16.8248844146729
16.84543800354,16.8453884124756,16.8453388214111,16.8452892303467,16.8452396392822,16.8451900482178,16.845142364502,14.90256690979,14.9025239944458,16.6287879943848,16.6287384033203,16.7017822265625,16.701732635498,16.7016849517822,16.7016353607178,16.701587677002,16.7015380859375,16.701488494873,16.7014389038086,16.7013912200928,16.7013416290283,16.7012920379639,14.901909828186,14.9018659591675,16.7011451721191,16.7010955810547,16.7010478973389,16.7009983062744,16.70094871521,16.7009010314941,16.7008514404297,16.7008018493652,16.7007522583008,16.700704574585,16.7006549835205,16.7006053924561,16.7005577087402,14.901252746582,14.9012098312378,14.9011640548706,16.7003593444824,16.7003116607666,16.7002620697021,16.7002124786377,16.6270751953125,16.627025604248,16.6269779205322,16.7602443695068,16.7601947784424,16.7601451873779,16.7600955963135,16.760046005249,14.9181451797485,14.9005508422852,14.9005069732666,16.7598495483398,16.7597999572754,16.7597503662109,16.7597007751465,16.759651184082,16.7596015930176,16.7595520019531,16.7595043182373,16.7594547271729,16.4357986450195,16.0518188476562,15.6678400039673,15.2838659286499,14.8998937606812,14.8998498916626,16.7591094970703,16.7590599060059,16.7590103149414,16.758960723877,16.7589111328125,16.758861541748,16.7588119506836,16.7587623596191,16.7587146759033,16.7586650848389,16.7586154937744,16.75856590271,16.7585163116455,16.7584667205811,16.7584171295166,16.7583675384521,16.7583179473877,16.7582702636719,16.7582206726074,16.758171081543,16.7581214904785,16.7580718994141,16.7580223083496,16.7579727172852,16.7579231262207,16.7578754425049,16.7578258514404,16.757776260376,16.7577266693115,16.7576770782471,16.7576274871826,16.7575778961182,16.7575283050537,16.7574806213379,16.7574310302734,16.757381439209,16.7573318481445,16.7572822570801,16.7572326660156,16.7571830749512,16.7571334838867,16.7570858001709,16.7570362091064,16.756986618042,16.7569370269775,16.7568874359131,16.7568378448486,16.7567882537842,16.7567405700684,16.7566909790039,16.7566413879395,16.756591796875,16.7565422058105,16.7564926147461,16.7564449310303,16.7563953399658,16.7563457489014,16.7562961578369,16.7562465667725,16.756196975708,16.7561492919922,16.7560997009277,16.7560501098633,16.7560005187988,16.7559509277344,16.7559013366699,16.7558536529541,16.7558040618896,16.7557544708252,16.7557048797607,16.7556552886963,16.7556056976318,16.7555561065674,16.7555084228516,16.7554588317871,16.7554092407227,16.7176876068115,16.7176399230957,16.7175903320312,16.7175407409668,16.828634262085,16.8285846710205,16.8649520874023,16.8649024963379,16.8648529052734,16.864803314209,16.8647537231445,16.8647041320801,16.8646545410156,16.8646049499512,16.8645553588867,16.8645057678223,16.8644561767578,16.8644065856934,16.8643569946289,16.8643074035645,16.8642578125,16.8642101287842,16.8641605377197,16.8414974212646,16.8276443481445,16.8640117645264,16.8639621734619,16.8639125823975,16.863862991333,16.8638134002686,16.8637638092041,16.8637142181396,16.8636646270752,16.8636150360107,16.8635654449463,16.8635158538818,16.8634662628174,16.8634166717529,16.8633670806885,16.863317489624,16.8632678985596,16.8632183074951,16.8631687164307,16.8267059326172,16.8266563415527
16.8472137451172,16.8471641540527,16.8471145629883,16.8470649719238,16.8470153808594,16.8469657897949,16.8469161987305,14.9041376113892,14.9040937423706,16.6305408477783,16.6304912567139,16.7035427093506,16.7034931182861,16.7034454345703,16.7033958435059,16.7033462524414,16.7032985687256,16.7032489776611,16.7031993865967,16.7031497955322,16.7031021118164,16.703052520752,14.9034795761108,14.9034366607666,16.7029056549072,16.7028560638428,16.7028064727783,16.7027587890625,16.702709197998,16.7026596069336,16.7026119232178,16.7025623321533,16.7025127410889,16.7024631500244,16.7024154663086,16.7023658752441,16.7023162841797,14.9028234481812,14.9027795791626,14.9027338027954,16.7021198272705,16.7020702362061,16.7020206451416,16.7019710540771,16.6288261413574,16.6287784576416,16.6287288665771,16.7620105743408,16.7619609832764,16.7619113922119,16.7618618011475,16.761812210083,14.9144926071167,14.90212059021,14.9020776748657,16.7616157531738,16.7615661621094,16.7615165710449,16.7614669799805,16.761417388916,16.7613677978516,16.7613182067871,16.7612686157227,16.7612209320068,16.4375305175781,16.0535106658936,15.669490814209,15.2854766845703,14.901463508606,14.9014196395874,16.7608737945557,16.7608242034912,16.7607765197754,16.7607269287109,16.7606773376465,16.760627746582,16.7605781555176,16.7605285644531,16.7604789733887,16.7604293823242,16.7603816986084,16.7603321075439,16.7602825164795,16.760232925415,16.7601833343506,16.7601337432861,16.7600841522217,16.7600345611572,16.7599849700928,16.759937286377,16.7598876953125,16.759838104248,16.7597885131836,16.7597389221191,16.7596893310547,16.7596397399902,16.7595901489258,16.7595405578613,16.7594928741455,16.7594432830811,16.7593936920166,16.7593441009521,16.7592945098877,16.7592449188232,16.7591953277588,16.7591457366943,16.7590980529785,16.7590484619141,16.7589988708496,16.7589492797852,16.7588996887207,16.7588500976562,16.7588005065918,16.7587509155273,16.7587013244629,16.7586536407471,16.7586040496826,16.7585544586182,16.7585048675537,16.7584552764893,16.7584056854248,16.758358001709,16.7583084106445,16.7582588195801,16.7582092285156,16.7581596374512,16.7581100463867,16.7580604553223,16.7580127716064,16.757963180542,16.7579135894775,16.7578639984131,16.7578144073486,16.7577648162842,16.7577171325684,16.7576675415039,16.7576179504395,16.757568359375,16.7575187683105,16.7574691772461,16.7574195861816,16.7573719024658,16.7573223114014,16.7572727203369,16.7572231292725,16.757173538208,16.7194499969482,16.7194004058838,16.7193508148193,16.7193012237549,16.8304080963135,16.8303565979004,16.8667297363281,16.866678237915,16.8666286468506,16.8665790557861,16.8665313720703,16.8664817810059,16.8664321899414,16.866382598877,16.8663330078125,16.866283416748,16.8662338256836,16.8661842346191,16.8661346435547,16.8660850524902,16.8660354614258,16.8659858703613,16.8659362792969,16.8406734466553,16.8294162750244,16.8657875061035,16.8657379150391,16.8656883239746,16.8656387329102,16.8655891418457,16.8655395507812,16.8654899597168,16.8654403686523,16.8653907775879,16.8653411865234,16.865291595459,16.8652420043945,16.8651924133301,16.8651428222656,16.8650932312012,16.8650436401367,16.8649940490723,16.8649463653564,16.8284778594971,16.8284282684326
16.8489875793457,16.8489398956299,16.8488903045654,16.848840713501,16.8487911224365,16.8487415313721,14.9057512283325,14.9057083129883,14.9056644439697,16.6322937011719,16.6322441101074,16.7053031921387,16.7052536010742,16.7052059173584,16.7051563262939,16.7051067352295,16.705057144165,16.7050094604492,16.7049598693848,16.7049102783203,16.7048625946045,16.70481300354,14.90505027771,14.9050073623657,16.7046661376953,16.7046165466309,16.7045669555664,16.7045192718506,16.7044696807861,16.7044200897217,16.7043704986572,16.7043228149414,16.704273223877,16.7042236328125,16.704174041748,16.7041263580322,16.7040767669678,14.9043941497803,14.9043502807617,14.9043045043945,16.7038803100586,16.7038307189941,16.7037811279297,16.7037315368652,16.630578994751,16.6305313110352,16.6304817199707,16.7637767791748,16.7637271881104,16.7636775970459,16.7636280059814,16.763578414917,14.9108409881592,14.9036903381348,14.9036474227905,16.7633819580078,16.7633323669434,16.7632827758789,16.7632331848145,16.76318359375,16.7631340026855,16.7630844116211,16.7630367279053,16.7629871368408,16.4392623901367,16.0552024841309,15.671142578125,15.2870874404907,14.9030332565308,14.9029903411865,16.7626399993896,16.7625904083252,16.7625427246094,16.7624931335449,16.7624435424805,16.762393951416,16.7623443603516,16.7622947692871,16.7622451782227,16.7621955871582,16.7621459960938,16.7620983123779,16.7620487213135,16.761999130249,16.7619495391846,16.7618999481201,16.7618503570557,16.7618007659912,16.7617511749268,16.7617015838623,16.7616539001465,16.761604309082,16.7615547180176,16.7615051269531,16.7614555358887,16.7614059448242,16.7613563537598,16.7613067626953,16.7612571716309,16.761209487915,16.7611598968506,16.7611103057861,16.7610607147217,16.7610111236572,16.7609615325928,16.7609119415283,16.7608623504639,16.7608127593994,16.7607650756836,16.7607154846191,16.7606658935547,16.7606163024902,16.7605667114258,16.7605171203613,16.7604675292969,16.7604179382324,16.760368347168,16.7603206634521,16.7602710723877,16.7602214813232,16.7601718902588,16.7601222991943,16.7600727081299,16.7600231170654,16.7599754333496,16.7599258422852,16.7598762512207,16.7598266601562,16.7597770690918,16.7597274780273,16.7596797943115,16.7596302032471,16.7595806121826,16.7595310211182,16.7594814300537,16.7594318389893,16.7593822479248,16.759334564209,16.7592849731445,16.7592353820801,16.7591857910156,16.7591361999512,16.7590866088867,16.7590370178223,16.7589893341064,16.758939743042,16.7212104797363,16.7211608886719,16.7211112976074,16.7210636138916,16.8321800231934,16.8685550689697,16.8685054779053,16.8684558868408,16.8684062957764,16.8683567047119,16.8683071136475,16.868257522583,16.8682079315186,16.8681583404541,16.8681087493896,16.8680591583252,16.8680095672607,16.8679599761963,16.8679103851318,16.8678607940674,16.8678112030029,16.8677616119385,16.867712020874,16.8398494720459,16.8311901092529,16.8675632476807,16.8675136566162,16.8674659729004,16.8674163818359,16.8673667907715,16.867317199707,16.8672676086426,16.8672180175781,16.8671684265137,16.8671188354492,16.8670692443848,16.8670196533203,16.8669700622559,16.8669204711914,16.866870880127,16.8668212890625,16.866771697998,16.8667221069336,16.8302516937256,16.8302001953125
16.8507652282715,16.850715637207,16.8506660461426,16.8506164550781,16.8505668640137,16.8505172729492,14.9073219299316,14.9072790145874,14.9072360992432,16.6340465545654,16.633996963501,16.7070636749268,16.7070140838623,16.7069664001465,16.706916809082,16.7068672180176,16.7068195343018,16.7067699432373,16.7067203521729,16.7066707611084,16.7066230773926,16.7065734863281,14.9066209793091,14.9065780639648,16.7064266204834,16.7063770294189,16.7063274383545,16.7062797546387,16.7062301635742,16.7061805725098,16.7061309814453,16.7060832977295,16.706033706665,16.7059841156006,16.7059345245361,16.7058868408203,16.7058372497559,14.9059648513794,14.9059209823608,14.9058752059937,16.7056407928467,16.7055912017822,16.7055416107178,16.7054920196533,16.6323318481445,16.6322822570801,16.6322345733643,16.7655429840088,16.7654933929443,16.7654438018799,16.7653961181641,16.7653465270996,14.9071912765503,14.9052610397339,14.9052181243896,16.7651481628418,16.7650985717773,16.7650489807129,16.7649993896484,16.764949798584,16.7649021148682,16.7648525238037,16.7648029327393,16.7647533416748,16.4409942626953,16.0568943023682,15.6727933883667,15.2886981964111,14.9046039581299,14.9045610427856,16.7644081115723,16.7643585205078,16.7643089294434,16.7642593383789,16.7642097473145,16.76416015625,16.7641105651855,16.7640609741211,16.7640113830566,16.7639636993408,16.7639141082764,16.7638645172119,16.7638149261475,16.763765335083,16.7637157440186,16.7636661529541,16.7636165618896,16.7635669708252,16.7635173797607,16.7634696960449,16.7634201049805,16.763370513916,16.7633209228516,16.7632713317871,16.7632217407227,16.7631721496582,16.7631225585938,16.7630729675293,16.7630252838135,16.762975692749,16.7629261016846,16.7628765106201,16.7628269195557,16.7627773284912,16.7627277374268,16.7626781463623,16.7626285552979,16.7625789642334,16.7625312805176,16.7624816894531,16.7624320983887,16.7623825073242,16.7623329162598,16.7622833251953,16.7622337341309,16.7621841430664,16.762134552002,16.7620868682861,16.7620372772217,16.7619876861572,16.7619380950928,16.7618885040283,16.7618389129639,16.7617893218994,16.761739730835,16.7616920471191,16.7616424560547,16.7615928649902,16.7615432739258,16.7614936828613,16.7614440917969,16.7613945007324,16.7613468170166,16.7612972259521,16.7612476348877,16.7611980438232,16.7611484527588,16.7610988616943,16.7610492706299,16.7610015869141,16.7609519958496,16.7609024047852,16.7608528137207,16.7608032226562,16.7607536315918,16.7607040405273,16.722972869873,16.7229232788086,16.7228736877441,16.7228240966797,16.8339538574219,16.8339023590088,16.833854675293,16.8338050842285,16.8337554931641,16.8337059020996,16.8336563110352,16.8336067199707,16.8335571289062,16.8335075378418,16.8334579467773,16.8334083557129,16.8697872161865,16.8697376251221,16.8696880340576,16.8696384429932,16.8695888519287,16.8695392608643,16.8694896697998,16.8390254974365,16.8329639434814,16.8693408966064,16.869291305542,16.8692417144775,16.8691921234131,16.8691425323486,16.8690929412842,16.8690433502197,16.8689937591553,16.8689441680908,16.8688945770264,16.8688449859619,16.8687953948975,16.868745803833,16.8686962127686,16.8686466217041,16.8685970306396,16.8685474395752,16.8684997558594,16.8320236206055,16.831974029541
16.8525409698486,16.8524913787842,16.8524417877197,16.8523921966553,16.8523426055908,16.8522930145264,14.9088935852051,14.9088506698608,14.9088077545166,16.635799407959,16.6357498168945,16.7088241577148,16.708776473999,16.7087268829346,16.7086772918701,16.7086296081543,16.7085800170898,16.7085304260254,16.7084808349609,16.7084331512451,16.7083835601807,16.7083339691162,14.9081926345825,14.9081497192383,16.7081871032715,16.708137512207,16.7080898284912,16.7080402374268,16.7079906463623,16.7079410552979,16.707893371582,16.7078437805176,16.7077941894531,16.7077445983887,16.7076969146729,16.7076473236084,16.7075977325439,14.9075355529785,14.90749168396,14.9074459075928,16.7074012756348,16.7073516845703,16.7073020935059,16.7072525024414,16.6340847015381,16.6340370178223,16.6339874267578,16.7673110961914,16.767261505127,16.7672119140625,16.767162322998,16.7671127319336,14.9068756103516,14.9068326950073,14.9067888259888,16.7669162750244,16.76686668396,16.7668170928955,16.7667675018311,16.7667179107666,16.7666683197021,16.7666187286377,16.7665691375732,16.7665195465088,16.4427280426025,16.0585861206055,15.6744451522827,15.2903099060059,14.906174659729,14.9061317443848,16.7661743164062,16.7661247253418,16.7660751342773,16.7660255432129,16.7659759521484,16.765926361084,16.7658786773682,16.7658290863037,16.7657794952393,16.7657299041748,16.7656803131104,16.7656307220459,16.7655811309814,16.765531539917,16.7654819488525,16.7654323577881,16.7653846740723,16.7653350830078,16.7652854919434,16.7652359008789,16.7651863098145,16.76513671875,16.7650871276855,16.7650375366211,16.7649879455566,16.7649383544922,16.7648906707764,16.7648410797119,16.7647914886475,16.764741897583,16.7646923065186,16.7646427154541,16.7645931243896,16.7645435333252,16.7644939422607,16.7644443511963,16.7643966674805,16.764347076416,16.7642974853516,16.7642478942871,16.7641983032227,16.7641487121582,16.7640991210938,16.7640495300293,16.7639999389648,16.7639503479004,16.7639026641846,16.7638530731201,16.7638034820557,16.7637538909912,16.7637042999268,16.7636547088623,16.7636051177979,16.7635555267334,16.7635059356689,16.7634582519531,16.7634086608887,16.7633590698242,16.7633094787598,16.7632598876953,16.7632102966309,16.7631607055664,16.7631130218506,16.7630634307861,16.7630138397217,16.7629642486572,16.7629146575928,16.7628650665283,16.7628154754639,16.762767791748,16.7627182006836,16.7626686096191,16.7626190185547,16.7625694274902,16.7625198364258,16.7624702453613,16.7247333526611,16.7246856689453,16.7246360778809,16.7245864868164,16.8357276916504,16.8356781005859,16.8356285095215,16.835578918457,16.8355293273926,16.8354797363281,16.8354301452637,16.8353805541992,16.8353309631348,16.8352813720703,16.8352317810059,16.8351821899414,16.835132598877,16.8350830078125,16.835033416748,16.8349838256836,16.8349342346191,16.8348846435547,16.8348350524902,16.8347854614258,16.8347358703613,16.8346881866455,16.8346385955811,16.8345890045166,16.8345394134521,16.8344898223877,16.8344402313232,16.8343906402588,16.8343410491943,16.8342914581299,16.8342418670654,16.834192276001,16.8341426849365,16.8340950012207,16.8340454101562,16.8339958190918,16.8339462280273,16.8338966369629,16.8338470458984,16.833797454834,16.8337459564209
16.8543167114258,16.8542671203613,16.8542175292969,16.8541679382324,16.854118347168,16.8540706634521,14.9104652404785,14.9104223251343,14.91037940979,16.6375541687012,16.6375026702881,16.7105865478516,16.7105369567871,16.7104892730713,16.7104396820068,16.7103900909424,16.7103404998779,16.7102928161621,16.7102432250977,16.7101936340332,16.7101440429688,16.7100963592529,14.909764289856,14.9097213745117,16.7099475860596,16.7098999023438,16.7098503112793,16.7098007202148,16.7097511291504,16.7097034454346,16.7096538543701,16.7096042633057,16.7095565795898,16.7095069885254,16.7094573974609,16.7094078063965,16.7093601226807,14.909107208252,14.9090633392334,14.9090175628662,16.7091617584229,16.709114074707,16.7090644836426,16.7090148925781,16.6358375549316,16.6357898712158,16.6357402801514,16.769079208374,16.7690296173096,16.7689800262451,16.7689304351807,16.7688808441162,14.908447265625,14.9084033966064,14.9083604812622,16.7686824798584,16.7686328887939,16.7685832977295,16.768533706665,16.7684860229492,16.7684364318848,16.7683868408203,16.7683372497559,16.7682876586914,16.4444599151611,16.0602798461914,15.676097869873,15.2919216156006,14.9077463150024,14.9077024459839,16.7679424285889,16.7678928375244,16.76784324646,16.7677936553955,16.7677440643311,16.7676944732666,16.7676448822021,16.7675952911377,16.7675457000732,16.7674961090088,16.767448425293,16.7673988342285,16.7673492431641,16.7672996520996,16.7672500610352,16.7672004699707,16.7671508789062,16.7671012878418,16.7670516967773,16.7670021057129,16.7669525146484,16.7669048309326,16.7668552398682,16.7668056488037,16.7667560577393,16.7667064666748,16.7666568756104,16.7666072845459,16.7665576934814,16.766508102417,16.7664585113525,16.7664089202881,16.7663612365723,16.7663116455078,16.7662620544434,16.7662124633789,16.7661628723145,16.76611328125,16.7660636901855,16.7660140991211,16.7659645080566,16.7659149169922,16.7658672332764,16.7658176422119,16.7657680511475,16.765718460083,16.7656688690186,16.7656192779541,16.7655696868896,16.7655200958252,16.7654705047607,16.7654209136963,16.7653732299805,16.765323638916,16.7652740478516,16.7652244567871,16.7651748657227,16.7651252746582,16.7650756835938,16.7650260925293,16.7649765014648,16.764928817749,16.7648792266846,16.7648296356201,16.7647800445557,16.7647304534912,16.7646808624268,16.7646312713623,16.7645835876465,16.764533996582,16.7644844055176,16.7644348144531,16.7643852233887,16.7643356323242,16.7642860412598,16.7642364501953,16.7264957427979,16.726448059082,16.7263984680176,16.7263488769531,16.8375015258789,16.8374519348145,16.83740234375,16.8373527526855,16.8373031616211,16.8372535705566,16.8372039794922,16.8371543884277,16.8371047973633,16.8370552062988,16.8370056152344,16.8369560241699,16.8369064331055,16.836856842041,16.8368072509766,16.8367576599121,16.8367080688477,16.8366584777832,16.8366088867188,16.8365592956543,16.8365116119385,16.836462020874,16.8364124298096,16.8363628387451,16.8363132476807,16.8362636566162,16.8362140655518,16.8361644744873,16.8361148834229,16.8360652923584,16.8360157012939,16.8359661102295,16.835916519165,16.8358669281006,16.8358173370361,16.8357696533203,16.8357200622559,16.8356704711914,16.835620880127,16.8355712890625,16.8355197906494
16.8560943603516,16.8560447692871,16.8559951782227,16.8559455871582,16.8558959960938,16.8558464050293,14.9120378494263,14.9119939804077,14.9119510650635,16.6393070220947,16.6392574310303,16.7123470306396,16.7122993469238,16.7122497558594,16.7122020721436,16.7121524810791,16.7121028900146,16.7120532989502,16.7120056152344,16.7119560241699,16.7119064331055,16.711856842041,14.9113359451294,14.9112930297852,16.7117099761963,16.7116603851318,16.711612701416,16.7115631103516,16.7115135192871,16.7114639282227,16.7114162445068,16.7113666534424,16.7113170623779,16.7112674713135,16.7112197875977,16.7111701965332,16.7111206054688,14.9106788635254,14.9106349945068,14.9105892181396,16.7109241485596,16.7108745574951,16.7108249664307,16.7107753753662,16.6375923156738,16.6375427246094,16.6374950408936,16.770845413208,16.7707977294922,16.7707481384277,16.7706985473633,16.7706489562988,14.9100179672241,14.9099750518799,14.9099321365356,16.770450592041,16.7704010009766,16.7703514099121,16.7703018188477,16.7702522277832,16.7702045440674,16.7701549530029,16.7701053619385,16.770055770874,16.4461936950684,16.0619716644287,15.6777496337891,15.2935333251953,14.9093170166016,14.9092741012573,16.7697086334229,16.7696590423584,16.7696113586426,16.7695617675781,16.7695121765137,16.7694625854492,16.7694129943848,16.7693634033203,16.7693138122559,16.7692642211914,16.769214630127,16.7691650390625,16.769115447998,16.7690677642822,16.7690181732178,16.7689685821533,16.7689189910889,16.7688694000244,16.76881980896,16.7687702178955,16.7687206268311,16.7686710357666,16.7686214447021,16.7685718536377,16.7685222625732,16.7684745788574,16.768424987793,16.7683753967285,16.7683258056641,16.7682762145996,16.7682266235352,16.7681770324707,16.7681274414062,16.7680778503418,16.7680282592773,16.7679786682129,16.7679309844971,16.7678813934326,16.7678318023682,16.7677822113037,16.7677326202393,16.7676830291748,16.7676334381104,16.7675838470459,16.7675342559814,16.767484664917,16.7674350738525,16.7673873901367,16.7673377990723,16.7672882080078,16.7672386169434,16.7671890258789,16.7671394348145,16.76708984375,16.7670402526855,16.7669906616211,16.7669410705566,16.7668933868408,16.7668437957764,16.7667942047119,16.7667446136475,16.766695022583,16.7666454315186,16.7665958404541,16.7665462493896,16.7664985656738,16.7664489746094,16.7663993835449,16.7663497924805,16.766300201416,16.7662506103516,16.7662010192871,16.7661514282227,16.7661037445068,16.7660541534424,16.7660045623779,16.7282600402832,16.7282104492188,16.7281608581543,16.7281112670898,16.8392772674561,16.839225769043,16.8391761779785,16.8391265869141,16.8390769958496,16.8390274047852,16.8389778137207,16.8389282226562,16.8388786315918,16.8388290405273,16.8387794494629,16.8387298583984,16.838680267334,16.8386306762695,16.8385810852051,16.8385314941406,16.8384819030762,16.8384323120117,16.8383846282959,16.8383350372314,16.838285446167,16.8382358551025,16.8381862640381,16.8381366729736,16.8380870819092,16.8380374908447,16.8379878997803,16.8379383087158,16.8378887176514,16.8378391265869,16.8377895355225,16.837739944458,16.8376903533936,16.8376407623291,16.8375930786133,16.8375434875488,16.8374938964844,16.8374443054199,16.8373947143555,16.837345123291,16.8372936248779
16.8578720092773,16.8578224182129,16.8577728271484,16.857723236084,16.8576736450195,16.8576240539551,14.9136095046997,14.9135665893555,14.9135236740112,16.6410617828369,16.6410121917725,16.7141094207764,16.7140617370605,16.7140121459961,16.7139625549316,16.7139148712158,16.7138652801514,16.7138156890869,16.7137660980225,16.7137184143066,16.7136688232422,16.7136192321777,14.9129085540771,14.9128656387329,16.713472366333,16.7134227752686,16.7133731842041,16.7133255004883,16.7132759094238,16.7132263183594,16.7131767272949,16.7131290435791,16.7130794525146,16.7130298614502,16.7129802703857,16.7129325866699,16.7128829956055,14.9122514724731,14.9122076034546,14.9121608734131,16.7126865386963,16.7126369476318,16.7125873565674,16.7125377655029,16.639347076416,16.6392974853516,16.6392478942871,16.7726154327393,16.7725658416748,16.7725162506104,16.7724666595459,16.7724170684814,14.9115905761719,14.9115467071533,14.9115037918091,16.7722187042236,16.7721691131592,16.7721195220947,16.7720699310303,16.7720203399658,16.77197265625,16.7719230651855,16.7718734741211,16.7718238830566,16.4479274749756,15.737720489502,15.6794023513794,15.2951459884644,14.9108896255493,14.9108457565308,16.7714767456055,16.771427154541,16.7713794708252,16.7713298797607,16.7712802886963,16.7712306976318,16.7711811065674,16.7711315155029,16.7710819244385,16.771032333374,16.7709827423096,16.7709331512451,16.7708835601807,16.7708339691162,16.7707843780518,16.7707366943359,16.7706871032715,16.770637512207,16.7705879211426,16.7705383300781,16.7704887390137,16.7704391479492,16.7703895568848,16.7703399658203,16.7702903747559,16.7702407836914,16.7701930999756,16.7701435089111,16.7700939178467,16.7700443267822,16.7699947357178,16.7699451446533,16.7698955535889,16.7698459625244,16.76979637146,16.7697467803955,16.7696971893311,16.7696475982666,16.7695999145508,16.7695503234863,16.7695007324219,16.7694511413574,16.769401550293,16.7693519592285,16.7693023681641,16.7692527770996,16.7692031860352,16.7691535949707,16.7691040039062,16.7690544128418,16.769006729126,16.7689571380615,16.7689075469971,16.7688579559326,16.7688083648682,16.7687587738037,16.7687091827393,16.7686595916748,16.7686100006104,16.7685604095459,16.7685108184814,16.7684631347656,16.7684135437012,16.7683639526367,16.7683143615723,16.7682647705078,16.7682151794434,16.7681655883789,16.7681159973145,16.7680683135986,16.7680187225342,16.7679691314697,16.7679195404053,16.7678699493408,16.7678203582764,16.7677707672119,16.7300224304199,16.7299728393555,16.729923248291,16.7298736572266,16.8410511016846,16.8410015106201,16.8409519195557,16.8409023284912,16.8408527374268,16.8408031463623,16.8407535552979,16.8407039642334,16.8406543731689,16.8406047821045,16.84055519104,16.8405055999756,16.8404560089111,16.8404064178467,16.8403568267822,16.8403072357178,16.8402576446533,16.8402080535889,16.8401584625244,16.84010887146,16.8400592803955,16.8400096893311,16.8399600982666,16.8399105072021,16.8398609161377,16.8398113250732,16.8397617340088,16.839714050293,16.8396644592285,16.8396148681641,16.8395652770996,16.8395156860352,16.8394660949707,16.8394165039062,16.8393669128418,16.8393173217773,16.8392677307129,16.8392181396484,16.839168548584,16.8391189575195,16.8390693664551
16.8596496582031,16.8596000671387,16.8595504760742,16.8595008850098,16.8594512939453,16.8594017028809,14.9151830673218,14.9151391983032,14.915096282959,16.6428165435791,16.6427669525146,16.7158737182617,16.7158241271973,16.7157745361328,16.715726852417,16.7156772613525,16.7156276702881,16.7155780792236,16.7155284881592,16.7154808044434,16.7154312133789,16.7153816223145,14.9144811630249,14.9144382476807,16.7152347564697,16.7151851654053,16.7151355743408,16.715087890625,16.7150382995605,16.7149887084961,16.7149391174316,16.7148914337158,16.7148418426514,16.7147922515869,16.7147426605225,16.7146949768066,16.7146453857422,14.9138240814209,14.913779258728,14.9137334823608,16.714448928833,16.7143993377686,16.7143497467041,16.7143001556396,16.6410999298096,16.6410522460938,16.6410026550293,16.7743835449219,16.7743339538574,16.774284362793,16.7742347717285,16.7741851806641,14.9131622314453,14.9131193161011,14.9130764007568,16.7739868164062,16.7739391326904,16.773889541626,16.7738399505615,16.7737903594971,16.7737407684326,16.7736911773682,16.7736415863037,16.7735919952393,16.1242752075195,15.7350673675537,15.681056022644,15.2967586517334,14.9124612808228,14.9124183654785,16.7732467651367,16.7731971740723,16.7731475830078,16.7730979919434,16.7730484008789,16.7729988098145,16.77294921875,16.7728996276855,16.7728500366211,16.7728004455566,16.7727508544922,16.7727012634277,16.7726516723633,16.7726039886475,16.772554397583,16.7725048065186,16.7724552154541,16.7724056243896,16.7723560333252,16.7723064422607,16.7722568511963,16.7722072601318,16.7721576690674,16.7721080780029,16.7720584869385,16.772008895874,16.7719612121582,16.7719116210938,16.7718620300293,16.7718124389648,16.7717628479004,16.7717132568359,16.7716636657715,16.771614074707,16.7715644836426,16.7715148925781,16.7714653015137,16.7714157104492,16.7713680267334,16.7713184356689,16.7712688446045,16.77121925354,16.7711696624756,16.7711200714111,16.7710704803467,16.7710208892822,16.7709712982178,16.7709217071533,16.7708721160889,16.7708225250244,16.77077293396,16.7707252502441,16.7706756591797,16.7706260681152,16.7705764770508,16.7705268859863,16.7704772949219,16.7704277038574,16.770378112793,16.7703285217285,16.7702789306641,16.7702293395996,16.7701797485352,16.7701320648193,16.7700824737549,16.7700328826904,16.769983291626,16.7699337005615,16.7698841094971,16.7698345184326,16.7697849273682,16.7697353363037,16.7696876525879,16.7696380615234,16.769588470459,16.7695388793945,16.7317867279053,16.7317371368408,16.7316875457764,16.7316379547119,16.8428268432617,16.8427772521973,16.8427276611328,16.8426780700684,16.8426284790039,16.8425788879395,16.842529296875,16.8424797058105,16.8424301147461,16.8423805236816,16.8423309326172,16.8422813415527,16.8422298431396,16.8421802520752,16.8421306610107,16.8420810699463,16.8420314788818,16.841983795166,16.8419342041016,16.8418846130371,16.8418350219727,16.8417854309082,16.8417358398438,16.8416862487793,16.8416366577148,16.8415870666504,16.8415374755859,16.8414878845215,16.841438293457,16.8413887023926,16.8413391113281,16.8412895202637,16.8412399291992,16.8411903381348,16.8411407470703,16.8410911560059,16.8410415649414,16.840991973877,16.8409423828125,16.840892791748,16.8408432006836
16.8614273071289,16.8613777160645,16.861328125,16.8612785339355,16.8612289428711,16.8611793518066,14.9167556762695,14.9167127609253,14.9166698455811,16.6445732116699,16.6445217132568,16.7176361083984,16.717586517334,16.7175388336182,16.7174892425537,16.7174396514893,16.7173900604248,16.717342376709,16.7172927856445,16.7172431945801,16.7171936035156,16.7171440124512,14.916054725647,14.9160108566284,16.7169971466064,16.716947555542,16.7168998718262,16.7168502807617,16.7168006896973,16.7167510986328,16.716703414917,16.7166538238525,16.7166042327881,16.7165546417236,16.7165069580078,16.7164573669434,16.7164077758789,14.9153966903687,14.9153518676758,14.9153060913086,16.7162113189697,16.7161617279053,16.7161121368408,16.7160625457764,16.6428565979004,16.6428070068359,16.6427574157715,16.7761516571045,16.77610206604,16.7760524749756,16.7760047912598,16.7759552001953,14.9147348403931,14.9146919250488,14.9146490097046,16.7757568359375,16.775707244873,16.7756576538086,16.7756080627441,16.7755584716797,16.7755088806152,16.7754592895508,16.7754096984863,16.7753601074219,16.121467590332,15.7324151992798,15.6827096939087,15.2983713150024,14.9140338897705,14.9139909744263,16.7750148773193,16.7749652862549,16.7749156951904,16.774866104126,16.7748165130615,16.7747669219971,16.7747173309326,16.7746677398682,16.7746181488037,16.7745704650879,16.7745208740234,16.774471282959,16.7744216918945,16.7743721008301,16.7743225097656,16.7742729187012,16.7742233276367,16.7741737365723,16.7741241455078,16.7740745544434,16.7740249633789,16.7739753723145,16.77392578125,16.7738780975342,16.7738285064697,16.7737789154053,16.7737293243408,16.7736797332764,16.7736301422119,16.7735805511475,16.773530960083,16.7734813690186,16.7734317779541,16.7733821868896,16.7733325958252,16.7732830047607,16.7732353210449,16.7731857299805,16.773136138916,16.7730865478516,16.7730369567871,16.7729873657227,16.7729377746582,16.7728881835938,16.7728385925293,16.7727890014648,16.7727394104004,16.7726898193359,16.7726402282715,16.7725925445557,16.7725429534912,16.7724933624268,16.7724437713623,16.7723941802979,16.7723445892334,16.7722949981689,16.7722454071045,16.77219581604,16.7721462249756,16.7720966339111,16.7720470428467,16.7719974517822,16.7719497680664,16.771900177002,16.7718505859375,16.771800994873,16.7717514038086,16.7717018127441,16.7716522216797,16.7716026306152,16.7715530395508,16.7715034484863,16.7714557647705,16.7714061737061,16.7713565826416,16.7713069915771,16.733549118042,16.7334995269775,16.7334518432617,16.7334022521973,16.8446025848389,16.8445529937744,16.84450340271,16.8444538116455,16.8444042205811,16.8443546295166,16.8443050384521,16.8442554473877,16.8442058563232,16.8441562652588,16.8441066741943,16.8440570831299,16.8440074920654,16.8439559936523,16.8439064025879,16.8438568115234,16.843807220459,16.8437576293945,16.8437080383301,16.8436584472656,16.8436107635498,16.8435611724854,16.8435115814209,16.8434619903564,16.843412399292,16.8433628082275,16.8433132171631,16.8432636260986,16.8432140350342,16.8431644439697,16.8431148529053,16.8430652618408,16.8430156707764,16.8429660797119,16.8429164886475,16.842866897583,16.8428173065186,16.8427677154541,16.8427181243896,16.8426685333252,16.8426189422607
16.8632068634033,16.8631572723389,16.8631057739258,16.86305809021,16.8630084991455,16.8629589080811,14.9183292388916,14.9182863235474,14.9182424545288,16.6463279724121,16.6462783813477,16.7193984985352,16.7193508148193,16.7193012237549,16.7192516326904,16.719202041626,16.7191543579102,16.7191047668457,16.7190551757812,16.7190055847168,16.718957901001,16.7189083099365,14.9176273345947,14.9175844192505,16.7187614440918,16.7187118530273,16.7186622619629,16.7186126708984,16.7185649871826,16.7185153961182,16.7184658050537,16.7184162139893,16.7183666229248,16.718318939209,16.7182693481445,16.7182197570801,16.7181701660156,14.9169702529907,14.9169254302979,14.9168796539307,16.7179737091064,16.717924118042,16.7178764343262,16.7178268432617,16.6446113586426,16.6445617675781,16.6445140838623,16.7779216766357,16.7778720855713,16.7778224945068,16.7777729034424,16.7777233123779,14.9163084030151,14.9162645339966,14.9162216186523,16.7775268554688,16.7774772644043,16.7774276733398,16.7773780822754,16.7773284912109,16.7772789001465,16.777229309082,16.7771797180176,16.7771301269531,16.1186618804932,15.7297639846802,15.3587417602539,15.2999849319458,14.9156064987183,14.915563583374,16.776782989502,16.7767353057861,16.7766857147217,16.7766361236572,16.7765865325928,16.7765369415283,16.7764873504639,16.7764377593994,16.776388168335,16.7763385772705,16.7762889862061,16.7762393951416,16.7761898040771,16.7761402130127,16.7760906219482,16.7760410308838,16.775993347168,16.7759437561035,16.7758941650391,16.7758445739746,16.7757949829102,16.7757453918457,16.7756958007812,16.7756462097168,16.7755966186523,16.7755470275879,16.7754974365234,16.775447845459,16.7753982543945,16.7753486633301,16.7752990722656,16.7752513885498,16.7752017974854,16.7751522064209,16.7751026153564,16.775053024292,16.7750034332275,16.7749538421631,16.7749042510986,16.7748546600342,16.7748050689697,16.7747554779053,16.7747058868408,16.7746562957764,16.7746067047119,16.7745590209961,16.7745094299316,16.7744598388672,16.7744102478027,16.7743606567383,16.7743110656738,16.7742614746094,16.7742118835449,16.7741622924805,16.774112701416,16.7740631103516,16.7740135192871,16.7739639282227,16.7739143371582,16.7738666534424,16.7738170623779,16.7737674713135,16.773717880249,16.7736682891846,16.7736186981201,16.7735691070557,16.7735195159912,16.7734699249268,16.7734203338623,16.7733707427979,16.7733211517334,16.7732715606689,16.7732238769531,16.7731742858887,16.7731246948242,16.7730751037598,16.7353134155273,16.7352638244629,16.7352161407471,16.7351665496826,16.8463802337646,16.8463287353516,16.8462791442871,16.8462295532227,16.8461799621582,16.8461303710938,16.8460807800293,16.8460311889648,16.8459815979004,16.8459320068359,16.8458824157715,16.845832824707,16.8457832336426,16.8457336425781,16.8456840515137,16.8456344604492,16.8455848693848,16.8455333709717,16.8454837799072,16.8454341888428,16.8453845977783,16.8453350067139,16.8452854156494,16.845235824585,16.8451881408691,16.8451385498047,16.8450889587402,16.8450393676758,16.8449897766113,16.8449401855469,16.8448905944824,16.844841003418,16.8447914123535,16.8447418212891,16.8446922302246,16.8446426391602,16.8445930480957,16.8445434570312,16.8444938659668,16.8444442749023,16.8443946838379
16.8649845123291,16.8649349212646,16.8648853302002,16.8648357391357,16.8647861480713,16.8647365570068,14.9199028015137,14.9198598861694,14.9198169708252,16.6480846405029,16.6480350494385,16.7211627960205,16.7211132049561,16.7210655212402,16.7210159301758,16.7209663391113,16.7209167480469,16.7208690643311,16.7208194732666,16.7207698822021,16.7207202911377,16.7206726074219,14.9192008972168,14.9191579818726,16.7205238342285,16.7204742431641,16.7204265594482,16.7203769683838,16.7203273773193,16.7202777862549,16.7202301025391,16.7201805114746,16.7201309204102,16.7200813293457,16.7200317382812,16.7199840545654,16.719934463501,14.9185438156128,14.9184989929199,14.9184522628784,16.7197380065918,16.7196884155273,16.7196388244629,16.7195892333984,16.6463661193848,16.6463184356689,16.6462688446045,16.779691696167,16.7796421051025,16.7795925140381,16.7795429229736,16.7794933319092,14.9178810119629,14.9178380966187,14.9177951812744,16.7792949676514,16.7792453765869,16.7791976928711,16.7791481018066,16.7790985107422,16.7790489196777,16.7789993286133,16.7789497375488,16.7789001464844,16.1158561706543,15.7271127700806,15.3561887741089,15.3015985488892,14.9171800613403,14.9171371459961,16.7785530090332,16.7785034179688,16.7784538269043,16.7784042358398,16.778356552124,16.7783069610596,16.7782573699951,16.7782077789307,16.7781581878662,16.7781085968018,16.7780590057373,16.7780094146729,16.7779598236084,16.7779102325439,16.7778606414795,16.777811050415,16.7777614593506,16.7777118682861,16.7776622772217,16.7776126861572,16.7775630950928,16.777515411377,16.7774658203125,16.777416229248,16.7773666381836,16.7773170471191,16.7772674560547,16.7772178649902,16.7771682739258,16.7771186828613,16.7770690917969,16.7770195007324,16.776969909668,16.7769203186035,16.7768707275391,16.7768211364746,16.7767715454102,16.7767238616943,16.7766742706299,16.7766246795654,16.776575088501,16.7765254974365,16.7764759063721,16.7764263153076,16.7763767242432,16.7763271331787,16.7762775421143,16.7762279510498,16.7761783599854,16.7761287689209,16.7760791778564,16.776029586792,16.7759819030762,16.7759323120117,16.7758827209473,16.7758331298828,16.7757835388184,16.7757339477539,16.7756843566895,16.775634765625,16.7755851745605,16.7755355834961,16.7754859924316,16.7754364013672,16.7753868103027,16.7753372192383,16.7752876281738,16.775239944458,16.7751903533936,16.7751407623291,16.7750911712646,16.7750415802002,16.7749919891357,16.7749423980713,16.7748928070068,16.7748432159424,16.7019920349121,16.7019424438477,16.7018928527832,16.7018432617188,16.7017936706543,16.7017459869385,16.701696395874,16.7016468048096,16.7015972137451,16.7015476226807,16.7014999389648,16.7014503479004,16.7014007568359,16.7013511657715,16.701301574707,16.7012519836426,16.7012042999268,16.7011547088623,16.7011051177979,16.7010555267334,16.7010059356689,16.7009582519531,16.7009086608887,16.7008590698242,16.7008094787598,16.7007598876953,16.7007122039795,16.700662612915,16.7006130218506,16.7005634307861,16.7005138397217,16.7004661560059,16.7004165649414,16.700366973877,16.7003173828125,16.700267791748,16.7002201080322,16.7001705169678,16.7001209259033,16.7000713348389,16.7000217437744,16.6999740600586,16.6999244689941,16.6998748779297,16.6998252868652
16.8667640686035,16.8667144775391,16.8666648864746,16.8666152954102,16.8665657043457,16.8665161132812,14.9214773178101,14.9214334487915,14.9213905334473,16.6498413085938,16.6497917175293,16.7229270935059,16.7228775024414,16.7228298187256,16.7227802276611,16.7227306365967,16.7226810455322,16.7226314544678,16.722583770752,16.7225341796875,16.722484588623,16.7224349975586,14.9207754135132,14.9207315444946,16.7222881317139,16.7222385406494,16.722188949585,16.7221412658691,16.7220916748047,16.7220420837402,16.7219924926758,16.72194480896,16.7218952178955,16.7218456268311,16.7217960357666,16.7217464447021,16.7216987609863,14.9201173782349,14.920072555542,16.721549987793,16.7215023040771,16.7214527130127,16.7214031219482,16.7213535308838,16.6481227874756,16.6480731964111,16.6480255126953,16.7814617156982,16.7814121246338,16.7813625335693,16.7813129425049,16.7812633514404,14.9194555282593,14.9194116592407,14.9193687438965,16.7810649871826,16.7810153961182,16.7809677124023,16.7809181213379,16.7808685302734,16.780818939209,16.7807693481445,16.7807197570801,16.7806701660156,16.1130523681641,15.724422454834,15.3536357879639,15.3032131195068,14.9187536239624,14.9187107086182,16.7803230285645,16.7802734375,16.7802238464355,16.7801742553711,16.7801246643066,16.7800750732422,16.7800273895264,16.7799777984619,16.7799282073975,16.779878616333,16.7798290252686,16.7797794342041,16.7797298431396,16.7796802520752,16.7796306610107,16.7795810699463,16.7795314788818,16.7794818878174,16.7794322967529,16.7793827056885,16.779333114624,16.7792835235596,16.7792339324951,16.7791843414307,16.7791366577148,16.7790870666504,16.7790374755859,16.7789878845215,16.778938293457,16.7788887023926,16.7788391113281,16.7787895202637,16.7787399291992,16.7786903381348,16.7786407470703,16.7785911560059,16.7785415649414,16.778491973877,16.7784423828125,16.778392791748,16.7783432006836,16.7782955169678,16.7782459259033,16.7781963348389,16.7781467437744,16.77809715271,16.7780475616455,16.7779979705811,16.7779483795166,16.7778987884521,16.7778491973877,16.7777996063232,16.7777500152588,16.7777004241943,16.7776508331299,16.7776012420654,16.777551651001,16.7775039672852,16.7774543762207,16.7774047851562,16.7773551940918,16.7773056030273,16.7772560119629,16.7772064208984,16.777156829834,16.7771072387695,16.7770576477051,16.7770080566406,16.7769584655762,16.7769088745117,16.7768592834473,16.7768096923828,16.7767601013184,16.7767124176025,16.7766628265381,16.7766132354736,16.7037487030029,16.7036991119385,16.7036514282227,16.7036018371582,16.7035522460938,16.7035026550293,16.7034530639648,16.703405380249,16.7033557891846,16.7033061981201,16.7032566070557,16.7032070159912,16.7031593322754,16.7031097412109,16.7030601501465,16.703010559082,16.7029609680176,16.7029132843018,16.7028636932373,16.7028141021729,16.7027645111084,16.7027168273926,16.7026672363281,16.7026176452637,16.7025680541992,16.7025203704834,16.7024707794189,16.7024211883545,16.7023735046387,16.7023239135742,16.7022743225098,16.7022247314453,16.7021770477295,16.702127456665,16.7020778656006,16.7020282745361,16.7019805908203,16.7019309997559,16.7018814086914,16.701831817627,16.7017841339111,16.7017345428467,16.7016849517822,16.7016372680664,16.701587677002
16.8685436248779,16.8684940338135,16.868444442749,16.8683948516846,16.8683452606201,16.8682956695557,14.9230518341064,14.9230079650879,14.9229650497437,16.6515979766846,16.6515483856201,16.7246913909912,16.7246417999268,16.7245941162109,16.7245445251465,16.724494934082,16.7244453430176,16.7243957519531,16.7243480682373,16.7242984771729,16.7242488861084,16.7241992950439,14.9223499298096,14.922306060791,16.7240524291992,16.7240028381348,16.7239532470703,16.7239055633545,16.72385597229,16.7238063812256,16.7237567901611,16.7237091064453,16.7236595153809,16.7236099243164,16.723560333252,16.7235107421875,16.7234630584717,14.9216918945312,14.9216461181641,16.7233142852783,16.7232646942139,16.723217010498,16.7231674194336,16.7231178283691,16.6498794555664,16.649829864502,16.6497802734375,16.7832317352295,16.783182144165,16.7831325531006,16.7830829620361,16.7830333709717,14.9210290908813,14.9209861755371,14.9209423065186,16.7828350067139,16.7827854156494,16.7827377319336,16.7826881408691,16.7826385498047,16.7825889587402,16.7825393676758,16.7824897766113,16.5187206268311,16.1101818084717,15.7217102050781,15.3510847091675,15.3048267364502,14.9203271865845,14.9202842712402,16.7820930480957,16.7820434570312,16.7819938659668,16.7819442749023,16.7818946838379,16.7818450927734,16.781795501709,16.7817478179932,16.7816982269287,16.7816486358643,16.7815990447998,16.7815494537354,16.7814998626709,16.7814502716064,16.781400680542,16.7813510894775,16.7813014984131,16.7812519073486,16.7812023162842,16.7811527252197,16.7811031341553,16.7810535430908,16.7810039520264,16.7809543609619,16.7809047698975,16.780855178833,16.7808074951172,16.7807579040527,16.7807083129883,16.7806587219238,16.7806091308594,16.7805595397949,16.7805099487305,16.780460357666,16.7804107666016,16.7803611755371,16.7803115844727,16.7802619934082,16.7802124023438,16.7801628112793,16.7801132202148,16.7800636291504,16.7800140380859,16.7799644470215,16.7799167633057,16.7798671722412,16.7798175811768,16.7797679901123,16.7797183990479,16.7796688079834,16.7796192169189,16.7795696258545,16.77952003479,16.7794704437256,16.7794208526611,16.7793712615967,16.7793216705322,16.7792720794678,16.7792224884033,16.7791728973389,16.7791233062744,16.77907371521,16.7790260314941,16.7789764404297,16.7789268493652,16.7788772583008,16.7788276672363,16.7787780761719,16.7787284851074,16.778678894043,16.7786293029785,16.7785797119141,16.7785301208496,16.7784805297852,16.7784309387207,16.7783813476562,16.7783317565918,16.778284072876,16.7782344818115,16.7781848907471,16.7781352996826,16.7780857086182,16.7780361175537,16.7779865264893,16.7779388427734,16.777889251709,16.7778396606445,16.7777900695801,16.7777404785156,16.7776908874512,0,0,0,0,0,0,0,0,0,0,0,0,0,0,0,0,0,0,0,0,0,0,0,0,0,0,0,0,0,0,0
16.8703231811523,16.8702735900879,16.8702239990234,16.870174407959,16.8701248168945,16.8700752258301,14.9246263504028,14.9245824813843,14.92453956604,16.6533546447754,16.6533050537109,16.7264575958252,16.7264060974121,16.7263584136963,16.7263088226318,16.7262592315674,16.7262115478516,16.7261619567871,16.7261123657227,16.7260627746582,16.7260131835938,16.7259654998779,14.923924446106,14.9238805770874,16.7258167266846,16.7257671356201,16.7257194519043,16.7256698608398,16.7256202697754,16.7255706787109,16.7255210876465,16.7254734039307,16.7254238128662,16.7253742218018,16.7253246307373,16.7252769470215,16.725227355957,14.9232664108276,14.9232206344604,16.7250785827637,16.7250308990479,16.7249813079834,16.7249317169189,16.7248821258545,16.6516361236572,16.6515865325928,16.651538848877,16.7850017547607,16.7849521636963,16.7849025726318,16.7848529815674,16.7848033905029,14.9226036071777,14.9225597381592,14.9225168228149,16.7846050262451,16.7845573425293,16.7845077514648,16.7844581604004,16.7844085693359,16.7843589782715,16.784309387207,16.7842597961426,16.5157432556152,16.1073055267334,15.7189998626709,15.3485641479492,15.3064413070679,14.9219017028809,14.9218578338623,16.783863067627,16.7838134765625,16.783763885498,16.7837142944336,16.7836647033691,16.7836151123047,16.7835655212402,16.7835159301758,16.7834663391113,16.7834186553955,16.7833690643311,16.7833194732666,16.7832698822021,16.7832202911377,16.7831707000732,16.7831211090088,16.7830715179443,16.7830219268799,16.7829723358154,16.782922744751,16.7828731536865,16.7828235626221,16.7827739715576,16.7827243804932,16.7826747894287,16.7826251983643,16.7825756072998,16.7825260162354,16.7824764251709,16.7824268341064,16.7823791503906,16.7823295593262,16.7822799682617,16.7822303771973,16.7821807861328,16.7821311950684,16.7820816040039,16.7820320129395,16.781982421875,16.7819328308105,16.7818832397461,16.7818336486816,16.7817840576172,16.7817344665527,16.7816848754883,16.7816352844238,16.7815856933594,16.7815361022949,16.7814865112305,16.781436920166,16.7813892364502,16.7813396453857,16.7812900543213,16.7812404632568,16.7811908721924,16.7811412811279,16.7810916900635,16.781042098999,16.7809925079346,16.7809429168701,16.7808933258057,16.7808437347412,16.7807941436768,16.7807445526123,16.7806949615479,16.7806453704834,16.7805957794189,16.7805461883545,16.7804985046387,16.7804489135742,16.7803993225098,16.7803497314453,16.7803001403809,16.7802505493164,16.780200958252,16.7801513671875,16.7801036834717,16.7800540924072,16.7800045013428,16.7799549102783,16.7799053192139,16.7798557281494,16.779806137085,16.7797584533691,16.7797088623047,16.7796592712402,16.7796096801758,16.7795600891113,16.7795104980469,16.7794609069824,16.7794132232666,16.7793636322021,16.7793140411377,16.7792644500732,16.7792148590088,16.7791652679443,16.7791156768799,16.7790679931641,16.7790184020996,16.7789688110352,16.7789192199707,16.7788696289062,16.7788200378418,16.7787704467773,16.7787227630615,16.7786731719971,16.7786235809326,16.7785739898682,16.7785243988037,16.7784748077393,16.7784271240234,16.778377532959,16.7783279418945,16.7782783508301,16.7782287597656,16.7781791687012,16.7781295776367,16.7780818939209,16.7780323028564,16.777982711792,16.7779331207275
16.8721046447754,16.8720550537109,16.8720054626465,16.871955871582,16.8719062805176,16.8718566894531,14.9262008666992,14.926157951355,14.9261150360107,16.6551132202148,16.6550617218018,16.7282218933105,16.7281723022461,16.7281227111816,16.7280750274658,16.7280254364014,16.7279758453369,16.7279262542725,16.727876663208,16.7278289794922,16.7277793884277,16.7277297973633,14.9254989624023,14.9254560470581,16.7275829315186,16.7275333404541,16.7274837493896,16.7274341583252,16.7273845672607,16.7273368835449,16.7272872924805,16.727237701416,16.7271881103516,16.7271385192871,16.7270908355713,16.7270412445068,16.7269916534424,14.924840927124,14.9247951507568,16.7268447875977,16.7267951965332,16.7267456054688,16.7266960144043,16.7266464233398,16.653392791748,16.6533432006836,16.6532955169678,16.786771774292,16.7867221832275,16.7866725921631,16.7866249084473,16.7865753173828,14.9241781234741,14.9241342544556,14.9240913391113,16.786376953125,16.7863273620605,16.7862777709961,16.7862281799316,16.7861785888672,16.7861289978027,16.7860794067383,16.7860298156738,16.512767791748,16.1044292449951,15.7162895202637,15.3460941314697,15.3080568313599,14.9234762191772,14.9234323501587,16.7856330871582,16.7855834960938,16.7855339050293,16.7854843139648,16.7854347229004,16.7853851318359,16.7853374481201,16.7852878570557,16.7852382659912,16.7851886749268,16.7851390838623,16.7850894927979,16.7850399017334,16.7849903106689,16.7849407196045,16.78489112854,16.7848415374756,16.7847919464111,16.7847423553467,16.7846927642822,16.7846431732178,16.7845935821533,16.7845439910889,16.7844944000244,16.78444480896,16.7843952178955,16.7843456268311,16.7842960357666,16.7842464447021,16.7841968536377,16.7841491699219,16.7840995788574,16.784049987793,16.7840003967285,16.7839508056641,16.7839012145996,16.7838516235352,16.7838020324707,16.7837524414062,16.7837028503418,16.7836532592773,16.7836036682129,16.7835540771484,16.783504486084,16.7834548950195,16.7834053039551,16.7833557128906,16.7833061218262,16.7832565307617,16.7832069396973,16.7831573486328,16.7831077575684,16.7830600738525,16.7830104827881,16.7829608917236,16.7829113006592,16.7828617095947,16.7828121185303,16.7827625274658,16.7827129364014,16.7826633453369,16.7826137542725,16.782564163208,16.7825145721436,16.7824668884277,16.7824172973633,16.7823677062988,16.7823181152344,16.7822685241699,16.7822189331055,16.782169342041,16.7821197509766,16.7820701599121,16.7820205688477,16.7819728851318,16.7819232940674,16.7818737030029,16.7818241119385,16.781774520874,16.7817249298096,16.7816753387451,16.7816257476807,16.7815780639648,16.7815284729004,16.7814788818359,16.7814292907715,16.781379699707,16.7813301086426,16.7812805175781,16.7812328338623,16.7811832427979,16.7811336517334,16.7810840606689,16.7810344696045,16.78098487854,16.7809352874756,16.7808876037598,16.7808380126953,16.7807884216309,16.7807388305664,16.780689239502,16.7806396484375,16.7805919647217,16.7805423736572,16.7804927825928,16.7804431915283,16.7803936004639,16.7803440093994,16.780294418335,16.7802467346191,16.7801971435547,16.7801475524902,16.7800979614258,16.7800483703613,16.7799987792969,16.7799491882324,16.7799015045166,16.7798519134521,16.7798023223877,16.7797527313232,16.7797031402588
16.8738842010498,16.8738346099854,16.8737850189209,16.8737354278564,16.873685836792,16.8736362457275,14.9277763366699,14.9277334213257,14.9276905059814,16.6568698883057,16.6568202972412,16.7299880981445,16.7299385070801,16.7298889160156,16.7298393249512,16.7297897338867,16.7297420501709,16.7296924591064,16.729642868042,16.7295932769775,16.7295436859131,16.7294960021973,14.927074432373,14.9270315170288,16.7293472290039,16.7292976379395,16.7292499542236,16.7292003631592,16.7291507720947,16.7291011810303,16.7290515899658,16.72900390625,16.7289543151855,16.7289047241211,16.7288551330566,16.7288055419922,16.7287578582764,14.9264163970947,14.9263706207275,16.728609085083,16.7285594940186,16.7285118103027,16.7284622192383,16.7284126281738,16.6551513671875,16.655101776123,16.6550521850586,16.7885437011719,16.7884941101074,16.788444519043,16.7883949279785,16.7883453369141,14.9257526397705,14.9257097244263,14.925666809082,16.7881469726562,16.7880973815918,16.7880477905273,16.7879981994629,16.7879486083984,16.787899017334,16.7878494262695,16.7877998352051,16.5098075866699,16.1015548706055,15.7135810852051,15.3436250686646,15.3096714019775,14.9250507354736,14.9250078201294,16.7874050140381,16.7873554229736,16.7873058319092,16.7872562408447,16.7872066497803,16.7871570587158,16.7871074676514,16.7870578765869,16.7870082855225,16.786958694458,16.7869091033936,16.7868595123291,16.7868099212646,16.7867603302002,16.7867107391357,16.7866611480713,16.7866115570068,16.7865619659424,16.7865123748779,16.7864627838135,16.786413192749,16.7863636016846,16.7863140106201,16.7862644195557,16.7862167358398,16.7861671447754,16.7861175537109,16.7860679626465,16.786018371582,16.7859687805176,16.7859191894531,16.7858695983887,16.7858200073242,16.7857704162598,16.7857208251953,16.7856712341309,16.7856216430664,16.785572052002,16.7855224609375,16.785472869873,16.7854232788086,16.7853736877441,16.7853240966797,16.7852745056152,16.7852249145508,16.7851753234863,16.7851257324219,16.7850761413574,16.785026550293,16.7849788665771,16.7849292755127,16.7848796844482,16.7848300933838,16.7847805023193,16.7847309112549,16.7846813201904,16.784631729126,16.7845821380615,16.7845325469971,16.7844848632812,16.7844352722168,16.7843856811523,16.7843360900879,16.7842864990234,16.784236907959,16.7841873168945,16.7841377258301,16.7840881347656,16.7840385437012,16.7839908599854,16.7839412689209,16.7838916778564,16.783842086792,16.7837924957275,16.7837429046631,16.7836933135986,16.7836437225342,16.7835941314697,16.7835464477539,16.7834968566895,16.783447265625,16.7833976745605,16.7833480834961,16.7832984924316,16.7832489013672,16.7832012176514,16.7831516265869,16.7831020355225,16.783052444458,16.7830028533936,16.7829532623291,16.7829036712646,16.7828540802002,16.7828063964844,16.7827568054199,16.7827072143555,16.782657623291,16.7826080322266,16.7825584411621,16.7825088500977,16.7824611663818,16.7824115753174,16.7823619842529,16.7823123931885,16.782262802124,16.7822132110596,16.7821636199951,16.7821159362793,16.7820663452148,16.7820167541504,16.7819671630859,16.7819175720215,16.781867980957,16.7818183898926,16.7817687988281,16.7817192077637,16.7816715240479,16.7816219329834,16.7815723419189,16.7815227508545,16.78147315979
16.8756656646729,16.8756160736084,16.8755664825439,16.8755168914795,16.875467300415,16.8754177093506,14.9293527603149,14.9293088912964,14.9292659759521,16.6586284637451,16.6585788726807,16.7317543029785,16.7317047119141,16.7316551208496,16.7316055297852,16.7315559387207,16.7315063476562,16.7314586639404,16.731409072876,16.7313594818115,16.7313098907471,16.7312602996826,14.9286499023438,14.9286069869995,16.7311134338379,16.7310638427734,16.731014251709,16.7309665679932,16.7309169769287,16.7308673858643,16.7308177947998,16.7307682037354,16.7307205200195,16.7306709289551,16.7306213378906,16.7305717468262,16.7305221557617,14.9279918670654,14.9279460906982,16.730375289917,16.7303256988525,16.7302761077881,16.7302284240723,16.7301788330078,16.6569080352783,16.6568584442139,16.656810760498,16.7903156280518,16.7902660369873,16.7902164459229,16.7901668548584,16.7901172637939,14.9273281097412,14.927285194397,14.9272413253784,16.7899188995361,16.7898693084717,16.7898197174072,16.7897701263428,16.7897205352783,16.7896709442139,16.7896213531494,16.789571762085,16.5069198608398,16.0986824035645,15.7108736038208,15.3411560058594,15.3112878799438,14.9266262054443,14.9265823364258,16.7891750335693,16.7891254425049,16.7890758514404,16.789026260376,16.7889766693115,16.7889270782471,16.7888774871826,16.7888278961182,16.7887783050537,16.7887287139893,16.7886791229248,16.788631439209,16.7885818481445,16.7885322570801,16.7884826660156,16.7884330749512,16.7883834838867,16.7883338928223,16.7882843017578,16.7882347106934,16.7881851196289,16.7881355285645,16.7880859375,16.7880363464355,16.7879867553711,16.7879371643066,16.7878875732422,16.7878379821777,16.7877883911133,16.7877388000488,16.7876892089844,16.7876396179199,16.7875900268555,16.787540435791,16.7874908447266,16.7874412536621,16.7873916625977,16.7873420715332,16.7872924804688,16.7872447967529,16.7871952056885,16.787145614624,16.7870960235596,16.7870464324951,16.7869968414307,16.7869472503662,16.7868976593018,16.7868480682373,16.7867984771729,16.7867488861084,16.7867012023926,16.7866516113281,16.7866020202637,16.7865524291992,16.7865028381348,16.7864532470703,16.7864036560059,16.7863540649414,16.786304473877,16.7862548828125,16.786205291748,16.7861576080322,16.7861080169678,16.7860584259033,16.7860088348389,16.7859592437744,16.78590965271,16.7858600616455,16.7858104705811,16.7857608795166,16.7857112884521,16.7856636047363,16.7856140136719,16.7855644226074,16.785514831543,16.7854652404785,16.7854156494141,16.7853660583496,16.7853164672852,16.7852668762207,16.7852191925049,16.7851696014404,16.785120010376,16.7850704193115,16.7850208282471,16.7849712371826,16.7849216461182,16.7848720550537,16.7848243713379,16.7847747802734,16.784725189209,16.7846755981445,16.7846260070801,16.7845764160156,16.7845268249512,16.7844772338867,16.7844295501709,16.7843799591064,16.784330368042,16.7842807769775,16.7842311859131,16.7841815948486,16.7841320037842,16.7840843200684,16.7840347290039,16.7839851379395,16.783935546875,16.7838859558105,16.7838363647461,16.7837867736816,16.7837371826172,16.7836875915527,16.7836380004883,16.7835903167725,16.783540725708,16.7834911346436,16.7834415435791,16.7833919525146,16.7833423614502,16.7832927703857,16.7832431793213
16.8774471282959,16.8773975372314,16.877347946167,16.8772983551025,16.8772487640381,16.8771991729736,14.9309282302856,14.9308853149414,14.9308423995972,16.6603870391846,16.6603374481201,16.7335205078125,16.733470916748,16.7334213256836,16.7333717346191,16.7333221435547,16.7332725524902,16.7332248687744,16.73317527771,16.7331256866455,16.7330760955811,16.7330265045166,14.9302263259888,14.9301824569702,16.7328796386719,16.7328300476074,16.732780456543,16.7327327728271,16.7326831817627,16.7326335906982,16.7325839996338,16.7325344085693,16.7324848175049,16.7324371337891,16.7323875427246,16.7323379516602,16.7322883605957,14.9295673370361,14.9295215606689,16.732141494751,16.7320919036865,16.7320423126221,16.7319927215576,16.7319450378418,16.6586666107178,16.6586170196533,16.6585693359375,16.792085647583,16.7920360565186,16.7919883728027,16.7919387817383,16.7918891906738,14.9289035797119,14.9288606643677,14.9288167953491,16.791690826416,16.7916412353516,16.7915916442871,16.7915420532227,16.7914924621582,16.7914428710938,16.7913932800293,16.7913436889648,16.5040340423584,16.0958099365234,15.7081661224365,15.3386878967285,14.9858331680298,14.928201675415,14.9281578063965,16.7909469604492,16.7908973693848,16.7908477783203,16.7907981872559,16.7907485961914,16.790699005127,16.7906494140625,16.790599822998,16.7905502319336,16.7905006408691,16.7904510498047,16.7904014587402,16.7903518676758,16.7903022766113,16.7902526855469,16.7902030944824,16.790153503418,16.7901039123535,16.7900543212891,16.7900047302246,16.7899551391602,16.7899055480957,16.7898578643799,16.7898082733154,16.789758682251,16.7897090911865,16.7896595001221,16.7896099090576,16.7895603179932,16.7895107269287,16.7894611358643,16.7894115447998,16.7893619537354,16.7893123626709,16.7892627716064,16.789213180542,16.7891635894775,16.7891139984131,16.7890663146973,16.7890167236328,16.7889671325684,16.7889175415039,16.7888679504395,16.788818359375,16.7887687683105,16.7887191772461,16.7886695861816,16.7886199951172,16.7885704040527,16.7885208129883,16.7884731292725,16.788423538208,16.7883739471436,16.7883243560791,16.7882747650146,16.7882251739502,16.7881755828857,16.7881259918213,16.7880764007568,16.7880268096924,16.7879772186279,16.7879295349121,16.7878799438477,16.7878303527832,16.7877807617188,16.7877311706543,16.7876815795898,16.7876319885254,16.7875823974609,16.7875328063965,16.787483215332,16.7874336242676,16.7873859405518,16.7873363494873,16.7872867584229,16.7872371673584,16.7871875762939,16.7871379852295,16.787088394165,16.7870388031006,16.7869892120361,16.7869396209717,16.7868919372559,16.7868423461914,16.786792755127,16.7867431640625,16.786693572998,16.7866439819336,16.7865943908691,16.7865467071533,16.7864971160889,16.7864475250244,16.78639793396,16.7863483428955,16.7862987518311,16.7862491607666,16.7861995697021,16.7861518859863,16.7861022949219,16.7860527038574,16.786003112793,16.7859535217285,16.7859039306641,16.7858543395996,16.7858047485352,16.7857551574707,16.7857074737549,16.7856578826904,16.785608291626,16.7855587005615,16.7855091094971,16.7854595184326,16.7854099273682,16.7853603363037,16.7853107452393,16.7852611541748,16.7852115631104,16.7851619720459,16.7851123809814,16.785062789917,16.7850131988525
16.8792304992676,16.8791809082031,16.87912940979,16.8790798187256,16.8790302276611,16.8789806365967,14.9325046539307,14.9324617385864,14.9324188232422,16.662145614624,16.6620960235596,16.7352867126465,16.735237121582,16.7351875305176,16.7351379394531,16.7350883483887,16.7350406646729,16.7349910736084,16.7349414825439,16.7348918914795,16.734842300415,16.7347946166992,14.9318027496338,14.9317588806152,16.7346458435059,16.7345962524414,16.7345485687256,16.7344989776611,16.7344493865967,16.7343997955322,16.7343502044678,16.7343006134033,16.7342529296875,16.734203338623,16.7341537475586,16.7341041564941,16.7340545654297,14.9311437606812,14.9310970306396,16.733907699585,16.7338581085205,16.7338085174561,16.7337589263916,16.7337112426758,16.6604251861572,16.6603755950928,16.660327911377,16.7938594818115,16.7938098907471,16.7937602996826,16.7937107086182,16.7936611175537,14.9304800033569,14.9304361343384,14.9303932189941,16.7934627532959,16.7934131622314,16.793363571167,16.7933139801025,16.7932643890381,16.7932147979736,16.7931652069092,16.7931156158447,16.501148223877,16.0929374694824,15.7054605484009,15.336220741272,14.9833726882935,14.9297771453857,14.9297342300415,16.7927188873291,16.7926692962646,16.7926197052002,16.7925701141357,16.7925205230713,16.7924709320068,16.7924213409424,16.7923717498779,16.7923221588135,16.792272567749,16.7922229766846,16.7921733856201,16.7921237945557,16.7920742034912,16.7920246124268,16.7919750213623,16.7919254302979,16.7918758392334,16.7918262481689,16.7917766571045,16.79172706604,16.7916774749756,16.7916297912598,16.7915802001953,16.7915306091309,16.7914810180664,16.791431427002,16.7913818359375,16.791332244873,16.7912826538086,16.7912330627441,16.7911834716797,16.7911338806152,16.7910842895508,16.7910346984863,16.7909870147705,16.7909374237061,16.7908878326416,16.7908382415771,16.7907886505127,16.7907390594482,16.7906894683838,16.7906398773193,16.7905902862549,16.7905406951904,16.790491104126,16.7904415130615,16.7903938293457,16.7903442382812,16.7902946472168,16.7902450561523,16.7901954650879,16.7901458740234,16.790096282959,16.7900466918945,16.7899971008301,16.7899475097656,16.7898979187012,16.7898483276367,16.7898006439209,16.7897510528564,16.789701461792,16.7896518707275,16.7896022796631,16.7895526885986,16.7895030975342,16.7894535064697,16.7894039154053,16.7893543243408,16.7893047332764,16.7892551422119,16.7892074584961,16.7891578674316,16.7891082763672,16.7890586853027,16.7890090942383,16.7889595031738,16.7889099121094,16.7888603210449,16.7888107299805,16.788761138916,16.7887134552002,16.7886638641357,16.7886142730713,16.7885646820068,16.7885150909424,16.7884654998779,16.7884159088135,16.788366317749,16.7883186340332,16.7882690429688,16.7882194519043,16.7881698608398,16.7881202697754,16.7880706787109,16.7880210876465,16.787971496582,16.7879219055176,16.7878742218018,16.7878246307373,16.7877750396729,16.7877254486084,16.7876758575439,16.7876262664795,16.787576675415,16.7875270843506,16.7874774932861,16.7874279022217,16.7873783111572,16.7873287200928,16.7872791290283,16.7872295379639,16.787181854248,16.7871322631836,16.7870826721191,16.7870330810547,16.7869834899902,16.7869338989258,16.7868843078613,16.7868347167969,16.7867851257324
