16.2161808013916,16.3268871307373,16.3268852233887,16.3631649017334,16.363166809082,16.363166809082,16.3631687164307,16.3631687164307,16.3631706237793,16.3631706237793,16.3631725311279,16.3631744384766,16.3631744384766,16.3631763458252,16.3631763458252,16.3631782531738,16.3631782531738,16.3631801605225,16.3631801605225,16.3631820678711,16.3631820678711,16.3269062042236,16.3269081115723,16.3631858825684,16.3631858825684,16.363187789917,16.363187789917,16.3631896972656,16.3631896972656,16.3631916046143,16.3631916046143,16.3631935119629,16.3631935119629,16.3631954193115,16.3631954193115,16.3631973266602,16.3631992340088,16.3631992340088,16.3632011413574,16.3632011413574,16.3632030487061,16.3269290924072,16.3269290924072,16.3167476654053,16.2220363616943,16.2162246704102,16.2162265777588,16.2162265777588,16.2162284851074,16.2549953460693,16.2549819946289,16.2549686431885,16.2549571990967,16.2549438476562,16.2549324035645,16.254919052124,16.2549057006836,16.2548942565918,16.2548809051514,16.2548694610596,16.2548561096191,16.2548427581787,16.2548313140869,16.2548179626465,16.2548065185547,16.2547931671143,16.2547798156738,16.254768371582,16.2547550201416,16.2547435760498,16.2547302246094,16.2547168731689,16.2547054290771,16.2546920776367,16.2546806335449,16.2546672821045,16.2546539306641,16.2546424865723,16.2546291351318,16.25461769104,16.2546043395996,16.2545909881592,16.2545795440674,16.254566192627,16.2545547485352,16.2545413970947,16.2545280456543,16.2545166015625,16.2545032501221,16.2544918060303,16.2544784545898,16.2544651031494,16.2544536590576,16.2544403076172,16.2544288635254,16.254415512085,16.2544021606445,16.2543907165527,16.2543773651123,16.2543659210205,16.2543525695801,16.2543411254883,16.2543277740479,16.2543144226074,16.2543029785156,16.2542896270752,16.2542781829834,16.254264831543,16.2542514801025,16.2542400360107,16.2542266845703,16.2542152404785,16.2542018890381,16.2541885375977,16.2541770935059,16.2541637420654,16.2541522979736,16.2541389465332,16.2541255950928,16.254114151001,16.2541007995605,16.2540893554688,16.2540760040283,16.2540626525879,16.2540512084961,16.2540397644043,16.2540283203125,16.2540168762207,16.2540035247803,16.2539920806885,16.2539806365967,16.2539691925049,16.2539577484131,16.2539443969727,16.2539329528809,16.2539215087891,16.2539100646973,16.2538986206055,16.2538871765137,16.2538738250732,16.2538623809814,16.2538509368896,16.2013149261475,16.2013168334961,16.2013187408447,16.2013187408447,16.2013206481934,16.2013206481934,16.201322555542,16.201322555542,16.2013244628906,16.2013244628906,16.2013263702393,0,0,0,0,0,0,0,0,0,0,0,0,0,0,0,0,0,0,0,0,0,0,0,0,0,0,0,0,0,0,0,0,0,0,0,0
16.2171039581299,16.3278160095215,16.3278160095215,16.3640975952148,16.3640975952148,16.3640995025635,16.3640995025635,16.3641014099121,16.3641033172607,16.3641033172607,16.3641052246094,16.3641052246094,16.364107131958,16.364107131958,16.3641090393066,16.3641090393066,16.3641109466553,16.3641109466553,16.3641128540039,16.3641128540039,16.3641147613525,16.3278350830078,16.3278369903564,16.3641166687012,16.3641185760498,16.3641185760498,16.3641204833984,16.3641204833984,16.3641223907471,16.3641223907471,16.3641242980957,16.3641242980957,16.3641262054443,16.364128112793,16.364128112793,16.3641300201416,16.3641300201416,16.3641319274902,16.3641319274902,16.3641338348389,16.3641338348389,16.3278579711914,16.32785987854,16.3167095184326,16.221996307373,16.2171497344971,16.2171497344971,16.2171516418457,16.2171516418457,16.2559204101562,16.2559089660645,16.255895614624,16.2558841705322,16.2558708190918,16.2558574676514,16.2558460235596,16.2558326721191,16.2558212280273,16.2558078765869,16.2557945251465,16.2557830810547,16.2557697296143,16.2557582855225,16.255744934082,16.2557315826416,16.2557201385498,16.2557067871094,16.2556953430176,16.2556819915771,16.2556686401367,16.2556571960449,16.2556438446045,16.2556324005127,16.2556190490723,16.2556056976318,16.25559425354,16.2555809020996,16.2555694580078,16.2555561065674,16.255542755127,16.2555313110352,16.2555179595947,16.2555065155029,16.2554931640625,16.2554798126221,16.2554683685303,16.2554550170898,16.255443572998,16.2554302215576,16.2554168701172,16.2554054260254,16.255392074585,16.2553806304932,16.2553672790527,16.2553539276123,16.2553424835205,16.2553291320801,16.2553176879883,16.2553043365479,16.2552909851074,16.2552795410156,16.2552661895752,16.2552547454834,16.255241394043,16.2552299499512,16.2552165985107,16.2552032470703,16.2551918029785,16.2551784515381,16.2551670074463,16.2551536560059,16.2551403045654,16.2551288604736,16.2551155090332,16.2551040649414,16.255090713501,16.2550773620605,16.2550659179688,16.2550525665283,16.2550411224365,16.2550277709961,16.2550144195557,16.2550029754639,16.2549896240234,16.2549781799316,16.2549648284912,16.2549533843994,16.2549419403076,16.2549304962158,16.2549171447754,16.2549057006836,16.2548942565918,16.2548828125,16.2548713684082,16.2548580169678,16.254846572876,16.2548351287842,16.2548236846924,16.2548122406006,16.2548007965088,16.2547874450684,16.2547760009766,16.2022380828857,16.2022399902344,16.2022399902344,16.202241897583,16.202241897583,16.2022438049316,16.2022438049316,16.2022457122803,16.2022476196289,16.2022476196289,16.2022495269775,0,0,0,0,0,0,0,0,0,0,0,0,0,0,0,0,0,0,0,0,0,0,0,0,0,0,0,0,0,0,0,0,0,0,0,0
16.2180271148682,16.3287467956543,16.3287448883057,16.3650283813477,16.3650302886963,16.3650302886963,16.3650321960449,16.3650341033936,16.3650341033936,16.3650360107422,16.3650360107422,16.3650379180908,16.3650379180908,16.3650398254395,16.3650398254395,16.3650417327881,16.3650417327881,16.3650436401367,16.3650436401367,16.3650455474854,16.3650455474854,16.3287658691406,16.3287677764893,16.3650493621826,16.3650493621826,16.3650512695312,16.3650512695312,16.3650531768799,16.3650550842285,16.3650550842285,16.3650569915771,16.3650569915771,16.3650588989258,16.3650588989258,16.3650608062744,16.3650608062744,16.365062713623,16.365062713623,16.3650646209717,16.3650646209717,16.3650665283203,16.3287887573242,16.3287887573242,16.3166694641113,16.2219581604004,16.2180728912354,16.2180728912354,16.218074798584,16.218074798584,16.2568473815918,16.2568359375,16.2568225860596,16.2568092346191,16.2567977905273,16.2567844390869,16.2567729949951,16.2567596435547,16.2567462921143,16.2567348480225,16.256721496582,16.2567100524902,16.2566967010498,16.2566833496094,16.2566719055176,16.2566585540771,16.2566471099854,16.2566337585449,16.2566204071045,16.2566089630127,16.2565956115723,16.2565841674805,16.25657081604,16.2565593719482,16.2565460205078,16.2565326690674,16.2565212249756,16.2565078735352,16.2564964294434,16.2564830780029,16.2564697265625,16.2564582824707,16.2564449310303,16.2564334869385,16.256420135498,16.2564067840576,16.2563953399658,16.2563819885254,16.2563705444336,16.2563571929932,16.2563438415527,16.2563323974609,16.2563190460205,16.2563076019287,16.2562942504883,16.2562808990479,16.2562694549561,16.2562561035156,16.2562446594238,16.2562313079834,16.256217956543,16.2562065124512,16.2561931610107,16.2561817169189,16.2561683654785,16.2561550140381,16.2561435699463,16.2561302185059,16.2561187744141,16.2561054229736,16.2560920715332,16.2560806274414,16.256067276001,16.2560558319092,16.2560424804688,16.2560291290283,16.2560176849365,16.2560043334961,16.2559928894043,16.2559795379639,16.2559661865234,16.2559547424316,16.2559413909912,16.2559299468994,16.255916595459,16.2559032440186,16.2558917999268,16.2558784484863,16.2558670043945,16.2558555603027,16.2558441162109,16.2558326721191,16.2558193206787,16.2558078765869,16.2557964324951,16.2557849884033,16.2557735443115,16.2557601928711,16.2557487487793,16.2557373046875,16.2557258605957,16.2557144165039,16.2557010650635,16.203161239624,16.2031631469727,16.2031631469727,16.2031650543213,16.2031650543213,16.2031669616699,16.2031669616699,16.2031688690186,16.2031688690186,16.2031707763672,0,0,0,0,0,0,0,0,0,0,0,0,0,0,0,0,0,0,0,0,0,0,0,0,0,0,0,0,0,0,0,0,0,0,0,0,0
16.2189502716064,16.3296756744385,16.3296756744385,16.3659610748291,16.3659629821777,16.3659629821777,16.3659648895264,16.3659648895264,16.365966796875,16.365966796875,16.3659687042236,16.3659687042236,16.3659706115723,16.3659706115723,16.3659725189209,16.3659725189209,16.3659744262695,16.3659744262695,16.3659763336182,16.3659782409668,16.3659782409668,16.3296947479248,16.3296985626221,16.3659820556641,16.3659820556641,16.3659839630127,16.3659839630127,16.3659858703613,16.3659858703613,16.36598777771,16.36598777771,16.3659896850586,16.3659896850586,16.3659915924072,16.3659915924072,16.3659934997559,16.3659934997559,16.3659954071045,16.3659954071045,16.3659973144531,16.3659973144531,16.3297176361084,16.329719543457,16.3166313171387,16.2219181060791,16.2189960479736,16.2189979553223,16.2189979553223,16.2189998626709,16.2577743530273,16.2577629089355,16.2577495574951,16.2577362060547,16.2577247619629,16.2577114105225,16.2576999664307,16.2576866149902,16.2576732635498,16.257661819458,16.2576484680176,16.2576370239258,16.2576236724854,16.2576103210449,16.2575988769531,16.2575855255127,16.2575740814209,16.2575607299805,16.25754737854,16.2575359344482,16.2575225830078,16.257511138916,16.2574977874756,16.2574844360352,16.2574729919434,16.2574596405029,16.2574481964111,16.2574348449707,16.2574214935303,16.2574100494385,16.257396697998,16.2573852539062,16.2573719024658,16.2573585510254,16.2573471069336,16.2573337554932,16.2573223114014,16.2573089599609,16.2572956085205,16.2572841644287,16.2572708129883,16.2572593688965,16.2572460174561,16.2572326660156,16.2572212219238,16.2572078704834,16.2571964263916,16.2571830749512,16.2571697235107,16.2571582794189,16.2571449279785,16.2571334838867,16.2571201324463,16.2571067810059,16.2570953369141,16.2570819854736,16.2570705413818,16.2570571899414,16.257043838501,16.2570323944092,16.2570190429688,16.257007598877,16.2569942474365,16.2569808959961,16.2569694519043,16.2569561004639,16.2569446563721,16.2569313049316,16.2569179534912,16.2569065093994,16.256893157959,16.2568817138672,16.2568683624268,16.2568550109863,16.2568435668945,16.2568302154541,16.2568187713623,16.2568054199219,16.2567920684814,16.2567806243896,16.2567691802979,16.2567577362061,16.2567462921143,16.2567348480225,16.256721496582,16.2567100524902,16.2566986083984,16.2566871643066,16.2566757202148,16.2566623687744,16.2566509246826,16.2566394805908,16.256628036499,16.2040843963623,16.2040843963623,16.2040863037109,16.2040863037109,16.2040882110596,16.2040882110596,16.2040901184082,16.2040920257568,16.2040920257568,16.2040939331055,0,0,0,0,0,0,0,0,0,0,0,0,0,0,0,0,0,0,0,0,0,0,0,0,0,0,0,0,0,0,0,0,0,0,0,0,0
16.2198753356934,16.3306064605713,16.3306045532227,16.3668937683105,16.3668937683105,16.3668956756592,16.3668956756592,16.3668975830078,16.3668994903564,16.3668994903564,16.3669013977051,16.3669013977051,16.3669033050537,16.3669033050537,16.3669052124023,16.3669052124023,16.366907119751,16.366907119751,16.3669090270996,16.3669090270996,16.3669109344482,16.3306255340576,16.3306274414062,16.3669128417969,16.3669147491455,16.3669147491455,16.3669166564941,16.3669166564941,16.3669185638428,16.3669185638428,16.3669204711914,16.3669204711914,16.36692237854,16.3669242858887,16.3669242858887,16.3669261932373,16.3669261932373,16.3669281005859,16.3669281005859,16.3669300079346,16.3669300079346,16.3306484222412,16.3306503295898,16.3165912628174,16.2218780517578,16.2199211120605,16.2199211120605,16.2199230194092,16.2199230194092,16.2587013244629,16.2586898803711,16.2586765289307,16.2586631774902,16.2586517333984,16.258638381958,16.2586269378662,16.2586135864258,16.2586002349854,16.2585887908936,16.2585754394531,16.2585639953613,16.2585506439209,16.2585372924805,16.2585258483887,16.2585124969482,16.2585010528564,16.258487701416,16.2584743499756,16.2584629058838,16.2584495544434,16.2584381103516,16.2584247589111,16.2584114074707,16.2583999633789,16.2583866119385,16.2583751678467,16.2583618164062,16.2583484649658,16.258337020874,16.2583236694336,16.2583122253418,16.2582988739014,16.2582855224609,16.2582740783691,16.2582607269287,16.2582492828369,16.2582359313965,16.2582225799561,16.2582111358643,16.2581977844238,16.258186340332,16.2581729888916,16.2581596374512,16.2581481933594,16.2581348419189,16.2581233978271,16.2581100463867,16.2580966949463,16.2580852508545,16.2580718994141,16.2580604553223,16.2580471038818,16.2580337524414,16.2580223083496,16.2580089569092,16.2579975128174,16.257984161377,16.2579708099365,16.2579593658447,16.2579460144043,16.2579345703125,16.2579212188721,16.2579078674316,16.2578964233398,16.2578830718994,16.2578716278076,16.2578582763672,16.2578449249268,16.257833480835,16.2578201293945,16.2578086853027,16.2577953338623,16.2577819824219,16.2577705383301,16.2577571868896,16.2577457427979,16.2577323913574,16.257719039917,16.2577075958252,16.2576942443848,16.257682800293,16.2576713562012,16.2576599121094,16.2576484680176,16.2576370239258,16.2576236724854,16.2576122283936,16.2576007843018,16.25758934021,16.2575778961182,16.2575645446777,16.2575531005859,16.2050075531006,16.2050075531006,16.2050094604492,16.2050094604492,16.2050113677979,16.2050113677979,16.2050132751465,16.2050151824951,16.2050151824951,16.2050170898438,0,0,0,0,0,0,0,0,0,0,0,0,0,0,0,0,0,0,0,0,0,0,0,0,0,0,0,0,0,0,0,0,0,0,0,0,0
16.2207984924316,16.3315353393555,16.3315353393555,16.367826461792,16.367826461792,16.3678283691406,16.3678283691406,16.3678302764893,16.3678302764893,16.3678321838379,16.3678321838379,16.3678340911865,16.3678340911865,16.3678359985352,16.3678359985352,16.3678379058838,16.3678379058838,16.3678398132324,16.3678417205811,16.3678417205811,16.3678436279297,16.3315563201904,16.3315582275391,16.3678455352783,16.367847442627,16.367847442627,16.3678493499756,16.3678493499756,16.3678512573242,16.3678512573242,16.3678531646729,16.3678531646729,16.3678550720215,16.3678550720215,16.3678569793701,16.3678569793701,16.3678588867188,16.3678588867188,16.3678607940674,16.3678607940674,16.367862701416,16.331579208374,16.3315811157227,16.3165531158447,16.2218379974365,16.2208442687988,16.2208442687988,16.2208461761475,16.2208480834961,16.2596282958984,16.2596168518066,16.2596035003662,16.2595901489258,16.259578704834,16.2595653533936,16.2595539093018,16.2595405578613,16.2595272064209,16.2595157623291,16.2595024108887,16.2594909667969,16.2594776153564,16.259464263916,16.2594528198242,16.2594394683838,16.259428024292,16.2594146728516,16.2594013214111,16.2593898773193,16.2593765258789,16.2593650817871,16.2593517303467,16.2593383789062,16.2593269348145,16.259313583374,16.2593021392822,16.2592887878418,16.2592754364014,16.2592639923096,16.2592506408691,16.2592391967773,16.2592258453369,16.2592124938965,16.2592010498047,16.2591876983643,16.2591762542725,16.259162902832,16.2591495513916,16.2591381072998,16.2591247558594,16.2591133117676,16.2590999603271,16.2590866088867,16.2590751647949,16.2590618133545,16.2590503692627,16.2590370178223,16.2590236663818,16.25901222229,16.2589988708496,16.2589874267578,16.2589740753174,16.258960723877,16.2589492797852,16.2589359283447,16.2589244842529,16.2589111328125,16.2588977813721,16.2588863372803,16.2588729858398,16.258861541748,16.2588481903076,16.2588348388672,16.2588233947754,16.258810043335,16.2587985992432,16.2587852478027,16.2587718963623,16.2587604522705,16.2587471008301,16.2587356567383,16.2587223052979,16.2587089538574,16.2586975097656,16.2586841583252,16.2586727142334,16.258659362793,16.2586460113525,16.2586345672607,16.2586212158203,16.2586097717285,16.2585983276367,16.2585849761963,16.2585735321045,16.2585620880127,16.2585506439209,16.2585391998291,16.2585258483887,16.2585144042969,16.2585029602051,16.2584915161133,16.2584800720215,16.2059307098389,16.2059307098389,16.2059326171875,16.2059326171875,16.2059345245361,16.2059345245361,16.2059364318848,16.2059383392334,16.2059383392334,16.205940246582,0,0,0,0,0,0,0,0,0,0,0,0,0,0,0,0,0,0,0,0,0,0,0,0,0,0,0,0,0,0,0,0,0,0,0,0,0
16.2217235565186,16.3324661254883,16.3324661254883,16.3324661254883,16.3324680328369,16.3324699401855,16.3324699401855,16.3324718475342,16.3324718475342,16.3324737548828,16.3324737548828,16.3324756622314,16.3324756622314,16.3324775695801,16.3324775695801,16.3324794769287,16.3324813842773,16.3324813842773,16.332483291626,16.332483291626,16.3324851989746,16.3324871063232,16.3324890136719,16.3324909210205,16.3324909210205,16.3324928283691,16.3324928283691,16.3324947357178,16.3324947357178,16.3324966430664,16.3324966430664,16.332498550415,16.332498550415,16.3325004577637,16.3325023651123,16.3325023651123,16.3325042724609,16.3325042724609,16.3325061798096,16.3325061798096,16.3325080871582,16.3325080871582,16.3325099945068,16.3165149688721,16.2217998504639,16.2217674255371,16.2217693328857,16.2217693328857,16.2217712402344,16.260555267334,16.2605438232422,16.2605304718018,16.26051902771,16.2605056762695,16.2604923248291,16.2604808807373,16.2604675292969,16.2604560852051,16.2604427337646,16.2604293823242,16.2604179382324,16.260404586792,16.2603931427002,16.2603797912598,16.2603664398193,16.2603549957275,16.2603416442871,16.2603302001953,16.2603168487549,16.2603034973145,16.2602920532227,16.2602787017822,16.2602672576904,16.26025390625,16.2602405548096,16.2602291107178,16.2602157592773,16.2602043151855,16.2601909637451,16.2601776123047,16.2601661682129,16.2601528167725,16.2601413726807,16.2601280212402,16.2601146697998,16.260103225708,16.2600898742676,16.2600784301758,16.2600650787354,16.2600517272949,16.2600402832031,16.2600269317627,16.2600135803223,16.2600021362305,16.25998878479,16.2599773406982,16.2599639892578,16.2599506378174,16.2599391937256,16.2599258422852,16.2599143981934,16.2599010467529,16.2598876953125,16.2598762512207,16.2598628997803,16.2598514556885,16.259838104248,16.2598247528076,16.2598133087158,16.2597999572754,16.2597885131836,16.2597751617432,16.2597618103027,16.2597503662109,16.2597370147705,16.2597255706787,16.2597122192383,16.2596988677979,16.2596874237061,16.2596740722656,16.2596626281738,16.2596492767334,16.259635925293,16.2596244812012,16.2596111297607,16.2595996856689,16.2595863342285,16.2595729827881,16.2595615386963,16.2595481872559,16.2595367431641,16.2595233917236,16.2595119476318,16.25950050354,16.2594871520996,16.2594757080078,16.259464263916,16.2594528198242,16.2594413757324,16.2594299316406,16.2594165802002,16.2593975067139,16.2068538665771,16.2068538665771,16.2068557739258,16.2068557739258,16.2068576812744,16.2068576812744,16.206859588623,16.2068614959717,16.2068614959717,16.2068634033203,0,0,0,0,0,0,0,0,0,0,0,0,0,0,0,0,0,0,0,0,0,0,0,0,0,0,0,0,0,0,0,0,0,0,0,0,0
16.2226467132568,16.3333969116211,16.3333969116211,16.3333969116211,16.3333988189697,16.3334007263184,16.3334007263184,16.333402633667,16.333402633667,16.3334045410156,16.3334045410156,16.3334064483643,16.3334064483643,16.3334083557129,16.3334083557129,16.3334102630615,16.3334121704102,16.3334121704102,16.3334140777588,16.3334140777588,16.3334159851074,16.3334178924561,16.3334197998047,16.3334197998047,16.3334217071533,16.333423614502,16.333423614502,16.3334255218506,16.3334255218506,16.3334274291992,16.3334274291992,16.3334293365479,16.3334293365479,16.3334312438965,16.3334312438965,16.3334331512451,16.3334350585938,16.3334350585938,16.3334369659424,16.3334369659424,16.333438873291,16.333438873291,16.3334407806396,16.3164749145508,16.2226905822754,16.222692489624,16.222692489624,16.2226943969727,16.2226963043213,16.2614841461182,16.2614707946777,16.2614574432373,16.2614459991455,16.2614326477051,16.2614212036133,16.2614078521729,16.2613945007324,16.2613830566406,16.2613697052002,16.2613582611084,16.261344909668,16.2613315582275,16.2613201141357,16.2613067626953,16.2612934112549,16.2612819671631,16.2612686157227,16.2612571716309,16.2612438201904,16.26123046875,16.2612190246582,16.2612056732178,16.261194229126,16.2611808776855,16.2611675262451,16.2611560821533,16.2611427307129,16.2611312866211,16.2611179351807,16.2611045837402,16.2610931396484,16.261079788208,16.2610683441162,16.2610549926758,16.2610416412354,16.2610301971436,16.2610168457031,16.2610054016113,16.2609920501709,16.2609786987305,16.2609672546387,16.2609539031982,16.2609424591064,16.260929107666,16.2609157562256,16.2609043121338,16.2608909606934,16.2608795166016,16.2608661651611,16.2608528137207,16.2608413696289,16.2608280181885,16.2608165740967,16.2608032226562,16.2607898712158,16.260778427124,16.2607650756836,16.2607536315918,16.2607402801514,16.2607269287109,16.2607154846191,16.2607021331787,16.2606906890869,16.2606773376465,16.2606639862061,16.2606525421143,16.2606391906738,16.260627746582,16.2606143951416,16.2606010437012,16.2605895996094,16.2605762481689,16.2605648040771,16.2605514526367,16.2605381011963,16.2605266571045,16.2605133056641,16.2605018615723,16.2604885101318,16.2604751586914,16.2604637145996,16.2604503631592,16.2604389190674,16.260425567627,16.2604141235352,16.2604026794434,16.2603912353516,16.2603778839111,16.2603664398193,16.2603549957275,16.2603435516357,16.2593746185303,16.2077770233154,16.2077770233154,16.2077789306641,16.2077789306641,16.2077808380127,16.2077808380127,16.2077827453613,16.20778465271,16.20778465271,16.2077865600586,0,0,0,0,0,0,0,0,0,0,0,0,0,0,0,0,0,0,0,0,0,0,0,0,0,0,0,0,0,0,0,0,0,0,0,0,0
16.2235717773438,16.3343276977539,16.3343276977539,16.3343296051025,16.3343296051025,16.3343315124512,16.3343315124512,16.3343334197998,16.3343334197998,16.3343353271484,16.3343353271484,16.3343372344971,16.3343372344971,16.3343391418457,16.3343391418457,16.3343410491943,16.334342956543,16.334342956543,16.3343448638916,16.3343448638916,16.3343467712402,16.3343467712402,16.3343505859375,16.3343505859375,16.3343524932861,16.3343524932861,16.3343544006348,16.3343563079834,16.3343563079834,16.334358215332,16.334358215332,16.3343601226807,16.3343601226807,16.3343620300293,16.3343620300293,16.3343639373779,16.3343658447266,16.3343658447266,16.3343677520752,16.3343677520752,16.3343696594238,16.3343696594238,16.3343715667725,16.3164367675781,16.2236156463623,16.2236175537109,16.2236175537109,16.2236194610596,16.2236194610596,16.2624111175537,16.2623977661133,16.2623863220215,16.2623729705811,16.2623596191406,16.2623481750488,16.2623348236084,16.2623233795166,16.2623100280762,16.2622966766357,16.2622852325439,16.2622718811035,16.2622604370117,16.2622470855713,16.2622337341309,16.2622222900391,16.2622089385986,16.2621955871582,16.2621841430664,16.262170791626,16.2621593475342,16.2621459960938,16.2621326446533,16.2621212005615,16.2621078491211,16.2620964050293,16.2620830535889,16.2620697021484,16.2620582580566,16.2620449066162,16.2620334625244,16.262020111084,16.2620067596436,16.2619953155518,16.2619819641113,16.2619705200195,16.2619571685791,16.2619438171387,16.2619323730469,16.2619190216064,16.2619075775146,16.2618942260742,16.2618808746338,16.261869430542,16.2618560791016,16.2618446350098,16.2618312835693,16.2618179321289,16.2618064880371,16.2617931365967,16.2617816925049,16.2617683410645,16.261754989624,16.2617435455322,16.2617301940918,16.26171875,16.2617053985596,16.2616920471191,16.2616806030273,16.2616672515869,16.2616558074951,16.2616424560547,16.2616291046143,16.2616176605225,16.261604309082,16.2615928649902,16.2615795135498,16.2615661621094,16.2615547180176,16.2615413665771,16.2615299224854,16.2615165710449,16.2615032196045,16.2614917755127,16.2614784240723,16.2614669799805,16.26145362854,16.2614402770996,16.2614288330078,16.2614154815674,16.2614040374756,16.2613906860352,16.2613773345947,16.2613658905029,16.2613525390625,16.2613410949707,16.2613277435303,16.2613162994385,16.2613048553467,16.2612934112549,16.2612819671631,16.2612705230713,16.2593517303467,16.2087001800537,16.2087001800537,16.2087020874023,16.208703994751,16.208703994751,16.2087059020996,16.2087059020996,16.2087078094482,16.2087078094482,16.2087097167969,0,0,0,0,0,0,0,0,0,0,0,0,0,0,0,0,0,0,0,0,0,0,0,0,0,0,0,0,0,0,0,0,0,0,0,0,0
16.224494934082,16.3352584838867,16.3352584838867,16.3352603912354,16.3352603912354,16.335262298584,16.335262298584,16.3352642059326,16.3352642059326,16.3352661132812,16.3352661132812,16.3352680206299,16.3352699279785,16.3352699279785,16.3352718353271,16.3352718353271,16.3352737426758,16.3352737426758,16.3352756500244,16.3352756500244,16.335277557373,16.335277557373,16.3352813720703,16.3352813720703,16.3352832794189,16.3352832794189,16.3352851867676,16.3352870941162,16.3352870941162,16.3352890014648,16.3352890014648,16.3352909088135,16.3352909088135,16.3352928161621,16.3352928161621,16.3352947235107,16.3352966308594,16.3352966308594,16.335298538208,16.335298538208,16.3353004455566,16.3353004455566,16.3353023529053,16.3163986206055,16.2245407104492,16.2245407104492,16.2245426177979,16.2245426177979,16.2245445251465,16.2633380889893,16.2633247375488,16.263313293457,16.2632999420166,16.2632884979248,16.2632751464844,16.2632617950439,16.2632503509521,16.2632369995117,16.2632255554199,16.2632122039795,16.2631988525391,16.2631874084473,16.2631740570068,16.263162612915,16.2631492614746,16.2631359100342,16.2631244659424,16.263111114502,16.2630996704102,16.2630863189697,16.2630729675293,16.2630615234375,16.2630481719971,16.2630367279053,16.2630233764648,16.2630100250244,16.2629985809326,16.2629852294922,16.2629737854004,16.26296043396,16.2629470825195,16.2629356384277,16.2629222869873,16.2629089355469,16.2628974914551,16.2628841400146,16.2628726959229,16.2628593444824,16.262845993042,16.2628345489502,16.2628211975098,16.262809753418,16.2627964019775,16.2627830505371,16.2627716064453,16.2627582550049,16.2627468109131,16.2627334594727,16.2627201080322,16.2627086639404,16.2626953125,16.2626838684082,16.2626705169678,16.2626571655273,16.2626457214355,16.2626323699951,16.2626209259033,16.2626075744629,16.2625942230225,16.2625827789307,16.2625694274902,16.2625579833984,16.262544631958,16.2625312805176,16.2625198364258,16.2625064849854,16.2624950408936,16.2624816894531,16.2624683380127,16.2624568939209,16.2624435424805,16.2624320983887,16.2624187469482,16.2624053955078,16.262393951416,16.2623805999756,16.2623691558838,16.2623558044434,16.2623424530029,16.2623310089111,16.2623176574707,16.2623062133789,16.2622928619385,16.262279510498,16.2622680664062,16.2622547149658,16.262243270874,16.2622318267822,16.2622203826904,16.26220703125,16.2621955871582,16.2593288421631,16.209623336792,16.2096252441406,16.2096252441406,16.2096271514893,16.2096271514893,16.2096290588379,16.2096290588379,16.2096309661865,16.2096328735352,16.2096328735352,0,0,0,0,0,0,0,0,0,0,0,0,0,0,0,0,0,0,0,0,0,0,0,0,0,0,0,0,0,0,0,0,0,0,0,0,0
16.2254199981689,16.3361892700195,16.3361892700195,16.3361911773682,16.3361911773682,16.3361930847168,16.3361949920654,16.3361949920654,16.3361968994141,16.3361968994141,16.3361988067627,16.3361988067627,16.3362007141113,16.3362007141113,16.33620262146,16.33620262146,16.3362045288086,16.3362045288086,16.3362064361572,16.3362083435059,16.3362083435059,16.3362102508545,16.3362121582031,16.3362121582031,16.3362140655518,16.3362140655518,16.3362159729004,16.336217880249,16.336217880249,16.3362197875977,16.3362197875977,16.3362216949463,16.3362216949463,16.3362236022949,16.3362255096436,16.3362255096436,16.3362274169922,16.3362274169922,16.3362293243408,16.3362293243408,16.3362312316895,16.3362312316895,16.3362331390381,16.3163585662842,16.2254638671875,16.2254657745361,16.2254657745361,16.2254676818848,16.2254676818848,16.2642650604248,16.264253616333,16.2642402648926,16.2642288208008,16.2642154693604,16.2642021179199,16.2641906738281,16.2641773223877,16.2641658782959,16.2641525268555,16.264139175415,16.2641277313232,16.2641143798828,16.2641010284424,16.2640895843506,16.2640762329102,16.2640647888184,16.2640514373779,16.2640380859375,16.2640266418457,16.2640132904053,16.2640018463135,16.263988494873,16.2639751434326,16.2639636993408,16.2639503479004,16.2639389038086,16.2639255523682,16.2639122009277,16.2639007568359,16.2638874053955,16.2638759613037,16.2638626098633,16.2638492584229,16.2638378143311,16.2638244628906,16.2638130187988,16.2637996673584,16.263786315918,16.2637748718262,16.2637615203857,16.2637500762939,16.2637367248535,16.2637233734131,16.2637119293213,16.2636985778809,16.2636871337891,16.2636737823486,16.2636604309082,16.2636489868164,16.263635635376,16.2636241912842,16.2636108398438,16.2635974884033,16.2635860443115,16.2635726928711,16.2635593414307,16.2635478973389,16.2635345458984,16.2635231018066,16.2635097503662,16.2634963989258,16.263484954834,16.2634716033936,16.2634601593018,16.2634468078613,16.2634334564209,16.2634220123291,16.2634086608887,16.2633972167969,16.2633838653564,16.263370513916,16.2633590698242,16.2633457183838,16.263334274292,16.2633209228516,16.2633075714111,16.2632961273193,16.2632827758789,16.2632713317871,16.2632579803467,16.2632446289062,16.2632331848145,16.263219833374,16.2632083892822,16.2631950378418,16.2631816864014,16.2631702423096,16.2631587982178,16.2631454467773,16.2631340026855,16.2631225585938,16.2593059539795,16.2105464935303,16.2105484008789,16.2105484008789,16.2105503082275,16.2105503082275,16.2105522155762,16.2105541229248,16.2105541229248,16.2105560302734,16.2105560302734,0,0,0,0,0,0,0,0,0,0,0,0,0,0,0,0,0,0,0,0,0,0,0,0,0,0,0,0,0,0,0,0,0,0,0,0,0
16.2263450622559,16.3371200561523,16.337121963501,16.337121963501,16.3371238708496,16.3371238708496,16.3371257781982,16.3371257781982,16.3371276855469,16.3371276855469,16.3371295928955,16.3371295928955,16.3371315002441,16.3371334075928,16.3371334075928,16.3371353149414,16.3371353149414,16.33713722229,16.33713722229,16.3371391296387,16.3371391296387,16.3371410369873,16.3371429443359,16.3371429443359,16.3371448516846,16.3371448516846,16.3371467590332,16.3371486663818,16.3371486663818,16.3371505737305,16.3371505737305,16.3371524810791,16.3371524810791,16.3371543884277,16.3371562957764,16.3371562957764,16.337158203125,16.337158203125,16.3371601104736,16.3371601104736,16.3371620178223,16.3371639251709,16.3371639251709,16.3163204193115,16.2263889312744,16.226390838623,16.226390838623,16.2263927459717,16.2263927459717,16.265193939209,16.2651805877686,16.2651691436768,16.2651557922363,16.2651424407959,16.2651309967041,16.2651176452637,16.2651042938232,16.2650928497314,16.265079498291,16.2650680541992,16.2650547027588,16.2650413513184,16.2650299072266,16.2650165557861,16.2650051116943,16.2649917602539,16.2649784088135,16.2649669647217,16.2649536132812,16.2649421691895,16.264928817749,16.2649154663086,16.2649040222168,16.2648906707764,16.2648792266846,16.2648658752441,16.2648525238037,16.2648410797119,16.2648277282715,16.2648162841797,16.2648029327393,16.2647895812988,16.264778137207,16.2647647857666,16.2647533416748,16.2647399902344,16.2647266387939,16.2647151947021,16.2647018432617,16.2646903991699,16.2646770477295,16.2646636962891,16.2646522521973,16.2646389007568,16.2646255493164,16.2646141052246,16.2646007537842,16.2645893096924,16.264575958252,16.2645626068115,16.2645511627197,16.2645378112793,16.2645263671875,16.2645130157471,16.2644996643066,16.2644882202148,16.2644748687744,16.2644634246826,16.2644500732422,16.2644367218018,16.26442527771,16.2644119262695,16.2644004821777,16.2643871307373,16.2643737792969,16.2643623352051,16.2643489837646,16.2643375396729,16.2643241882324,16.264310836792,16.2642993927002,16.2642860412598,16.264274597168,16.2642612457275,16.2642478942871,16.2642364501953,16.2642230987549,16.2642116546631,16.2641983032227,16.2641849517822,16.2641735076904,16.26416015625,16.2641487121582,16.2641353607178,16.2641220092773,16.2641105651855,16.2640972137451,16.2640838623047,16.2640724182129,16.2640609741211,16.2640495300293,16.2592830657959,16.2114715576172,16.2114715576172,16.2114734649658,16.2114734649658,16.2114753723145,16.2114753723145,16.2114772796631,16.2114791870117,16.2114791870117,16.2114810943604,0,0,0,0,0,0,0,0,0,0,0,0,0,0,0,0,0,0,0,0,0,0,0,0,0,0,0,0,0,0,0,0,0,0,0,0,0
16.2272701263428,16.3380508422852,16.3380527496338,16.3380546569824,16.3380546569824,16.3380565643311,16.3380565643311,16.3380584716797,16.3380584716797,16.3380603790283,16.3380603790283,16.338062286377,16.338062286377,16.3380641937256,16.3380641937256,16.3380661010742,16.3380661010742,16.3380680084229,16.3380699157715,16.3380699157715,16.3380718231201,16.3380718231201,16.3380737304688,16.3380737304688,16.3380756378174,16.338077545166,16.338077545166,16.3380794525146,16.3380794525146,16.3380813598633,16.3380813598633,16.3380832672119,16.3380851745605,16.3380851745605,16.3380870819092,16.3380870819092,16.3380889892578,16.3380889892578,16.3380908966064,16.3380928039551,16.3380928039551,16.3380947113037,16.3380947113037,16.3162803649902,16.2273139953613,16.2273139953613,16.22731590271,16.22731590271,16.2273178100586,16.2661209106445,16.2661094665527,16.2660961151123,16.2660827636719,16.2660713195801,16.2660579681396,16.2660465240479,16.2660331726074,16.266019821167,16.2660083770752,16.2659950256348,16.2659816741943,16.2659702301025,16.2659568786621,16.2659454345703,16.2659320831299,16.2659187316895,16.2659072875977,16.2658939361572,16.2658824920654,16.265869140625,16.2658557891846,16.2658443450928,16.2658309936523,16.2658195495605,16.2658061981201,16.2657928466797,16.2657814025879,16.2657680511475,16.2657566070557,16.2657432556152,16.2657299041748,16.265718460083,16.2657051086426,16.2656936645508,16.2656803131104,16.2656669616699,16.2656555175781,16.2656421661377,16.2656307220459,16.2656173706055,16.265604019165,16.2655925750732,16.2655792236328,16.265567779541,16.2655544281006,16.2655410766602,16.2655296325684,16.2655162811279,16.2655029296875,16.2654914855957,16.2654781341553,16.2654666900635,16.265453338623,16.2654399871826,16.2654285430908,16.2654151916504,16.2654037475586,16.2653903961182,16.2653770446777,16.2653656005859,16.2653522491455,16.2653408050537,16.2653274536133,16.2653141021729,16.2653026580811,16.2652893066406,16.2652778625488,16.2652645111084,16.265251159668,16.2652397155762,16.2652263641357,16.2652149200439,16.2652015686035,16.2651882171631,16.2651767730713,16.2651634216309,16.2651519775391,16.2651386260986,16.2651252746582,16.2651138305664,16.265100479126,16.2650871276855,16.2650756835938,16.2650623321533,16.2650508880615,16.2650375366211,16.2650241851807,16.2650127410889,16.2649993896484,16.2649879455566,16.2649765014648,16.2592601776123,16.2123947143555,16.2123966217041,16.2123966217041,16.2123985290527,16.2123985290527,16.2124004364014,16.2124004364014,16.21240234375,16.21240234375,16.2124042510986,0,0,0,0,0,0,0,0,0,0,0,0,0,0,0,0,0,0,0,0,0,0,0,0,0,0,0,0,0,0,0,0,0,0,0,0,0
16.1932525634766,16.1932544708252,16.1932544708252,16.1932563781738,16.1932563781738,16.1932582855225,16.1932582855225,16.1932601928711,16.1932621002197,16.1932621002197,16.1932640075684,16.1932640075684,16.193265914917,16.193265914917,16.1932678222656,16.1932678222656,16.1932697296143,16.1932697296143,16.1932716369629,16.1932716369629,16.1932735443115,16.1932735443115,16.1932754516602,16.1932773590088,16.1932773590088,16.1932792663574,16.1932792663574,16.1932811737061,16.1932811737061,16.1932830810547,16.1932830810547,16.1932849884033,16.193286895752,16.193286895752,16.1932888031006,16.1932888031006,16.1932907104492,16.1932907104492,16.1932926177979,16.1932945251465,16.1932945251465,16.1932964324951,16.1932964324951,16.1932983398438,16.1932983398438,16.1933002471924,16.193302154541,16.193302154541,16.1933040618896,16.2670497894287,16.2670364379883,16.2670230865479,16.2670116424561,16.2669982910156,16.2669868469238,16.2669734954834,16.266960144043,16.2669486999512,16.2669353485107,16.2669239044189,16.2669105529785,16.2668972015381,16.2668857574463,16.2668724060059,16.2668609619141,16.2668476104736,16.2668342590332,16.2668228149414,16.266809463501,16.2667980194092,16.2667846679688,16.2667713165283,16.2667598724365,16.2667465209961,16.2667331695557,16.2667217254639,16.2667083740234,16.2666969299316,16.2666835784912,16.2666702270508,16.266658782959,16.2666454315186,16.2666339874268,16.2666206359863,16.2666072845459,16.2665958404541,16.2665824890137,16.2665710449219,16.2665576934814,16.266544342041,16.2665328979492,16.2665195465088,16.266508102417,16.2664947509766,16.2664813995361,16.2664699554443,16.2664566040039,16.2664451599121,16.2664318084717,16.2664184570312,16.2664070129395,16.266393661499,16.2663822174072,16.2663688659668,16.2663555145264,16.2663440704346,16.2663307189941,16.2663173675537,16.2663059234619,16.2662925720215,16.2662811279297,16.2662677764893,16.2662544250488,16.266242980957,16.2662296295166,16.2662181854248,16.2662048339844,16.2661914825439,16.2661800384521,16.2661666870117,16.2661552429199,16.2661418914795,16.2661285400391,16.2661170959473,16.2661037445068,16.266092300415,16.2660789489746,16.2660655975342,16.2660541534424,16.266040802002,16.2660293579102,16.2660160064697,16.2660026550293,16.2659912109375,16.2659778594971,16.2659645080566,16.2659530639648,16.2659397125244,16.2659282684326,16.2659149169922,16.2659015655518,16.2592372894287,16.2133178710938,16.2133197784424,16.2133197784424,16.213321685791,16.2133235931396,16.2133235931396,16.2133255004883,16.2133255004883,16.2133274078369,16.2133274078369,0,0,0,0,0,0,0,0,0,0,0,0,0,0,0,0,0,0,0,0,0,0,0,0,0,0,0,0,0,0,0,0,0,0,0,0,0
16.1941757202148,16.1941757202148,16.1941776275635,16.1941776275635,16.1941795349121,16.1941795349121,16.1941814422607,16.1941814422607,16.1941833496094,16.194185256958,16.194185256958,16.1941871643066,16.1941871643066,16.1941890716553,16.1941890716553,16.1941909790039,16.1941928863525,16.1941928863525,16.1941947937012,16.1941947937012,16.1941967010498,16.1941967010498,16.1941986083984,16.1942005157471,16.1942005157471,16.1942024230957,16.1942024230957,16.1942043304443,16.1942043304443,16.194206237793,16.1942081451416,16.1942081451416,16.1942100524902,16.1942100524902,16.1942119598389,16.1942119598389,16.1942138671875,16.1942157745361,16.1942157745361,16.1942176818848,16.1942176818848,16.1942195892334,16.1942195892334,16.194221496582,16.194221496582,16.1942234039307,16.1942253112793,16.1942253112793,16.1942272186279,16.267972946167,16.2679595947266,16.2679481506348,16.2679347991943,16.2679214477539,16.2679100036621,16.2678966522217,16.2678852081299,16.2678718566895,16.267858505249,16.2678470611572,16.2678337097168,16.267822265625,16.2678089141846,16.2677955627441,16.2677841186523,16.2677707672119,16.2677574157715,16.2677459716797,16.2677326202393,16.2677211761475,16.267707824707,16.2676944732666,16.2676830291748,16.2676696777344,16.2676582336426,16.2676448822021,16.2676315307617,16.2676200866699,16.2676067352295,16.2675952911377,16.2675819396973,16.2675685882568,16.267557144165,16.2675437927246,16.2675323486328,16.2675189971924,16.267505645752,16.2674942016602,16.2674808502197,16.2674694061279,16.2674560546875,16.2674427032471,16.2674312591553,16.2674179077148,16.267406463623,16.2673931121826,16.2673797607422,16.2673683166504,16.26735496521,16.2673435211182,16.2673301696777,16.2673168182373,16.2673053741455,16.2672920227051,16.2672786712646,16.2672672271729,16.2672538757324,16.2672424316406,16.2672290802002,16.2672157287598,16.267204284668,16.2671909332275,16.2671794891357,16.2671661376953,16.2671527862549,16.2671413421631,16.2671279907227,16.2671165466309,16.2671031951904,16.26708984375,16.2670783996582,16.2670650482178,16.267053604126,16.2670402526855,16.2670269012451,16.2670154571533,16.2670021057129,16.2669906616211,16.2669773101807,16.2669639587402,16.2669525146484,16.266939163208,16.2669277191162,16.2669143676758,16.2669010162354,16.2668895721436,16.2668762207031,16.2668647766113,16.2668514251709,16.2668399810791,16.2668285369873,16.2592144012451,16.2142429351807,16.2142429351807,16.2142448425293,16.2142448425293,16.2142467498779,16.2142486572266,16.2142486572266,16.2142505645752,16.2142505645752,16.2142524719238,0,0,0,0,0,0,0,0,0,0,0,0,0,0,0,0,0,0,0,0,0,0,0,0,0,0,0,0,0,0,0,0,0,0,0,0,0
16.2676467895508,16.267671585083,16.2676982879639,16.2677230834961,16.267749786377,16.2677764892578,16.2678031921387,16.2678318023682,16.2678604125977,16.2678871154785,16.267915725708,16.2679443359375,16.2679710388184,16.2679996490479,16.2680282592773,16.2680549621582,16.2680835723877,16.2681121826172,16.268138885498,16.2681674957275,16.268196105957,16.2682228088379,16.2682514190674,16.2682800292969,16.2683067321777,16.2683353424072,16.2683639526367,16.2683906555176,16.2684192657471,16.2684478759766,16.2684745788574,16.2685031890869,16.2685317993164,16.2685585021973,16.2685871124268,16.2686157226562,16.2686424255371,16.2686710357666,16.2686996459961,16.268726348877,16.2687549591064,16.2687835693359,16.2688102722168,16.2688388824463,16.2688674926758,16.2688941955566,16.2689228057861,16.268913269043,16.2689018249512,16.2688884735107,16.2688751220703,16.2688636779785,16.2688503265381,16.2688388824463,16.2688255310059,16.2688121795654,16.2688007354736,16.2687873840332,16.2687759399414,16.268762588501,16.2687492370605,16.2687377929688,16.2687244415283,16.2687129974365,16.2686996459961,16.2686862945557,16.2686748504639,16.2686614990234,16.268648147583,16.2686367034912,16.2686233520508,16.268611907959,16.2685985565186,16.2685852050781,16.2685737609863,16.2685604095459,16.2685489654541,16.2685356140137,16.2685222625732,16.2685108184814,16.268497467041,16.2684860229492,16.2684726715088,16.2684593200684,16.2684478759766,16.2684345245361,16.2684230804443,16.2684097290039,16.2683963775635,16.2683849334717,16.2683715820312,16.2683601379395,16.268346786499,16.2683334350586,16.2683219909668,16.2683086395264,16.2682971954346,16.2682838439941,16.2682704925537,16.2682590484619,16.2682456970215,16.2682323455811,16.2682209014893,16.2682075500488,16.268196105957,16.2681827545166,16.2681694030762,16.2681579589844,16.2681446075439,16.2681331634521,16.2681198120117,16.2681064605713,16.2680950164795,16.2680816650391,16.2680702209473,16.2680568695068,16.2680435180664,16.2680320739746,16.2680187225342,16.2680072784424,16.267993927002,16.2679805755615,16.2679691314697,16.2679557800293,16.2679443359375,16.2679309844971,16.2679176330566,16.2679061889648,16.2678928375244,16.2678813934326,16.2678699493408,16.267858505249,16.2678470611572,16.2678356170654,16.2678241729736,16.2678127288818,16.26780128479,16.2677898406982,16.2677783966064,16.2677669525146,16.2677555084229,16.2591896057129,16.2151660919189,16.2151679992676,16.2151679992676,16.2151699066162,16.2151699066162,16.2151718139648,16.2151737213135,16.2151737213135,16.2151756286621,16.2151756286621,0,0,0,0,0,0,0,0,0,0,0,0,0,0,0,0,0,0,0,0,0,0,0,0,0,0,0,0,0,0,0,0,0,0,0,0,0
16.2685737609863,16.2686004638672,16.2686252593994,16.2686519622803,16.2686767578125,16.2687034606934,16.2687282562256,16.2687530517578,16.2687797546387,16.2688045501709,16.2688312530518,16.2688598632812,16.2688884735107,16.2689151763916,16.2689437866211,16.2689723968506,16.2689990997314,16.2690277099609,16.2690563201904,16.2690830230713,16.2691116333008,16.2691402435303,16.2691669464111,16.2691955566406,16.2692241668701,16.269250869751,16.2692794799805,16.26930809021,16.2693347930908,16.2693634033203,16.2693920135498,16.2694187164307,16.2694473266602,16.2694759368896,16.2695026397705,16.26953125,16.2695598602295,16.2695865631104,16.2696151733398,16.2696437835693,16.2696704864502,16.2696990966797,16.2697277069092,16.26975440979,16.2697830200195,16.269811630249,16.2698383331299,16.2698287963867,16.2698173522949,16.2698040008545,16.2697925567627,16.2697792053223,16.2697658538818,16.26975440979,16.2697410583496,16.2697296142578,16.2697162628174,16.269702911377,16.2696914672852,16.2696781158447,16.2696666717529,16.2696533203125,16.2696399688721,16.2696285247803,16.2696151733398,16.269603729248,16.2695903778076,16.2695770263672,16.2695655822754,16.269552230835,16.2695407867432,16.2695274353027,16.2695140838623,16.2695026397705,16.2694892883301,16.2694759368896,16.2694644927979,16.2694511413574,16.2694396972656,16.2694263458252,16.2694129943848,16.269401550293,16.2693881988525,16.2693767547607,16.2693634033203,16.2693500518799,16.2693386077881,16.2693252563477,16.2693138122559,16.2693004608154,16.269287109375,16.2692756652832,16.2692623138428,16.269250869751,16.2692375183105,16.2692241668701,16.2692127227783,16.2691993713379,16.2691879272461,16.2691745758057,16.2691612243652,16.2691497802734,16.269136428833,16.2691230773926,16.2691116333008,16.2690982818604,16.2690868377686,16.2690734863281,16.2690601348877,16.2690486907959,16.2690353393555,16.2690238952637,16.2690105438232,16.2689971923828,16.268985748291,16.2689723968506,16.2689609527588,16.2689476013184,16.2689342498779,16.2689228057861,16.2689113616943,16.2688999176025,16.2688884735107,16.2688770294189,16.2688655853271,16.2688541412354,16.2688426971436,16.2688312530518,16.26881980896,16.2688083648682,16.2687969207764,16.2687854766846,16.2687740325928,16.268762588501,16.2687511444092,16.2687397003174,16.2687282562256,16.2687168121338,16.268705368042,16.2686939239502,16.2686824798584,16.2591667175293,16.2160911560059,16.2160911560059,16.2160930633545,16.2160949707031,16.2160949707031,16.2160968780518,16.2160968780518,16.2160987854004,16.2160987854004,16.216100692749,0,0,0,0,0,0,0,0,0,0,0,0,0,0,0,0,0,0,0,0,0,0,0,0,0,0,0,0,0,0,0,0,0,0,0,0,0
16.2695007324219,16.2695274353027,16.269552230835,16.2695789337158,16.269603729248,16.2696304321289,16.2696552276611,16.269681930542,16.2697067260742,16.2697334289551,16.2697582244873,16.2697849273682,16.2698097229004,16.2698364257812,16.2698612213135,16.2698879241943,16.2699165344238,16.2699432373047,16.2699718475342,16.2700004577637,16.2700271606445,16.270055770874,16.2700843811035,16.2701110839844,16.2701396942139,16.2701683044434,16.2701950073242,16.2702236175537,16.2702522277832,16.2702808380127,16.2703075408936,16.270336151123,16.2703647613525,16.2703914642334,16.2704200744629,16.2704486846924,16.2704753875732,16.2705039978027,16.2705326080322,16.2705593109131,16.2705879211426,16.2706165313721,16.2706432342529,16.2706718444824,16.2707004547119,16.2707271575928,16.2707557678223,16.2707462310791,16.2707328796387,16.2707214355469,16.2707080841064,16.270694732666,16.2706832885742,16.2706699371338,16.270658493042,16.2706451416016,16.2706317901611,16.2706203460693,16.2706069946289,16.2705936431885,16.2705821990967,16.2705688476562,16.2705574035645,16.270544052124,16.2705307006836,16.2705192565918,16.2705059051514,16.2704944610596,16.2704811096191,16.2704677581787,16.2704563140869,16.2704429626465,16.2704315185547,16.2704181671143,16.2704048156738,16.270393371582,16.2703800201416,16.2703685760498,16.2703552246094,16.2703418731689,16.2703304290771,16.2703170776367,16.2703056335449,16.2702922821045,16.2702789306641,16.2702674865723,16.2702541351318,16.2702407836914,16.2702293395996,16.2702159881592,16.2702045440674,16.270191192627,16.2701778411865,16.2701663970947,16.2701530456543,16.2701416015625,16.2701282501221,16.2701148986816,16.2701034545898,16.2700901031494,16.2700786590576,16.2700653076172,16.2700519561768,16.270040512085,16.2700271606445,16.2700157165527,16.2700023651123,16.2699890136719,16.2699775695801,16.2699642181396,16.2699527740479,16.2699413299561,16.2699298858643,16.2699184417725,16.2699069976807,16.2698955535889,16.2698841094971,16.2698726654053,16.2698612213135,16.2698497772217,16.2698383331299,16.2698268890381,16.2698154449463,16.2698040008545,16.2697925567627,16.2697811126709,16.2697696685791,16.2697582244873,16.2697467803955,16.2697353363037,16.2697238922119,16.2697124481201,16.2697010040283,16.2696895599365,16.2696781158447,16.2696666717529,16.2696552276611,16.2696437835693,16.2696323394775,16.2696208953857,16.2696094512939,16.2591438293457,16.2170162200928,16.2170162200928,16.2170181274414,16.2170181274414,16.21702003479,16.21702003479,16.2170219421387,16.2170219421387,16.2170238494873,16.2170257568359,0,0,0,0,0,0,0,0,0,0,0,0,0,0,0,0,0,0,0,0,0,0,0,0,0,0,0,0,0,0,0,0,0,0,0,0,0
16.2704296112061,16.2704544067383,16.2704811096191,16.2705059051514,16.2705326080322,16.2705574035645,16.2705841064453,16.2706089019775,16.2706356048584,16.2706604003906,16.2706851959229,16.2707118988037,16.2707366943359,16.2707633972168,16.270788192749,16.2708148956299,16.2708396911621,16.270866394043,16.2708911895752,16.2709178924561,16.2709445953369,16.2709732055664,16.2709999084473,16.2710285186768,16.2710571289062,16.2710838317871,16.2711124420166,16.2711410522461,16.271167755127,16.2711963653564,16.2712249755859,16.2712516784668,16.2712802886963,16.2713088989258,16.2713356018066,16.2713642120361,16.2713928222656,16.2714195251465,16.271448135376,16.2714767456055,16.2715034484863,16.2715320587158,16.2715606689453,16.2715892791748,16.2716159820557,16.2716445922852,16.2716732025146,16.2716617584229,16.2716503143311,16.2716369628906,16.2716236114502,16.2716121673584,16.271598815918,16.2715854644775,16.2715740203857,16.2715606689453,16.2715492248535,16.2715358734131,16.2715225219727,16.2715110778809,16.2714977264404,16.2714862823486,16.2714729309082,16.2714595794678,16.271448135376,16.2714347839355,16.2714233398438,16.2714099884033,16.2713966369629,16.2713851928711,16.2713718414307,16.2713603973389,16.2713470458984,16.271333694458,16.2713222503662,16.2713088989258,16.2712955474854,16.2712841033936,16.2712707519531,16.2712593078613,16.2712459564209,16.2712326049805,16.2712211608887,16.2712078094482,16.2711963653564,16.271183013916,16.2711696624756,16.2711582183838,16.2711448669434,16.2711334228516,16.2711200714111,16.2711067199707,16.2710952758789,16.2710819244385,16.2710704803467,16.2710571289062,16.2710437774658,16.271032333374,16.2710189819336,16.2710075378418,16.2709941864014,16.2709827423096,16.2709712982178,16.270959854126,16.2709484100342,16.2709369659424,16.2709255218506,16.2709140777588,16.270902633667,16.2708911895752,16.2708797454834,16.2708683013916,16.2708568572998,16.270845413208,16.2708339691162,16.2708225250244,16.2708110809326,16.2707996368408,16.270788192749,16.2707767486572,16.2707653045654,16.2707538604736,16.2707424163818,16.27073097229,16.2707195281982,16.2707080841064,16.2706966400146,16.2706851959229,16.2706737518311,16.2706623077393,16.2706508636475,16.2706394195557,16.2706279754639,16.2706165313721,16.2706050872803,16.2705936431885,16.2705821990967,16.2705707550049,16.2705593109131,16.2705478668213,16.2705364227295,16.2591209411621,16.2179393768311,16.2179412841797,16.2179412841797,16.2179431915283,16.2179431915283,16.217945098877,16.2179470062256,16.2179470062256,16.2179489135742,16.2179489135742,0,0,0,0,0,0,0,0,0,0,0,0,0,0,0,0,0,0,0,0,0,0,0,0,0,0,0,0,0,0,0,0,0,0,0,0,0
16.2713565826416,16.2713832855225,16.2714080810547,16.2714347839355,16.2714595794678,16.271484375,16.2715110778809,16.2715358734131,16.2715625762939,16.2715873718262,16.271614074707,16.2716388702393,16.2716655731201,16.2716903686523,16.2717170715332,16.2717418670654,16.2717685699463,16.2717933654785,16.2718200683594,16.2718448638916,16.2718715667725,16.2718963623047,16.2719230651855,16.2719478607178,16.27197265625,16.2720012664795,16.272029876709,16.2720565795898,16.2720851898193,16.2721138000488,16.2721405029297,16.2721691131592,16.2721977233887,16.2722244262695,16.272253036499,16.2722816467285,16.2723083496094,16.2723369598389,16.2723655700684,16.2723922729492,16.2724208831787,16.2724494934082,16.2724761962891,16.2725048065186,16.272533416748,16.2725620269775,16.2725887298584,16.2725791931152,16.2725658416748,16.2725524902344,16.2725410461426,16.2725276947021,16.2725162506104,16.2725028991699,16.2724895477295,16.2724781036377,16.2724647521973,16.2724514007568,16.272439956665,16.2724266052246,16.2724151611328,16.2724018096924,16.272388458252,16.2723770141602,16.2723636627197,16.2723522186279,16.2723388671875,16.2723255157471,16.2723140716553,16.2723007202148,16.272289276123,16.2722759246826,16.2722625732422,16.2722511291504,16.27223777771,16.2722263336182,16.2722129821777,16.2721996307373,16.2721881866455,16.2721748352051,16.2721614837646,16.2721500396729,16.2721366882324,16.2721252441406,16.2721118927002,16.2720985412598,16.272087097168,16.2720737457275,16.2720623016357,16.2720489501953,16.2720375061035,16.2720260620117,16.2720146179199,16.2720031738281,16.2719917297363,16.2719802856445,16.2719688415527,16.2719573974609,16.2719459533691,16.2719345092773,16.2719230651855,16.2719116210938,16.271900177002,16.2718887329102,16.2718772888184,16.2718658447266,16.2718544006348,16.271842956543,16.2718315124512,16.2718200683594,16.2718086242676,16.2717971801758,16.271785736084,16.2717742919922,16.2717628479004,16.2717514038086,16.2717399597168,16.271728515625,16.2717170715332,16.2717056274414,16.2716941833496,16.2716827392578,16.271671295166,16.2716598510742,16.2716484069824,16.2716369628906,16.2716255187988,16.271614074707,16.2716007232666,16.2715892791748,16.271577835083,16.2715663909912,16.2715549468994,16.2715435028076,16.2715320587158,16.271520614624,16.2715091705322,16.2714977264404,16.2714862823486,16.2714748382568,16.271463394165,16.2590980529785,16.218864440918,16.2188663482666,16.2188663482666,16.2188682556152,16.2188682556152,16.2188701629639,16.2188701629639,16.2188720703125,16.2188739776611,16.2188739776611,0,0,0,0,0,0,0,0,0,0,0,0,0,0,0,0,0,0,0,0,0,0,0,0,0,0,0,0,0,0,0,0,0,0,0,0,0
16.2722854614258,16.272310256958,16.2723350524902,16.2723617553711,16.2723865509033,16.2724132537842,16.2724380493164,16.2724647521973,16.2724895477295,16.2725162506104,16.2725410461426,16.2725677490234,16.2725925445557,16.2726192474365,16.2726440429688,16.2726707458496,16.2726955413818,16.2727222442627,16.2727470397949,16.2727737426758,16.272798538208,16.2728252410889,16.2728500366211,16.2728748321533,16.2729015350342,16.2729263305664,16.2729530334473,16.2729778289795,16.2730045318604,16.2730293273926,16.2730579376221,16.2730865478516,16.2731132507324,16.2731418609619,16.2731704711914,16.2731971740723,16.2732257843018,16.2732543945312,16.2732810974121,16.2733097076416,16.2733383178711,16.273365020752,16.2733936309814,16.2734222412109,16.2734508514404,16.2734775543213,16.2735061645508,16.273494720459,16.2734813690186,16.2734699249268,16.2734565734863,16.2734451293945,16.2734317779541,16.2734184265137,16.2734069824219,16.2733936309814,16.2733821868896,16.2733688354492,16.2733554840088,16.273344039917,16.2733306884766,16.2733173370361,16.2733058929443,16.2732925415039,16.2732810974121,16.2732677459717,16.2732543945312,16.2732429504395,16.273229598999,16.2732181549072,16.2732048034668,16.2731914520264,16.2731800079346,16.2731666564941,16.2731552124023,16.2731418609619,16.2731285095215,16.2731170654297,16.2731037139893,16.2730922698975,16.273078918457,16.2730674743652,16.2730560302734,16.2730445861816,16.2730331420898,16.273021697998,16.2730102539062,16.2729988098145,16.2729873657227,16.2729759216309,16.2729644775391,16.2729530334473,16.2729415893555,16.2729301452637,16.2729187011719,16.2729072570801,16.2728958129883,16.2728843688965,16.2728729248047,16.2728614807129,16.2728500366211,16.2728385925293,16.2728271484375,16.2728157043457,16.2728042602539,16.2727928161621,16.2727813720703,16.2727699279785,16.2727584838867,16.2727470397949,16.2727355957031,16.2727241516113,16.2727127075195,16.2727012634277,16.2726898193359,16.2726783752441,16.2726669311523,16.2726554870605,16.2726440429688,16.272632598877,16.2726211547852,16.2726097106934,16.2725982666016,16.2725868225098,16.272575378418,16.2725639343262,16.2725524902344,16.2725410461426,16.2725296020508,16.272518157959,16.2725067138672,16.2724952697754,16.2724838256836,16.2724723815918,16.2724609375,16.2724494934082,16.2724380493164,16.2724266052246,16.2724151611328,16.272403717041,16.2723922729492,16.2590751647949,16.2197895050049,16.2197895050049,16.2197914123535,16.2197914123535,16.2197933197021,16.2197952270508,16.2197952270508,16.2197971343994,16.2197971343994,16.219799041748,0,0,0,0,0,0,0,0,0,0,0,0,0,0,0,0,0,0,0,0,0,0,0,0,0,0,0,0,0,0,0,0,0,0,0,0,0
16.2732124328613,16.2732372283936,16.2732639312744,16.2732887268066,16.2733154296875,16.2733402252197,16.2733669281006,16.2733917236328,16.2734184265137,16.2734432220459,16.2734699249268,16.273494720459,16.2735214233398,16.2735462188721,16.2735729217529,16.2735977172852,16.273624420166,16.2736492156982,16.2736759185791,16.2737007141113,16.2737274169922,16.2737522125244,16.2737789154053,16.2738037109375,16.2738285064697,16.2738552093506,16.2738800048828,16.2739067077637,16.2739315032959,16.2739582061768,16.273983001709,16.2740097045898,16.2740345001221,16.2740612030029,16.2740859985352,16.2741146087646,16.2741432189941,16.2741718292236,16.2741985321045,16.274227142334,16.2742557525635,16.2742824554443,16.2743110656738,16.2743396759033,16.2743663787842,16.2743949890137,16.2744235992432,16.2744121551514,16.2743988037109,16.2743854522705,16.2743740081787,16.2743606567383,16.2743492126465,16.2743358612061,16.2743225097656,16.2743110656738,16.2742977142334,16.274284362793,16.2742729187012,16.2742595672607,16.2742481231689,16.2742347717285,16.2742214202881,16.2742099761963,16.2741966247559,16.2741851806641,16.2741718292236,16.2741584777832,16.2741470336914,16.274133682251,16.2741222381592,16.2741088867188,16.274097442627,16.2740859985352,16.2740745544434,16.2740631103516,16.2740516662598,16.274040222168,16.2740287780762,16.2740173339844,16.2740058898926,16.2739944458008,16.273983001709,16.2739715576172,16.2739601135254,16.2739486694336,16.2739372253418,16.27392578125,16.2739143371582,16.2739028930664,16.2738914489746,16.2738800048828,16.273868560791,16.2738571166992,16.2738456726074,16.2738342285156,16.2738227844238,16.273811340332,16.2737998962402,16.2737884521484,16.2737770080566,16.2737655639648,16.273754119873,16.2737426757812,16.2737312316895,16.2737197875977,16.2737083435059,16.2736968994141,16.2736854553223,16.2736740112305,16.2736625671387,16.2736511230469,16.2736396789551,16.2736282348633,16.2736167907715,16.2736053466797,16.2735939025879,16.2735824584961,16.2735710144043,16.2735595703125,16.2735481262207,16.2735366821289,16.2735252380371,16.2735137939453,16.2735023498535,16.2734909057617,16.2734794616699,16.2734680175781,16.2734565734863,16.2734451293945,16.2734336853027,16.2734222412109,16.2734107971191,16.2733993530273,16.2733879089355,16.2733764648438,16.273365020752,16.2733535766602,16.2733421325684,16.2733306884766,16.2733192443848,16.2590522766113,16.2207145690918,16.2207145690918,16.2207164764404,16.2207164764404,16.2207183837891,16.2207183837891,16.2207202911377,16.2207221984863,16.2207221984863,16.220724105835,0,0,0,0,0,0,0,0,0,0,0,0,0,0,0,0,0,0,0,0,0,0,0,0,0,0,0,0,0,0,0,0,0,0,0,0,0
16.2741413116455,16.2741661071777,16.27419090271,16.2742176055908,16.274242401123,16.2742691040039,16.2742938995361,16.274320602417,16.2743453979492,16.2743721008301,16.2743968963623,16.2744235992432,16.2744483947754,16.2744750976562,16.2744998931885,16.2745265960693,16.2745513916016,16.2745780944824,16.2746028900146,16.2746295928955,16.2746543884277,16.2746810913086,16.2747058868408,16.2747325897217,16.2747573852539,16.2747840881348,16.274808883667,16.2748336791992,16.2748603820801,16.2748851776123,16.2749118804932,16.2749366760254,16.2749633789062,16.2749881744385,16.2750148773193,16.2750396728516,16.2750663757324,16.2750911712646,16.2751178741455,16.2751445770264,16.2751712799072,16.2751998901367,16.2752285003662,16.2752552032471,16.2752838134766,16.2753124237061,16.2753391265869,16.2753276824951,16.2753162384033,16.2753028869629,16.2752895355225,16.2752780914307,16.2752647399902,16.2752513885498,16.275239944458,16.2752265930176,16.2752151489258,16.2752017974854,16.2751884460449,16.2751770019531,16.2751636505127,16.2751522064209,16.2751407623291,16.2751293182373,16.2751178741455,16.2751064300537,16.2750949859619,16.2750835418701,16.2750720977783,16.2750606536865,16.2750492095947,16.2750377655029,16.2750263214111,16.2750148773193,16.2750034332275,16.2749919891357,16.2749805450439,16.2749691009521,16.2749576568604,16.2749462127686,16.2749347686768,16.274923324585,16.2749118804932,16.2749004364014,16.2748889923096,16.2748775482178,16.274866104126,16.2748546600342,16.2748432159424,16.2748317718506,16.2748203277588,16.274808883667,16.2747974395752,16.2747859954834,16.2747745513916,16.2747631072998,16.274751663208,16.2747402191162,16.2747287750244,16.2747173309326,16.2747058868408,16.274694442749,16.2746829986572,16.2746696472168,16.274658203125,16.2746467590332,16.2746353149414,16.2746238708496,16.2746124267578,16.274600982666,16.2745895385742,16.2745780944824,16.2745666503906,16.2745552062988,16.274543762207,16.2745323181152,16.2745208740234,16.2745094299316,16.2744979858398,16.274486541748,16.2744750976562,16.2744636535645,16.2744522094727,16.2744407653809,16.2744293212891,16.2744178771973,16.2744064331055,16.2743949890137,16.2743835449219,16.2743721008301,16.2743606567383,16.2743492126465,16.2743377685547,16.2743263244629,16.2743148803711,16.2743034362793,16.2742919921875,16.2742805480957,16.2742691040039,16.2742576599121,16.2742462158203,16.2590293884277,16.2216396331787,16.2216396331787,16.2216415405273,16.2216415405273,16.221643447876,16.221643447876,16.2216453552246,16.2216453552246,16.2216472625732,16.2216491699219,0,0,0,0,0,0,0,0,0,0,0,0,0,0,0,0,0,0,0,0,0,0,0,0,0,0,0,0,0,0,0,0,0,0,0,0,0
16.2750682830811,16.2750949859619,16.2751197814941,16.275146484375,16.2751712799072,16.2751979827881,16.2752227783203,16.2752475738525,16.2752742767334,16.2752990722656,16.2753257751465,16.2753505706787,16.2753772735596,16.2754020690918,16.2754287719727,16.2754535675049,16.2754802703857,16.275505065918,16.2755317687988,16.2755565643311,16.2755832672119,16.2756080627441,16.275634765625,16.2756595611572,16.2756862640381,16.2757110595703,16.2757377624512,16.2757625579834,16.2757892608643,16.2758140563965,16.2758407592773,16.2758655548096,16.2758922576904,16.2759170532227,16.2759418487549,16.2759685516357,16.275993347168,16.2760200500488,16.2760448455811,16.2760715484619,16.2760963439941,16.276123046875,16.2761478424072,16.2761745452881,16.2762012481689,16.2762298583984,16.2762565612793,16.2762451171875,16.2762317657471,16.2762203216553,16.2762069702148,16.2761936187744,16.2761821746826,16.2761707305908,16.276159286499,16.2761478424072,16.2761363983154,16.2761249542236,16.2761135101318,16.27610206604,16.2760906219482,16.2760791778564,16.2760677337646,16.2760562896729,16.2760448455811,16.2760334014893,16.2760219573975,16.2760105133057,16.2759990692139,16.2759876251221,16.2759761810303,16.2759647369385,16.2759532928467,16.2759418487549,16.2759304046631,16.2759189605713,16.2759075164795,16.2758960723877,16.2758846282959,16.2758731842041,16.2758617401123,16.2758502960205,16.2758388519287,16.2758274078369,16.2758159637451,16.2758045196533,16.2757930755615,16.2757816314697,16.2757701873779,16.2757587432861,16.2757472991943,16.2757358551025,16.2757244110107,16.2757129669189,16.2757015228271,16.2756900787354,16.2756786346436,16.2756671905518,16.27565574646,16.2756443023682,16.2756328582764,16.2756214141846,16.2756099700928,16.275598526001,16.2755870819092,16.2755756378174,16.2755641937256,16.2755527496338,16.275541305542,16.2755298614502,16.2755184173584,16.2755069732666,16.2754955291748,16.275484085083,16.2754726409912,16.2754611968994,16.2754497528076,16.2754383087158,16.275426864624,16.2754154205322,16.2754039764404,16.2753925323486,16.2753810882568,16.275369644165,16.2753582000732,16.2753467559814,16.2753353118896,16.2753238677979,16.2753124237061,16.2753009796143,16.2752895355225,16.2752780914307,16.2752666473389,16.2752552032471,16.2752437591553,16.2752323150635,16.2752208709717,16.2752094268799,16.2751979827881,16.2751865386963,16.2751750946045,16.2590065002441,16.222562789917,16.2225646972656,16.2225666046143,16.2225666046143,16.2225685119629,16.2225685119629,16.2225704193115,16.2225704193115,16.2225723266602,16.2225742340088,0,0,0,0,0,0,0,0,0,0,0,0,0,0,0,0,0,0,0,0,0,0,0,0,0,0,0,0,0,0,0,0,0,0,0,0,0
16.2759971618652,16.2760219573975,16.2760486602783,16.2760734558105,16.2761001586914,16.2761249542236,16.2761516571045,16.2761764526367,16.2762031555176,16.2762279510498,16.2762546539307,16.2762794494629,16.2763061523438,16.276330947876,16.2763576507568,16.2763824462891,16.2764072418213,16.2764339447021,16.2764587402344,16.2764854431152,16.2765102386475,16.2765369415283,16.2765617370605,16.2765884399414,16.2766132354736,16.2766399383545,16.2766647338867,16.2766914367676,16.2767162322998,16.2767429351807,16.2767677307129,16.2767944335938,16.276819229126,16.2768459320068,16.2768707275391,16.2768974304199,16.2769222259521,16.276948928833,16.2769737243652,16.2770004272461,16.2770252227783,16.2770519256592,16.2770767211914,16.2771034240723,16.2771282196045,16.2771530151367,16.2771739959717,16.2771625518799,16.2771511077881,16.2771396636963,16.2771282196045,16.2771167755127,16.2771053314209,16.2770938873291,16.2770824432373,16.2770709991455,16.2770595550537,16.2770481109619,16.2770366668701,16.2770252227783,16.2770137786865,16.2770023345947,16.2769908905029,16.2769794464111,16.2769680023193,16.2769565582275,16.2769451141357,16.2769336700439,16.2769222259521,16.2769107818604,16.2768993377686,16.2768878936768,16.276876449585,16.2768650054932,16.2768535614014,16.2768421173096,16.2768306732178,16.276819229126,16.2768077850342,16.2767963409424,16.2767848968506,16.2767734527588,16.276762008667,16.2767505645752,16.2767391204834,16.2767276763916,16.2767162322998,16.276704788208,16.2766933441162,16.2766819000244,16.2766704559326,16.2766590118408,16.276647567749,16.2766361236572,16.2766246795654,16.2766132354736,16.2766017913818,16.27659034729,16.2765789031982,16.2765674591064,16.2765560150146,16.2765445709229,16.2765331268311,16.2765216827393,16.2765102386475,16.2764987945557,16.2764873504639,16.2764759063721,16.2764644622803,16.2764530181885,16.2764415740967,16.2764301300049,16.2764186859131,16.2764072418213,16.2763957977295,16.2763843536377,16.2763729095459,16.2763614654541,16.2763500213623,16.2763385772705,16.2763271331787,16.2763156890869,16.2763042449951,16.2762928009033,16.2762813568115,16.2762699127197,16.2762584686279,16.2762470245361,16.2762355804443,16.2762241363525,16.2762126922607,16.2762012481689,16.2761898040771,16.2761764526367,16.2761650085449,16.2761535644531,16.2761421203613,16.2761306762695,16.2761192321777,16.2761077880859,16.2761001586914,16.2589836120605,16.2234878540039,16.2234897613525,16.2234916687012,16.2234916687012,16.2234935760498,16.2234935760498,16.2234954833984,16.2234954833984,16.2234973907471,16.2234992980957,0,0,0,0,0,0,0,0,0,0,0,0,0,0,0,0,0,0,0,0,0,0,0,0,0,0,0,0,0,0,0,0,0,0,0,0,0
16.2769260406494,16.2769508361816,16.2769775390625,16.2770023345947,16.277027130127,16.2770538330078,16.27707862854,16.2771053314209,16.2771301269531,16.277156829834,16.2771816253662,16.2772083282471,16.2772331237793,16.2772598266602,16.2772846221924,16.2773113250732,16.2773361206055,16.2773628234863,16.2773876190186,16.2774143218994,16.2774391174316,16.2774658203125,16.2774906158447,16.2775173187256,16.2775421142578,16.2775688171387,16.2775936126709,16.2776203155518,16.277645111084,16.2776718139648,16.2776966094971,16.2777233123779,16.2777481079102,16.2777729034424,16.2777996063232,16.2778244018555,16.2778511047363,16.2778759002686,16.2779026031494,16.2779273986816,16.2779541015625,16.2779788970947,16.2780055999756,16.2780303955078,16.2780532836914,16.2780723571777,16.2780914306641,16.2780799865723,16.2780685424805,16.2780570983887,16.2780456542969,16.2780342102051,16.2780227661133,16.2780113220215,16.2779998779297,16.2779884338379,16.2779769897461,16.2779655456543,16.2779541015625,16.2779426574707,16.2779312133789,16.2779197692871,16.2779083251953,16.2778968811035,16.2778854370117,16.2778739929199,16.2778625488281,16.2778511047363,16.2778396606445,16.2778282165527,16.2778167724609,16.2778053283691,16.2777919769287,16.2777805328369,16.2777690887451,16.2777576446533,16.2777462005615,16.2777347564697,16.2777233123779,16.2777118682861,16.2777004241943,16.2776889801025,16.2776775360107,16.2776660919189,16.2776546478271,16.2776432037354,16.2776317596436,16.2776203155518,16.27760887146,16.2775974273682,16.2775859832764,16.2775745391846,16.2775630950928,16.277551651001,16.2775402069092,16.2775287628174,16.2775173187256,16.2775058746338,16.277494430542,16.2774829864502,16.2774715423584,16.2774600982666,16.2774486541748,16.277437210083,16.2774257659912,16.2774143218994,16.2774028778076,16.2773914337158,16.277379989624,16.2773685455322,16.2773571014404,16.2773456573486,16.2773342132568,16.277322769165,16.2773113250732,16.2772998809814,16.2772884368896,16.2772769927979,16.2772655487061,16.2772541046143,16.2772426605225,16.2772312164307,16.2772197723389,16.2772083282471,16.2771968841553,16.2771854400635,16.2771739959717,16.2771625518799,16.2771511077881,16.2771396636963,16.2771282196045,16.2771167755127,16.2771053314209,16.2770938873291,16.2770824432373,16.2770709991455,16.2770614624023,16.2770519256592,16.2770442962646,16.2770366668701,16.277027130127,16.258960723877,16.2244148254395,16.2244148254395,16.2244167327881,16.2244167327881,16.2244186401367,16.2244186401367,16.2244205474854,16.224422454834,16.224422454834,16.2244243621826,0,0,0,0,0,0,0,0,0,0,0,0,0,0,0,0,0,0,0,0,0,0,0,0,0,0,0,0,0,0,0,0,0,0,0,0,0
16.277853012085,16.2778797149658,16.277904510498,16.2779312133789,16.2779560089111,16.277982711792,16.2780075073242,16.2780342102051,16.2780590057373,16.2780857086182,16.2781105041504,16.2781372070312,16.2781620025635,16.2781887054443,16.2782135009766,16.2782402038574,16.2782649993896,16.2782917022705,16.2783164978027,16.2783432006836,16.2783679962158,16.2783946990967,16.2784194946289,16.2784442901611,16.278470993042,16.2784957885742,16.2785224914551,16.2785472869873,16.2785739898682,16.2785987854004,16.2786254882812,16.2786502838135,16.2786769866943,16.2787017822266,16.2787284851074,16.2787532806396,16.2787799835205,16.2788047790527,16.2788314819336,16.2788562774658,16.2788829803467,16.2789077758789,16.2789306640625,16.2789516448975,16.2789707183838,16.2789897918701,16.2790069580078,16.278995513916,16.2789840698242,16.2789726257324,16.2789611816406,16.2789497375488,16.278938293457,16.2789268493652,16.2789154052734,16.2789039611816,16.2788925170898,16.278881072998,16.2788696289062,16.2788581848145,16.2788467407227,16.2788352966309,16.2788238525391,16.2788124084473,16.2788009643555,16.2787895202637,16.2787780761719,16.2787666320801,16.2787551879883,16.2787437438965,16.2787322998047,16.2787208557129,16.2787094116211,16.2786979675293,16.2786865234375,16.2786750793457,16.2786636352539,16.2786521911621,16.2786407470703,16.2786293029785,16.2786178588867,16.2786064147949,16.2785949707031,16.2785835266113,16.2785720825195,16.2785606384277,16.2785491943359,16.2785377502441,16.2785263061523,16.2785148620605,16.2785034179688,16.278491973877,16.2784805297852,16.2784690856934,16.2784576416016,16.2784461975098,16.278434753418,16.2784233093262,16.2784118652344,16.2784004211426,16.2783889770508,16.278377532959,16.2783660888672,16.2783546447754,16.2783432006836,16.2783317565918,16.2783203125,16.2783088684082,16.2782974243164,16.2782859802246,16.2782745361328,16.278263092041,16.2782516479492,16.2782402038574,16.2782287597656,16.2782173156738,16.278205871582,16.2781944274902,16.2781829833984,16.2781715393066,16.2781600952148,16.278148651123,16.2781372070312,16.2781257629395,16.2781143188477,16.2781028747559,16.2780914306641,16.2780799865723,16.2780685424805,16.2780570983887,16.2780456542969,16.2780342102051,16.2780227661133,16.2780132293701,16.2780055999756,16.2779960632324,16.2779884338379,16.2779808044434,16.2779731750488,16.2779636383057,16.2779560089111,16.2589378356934,16.2253398895264,16.2253398895264,16.225341796875,16.225341796875,16.2253437042236,16.2253437042236,16.2253456115723,16.2253475189209,16.2253475189209,16.2253494262695,0,0,0,0,0,0,0,0,0,0,0,0,0,0,0,0,0,0,0,0,0,0,0,0,0,0,0,0,0,0,0,0,0,0,0,0,0
16.2787818908691,16.27880859375,16.2788333892822,16.2788600921631,16.2788848876953,16.2789115905762,16.2789363861084,16.2789630889893,16.2789878845215,16.2790145874023,16.2790393829346,16.2790660858154,16.2790908813477,16.2791175842285,16.2791423797607,16.279167175293,16.2791938781738,16.2792186737061,16.2792453765869,16.2792701721191,16.279296875,16.2793216705322,16.2793483734131,16.2793731689453,16.2793998718262,16.2794246673584,16.2794513702393,16.2794761657715,16.2795028686523,16.2795276641846,16.2795543670654,16.2795791625977,16.2796058654785,16.2796306610107,16.2796573638916,16.2796821594238,16.2797088623047,16.2797336578369,16.2797603607178,16.27978515625,16.2798099517822,16.2798290252686,16.2798480987549,16.2798671722412,16.2798881530762,16.2799072265625,16.2799243927002,16.2799129486084,16.2799015045166,16.2798900604248,16.279878616333,16.2798671722412,16.2798557281494,16.2798442840576,16.2798328399658,16.279821395874,16.2798099517822,16.2797985076904,16.2797870635986,16.2797756195068,16.279764175415,16.2797527313232,16.2797412872314,16.2797298431396,16.2797183990479,16.2797069549561,16.2796955108643,16.2796840667725,16.2796726226807,16.2796611785889,16.2796497344971,16.2796382904053,16.2796268463135,16.2796154022217,16.2796039581299,16.2795925140381,16.2795810699463,16.2795696258545,16.2795581817627,16.2795467376709,16.2795352935791,16.2795238494873,16.2795124053955,16.2795009613037,16.2794895172119,16.2794780731201,16.2794666290283,16.2794551849365,16.2794437408447,16.2794322967529,16.2794208526611,16.2794094085693,16.2793979644775,16.2793865203857,16.2793750762939,16.2793636322021,16.2793521881104,16.2793407440186,16.2793292999268,16.279317855835,16.2793064117432,16.2792949676514,16.2792835235596,16.2792720794678,16.279260635376,16.2792491912842,16.2792377471924,16.2792263031006,16.2792148590088,16.279203414917,16.2791919708252,16.2791805267334,16.2791690826416,16.2791576385498,16.279146194458,16.2791347503662,16.2791233062744,16.2791118621826,16.2791004180908,16.279088973999,16.2790775299072,16.2790660858154,16.279052734375,16.2790412902832,16.2790298461914,16.2790184020996,16.2790069580078,16.278995513916,16.2789840698242,16.2789745330811,16.2789669036865,16.2789573669434,16.2789497375488,16.2789421081543,16.2789325714111,16.2789249420166,16.2789173126221,16.2789096832275,16.2789001464844,16.2788925170898,16.2788848876953,16.2589149475098,16.2262649536133,16.2262649536133,16.2262668609619,16.2262668609619,16.2262687683105,16.2262706756592,16.2262706756592,16.2262725830078,16.2262725830078,16.2262744903564,0,0,0,0,0,0,0,0,0,0,0,0,0,0,0,0,0,0,0,0,0,0,0,0,0,0,0,0,0,0,0,0,0,0,0,0,0
16.2797107696533,16.2797374725342,16.2797622680664,16.2797889709473,16.2798137664795,16.2798404693604,16.2798652648926,16.2798919677734,16.2799167633057,16.2799415588379,16.2799682617188,16.279993057251,16.2800197601318,16.2800445556641,16.2800712585449,16.2800960540771,16.280122756958,16.2801475524902,16.2801742553711,16.2801990509033,16.2802257537842,16.2802505493164,16.2802772521973,16.2803020477295,16.2803287506104,16.2803535461426,16.2803802490234,16.2804050445557,16.2804317474365,16.2804565429688,16.2804832458496,16.2805080413818,16.2805347442627,16.2805595397949,16.2805862426758,16.280611038208,16.2806377410889,16.2806625366211,16.280689239502,16.2807083129883,16.2807273864746,16.2807464599609,16.2807655334473,16.2807846069336,16.2808055877686,16.2808246612549,16.2808418273926,16.2808303833008,16.280818939209,16.2808074951172,16.2807960510254,16.2807846069336,16.2807731628418,16.28076171875,16.2807502746582,16.2807388305664,16.2807273864746,16.2807159423828,16.280704498291,16.2806930541992,16.2806816101074,16.2806701660156,16.2806587219238,16.280647277832,16.2806358337402,16.2806243896484,16.2806129455566,16.2806015014648,16.280590057373,16.2805786132812,16.2805671691895,16.2805557250977,16.2805442810059,16.2805328369141,16.2805213928223,16.2805099487305,16.2804985046387,16.2804870605469,16.2804756164551,16.2804641723633,16.2804527282715,16.2804412841797,16.2804298400879,16.2804183959961,16.2804069519043,16.2803955078125,16.2803840637207,16.2803726196289,16.2803611755371,16.2803497314453,16.2803382873535,16.2803268432617,16.2803153991699,16.2803039550781,16.2802906036377,16.2802791595459,16.2802677154541,16.2802562713623,16.2802448272705,16.2802333831787,16.2802219390869,16.2802104949951,16.2801990509033,16.2801876068115,16.2801761627197,16.2801647186279,16.2801532745361,16.2801418304443,16.2801303863525,16.2801189422607,16.2801074981689,16.2800960540771,16.2800846099854,16.2800731658936,16.2800617218018,16.28005027771,16.2800388336182,16.2800273895264,16.2800159454346,16.2800045013428,16.279993057251,16.2799816131592,16.2799701690674,16.2799587249756,16.2799472808838,16.279935836792,16.2799263000488,16.2799186706543,16.2799110412598,16.2799034118652,16.2798938751221,16.2798862457275,16.279878616333,16.2798690795898,16.2798614501953,16.2798538208008,16.2798461914062,16.2798366546631,16.2798290252686,16.279821395874,16.2798118591309,16.2588920593262,16.2271900177002,16.2271919250488,16.2271919250488,16.2271938323975,16.2271938323975,16.2271957397461,16.2271957397461,16.2271976470947,16.2271995544434,16.2271995544434,0,0,0,0,0,0,0,0,0,0,0,0,0,0,0,0,0,0,0,0,0,0,0,0,0,0,0,0,0,0,0,0,0,0,0,0,0
16.2806396484375,16.2806663513184,16.2806911468506,16.2807178497314,16.2807426452637,16.2807693481445,16.2807941436768,16.280818939209,16.2808456420898,16.2808704376221,16.2808971405029,16.2809219360352,16.280948638916,16.2809734344482,16.2810001373291,16.2810249328613,16.2810516357422,16.2810764312744,16.2811031341553,16.2811279296875,16.2811546325684,16.2811794281006,16.2812061309814,16.2812309265137,16.2812576293945,16.2812824249268,16.2813091278076,16.2813339233398,16.2813606262207,16.2813854217529,16.2814121246338,16.281436920166,16.2814636230469,16.2814884185791,16.28151512146,16.2815399169922,16.281566619873,16.281587600708,16.2816066741943,16.2816257476807,16.281644821167,16.2816638946533,16.2816829681396,16.281702041626,16.2817230224609,16.2817420959473,16.281759262085,16.2817478179932,16.2817363739014,16.2817249298096,16.2817134857178,16.281702041626,16.2816905975342,16.2816791534424,16.2816677093506,16.2816562652588,16.281644821167,16.2816333770752,16.2816219329834,16.2816104888916,16.2815990447998,16.281587600708,16.2815761566162,16.2815647125244,16.2815532684326,16.2815418243408,16.281530380249,16.2815189361572,16.2815074920654,16.2814960479736,16.2814846038818,16.28147315979,16.2814617156982,16.2814502716064,16.2814388275146,16.2814273834229,16.2814140319824,16.2814025878906,16.2813911437988,16.281379699707,16.2813682556152,16.2813568115234,16.2813453674316,16.2813339233398,16.281322479248,16.2813110351562,16.2812995910645,16.2812881469727,16.2812767028809,16.2812652587891,16.2812538146973,16.2812423706055,16.2812309265137,16.2812194824219,16.2812080383301,16.2811965942383,16.2811851501465,16.2811737060547,16.2811622619629,16.2811508178711,16.2811393737793,16.2811279296875,16.2811164855957,16.2811050415039,16.2810935974121,16.2810821533203,16.2810707092285,16.2810592651367,16.2810478210449,16.2810363769531,16.2810249328613,16.2810134887695,16.2810020446777,16.2809906005859,16.2809791564941,16.2809677124023,16.2809562683105,16.2809448242188,16.280933380127,16.2809219360352,16.2809104919434,16.2808990478516,16.2808876037598,16.2808799743652,16.2808723449707,16.2808628082275,16.280855178833,16.2808475494385,16.2808399200439,16.2808303833008,16.2808227539062,16.2808151245117,16.2808074951172,16.280797958374,16.2807903289795,16.280782699585,16.2807731628418,16.2807655334473,16.2807579040527,16.2807502746582,16.280740737915,16.2588672637939,16.2281150817871,16.2281169891357,16.2281169891357,16.2281188964844,16.228120803833,16.228120803833,16.2281227111816,16.2281227111816,16.2281246185303,16.2281265258789,0,0,0,0,0,0,0,0,0,0,0,0,0,0,0,0,0,0,0,0,0,0,0,0,0,0,0,0,0,0,0,0,0,0,0,0,0
16.2815685272217,16.2815952301025,16.2816200256348,16.2816467285156,16.2816715240479,16.2816982269287,16.2817230224609,16.2817497253418,16.281774520874,16.2818012237549,16.2818260192871,16.2818508148193,16.2818775177002,16.2819023132324,16.2819290161133,16.2819538116455,16.2819805145264,16.2820053100586,16.2820320129395,16.2820568084717,16.2820835113525,16.2821083068848,16.2821350097656,16.2821598052979,16.2821865081787,16.2822113037109,16.2822380065918,16.282262802124,16.2822895050049,16.2823143005371,16.282341003418,16.2823657989502,16.2823925018311,16.2824172973633,16.2824440002441,16.2824668884277,16.2824859619141,16.2825050354004,16.2825241088867,16.282543182373,16.2825622558594,16.2825813293457,16.282600402832,16.282621383667,16.2826404571533,16.2826595306396,16.2826766967773,16.2826652526855,16.2826538085938,16.282642364502,16.2826309204102,16.2826194763184,16.2826080322266,16.2825965881348,16.282585144043,16.2825736999512,16.2825622558594,16.2825508117676,16.2825393676758,16.282527923584,16.2825164794922,16.2825050354004,16.2824935913086,16.2824821472168,16.282470703125,16.2824592590332,16.2824459075928,16.282434463501,16.2824230194092,16.2824115753174,16.2824001312256,16.2823886871338,16.282377243042,16.2823657989502,16.2823543548584,16.2823429107666,16.2823314666748,16.282320022583,16.2823085784912,16.2822971343994,16.2822856903076,16.2822742462158,16.282262802124,16.2822513580322,16.2822399139404,16.2822284698486,16.2822170257568,16.282205581665,16.2821941375732,16.2821826934814,16.2821712493896,16.2821598052979,16.2821483612061,16.2821369171143,16.2821254730225,16.2821140289307,16.2821025848389,16.2820911407471,16.2820796966553,16.2820682525635,16.2820568084717,16.2820453643799,16.2820339202881,16.2820224761963,16.2820110321045,16.2819995880127,16.2819881439209,16.2819766998291,16.2819652557373,16.2819538116455,16.2819423675537,16.2819309234619,16.2819194793701,16.2819080352783,16.2818965911865,16.2818851470947,16.2818737030029,16.2818622589111,16.2818508148193,16.2818412780762,16.2818336486816,16.2818241119385,16.2818164825439,16.2818088531494,16.2818012237549,16.2817916870117,16.2817840576172,16.2817764282227,16.2817668914795,16.281759262085,16.2817516326904,16.2817440032959,16.2817344665527,16.2817268371582,16.2817192077637,16.2817115783691,16.281702041626,16.2816944122314,16.2816867828369,16.2816772460938,16.2816696166992,16.2588443756104,16.2290420532227,16.2290420532227,16.2290439605713,16.2290439605713,16.2290458679199,16.2290458679199,16.2290477752686,16.2290496826172,16.2290496826172,16.2290515899658,0,0,0,0,0,0,0,0,0,0,0,0,0,0,0,0,0,0,0,0,0,0,0,0,0,0,0,0,0,0,0,0,0,0,0,0,0
16.2824974060059,16.2825241088867,16.2825489044189,16.2825756072998,16.282600402832,16.2826271057129,16.2826519012451,16.282678604126,16.2827033996582,16.2827301025391,16.2827548980713,16.2827816009521,16.2828063964844,16.2828330993652,16.2828578948975,16.2828845977783,16.2829093933105,16.2829360961914,16.2829608917236,16.2829875946045,16.2830123901367,16.2830390930176,16.2830638885498,16.283088684082,16.2831153869629,16.2831401824951,16.283166885376,16.2831916809082,16.2832183837891,16.2832431793213,16.2832698822021,16.2832946777344,16.2833213806152,16.2833461761475,16.2833652496338,16.2833843231201,16.2834033966064,16.2834224700928,16.2834415435791,16.2834606170654,16.2834796905518,16.2835006713867,16.283519744873,16.2835388183594,16.2835578918457,16.283576965332,16.2835941314697,16.2835826873779,16.2835712432861,16.2835597991943,16.2835483551025,16.2835369110107,16.2835254669189,16.2835140228271,16.2835025787354,16.2834911346436,16.2834796905518,16.28346824646,16.2834568023682,16.2834453582764,16.2834339141846,16.2834224700928,16.2834091186523,16.2833976745605,16.2833862304688,16.283374786377,16.2833633422852,16.2833518981934,16.2833404541016,16.2833290100098,16.283317565918,16.2833061218262,16.2832946777344,16.2832832336426,16.2832717895508,16.283260345459,16.2832489013672,16.2832374572754,16.2832260131836,16.2832145690918,16.283203125,16.2831916809082,16.2831802368164,16.2831687927246,16.2831573486328,16.283145904541,16.2831344604492,16.2831230163574,16.2831115722656,16.2831001281738,16.283088684082,16.2830772399902,16.2830657958984,16.2830543518066,16.2830429077148,16.283031463623,16.2830200195312,16.2830085754395,16.2829971313477,16.2829856872559,16.2829742431641,16.2829627990723,16.2829513549805,16.2829399108887,16.2829284667969,16.2829170227051,16.2829055786133,16.2828941345215,16.2828826904297,16.2828712463379,16.2828598022461,16.2828483581543,16.2828369140625,16.2828254699707,16.2828140258789,16.2828025817871,16.2827949523926,16.282787322998,16.2827777862549,16.2827701568604,16.2827625274658,16.2827529907227,16.2827453613281,16.2827377319336,16.2827301025391,16.2827205657959,16.2827129364014,16.2827053070068,16.2826957702637,16.2826881408691,16.2826805114746,16.2826728820801,16.2826633453369,16.2826557159424,16.2826480865479,16.2826385498047,16.2826309204102,16.2826232910156,16.2826156616211,16.2826061248779,16.2825984954834,16.2588214874268,16.2299671173096,16.2299690246582,16.2299690246582,16.2299709320068,16.2299709320068,16.2299728393555,16.2299747467041,16.2299747467041,16.2299766540527,16.2299766540527,0,0,0,0,0,0,0,0,0,0,0,0,0,0,0,0,0,0,0,0,0,0,0,0,0,0,0,0,0,0,0,0,0,0,0,0,0
