15.457275390625,15.4573993682861,15.4575242996216,15.4576482772827,15.4577732086182,15.4578971862793,15.4580221176147,15.4581460952759,15.4582710266113,15.4583959579468,15.4585199356079,15.4586448669434,15.4587688446045,15.4588937759399,15.4590177536011,15.4591426849365,15.4592666625977,15.4593915939331,15.4595165252686,15.4596405029297,15.4597654342651,15.4598894119263,15.4600143432617,15.4601383209229,15.4602632522583,15.4603881835938,15.4605121612549,15.4606370925903,15.4607610702515,15.4608860015869,15.4610109329224,15.4611349105835,15.4612598419189,15.4613838195801,15.4615087509155,15.461633682251,15.4617576599121,15.4618825912476,15.4620065689087,15.4621315002441,15.4622564315796,15.4623804092407,15.4625053405762,15.4626302719116,15.4627542495728,15.4628791809082,15.4630031585693,15.4631280899048,15.4632530212402,15.4633769989014,15.4635019302368,15.4636268615723,15.4637508392334,15.4638757705688,15.4640007019043,15.4641246795654,15.4642496109009,15.464373588562,15.4644985198975,15.4646234512329,15.464747428894,15.4648723602295,15.4649972915649,15.4651222229004,15.4652471542358,15.465371131897,15.4654960632324,15.3315505981445,15.3316764831543,15.3317985534668,15.3778219223022,15.4055471420288,15.4056711196899,15.4057950973511,15.4059190750122,15.4060430526733,15.4061679840088,15.4062919616699,15.4064159393311,15.4065399169922,15.4066638946533,15.4067878723145,15.4069128036499,15.407036781311,15.4071607589722,15.4072847366333,15.4074087142944,15.4075326919556,15.407657623291,15.4077816009521,15.4079055786133,15.4080295562744,15.4081544876099,15.408278465271,15.4084024429321,15.4085273742676,15.4086513519287,15.4087762832642,15.4089002609253,15.4090242385864,15.4091491699219,15.409273147583,15.4093980789185,15.4095220565796,15.409646987915,15.4097709655762,15.3363771438599,15.336498260498,15.3366212844849,15.4006080627441,15.4729833602905,15.5410203933716,15.5546054840088,15.5547313690186,15.554856300354,15.5549812316895,15.5551071166992,15.5552320480347,15.5553579330444,15.5554828643799,15.5556087493896,15.5557346343994,15.5558595657349,15.5559854507446,15.5561103820801,15.5562362670898,15.5563611984253,15.5564870834351,15.5566129684448,15.5567378997803,15.55686378479,15.5569887161255,15.5571146011353,15.557240486145,15.5573654174805,15.5574913024902,15.5576162338257,13.5137367248535,13.5138463973999,13.513955116272,13.5140647888184,13.5141735076904,13.5142822265625,13.5143918991089,13.514500617981,13.514609336853,13.5147190093994,13.5148277282715,13.5149364471436,13.5150461196899,13.515154838562,13.5152645111084,13.5153732299805,13.5154819488525,13.5155916213989,13.515700340271,13.5158090591431,13.5159187316895,13.5160274505615,13.5161371231079,13.51624584198,13.5163545608521,13.5164642333984,13.5165729522705,13.5166826248169,13.516791343689,13.516900062561,13.5170097351074,13.5171184539795,13.5172281265259,13.5173368453979,13.51744556427,13.5175552368164,13.5176639556885,13.5177736282349,13.5178823471069,13.5179920196533,13.5181007385254,13.5182094573975,13.5183191299438,13.5184278488159,13.5185375213623,13.5186462402344,13.5187559127808,13.5188646316528,13.5189733505249,13.5190830230713,13.5191917419434
15.4553136825562,15.4554376602173,15.4555625915527,15.4556865692139,15.4558115005493,15.4559354782104,15.4560604095459,15.456184387207,15.4563093185425,15.4564332962036,15.4565582275391,15.4566822052002,15.4568071365356,15.4569311141968,15.4570560455322,15.4571800231934,15.4573049545288,15.4574298858643,15.4575538635254,15.4576787948608,15.457802772522,15.4579277038574,15.4580516815186,15.458176612854,15.4583005905151,15.4584255218506,15.4585494995117,15.4586744308472,15.4587993621826,15.4589233398438,15.4590482711792,15.4591722488403,15.4592971801758,15.4594211578369,15.4595460891724,15.4596710205078,15.4597949981689,15.4599199295044,15.4600439071655,15.460168838501,15.4602928161621,15.4604177474976,15.460542678833,15.4606666564941,15.4607915878296,15.4609155654907,15.4610404968262,15.4611654281616,15.4612894058228,15.4614143371582,15.4615383148193,15.4616632461548,15.4617881774902,15.4619121551514,15.4620370864868,15.4621610641479,15.4622859954834,15.4624109268188,15.46253490448,15.4626598358154,15.4627847671509,15.462908744812,15.4630336761475,15.4631586074829,15.463282585144,15.4634075164795,15.4635324478149,15.3296041488647,15.3297300338745,15.329852104187,15.3779268264771,15.4035911560059,15.403715133667,15.4038391113281,15.4039630889893,15.4040870666504,15.4042110443115,15.4043350219727,15.4044589996338,15.4045829772949,15.4047079086304,15.4048318862915,15.4049558639526,15.4050798416138,15.4052038192749,15.405327796936,15.4054517745972,15.4055757522583,15.4057006835938,15.4058246612549,15.405948638916,15.4060726165771,15.4061975479126,15.4063215255737,15.4064455032349,15.4065704345703,15.4066944122314,15.4068183898926,15.406943321228,15.4070672988892,15.4071922302246,15.4073162078857,15.4074401855469,15.4075651168823,15.4076890945435,15.4078130722046,15.3344287872314,15.3345508575439,15.3346729278564,15.4007339477539,15.4731092453003,15.5411491394043,15.5526294708252,15.552755355835,15.5528802871704,15.5530052185059,15.5531311035156,15.5532560348511,15.5533819198608,15.5535068511963,15.5536327362061,15.5537576675415,15.5538835525513,15.5540084838867,15.5541343688965,15.5542602539062,15.5543851852417,15.5545110702515,15.5546360015869,15.5547618865967,15.5548868179321,15.5550127029419,15.5551376342773,15.5552635192871,15.5553894042969,15.5555143356323,15.5556402206421,13.512020111084,13.5121288299561,13.5122385025024,13.5123472213745,13.5124559402466,13.512565612793,13.512674331665,13.5127830505371,13.5128927230835,13.5130014419556,13.5131101608276,13.513219833374,13.5133285522461,13.5134372711182,13.5135469436646,13.5136556625366,13.5137643814087,13.5138740539551,13.5139827728271,13.5140924453735,13.5142011642456,13.5143098831177,13.5144195556641,13.5145282745361,13.5146369934082,13.5147466659546,13.5148553848267,13.5149641036987,13.5150737762451,13.5151824951172,13.5152921676636,13.5154008865356,13.5155096054077,13.5156192779541,13.5157279968262,13.5158367156982,13.5159463882446,13.5160551071167,13.5161647796631,13.5162734985352,13.5163822174072,13.5164918899536,13.5166006088257,13.5167102813721,13.5168190002441,13.5169277191162,13.5170373916626,13.5171461105347,13.5172557830811,13.5173645019531,13.5174732208252
15.4533519744873,15.4534769058228,15.4536008834839,15.4537258148193,15.4538497924805,15.4539747238159,15.4540987014771,15.4542236328125,15.4543476104736,15.4544725418091,15.4545965194702,15.4547214508057,15.4548454284668,15.4549703598022,15.4550943374634,15.4552192687988,15.45534324646,15.4554681777954,15.4555921554565,15.455717086792,15.4558410644531,15.4559659957886,15.4560899734497,15.4562149047852,15.4563388824463,15.4564638137817,15.4565877914429,15.4567127227783,15.4568367004395,15.4569616317749,15.457085609436,15.4572105407715,15.4573345184326,15.4574594497681,15.4575834274292,15.4577083587646,15.4578323364258,15.4579572677612,15.4580821990967,15.4582061767578,15.4583311080933,15.4584550857544,15.4585800170898,15.458703994751,15.4588289260864,15.4589529037476,15.459077835083,15.4592027664185,15.4593267440796,15.459451675415,15.4595756530762,15.4597005844116,15.4598245620728,15.4599494934082,15.4600744247437,15.4601984024048,15.4603233337402,15.4604473114014,15.4605722427368,15.4606971740723,15.4608211517334,15.4609460830688,15.46107006073,15.4611949920654,15.4613199234009,15.461443901062,15.4615688323975,15.327657699585,15.3277835845947,15.3279056549072,15.3780317306519,15.4016351699829,15.401759147644,15.4018831253052,15.4020071029663,15.4021310806274,15.4022550582886,15.4023790359497,15.4025030136108,15.402626991272,15.4027509689331,15.4028749465942,15.4029998779297,15.4031238555908,15.403247833252,15.4033718109131,15.4034957885742,15.4036197662354,15.4037437438965,15.4038677215576,15.4039916992188,15.4041166305542,15.4042406082153,15.4043645858765,15.4044895172119,15.404613494873,15.4047374725342,15.4048624038696,15.4049863815308,15.4051113128662,15.4052352905273,15.4053592681885,15.4054841995239,15.4056081771851,15.4057321548462,15.4058561325073,15.3324813842773,15.3326025009155,15.3327255249023,15.4008588790894,15.4732351303101,15.5412788391113,15.5506544113159,15.5507793426514,15.5509042739868,15.5510301589966,15.551155090332,15.5512809753418,15.5514059066772,15.551531791687,15.5516567230225,15.5517826080322,15.5519075393677,15.5520334243774,15.5521583557129,15.5522842407227,15.5524091720581,15.5525350570679,15.5526599884033,15.5527858734131,15.5529108047485,15.5530366897583,15.5531616210938,15.5532875061035,15.553412437439,15.5535383224487,15.5536642074585,13.5103034973145,13.5104122161865,13.5105218887329,13.510630607605,13.5107393264771,13.5108489990234,13.5109577178955,13.5110664367676,13.511176109314,13.511284828186,13.5113935470581,13.5115022659302,13.5116119384766,13.5117206573486,13.5118293762207,13.5119390487671,13.5120477676392,13.5121564865112,13.5122661590576,13.5123748779297,13.5124835968018,13.5125932693481,13.5127019882202,13.5128107070923,13.5129203796387,13.5130290985107,13.5131378173828,13.5132474899292,13.5133562088013,13.5134649276733,13.5135746002197,13.5136833190918,13.5137920379639,13.5139017105103,13.5140104293823,13.5141201019287,13.5142288208008,13.5143375396729,13.5144472122192,13.5145559310913,13.5146646499634,13.5147743225098,13.5148830413818,13.5149917602539,13.5151014328003,13.5152101516724,13.5153198242188,13.5154285430908,13.5155372619629,13.5156469345093,13.5157556533813
15.4513912200928,15.4515161514282,15.4516401290894,15.4517650604248,15.4518890380859,15.4520139694214,15.4521379470825,15.452262878418,15.4523868560791,15.4525108337402,15.4526357650757,15.4527597427368,15.4528846740723,15.4530086517334,15.4531335830688,15.45325756073,15.4533824920654,15.4535064697266,15.453631401062,15.4537553787231,15.4538803100586,15.4540042877197,15.4541282653809,15.4542531967163,15.4543771743774,15.4545021057129,15.454626083374,15.4547510147095,15.4548749923706,15.4549999237061,15.4551239013672,15.4552488327026,15.4553728103638,15.4554977416992,15.4556217193604,15.4557466506958,15.4558706283569,15.4559955596924,15.4561195373535,15.456244468689,15.4563684463501,15.4564933776855,15.456618309021,15.4567422866821,15.4568672180176,15.4569911956787,15.4571161270142,15.4572401046753,15.4573650360107,15.4574890136719,15.4576139450073,15.4577379226685,15.4578628540039,15.457986831665,15.4581117630005,15.4582366943359,15.4583606719971,15.4584856033325,15.4586095809937,15.4587345123291,15.4588584899902,15.4589834213257,15.4591073989868,15.4592323303223,15.4593572616577,15.4594812393188,15.4596061706543,15.3257122039795,15.3258371353149,15.3259592056274,15.3781366348267,15.39967918396,15.3998031616211,15.3999271392822,15.4000511169434,15.4001750946045,15.4003000259399,15.4004240036011,15.4005479812622,15.4006719589233,15.4007959365845,15.4009199142456,15.4010438919067,15.4011678695679,15.401291847229,15.4014158248901,15.4015398025513,15.4016637802124,15.4017877578735,15.4019117355347,15.4020366668701,15.4021606445312,15.4022846221924,15.4024085998535,15.402533531189,15.4026575088501,15.4027814865112,15.4029064178467,15.4030303955078,15.4031543731689,15.4032793045044,15.4034032821655,15.4035272598267,15.4036521911621,15.4037761688232,15.4039001464844,15.3305339813232,15.3306560516357,15.3307781219482,15.4009847640991,15.4733610153198,15.541407585144,15.5486793518066,15.5488042831421,15.5489292144775,15.5490550994873,15.5491800308228,15.5493059158325,15.549430847168,15.5495557785034,15.5496816635132,15.5498065948486,15.5499324798584,15.5500574111938,15.5501832962036,15.5503082275391,15.5504341125488,15.5505590438843,15.550684928894,15.5508098602295,15.5509357452393,15.5510606765747,15.5511865615845,15.5513114929199,15.5514373779297,15.5515623092651,15.5516881942749,13.5085878372192,13.5086965560913,13.5088052749634,13.5089139938354,13.5090236663818,13.5091323852539,13.509241104126,13.5093507766724,13.5094594955444,13.5095682144165,13.5096769332886,13.509786605835,13.509895324707,13.5100040435791,13.5101137161255,13.5102224349976,13.5103311538696,13.5104398727417,13.5105495452881,13.5106582641602,13.5107669830322,13.5108766555786,13.5109853744507,13.5110940933228,13.5112037658691,13.5113124847412,13.5114212036133,13.5115299224854,13.5116395950317,13.5117483139038,13.5118570327759,13.5119667053223,13.5120754241943,13.5121841430664,13.5122938156128,13.5124025344849,13.5125112533569,13.5126209259033,13.5127296447754,13.5128383636475,13.5129480361938,13.5130567550659,13.513165473938,13.5132751464844,13.5133838653564,13.5134925842285,13.5136022567749,13.513710975647,13.513819694519,13.5139293670654,13.5140380859375
15.4494314193726,15.4495553970337,15.4496803283691,15.4498043060303,15.4499292373657,15.4500532150269,15.4501781463623,15.4503021240234,15.4504261016846,15.45055103302,15.4506750106812,15.4507999420166,15.4509239196777,15.4510478973389,15.4511728286743,15.4512968063354,15.4514217376709,15.451545715332,15.4516706466675,15.4517946243286,15.4519195556641,15.4520435333252,15.4521675109863,15.4522924423218,15.4524164199829,15.4525413513184,15.4526653289795,15.4527902603149,15.4529142379761,15.4530391693115,15.4531631469727,15.4532880783081,15.4534120559692,15.4535360336304,15.4536609649658,15.453784942627,15.4539098739624,15.4540338516235,15.454158782959,15.4542827606201,15.4544076919556,15.4545316696167,15.4546566009521,15.4547805786133,15.4549055099487,15.4550294876099,15.4551544189453,15.4552783966064,15.4554033279419,15.455527305603,15.4556522369385,15.4557762145996,15.4559011459351,15.4560251235962,15.4561500549316,15.4562740325928,15.4563989639282,15.4565229415894,15.4566478729248,15.4567718505859,15.4568967819214,15.4570207595825,15.457145690918,15.4572706222534,15.4573945999146,15.45751953125,15.4576435089111,15.323766708374,15.3238916397095,15.324013710022,15.3782415390015,15.3977241516113,15.3978481292725,15.3979721069336,15.3980960845947,15.3982200622559,15.3983449935913,15.3984689712524,15.3985929489136,15.3987169265747,15.3988409042358,15.398964881897,15.3990888595581,15.3992128372192,15.3993368148804,15.3994607925415,15.3995847702026,15.3997087478638,15.3998327255249,15.399956703186,15.4000806808472,15.4002046585083,15.4003295898438,15.4004535675049,15.400577545166,15.4007024765015,15.4008264541626,15.4009504318237,15.4010744094849,15.4011993408203,15.4013233184814,15.4014472961426,15.401572227478,15.4016962051392,15.4018201828003,15.4019441604614,15.3285875320435,15.3287086486816,15.3293914794922,15.4011096954346,15.4734869003296,15.5415363311768,15.5467052459717,15.5468301773071,15.5469551086426,15.547080039978,15.5472059249878,15.5473308563232,15.5474557876587,15.5475816726685,15.5477066040039,15.5478324890137,15.5479574203491,15.5480833053589,15.5482082366943,15.5483341217041,15.5484590530396,15.5485849380493,15.5487098693848,15.5488348007202,15.54896068573,15.5490856170654,15.5492115020752,15.5493364334106,15.5494623184204,15.5495872497559,15.5497131347656,13.506872177124,13.5069808959961,13.5070896148682,13.5071983337402,13.5073080062866,13.5074167251587,13.5075254440308,13.5076341629028,13.5077438354492,13.5078525543213,13.5079612731934,13.5080699920654,13.5081796646118,13.5082883834839,13.508397102356,13.508505821228,13.5086154937744,13.5087242126465,13.5088329315186,13.5089416503906,13.509051322937,13.5091600418091,13.5092687606812,13.5093784332275,13.5094871520996,13.5095958709717,13.5097045898438,13.5098142623901,13.5099229812622,13.5100317001343,13.5101413726807,13.5102500915527,13.5103588104248,13.5104675292969,13.5105772018433,13.5106859207153,13.5107946395874,13.5109043121338,13.5110130310059,13.5111217498779,13.51123046875,13.5113401412964,13.5114488601685,13.5115575790405,13.5116672515869,13.511775970459,13.5118846893311,13.5119943618774,13.5121030807495,13.5122117996216,13.512321472168
15.4474716186523,15.4475955963135,15.4477205276489,15.4478445053101,15.4479694366455,15.4480934143066,15.4482173919678,15.4483423233032,15.4484663009644,15.4485902786255,15.4487152099609,15.4488391876221,15.4489641189575,15.4490880966187,15.4492120742798,15.4493370056152,15.4494609832764,15.4495859146118,15.4497098922729,15.4498338699341,15.4499588012695,15.4500827789307,15.4502077102661,15.4503316879272,15.4504566192627,15.4505805969238,15.450704574585,15.4508295059204,15.4509534835815,15.451078414917,15.4512023925781,15.4513263702393,15.4514513015747,15.4515752792358,15.4517002105713,15.4518241882324,15.4519491195679,15.452073097229,15.4521980285645,15.4523220062256,15.4524459838867,15.4525709152222,15.4526948928833,15.4528198242188,15.4529438018799,15.4530687332153,15.4531927108765,15.4533176422119,15.453441619873,15.4535665512085,15.4536905288696,15.4538154602051,15.4539394378662,15.4540643692017,15.4541883468628,15.4543132781982,15.4544372558594,15.4545612335205,15.454686164856,15.4548101425171,15.4549350738525,15.4550590515137,15.4551839828491,15.4553079605103,15.4554328918457,15.4555568695068,15.4556818008423,15.3218221664429,15.3219470977783,15.3220691680908,15.3783464431763,15.395770072937,15.3958940505981,15.3960180282593,15.3961420059204,15.3962659835815,15.3963899612427,15.3965139389038,15.3966379165649,15.3967618942261,15.3968858718872,15.3970098495483,15.3971338272095,15.3972578048706,15.3973817825317,15.3975057601929,15.397629737854,15.3977537155151,15.3978776931763,15.3980016708374,15.3981256484985,15.398250579834,15.3983745574951,15.3984985351562,15.3986225128174,15.3987474441528,15.398871421814,15.3989953994751,15.3991193771362,15.3992443084717,15.3993682861328,15.3994922637939,15.3996162414551,15.3997411727905,15.3998651504517,15.3999891281128,15.3266410827637,15.3267631530762,15.3295154571533,15.4012355804443,15.473611831665,15.5416650772095,15.5447311401367,15.5448560714722,15.5449810028076,15.5451059341431,15.5452318191528,15.5453567504883,15.5454816818237,15.5456075668335,15.5457324981689,15.5458583831787,15.5459833145142,15.5461091995239,15.5462341308594,15.5463590621948,15.5464849472046,15.54660987854,15.5467357635498,15.5468606948853,15.546986579895,15.5471115112305,15.5472364425659,15.5473623275757,15.5474872589111,15.5476131439209,15.5477380752563,13.5051565170288,13.5052652359009,13.5053749084473,13.5054836273193,13.5055923461914,13.5057010650635,13.5058097839355,13.5059194564819,13.506028175354,13.5061368942261,13.5062456130981,13.5063543319702,13.5064640045166,13.5065727233887,13.5066814422607,13.5067901611328,13.5068998336792,13.5070085525513,13.5071172714233,13.5072259902954,13.5073356628418,13.5074443817139,13.5075531005859,13.507661819458,13.5077714920044,13.5078802108765,13.5079889297485,13.5080976486206,13.508207321167,13.5083160400391,13.5084247589111,13.5085334777832,13.5086431503296,13.5087518692017,13.5088605880737,13.5089693069458,13.5090789794922,13.5091876983643,13.5092964172363,13.5094060897827,13.5095148086548,13.5096235275269,13.5097322463989,13.5098419189453,13.5099506378174,13.5100593566895,13.5101680755615,13.5102777481079,13.51038646698,13.5104951858521,13.5106048583984
15.4455127716064,15.4456367492676,15.4457607269287,15.4458856582642,15.4460096359253,15.4461336135864,15.4462585449219,15.446382522583,15.4465065002441,15.4466314315796,15.4467554092407,15.4468793869019,15.4470043182373,15.4471282958984,15.4472532272339,15.447377204895,15.4475011825562,15.4476261138916,15.4477500915527,15.4478740692139,15.4479990005493,15.4481229782104,15.4482469558716,15.448371887207,15.4484958648682,15.4486207962036,15.4487447738647,15.4488687515259,15.4489936828613,15.4491176605225,15.4492425918579,15.449366569519,15.4494905471802,15.4496154785156,15.4497394561768,15.4498643875122,15.4499883651733,15.4501123428345,15.4502372741699,15.4503612518311,15.4504861831665,15.4506101608276,15.4507350921631,15.4508590698242,15.4509830474854,15.4511079788208,15.4512319564819,15.4513568878174,15.4514808654785,15.451605796814,15.4517297744751,15.4518537521362,15.4519786834717,15.4521026611328,15.4522275924683,15.4523515701294,15.4524765014648,15.452600479126,15.4527254104614,15.4528493881226,15.4529733657837,15.4530982971191,15.4532222747803,15.4533472061157,15.4534711837769,15.4535961151123,15.4537200927734,15.3198776245117,15.3200025558472,15.3201246261597,15.3784513473511,15.3938159942627,15.3939399719238,15.394063949585,15.3941879272461,15.3943119049072,15.3944358825684,15.3945598602295,15.3946838378906,15.3948078155518,15.3949317932129,15.395055770874,15.3951797485352,15.3953037261963,15.3954277038574,15.3955516815186,15.3956756591797,15.3957996368408,15.395923614502,15.3960475921631,15.3961715698242,15.3962955474854,15.3964195251465,15.3965444564819,15.3966684341431,15.3967924118042,15.3969163894653,15.3970403671265,15.3971652984619,15.397289276123,15.3974132537842,15.3975372314453,15.3976621627808,15.3977861404419,15.397910118103,15.3980340957642,15.3246955871582,15.3248176574707,15.3296403884888,15.4013605117798,15.4721727371216,15.5417947769165,15.5427579879761,15.5428829193115,15.5430068969727,15.5431327819824,15.5432577133179,15.5433835983276,15.5435085296631,15.5436334609985,15.5437593460083,15.5438842773438,15.5440092086792,15.544135093689,15.5442600250244,15.5443859100342,15.5445108413696,15.5446357727051,15.5447616577148,15.5448865890503,15.5450124740601,15.5451374053955,15.545262336731,15.5453882217407,15.5455131530762,15.5456390380859,15.5457639694214,13.5034418106079,13.50355052948,13.5036592483521,13.5037689208984,13.5038776397705,13.5039863586426,13.5040950775146,13.5042037963867,13.5043125152588,13.5044221878052,13.5045309066772,13.5046396255493,13.5047483444214,13.5048570632935,13.5049667358398,13.5050754547119,13.505184173584,13.5052928924561,13.5054016113281,13.5055112838745,13.5056200027466,13.5057287216187,13.5058374404907,13.5059471130371,13.5060558319092,13.5061645507812,13.5062732696533,13.5063819885254,13.5064916610718,13.5066003799438,13.5067090988159,13.506817817688,13.5069274902344,13.5070362091064,13.5071449279785,13.5072536468506,13.507363319397,13.507472038269,13.5075807571411,13.5076894760132,13.5077991485596,13.5079078674316,13.5080165863037,13.5081253051758,13.5082349777222,13.5083436965942,13.5084524154663,13.5085611343384,13.5086708068848,13.5087795257568,13.5088882446289
15.4435539245605,15.4436779022217,15.4438018798828,15.4439268112183,15.4440507888794,15.4441747665405,15.444299697876,15.4444236755371,15.4445476531982,15.4446716308594,15.4447965621948,15.444920539856,15.4450445175171,15.4451694488525,15.4452934265137,15.4454174041748,15.4455423355103,15.4456663131714,15.4457902908325,15.445915222168,15.4460391998291,15.4461631774902,15.4462881088257,15.4464120864868,15.4465370178223,15.4466609954834,15.4467849731445,15.44690990448,15.4470338821411,15.4471578598022,15.4472827911377,15.4474067687988,15.44753074646,15.4476556777954,15.4477796554565,15.447904586792,15.4480285644531,15.4481525421143,15.4482774734497,15.4484014511108,15.448525428772,15.4486503601074,15.4487743377686,15.448899269104,15.4490232467651,15.4491472244263,15.4492721557617,15.4493961334229,15.4495210647583,15.4496450424194,15.4497690200806,15.449893951416,15.4500179290771,15.4501428604126,15.4502668380737,15.4503908157349,15.4505157470703,15.4506397247314,15.4507646560669,15.450888633728,15.4510135650635,15.4511375427246,15.4512615203857,15.4513864517212,15.4515104293823,15.4516353607178,15.4517593383789,15.3179330825806,15.3180589675903,15.3181800842285,15.3785572052002,15.3918628692627,15.3919868469238,15.392110824585,15.3922348022461,15.3923587799072,15.3924827575684,15.3926067352295,15.3927297592163,15.3928537368774,15.3929777145386,15.3931016921997,15.3932256698608,15.393349647522,15.3934736251831,15.3935976028442,15.3937215805054,15.3938455581665,15.3939695358276,15.3940935134888,15.3942174911499,15.394341468811,15.3944664001465,15.3945903778076,15.3947143554688,15.3948383331299,15.394962310791,15.3950862884521,15.3952112197876,15.3953351974487,15.3954591751099,15.395583152771,15.3957071304321,15.3958320617676,15.3959560394287,15.3960800170898,15.3227500915527,15.3228721618652,15.3297643661499,15.4014854431152,15.4702091217041,15.5406589508057,15.5407848358154,15.5409097671509,15.5410346984863,15.5411596298218,15.5412845611572,15.541410446167,15.5415353775024,15.5416603088379,15.5417861938477,15.5419111251831,15.5420360565186,15.5421619415283,15.5422868728638,15.5424118041992,15.542537689209,15.5426626205444,15.5427885055542,15.5429134368896,15.5430383682251,15.5431642532349,15.5432891845703,15.5434141159058,15.5435400009155,15.543664932251,15.5437898635864,13.501727104187,13.5018358230591,13.5019454956055,13.5020542144775,13.5021629333496,13.5022716522217,13.5023803710938,13.5024890899658,13.5025987625122,13.5027074813843,13.5028162002563,13.5029249191284,13.5030336380005,13.5031423568726,13.5032520294189,13.503360748291,13.5034694671631,13.5035781860352,13.5036869049072,13.5037956237793,13.5039052963257,13.5040140151978,13.5041227340698,13.5042314529419,13.504340171814,13.5044498443604,13.5045585632324,13.5046672821045,13.5047760009766,13.5048847198486,13.504994392395,13.5051031112671,13.5052118301392,13.5053205490112,13.5054292678833,13.5055389404297,13.5056476593018,13.5057563781738,13.5058650970459,13.505973815918,13.5060834884644,13.5061922073364,13.5063009262085,13.5064096450806,13.506519317627,13.506628036499,13.5067367553711,13.5068454742432,13.5069551467896,13.5070638656616,13.5071725845337
15.4415950775146,15.4417200088501,15.4418439865112,15.4419679641724,15.4420919418335,15.4422168731689,15.4423408508301,15.4424648284912,15.4425888061523,15.4427137374878,15.4428377151489,15.4429616928101,15.4430866241455,15.4432106018066,15.4433345794678,15.4434595108032,15.4435834884644,15.4437074661255,15.4438314437866,15.4439563751221,15.4440803527832,15.4442043304443,15.4443292617798,15.4444532394409,15.4445772171021,15.4447021484375,15.4448261260986,15.4449501037598,15.4450750350952,15.4451990127563,15.4453229904175,15.4454479217529,15.4455718994141,15.4456958770752,15.4458208084106,15.4459447860718,15.4460687637329,15.4461936950684,15.4463176727295,15.4464416503906,15.4465665817261,15.4466905593872,15.4468145370483,15.4469394683838,15.4470634460449,15.4471874237061,15.4473123550415,15.4474363327026,15.4475612640381,15.4476852416992,15.4478092193604,15.4479341506958,15.4480581283569,15.4481821060181,15.4483070373535,15.4484310150146,15.4485559463501,15.4486799240112,15.4488039016724,15.4489288330078,15.4490528106689,15.4491777420044,15.4493017196655,15.449426651001,15.4495506286621,15.4496746063232,15.4497995376587,15.315990447998,15.3161153793335,15.3180561065674,15.378662109375,15.3899097442627,15.3900337219238,15.390157699585,15.3902816772461,15.3904056549072,15.3905296325684,15.3906536102295,15.3907766342163,15.3909006118774,15.3910245895386,15.3911485671997,15.3912725448608,15.391396522522,15.3915205001831,15.3916444778442,15.3917684555054,15.3918924331665,15.3920164108276,15.3921403884888,15.3922643661499,15.392388343811,15.3925123214722,15.3926362991333,15.3927602767944,15.3928852081299,15.393009185791,15.3931331634521,15.3932571411133,15.3933811187744,15.3935050964355,15.393630027771,15.3937540054321,15.3938779830933,15.3940019607544,15.3941259384155,15.3208055496216,15.3209276199341,15.329888343811,15.4016103744507,15.4689846038818,15.5386867523193,15.5388126373291,15.5389366149902,15.5390615463257,15.5391874313354,15.5393123626709,15.5394372940063,15.5395631790161,15.5396881103516,15.539813041687,15.5399379730225,15.5400638580322,15.5401887893677,15.5403137207031,15.5404396057129,15.5405645370483,15.5406894683838,15.5408153533936,15.540940284729,15.5410652160645,15.5411911010742,15.5413160324097,15.5414409637451,15.5415668487549,15.5416917800903,15.5418167114258,13.5000133514404,13.5001220703125,13.5002307891846,13.500340461731,13.500449180603,13.5005578994751,13.5006666183472,13.5007753372192,13.5008840560913,13.5009927749634,13.5011014938354,13.5012111663818,13.5013198852539,13.501428604126,13.501537322998,13.5016460418701,13.5017547607422,13.5018634796143,13.5019731521606,13.5020818710327,13.5021905899048,13.5022993087769,13.5024080276489,13.502516746521,13.5026264190674,13.5027351379395,13.5028438568115,13.5029525756836,13.5030612945557,13.5031700134277,13.5032796859741,13.5033884048462,13.5034971237183,13.5036058425903,13.5037145614624,13.5038232803345,13.5039329528809,13.5040416717529,13.504150390625,13.5042591094971,13.5043678283691,13.5044775009155,13.5045862197876,13.5046949386597,13.5048036575317,13.5049123764038,13.5050220489502,13.5051307678223,13.5052394866943,13.5053482055664,13.5054569244385
15.4396371841431,15.4397621154785,15.4398860931396,15.4400100708008,15.4401340484619,15.4402589797974,15.4403829574585,15.4405069351196,15.4406309127808,15.4407558441162,15.4408798217773,15.4410037994385,15.4411277770996,15.4412527084351,15.4413766860962,15.4415006637573,15.4416246414185,15.4417495727539,15.441873550415,15.4419975280762,15.4421215057373,15.4422464370728,15.4423704147339,15.442494392395,15.4426193237305,15.4427433013916,15.4428672790527,15.4429912567139,15.4431161880493,15.4432401657104,15.4433641433716,15.443489074707,15.4436130523682,15.4437370300293,15.4438619613647,15.4439859390259,15.444109916687,15.4442338943481,15.4443588256836,15.4444828033447,15.4446067810059,15.4447317123413,15.4448556900024,15.4449796676636,15.445104598999,15.4452285766602,15.4453525543213,15.4454774856567,15.4456014633179,15.445725440979,15.4458503723145,15.4459743499756,15.4460983276367,15.4462232589722,15.4463472366333,15.4464712142944,15.4465961456299,15.446720123291,15.4468450546265,15.4469690322876,15.4470930099487,15.4472179412842,15.4473419189453,15.4474668502808,15.4475908279419,15.4477157592773,15.4478397369385,15.3140468597412,15.314172744751,15.3181600570679,15.3787670135498,15.387957572937,15.3880815505981,15.3882055282593,15.3883295059204,15.3884525299072,15.3885765075684,15.3887004852295,15.3888244628906,15.3889484405518,15.3890724182129,15.389196395874,15.3893194198608,15.389443397522,15.3895673751831,15.3896913528442,15.3898153305054,15.3899393081665,15.3900632858276,15.3901872634888,15.3903112411499,15.390435218811,15.3905591964722,15.3906831741333,15.3908081054688,15.3909320831299,15.391056060791,15.3911800384521,15.3913040161133,15.3914279937744,15.3915519714355,15.3916759490967,15.3918008804321,15.3919248580933,15.3920488357544,15.3921728134155,15.3188610076904,15.3189830780029,15.3300123214722,15.4017343521118,15.4691123962402,15.536714553833,15.5368404388428,15.5369653701782,15.5370903015137,15.5372152328491,15.5373401641846,15.53746509552,15.5375909805298,15.5377159118652,15.5378408432007,15.5379657745361,15.5380916595459,15.5382165908813,15.5383415222168,15.5384674072266,15.538592338562,15.5387172698975,15.5388431549072,15.5389680862427,15.5390930175781,15.5392179489136,15.5393438339233,15.5394687652588,15.5395936965942,15.539719581604,15.5398445129395,13.4982995986938,13.4984092712402,13.4985179901123,13.4986267089844,13.4987354278564,13.4988441467285,13.4989528656006,13.4990615844727,13.4991703033447,13.4992790222168,13.4993877410889,13.4994974136353,13.4996061325073,13.4997148513794,13.4998235702515,13.4999322891235,13.5000410079956,13.5001497268677,13.5002584457397,13.5003671646118,13.5004768371582,13.5005855560303,13.5006942749023,13.5008029937744,13.5009117126465,13.5010204315186,13.5011291503906,13.5012378692627,13.5013475418091,13.5014562606812,13.5015649795532,13.5016736984253,13.5017824172974,13.5018911361694,13.5020008087158,13.5021095275879,13.50221824646,13.502326965332,13.5024356842041,13.5025444030762,13.5026531219482,13.5027627944946,13.5028715133667,13.5029802322388,13.5030889511108,13.5031976699829,13.503306388855,13.5034160614014,13.5035247802734,13.5036334991455,13.5037422180176
15.4376802444458,15.4378042221069,15.4379281997681,15.4380531311035,15.4381771087646,15.4383010864258,15.4384250640869,15.438549041748,15.4386739730835,15.4387979507446,13.5509233474731,13.5510330200195,13.5511417388916,13.551251411438,13.5513601303101,13.5514688491821,13.5515785217285,13.5516872406006,13.5517959594727,13.551905632019,13.5520143508911,13.5521240234375,13.5522327423096,13.5523414611816,13.552451133728,13.5525598526001,13.5526695251465,13.5527782440186,13.5528869628906,13.552996635437,13.5531053543091,13.5532150268555,13.5533237457275,13.5534324645996,13.553542137146,13.5536508560181,13.5537605285645,13.5538692474365,13.5539779663086,13.554087638855,13.5541963577271,13.5543060302734,13.5544147491455,13.5545234680176,13.554633140564,13.554741859436,13.5548515319824,13.5549602508545,13.5550699234009,13.5551786422729,13.5552883148193,13.5553970336914,13.5555057525635,13.5556154251099,13.5557241439819,13.5558338165283,13.5559425354004,13.5560522079468,13.5561609268188,13.5562705993652,13.5563793182373,13.5564880371094,13.5565977096558,13.5567064285278,13.5568161010742,13.5569248199463,13.5570344924927,13.5571432113647,13.5572528839111,13.5573616027832,13.5574712753296,13.5575799942017,13.557689666748,13.5577983856201,13.5579080581665,13.5580167770386,13.558126449585,13.5582361221313,13.5583448410034,13.5584545135498,13.5585632324219,13.5586729049683,13.5587816238403,13.5588912963867,13.5590000152588,13.5591096878052,13.5592184066772,13.5593280792236,13.5594367980957,13.5595464706421,13.5596551895142,13.5597648620605,13.5598735809326,13.559983253479,13.5600919723511,13.5602016448975,13.5603103637695,13.5604200363159,13.560528755188,13.5606384277344,13.5607481002808,13.5608568191528,13.5609664916992,13.5610752105713,13.5611848831177,13.5612936019897,13.5614032745361,13.5615119934082,13.5616216659546,13.5617303848267,13.561840057373,13.5619497299194,13.5620584487915,13.5621681213379,13.56227684021,13.5623865127563,13.5624952316284,13.5626049041748,13.5627145767212,13.5628232955933,13.5629329681396,13.5630416870117,13.5631513595581,13.5632600784302,13.5633697509766,13.5634794235229,13.563588142395,13.5636978149414,13.5638065338135,13.5639162063599,13.5640258789062,13.5641345977783,13.5642442703247,13.5643529891968,13.5644626617432,13.5645723342896,13.5646810531616,13.4965867996216,13.4966955184937,13.4968042373657,13.4969129562378,13.4970216751099,13.4971303939819,13.4972400665283,13.4973487854004,13.4974575042725,13.4975662231445,13.4976749420166,13.4977836608887,13.4978923797607,13.4980010986328,13.4981098175049,13.498218536377,13.498327255249,13.4984359741211,13.4985456466675,13.4986543655396,13.4987630844116,13.4988718032837,13.4989805221558,13.4990892410278,13.4991979598999,13.499306678772,13.499415397644,13.4995241165161,13.4996337890625,13.4997425079346,13.4998512268066,13.4999599456787,13.5000686645508,13.5001773834229,13.5002861022949,13.500394821167,13.5005035400391,13.5006132125854,13.5007219314575,13.5008306503296,13.5009393692017,13.5010480880737,13.5011568069458,13.5012655258179,13.5013751983643,13.5014839172363,13.5015926361084,13.5017013549805,13.5018100738525,13.5019187927246,13.5020275115967
15.4357233047485,15.4358472824097,15.4359712600708,15.4360961914062,15.4362201690674,15.4363441467285,15.4364681243896,15.4365921020508,15.4367170333862,15.4368410110474,13.5492057800293,13.5493144989014,13.5494232177734,13.5495328903198,13.5496416091919,13.549750328064,13.5498600006104,13.5499687194824,13.5500774383545,13.5501871109009,13.5502958297729,13.550404548645,13.5505142211914,13.5506229400635,13.5507316589355,13.5508413314819,13.550950050354,13.5510597229004,13.5511684417725,13.5512771606445,13.5513868331909,13.551495552063,13.5516042709351,13.5517139434814,13.5518226623535,13.5519323348999,13.552041053772,13.552149772644,13.5522594451904,13.5523681640625,13.5524768829346,13.552586555481,13.552695274353,13.5528049468994,13.5529136657715,13.5530223846436,13.5531320571899,13.553240776062,13.5533504486084,13.5534591674805,13.5535678863525,13.5536775588989,13.553786277771,13.5538959503174,13.5540046691895,13.5541143417358,13.5542230606079,13.55433177948,13.5544414520264,13.5545501708984,13.5546598434448,13.5547685623169,13.5548782348633,13.5549869537354,13.5550966262817,13.5552053451538,13.5553150177002,13.5554237365723,13.5555334091187,13.5556421279907,13.5557518005371,13.5558614730835,13.5559701919556,13.556079864502,13.556188583374,13.5562982559204,13.5564069747925,13.5565166473389,13.5566253662109,13.5567350387573,13.5568437576294,13.5569534301758,13.5570621490479,13.5571718215942,13.5572805404663,13.5573902130127,13.5574989318848,13.5576076507568,13.5577173233032,13.5578260421753,13.5579357147217,13.5580444335938,13.5581541061401,13.5582628250122,13.5583724975586,13.5584812164307,13.5585908889771,13.5586996078491,13.5588092803955,13.5589179992676,13.559027671814,13.5591373443604,13.5592460632324,13.5593557357788,13.5594644546509,13.5595741271973,13.5596828460693,13.5597925186157,13.5599012374878,13.5600109100342,13.5601196289062,13.5602293014526,13.5603380203247,13.5604476928711,13.5605564117432,13.5606660842896,13.5607748031616,13.560884475708,13.5609941482544,13.5611028671265,13.5612125396729,13.5613212585449,13.5614309310913,13.5615396499634,13.5616493225098,13.5617580413818,13.5618677139282,13.5619764328003,13.5620861053467,13.5621957778931,13.5623044967651,13.5624141693115,13.5625228881836,13.56263256073,13.5627412796021,13.5628509521484,13.5629596710205,13.4948740005493,13.4949827194214,13.4950914382935,13.4952001571655,13.4953088760376,13.4954175949097,13.4955272674561,13.4956359863281,13.4957447052002,13.4958534240723,13.4959621429443,13.4960708618164,13.4961795806885,13.4962882995605,13.4963970184326,13.4965057373047,13.4966144561768,13.4967231750488,13.4968318939209,13.496940612793,13.497049331665,13.4971580505371,13.4972667694092,13.4973764419556,13.4974851608276,13.4975938796997,13.4977025985718,13.4978113174438,13.4979200363159,13.498028755188,13.4981374740601,13.4982461929321,13.4983549118042,13.4984636306763,13.4985723495483,13.4986820220947,13.4987907409668,13.4988994598389,13.4990081787109,13.499116897583,13.4992256164551,13.4993343353271,13.4994430541992,13.4995517730713,13.4996604919434,13.4997701644897,13.4998788833618,13.4999876022339,13.500096321106,13.500205039978,13.5003137588501
15.4337673187256,15.4338912963867,15.4340152740479,15.434139251709,15.4342632293701,15.4343872070312,15.4345121383667,15.4346361160278,15.434760093689,15.4348840713501,13.5474872589111,13.5475959777832,13.5477056503296,13.5478143692017,13.5479230880737,13.5480327606201,13.5481414794922,13.5482501983643,13.5483598709106,13.5484685897827,13.5485773086548,13.5486869812012,13.5487957000732,13.5489044189453,13.5490140914917,13.5491228103638,13.5492315292358,13.5493412017822,13.5494499206543,13.5495586395264,13.5496683120728,13.5497770309448,13.5498857498169,13.5499954223633,13.5501041412354,13.5502128601074,13.5503225326538,13.5504312515259,13.5505399703979,13.5506496429443,13.5507583618164,13.5508670806885,13.5509767532349,13.5510854721069,13.5511951446533,13.5513038635254,13.5514135360718,13.5515222549438,13.5516319274902,13.5517406463623,13.5518493652344,13.5519590377808,13.5520677566528,13.5521774291992,13.5522861480713,13.5523958206177,13.5525045394897,13.5526142120361,13.5527229309082,13.5528326034546,13.5529413223267,13.553050994873,13.5531597137451,13.5532684326172,13.5533781051636,13.5534868240356,13.553596496582,13.5537052154541,13.5538148880005,13.5539236068726,13.5540332794189,13.554141998291,13.5542516708374,13.5543603897095,13.5544700622559,13.5545787811279,13.5546884536743,13.5547971725464,13.5549068450928,13.5550155639648,13.5551252365112,13.5552339553833,13.5553436279297,13.5554523468018,13.5555610656738,13.5556707382202,13.5557794570923,13.5558891296387,13.5559978485107,13.5561075210571,13.5562162399292,13.5563259124756,13.5564346313477,13.556544303894,13.5566530227661,13.5567626953125,13.5568714141846,13.556981086731,13.557089805603,13.5571985244751,13.5573081970215,13.5574169158936,13.5575265884399,13.557635307312,13.5577449798584,13.5578536987305,13.5579633712769,13.5580720901489,13.5581817626953,13.5582904815674,13.5584001541138,13.5585088729858,13.5586185455322,13.5587272644043,13.5588369369507,13.5589456558228,13.5590553283691,13.5591640472412,13.5592737197876,13.5593824386597,13.5594921112061,13.5596008300781,13.5597105026245,13.5598192214966,13.559928894043,13.560037612915,13.5601472854614,13.5602560043335,13.5603656768799,13.560474395752,13.5605840682983,13.5606927871704,13.5608024597168,13.5609111785889,13.5610208511353,13.5611295700073,13.5612392425537,13.4931621551514,13.4932708740234,13.4933795928955,13.4934883117676,13.4935970306396,13.4937057495117,13.4938144683838,13.4939231872559,13.4940319061279,13.494140625,13.4942493438721,13.4943580627441,13.4944667816162,13.4945755004883,13.4946842193604,13.4947929382324,13.4949016571045,13.4950103759766,13.4951190948486,13.4952278137207,13.4953365325928,13.4954452514648,13.4955539703369,13.495662689209,13.4957723617554,13.4958810806274,13.4959897994995,13.4960985183716,13.4962072372437,13.4963159561157,13.4964246749878,13.4965333938599,13.4966421127319,13.496750831604,13.4968595504761,13.4969682693481,13.4970769882202,13.4971857070923,13.4972944259644,13.4974031448364,13.4975128173828,13.4976215362549,13.497730255127,13.497838973999,13.4979476928711,13.4980564117432,13.4981651306152,13.4982738494873,13.4983825683594,13.4984912872314,13.4986000061035
15.4318113327026,15.4319353103638,15.4320592880249,15.432183265686,15.4323072433472,15.4324312210083,15.4325561523438,15.4326801300049,15.432804107666,15.4329280853271,13.5457696914673,13.5458784103394,13.5459880828857,13.5460968017578,13.5462055206299,13.546314239502,13.5464239120483,13.5465326309204,13.5466413497925,13.5467510223389,13.5468597412109,13.546968460083,13.5470781326294,13.5471868515015,13.5472955703735,13.5474042892456,13.547513961792,13.5476226806641,13.5477313995361,13.5478410720825,13.5479497909546,13.548059463501,13.548168182373,13.5482769012451,13.5483865737915,13.5484952926636,13.54860496521,13.548713684082,13.5488224029541,13.5489320755005,13.5490407943726,13.5491504669189,13.549259185791,13.5493679046631,13.5494775772095,13.5495862960815,13.5496959686279,13.5498046875,13.5499134063721,13.5500230789185,13.5501317977905,13.5502414703369,13.550350189209,13.5504598617554,13.5505685806274,13.5506772994995,13.5507869720459,13.550895690918,13.5510053634644,13.5511140823364,13.5512237548828,13.5513324737549,13.551441192627,13.5515508651733,13.5516595840454,13.5517692565918,13.5518779754639,13.5519876480103,13.5520963668823,13.5522060394287,13.5523147583008,13.5524244308472,13.5525331497192,13.5526418685913,13.5527515411377,13.5528602600098,13.5529699325562,13.5530786514282,13.5531883239746,13.5532970428467,13.5534067153931,13.5535154342651,13.5536241531372,13.5537338256836,13.5538425445557,13.5539522171021,13.5540609359741,13.5541706085205,13.5542793273926,13.5543880462646,13.554497718811,13.5546064376831,13.5547161102295,13.5548248291016,13.5549345016479,13.55504322052,13.5551528930664,13.5552616119385,13.5553703308105,13.5554800033569,13.555588722229,13.5556983947754,13.5558071136475,13.5559167861938,13.5560255050659,13.556134223938,13.5562438964844,13.5563526153564,13.5564622879028,13.5565710067749,13.5566806793213,13.5567893981934,13.5568981170654,13.5570077896118,13.5571165084839,13.5572261810303,13.5573348999023,13.5574445724487,13.5575532913208,13.5576629638672,13.5577716827393,13.5578804016113,13.5579900741577,13.5580987930298,13.5582084655762,13.5583171844482,13.5584268569946,13.5585355758667,13.5586452484131,13.5587539672852,13.5588636398315,13.5589723587036,13.55908203125,13.5591907501221,13.5593004226685,13.5594091415405,13.5595178604126,13.4914503097534,13.4915590286255,13.4916677474976,13.4917764663696,13.4918851852417,13.4919939041138,13.4921026229858,13.4922113418579,13.49232006073,13.4924287796021,13.4925374984741,13.4926462173462,13.4927549362183,13.4928636550903,13.4929723739624,13.4930810928345,13.4931898117065,13.4932985305786,13.4934072494507,13.4935159683228,13.4936246871948,13.4937334060669,13.493842124939,13.493950843811,13.4940595626831,13.4941682815552,13.4942770004272,13.4943857192993,13.4944944381714,13.4946031570435,13.4947118759155,13.4948205947876,13.4949293136597,13.4950380325317,13.4951467514038,13.4952554702759,13.4953641891479,13.49547290802,13.4955816268921,13.4956903457642,13.4957990646362,13.4959077835083,13.4960174560547,13.4961261749268,13.4962348937988,13.4963436126709,13.496452331543,13.496561050415,13.4966697692871,13.4967784881592,13.4968872070312
15.429856300354,15.4299802780151,15.4301042556763,15.4302282333374,15.4303522109985,15.4304761886597,15.4306001663208,15.4307241439819,15.4308481216431,15.4309720993042,13.5440530776978,13.5441617965698,13.5442705154419,13.544379234314,13.5444889068604,13.5445976257324,13.5447063446045,13.5448160171509,13.5449247360229,13.545033454895,13.5451431274414,13.5452518463135,13.5453605651855,13.5454702377319,13.545578956604,13.5456876754761,13.5457973480225,13.5459060668945,13.5460147857666,13.546124458313,13.5462331771851,13.5463418960571,13.5464515686035,13.5465602874756,13.546669960022,13.546778678894,13.5468873977661,13.5469970703125,13.5471057891846,13.5472145080566,13.547324180603,13.5474328994751,13.5475425720215,13.5476512908936,13.5477600097656,13.547869682312,13.5479784011841,13.5480871200562,13.5481967926025,13.5483055114746,13.548415184021,13.5485239028931,13.5486326217651,13.5487422943115,13.5488510131836,13.54896068573,13.5490694046021,13.5491781234741,13.5492877960205,13.5493965148926,13.549506187439,13.549614906311,13.5497236251831,13.5498332977295,13.5499420166016,13.5500516891479,13.55016040802,13.5502700805664,13.5503787994385,13.5504875183105,13.5505971908569,13.550705909729,13.5508155822754,13.5509243011475,13.5510339736938,13.5511426925659,13.551251411438,13.5513610839844,13.5514698028564,13.5515794754028,13.5516881942749,13.551796913147,13.5519065856934,13.5520153045654,13.5521249771118,13.5522336959839,13.552342414856,13.5524520874023,13.5525608062744,13.5526695251465,13.5527791976929,13.5528879165649,13.5529975891113,13.5531063079834,13.5532150268555,13.5533246994019,13.5534334182739,13.553542137146,13.5536518096924,13.5537605285645,13.5538702011108,13.5539789199829,13.554087638855,13.5541973114014,13.5543060302734,13.5544157028198,13.5545244216919,13.554633140564,13.5547428131104,13.5548515319824,13.5549612045288,13.5550699234009,13.5551786422729,13.5552883148193,13.5553970336914,13.5555067062378,13.5556154251099,13.5557241439819,13.5558338165283,13.5559425354004,13.5560522079468,13.5561609268188,13.5562705993652,13.5563793182373,13.5564880371094,13.5565977096558,13.5567064285278,13.5568161010742,13.5569248199463,13.5570344924927,13.5571432113647,13.5572528839111,13.5573616027832,13.5574703216553,13.5575799942017,13.5576887130737,13.5577983856201,13.4897394180298,13.4898481369019,13.4899559020996,13.4900646209717,13.4901733398438,13.4902820587158,13.4903907775879,13.49049949646,13.490608215332,13.4907169342041,13.4908256530762,13.4909343719482,13.4910430908203,13.4911518096924,13.4912605285645,13.4913692474365,13.4914779663086,13.4915866851807,13.4916954040527,13.4918041229248,13.4919128417969,13.4920215606689,13.492130279541,13.4922389984131,13.4923477172852,13.4924564361572,13.4925651550293,13.4926738739014,13.4927825927734,13.4928913116455,13.4930000305176,13.4931087493896,13.4932174682617,13.4933261871338,13.4934349060059,13.4935436248779,13.49365234375,13.4937610626221,13.4938697814941,13.4939785003662,13.4940872192383,13.4941959381104,13.4943046569824,13.4944133758545,13.4945220947266,13.4946308135986,13.4947395324707,13.4948482513428,13.4949569702148,13.4950656890869,13.495174407959
15.4279012680054,15.4280252456665,15.4281492233276,15.4282732009888,15.4283971786499,15.428521156311,15.4286451339722,15.4287691116333,15.4288930892944,15.4290170669556,15.4291410446167,13.563663482666,13.5637722015381,13.5638818740845,13.6058006286621,15.4297618865967,13.8192853927612,13.8186845779419,13.8180837631226,13.8175611495972,13.8595285415649,13.9054460525513,13.9516677856445,13.9981985092163,14.0450410842896,14.0921983718872,14.1396722793579,14.1874675750732,13.5655174255371,13.5656261444092,13.5686302185059,13.6150903701782,14.4313745498657,14.4811658859253,14.5313024520874,14.581787109375,14.6326236724854,14.6838140487671,14.7353649139404,14.787278175354,14.8395586013794,14.8922100067139,14.9452362060547,14.9986410140991,15.0524291992188,13.5673723220825,13.5674839019775,13.5760726928711,13.6253509521484,15.3272638320923,15.3834400177002,15.4342288970947,15.4343528747559,15.434476852417,15.4346017837524,15.4347257614136,15.4348497390747,15.4349737167358,15.435097694397,15.4352226257324,15.4353466033936,15.4354705810547,13.5692319869995,13.5693407058716,13.5844879150391,15.4359674453735,15.4360914230347,15.3024005889893,15.3025255203247,15.3187856674194,15.3761301040649,15.3762540817261,15.3763771057129,15.376501083374,15.3766250610352,15.376748085022,15.3768720626831,15.3769950866699,13.5709772109985,13.5710859298706,13.571195602417,13.5940780639648,15.3776140213013,15.3777370452881,15.3778610229492,15.3779850006104,15.3781089782715,15.3782329559326,15.3783569335938,15.3784809112549,15.3786039352417,15.3787279129028,15.378851890564,15.3789758682251,15.3790998458862,13.5728330612183,13.5729417800903,13.5730504989624,13.6051206588745,15.3797197341919,15.379843711853,15.3799676895142,15.380090713501,15.3802146911621,15.3803386688232,15.3804626464844,15.3072061538696,15.3073282241821,15.3307580947876,15.4024820327759,15.4698781967163,15.5248947143555,13.574688911438,13.5747976303101,13.5749063491821,13.6180601119995,15.5255184173584,15.5256433486938,15.5257682800293,15.5258932113647,15.5260181427002,15.5261430740356,15.5262680053711,15.5263938903809,15.5265188217163,15.5266437530518,15.5267686843872,15.5268936157227,15.5270185470581,13.5765447616577,13.5766534805298,13.5767631530762,13.6332187652588,15.5276432037354,15.5277690887451,15.5278940200806,15.528018951416,13.4880285263062,13.4881362915039,13.488245010376,13.488353729248,13.4884624481201,13.4885711669922,13.4886798858643,13.4887886047363,13.4888973236084,13.4890060424805,13.4891147613525,13.4892234802246,13.4893321990967,13.4894409179688,13.4895496368408,13.4896583557129,13.4897661209106,13.4898748397827,13.4899835586548,13.4900922775269,13.4902009963989,13.490309715271,13.4904184341431,13.4905271530151,13.4906358718872,13.4907445907593,13.4908533096313,13.4909620285034,13.4910707473755,13.4911794662476,13.4912881851196,13.4913969039917,13.4915056228638,13.4916143417358,13.4917230606079,13.49183177948,13.4919404983521,13.4920492172241,13.4921579360962,13.4922666549683,13.4923753738403,13.4924840927124,13.4925928115845,13.4927015304565,13.4928102493286,13.4929189682007,13.4930276870728,13.4931364059448,13.4932451248169,13.493353843689,13.4934616088867
15.4259471893311,15.4260711669922,15.4261951446533,15.4263191223145,15.4264430999756,15.4265670776367,15.4266910552979,15.426815032959,15.4269390106201,15.4270629882812,15.4271869659424,13.5619449615479,13.5620536804199,13.5621633529663,13.6058759689331,15.427806854248,15.4279308319092,15.4280548095703,15.4281787872314,15.4283027648926,13.948130607605,13.9482431411743,13.9677248001099,15.4287986755371,14.2078485488892,14.2072134017944,14.206579208374,14.2061548233032,13.5637989044189,13.563907623291,13.5687065124512,13.6151676177979,14.4314765930176,14.4812688827515,14.5314054489136,14.5818901062012,14.6327276229858,14.6839208602905,14.7354726791382,14.7873888015747,14.8396711349487,14.8923234939575,14.9453506469727,14.9987573623657,15.0525465011597,13.5656538009644,13.5657644271851,13.5761556625366,13.625433921814,15.3273849487305,15.3835611343384,15.4322729110718,15.4323968887329,15.4325218200684,15.4326457977295,15.4327697753906,15.4328937530518,15.4330177307129,15.433141708374,15.4332666397095,15.4333906173706,15.4335145950317,13.5675115585327,13.5676202774048,13.5845775604248,15.4340114593506,15.4341354370117,15.3004608154297,15.3005857467651,15.3188896179199,15.3741807937622,15.3743047714233,15.3744287490845,15.3745517730713,15.3746757507324,15.3747987747192,15.3749227523804,15.3750467300415,13.5692577362061,13.5693664550781,13.5694751739502,13.5941762924194,15.3756647109985,15.3757877349854,15.3759117126465,15.3760356903076,15.3761596679688,15.3762836456299,15.376407623291,15.3765306472778,15.376654624939,15.3767786026001,15.3769025802612,15.3770265579224,15.3771505355835,13.5711126327515,13.5712213516235,13.5713300704956,13.6052293777466,15.3777694702148,15.377893447876,15.3780174255371,15.3781414031982,15.3782653808594,15.3783893585205,15.3785123825073,15.3052654266357,15.3053874969482,15.330883026123,15.402606010437,15.4700059890747,15.5229263305664,13.5729675292969,13.5730762481689,13.5731859207153,13.6181726455688,15.5235500335693,15.5236749649048,15.5237998962402,15.5239248275757,15.5240497589111,15.5241746902466,15.524299621582,15.5244245529175,15.5245494842529,15.5246744155884,15.5247993469238,15.5249242782593,15.5250492095947,13.5748233795166,13.5749320983887,13.5750417709351,13.6333360671997,15.5256748199463,15.5257997512817,15.5259246826172,15.5260496139526,13.4863176345825,13.4864263534546,13.4865350723267,13.4866437911987,13.4867525100708,13.4868602752686,13.4869689941406,13.4870777130127,13.4871864318848,13.4872951507568,13.4874038696289,13.487512588501,13.487621307373,13.4877300262451,13.4878387451172,13.4879474639893,13.488055229187,13.4881639480591,13.4882726669312,13.4883813858032,13.4884901046753,13.4885988235474,13.4887075424194,13.4888162612915,13.4889249801636,13.4890336990356,13.4891424179077,13.4892511367798,13.4893598556519,13.4894685745239,13.4895763397217,13.4896850585938,13.4897937774658,13.4899024963379,13.49001121521,13.490119934082,13.4902286529541,13.4903373718262,13.4904460906982,13.4905548095703,13.4906635284424,13.4907722473145,13.4908809661865,13.4909896850586,13.4910984039307,13.4912071228027,13.4913158416748,13.4914245605469,13.4915332794189,13.491641998291,13.4917497634888
15.4239931106567,15.4241170883179,15.424241065979,15.4243650436401,15.4244890213013,15.4246129989624,15.4247369766235,15.4248609542847,15.4249849319458,15.4251089096069,15.4252328872681,13.560227394104,13.5603361129761,13.5621185302734,13.6059513092041,15.4258527755737,15.4259767532349,15.426100730896,15.4262247085571,13.9462518692017,13.946364402771,13.946475982666,13.9678039550781,15.4268445968628,15.4269685745239,15.4270925521851,15.4272165298462,15.4273405075073,13.5620803833008,13.5621891021729,13.5687837600708,13.6152448654175,15.427960395813,14.6182231903076,14.6176166534424,14.6172370910645,14.6328325271606,14.6840257644653,14.7355785369873,14.7874956130981,14.8397789001465,14.8924331665039,14.9454622268677,14.9988708496094,15.0526628494263,13.5639343261719,13.5640459060669,13.5762376785278,13.6255168914795,15.3275060653687,15.3836832046509,15.4303178787231,15.4304418563843,15.4305658340454,15.4306898117065,15.4308137893677,15.4309387207031,15.4310626983643,15.4311866760254,15.4313106536865,15.4314346313477,13.5656833648682,13.5657920837402,13.5659017562866,13.5846672058105,15.4320554733276,15.4321794509888,15.2985219955444,15.2986469268799,15.3189935684204,15.3722324371338,15.3723564147949,15.3724794387817,15.3726034164429,15.372727394104,15.3728504180908,15.372974395752,15.3730974197388,13.5675373077393,13.5676460266113,13.5677547454834,13.5942754745483,15.3737154006958,15.3738393783569,15.3739633560181,15.3740873336792,15.374210357666,15.3743343353271,15.3744583129883,15.3745822906494,15.3747062683105,15.3748302459717,15.3749532699585,15.3750772476196,15.3752012252808,13.5693922042847,13.5695009231567,13.5696096420288,13.6053371429443,15.3758201599121,15.3759441375732,15.3760681152344,15.3761920928955,15.3763160705566,15.3764400482178,15.3765630722046,15.3033256530762,15.3034477233887,15.3310070037842,15.4027309417725,15.4701337814331,15.5209579467773,13.5712471008301,13.5713558197021,13.5714645385742,13.6182851791382,15.5215816497803,15.5217065811157,15.5218315124512,15.5219564437866,15.5220813751221,15.5222063064575,15.522331237793,15.5224561691284,15.5225811004639,15.5227060317993,15.5228309631348,15.5229558944702,15.5230808258057,13.5731019973755,13.5732107162476,13.5733203887939,13.6334524154663,15.5237054824829,15.5238313674927,15.5239562988281,15.5240812301636,13.4846076965332,13.4847164154053,13.4848251342773,13.4849338531494,13.4850416183472,13.4851503372192,13.4852590560913,13.4853677749634,13.4854764938354,13.4855852127075,13.4856939315796,13.4858016967773,13.4859104156494,13.4860191345215,13.4861278533936,13.4862365722656,13.4863452911377,13.4864540100098,13.4865627288818,13.4866714477539,13.4867792129517,13.4868879318237,13.4869966506958,13.4871053695679,13.4872140884399,13.487322807312,13.4874315261841,13.4875402450562,13.4876489639282,13.4877576828003,13.4878664016724,13.4879741668701,13.4880828857422,13.4881916046143,13.4883003234863,13.4884090423584,13.4885177612305,13.4886264801025,13.4887351989746,13.4888439178467,13.4889526367188,13.4890613555908,13.4891700744629,13.489278793335,13.4893865585327,13.4894952774048,13.4896039962769,13.4897127151489,13.489821434021,13.4899301528931,13.4900388717651
15.4220399856567,15.4221639633179,15.4222869873047,15.4224109649658,15.422534942627,15.4226589202881,15.4227828979492,15.4229068756104,15.4230308532715,15.4231548309326,15.4232788085938,13.5585098266602,13.5586185455322,13.5621948242188,13.6060266494751,15.4238986968994,15.4240226745605,15.4241466522217,15.4242706298828,13.9444856643677,13.9445972442627,13.944709777832,13.9678821563721,15.4248905181885,15.4250144958496,15.4251384735107,15.4252624511719,15.425386428833,13.5603628158569,13.560471534729,13.5688600540161,13.6153221130371,15.4260063171387,15.4261302947998,15.4262542724609,14.716591835022,14.7167100906372,14.7168283462524,14.752495765686,15.4268741607666,15.4269981384277,15.0537214279175,15.05322265625,15.0528202056885,15.052773475647,13.5622158050537,13.5623273849487,13.576319694519,15.2718572616577,15.3276262283325,15.3838052749634,15.4283628463745,15.4284868240356,15.4286108016968,15.4287347793579,15.428858757019,15.4289836883545,15.4291076660156,15.4292316436768,15.4293556213379,15.429479598999,13.56396484375,13.5640735626221,13.5641822814941,13.5847568511963,15.430100440979,15.4302244186401,15.2965831756592,15.2967081069946,15.3190975189209,15.3702850341797,15.3704080581665,15.3705320358276,15.3706550598145,15.3707790374756,15.3709030151367,15.3710260391235,15.3711500167847,13.5658178329468,13.5659265518188,13.5660362243652,13.5943737030029,15.3717670440674,15.3718910217285,15.3720149993896,15.3721389770508,15.3722620010376,15.3723859786987,15.3725099563599,15.372633934021,15.3727579116821,15.3728809356689,15.3730049133301,15.3731288909912,15.3732528686523,13.5676727294922,13.5677814483643,13.5678901672363,13.6054458618164,15.3738718032837,15.3739957809448,15.374119758606,15.3742427825928,15.3743667602539,15.374490737915,15.3746137619019,15.3013858795166,15.3015079498291,15.3311319351196,15.4028558731079,15.4702615737915,15.5189905166626,13.5695266723633,13.5696353912354,13.5697450637817,13.6183977127075,15.5196142196655,15.519739151001,15.5198640823364,15.5199890136719,15.5201139450073,15.5202388763428,15.5203638076782,15.5204887390137,15.5206136703491,15.5207386016846,15.52086353302,15.5209884643555,15.5211133956909,13.5713815689087,13.5714902877808,13.5715990066528,15.5216131210327,15.5217380523682,15.5218629837036,15.5219879150391,15.5221128463745,13.4828977584839,13.483006477356,13.483115196228,13.4832239151001,13.4833326339722,13.4834403991699,13.483549118042,13.4836578369141,13.4837665557861,13.4838752746582,13.4839839935303,13.4840927124023,13.4842004776001,13.4843091964722,13.4844179153442,13.4845266342163,13.4846353530884,13.4847440719604,13.4848527908325,13.4849605560303,13.4850692749023,13.4851779937744,13.4852867126465,13.4853954315186,13.4855041503906,13.4856128692627,13.4857206344604,13.4858293533325,13.4859380722046,13.4860467910767,13.4861555099487,13.4862642288208,13.4863729476929,13.4864816665649,13.486590385437,13.4866981506348,13.4868068695068,13.4869155883789,13.487024307251,13.487133026123,13.4872417449951,13.4873504638672,13.4874591827393,13.4875679016113,13.4876766204834,13.4877843856812,13.4878931045532,13.4880018234253,13.4881105422974,13.4882192611694,13.4883279800415
15.4200868606567,15.4202108383179,15.420334815979,15.4204587936401,15.4205827713013,15.4207057952881,15.4208297729492,15.4209537506104,15.4210777282715,15.4212017059326,15.4213256835938,13.5567932128906,13.5569019317627,13.5622701644897,13.6061019897461,15.4219455718994,15.4220695495605,15.4221935272217,15.4223175048828,13.9427194595337,13.9428310394287,13.942943572998,13.9679613113403,15.4229364395142,15.4230604171753,15.4231843948364,15.4233083724976,15.4234323501587,13.5586452484131,13.5587539672852,13.5689363479614,13.6153993606567,15.4240522384644,15.4241762161255,15.4243001937866,14.7147283554077,14.7148456573486,14.7149639129639,14.7525825500488,15.4249200820923,15.4250440597534,15.4251680374146,15.4252920150757,15.1007986068726,15.1009197235107,13.5604982376099,13.5606098175049,13.5764017105103,15.4260368347168,15.4261608123779,15.4262847900391,15.4264087677002,15.4265327453613,15.4266567230225,15.4267807006836,15.4269046783447,15.4270286560059,15.427152633667,15.4272766113281,15.4274005889893,15.4275245666504,13.5622463226318,13.5623550415039,13.562463760376,13.584846496582,15.4281454086304,15.4282693862915,15.2946453094482,15.2947702407837,15.3192024230957,15.3683376312256,15.3684606552124,15.3685846328735,15.3687076568604,15.3688316345215,15.3689546585083,15.3690786361694,15.3692016601562,13.5640993118286,13.5642080307007,13.5643167495728,13.5944719314575,15.3698196411133,15.3699436187744,15.3700666427612,15.3701906204224,15.3703145980835,15.3704385757446,15.3705615997314,15.3706855773926,15.3708095550537,15.3709335327148,15.371057510376,15.3711805343628,15.3713045120239,13.5659532546997,13.5660619735718,13.5661706924438,13.6055536270142,15.3719234466553,15.3720474243164,15.3721714019775,15.3722944259644,15.3724184036255,15.3725423812866,15.3726654052734,15.299446105957,15.2995681762695,15.3312559127808,15.402979850769,15.4703893661499,15.5170240402222,13.5678071975708,13.5679159164429,13.5680246353149,13.6185102462769,15.5176467895508,15.5177717208862,15.5178966522217,15.5180215835571,15.5181465148926,15.518271446228,15.5183963775635,15.5185213088989,15.5186462402344,15.5187711715698,15.5188961029053,15.5190210342407,15.5191459655762,13.5696611404419,13.569769859314,13.569878578186,15.519645690918,15.5197706222534,15.5198955535889,15.5200204849243,15.5201444625854,13.4811887741089,13.481297492981,13.481406211853,13.4815149307251,13.4816226959229,13.4817314147949,13.481840133667,13.4819488525391,13.4820575714111,13.4821653366089,13.482274055481,13.482382774353,13.4824914932251,13.4826002120972,13.4827079772949,13.482816696167,13.4829254150391,13.4830341339111,13.4831428527832,13.4832515716553,13.483359336853,13.4834680557251,13.4835767745972,13.4836854934692,13.4837942123413,13.4839029312134,13.4840116500854,13.4841194152832,13.4842281341553,13.4843368530273,13.4844455718994,13.4845542907715,13.4846630096436,13.4847717285156,13.4848794937134,13.4849882125854,13.4850969314575,13.4852056503296,13.4853143692017,13.4854230880737,13.4855318069458,13.4856395721436,13.4857482910156,13.4858570098877,13.4859657287598,13.4860744476318,13.4861831665039,13.486291885376,13.4863996505737,13.4865083694458,13.4866170883179
15.4181346893311,15.4182586669922,15.418381690979,15.4185056686401,15.4186296463013,15.4187536239624,15.4188776016235,15.4190015792847,15.4191255569458,15.4192495346069,15.4193735122681,13.5550765991211,13.5551853179932,13.5623455047607,13.6061773300171,15.4199924468994,15.4201164245605,15.4202404022217,15.4203643798828,13.940954208374,13.941065788269,13.9411773681641,13.9680404663086,15.4209833145142,15.4211072921753,15.4212312698364,15.4213552474976,15.4214792251587,13.5569286346436,13.5570363998413,13.5690135955811,13.6154766082764,15.4220991134644,15.4222230911255,15.4223470687866,14.7128639221191,14.7129821777344,14.7131004333496,14.7526683807373,15.4229669570923,15.4230909347534,15.4232149124146,15.4233388900757,15.0988855361938,13.5586700439453,13.558780670166,13.5588912963867,13.5764846801758,15.4240827560425,15.4242067337036,15.4243307113647,15.4244546890259,15.424578666687,15.4247026443481,15.4248266220093,15.4249505996704,15.4250745773315,15.4251985549927,15.4253225326538,15.4254465103149,15.4255704879761,13.5605278015137,13.5606365203857,13.5607452392578,13.5849361419678,15.4261913299561,15.4263153076172,15.2927083969116,15.2928323745728,15.3193063735962,15.3663902282715,15.3665142059326,15.3666372299194,15.3667612075806,15.3668842315674,15.3670082092285,15.3671312332153,15.3672552108765,13.5623807907104,13.5624895095825,13.5625982284546,13.5945701599121,15.3678722381592,15.3679962158203,15.3681201934814,15.3682432174683,15.3683671951294,15.3684911727905,15.3686141967773,15.3687381744385,15.3688621520996,15.3689861297607,15.3691091537476,15.3692331314087,15.3693571090698,13.5642347335815,13.5643424987793,13.5644512176514,13.6056623458862,15.3699760437012,15.370099067688,15.3702230453491,15.3703470230103,15.3704710006714,15.3705949783325,15.3707180023193,15.2975072860718,15.2976303100586,15.3313798904419,15.4031047821045,15.4705171585083,15.5150575637817,13.5660877227783,13.5661964416504,13.5663051605225,13.6186218261719,15.5156803131104,15.5158052444458,15.5159301757812,15.5160551071167,15.5161800384521,15.5163049697876,15.516429901123,15.5165548324585,15.5166797637939,15.5168046951294,15.5169296264648,15.517053604126,15.5171785354614,13.5679416656494,13.5680503845215,13.5681591033936,15.5176782608032,15.5178031921387,15.5179281234741,15.5180530548096,15.518177986145,13.4794797897339,13.479588508606,13.479697227478,13.4798059463501,13.4799137115479,13.4800224304199,13.480131149292,13.4802398681641,13.4803485870361,13.4804563522339,13.480565071106,13.480673789978,13.4807825088501,13.4808912277222,13.4809989929199,13.481107711792,13.4812164306641,13.4813251495361,13.4814338684082,13.481541633606,13.481650352478,13.4817590713501,13.4818677902222,13.4819765090942,13.482084274292,13.4821929931641,13.4823017120361,13.4824104309082,13.4825191497803,13.4826278686523,13.4827356338501,13.4828443527222,13.4829530715942,13.4830617904663,13.4831705093384,13.4832792282104,13.4833869934082,13.4834957122803,13.4836044311523,13.4837131500244,13.4838218688965,13.4839305877686,13.4840383529663,13.4841470718384,13.4842557907104,13.4843645095825,13.4844732284546,13.4845819473267,13.4846897125244,13.4847984313965,13.4849071502686
15.4161825180054,15.4163064956665,15.4164304733276,15.4165544509888,15.4166774749756,15.4168014526367,15.4169254302979,15.417049407959,15.4171733856201,15.4172973632812,15.4174213409424,13.5533599853516,13.5534687042236,13.5624208450317,13.6062526702881,15.4180402755737,15.4181642532349,15.418288230896,15.4184112548828,13.9391889572144,13.9393005371094,13.9394121170044,13.9681196212769,15.4190311431885,15.4191551208496,15.4192790985107,15.4194030761719,14.3250713348389,13.555212020874,13.5553207397461,13.5690898895264,13.615553855896,15.4201459884644,15.4202699661255,15.4203939437866,14.7110013961792,14.7111186981201,14.7112369537354,14.7527551651001,15.4210138320923,15.4211378097534,15.4212617874146,15.4213857650757,15.0969734191895,13.5569524765015,13.5570631027222,13.5571746826172,13.576566696167,15.4221296310425,15.4222536087036,15.4223775863647,15.4225015640259,15.422625541687,15.4227495193481,15.4228734970093,15.4229974746704,15.4231214523315,15.4232454299927,15.4233694076538,15.4234933853149,15.4236173629761,13.5588102340698,13.5589189529419,13.559027671814,13.5850257873535,15.4242372512817,15.4243612289429,15.290771484375,15.2908954620361,15.3194103240967,15.3644437789917,15.3645677566528,15.3646907806396,15.3648147583008,15.3649377822876,15.3650608062744,15.3651847839355,15.3653078079224,13.5606622695923,13.5607719421387,13.5608806610107,13.5946683883667,15.3659257888794,15.3660488128662,15.3661727905273,15.3662967681885,15.3664207458496,15.3665437698364,15.3666677474976,15.3667917251587,15.3669147491455,15.3670387268066,15.3671627044678,15.3672866821289,15.3674097061157,13.5625162124634,13.5626249313354,13.5627326965332,13.6057710647583,15.3680286407471,15.3681526184082,15.368275642395,15.3683996200562,15.3685235977173,15.3686475753784,15.3687705993652,15.2955694198608,15.2956914901733,15.3315048217773,15.4032287597656,15.4706449508667,15.5130920410156,13.5643692016602,13.5644779205322,13.5645866394043,13.6187343597412,15.5137147903442,15.5138397216797,15.5139646530151,15.5140886306763,15.5142135620117,15.5143384933472,15.5144634246826,15.5145883560181,15.5147132873535,15.514838218689,15.5149631500244,15.5150880813599,15.515212059021,13.5662221908569,13.566330909729,13.5664396286011,15.5157117843628,15.5158367156982,15.5159616470337,15.5160865783691,15.5162115097046,13.4777717590332,13.4778804779053,13.4779891967773,13.4780969619751,13.4782056808472,13.4783143997192,13.4784231185913,13.4785308837891,13.4786396026611,13.4787483215332,13.4788570404053,13.478964805603,13.4790735244751,13.4791822433472,13.4792909622192,13.479398727417,13.4795074462891,13.4796161651611,13.4797248840332,13.4798336029053,13.479941368103,13.4800500869751,13.4801588058472,13.4802675247192,13.480375289917,13.4804840087891,13.4805927276611,13.4807014465332,13.4808101654053,13.480917930603,13.4810266494751,13.4811353683472,13.4812440872192,13.4813528060913,13.4814605712891,13.4815692901611,13.4816780090332,13.4817867279053,13.4818954467773,13.4820032119751,13.4821119308472,13.4822206497192,13.4823293685913,13.4824380874634,13.4825468063354,13.4826545715332,13.4827632904053,13.4828720092773,13.4829807281494,13.4830884933472,13.4831972122192
15.414231300354,15.4143552780151,15.414478302002,15.4146022796631,15.4147262573242,15.4148502349854,15.4149742126465,15.4150981903076,15.4152212142944,15.4153451919556,15.4154691696167,13.5516443252563,13.5517530441284,13.5624971389771,13.6063280105591,15.416088104248,15.4162120819092,15.4163360595703,15.4164600372314,13.9374237060547,13.937536239624,13.937647819519,13.9681987762451,15.4170789718628,15.4172029495239,15.4173269271851,15.4174509048462,14.3232574462891,13.5534954071045,13.5536041259766,13.5691661834717,15.4180698394775,15.4181938171387,15.4183177947998,15.4184417724609,14.7091379165649,14.7092561721802,14.7093744277954,14.7528419494629,15.4190616607666,15.4191856384277,15.4193096160889,15.41943359375,15.0950622558594,13.5552358627319,13.5553464889526,13.5554580688477,13.5766487121582,15.4201765060425,15.4203004837036,15.4204244613647,15.4205484390259,15.420672416687,15.4207963943481,15.4209203720093,15.4210443496704,15.4211683273315,15.4212923049927,15.4214162826538,15.4215402603149,15.4216642379761,13.5570936203003,13.5572023391724,13.5573110580444,13.5851163864136,15.4222841262817,15.4224081039429,15.2888345718384,15.2889585494995,15.3195142745972,15.3624982833862,15.362621307373,15.3627452850342,15.362868309021,15.3629913330078,15.3631153106689,15.3632383346558,15.3633623123169,13.5589447021484,13.5590543746948,13.5591630935669,13.5947666168213,15.3639793395996,15.3641033172607,15.3642263412476,15.3643503189087,15.3644742965698,15.3645973205566,15.3647212982178,15.3648452758789,15.3649682998657,15.3650922775269,15.365216255188,15.3653392791748,15.3654632568359,13.5607976913452,13.5609064102173,13.5610151290894,13.6058788299561,15.3660821914673,15.3662052154541,15.3663291931152,15.3664531707764,15.3665761947632,15.3667001724243,15.3668231964111,15.2936315536499,15.2937536239624,15.3316287994385,15.4033536911011,15.4707727432251,15.5111265182495,13.562650680542,13.5627593994141,13.5628681182861,13.6188468933105,15.5117492675781,15.5118741989136,15.5119981765747,15.5121231079102,15.5122480392456,15.5123729705811,15.5124979019165,15.512622833252,15.5127477645874,15.5128717422485,15.512996673584,15.5131216049194,15.5132465362549,13.5645027160645,13.5646114349365,13.5647201538086,15.5137453079224,15.5138702392578,15.5139951705933,15.5141201019287,15.5142450332642,13.4760637283325,13.4761724472046,13.4762811660767,13.4763889312744,13.4764976501465,13.4766063690186,13.4767150878906,13.4768228530884,13.4769315719604,13.4770402908325,13.4771490097046,13.4772567749023,13.4773654937744,13.4774742126465,13.4775819778442,13.4776906967163,13.4777994155884,13.4779081344604,13.4780158996582,13.4781246185303,13.4782333374023,13.4783420562744,13.4784498214722,13.4785585403442,13.4786672592163,13.4787759780884,13.4788837432861,13.4789924621582,13.4791011810303,13.4792098999023,13.4793186187744,13.4794263839722,13.4795351028442,13.4796438217163,13.4797525405884,13.4798603057861,13.4799690246582,13.4800777435303,13.4801864624023,13.4802951812744,13.4804029464722,13.4805116653442,13.4806203842163,13.4807291030884,13.4808368682861,13.4809455871582,13.4810543060303,13.4811630249023,13.4812707901001,13.4813795089722,13.4814882278442
15.4122800827026,15.4124040603638,15.4125280380249,15.412652015686,15.4127750396729,15.412899017334,15.4130229949951,15.4131469726562,15.4132699966431,15.4133939743042,15.4135179519653,13.5499296188354,13.5500383377075,13.562572479248,13.6064033508301,15.4141368865967,15.4142608642578,15.4143848419189,15.4145088195801,13.9356594085693,13.9357719421387,13.9358835220337,13.9682779312134,15.4151277542114,15.4152517318726,15.4153757095337,15.4154996871948,13.5516710281372,13.5517797470093,13.5518884658813,13.5692434310913,15.4161186218262,15.4162425994873,15.4163665771484,15.4164905548096,14.7072763442993,14.7073936462402,14.7075119018555,14.7529277801514,15.4171094894409,15.4172334671021,15.4173574447632,15.4174814224243,15.0931510925293,13.5535202026367,13.5536298751831,13.5537414550781,13.5767316818237,15.4182243347168,15.4183483123779,15.4184722900391,15.4185962677002,15.4187202453613,15.4188442230225,15.4189682006836,15.4190921783447,15.4192161560059,15.419340133667,15.4194631576538,15.4195871353149,15.4197111129761,13.5553760528564,13.5554857254028,13.5555934906006,13.5852060317993,15.4203310012817,15.4204549789429,15.2868986129761,15.2870225906372,15.319619178772,15.3605527877808,15.3606758117676,15.3607997894287,15.3609228134155,15.3610458374023,15.3611698150635,15.3612928390503,15.3614168167114,13.5572280883789,13.557336807251,13.557445526123,13.5948648452759,15.3620338439941,15.362156867981,15.3622808456421,15.3624048233032,15.36252784729,15.3626518249512,15.3627758026123,15.3628988265991,15.3630228042603,15.3631467819214,15.3632698059082,15.3633937835693,15.3635168075562,13.5590801239014,13.5591888427734,13.5592975616455,13.6059875488281,15.3641357421875,15.3642587661743,15.3643827438354,15.3645067214966,15.3646297454834,15.3647537231445,15.3648767471313,15.2916946411133,15.2918167114258,15.3317527770996,15.4034786224365,15.4709005355835,15.5091619491577,13.5609331130981,13.5610418319702,13.5611505508423,13.6189594268799,15.509783744812,15.5099086761475,15.5100336074829,15.5101585388184,15.5102825164795,15.5104074478149,15.5105323791504,15.5106573104858,15.5107822418213,15.5109071731567,15.5110311508179,15.5111560821533,15.5112810134888,13.5627841949463,13.5628929138184,13.5631790161133,15.5117797851562,15.5119047164917,15.5120296478271,15.5121545791626,15.512279510498,13.4743566513062,13.4744653701782,13.474573135376,13.474681854248,13.4747905731201,13.4748983383179,13.4750070571899,13.475115776062,13.4752235412598,13.4753322601318,13.4754409790039,13.475549697876,13.4756574630737,13.4757661819458,13.4758749008179,13.4759826660156,13.4760913848877,13.4762001037598,13.4763088226318,13.4764165878296,13.4765253067017,13.4766340255737,13.4767417907715,13.4768505096436,13.4769592285156,13.4770679473877,13.4771757125854,13.4772844314575,13.4773931503296,13.4775018692017,13.4776096343994,13.4777183532715,13.4778270721436,13.4779357910156,13.4780435562134,13.4781522750854,13.4782609939575,13.4783697128296,13.4784774780273,13.4785861968994,13.4786949157715,13.4788036346436,13.4789113998413,13.4790201187134,13.4791288375854,13.4792375564575,13.4793453216553,13.4794540405273,13.4795627593994,13.4796705245972,13.4797792434692
15.4103298187256,15.4104537963867,15.4105777740479,15.4107007980347,15.4108247756958,15.4109487533569,15.4110727310181,15.4111957550049,15.411319732666,15.4114437103271,15.4115676879883,13.5482149124146,13.5483236312866,13.562647819519,13.6064777374268,15.4121866226196,15.4123096466064,15.4124336242676,15.4125576019287,13.9338960647583,13.9340076446533,13.9341192245483,13.9683570861816,15.4131765365601,15.4133005142212,15.4134244918823,15.4135484695435,13.5499563217163,13.5500650405884,13.5501737594604,13.5693197250366,15.4141674041748,15.4142913818359,15.4144153594971,15.4145383834839,14.7054138183594,14.7055320739746,14.7056503295898,14.7530145645142,15.4151582717896,15.4152822494507,15.4154062271118,15.4155292510986,15.0912399291992,13.5518045425415,13.5519142150879,13.5520257949829,13.5768136978149,15.4162731170654,15.4163970947266,15.4165201187134,15.4166440963745,15.4167680740356,15.4168920516968,15.4170160293579,15.417140007019,15.4172639846802,15.4173879623413,15.4175119400024,15.4176349639893,15.4177589416504,13.5536603927612,13.5537691116333,13.5538778305054,13.5852956771851,15.4183788299561,15.4185028076172,15.2849636077881,15.2850875854492,15.3197231292725,15.3586072921753,15.3587312698364,15.3588542938232,15.3589773178101,15.3591012954712,15.359224319458,15.3593482971191,15.359471321106,13.5555114746094,13.5556201934814,13.5557289123535,13.5949640274048,15.3600883483887,15.3602123260498,15.3603353500366,15.3604593276978,15.3605823516846,15.3607063293457,15.3608303070068,15.3609533309937,15.3610773086548,15.3612003326416,15.3613243103027,15.3614482879639,15.3615713119507,13.5573635101318,13.5574712753296,13.5575799942017,13.6060953140259,15.3621892929077,15.3623132705688,15.36243724823,15.3625602722168,15.3626842498779,15.3628082275391,15.3629312515259,15.2897577285767,15.2898797988892,15.3318777084351,15.4036026000977,15.4710283279419,15.5071973800659,13.5592155456543,13.5593242645264,13.5594329833984,13.6190710067749,15.5078191757202,15.5079441070557,15.5080690383911,15.5081939697266,15.5083179473877,15.5084428787231,15.5085678100586,15.508692741394,15.5088167190552,15.5089416503906,15.5090665817261,15.5091915130615,15.509316444397,13.5610666275024,13.5611753463745,13.5632944107056,15.5098152160645,15.5099401473999,15.510064125061,15.5101890563965,15.5103139877319,13.4726495742798,13.4727582931519,13.4728660583496,13.4729747772217,13.4730834960938,13.4731912612915,13.4732999801636,13.4734086990356,13.4735164642334,13.4736251831055,13.4737339019775,13.4738416671753,13.4739503860474,13.4740591049194,13.4741668701172,13.4742755889893,13.4743843078613,13.4744920730591,13.4746007919312,13.4747095108032,13.4748182296753,13.474925994873,13.4750347137451,13.4751434326172,13.4752511978149,13.475359916687,13.4754686355591,13.4755764007568,13.4756851196289,13.475793838501,13.475902557373,13.4760103225708,13.4761190414429,13.4762277603149,13.4763355255127,13.4764442443848,13.4765529632568,13.4766616821289,13.4767694473267,13.4768781661987,13.4769868850708,13.4770946502686,13.4772033691406,13.4773120880127,13.4774208068848,13.4775285720825,13.4776372909546,13.4777460098267,13.4778537750244,13.4779624938965,13.4780712127686
15.4083795547485,15.4085035324097,15.4086275100708,15.4087514877319,15.4088745117188,15.4089984893799,15.409122467041,15.4092464447021,15.409369468689,15.4094934463501,13.5463905334473,13.5465002059937,13.5466089248657,13.56272315979,13.6065530776978,15.4102363586426,15.4103593826294,15.4104833602905,15.4106073379517,13.9321327209473,13.9322443008423,13.9323558807373,13.9684352874756,15.411226272583,15.4113502502441,15.4114742279053,15.4115972518921,13.5482416152954,13.5483503341675,13.5484580993652,13.5693969726562,15.4122161865234,15.4123401641846,15.4124641418457,15.4125881195068,14.7035531997681,14.703670501709,14.7037887573242,14.753101348877,15.4132070541382,15.4133310317993,15.4134550094604,15.0892095565796,15.0893297195435,13.5500888824463,13.550199508667,13.5503101348877,13.5768957138062,15.4143218994141,15.4144449234009,15.414568901062,15.4146928787231,15.4148168563843,15.4149408340454,15.4150648117065,15.4151887893677,15.4153118133545,15.4154357910156,15.4155597686768,15.4156837463379,15.415807723999,13.5519437789917,13.5520534515381,13.5521612167358,13.5853853225708,15.4164266586304,15.2829027175903,15.2830286026001,15.2831525802612,15.3198270797729,15.3566627502441,15.3567867279053,15.3569097518921,15.3570327758789,15.35715675354,15.3572797775269,15.3574028015137,15.3575267791748,13.5537948608398,13.5539035797119,13.554012298584,13.5950622558594,15.3581438064575,15.3582668304443,15.3583908081055,15.3585147857666,15.3586378097534,15.3587617874146,15.3588848114014,15.3590087890625,15.3591318130493,15.3592557907104,15.3593797683716,15.3595027923584,15.3596267700195,13.555645942688,13.5557546615601,13.5558633804321,13.6062040328979,15.3602447509766,15.3603677749634,15.3604917526245,15.3606157302856,15.3607387542725,15.3608627319336,15.2876996994019,15.2878217697144,15.2879438400269,15.3320016860962,15.4037275314331,15.4711561203003,15.5052337646484,13.5574979782104,13.5576066970825,13.5577154159546,13.6191835403442,15.5058555603027,15.5059804916382,15.5061044692993,15.5062294006348,15.5063543319702,15.5064783096313,15.5066032409668,15.5067281723022,15.5068531036377,15.5069770812988,15.5071020126343,15.5072269439697,15.5073518753052,13.5593490600586,13.5594577789307,13.5634088516235,15.5078506469727,15.5079746246338,15.5080995559692,15.5082244873047,15.5083494186401,13.4709434509277,13.4710512161255,13.4711599349976,13.4712677001953,13.4713764190674,13.4714851379395,13.4715929031372,13.4717016220093,13.4718103408813,13.4719181060791,13.4720268249512,13.4721355438232,13.472243309021,13.4723520278931,13.4724607467651,13.4725685119629,13.472677230835,13.4727849960327,13.4728937149048,13.4730024337769,13.4731101989746,13.4732189178467,13.4733276367188,13.4734354019165,13.4735441207886,13.4736528396606,13.4737606048584,13.4738693237305,13.4739780426025,13.4740867614746,13.4741945266724,13.4743032455444,13.4744119644165,13.4745197296143,13.4746284484863,13.4747371673584,13.4748449325562,13.4749536514282,13.4750623703003,13.475170135498,13.4752788543701,13.4753875732422,13.4754962921143,13.475604057312,13.4757127761841,13.4758214950562,13.4759292602539,13.476037979126,13.4761457443237,13.4762544631958,13.4763631820679
15.4064302444458,15.4065542221069,15.4066781997681,15.4068012237549,15.406925201416,15.4070491790771,15.4071731567383,15.4072961807251,15.4074201583862,15.4075441360474,13.5446767807007,13.5447864532471,13.5448951721191,13.562798500061,15.4081621170044,15.4082860946655,15.4084100723267,15.4085340499878,15.4086570739746,13.9303693771362,13.9304809570312,13.9305925369263,13.9685144424438,15.409276008606,15.4093999862671,15.4095239639282,15.4096479415894,13.5465269088745,13.5466356277466,13.5467443466187,13.5694732666016,15.4102659225464,15.4103899002075,15.4105138778687,15.4106378555298,14.7016916275024,14.7018098831177,14.7019281387329,14.7531871795654,15.4112567901611,15.4113807678223,15.4115037918091,15.0873003005981,15.087420463562,13.5483741760254,13.5484838485718,13.5485954284668,13.5769777297974,15.4123706817627,15.4124946594238,15.412618637085,15.4127426147461,15.4128656387329,15.412989616394,15.4131135940552,15.4132375717163,15.4133615493774,15.4134855270386,15.4136085510254,15.4137325286865,15.4138565063477,13.5502290725708,13.5503377914429,13.5504465103149,13.5854749679565,15.414475440979,15.2809686660767,15.2810935974121,15.2812175750732,15.3199310302734,15.3547191619873,15.3548421859741,15.3549661636353,15.3550891876221,15.3552122116089,15.35533618927,15.3554592132568,15.3555822372437,13.5520792007446,13.5521879196167,13.5522966384888,13.595160484314,15.3561992645264,15.3563232421875,15.3564462661743,15.3565702438354,15.3566932678223,15.3568172454834,15.3569402694702,15.3570642471313,15.3571872711182,15.3573112487793,15.3574352264404,15.3575582504272,15.3576822280884,13.5539302825928,13.5540390014648,13.5541467666626,13.60631275177,15.3582992553711,15.3584232330322,15.3585472106934,15.3586702346802,15.3587942123413,15.3589172363281,15.2857646942139,15.2858858108521,15.2860078811646,15.3321256637573,15.4038515090942,15.4712839126587,15.503270149231,13.5557813644409,13.555890083313,13.5559988021851,15.5037670135498,15.5038919448853,15.5040168762207,15.5041408538818,15.5042657852173,15.5043907165527,15.5045146942139,15.5046396255493,15.5047645568848,15.5048894882202,15.5050134658813,15.5051383972168,15.5052633285522,15.5053873062134,13.5576314926147,13.5577402114868,13.5635242462158,15.5058860778809,15.5060110092163,15.5061359405518,15.5062599182129,15.5063848495483,13.4692373275757,13.4693450927734,13.4694538116455,13.4695615768433,13.4696702957153,13.4697790145874,13.4698867797852,13.4699954986572,13.470103263855,13.4702119827271,13.4703207015991,13.4704284667969,13.4705371856689,13.4706449508667,13.4707536697388,13.4708623886108,13.4709701538086,13.4710788726807,13.4711875915527,13.4712953567505,13.4714040756226,13.4715127944946,13.4716205596924,13.4717292785645,13.4718370437622,13.4719457626343,13.4720544815063,13.4721622467041,13.4722709655762,13.4723796844482,13.472487449646,13.4725961685181,13.4727048873901,13.4728126525879,13.47292137146,13.473030090332,13.4731378555298,13.4732465744019,13.4733552932739,13.4734630584717,13.4735717773438,13.4736804962158,13.4737882614136,13.4738969802856,13.4740056991577,13.4741134643555,13.4742221832275,13.4743299484253,13.4744386672974,13.4745473861694,13.4746551513672
15.4044818878174,15.4046049118042,15.4047288894653,15.4048528671265,15.4049758911133,15.4050998687744,15.4052238464355,15.4053478240967,15.4054708480835,15.4055948257446,13.5429639816284,13.5430727005005,13.5431814193726,13.5628728866577,15.406213760376,15.4063367843628,15.4064607620239,15.4065847396851,15.4067077636719,13.9286069869995,13.9287185668945,13.9288301467896,13.9685935974121,15.4073266983032,15.4074506759644,15.4075746536255,15.4076976776123,13.5448131561279,13.544921875,13.5450305938721,13.5695495605469,15.4083166122437,15.4084405899048,15.4085636138916,15.4086875915527,14.6998319625854,14.6999492645264,14.7017221450806,14.7532739639282,15.4093065261841,15.4094305038452,15.4095544815063,15.0853910446167,15.0855112075806,13.5466594696045,13.5467691421509,13.5468807220459,13.5770606994629,15.4104204177856,15.4105443954468,15.4106683731079,15.4107913970947,15.4109153747559,15.411039352417,15.4111633300781,15.4112873077393,15.4114103317261,15.4115343093872,15.4116582870483,15.4117822647095,15.4119062423706,13.5485134124756,13.5486221313477,13.5487308502197,13.5855646133423,15.412525177002,15.279034614563,15.2791595458984,15.2792835235596,15.3200349807739,15.3527755737305,15.3528985977173,15.3530225753784,15.3531455993652,15.3532686233521,15.3533916473389,15.353515625,15.3536386489868,13.5503635406494,13.5504722595215,13.5505809783936,13.5952587127686,15.3542556762695,15.3543787002563,15.3545026779175,15.3546257019043,15.3547496795654,15.3548727035522,15.3549966812134,15.3551197052002,15.3552436828613,15.3553676605225,15.3554906845093,15.3556146621704,15.3557376861572,13.5522146224976,13.5523223876953,13.5524311065674,13.6064205169678,15.3563556671143,15.3564786911011,15.3566026687622,15.356725692749,15.3568496704102,15.356972694397,15.2838287353516,15.2839498519897,15.2840719223022,15.3322496414185,15.4039764404297,15.4714117050171,15.5013065338135,13.5540647506714,13.5541734695435,13.5542821884155,15.5018043518066,15.5019283294678,15.5020532608032,15.5021781921387,15.5023021697998,15.5024271011353,15.5025520324707,15.5026760101318,15.5028009414673,15.5029258728027,15.5030498504639,15.5031747817993,15.5032997131348,15.5034246444702,13.5559148788452,13.5560235977173,13.5636386871338,15.5039224624634,15.5040473937988,15.5041723251343,15.5042963027954,15.5044212341309,13.4675312042236,13.4676399230957,13.4677476882935,13.4678564071655,13.4679641723633,13.4680728912354,13.4681806564331,13.4682893753052,13.4683980941772,13.468505859375,13.4686145782471,13.4687223434448,13.4688310623169,13.468939781189,13.4690475463867,13.4691562652588,13.4692640304565,13.4693727493286,13.4694814682007,13.4695892333984,13.4696979522705,13.4698057174683,13.4699144363403,13.4700231552124,13.4701309204102,13.4702396392822,13.47034740448,13.4704561233521,13.4705648422241,13.4706726074219,13.4707813262939,13.470890045166,13.4709978103638,13.4711065292358,13.4712142944336,13.4713230133057,13.4714317321777,13.4715394973755,13.4716482162476,13.4717569351196,13.4718647003174,13.4719734191895,13.4720821380615,13.4721899032593,13.4722986221313,13.4724063873291,13.4725151062012,13.4726228713989,13.472731590271,13.4728403091431,13.4729480743408
15.402533531189,15.4026565551758,15.4027805328369,15.402904510498,15.4030275344849,15.403151512146,15.4032754898071,15.4033985137939,15.4035224914551,15.4036464691162,13.5412502288818,13.5413599014282,13.5414686203003,13.5629472732544,15.4042644500732,15.4043884277344,15.4045124053955,15.4046354293823,15.4047594070435,13.9268445968628,13.9269571304321,13.9270687103271,13.9686727523804,15.4053773880005,15.4055013656616,15.4056253433228,15.4057483673096,13.5430994033813,13.5432081222534,13.5433168411255,13.5696268081665,15.4063673019409,15.4064912796021,15.4066143035889,15.40673828125,14.6979713439941,14.6980895996094,14.701807975769,14.753360748291,15.4073572158813,15.4074811935425,15.4076042175293,15.0834817886353,15.0836019515991,13.5449457168579,13.5450553894043,13.5451669692993,13.5771427154541,15.4084711074829,15.4085941314697,15.4087181091309,15.408842086792,15.4089660644531,15.4090890884399,15.4092130661011,15.4093370437622,15.4094610214233,15.4095840454102,15.4097080230713,15.4098320007324,15.4099559783936,13.5467987060547,13.5469083786011,13.5470161437988,13.585654258728,15.4105749130249,15.2771005630493,15.2772264480591,15.2773504257202,15.3201389312744,15.3508329391479,15.3509559631348,15.3510789871216,15.3512020111084,15.3513259887695,15.3514490127563,15.3515720367432,15.35169506073,13.5486488342285,13.5487575531006,13.5488662719727,13.5953569412231,15.3523120880127,15.3524360656738,15.3525590896606,15.3526830673218,15.3528060913086,15.3529300689697,15.3530530929565,15.3531770706177,15.3533000946045,15.3534240722656,15.3535470962524,15.3536710739136,15.3537940979004,13.5504989624023,13.5506076812744,13.5507154464722,13.6065292358398,15.3544111251831,15.3545351028442,15.3546581268311,15.3547821044922,15.3549060821533,15.3550291061401,15.2818937301636,15.2820158004761,15.2821378707886,15.3323726654053,15.4041013717651,15.4715394973755,15.4993448257446,13.5523490905762,13.5524578094482,13.5542573928833,15.4998416900635,15.4999656677246,15.5000905990601,15.5002155303955,15.5003395080566,15.5004644393921,15.5005893707275,15.5007133483887,15.5008382797241,15.5009632110596,15.5010871887207,15.5012121200562,15.5013370513916,15.5014610290527,13.5541982650757,13.5543069839478,13.5637540817261,15.5019598007202,15.5020837783813,15.5022087097168,15.5023336410522,15.5024576187134,13.4658260345459,13.4659337997437,13.4660425186157,13.4661512374878,13.4662590026855,13.4663677215576,13.4664754867554,13.4665842056274,13.4666919708252,13.4668006896973,13.466908454895,13.4670171737671,13.4671258926392,13.4672336578369,13.467342376709,13.4674501419067,13.4675588607788,13.4676666259766,13.4677753448486,13.4678840637207,13.4679918289185,13.4681005477905,13.4682083129883,13.4683170318604,13.4684247970581,13.4685335159302,13.4686422348022,13.46875,13.4688587188721,13.4689664840698,13.4690752029419,13.469183921814,13.4692916870117,13.4694004058838,13.4695081710815,13.4696168899536,13.4697256088257,13.4698333740234,13.4699420928955,13.4700498580933,13.4701585769653,13.4702672958374,13.4703750610352,13.4704837799072,13.470591545105,13.4707002639771,13.4708080291748,13.4709167480469,13.4710254669189,13.4711332321167,13.4712419509888
15.4005851745605,15.4007091522217,15.4008331298828,15.4009561538696,15.4010801315308,15.4012041091919,15.4013271331787,15.4014511108398,15.4015741348267,15.4016981124878,13.5395383834839,13.539647102356,13.539755821228,13.5630226135254,15.4023160934448,15.402440071106,15.4025640487671,15.4026870727539,15.402811050415,13.9250831604004,13.9251947402954,13.9253063201904,13.9687519073486,15.4034290313721,15.4035530090332,15.4036769866943,15.4038000106812,13.5413866043091,13.5414953231812,13.5416040420532,13.5697031021118,15.4044189453125,15.4045419692993,15.4046659469604,15.4047899246216,14.6961116790771,14.6962299346924,14.7018938064575,14.7534465789795,15.4054079055786,15.4055318832397,15.4056558609009,15.0815744400024,15.0816946029663,13.5432319641113,13.5433416366577,13.5434532165527,13.5772247314453,15.4065217971802,15.406644821167,15.4067687988281,15.4068927764893,15.4070158004761,15.4071397781372,15.4072637557983,15.4073877334595,15.4075107574463,15.4076347351074,15.4077587127686,15.4078826904297,15.4080057144165,13.5450849533081,13.5451936721802,13.5453023910522,13.5857448577881,15.4086246490479,15.27516746521,15.2752933502197,15.2754173278809,15.3202419281006,15.3488903045654,15.3490133285522,15.3491363525391,15.3492603302002,15.349383354187,15.3495063781738,15.3496294021606,15.3497524261475,13.5469341278076,13.5470428466797,13.5471515655518,13.5954551696777,15.3503694534302,15.3504934310913,15.3506164550781,15.3507394790649,15.3508634567261,15.3509864807129,15.351110458374,15.3512334823608,15.351357460022,15.3514804840088,15.3516044616699,15.3517274856567,15.3518505096436,13.5487842559814,13.5488920211792,13.5490007400513,13.6066370010376,15.3524684906006,15.3525915145874,15.3527154922485,15.3528385162354,15.3529624938965,15.3530855178833,15.2799596786499,15.2800807952881,15.2802028656006,15.3324956893921,15.4042253494263,15.4716672897339,15.4973821640015,13.5506343841553,13.5507431030273,13.554368019104,15.4978790283203,15.4980039596558,15.4981288909912,15.4982528686523,15.4983777999878,15.4985027313232,15.4986267089844,15.4987516403198,15.498875617981,15.4990005493164,15.4991254806519,15.499249458313,15.4993743896484,15.4994983673096,13.5524826049805,13.5525913238525,13.563868522644,15.4999971389771,15.5001220703125,15.5002460479736,15.5003709793091,15.5004949569702,13.4641208648682,13.4642295837402,13.464337348938,13.4644460678101,13.4645538330078,13.4646625518799,13.4647703170776,13.4648790359497,13.4649868011475,13.4650955200195,13.4652032852173,13.4653120040894,13.4654207229614,13.4655284881592,13.4656372070312,13.465744972229,13.4658536911011,13.4659614562988,13.4660701751709,13.4661779403687,13.4662866592407,13.4663944244385,13.4665031433105,13.4666118621826,13.4667196273804,13.4668283462524,13.4669361114502,13.4670448303223,13.46715259552,13.4672613143921,13.4673690795898,13.4674777984619,13.467586517334,13.4676942825317,13.4678030014038,13.4679107666016,13.4680194854736,13.4681272506714,13.4682359695435,13.4683446884155,13.4684524536133,13.4685611724854,13.4686689376831,13.4687776565552,13.4688863754272,13.468994140625,13.4691019058228,13.4692106246948,13.4693183898926,13.4694271087646,13.4695348739624
