15.1968002319336,15.1968765258789,15.1969537734985,15.1970300674438,15.1971073150635,15.1971836090088,15.1972608566284,15.197338104248,15.1974143981934,15.197491645813,15.1975679397583,15.1976451873779,15.1977214813232,15.1977987289429,15.1978759765625,15.1979522705078,15.1835241317749,15.1619806289673,15.1981830596924,15.198260307312,15.1983366012573,15.198413848877,15.1984910964966,15.1985673904419,15.1986446380615,15.1987209320068,15.1987981796265,15.1988754272461,15.1989517211914,15.199028968811,15.1991052627563,15.199182510376,15.1992597579956,15.1993360519409,15.1994132995605,15.1994905471802,15.1995668411255,15.1996440887451,15.1635904312134,15.1636657714844,15.1688270568848,15.0859088897705,15.0536375045776,15.0537137985229,15.0537900924683,15.0538654327393,15.0913133621216,15.0913896560669,15.0914649963379,15.0915412902832,15.0916175842285,15.0916938781738,15.0917701721191,15.0918464660645,15.0919227600098,15.0919990539551,15.0920753479004,15.0921516418457,15.092227935791,15.0923042297363,15.0923805236816,15.092456817627,15.0925331115723,15.0926094055176,15.0926856994629,15.0927619934082,15.0928382873535,15.0929145812988,15.0929908752441,15.0930671691895,15.0931434631348,15.0932197570801,15.0932960510254,15.0933723449707,15.093448638916,15.0935249328613,15.0936012268066,15.093677520752,15.0937538146973,15.0938310623169,15.0939073562622,15.0939836502075,15.0940599441528,15.0941362380981,15.0942125320435,15.0942888259888,15.0943651199341,15.0944414138794,15.0945177078247,15.09459400177,15.0946702957153,15.0947465896606,15.094822883606,15.0948991775513,15.0949754714966,15.0950517654419,15.0951280593872,15.0952043533325,15.0952806472778,15.0953578948975,15.0954341888428,15.0955104827881,15.0955867767334,15.0956630706787,15.095739364624,15.0958156585693,15.0958919525146,15.09596824646,15.0960445404053,15.0961208343506,15.0961971282959,15.0962734222412,15.0963497161865,15.0964260101318,15.0965032577515,15.0965795516968,15.0966558456421,15.0967321395874,15.0968084335327,15.096884727478,15.0969610214233,15.0970373153687,15.097113609314,15.0971899032593,15.0972661972046,15.0973424911499,15.0974187850952,15.0974960327148,15.0975723266602,15.0976486206055,15.0977249145508,15.0978012084961,15.0978775024414,15.0979537963867,15.098030090332,15.0981063842773,15.0981826782227,15.098258972168,15.0983352661133,15.0984125137329,15.0984888076782,15.0985651016235,15.0986413955688,15.0987176895142,15.0987939834595,15.0988702774048,15.0848064422607,15.0466737747192,15.0467500686646,15.0468263626099,15.0469036102295,15.0469799041748,15.0470561981201,15.0471334457397,15.0472097396851,15.0472860336304,15.0473623275757,15.047438621521,0,0,0,0,0,0,0,0,0,0,0,0,0,0,0,0,0,0,0,0,0,0,0,0,0,0,0,0,0,0,0,0
15.1949367523193,15.195013999939,15.1950902938843,15.1951675415039,15.1952438354492,15.1953210830688,15.1953983306885,15.1954746246338,15.1955518722534,15.1956281661987,15.1957054138184,15.1957817077637,15.1958589553833,15.1959362030029,15.1960124969482,15.1960897445679,15.1829586029053,15.1601219177246,15.1963205337524,15.1963968276978,15.1964740753174,15.1965503692627,15.1966276168823,15.1967039108276,15.1967811584473,15.1968584060669,15.1969347000122,15.1970119476318,15.1970882415771,15.1971654891968,15.1972427368164,15.1973190307617,15.1973962783813,15.1974725723267,15.1975498199463,15.1976270675659,15.1977033615112,15.1977806091309,15.1617317199707,15.1618070602417,15.1683416366577,15.0854263305664,15.0517911911011,15.0518674850464,15.0519437789917,15.052020072937,15.0894622802734,15.0895385742188,15.0896148681641,15.0896911621094,15.0897674560547,15.08984375,15.0899200439453,15.0899963378906,15.0900726318359,15.0901489257812,15.0902252197266,15.0903015136719,15.0903778076172,15.0904541015625,15.0905303955078,15.0906066894531,15.0906829833984,15.0907592773438,15.0908355712891,15.0909118652344,15.0909872055054,15.0910634994507,15.091139793396,15.0912160873413,15.0912923812866,15.0913686752319,15.0914449691772,15.0915222167969,15.0915985107422,15.0916748046875,15.0917510986328,15.0918273925781,15.0919036865234,15.0919799804688,15.0920562744141,15.0921325683594,15.0922088623047,15.09228515625,15.0923614501953,15.0924377441406,15.0925140380859,15.0925903320312,15.0926666259766,15.0927429199219,15.0928192138672,15.0928955078125,15.0929718017578,15.0930480957031,15.0931243896484,15.0932006835938,15.0932769775391,15.0933532714844,15.0934295654297,15.093505859375,15.0935821533203,15.0936584472656,15.0937347412109,15.0938110351562,15.0938873291016,15.0939645767212,15.0940408706665,15.0941171646118,15.0941934585571,15.0942697525024,15.0943460464478,15.0944223403931,15.0944986343384,15.0945749282837,15.094651222229,15.0947275161743,15.0948038101196,15.0948801040649,15.0949563980103,15.0950326919556,15.0951089859009,15.0951852798462,15.0952615737915,15.0953378677368,15.0954151153564,15.0954914093018,15.0955677032471,15.0956439971924,15.0957202911377,15.095796585083,15.0958728790283,15.0959491729736,15.0960254669189,15.0961017608643,15.0961780548096,15.0962543487549,15.0963306427002,15.0964069366455,15.0964832305908,15.0965604782104,15.0966367721558,15.0967130661011,15.0967893600464,15.0968656539917,15.096941947937,15.0970182418823,15.0845003128052,15.0448274612427,15.044903755188,15.0449810028076,15.0450572967529,15.0451335906982,15.0452108383179,15.0452871322632,15.0453634262085,15.0454406738281,15.0455169677734,15.0455923080444,0,0,0,0,0,0,0,0,0,0,0,0,0,0,0,0,0,0,0,0,0,0,0,0,0,0,0,0,0,0,0,0
15.1930751800537,15.193151473999,15.1932287216187,15.193305015564,15.1933822631836,15.1934585571289,15.1935358047485,15.1936120986938,15.1936893463135,15.1937656402588,15.1938428878784,15.1939191818237,15.1939964294434,15.194073677063,15.1941499710083,15.1942272186279,15.1823930740356,15.1582641601562,15.1944570541382,15.1945343017578,15.1946115493774,15.1946878433228,15.1947650909424,15.1948413848877,15.1949186325073,15.1949949264526,15.1950721740723,15.1951494216919,15.1952257156372,15.1953029632568,15.1953792572021,15.1954565048218,15.1955327987671,15.1956100463867,15.1956872940063,15.1957635879517,15.1958408355713,15.1959171295166,15.159873008728,15.159948348999,15.1678562164307,15.084942817688,15.0499458312988,15.0500221252441,15.0500984191895,15.0501747131348,15.0876121520996,15.0876884460449,15.0877647399902,15.0878410339355,15.0879173278809,15.0879936218262,15.0880699157715,15.0881462097168,15.0882225036621,15.0882987976074,15.0883750915527,15.088451385498,15.0885276794434,15.0886039733887,15.088680267334,15.0887565612793,15.0888319015503,15.0889081954956,15.0889844894409,15.0890607833862,15.0891370773315,15.0892133712769,15.0892896652222,15.0893659591675,15.0894422531128,15.0895185470581,15.0895948410034,15.0896711349487,15.089747428894,15.0898237228394,15.0899000167847,15.08997631073,15.0900526046753,15.0901288986206,15.0902051925659,15.0902814865112,15.0903577804565,15.0904340744019,15.0905103683472,15.0905866622925,15.0906629562378,15.0907392501831,15.0908155441284,15.0908918380737,15.090968132019,15.0910444259644,15.0911207199097,15.091197013855,15.0912733078003,15.0913496017456,15.0914258956909,15.0915021896362,15.0915784835815,15.0916557312012,15.0917320251465,15.0918083190918,15.0918846130371,15.0919609069824,15.0920372009277,15.092113494873,15.0921897888184,15.0922660827637,15.092342376709,15.0924186706543,15.0924949645996,15.0925712585449,15.0926475524902,15.0927238464355,15.0928001403809,15.0928764343262,15.0929527282715,15.0930290222168,15.0931053161621,15.0931816101074,15.0932579040527,15.093334197998,15.0934104919434,15.0934867858887,15.093563079834,15.0936393737793,15.0937156677246,15.0937919616699,15.0938682556152,15.0939445495605,15.0940217971802,15.0940980911255,15.0941743850708,15.0942506790161,15.0943269729614,15.0944032669067,15.0944795608521,15.0945558547974,15.0946321487427,15.094708442688,15.0947847366333,15.0948610305786,15.0949373245239,15.0950136184692,15.0950899124146,15.0951662063599,15.0841932296753,15.0429821014404,15.0430583953857,15.0431356430054,15.0432119369507,15.043288230896,15.0433654785156,15.0434417724609,15.0435180664062,15.0435953140259,15.0436706542969,15.0437469482422,0,0,0,0,0,0,0,0,0,0,0,0,0,0,0,0,0,0,0,0,0,0,0,0,0,0,0,0,0,0,0,0
15.1912126541138,15.1912899017334,15.1913661956787,15.1914434432983,15.1915197372437,15.1915969848633,15.1916732788086,15.1917505264282,15.1918268203735,15.1919040679932,15.1919803619385,15.1920576095581,15.1921348571777,15.192211151123,15.1922883987427,15.192364692688,15.181827545166,15.1564064025879,15.1925954818726,15.1926717758179,15.1927490234375,15.1928253173828,15.1929025650024,15.1929798126221,15.1930561065674,15.193133354187,15.1932096481323,15.193286895752,15.1933631896973,15.1934404373169,15.1935167312622,15.1935939788818,15.1936712265015,15.1937475204468,15.1938247680664,15.1939010620117,15.1939783096313,15.1940546035767,15.1580152511597,15.1580905914307,15.1673698425293,15.0844602584839,15.0481014251709,15.0481777191162,15.0482540130615,15.0483293533325,15.0857629776001,15.0858392715454,15.0859155654907,15.085991859436,15.0860681533813,15.0861444473267,15.086220741272,15.0862970352173,15.0863723754883,15.0864486694336,15.0865249633789,15.0866012573242,15.0866775512695,15.0867538452148,15.0868301391602,15.0869064331055,15.0869827270508,15.0870590209961,15.0871353149414,15.0872116088867,15.087287902832,15.0873641967773,15.0874404907227,15.087516784668,15.0875930786133,15.0876693725586,15.0877447128296,15.0878210067749,15.0878973007202,15.0879735946655,15.0880498886108,15.0881261825562,15.0882024765015,15.0882787704468,15.0883550643921,15.0884313583374,15.0885076522827,15.088583946228,15.0886602401733,15.0887365341187,15.088812828064,15.0888891220093,15.0889654159546,15.0890417098999,15.0891180038452,15.0891942977905,15.0892705917358,15.0893468856812,15.0894231796265,15.0894994735718,15.0895757675171,15.0896520614624,15.0897283554077,15.089804649353,15.0898809432983,15.0899572372437,15.090033531189,15.0901098251343,15.0901861190796,15.0902624130249,15.0903387069702,15.0904150009155,15.0904912948608,15.0905675888062,15.0906438827515,15.0907201766968,15.0907964706421,15.0908727645874,15.0909490585327,15.091025352478,15.0911016464233,15.0911779403687,15.091254234314,15.0913305282593,15.0914068222046,15.0914831161499,15.0915594100952,15.0916357040405,15.0917119979858,15.0917882919312,15.0918655395508,15.0919418334961,15.0920181274414,15.0920944213867,15.092170715332,15.0922470092773,15.0923233032227,15.092399597168,15.0924758911133,15.0925521850586,15.0926284790039,15.0927047729492,15.0927810668945,15.0928573608398,15.0929336547852,15.0930099487305,15.0930862426758,15.0931625366211,15.0932388305664,15.0933151245117,15.0838861465454,15.0411367416382,15.0412139892578,15.0412902832031,15.0413665771484,15.0414438247681,15.0415201187134,15.0415964126587,15.0416736602783,15.0417499542236,15.0418262481689,15.0419015884399,0,0,0,0,0,0,0,0,0,0,0,0,0,0,0,0,0,0,0,0,0,0,0,0,0,0,0,0,0,0,0,0
15.1893510818481,15.1894283294678,15.1895046234131,15.1895818710327,15.189658164978,15.1897354125977,15.189811706543,15.1898889541626,15.1899652481079,15.1900424957275,15.1901187896729,15.1901960372925,15.1902723312378,15.1903495788574,15.1904268264771,15.1905031204224,15.1812629699707,15.1545486450195,15.1907339096069,15.1908102035522,15.1908874511719,15.1909637451172,15.1910409927368,15.1911172866821,15.1911945343018,15.1912708282471,15.1913480758667,15.191424369812,15.1915016174316,15.191577911377,15.1916551589966,15.1917324066162,15.1918087005615,15.1918859481812,15.1919622421265,15.1920394897461,15.1921157836914,15.192193031311,15.1561574935913,15.1562328338623,15.1668844223022,15.0839776992798,15.046257019043,15.0463333129883,15.0464096069336,15.0464849472046,15.0839138031006,15.0839900970459,15.0840663909912,15.0841426849365,15.0842189788818,15.0842952728271,15.0843715667725,15.0844478607178,15.0845232009888,15.0845994949341,15.0846757888794,15.0847520828247,15.08482837677,15.0849046707153,15.0849809646606,15.085057258606,15.0851335525513,15.0852098464966,15.0852861404419,15.0853614807129,15.0854377746582,15.0855140686035,15.0855903625488,15.0856666564941,15.0857429504395,15.0858192443848,15.0858955383301,15.0859718322754,15.0860481262207,15.086124420166,15.0862007141113,15.0862770080566,15.086353302002,15.0864295959473,15.0865058898926,15.0865821838379,15.0866584777832,15.0867347717285,15.0868110656738,15.0868873596191,15.0869636535645,15.0870399475098,15.0871162414551,15.0871925354004,15.0872688293457,15.087345123291,15.0874214172363,15.0874977111816,15.0875730514526,15.0876493453979,15.0877256393433,15.0878019332886,15.0878782272339,15.0879545211792,15.0880308151245,15.0881071090698,15.0881834030151,15.0882596969604,15.0883359909058,15.0884122848511,15.0884885787964,15.0885648727417,15.088641166687,15.0887174606323,15.0887937545776,15.0888700485229,15.0889463424683,15.0890226364136,15.0890989303589,15.0891752243042,15.0892515182495,15.0893278121948,15.0894041061401,15.0894804000854,15.0895566940308,15.0896329879761,15.0897092819214,15.0897855758667,15.089861869812,15.0899381637573,15.0900144577026,15.0900907516479,15.0901670455933,15.0902433395386,15.0903196334839,15.0903959274292,15.0904722213745,15.0905485153198,15.0906248092651,15.0907011032104,15.0907773971558,15.0908536911011,15.0909299850464,15.0910062789917,15.091082572937,15.0911588668823,15.0912351608276,15.0913114547729,15.0913877487183,15.0914640426636,15.0835790634155,15.0392923355103,15.0393695831299,15.0394458770752,15.0395221710205,15.0395984649658,15.0396757125854,15.0397520065308,15.0398283004761,15.0399055480957,15.0399808883667,15.040057182312,0,0,0,0,0,0,0,0,0,0,0,0,0,0,0,0,0,0,0,0,0,0,0,0,0,0,0,0,0,0,0,0
15.1874904632568,15.1875667572021,15.1876440048218,15.1877202987671,15.1877975463867,15.187873840332,15.1879510879517,15.188027381897,15.1881046295166,15.1881809234619,15.1882581710815,15.1883344650269,15.1884117126465,15.1884880065918,15.1885652542114,15.1886415481567,15.1806974411011,15.1526918411255,15.1888723373413,15.1889486312866,15.1890258789062,15.1891031265259,15.1891794204712,15.1892566680908,15.1893329620361,15.1894102096558,15.1894865036011,15.1895637512207,15.189640045166,15.1897172927856,15.189793586731,15.1898708343506,15.1899471282959,15.1900243759155,15.1901006698608,15.1901779174805,15.1902542114258,15.1903314590454,15.1543006896973,15.1543750762939,15.1663990020752,15.0834941864014,15.0444135665894,15.0444889068604,15.0445652008057,15.044641494751,15.0820655822754,15.0821418762207,15.082218170166,15.0822944641113,15.0823698043823,15.0824460983276,15.0825223922729,15.0825986862183,15.0826749801636,15.0827512741089,15.0828275680542,15.0829038619995,15.0829792022705,15.0830554962158,15.0831317901611,15.0832080841064,15.0832843780518,15.0833606719971,15.0834369659424,15.0835132598877,15.083589553833,15.0836658477783,15.0837421417236,15.0838184356689,15.0838937759399,15.0839700698853,15.0840463638306,15.0841226577759,15.0841989517212,15.0842752456665,15.0843515396118,15.0844278335571,15.0845041275024,15.0845804214478,15.0846567153931,15.0847330093384,15.0848093032837,15.084885597229,15.0849618911743,15.0850381851196,15.0851144790649,15.0851907730103,15.0852661132812,15.0853424072266,15.0854187011719,15.0854949951172,15.0855712890625,15.0856475830078,15.0857238769531,15.0858001708984,15.0858764648438,15.0859527587891,15.0860290527344,15.0861053466797,15.086181640625,15.0862579345703,15.0863342285156,15.0864105224609,15.0864868164062,15.0865631103516,15.0866394042969,15.0867156982422,15.0867919921875,15.0868682861328,15.0869445800781,15.0870208740234,15.0870971679688,15.0871734619141,15.0872497558594,15.0873250961304,15.0874013900757,15.087477684021,15.0875539779663,15.0876302719116,15.0877065658569,15.0877828598022,15.0878591537476,15.0879354476929,15.0880117416382,15.0880880355835,15.0881643295288,15.0882406234741,15.0883169174194,15.0883932113647,15.0884695053101,15.0885457992554,15.0886220932007,15.088698387146,15.0887746810913,15.0888509750366,15.0889272689819,15.0890035629272,15.0890798568726,15.0891561508179,15.0892324447632,15.0893087387085,15.0893850326538,15.0894613265991,15.0895376205444,15.0896139144897,15.08327293396,15.0374488830566,15.037525177002,15.0376014709473,15.0376777648926,15.0377550125122,15.0378313064575,15.0379076004028,15.0379848480225,15.0380611419678,15.0381374359131,15.0382127761841,0,0,0,0,0,0,0,0,0,0,0,0,0,0,0,0,0,0,0,0,0,0,0,0,0,0,0,0,0,0,0,0
15.1856298446655,15.1857070922852,15.1857833862305,15.1858606338501,15.1859369277954,15.186014175415,15.1860904693604,15.1861667633057,15.1862440109253,15.1863203048706,15.1863975524902,15.1864738464355,15.1865510940552,15.1866273880005,15.1867046356201,15.1867809295654,15.1801328659058,15.1508359909058,15.18701171875,15.1870880126953,15.1871652603149,15.1872415542603,15.1873188018799,15.1873950958252,15.1874723434448,15.1875486373901,15.1876258850098,15.1877021789551,15.1877794265747,15.18785572052,15.1879329681396,15.188009262085,15.1880865097046,15.1881628036499,15.1882400512695,15.1883163452148,15.1883935928345,15.1884698867798,15.1524438858032,15.1525182723999,15.1659135818481,15.0830116271973,15.0425701141357,15.0426454544067,15.0427217483521,15.0427980422974,15.0802173614502,15.0802936553955,15.0803699493408,15.0804462432861,15.0805215835571,15.0805978775024,15.0806741714478,15.0807504653931,15.0808267593384,15.0809030532837,15.080979347229,15.0810546875,15.0811309814453,15.0812072753906,15.0812835693359,15.0813598632812,15.0814361572266,15.0815124511719,15.0815887451172,15.0816650390625,15.0817413330078,15.0818166732788,15.0818929672241,15.0819692611694,15.0820455551147,15.0821218490601,15.0821981430054,15.0822744369507,15.082350730896,15.0824270248413,15.0825033187866,15.0825796127319,15.0826559066772,15.0827312469482,15.0828075408936,15.0828838348389,15.0829601287842,15.0830364227295,15.0831127166748,15.0831890106201,15.0832653045654,15.0833415985107,15.0834178924561,15.0834941864014,15.0835704803467,15.083646774292,15.0837230682373,15.0837993621826,15.0838747024536,15.0839509963989,15.0840272903442,15.0841035842896,15.0841798782349,15.0842561721802,15.0843324661255,15.0844087600708,15.0844850540161,15.0845613479614,15.0846376419067,15.0847139358521,15.0847902297974,15.0848665237427,15.084942817688,15.0850191116333,15.0850954055786,15.0851707458496,15.0852470397949,15.0853233337402,15.0853996276855,15.0854759216309,15.0855522155762,15.0856285095215,15.0857048034668,15.0857810974121,15.0858573913574,15.0859336853027,15.086009979248,15.0860862731934,15.0861625671387,15.086238861084,15.0863151550293,15.0863914489746,15.0864677429199,15.0865440368652,15.0866203308105,15.0866966247559,15.0867729187012,15.0868492126465,15.0869255065918,15.0870018005371,15.0870780944824,15.0871534347534,15.0872297286987,15.087306022644,15.0873823165894,15.0874586105347,15.08753490448,15.0876111984253,15.0876874923706,15.0877637863159,15.0829658508301,15.035605430603,15.0356817245483,15.0357580184937,15.035834312439,15.0359106063843,15.0359878540039,15.0360641479492,15.0361404418945,15.0362167358398,15.0362930297852,15.0363693237305,0,0,0,0,0,0,0,0,0,0,0,0,0,0,0,0,0,0,0,0,0,0,0,0,0,0,0,0,0,0,0,0
15.1837701797485,15.1838464736938,15.1839237213135,15.1840000152588,15.1840772628784,15.1841535568237,15.1842308044434,15.1843070983887,15.184383392334,15.1844606399536,15.1845369338989,15.1846141815186,15.1846904754639,15.1847677230835,15.1848440170288,15.1849212646484,15.1795673370361,15.148980140686,15.1851511001587,15.1852283477783,15.1853046417236,15.1853809356689,15.1854581832886,15.1855344772339,15.1856117248535,15.1856880187988,15.1857652664185,15.1858415603638,15.1859188079834,15.1859951019287,15.1860723495483,15.1861486434937,15.1862258911133,15.1863021850586,15.1863794326782,15.1864557266235,15.1865329742432,15.1866092681885,15.1505880355835,15.1506624221802,15.1654281616211,15.0825290679932,15.0407266616821,15.0408029556274,15.0408782958984,15.0409545898438,15.0783700942993,15.0784454345703,15.0785217285156,15.0785980224609,15.0786743164062,15.0787506103516,15.0788269042969,15.0789022445679,15.0789785385132,15.0790548324585,15.0791311264038,15.0792074203491,15.0792837142944,15.0793600082397,15.0794353485107,15.0795116424561,15.0795879364014,15.0796642303467,15.079740524292,15.0798168182373,15.0798931121826,15.0799694061279,15.0800457000732,15.0801210403442,15.0801973342896,15.0802736282349,15.0803499221802,15.0804262161255,15.0805025100708,15.0805788040161,15.0806550979614,15.0807313919067,15.0808076858521,15.080883026123,15.0809593200684,15.0810356140137,15.081111907959,15.0811882019043,15.0812644958496,15.0813407897949,15.0814170837402,15.0814933776855,15.0815696716309,15.0816459655762,15.0817213058472,15.0817975997925,15.0818738937378,15.0819501876831,15.0820264816284,15.0821027755737,15.082179069519,15.0822553634644,15.0823316574097,15.082407951355,15.0824842453003,15.0825605392456,15.0826368331909,15.0827121734619,15.0827884674072,15.0828647613525,15.0829410552979,15.0830173492432,15.0830936431885,15.0831699371338,15.0832462310791,15.0833225250244,15.0833988189697,15.083475112915,15.0835514068604,15.0836277008057,15.083703994751,15.083779335022,15.0838556289673,15.0839319229126,15.0840082168579,15.0840845108032,15.0841608047485,15.0842370986938,15.0843133926392,15.0843896865845,15.0844659805298,15.0845422744751,15.0846185684204,15.0846948623657,15.084771156311,15.0848474502563,15.0849237442017,15.085000038147,15.0850763320923,15.0851516723633,15.0852279663086,15.0853042602539,15.0853805541992,15.0854568481445,15.0855331420898,15.0856094360352,15.0856857299805,15.0857620239258,15.0858383178711,15.0859146118164,15.0826587677002,15.0337619781494,15.0338382720947,15.03391456604,15.0339918136597,15.034068107605,15.0341444015503,15.0342206954956,15.0342969894409,15.0343742370605,15.0344505310059,15.0345258712769,0,0,0,0,0,0,0,0,0,0,0,0,0,0,0,0,0,0,0,0,0,0,0,0,0,0,0,0,0,0,0,0
15.1819105148315,15.1819868087769,15.1820640563965,15.1821403503418,15.1822175979614,15.1822938919067,15.1823711395264,15.1824474334717,15.182523727417,15.1826009750366,15.1826772689819,15.1827545166016,15.1828308105469,15.1829080581665,15.1829843521118,15.1830615997314,15.1790027618408,15.1471242904663,15.1832914352417,15.183367729187,15.1834449768066,15.183521270752,15.1835985183716,15.1836748123169,15.1837520599365,15.1838283538818,15.1839046478271,15.1839818954468,15.1840581893921,15.1841354370117,15.184211730957,15.1842889785767,15.184365272522,15.1844425201416,15.1845188140869,15.1845960617065,15.1846723556519,15.1847496032715,15.1487321853638,15.1488065719604,15.1649436950684,15.0820465087891,15.0388841629028,15.0389604568481,15.0390357971191,15.0391120910645,15.0391883850098,15.0765981674194,15.0766744613647,15.0767507553101,15.0768270492554,15.0769033432007,15.076979637146,15.077054977417,15.0771312713623,15.0772075653076,15.0772838592529,15.0773601531982,15.0774364471436,15.0775117874146,15.0775880813599,15.0776643753052,15.0777406692505,15.0778169631958,15.0778932571411,15.0779695510864,15.0780448913574,15.0781211853027,15.078197479248,15.0782737731934,15.0783500671387,15.078426361084,15.0785026550293,15.0785789489746,15.0786552429199,15.0787305831909,15.0788068771362,15.0788831710815,15.0789594650269,15.0790357589722,15.0791120529175,15.0791883468628,15.0792646408081,15.0793399810791,15.0794162750244,15.0794925689697,15.079568862915,15.0796451568604,15.0797214508057,15.079797744751,15.0798740386963,15.0799503326416,15.0800266265869,15.0801019668579,15.0801782608032,15.0802545547485,15.0803308486938,15.0804071426392,15.0804834365845,15.0805597305298,15.0806360244751,15.0807123184204,15.0807886123657,15.0808639526367,15.080940246582,15.0810165405273,15.0810928344727,15.081169128418,15.0812454223633,15.0813217163086,15.0813980102539,15.0814743041992,15.0815505981445,15.0816268920898,15.0817022323608,15.0817785263062,15.0818548202515,15.0819311141968,15.0820074081421,15.0820837020874,15.0821599960327,15.082236289978,15.0823125839233,15.0823888778687,15.082465171814,15.0825414657593,15.0826168060303,15.0826930999756,15.0827693939209,15.0828456878662,15.0829219818115,15.0829982757568,15.0830745697021,15.0831508636475,15.0832271575928,15.0833034515381,15.0833797454834,15.0834560394287,15.083532333374,15.0836086273193,15.0836839675903,15.0837602615356,15.083836555481,15.0839128494263,15.0839891433716,15.0840654373169,15.0823526382446,15.0319194793701,15.0319957733154,15.0320720672607,15.0321483612061,15.0322246551514,15.032301902771,15.0323781967163,15.0324544906616,15.0325307846069,15.0326070785522,15.0326833724976,0,0,0,0,0,0,0,0,0,0,0,0,0,0,0,0,0,0,0,0,0,0,0,0,0,0,0,0,0,0,0,0
15.1564702987671,15.1573867797852,15.1583032608032,15.1592206954956,15.1601371765137,15.1610546112061,15.1619710922241,15.1628885269165,15.1638059616089,15.1647233963013,15.1656408309937,15.1665620803833,15.1674842834473,15.1684064865112,15.1693286895752,15.1702518463135,15.1711740493774,15.1452693939209,15.1730508804321,15.1739702224731,15.1748895645142,15.1758098602295,15.1767292022705,15.1776494979858,15.1785697937012,15.1794900894165,15.1804103851318,15.1813306808472,15.1821985244751,15.1822757720947,15.18235206604,15.1824293136597,15.182505607605,15.1825828552246,15.1826591491699,15.1827354431152,15.1828126907349,15.1828889846802,15.146876335144,15.1469507217407,15.1644611358643,15.081563949585,15.0370416641235,15.0371179580688,15.0371942520142,15.0372695922852,15.0373458862305,15.0747518539429,15.0748281478882,15.0749044418335,15.0749797821045,15.0750560760498,15.0751323699951,15.0752086639404,15.0752849578857,15.0753602981567,15.0754365921021,15.0755128860474,15.0755891799927,15.075665473938,15.0757417678833,15.0758171081543,15.0758934020996,15.0759696960449,15.0760459899902,15.0761222839355,15.0761985778809,15.0762748718262,15.0763502120972,15.0764265060425,15.0765027999878,15.0765790939331,15.0766553878784,15.0767316818237,15.076807975769,15.07688331604,15.0769596099854,15.0770359039307,15.077112197876,15.0771884918213,15.0772647857666,15.0773410797119,15.0774164199829,15.0774927139282,15.0775690078735,15.0776453018188,15.0777215957642,15.0777978897095,15.0778741836548,15.0779504776001,15.0780258178711,15.0781021118164,15.0781784057617,15.078254699707,15.0783309936523,15.0784072875977,15.078483581543,15.0785598754883,15.0786352157593,15.0787115097046,15.0787878036499,15.0788640975952,15.0789403915405,15.0790166854858,15.0790929794312,15.0791692733765,15.0792455673218,15.0793209075928,15.0793972015381,15.0794734954834,15.0795497894287,15.079626083374,15.0797023773193,15.0797786712646,15.07985496521,15.0799312591553,15.0800065994263,15.0800828933716,15.0801591873169,15.0802354812622,15.0803117752075,15.0803880691528,15.0804643630981,15.0805406570435,15.0806169509888,15.0806932449341,15.0807685852051,15.0808448791504,15.0809211730957,15.080997467041,15.0810737609863,15.0811500549316,15.081226348877,15.0813026428223,15.0813789367676,15.0814552307129,15.0815315246582,15.0816068649292,15.0816831588745,15.0817594528198,15.0818357467651,15.0819120407104,15.0819883346558,15.0820646286011,15.0821409225464,15.0822172164917,15.0820455551147,15.0300769805908,15.0301532745361,15.0302295684814,15.0303058624268,15.0303831100464,15.0304594039917,15.030535697937,15.0306119918823,15.0306882858276,15.0307645797729,15.0308408737183,0,0,0,0,0,0,0,0,0,0,0,0,0,0,0,0,0,0,0,0,0,0,0,0,0,0,0,0,0,0,0,0
15.1421146392822,15.1421918869019,15.1422681808472,15.1423444747925,15.1424207687378,15.1424980163574,15.1425743103027,15.142650604248,15.1427268981934,15.142804145813,15.1428804397583,15.1429567337036,15.1430330276489,15.1431102752686,15.1431865692139,15.1432628631592,15.1433391571045,15.1434154510498,15.1434917449951,15.1435680389404,15.1436443328857,15.1437206268311,15.1437978744507,15.143874168396,15.1439504623413,15.1440267562866,15.1441030502319,15.1441802978516,15.1442565917969,15.1443328857422,15.1444091796875,15.1444864273071,15.1445627212524,15.1446390151978,15.1447153091431,15.1447916030884,15.144868850708,15.1449451446533,15.1450214385986,15.1450958251953,15.1639785766602,15.0810813903809,15.0352001190186,15.0352764129639,15.0353527069092,15.0354280471802,15.0355043411255,15.0729055404663,15.0729818344116,15.0730581283569,15.0731334686279,15.0732097625732,15.0732860565186,15.0733623504639,15.0734376907349,15.0735139846802,15.0735902786255,15.0736665725708,15.0737428665161,15.0738182067871,15.0738945007324,15.0739707946777,15.074047088623,15.0741233825684,15.0741996765137,15.0742750167847,15.07435131073,15.0744276046753,15.0745038986206,15.0745801925659,15.0746564865112,15.0747327804565,15.0748081207275,15.0748844146729,15.0749607086182,15.0750370025635,15.0751132965088,15.0751895904541,15.0752649307251,15.0753412246704,15.0754175186157,15.075493812561,15.0755701065063,15.0756464004517,15.075722694397,15.075798034668,15.0758743286133,15.0759506225586,15.0760269165039,15.0761032104492,15.0761795043945,15.0762548446655,15.0763311386108,15.0764074325562,15.0764837265015,15.0765600204468,15.0766363143921,15.0767126083374,15.0767889022827,15.0768642425537,15.076940536499,15.0770168304443,15.0770931243896,15.077169418335,15.0772457122803,15.0773220062256,15.0773973464966,15.0774736404419,15.0775499343872,15.0776262283325,15.0777025222778,15.0777788162231,15.0778551101685,15.0779314041138,15.0780067443848,15.0780830383301,15.0781593322754,15.0782356262207,15.078311920166,15.0783882141113,15.0784645080566,15.078540802002,15.0786161422729,15.0786924362183,15.0787687301636,15.0788450241089,15.0789213180542,15.0789976119995,15.0790739059448,15.0791501998901,15.0792264938354,15.0793018341064,15.0793781280518,15.0794544219971,15.0795307159424,15.0796070098877,15.079683303833,15.0797595977783,15.0798358917236,15.0799121856689,15.0799875259399,15.0800638198853,15.0801401138306,15.0802164077759,15.0802927017212,15.0803689956665,15.0804452896118,15.0295944213867,15.0283117294312,15.0283880233765,15.0284643173218,15.0285406112671,15.0286169052124,15.028694152832,15.0287704467773,15.0288467407227,15.028923034668,15.0289993286133,0,0,0,0,0,0,0,0,0,0,0,0,0,0,0,0,0,0,0,0,0,0,0,0,0,0,0,0,0,0,0,0
15.1402616500854,15.1403379440308,15.1404142379761,15.1404905319214,15.1405668258667,15.1406440734863,15.1407203674316,15.140796661377,15.1408729553223,15.1409502029419,15.1410264968872,15.1411027908325,15.1411790847778,15.1412553787231,15.1413326263428,15.1414089202881,15.1414852142334,15.1415605545044,15.141637802124,15.1417140960693,15.1417903900146,15.14186668396,15.1419429779053,15.1420192718506,15.1420955657959,15.1421718597412,15.1422491073608,15.1423254013062,15.1424016952515,15.1424779891968,15.1425542831421,15.1426315307617,15.142707824707,15.1427841186523,15.1428604125977,15.142936706543,15.1430139541626,15.1430902481079,15.1431665420532,15.1432418823242,15.1634960174561,15.0805988311768,15.0333595275879,15.0334348678589,15.0335111618042,15.0335865020752,15.0336627960205,15.0710592269897,15.0711355209351,15.0712118148804,15.0712881088257,15.0713634490967,15.071439743042,15.0715160369873,15.0715923309326,15.0716686248779,15.0717439651489,15.0718202590942,15.0718965530396,15.0719728469849,15.0720491409302,15.0721244812012,15.0722007751465,15.0722770690918,15.0723533630371,15.0724296569824,15.0725049972534,15.0725812911987,15.072657585144,15.0727338790894,15.0728101730347,15.07288646698,15.072961807251,15.0730381011963,15.0731143951416,15.0731906890869,15.0732669830322,15.0733432769775,15.0734186172485,15.0734949111938,15.0735712051392,15.0736474990845,15.0737237930298,15.0737991333008,15.0738754272461,15.0739517211914,15.0740280151367,15.074104309082,15.0741806030273,15.0742559432983,15.0743322372437,15.074408531189,15.0744848251343,15.0745611190796,15.0746374130249,15.0747137069702,15.0747890472412,15.0748653411865,15.0749416351318,15.0750179290771,15.0750942230225,15.0751705169678,15.0752458572388,15.0753221511841,15.0753984451294,15.0754747390747,15.07555103302,15.0756273269653,15.0757026672363,15.0757789611816,15.075855255127,15.0759315490723,15.0760078430176,15.0760841369629,15.0761604309082,15.0762357711792,15.0763120651245,15.0763883590698,15.0764646530151,15.0765409469604,15.0766172409058,15.0766935348511,15.0767698287964,15.0768451690674,15.0769214630127,15.076997756958,15.0770740509033,15.0771503448486,15.0772266387939,15.0773029327393,15.0773782730103,15.0774545669556,15.0775308609009,15.0776071548462,15.0776834487915,15.0777597427368,15.0778360366821,15.0779123306274,15.0779876708984,15.0780639648438,15.0781402587891,15.0782165527344,15.0782928466797,15.078369140625,15.0784454345703,15.0785217285156,15.0785970687866,15.0292940139771,15.0264701843262,15.0265464782715,15.0266227722168,15.0266990661621,15.0267763137817,15.0268526077271,15.0269289016724,15.0270051956177,15.027081489563,15.0271577835083,0,0,0,0,0,0,0,0,0,0,0,0,0,0,0,0,0,0,0,0,0,0,0,0,0,0,0,0,0,0,0,0
15.1384086608887,15.138484954834,15.1385612487793,15.1386375427246,15.1387138366699,15.1387901306152,15.1388664245605,15.1389427185059,15.1390199661255,15.1390962600708,15.1391725540161,15.1392488479614,15.1393251419067,15.1394023895264,15.1394786834717,15.139554977417,15.1396312713623,15.1397075653076,15.1397838592529,15.1398601531982,15.1399364471436,15.1400127410889,15.1400890350342,15.1401653289795,15.1402416229248,15.1403179168701,15.1403942108154,15.1404705047607,15.1405467987061,15.1406240463257,15.140700340271,15.1407766342163,15.1408529281616,15.1409292221069,15.1410064697266,15.1410827636719,15.1411590576172,15.1412353515625,15.1413116455078,15.1413879394531,15.1630144119263,15.0801162719727,15.0315179824829,15.0315942764282,15.0316705703735,15.0317459106445,15.0318222045898,15.0692138671875,15.0692901611328,15.0693664550781,15.0694427490234,15.0695180892944,15.0695943832397,15.0696706771851,15.0697469711304,15.0698223114014,15.0698986053467,15.069974899292,15.0700511932373,15.0701274871826,15.0702028274536,15.0702791213989,15.0703554153442,15.0704317092896,15.0705080032349,15.0705833435059,15.0706596374512,15.0707359313965,15.0708122253418,15.0708875656128,15.0709638595581,15.0710401535034,15.0711164474487,15.071192741394,15.071268081665,15.0713443756104,15.0714206695557,15.071496963501,15.0715732574463,15.0716495513916,15.0717248916626,15.0718011856079,15.0718774795532,15.0719537734985,15.0720300674438,15.0721054077148,15.0721817016602,15.0722579956055,15.0723342895508,15.0724105834961,15.0724859237671,15.0725622177124,15.0726385116577,15.072714805603,15.0727910995483,15.0728673934937,15.0729427337646,15.07301902771,15.0730953216553,15.0731716156006,15.0732479095459,15.0733242034912,15.0733995437622,15.0734758377075,15.0735521316528,15.0736284255981,15.0737047195435,15.0737800598145,15.0738563537598,15.0739326477051,15.0740089416504,15.0740852355957,15.074161529541,15.074236869812,15.0743131637573,15.0743894577026,15.0744657516479,15.0745420455933,15.0746183395386,15.0746936798096,15.0747699737549,15.0748462677002,15.0749225616455,15.0749988555908,15.0750751495361,15.0751514434814,15.0752267837524,15.0753030776978,15.0753793716431,15.0754556655884,15.0755319595337,15.075608253479,15.07568359375,15.0757598876953,15.0758361816406,15.0759124755859,15.0759887695312,15.0760650634766,15.0761413574219,15.0762166976929,15.0762929916382,15.0763692855835,15.0764455795288,15.0765218734741,15.0765981674194,15.0766744613647,15.0767498016357,15.0289926528931,15.0246295928955,15.0247058868408,15.0247821807861,15.0248584747314,15.0249347686768,15.0250110626221,15.0250873565674,15.025164604187,15.0252408981323,15.0253162384033,19.8044414520264,19.8056087493896,19.8067760467529,19.8079452514648,19.8091144561768,19.81028175354,19.811450958252,19.8126201629639,19.8137893676758,19.8149585723877,19.8161277770996,19.8172969818115,19.8184661865234,19.8196353912354,19.8208045959473,19.8219757080078,19.8231449127197,19.8243160247803,19.8254871368408,19.8266563415527,19.8278274536133,19.8289985656738,19.8301696777344,19.8313388824463,19.8325119018555,19.833683013916,19.8348541259766,19.8360252380371,19.8371963500977,19.8383693695068,19.8395404815674,19.8407135009766
15.1365556716919,15.1366319656372,15.1367082595825,15.1367845535278,15.1368608474731,15.1369371414185,15.1370134353638,15.1370897293091,15.1371660232544,15.137243270874,15.1373195648193,15.1373958587646,15.13747215271,15.1375484466553,15.1376256942749,15.1377019882202,15.1377782821655,15.1378545761108,15.1379308700562,15.1380071640015,15.1380834579468,15.1381597518921,15.1382360458374,15.1383123397827,15.138388633728,15.1384649276733,15.1385412216187,15.138617515564,15.138692855835,15.1387701034546,15.1388463973999,15.1389226913452,15.1389989852905,15.1390752792358,15.1391515731812,15.1392288208008,15.1393051147461,15.1393814086914,15.1394577026367,15.139533996582,15.1625318527222,15.0796337127686,15.0296783447266,15.0297536849976,15.0298299789429,15.0299053192139,15.0299816131592,15.0673694610596,15.0674448013306,15.0675210952759,15.0675973892212,15.0676736831665,15.0677490234375,15.0678253173828,15.0679016113281,15.0679779052734,15.0680532455444,15.0681295394897,15.0682058334351,15.0682821273804,15.0683584213257,15.0684337615967,15.068510055542,15.0685863494873,15.0686626434326,15.0687379837036,15.0688142776489,15.0688905715942,15.0689668655396,15.0690431594849,15.0691184997559,15.0691947937012,15.0692710876465,15.0693473815918,15.0694227218628,15.0694990158081,15.0695753097534,15.0696516036987,15.069727897644,15.069803237915,15.0698795318604,15.0699558258057,15.070032119751,15.0701084136963,15.0701837539673,15.0702600479126,15.0703363418579,15.0704126358032,15.0704879760742,15.0705642700195,15.0706405639648,15.0707168579102,15.0707931518555,15.0708684921265,15.0709447860718,15.0710210800171,15.0710973739624,15.0711736679077,15.0712490081787,15.071325302124,15.0714015960693,15.0714778900146,15.07155418396,15.0716304779053,15.0717058181763,15.0717821121216,15.0718584060669,15.0719347000122,15.0720109939575,15.0720863342285,15.0721626281738,15.0722389221191,15.0723152160645,15.0723915100098,15.0724668502808,15.0725431442261,15.0726194381714,15.0726957321167,15.072772026062,15.0728483200073,15.0729236602783,15.0729999542236,15.0730762481689,15.0731525421143,15.0732288360596,15.0733041763306,15.0733804702759,15.0734567642212,15.0735330581665,15.0736093521118,15.0736856460571,15.0737609863281,15.0738372802734,15.0739135742188,15.0739898681641,15.0740661621094,15.0741424560547,15.0742177963257,15.074294090271,15.0743703842163,15.0744466781616,15.0745229721069,15.0745992660522,15.0746746063232,15.0747509002686,15.0748271942139,15.0749034881592,15.0286922454834,15.0227890014648,15.0228652954102,15.0229415893555,15.0230178833008,15.0230941772461,15.0231704711914,15.0232467651367,15.0233240127563,15.0234003067017,15.0234756469727,19.599515914917,19.6006603240967,19.6018047332764,19.6029491424561,19.6040935516357,19.6052379608154,19.6063823699951,19.6075286865234,19.6086711883545,19.6098175048828,19.6109619140625,19.6121082305908,19.6132526397705,19.6143989562988,19.6155452728271,19.6166896820068,19.6178359985352,19.6189823150635,19.6201286315918,19.6212749481201,19.6224212646484,19.6235675811768,19.6247158050537,19.625862121582,19.6270084381104,19.6281566619873,19.6293029785156,19.6304512023926,19.6315975189209,19.6327457427979,19.6338939666748,19.6350421905518
15.1347036361694,15.1347799301147,15.1348562240601,15.1349325180054,15.1350088119507,15.135085105896,15.1351613998413,15.1352376937866,15.1353139877319,15.1353902816772,15.1354665756226,15.1355428695679,15.1356191635132,15.1356964111328,15.1357727050781,15.1358489990234,15.1359252929688,15.1360015869141,15.1360778808594,15.1361541748047,15.13623046875,15.1363067626953,15.1363830566406,15.1364593505859,15.1365356445312,15.1366119384766,15.1366882324219,15.1367645263672,15.1368398666382,15.1369161605835,15.1369924545288,15.1370687484741,15.1371459960938,15.1372222900391,15.1372985839844,15.1373748779297,15.137451171875,15.1375274658203,15.1376037597656,15.1376810073853,15.1620492935181,15.0791511535645,15.0278377532959,15.0279140472412,15.0279903411865,15.0280656814575,15.0281419754028,15.0655250549316,15.0656003952026,15.0656766891479,15.0657529830933,15.0658283233643,15.0659046173096,15.0659809112549,15.0660572052002,15.0661325454712,15.0662088394165,15.0662851333618,15.0663614273071,15.0664367675781,15.0665130615234,15.0665893554688,15.0666656494141,15.0667409896851,15.0668172836304,15.0668935775757,15.066969871521,15.0670461654663,15.0671215057373,15.0671977996826,15.0672740936279,15.0673503875732,15.0674257278442,15.0675020217896,15.0675783157349,15.0676546096802,15.0677299499512,15.0678062438965,15.0678825378418,15.0679588317871,15.0680341720581,15.0681104660034,15.0681867599487,15.068263053894,15.0683393478394,15.0684146881104,15.0684909820557,15.068567276001,15.0686435699463,15.0687189102173,15.0687952041626,15.0688714981079,15.0689477920532,15.0690240859985,15.0690994262695,15.0691757202148,15.0692520141602,15.0693283081055,15.0694036483765,15.0694799423218,15.0695562362671,15.0696325302124,15.0697088241577,15.0697841644287,15.069860458374,15.0699367523193,15.0700130462646,15.07008934021,15.070164680481,15.0702409744263,15.0703172683716,15.0703935623169,15.0704689025879,15.0705451965332,15.0706214904785,15.0706977844238,15.0707740783691,15.0708494186401,15.0709257125854,15.0710020065308,15.0710783004761,15.0711545944214,15.0712299346924,15.0713062286377,15.071382522583,15.0714588165283,15.0715351104736,15.0716114044189,15.0716867446899,15.0717630386353,15.0718393325806,15.0719156265259,15.0719919204712,15.0720672607422,15.0721435546875,15.0722198486328,15.0722961425781,15.0723724365234,15.0724477767944,15.0725240707397,15.0726003646851,15.0726766586304,15.0727529525757,15.072829246521,15.072904586792,15.0729808807373,15.0730571746826,15.0283918380737,15.0209484100342,15.0210247039795,15.0211019515991,15.0211782455444,15.0212545394897,15.0213308334351,15.0214071273804,15.0214834213257,15.021559715271,15.0216360092163,19.3987903594971,19.3999118804932,19.4010314941406,19.4021530151367,19.4032745361328,19.4043941497803,19.4055156707764,19.4066371917725,19.4077587127686,19.4088802337646,19.4100017547607,19.4111251831055,19.4122467041016,19.4133682250977,19.4144916534424,19.4156131744385,19.4167366027832,19.4178581237793,19.418981552124,19.4201049804688,19.4212284088135,19.4223518371582,19.4234733581543,19.4245986938477,19.4257221221924,19.4268455505371,19.4279689788818,19.4290943145752,19.4302177429199,19.4313411712646,19.432466506958,19.4335899353027
15.132851600647,15.1329278945923,15.1330041885376,15.1330804824829,15.1331567764282,15.1332330703735,15.1333093643188,15.1333856582642,15.1334619522095,15.1335382461548,15.1336145401001,15.1336908340454,15.1337671279907,15.133843421936,15.1339197158813,15.1339960098267,15.1340732574463,15.1341495513916,15.1342258453369,15.1343021392822,15.1343774795532,15.1344537734985,15.1345300674438,15.1346063613892,15.1346826553345,15.1347589492798,15.1348352432251,15.1349115371704,15.1349878311157,15.135064125061,15.1351404190063,15.1352167129517,15.135293006897,15.1353693008423,15.1354455947876,15.1355218887329,15.1355981826782,15.1356744766235,15.1357507705688,15.1358270645142,15.161566734314,15.0786685943604,15.0259990692139,15.0260744094849,15.0261507034302,15.0262260437012,15.0263023376465,15.0636806488037,15.063756942749,15.06383228302,15.0639085769653,15.0639848709106,15.064061164856,15.064136505127,15.0642127990723,15.0642890930176,15.0643644332886,15.0644407272339,15.0645170211792,15.0645933151245,15.0646686553955,15.0647449493408,15.0648212432861,15.0648975372314,15.0649728775024,15.0650491714478,15.0651254653931,15.0652017593384,15.0652770996094,15.0653533935547,15.0654296875,15.065505027771,15.0655813217163,15.0656576156616,15.0657339096069,15.0658092498779,15.0658855438232,15.0659618377686,15.0660381317139,15.0661134719849,15.0661897659302,15.0662660598755,15.0663423538208,15.0664176940918,15.0664939880371,15.0665702819824,15.0666465759277,15.0667219161987,15.066798210144,15.0668745040894,15.0669507980347,15.0670261383057,15.067102432251,15.0671787261963,15.0672550201416,15.0673313140869,15.0674066543579,15.0674829483032,15.0675592422485,15.0676355361938,15.0677108764648,15.0677871704102,15.0678634643555,15.0679397583008,15.0680150985718,15.0680913925171,15.0681676864624,15.0682439804077,15.068320274353,15.068395614624,15.0684719085693,15.0685482025146,15.06862449646,15.068699836731,15.0687761306763,15.0688524246216,15.0689287185669,15.0690050125122,15.0690803527832,15.0691566467285,15.0692329406738,15.0693092346191,15.0693845748901,15.0694608688354,15.0695371627808,15.0696134567261,15.0696897506714,15.0697650909424,15.0698413848877,15.069917678833,15.0699939727783,15.0700702667236,15.0701456069946,15.0702219009399,15.0702981948853,15.0703744888306,15.0704498291016,15.0705261230469,15.0706024169922,15.0706787109375,15.0707550048828,15.0708303451538,15.0709066390991,15.0709829330444,15.0710592269897,15.0711355209351,15.0712108612061,15.0280857086182,15.0191087722778,15.0191860198975,15.0192623138428,15.0193386077881,15.0194149017334,15.0194911956787,15.019567489624,15.0196437835693,15.0197200775146,15.01979637146,15.019871711731,19.2032318115234,19.2043304443359,19.2054290771484,19.2065258026123,19.2076244354248,19.2087230682373,19.2098217010498,19.2109203338623,19.2120208740234,19.2131195068359,19.2142181396484,19.2153186798096,19.2164173126221,19.2175178527832,19.2186183929443,19.2197170257568,19.220817565918,19.2219181060791,19.2230167388916,19.2241172790527,19.2252197265625,19.2263202667236,19.2274208068848,19.2285213470459,19.229621887207,19.2307243347168,19.2318248748779,19.2329273223877,19.2340278625488,19.23512840271,19.2362327575684
15.1310005187988,15.1310768127441,15.1311531066895,15.1312294006348,15.1313056945801,15.1313819885254,15.1314582824707,15.131534576416,15.1316108703613,15.1316871643066,15.131763458252,15.1318397521973,15.1319160461426,15.1319913864136,15.1320676803589,15.1321449279785,15.1322212219238,15.1322975158691,15.1323738098145,15.1324501037598,15.1325263977051,15.1326017379761,15.1326780319214,15.1327543258667,15.132830619812,15.1329069137573,15.1329832077026,15.1330595016479,15.1331357955933,15.1332120895386,15.1332883834839,15.1333646774292,15.1334409713745,15.1335163116455,15.1335926055908,15.1336688995361,15.1337451934814,15.1338214874268,15.1338977813721,15.1339750289917,15.1610851287842,15.0781860351562,15.0241594314575,15.0242357254028,15.0243110656738,15.0243873596191,15.0244636535645,15.0618371963501,15.0619125366211,15.0619888305664,15.0620651245117,15.062141418457,15.062216758728,15.0622930526733,15.0623693466187,15.0624446868896,15.062520980835,15.0625972747803,15.0626735687256,15.0627489089966,15.0628252029419,15.0629014968872,15.0629768371582,15.0630531311035,15.0631294250488,15.0632057189941,15.0632810592651,15.0633573532104,15.0634336471558,15.0635089874268,15.0635852813721,15.0636615753174,15.0637378692627,15.0638132095337,15.063889503479,15.0639657974243,15.0640420913696,15.0641174316406,15.0641937255859,15.0642700195312,15.0643453598022,15.0644216537476,15.0644979476929,15.0645742416382,15.0646495819092,15.0647258758545,15.0648021697998,15.0648784637451,15.0649538040161,15.0650300979614,15.0651063919067,15.0651826858521,15.065258026123,15.0653343200684,15.0654106140137,15.0654859542847,15.06556224823,15.0656385421753,15.0657148361206,15.0657901763916,15.0658664703369,15.0659427642822,15.0660190582275,15.0660943984985,15.0661706924438,15.0662469863892,15.0663232803345,15.0663986206055,15.0664749145508,15.0665512084961,15.0666275024414,15.0667028427124,15.0667791366577,15.066855430603,15.0669317245483,15.0670070648193,15.0670833587646,15.06715965271,15.0672359466553,15.0673122406006,15.0673875808716,15.0674638748169,15.0675401687622,15.0676164627075,15.0676918029785,15.0677680969238,15.0678443908691,15.0679206848145,15.0679960250854,15.0680723190308,15.0681486129761,15.0682249069214,15.0683012008667,15.0683765411377,15.068452835083,15.0685291290283,15.0686054229736,15.0686807632446,15.0687570571899,15.0688333511353,15.0689096450806,15.0689859390259,15.0690612792969,15.0691375732422,15.0692138671875,15.0692901611328,15.0693655014038,15.0277729034424,15.0172700881958,15.0173463821411,15.0174226760864,15.0174989700317,15.0175752639771,15.0176515579224,15.0177278518677,15.017804145813,15.0178804397583,15.0179567337036,15.0180330276489,19.0104999542236,19.0115756988525,19.0126533508301,19.013729095459,19.0148067474365,19.0158824920654,19.016960144043,19.0180358886719,19.0191135406494,19.020191192627,19.0212688446045,19.0223445892334,19.0234222412109,19.0245018005371,19.025577545166,19.0266571044922,19.0277347564697,19.0288124084473,19.0298919677734,19.030969619751,19.0320472717285,19.0331268310547,19.0342063903809,19.0352840423584,19.0363636016846,19.0374431610107,19.0385208129883,19.0396022796631,19.0406818389893,19.0417594909668,19.0428409576416
15.129150390625,15.129225730896,15.1293020248413,15.1293783187866,15.1294546127319,15.1295309066772,15.1296072006226,15.1296834945679,15.1297597885132,15.1298360824585,15.1299123764038,15.1299886703491,15.1300649642944,15.1301412582397,15.1302165985107,15.1302928924561,15.1303691864014,15.1304454803467,15.130521774292,15.1305980682373,15.1306743621826,15.1307506561279,15.1308269500732,15.1309032440186,15.1309795379639,15.1310558319092,15.1311311721802,15.1312074661255,15.1312837600708,15.1313600540161,15.1314363479614,15.1315126419067,15.1315889358521,15.1316652297974,15.1317415237427,15.131817817688,15.131893157959,15.1319694519043,15.1320457458496,15.1321220397949,15.1606025695801,15.0777034759521,15.0223207473755,15.0223970413208,15.0224733352661,15.0225486755371,15.0226249694824,15.0599937438965,15.0600700378418,15.0601463317871,15.0602216720581,15.0602979660034,15.0603742599487,15.0604496002197,15.060525894165,15.0606021881104,15.0606775283813,15.0607538223267,15.060830116272,15.060905456543,15.0609817504883,15.0610580444336,15.0611333847046,15.0612096786499,15.0612859725952,15.0613622665405,15.0614376068115,15.0615139007568,15.0615901947021,15.0616655349731,15.0617418289185,15.0618181228638,15.0618934631348,15.0619697570801,15.0620460510254,15.0621223449707,15.0621976852417,15.062273979187,15.0623502731323,15.0624256134033,15.0625019073486,15.0625782012939,15.0626544952393,15.0627298355103,15.0628061294556,15.0628824234009,15.0629577636719,15.0630340576172,15.0631103515625,15.0631866455078,15.0632619857788,15.0633382797241,15.0634145736694,15.0634899139404,15.0635662078857,15.0636425018311,15.0637187957764,15.0637941360474,15.0638704299927,15.063946723938,15.0640230178833,15.0640983581543,15.0641746520996,15.0642509460449,15.0643262863159,15.0644025802612,15.0644788742065,15.0645551681519,15.0646305084229,15.0647068023682,15.0647830963135,15.0648593902588,15.0649347305298,15.0650110244751,15.0650873184204,15.0651636123657,15.0652389526367,15.065315246582,15.0653915405273,15.0654668807983,15.0655431747437,15.065619468689,15.0656957626343,15.0657711029053,15.0658473968506,15.0659236907959,15.0659999847412,15.0660753250122,15.0661516189575,15.0662279129028,15.0663042068481,15.0663795471191,15.0664558410645,15.0665321350098,15.0666084289551,15.0666837692261,15.0667600631714,15.0668363571167,15.066912651062,15.0669889450073,15.0670642852783,15.0671405792236,15.0672168731689,15.0672931671143,15.0673685073853,15.0674448013306,15.0675210952759,15.0274600982666,15.0154314041138,15.0155076980591,15.0155839920044,15.0156602859497,15.015736579895,15.0158128738403,15.0158891677856,15.015965461731,15.0160417556763,15.0161180496216,15.0161943435669,18.8215980529785,18.8226547241211,18.823709487915,18.824764251709,18.8258190155029,18.8268756866455,18.8279304504395,18.828987121582,18.830041885376,18.8310966491699,18.8321533203125,18.8332099914551,18.8342666625977,18.8353233337402,18.8363780975342,18.8374347686768,18.838493347168,18.8395500183105,18.8406066894531,18.8416633605957,18.8427200317383,18.8437767028809,18.8448352813721,18.8458919525146,18.8469505310059,18.8480091094971,18.8490657806396,18.8501243591309,18.8511829376221,18.8522415161133,18.8533000946045
15.0848379135132,15.0856733322144,15.0865097045898,15.0873460769653,15.0881824493408,15.0890188217163,15.0898551940918,15.0906925201416,15.0915288925171,15.0923652648926,15.0932025909424,15.0940389633179,15.0948648452759,15.0956897735596,15.0965156555176,15.0973415374756,15.0981674194336,15.0989933013916,15.0998191833496,15.1006450653076,15.1014709472656,15.1022977828979,15.103123664856,15.1039505004883,15.1047763824463,15.1056032180786,15.1064300537109,15.1072568893433,15.1080837249756,15.1089105606079,15.1097373962402,15.1105651855469,15.1113920211792,15.1122198104858,15.1130466461182,15.1138744354248,15.1147022247314,15.1155300140381,15.1163578033447,15.1171855926514,15.118013381958,15.0772218704224,15.0204830169678,15.0205593109131,15.0206346511841,15.0207109451294,15.0207862854004,15.0581512451172,15.0582275390625,15.0583028793335,15.0583791732788,15.0584554672241,15.0585308074951,15.0586071014404,15.0586833953857,15.0587587356567,15.0588350296021,15.0589113235474,15.0589866638184,15.0590629577637,15.059139251709,15.05921459198,15.0592908859253,15.0593671798706,15.0594425201416,15.0595188140869,15.0595951080322,15.0596704483032,15.0597467422485,15.0598230361938,15.0598983764648,15.0599746704102,15.0600509643555,15.0601272583008,15.0602025985718,15.0602788925171,15.0603551864624,15.0604305267334,15.0605068206787,15.060583114624,15.060658454895,15.0607347488403,15.0608110427856,15.0608863830566,15.060962677002,15.0610389709473,15.0611152648926,15.0611906051636,15.0612668991089,15.0613431930542,15.0614185333252,15.0614948272705,15.0615711212158,15.0616464614868,15.0617227554321,15.0617990493774,15.0618743896484,15.0619506835938,15.0620269775391,15.0621032714844,15.0621786117554,15.0622549057007,15.062331199646,15.062406539917,15.0624828338623,15.0625591278076,15.0626354217529,15.0627107620239,15.0627870559692,15.0628633499146,15.0629386901855,15.0630149841309,15.0630912780762,15.0631675720215,15.0632429122925,15.0633192062378,15.0633955001831,15.0634708404541,15.0635471343994,15.0636234283447,15.06369972229,15.063775062561,15.0638513565063,15.0639276504517,15.064003944397,15.064079284668,15.0641555786133,15.0642318725586,15.0643072128296,15.0643835067749,15.0644598007202,15.0645360946655,15.0646114349365,15.0646877288818,15.0647640228271,15.0648403167725,15.0649156570435,15.0649919509888,15.0650682449341,15.0651445388794,15.0652198791504,15.0652961730957,15.065372467041,15.065447807312,15.0655241012573,15.0656003952026,15.0656766891479,15.0271520614624,15.0135936737061,15.0136699676514,15.0137462615967,15.013822555542,15.0138988494873,15.0139751434326,15.0140514373779,15.0141277313232,15.0142040252686,15.0142793655396,15.0143556594849,18.6364135742188,18.6374492645264,18.6384830474854,18.6395168304443,18.640552520752,18.6415882110596,18.6426219940186,18.6436576843262,18.6446914672852,18.6457271575928,18.6467628479004,18.647798538208,18.6488342285156,18.6498699188232,18.6509056091309,18.6519412994385,18.6529769897461,18.6540126800537,18.65505027771,18.6560859680176,18.6571216583252,18.6581592559814,18.6591949462891,18.6602325439453,18.6612701416016,18.6623058319092,18.6633434295654,18.6643810272217,18.6654186248779,18.6664562225342,18.6674938201904
14.9807834625244,14.9808588027954,14.9809350967407,14.9810104370117,14.9810857772827,14.9811611175537,14.9812364578247,14.9813117980957,14.9813871383667,14.981463432312,14.981538772583,14.981614112854,14.981689453125,14.981764793396,14.981840133667,14.981915473938,14.9819917678833,14.9820671081543,14.9821424484253,14.9822177886963,14.9822931289673,14.9823684692383,14.9824438095093,14.9825201034546,14.9825954437256,14.9826707839966,14.9827461242676,14.9828214645386,14.9828968048096,14.9829730987549,14.9830484390259,14.9831237792969,14.9831991195679,14.9832744598389,14.9833498001099,14.9834251403809,14.9835014343262,14.9835767745972,14.9836521148682,14.9837274551392,14.9838027954102,14.9838781356812,14.9839544296265,14.9840297698975,14.9841051101685,14.9841804504395,14.9842557907104,15.0563087463379,15.0563850402832,15.0564613342285,15.0565366744995,15.0566129684448,15.0566883087158,15.0567646026611,15.0568408966064,15.0569162368774,15.0569925308228,15.0570688247681,15.0571441650391,15.0572204589844,15.0572967529297,15.0573720932007,15.057448387146,15.0575246810913,15.0576000213623,15.0576763153076,15.0577526092529,15.0578279495239,15.0579042434692,15.0579805374146,15.0580558776855,15.0581321716309,15.0582084655762,15.0582838058472,15.0583600997925,15.0584363937378,15.0585117340088,15.0585880279541,15.0586643218994,15.0587396621704,15.0588159561157,15.058892250061,15.058967590332,15.0590438842773,15.0591201782227,15.0591955184937,15.059271812439,15.0593481063843,15.0594234466553,15.0594997406006,15.0595760345459,15.0596513748169,15.0597276687622,15.0598039627075,15.0598793029785,15.0599555969238,15.0600318908691,15.0601081848145,15.0601835250854,15.0602598190308,15.0603361129761,15.0604114532471,15.0604877471924,15.0605640411377,15.0606393814087,15.060715675354,15.0607919692993,15.0608673095703,15.0609436035156,15.0610198974609,15.0610961914062,15.0611715316772,15.0612478256226,15.0613241195679,15.0613994598389,15.0614757537842,15.0615520477295,15.0616273880005,15.0617036819458,15.0617799758911,15.0618562698364,15.0619316101074,15.0620079040527,15.062084197998,15.062159538269,15.0622358322144,15.0623121261597,15.0623874664307,15.062463760376,15.0625400543213,15.0626163482666,15.0626916885376,15.0627679824829,15.0628442764282,15.0629196166992,15.0629959106445,15.0630722045898,15.0631484985352,15.0632238388062,15.0633001327515,15.0633764266968,15.0634517669678,15.0635280609131,15.0636043548584,15.0636806488037,15.0637559890747,15.06383228302,15.0268468856812,15.0117559432983,15.0118322372437,15.011908531189,15.0119848251343,15.0120611190796,15.0121364593506,15.0122127532959,15.0122900009155,15.0123653411865,15.0124416351318,15.0125179290771,18.4548397064209,18.4558544158936,18.4568672180176,18.4578819274902,18.4588966369629,18.4599113464355,18.4609260559082,18.4619407653809,18.4629573822021,18.4639720916748,18.4649868011475,18.4660015106201,18.4670181274414,18.4680328369141,18.4690494537354,18.470064163208,18.4710807800293,18.4720973968506,18.4731121063232,18.4741287231445,18.4751453399658,18.4761619567871,18.4771785736084,18.4781951904297,18.479211807251,18.4802284240723,18.4812450408936,18.4822635650635,18.4832801818848,18.4842967987061,18.485315322876
14.9789524078369,14.9790277481079,14.9791030883789,14.9791784286499,14.9792537689209,14.9793291091919,14.9794044494629,14.9794797897339,14.9795560836792,14.9796314239502,14.9797067642212,14.9797821044922,14.9798574447632,14.9799327850342,14.9800081253052,14.9800834655762,14.9801597595215,14.9802350997925,14.9803104400635,14.9803857803345,14.9804611206055,14.9805364608765,14.9806118011475,14.9806880950928,14.9807634353638,14.9808387756348,14.9809141159058,14.9809894561768,14.9810647964478,14.9811401367188,14.9812164306641,14.9812917709351,14.9813671112061,14.9814424514771,14.981517791748,14.981593132019,14.9816694259644,14.9817447662354,14.9818201065063,14.9818954467773,14.9819707870483,14.9820461273193,14.9821214675903,14.9821977615356,14.9822731018066,14.9823484420776,14.9824237823486,15.0544672012329,15.0545434951782,15.0546188354492,15.0546951293945,15.0547714233398,15.0548467636108,15.0549230575562,15.0549983978271,15.0550746917725,15.0551509857178,15.0552263259888,15.0553026199341,15.0553789138794,15.0554542541504,15.0555305480957,15.055606842041,15.055682182312,15.0557584762573,15.0558338165283,15.0559101104736,15.0559864044189,15.0560617446899,15.0561380386353,15.0562143325806,15.0562896728516,15.0563659667969,15.0564422607422,15.0565176010132,15.0565938949585,15.0566701889038,15.0567455291748,15.0568218231201,15.0568971633911,15.0569734573364,15.0570497512817,15.0571250915527,15.057201385498,15.0572776794434,15.0573530197144,15.0574293136597,15.057505607605,15.057580947876,15.0576572418213,15.0577335357666,15.0578088760376,15.0578851699829,15.0579614639282,15.0580368041992,15.0581130981445,15.0581893920898,15.0582647323608,15.0583410263062,15.0584173202515,15.0584926605225,15.0585689544678,15.0586452484131,15.0587205886841,15.0587968826294,15.0588731765747,15.0589485168457,15.059024810791,15.0591011047363,15.0591764450073,15.0592527389526,15.0593290328979,15.0594043731689,15.0594806671143,15.0595569610596,15.0596323013306,15.0597085952759,15.0597848892212,15.0598611831665,15.0599365234375,15.0600128173828,15.0600891113281,15.0601644515991,15.0602407455444,15.0603170394897,15.0603923797607,15.0604686737061,15.0605449676514,15.0606203079224,15.0606966018677,15.060772895813,15.060848236084,15.0609245300293,15.0610008239746,15.0610771179199,15.0611524581909,15.0612287521362,15.0613050460815,15.0613803863525,15.0614566802979,15.0615329742432,15.0616083145142,15.0616846084595,15.0617609024048,15.0618371963501,15.0619125366211,15.0619888305664,15.0265426635742,15.0099182128906,15.0099945068359,15.0100708007812,15.0101470947266,15.0102233886719,15.0102996826172,15.0103759765625,15.0104522705078,15.0105285644531,15.0106048583984,15.0106801986694,18.2767677307129,18.2777633666992,18.2787570953369,18.2797527313232,18.2807483673096,18.2817420959473,18.2827377319336,18.2837333679199,18.2847290039062,18.2857246398926,18.2867202758789,18.2877159118652,18.2887115478516,18.2897071838379,18.2907047271729,18.2917003631592,18.2926959991455,18.2936935424805,18.2946910858154,18.2956867218018,18.2966842651367,18.297679901123,18.298677444458,18.299674987793,18.3006725311279,18.3016681671143,18.3026657104492,18.3036651611328,18.3046607971191,18.3056602478027,18.3066577911377
14.9771213531494,14.9771966934204,14.9772720336914,14.9773473739624,14.9774227142334,14.9774980545044,14.9775733947754,14.9776487350464,14.9777240753174,14.9778003692627,14.9778757095337,14.9779510498047,14.9780263900757,14.9781017303467,14.9781770706177,14.9782524108887,14.9783277511597,14.978404045105,14.978479385376,14.978554725647,14.978630065918,14.978705406189,14.97878074646,14.978856086731,14.978931427002,14.9790077209473,14.9790830612183,14.9791584014893,14.9792337417603,14.9793090820312,14.9793844223022,14.9794597625732,14.9795351028442,14.9796113967896,14.9796867370605,14.9797620773315,14.9798374176025,14.9799127578735,14.9799880981445,14.9800634384155,14.9801397323608,14.9802150726318,14.9802904129028,14.9803657531738,14.9804410934448,14.9805164337158,14.9805917739868,15.0526256561279,15.0527019500732,15.0527772903442,15.0528535842896,15.0529298782349,15.0530052185059,15.0530815124512,15.0531578063965,15.0532331466675,15.0533094406128,15.0533847808838,15.0534610748291,15.0535373687744,15.0536127090454,15.0536890029907,15.0537643432617,15.053840637207,15.0539169311523,15.0539922714233,15.0540685653687,15.054144859314,15.054220199585,15.0542964935303,15.0543718338013,15.0544481277466,15.0545244216919,15.0545997619629,15.0546760559082,15.0547523498535,15.0548276901245,15.0549039840698,15.0549793243408,15.0550556182861,15.0551319122314,15.0552072525024,15.0552835464478,15.0553598403931,15.0554351806641,15.0555114746094,15.0555877685547,15.0556631088257,15.055739402771,15.055814743042,15.0558910369873,15.0559673309326,15.0560426712036,15.0561189651489,15.0561952590942,15.0562705993652,15.0563468933105,15.0564231872559,15.0564985275269,15.0565748214722,15.0566511154175,15.0567264556885,15.0568027496338,15.0568790435791,15.0569543838501,15.0570306777954,15.0571060180664,15.0571823120117,15.057258605957,15.057333946228,15.0574102401733,15.0574865341187,15.0575618743896,15.057638168335,15.0577144622803,15.0577898025513,15.0578660964966,15.0579423904419,15.0580177307129,15.0580940246582,15.0581703186035,15.0582456588745,15.0583219528198,15.0583982467651,15.0584735870361,15.0585498809814,15.0586261749268,15.0587015151978,15.0587778091431,15.0588541030884,15.0589294433594,15.0590057373047,15.05908203125,15.059157371521,15.0592336654663,15.0593099594116,15.0593852996826,15.0594615936279,15.0595378875732,15.0596132278442,15.0596895217896,15.0597658157349,15.0598411560059,15.0599174499512,15.0599937438965,15.0600690841675,15.0601453781128,15.0262384414673,15.0080814361572,15.0081577301025,15.0082340240479,15.0083103179932,15.0083866119385,15.0084629058838,15.0085391998291,15.0086154937744,15.0086917877197,15.0087671279907,15.008843421936,18.1021003723145,18.1030750274658,18.1040515899658,18.1050281524658,18.1060028076172,18.1069812774658,18.1079559326172,18.1089324951172,18.1099090576172,18.1108856201172,18.1118621826172,18.1128387451172,18.1138172149658,18.1147937774658,18.1157703399658,18.1167488098145,18.1177253723145,18.1187038421631,18.1196804046631,18.1206588745117,18.1216354370117,18.122615814209,18.123592376709,18.1245708465576,18.1255493164062,18.1265277862549,18.1275062561035,18.1284847259521,18.1294631958008,18.1304416656494,18.131420135498
15.0472240447998,15.0472993850708,15.0473756790161,15.0474510192871,15.0475273132324,15.0476026535034,15.0476779937744,15.0477542877197,15.0478296279907,15.047905921936,15.047981262207,15.048056602478,15.0481328964233,15.0482082366943,15.0482845306396,15.0483598709106,15.0484352111816,15.048511505127,15.0485868453979,15.0486631393433,15.0487384796143,15.0488138198853,15.0488901138306,15.0489654541016,15.0490417480469,15.0491170883179,15.0491924285889,15.0492687225342,15.0493440628052,15.0494203567505,15.0494956970215,15.0495719909668,15.0496473312378,15.0497226715088,15.0497989654541,15.0498743057251,15.0499505996704,15.0500259399414,15.0501022338867,15.050178527832,15.050253868103,15.0503301620483,15.0504055023193,15.0504817962646,15.0505571365356,15.050633430481,15.050708770752,15.0507850646973,15.0508613586426,15.0509366989136,15.0510129928589,15.0510883331299,15.0511646270752,15.0512409210205,15.0513162612915,15.0513925552368,15.0514678955078,15.0515441894531,15.0516204833984,15.0516958236694,15.0517721176147,15.0518474578857,15.0519237518311,15.0519990921021,15.0520753860474,15.0521516799927,15.0522270202637,15.052303314209,15.0523796081543,15.0524549484253,15.0525312423706,15.0526065826416,15.0526828765869,15.0527591705322,15.0528345108032,15.0529108047485,15.0529861450195,15.0530624389648,15.0531387329102,15.0532140731812,15.0532903671265,15.0533657073975,15.0534420013428,15.0535182952881,15.0535936355591,15.0536699295044,15.0537462234497,15.0538215637207,15.053897857666,15.053973197937,15.0540494918823,15.0541257858276,15.0542011260986,15.0542774200439,15.0543527603149,15.0544290542603,15.0545053482056,15.0545806884766,15.0546569824219,15.0547332763672,15.0548086166382,15.0548849105835,15.0549612045288,15.0550365447998,15.0551128387451,15.0551881790161,15.0552644729614,15.0553407669067,15.0554161071777,15.055492401123,15.0555686950684,15.0556440353394,15.0557203292847,15.05579662323,15.055871963501,15.0559482574463,15.0560235977173,15.0560998916626,15.0561761856079,15.0562515258789,15.0563278198242,15.0564041137695,15.0564794540405,15.0565557479858,15.0566320419312,15.0567073822021,15.0567836761475,15.0568599700928,15.0569353103638,15.0570116043091,15.0570869445801,15.0571632385254,15.0572395324707,15.0573148727417,15.057391166687,15.0574674606323,15.0575428009033,15.0576190948486,15.0576953887939,15.0577707290649,15.0578470230103,15.0579223632812,15.0579986572266,15.0580749511719,15.0581502914429,15.0582265853882,15.0583028793335,15.025933265686,15.0062446594238,15.0063209533691,15.0063972473145,15.0064735412598,15.0065498352051,15.0066261291504,15.0067024230957,15.006778717041,15.0068550109863,15.0069313049316,15.0070066452026,17.9307384490967,17.9316959381104,17.932653427124,17.9336109161377,17.9345684051514,17.935525894165,17.9364852905273,17.937442779541,17.9384002685547,17.939359664917,17.9403171539307,17.941276550293,17.9422359466553,17.9431934356689,17.9441528320312,17.9451103210449,17.9460697174072,17.9470291137695,17.9479885101318,17.9489479064941,17.9499073028564,17.9508666992188,17.9518260955811,17.9527854919434,17.9537448883057,17.9547061920166,17.9556655883789,17.9566249847412,17.9575862884521,17.9585475921631,17.9595069885254
15.0453844070435,15.0454597473145,15.0455350875854,15.0456113815308,15.0456867218018,15.0457630157471,15.0458383560181,15.0459136962891,15.0459899902344,15.0460653305054,15.0461406707764,15.0462169647217,15.0462923049927,15.046368598938,15.046443939209,15.04651927948,15.0465955734253,15.0466709136963,15.0467472076416,15.0468225479126,15.0468978881836,15.0469741821289,15.0470495223999,15.0471258163452,15.0472011566162,15.0472764968872,15.0473527908325,15.0474281311035,15.0475044250488,15.0475797653198,15.0476551055908,15.0477313995361,15.0478067398071,15.0478830337524,15.0479583740234,15.0480346679688,15.0481100082397,15.0481863021851,15.0482616424561,15.0483379364014,15.0484132766724,15.0484895706177,15.0485649108887,15.048641204834,15.0487174987793,15.0487928390503,15.0488691329956,15.0489444732666,15.0490207672119,15.0490961074829,15.0491724014282,15.0492477416992,15.0493240356445,15.0494003295898,15.0494756698608,15.0495519638062,15.0496273040771,15.0497035980225,15.0497789382935,15.0498552322388,15.0499315261841,15.0500068664551,15.0500831604004,15.0501585006714,15.0502347946167,15.050311088562,15.050386428833,15.0504627227783,15.0505380630493,15.0506143569946,15.0506896972656,15.0507659912109,15.0508422851562,15.0509176254272,15.0509939193726,15.0510692596436,15.0511455535889,15.0512218475342,15.0512971878052,15.0513734817505,15.0514488220215,15.0515251159668,15.0516014099121,15.0516767501831,15.0517530441284,15.0518283843994,15.0519046783447,15.05198097229,15.052056312561,15.0521326065063,15.0522079467773,15.0522842407227,15.052360534668,15.052435874939,15.0525121688843,15.0525875091553,15.0526638031006,15.0527400970459,15.0528154373169,15.0528917312622,15.0529670715332,15.0530433654785,15.0531196594238,15.0531949996948,15.0532712936401,15.0533466339111,15.0534229278564,15.0534992218018,15.0535745620728,15.0536508560181,15.0537271499634,15.0538024902344,15.0538787841797,15.0539541244507,15.054030418396,15.0541067123413,15.0541820526123,15.0542583465576,15.0543346405029,15.0544099807739,15.0544862747192,15.0545616149902,15.0546379089355,15.0547142028809,15.0547895431519,15.0548658370972,15.0549411773682,15.0550174713135,15.0550937652588,15.0551691055298,15.0552453994751,15.0553216934204,15.0553970336914,15.0554733276367,15.0555486679077,15.055624961853,15.0557012557983,15.0557765960693,15.0558528900146,15.0559282302856,15.056004524231,15.0560808181763,15.0561561584473,15.0562324523926,15.0563087463379,15.0563840866089,15.0564603805542,15.0256290435791,15.0044088363647,15.0044851303101,15.0045614242554,15.0046377182007,15.004714012146,15.0047903060913,15.0048666000366,15.0049428939819,15.0050182342529,15.0050945281982,15.0051708221436,17.7625904083252,17.7635307312012,17.7644710540771,17.7654113769531,17.7663497924805,17.7672901153564,17.7682304382324,17.7691707611084,17.7701110839844,17.7710514068604,17.7719917297363,17.7729320526123,17.7738723754883,17.7748126983643,17.7757549285889,17.7766952514648,17.7776355743408,17.7785778045654,17.7795181274414,17.780460357666,17.7814025878906,17.7823429107666,17.7832851409912,17.7842273712158,17.7851696014404,17.7861099243164,17.787052154541,17.7879943847656,17.7889385223389,17.7898807525635,17.7908229827881
15.0435447692871,15.0436201095581,15.0436964035034,15.0437717437744,15.0438470840454,15.0439233779907,15.0439987182617,15.0440740585327,15.044150352478,15.044225692749,15.04430103302,15.0443773269653,15.0444526672363,15.0445289611816,15.0446043014526,15.0446796417236,15.0447559356689,15.0448312759399,15.0449066162109,15.0449829101562,15.0450582504272,15.0451345443726,15.0452098846436,15.0452852249146,15.0453615188599,15.0454368591309,15.0455121994019,15.0455884933472,15.0456638336182,15.0457401275635,15.0458154678345,15.0458917617798,15.0459671020508,15.0460433959961,15.0461187362671,15.0461950302124,15.0462703704834,15.0463466644287,15.0464220046997,15.046498298645,15.046573638916,15.0466499328613,15.0467252731323,15.0468015670776,15.0468769073486,15.0469532012939,15.0470285415649,15.0471048355103,15.0471801757812,15.0472564697266,15.0473327636719,15.0474081039429,15.0474843978882,15.0475597381592,15.0476360321045,15.0477113723755,15.0477876663208,15.0478630065918,15.0479393005371,15.0480146408081,15.0480909347534,15.0481672286987,15.0482425689697,15.048318862915,15.048394203186,15.0484704971313,15.0485458374023,15.0486221313477,15.048698425293,15.048773765564,15.0488500595093,15.0489253997803,15.0490016937256,15.0490770339966,15.0491533279419,15.0492296218872,15.0493049621582,15.0493812561035,15.0494565963745,15.0495328903198,15.0496082305908,15.0496845245361,15.0497608184814,15.0498361587524,15.0499124526978,15.0499877929688,15.0500640869141,15.0501394271851,15.0502157211304,15.0502920150757,15.0503673553467,15.050443649292,15.050518989563,15.0505952835083,15.0506715774536,15.0507469177246,15.0508232116699,15.0508985519409,15.0509748458862,15.0510501861572,15.0511264801025,15.0512027740479,15.0512781143188,15.0513544082642,15.0514297485352,15.0515060424805,15.0515823364258,15.0516576766968,15.0517339706421,15.0518093109131,15.0518856048584,15.0519618988037,15.0520372390747,15.05211353302,15.052188873291,15.0522651672363,15.0523414611816,15.0524168014526,15.0524930953979,15.0525684356689,15.0526447296143,15.0527210235596,15.0527963638306,15.0528726577759,15.0529479980469,15.0530242919922,15.0530996322632,15.0531759262085,15.0532522201538,15.0533275604248,15.0534038543701,15.0534791946411,15.0535554885864,15.0536317825317,15.0537071228027,15.053783416748,15.053858757019,15.0539350509644,15.0540113449097,15.0540866851807,15.054162979126,15.054238319397,15.0543146133423,15.0543909072876,15.0544662475586,15.0545425415039,15.0546178817749,15.0253248214722,15.0025730133057,15.002649307251,15.0027256011963,15.0028018951416,15.0028781890869,15.0029544830322,15.0030307769775,15.0031070709229,15.0031833648682,15.0032596588135,15.0033349990845,17.5975704193115,17.5984916687012,17.5994148254395,17.6003360748291,17.6012592315674,17.602180480957,17.6031036376953,17.6040267944336,17.6049499511719,17.6058731079102,17.6067962646484,17.6077194213867,17.6086406707764,17.6095657348633,17.6104888916016,17.6114120483398,17.6123352050781,17.613260269165,17.6141834259033,17.6151084899902,17.6160316467285,17.6169548034668,17.6178798675537,17.6188049316406,17.6197280883789,17.6206531524658,17.6215763092041,17.622501373291,17.6234283447266,17.6243534088135,17.6252765655518
15.0417060852051,15.0417814254761,15.0418567657471,15.0419330596924,15.0420083999634,15.0420837402344,15.0421600341797,15.0422353744507,15.0423107147217,15.042387008667,15.042462348938,15.042537689209,15.0426139831543,15.0426893234253,15.0427646636963,15.0428409576416,15.0429162979126,15.0429916381836,15.0430679321289,15.0431432723999,15.0432186126709,15.0432949066162,15.0433702468872,15.0434465408325,15.0435218811035,15.0435972213745,15.0436735153198,15.0437488555908,15.0438251495361,15.0439004898071,15.0439767837524,15.0440521240234,15.0441284179688,15.0442037582397,15.0442800521851,15.0443553924561,15.0444316864014,15.0445070266724,15.0445823669434,15.0446586608887,15.0447340011597,15.044810295105,15.044885635376,15.0449619293213,15.0450372695923,15.0451135635376,15.0451889038086,15.0452651977539,15.0453414916992,15.0454168319702,15.0454931259155,15.0455684661865,15.0456447601318,15.0457201004028,15.0457963943481,15.0458717346191,15.0459480285645,15.0460233688354,15.0460996627808,15.0461750030518,15.0462512969971,15.0463266372681,15.0464029312134,15.0464792251587,15.0465545654297,15.046630859375,15.046706199646,15.0467824935913,15.0468578338623,15.0469341278076,15.0470094680786,15.0470857620239,15.0471611022949,15.0472373962402,15.0473136901855,15.0473890304565,15.0474653244019,15.0475406646729,15.0476169586182,15.0476922988892,15.0477685928345,15.0478439331055,15.0479202270508,15.0479965209961,15.0480718612671,15.0481481552124,15.0482234954834,15.0482997894287,15.0483751296997,15.048451423645,15.048526763916,15.0486030578613,15.0486793518066,15.0487546920776,15.0488309860229,15.0489063262939,15.0489826202393,15.0490579605103,15.0491342544556,15.0492105484009,15.0492858886719,15.0493621826172,15.0494375228882,15.0495138168335,15.0495891571045,15.0496654510498,15.0497417449951,15.0498170852661,15.0498933792114,15.0499687194824,15.0500450134277,15.0501203536987,15.050196647644,15.0502729415894,15.0503482818604,15.0504245758057,15.0504999160767,15.050576210022,15.050651550293,15.0507278442383,15.0508041381836,15.0508794784546,15.0509557723999,15.0510311126709,15.0511074066162,15.0511827468872,15.0512590408325,15.0513343811035,15.0514106750488,15.0514869689941,15.0515623092651,15.0516386032104,15.0517139434814,15.0517902374268,15.0518655776978,15.0519418716431,15.0520181655884,15.0520935058594,15.0521697998047,15.0522451400757,15.052321434021,15.052396774292,15.0524730682373,15.0525493621826,15.0526247024536,15.0527009963989,15.0527763366699,15.0250205993652,15.0007381439209,15.0008144378662,15.0008907318115,15.0009670257568,15.0010433197021,15.0011196136475,15.0011959075928,15.0012712478638,15.0013475418091,15.0014238357544,15.0015001296997,17.4355850219727,17.4364891052246,17.4373950958252,17.4383010864258,17.4392070770264,17.440113067627,17.4410171508789,17.4419231414795,17.4428291320801,17.4437351226807,17.4446411132812,17.4455490112305,17.4464530944824,17.4473609924316,17.4482669830322,17.4491729736328,17.450080871582,17.4509868621826,17.4518928527832,17.4528007507324,17.4537086486816,17.4546146392822,17.4555225372314,17.4564304351807,17.4573364257812,17.4582462310791,17.4591522216797,17.4600601196289,17.4609680175781,17.4618759155273,17.4627838134766
15.039867401123,15.039942741394,15.040018081665,15.0400943756104,15.0401697158813,15.0402450561523,15.0403213500977,15.0403966903687,15.0404720306396,15.040548324585,15.040623664856,15.040699005127,15.0407752990723,15.0408506393433,15.0409259796143,15.0410022735596,15.0410776138306,15.0411529541016,15.0412292480469,15.0413045883179,15.0413799285889,15.0414562225342,15.0415315628052,15.0416069030762,15.0416831970215,15.0417585372925,15.0418348312378,15.0419101715088,15.0419864654541,15.0420618057251,15.0421380996704,15.0422134399414,15.0422887802124,15.0423650741577,15.0424404144287,15.042516708374,15.042592048645,15.0426683425903,15.0427436828613,15.0428199768066,15.0428953170776,15.0429716110229,15.0430469512939,15.0431232452393,15.0431985855103,15.0432748794556,15.0433502197266,15.0434265136719,15.0435018539429,15.0435781478882,15.0436534881592,15.0437297821045,15.0438051223755,15.0438814163208,15.0439567565918,15.0440330505371,15.0441083908081,15.0441846847534,15.0442600250244,15.0443363189697,15.0444116592407,15.044487953186,15.044563293457,15.0446395874023,15.0447149276733,15.0447912216187,15.0448665618896,15.044942855835,15.045018196106,15.0450944900513,15.0451707839966,15.0452461242676,15.0453224182129,15.0453977584839,15.0454740524292,15.0455493927002,15.0456256866455,15.0457010269165,15.0457773208618,15.0458526611328,15.0459289550781,15.0460042953491,15.0460805892944,15.0461559295654,15.0462322235107,15.0463085174561,15.0463838577271,15.0464601516724,15.0465354919434,15.0466117858887,15.0466871261597,15.046763420105,15.046838760376,15.0469150543213,15.0469903945923,15.0470666885376,15.0471429824829,15.0472183227539,15.0472946166992,15.0473699569702,15.0474462509155,15.0475215911865,15.0475978851318,15.0476732254028,15.0477495193481,15.0478248596191,15.0479011535645,15.0479774475098,15.0480527877808,15.0481290817261,15.0482044219971,15.0482807159424,15.0483560562134,15.0484323501587,15.0485076904297,15.048583984375,15.048659324646,15.0487356185913,15.0488109588623,15.0488872528076,15.0489635467529,15.0490388870239,15.0491151809692,15.0491905212402,15.0492668151855,15.0493421554565,15.0494184494019,15.0494937896729,15.0495700836182,15.0496454238892,15.0497217178345,15.0497980117798,15.0498733520508,15.0499496459961,15.0500249862671,15.0501012802124,15.0501766204834,15.0502529144287,15.0503282546997,15.050404548645,15.0504808425903,15.0505561828613,15.0506324768066,15.0507078170776,15.0507841110229,15.0508594512939,15.0509357452393,15.0247163772583,14.9989042282104,14.9989795684814,14.9990558624268,14.9991321563721,14.9992084503174,14.9992847442627,14.999361038208,14.9994373321533,14.9995126724243,14.9995889663696,14.9996652603149,17.276554107666,17.2774429321289,17.2783317565918,17.2792205810547,17.2801094055176,17.2810001373291,17.2818908691406,17.2827796936035,17.2836685180664,17.2845573425293,17.2854480743408,17.2863368988037,17.2872276306152,17.2881183624268,17.2890071868896,17.2898979187012,17.2907867431641,17.2916774749756,17.2925682067871,17.2934589385986,17.2943496704102,17.2952404022217,17.2961311340332,17.2970218658447,17.2979125976562,17.2988033294678,17.2996940612793,17.3005867004395,17.301477432251,17.3023681640625,17.3032608032227
15.038028717041,15.0381050109863,15.0381803512573,15.0382556915283,15.0383310317993,15.0384073257446,15.0384826660156,15.0385580062866,15.0386343002319,15.0387096405029,15.0387849807739,15.0388612747192,15.0389366149902,15.0390119552612,15.0390882492065,15.0391635894775,15.0392389297485,15.0393142700195,15.0393905639648,15.0394659042358,15.0395421981812,15.0396175384521,15.0396928787231,15.0397691726685,15.0398445129395,15.0399208068848,15.0399961471558,15.0400724411011,15.0401477813721,15.0402240753174,15.0402994155884,15.0403747558594,15.0404510498047,15.0405263900757,15.040602684021,15.040678024292,15.0407543182373,15.0408296585083,15.0409059524536,15.0409812927246,15.0410566329956,15.0411329269409,15.0412082672119,15.0412845611572,15.0413599014282,15.0414361953735,15.0415115356445,15.0415878295898,15.0416631698608,15.0417394638062,15.0418148040771,15.0418910980225,15.0419664382935,15.0420427322388,15.0421180725098,15.0421943664551,15.0422697067261,15.0423460006714,15.0424213409424,15.0424976348877,15.0425729751587,15.042649269104,15.042724609375,15.0428009033203,15.0428762435913,15.0429525375366,15.0430278778076,15.0431041717529,15.0431795120239,15.0432558059692,15.0433311462402,15.0434074401855,15.0434827804565,15.0435590744019,15.0436344146729,15.0437107086182,15.0437860488892,15.0438623428345,15.0439376831055,15.0440139770508,15.0440893173218,15.0441656112671,15.0442409515381,15.0443172454834,15.0443925857544,15.0444688796997,15.0445442199707,15.044620513916,15.044695854187,15.0447721481323,15.0448474884033,15.0449237823486,15.0450000762939,15.0450754165649,15.0451517105103,15.0452270507812,15.0453033447266,15.0453786849976,15.0454549789429,15.0455303192139,15.0456066131592,15.0456819534302,15.0457582473755,15.0458335876465,15.0459098815918,15.0459852218628,15.0460615158081,15.0461368560791,15.0462131500244,15.0462884902954,15.0463647842407,15.0464401245117,15.046516418457,15.046591758728,15.0466680526733,15.0467433929443,15.0468196868896,15.0468950271606,15.046971321106,15.0470476150513,15.0471229553223,15.0471992492676,15.0472745895386,15.0473508834839,15.0474262237549,15.0475025177002,15.0475778579712,15.0476541519165,15.0477294921875,15.0478057861328,15.0478811264038,15.0479574203491,15.0480327606201,15.0481090545654,15.0481843948364,15.0482606887817,15.0483369827271,15.048412322998,15.0484886169434,15.0485639572144,15.0486402511597,15.0487155914307,15.048791885376,15.048867225647,15.0489435195923,15.0490188598633,15.0490951538086,15.0244112014771,14.9970693588257,14.997145652771,14.9972219467163,14.9972982406616,14.9973745346069,14.9974498748779,14.9975261688232,14.9976024627686,14.9976787567139,14.9977550506592,14.9978303909302,17.1203994750977,17.1212730407715,17.1221446990967,17.1230182647705,17.1238918304443,17.1247653961182,17.1256370544434,17.1265125274658,17.127384185791,17.1282596588135,17.1291313171387,17.1300067901611,17.130880355835,17.1317539215088,17.1326274871826,17.1335029602051,17.1343765258789,17.1352519989014,17.1361255645752,17.136999130249,17.1378726959229,17.1387481689453,17.1396217346191,17.1404972076416,17.1413745880127,17.1422481536865,17.1431217193604,17.1439971923828,17.1448726654053,17.1457481384277,17.1466255187988
15.0361909866333,15.0362672805786,15.0363426208496,15.0364179611206,15.0364933013916,15.0365695953369,15.0366449356079,15.0367202758789,15.0367965698242,15.0368719100952,15.0369472503662,15.0370225906372,15.0370988845825,15.0371742248535,15.0372495651245,15.0373258590698,15.0374011993408,15.0374765396118,15.0375528335571,15.0376281738281,15.0377044677734,15.0377798080444,15.0378551483154,15.0379314422607,15.0380067825317,15.0380830764771,15.038158416748,15.0382347106934,15.0383100509644,15.0383853912354,15.0384616851807,15.0385370254517,15.038613319397,15.038688659668,15.0387649536133,15.0388402938843,15.0389156341553,15.0389919281006,15.0390672683716,15.0391435623169,15.0392189025879,15.0392951965332,15.0393705368042,15.0394458770752,15.0395221710205,15.0395975112915,15.0396738052368,15.0397491455078,15.0398254394531,15.0399007797241,15.0399770736694,15.0400524139404,15.0401287078857,15.0402040481567,15.0402803421021,15.040355682373,15.0404319763184,15.0405073165894,15.0405826568604,15.0406589508057,15.0407342910767,15.040810585022,15.040885925293,15.0409622192383,15.0410375595093,15.0411138534546,15.0411891937256,15.0412654876709,15.0413408279419,15.0414171218872,15.0414924621582,15.0415687561035,15.0416440963745,15.0417203903198,15.0417957305908,15.0418720245361,15.0419473648071,15.0420236587524,15.0420989990234,15.0421752929688,15.0422506332397,15.0423269271851,15.0424022674561,15.0424785614014,15.0425539016724,15.0426301956177,15.0427055358887,15.042781829834,15.042857170105,15.0429334640503,15.0430088043213,15.0430850982666,15.0431604385376,15.0432367324829,15.0433120727539,15.0433883666992,15.0434637069702,15.0435400009155,15.0436153411865,15.0436916351318,15.0437669754028,15.0438432693481,15.0439186096191,15.0439949035645,15.0440702438354,15.0441465377808,15.0442218780518,15.0442981719971,15.0443735122681,15.0444498062134,15.0445251464844,15.0446014404297,15.0446767807007,15.044753074646,15.044828414917,15.0449047088623,15.0449800491333,15.0450563430786,15.0451316833496,15.0452079772949,15.0452833175659,15.0453596115112,15.0454349517822,15.0455112457275,15.0455865859985,15.0456628799438,15.0457382202148,15.0458145141602,15.0458898544312,15.0459661483765,15.0460414886475,15.0461177825928,15.0461931228638,15.0462694168091,15.0463447570801,15.0464210510254,15.0464963912964,15.0465726852417,15.0466480255127,15.046724319458,15.046799659729,15.0468759536743,15.0469512939453,15.0470275878906,15.0471029281616,15.0471792221069,15.0472545623779,15.0241069793701,14.9952363967896,14.9953117370605,14.9953880310059,14.9954643249512,14.9955406188965,14.9956169128418,14.9956922531128,14.9957685470581,14.9958448410034,14.9959211349487,14.9959964752197,16.967041015625,16.9678993225098,16.9687576293945,16.9696140289307,16.9704723358154,16.9713306427002,16.9721870422363,16.9730453491211,16.9739017486572,16.9747619628906,16.9756202697754,16.9764785766602,16.9773349761963,16.9781932830811,16.9790515899658,16.9799118041992,16.980770111084,16.9816284179688,16.9824867248535,16.9833450317383,16.984203338623,16.9850635528564,16.9859237670898,16.9867820739746,16.987642288208,16.9885005950928,16.9893589019775,16.9902191162109,16.9910793304443,16.9919395446777,16.9927997589111
15.0343542098999,15.0344295501709,15.0345048904419,15.0345811843872,15.0346565246582,15.0347318649292,15.0348081588745,15.0348834991455,15.0349588394165,15.0350341796875,15.0351104736328,15.0351858139038,15.0352611541748,15.0353364944458,15.0354127883911,15.0354881286621,15.0355644226074,15.0356397628784,15.0357151031494,15.0357913970947,15.0358667373657,15.035943031311,15.036018371582,15.036093711853,15.0361700057983,15.0362453460693,15.0363216400146,15.0363969802856,15.0364723205566,15.036548614502,15.0366239547729,15.0367002487183,15.0367755889893,15.0368509292603,15.0369272232056,15.0370025634766,15.0370788574219,15.0371541976929,15.0372295379639,15.0373058319092,15.0373811721802,15.0374574661255,15.0375328063965,15.0376091003418,15.0376844406128,15.0377597808838,15.0378360748291,15.0379114151001,15.0379877090454,15.0380630493164,15.0381393432617,15.0382146835327,15.038290977478,15.038366317749,15.03844165802,15.0385179519653,15.0385932922363,15.0386695861816,15.0387449264526,15.0388212203979,15.0388965606689,15.0389728546143,15.0390481948853,15.0391244888306,15.0391998291016,15.0392761230469,15.0393514633179,15.0394268035889,15.0395030975342,15.0395784378052,15.0396547317505,15.0397300720215,15.0398063659668,15.0398817062378,15.0399580001831,15.0400333404541,15.0401096343994,15.0401849746704,15.0402612686157,15.0403366088867,15.040412902832,15.040488243103,15.0405645370483,15.0406398773193,15.0407152175903,15.0407915115356,15.0408668518066,15.040943145752,15.0410184860229,15.0410947799683,15.0411701202393,15.0412464141846,15.0413217544556,15.0413980484009,15.0414733886719,15.0415496826172,15.0416250228882,15.0417013168335,15.0417766571045,15.0418519973755,15.0419282913208,15.0420036315918,15.0420799255371,15.0421552658081,15.0422315597534,15.0423069000244,15.0423831939697,15.0424585342407,15.042534828186,15.042610168457,15.0426864624023,15.0427618026733,15.0428380966187,15.0429134368896,15.042989730835,15.043065071106,15.0431413650513,15.0432167053223,15.0432920455933,15.0433683395386,15.0434436798096,15.0435199737549,15.0435953140259,15.0436716079712,15.0437469482422,15.0438232421875,15.0438985824585,15.0439748764038,15.0440502166748,15.0441265106201,15.0442018508911,15.0442781448364,15.0443534851074,15.0444297790527,15.0445051193237,15.044581413269,15.04465675354,15.0447330474854,15.0448083877563,15.0448846817017,15.0449600219727,15.045036315918,15.045111656189,15.0451879501343,15.0452632904053,15.0453395843506,15.0454149246216,15.0238027572632,14.9934024810791,14.9934787750244,14.9935550689697,14.993631362915,14.993706703186,14.9937829971313,14.9938592910767,14.993935585022,14.9940118789673,14.9940872192383,14.9941635131836,16.8164081573486,16.8172512054443,16.8180923461914,16.8189353942871,16.8197765350342,16.8206195831299,16.821460723877,16.8223037719727,16.823148727417,16.8239898681641,16.8248329162598,16.8256759643555,16.8265190124512,16.8273620605469,16.8282070159912,16.8290481567383,16.829891204834,16.8307361602783,16.831579208374,16.8324222564697,16.8332672119141,16.8341102600098,16.8349552154541,16.8357982635498,16.8366432189941,16.8374862670898,16.8383312225342,16.8391761779785,16.8400192260742,16.8408641815186,16.8417091369629
15.0325174331665,15.0325927734375,15.0326681137085,15.0327444076538,15.0328197479248,15.0328950881958,15.0329704284668,15.0330467224121,15.0331220626831,15.0331974029541,15.0332736968994,15.0333490371704,15.0334243774414,15.0335006713867,15.0335760116577,15.0336513519287,15.033727645874,15.033802986145,15.033878326416,15.0339546203613,15.0340299606323,15.0341062545776,15.0341815948486,15.0342569351196,15.0343332290649,15.0344085693359,15.0344839096069,15.0345602035522,15.0346355438232,15.0347118377686,15.0347871780396,15.0348625183105,15.0349388122559,15.0350141525269,15.0350904464722,15.0351657867432,15.0352411270142,15.0353174209595,15.0353927612305,15.0354690551758,15.0355443954468,15.0356197357178,15.0356960296631,15.0357713699341,15.0358467102051,15.0359230041504,15.0359983444214,15.0360746383667,15.0361499786377,15.036226272583,15.036301612854,15.036376953125,15.0364532470703,15.0365285873413,15.0366048812866,15.0366802215576,15.0367565155029,15.0368318557739,15.0369081497192,15.0369834899902,15.0370588302612,15.0371351242065,15.0372104644775,15.0372867584229,15.0373620986938,15.0374383926392,15.0375137329102,15.0375900268555,15.0376653671265,15.0377407073975,15.0378170013428,15.0378923416138,15.0379686355591,15.0380439758301,15.0381202697754,15.0381956100464,15.0382719039917,15.0383472442627,15.038423538208,15.038498878479,15.03857421875,15.0386505126953,15.0387258529663,15.0388021469116,15.0388774871826,15.0389537811279,15.0390291213989,15.0391044616699,15.0391807556152,15.0392560958862,15.0393323898315,15.0394077301025,15.0394840240479,15.0395593643188,15.0396356582642,15.0397109985352,15.0397863388062,15.0398626327515,15.0399379730225,15.0400142669678,15.0400896072388,15.0401659011841,15.0402412414551,15.0403175354004,15.0403928756714,15.0404682159424,15.0405445098877,15.0406198501587,15.040696144104,15.040771484375,15.0408477783203,15.0409231185913,15.0409994125366,15.0410747528076,15.0411510467529,15.0412263870239,15.0413026809692,15.0413780212402,15.0414533615112,15.0415296554565,15.0416049957275,15.0416812896729,15.0417566299438,15.0418329238892,15.0419082641602,15.0419845581055,15.0420598983765,15.0421361923218,15.0422115325928,15.0422878265381,15.0423631668091,15.0424394607544,15.0425148010254,15.0425901412964,15.0426664352417,15.0427417755127,15.042818069458,15.042893409729,15.0429697036743,15.0430450439453,15.0431213378906,15.0431966781616,15.0432729721069,15.0433483123779,15.0434246063232,15.0434999465942,15.0435762405396,15.0235023498535,14.991569519043,14.9916458129883,14.9917221069336,14.9917984008789,14.9918737411499,14.9919500350952,14.9920263290405,14.9921026229858,14.9921789169312,14.9922542572021,14.9923305511475,16.6684246063232,16.6692523956299,16.6700782775879,16.6709079742432,16.6717338562012,16.6725635528564,16.6733913421631,16.6742172241211,16.6750469207764,16.675874710083,16.6767024993896,16.6775302886963,16.6783599853516,16.6791858673096,16.6800155639648,16.6808433532715,16.6816711425781,16.6825008392334,16.6833305358887,16.6841602325439,16.6849880218506,16.6858177185059,16.6866455078125,16.6874752044678,16.688304901123,16.6891345977783,16.6899642944336,16.6907920837402,16.6916217803955,16.6924514770508,16.6932811737061
