0,0,0,0,0,0,0,0,0,0,0,0,0,0,0,0,0,0,0,0,0,0,0,0,0,0,0,0,0,0,0,0,0,0,0,0,0,0,0,0,0,0,0,0,0,0,15.0516452789307,15.0515966415405,15.0515489578247,14.9177513122559,14.9177026748657,14.9176540374756,14.9344930648804,14.9338579177856,14.9332237243652,14.9325885772705,14.931957244873,14.9313287734985,14.9307012557983,14.9300727844238,14.9294443130493,14.9288158416748,14.9281873703003,14.9275598526001,14.9269313812256,14.9263038635254,14.9256753921509,14.9250478744507,14.9244203567505,14.923791885376,14.9231643676758,14.9225368499756,14.9219093322754,14.9212818145752,14.920654296875,14.9200267791748,14.9193992614746,14.9187717437744,14.9181442260742,14.917516708374,14.9168901443481,14.9162626266479,14.9161710739136,14.9161233901978,14.9160757064819,14.9160280227661,14.915979385376,14.9159317016602,14.9158840179443,14.9158363342285,14.9157886505127,14.9157409667969,14.9675369262695,15.0352516174316,15.0622758865356,15.0622272491455,15.0621786117554,15.0621309280396,15.0620822906494,15.0620336532593,15.0619859695435,15.0619373321533,15.0618886947632,15.0618410110474,15.0617923736572,15.0617437362671,15.0616960525513,15.0616474151611,15.061598777771,15.0615510940552,15.061502456665,15.0614538192749,15.0614061355591,15.0613574981689,15.0613098144531,15.061261177063,15.0612125396729,15.061164855957,15.0611162185669,15.0610675811768,13.0936813354492,13.0936393737793,13.0935964584351,13.0935544967651,13.0935125350952,13.0934705734253,13.0934286117554,13.0933866500854,13.0933446884155,13.0933027267456,13.0932607650757,13.0932188034058,13.0931768417358,13.0931348800659,13.093092918396,13.0930509567261,13.0930089950562,13.0929670333862,13.0929250717163,13.0928831100464,13.0928411483765,13.0927991867065,13.0927572250366,13.0927152633667,13.0926733016968,13.0926313400269,13.0925893783569,13.092547416687,13.0925054550171,13.0924634933472,13.0924215316772,13.0923795700073,13.0923366546631,13.0922946929932,13.0922527313232,13.0922107696533,13.0921688079834,13.0921268463135,13.0920848846436,13.0920429229736,13.0920009613037,13.0919589996338,13.0919170379639,13.0918750762939,13.091833114624,13.0917911529541,13.0917491912842,13.0917072296143,13.0916652679443,13.0916233062744,13.0915813446045,13.0915393829346,13.0914974212646,13.0914554595947,13.0914134979248,13.0913715362549,13.091329574585,13.091287612915,13.0912456512451,13.0912036895752,13.0911617279053,13.0911197662354,13.0910778045654,13.0910358428955,13.0909938812256,13.0909519195557,13.0909099578857,13.0908679962158,13.0908260345459,13.090784072876
0,0,0,0,0,0,0,0,0,0,0,0,0,0,0,0,0,0,0,0,0,0,0,0,0,0,0,0,0,0,0,0,0,0,0,0,0,0,0,0,0,0,0,0,0,0,0,0,0,0,0,0,0,14.9911165237427,14.9910688400269,14.9910202026367,14.9909725189209,14.9909248352051,14.9908761978149,14.9908285140991,14.990779876709,14.9907321929932,14.990683555603,14.9906358718872,14.9905872344971,14.9905395507812,14.9904918670654,14.9904432296753,14.9903955459595,14.9903469085693,14.9902992248535,14.9902505874634,14.9902029037476,14.9901552200317,14.9901065826416,14.9900588989258,14.9900102615356,14.9899625778198,14.9899139404297,14.9898662567139,14.989818572998,14.9897699356079,14.9897222518921,14.989673614502,14.9896259307861,14.989577293396,14.9895296096802,14.9894819259644,14.9894332885742,14.9160718917847,14.9160242080688,14.915976524353,14.9678010940552,15.0355176925659,15.0732355117798,15.0725793838501,15.0719232559204,15.0712661743164,15.0706100463867,15.069953918457,15.0692987442017,15.068642616272,15.0679864883423,15.0673303604126,15.0666742324829,15.0660190582275,15.0653629302979,15.0647077560425,15.0640516281128,15.0633964538574,15.0627412796021,15.0620851516724,15.0616436004639,15.0615949630737,15.0615463256836,15.0614986419678,15.0614500045776,15.0614023208618,15.0613536834717,15.0613050460815,13.0938873291016,13.0938453674316,13.0938034057617,13.0937614440918,13.0937194824219,13.093677520752,13.093635559082,13.0935935974121,13.0935516357422,13.0935096740723,13.0934677124023,13.0934257507324,13.0933837890625,13.0933418273926,13.0932998657227,13.0932569503784,13.0932149887085,13.0931730270386,13.0931310653687,13.0930891036987,13.0930471420288,13.0930051803589,13.092963218689,13.092921257019,13.0928792953491,13.0928373336792,13.0927953720093,13.0927534103394,13.0927114486694,13.0926694869995,13.0926275253296,13.0925855636597,13.0925436019897,13.0925016403198,13.0924596786499,13.09241771698,13.0923757553101,13.0923337936401,13.0922918319702,13.0922498703003,13.0922079086304,13.0921659469604,13.0921239852905,13.0920820236206,13.0920400619507,13.0919981002808,13.0919561386108,13.0919141769409,13.0918712615967,13.0918292999268,13.0917873382568,13.0917453765869,13.091703414917,13.0916614532471,13.0916194915771,13.0915775299072,13.0915355682373,13.0914936065674,13.0914516448975,13.0914096832275,13.0913677215576,13.0913257598877,13.0912837982178,13.0912418365479,13.0911998748779,13.091157913208,13.0911159515381,13.0910739898682,13.0910320281982,13.0909900665283
0,0,0,0,0,0,0,0,0,0,0,0,0,0,0,0,0,0,0,0,0,0,0,0,0,0,0,0,0,0,0,0,0,0,0,0,0,0,0,0,0,0,0,0,0,0,0,0,0,0,0,0,0,0,0,0,0,0,0,0,14.9910163879395,14.9909687042236,14.9909200668335,14.9908723831177,14.9908237457275,14.9907760620117,14.9907283782959,14.9906797409058,14.9906320571899,14.9905834197998,14.990535736084,14.9904870986938,14.990439414978,14.9903907775879,14.9903430938721,14.9902954101562,14.9902467727661,14.9901990890503,14.9901504516602,14.9901027679443,14.9900541305542,14.9900064468384,14.9899587631226,14.9899101257324,14.9898624420166,14.9898138046265,14.9897661209106,14.9897174835205,14.9896697998047,14.9163064956665,14.9162588119507,14.9162111282349,14.9680652618408,15.0357837677002,15.0994272232056,15.1328868865967,15.1328382492065,15.1327905654907,15.1327419281006,15.1326932907104,15.1326446533203,15.1325960159302,15.13254737854,15.1324987411499,15.1324501037598,15.1324014663696,15.1323528289795,15.1323041915894,15.1322555541992,15.1322078704834,15.1321592330933,15.1321105957031,15.132061958313,15.1320133209229,15.1319646835327,15.1319160461426,15.1318674087524,15.1318187713623,15.1317701339722,15.131721496582,13.0940942764282,13.094051361084,13.0940093994141,13.0939674377441,13.0939254760742,13.0938835144043,13.0938415527344,13.0937995910645,13.0937576293945,13.0937156677246,13.0936737060547,13.0936317443848,13.0935897827148,13.0935478210449,13.093505859375,13.0934638977051,13.0934219360352,13.0933799743652,13.0933380126953,13.0932960510254,13.0932540893555,13.0932121276855,13.0931701660156,13.0931282043457,13.0930862426758,13.0930442810059,13.0930023193359,13.092960357666,13.0929183959961,13.0928754806519,13.0928335189819,13.092791557312,13.0927495956421,13.0927076339722,13.0926656723022,13.0926237106323,13.0925817489624,13.0925397872925,13.0924978256226,13.0924558639526,13.0924139022827,13.0923719406128,13.0923299789429,13.0922880172729,13.092246055603,13.0922040939331,13.0921621322632,13.0921201705933,13.0920782089233,13.0920362472534,13.0919942855835,13.0919523239136,13.0919103622437,13.0918684005737,13.0918264389038,13.0917844772339,13.091742515564,13.091700553894,13.0916585922241,13.0916166305542,13.0915746688843,13.0915327072144,13.0914907455444,13.0914487838745,13.0914068222046,13.0913648605347,13.0913228988647,13.0912809371948,13.0912389755249,13.091197013855
0,0,0,0,0,0,0,0,0,0,0,0,0,0,0,0,0,0,0,0,0,0,0,0,0,0,0,0,0,0,0,0,0,0,0,0,0,0,0,0,0,0,0,0,0,0,0,0,0,0,0,0,0,0,0,0,0,0,0,0,0,0,0,0,0,0,0,14.9909162521362,14.9908685684204,14.9908199310303,14.9907722473145,14.9907236099243,14.9906759262085,14.9906272888184,14.9905796051025,14.9905319213867,14.9904832839966,14.9904356002808,14.9903869628906,14.9903392791748,14.9902906417847,14.9902429580688,14.9901943206787,14.9901466369629,14.9900989532471,14.9900503158569,14.9900026321411,14.989953994751,14.9899063110352,14.9165420532227,14.9164943695068,14.916446685791,14.9683284759521,15.0360498428345,15.0996980667114,15.1331253051758,15.1330766677856,15.1330289840698,15.1329803466797,15.1329317092896,15.1328830718994,15.1328344345093,15.1327857971191,15.132737159729,15.1326885223389,15.1326398849487,15.1325912475586,15.1325435638428,15.1324949264526,15.1324462890625,15.1323976516724,15.1323490142822,15.1323003768921,15.132251739502,15.1322031021118,15.1321544647217,15.1321058273315,15.1320571899414,15.1320085525513,15.1319608688354,13.0943002700806,13.0942583084106,13.0942163467407,13.0941743850708,13.0941324234009,13.094090461731,13.094048500061,13.0940065383911,13.0939645767212,13.0939226150513,13.0938806533813,13.0938386917114,13.0937967300415,13.0937547683716,13.0937118530273,13.0936698913574,13.0936279296875,13.0935859680176,13.0935440063477,13.0935020446777,13.0934600830078,13.0934181213379,13.093376159668,13.093334197998,13.0932922363281,13.0932502746582,13.0932083129883,13.0931663513184,13.0931243896484,13.0930824279785,13.0930404663086,13.0929985046387,13.0929565429688,13.0929145812988,13.0928726196289,13.092830657959,13.0927886962891,13.0927467346191,13.0927047729492,13.0926628112793,13.0926208496094,13.0925788879395,13.0925369262695,13.0924940109253,13.0924520492554,13.0924100875854,13.0923681259155,13.0923261642456,13.0922842025757,13.0922422409058,13.0922002792358,13.0921583175659,13.092116355896,13.0920743942261,13.0920324325562,13.0919904708862,13.0919485092163,13.0919065475464,13.0918645858765,13.0918226242065,13.0917806625366,13.0917387008667,13.0916967391968,13.0916547775269,13.0916128158569,13.091570854187,13.0915288925171,13.0914869308472,13.0914449691772,13.0914030075073
0,0,0,0,0,0,0,0,0,0,0,0,0,0,0,0,0,0,0,0,0,0,0,0,0,0,0,0,0,0,0,0,0,0,0,0,0,0,0,0,0,0,0,0,0,0,0,0,0,0,0,0,0,0,0,0,0,0,0,0,0,0,0,0,0,0,0,0,0,0,0,0,0,14.9908638000488,14.990816116333,14.9907674789429,14.9907197952271,14.9906721115112,14.9906234741211,14.9905757904053,14.9905271530151,14.9904794692993,14.9904308319092,14.9903831481934,14.9903345108032,14.9902868270874,14.9902391433716,14.9901905059814,14.9901428222656,14.9167776107788,14.916729927063,14.9166822433472,14.9685926437378,15.0363159179688,15.099967956543,15.1333637237549,15.1333160400391,15.1332674026489,15.1332187652588,15.1331701278687,15.1331214904785,15.1330728530884,15.1330242156982,15.1329755783081,15.1329278945923,15.1328792572021,15.132830619812,15.1327819824219,15.1327333450317,15.1326847076416,15.1326360702515,15.1325874328613,15.1325387954712,15.1324901580811,15.1324415206909,15.1323928833008,15.1323442459106,15.1322965621948,15.1322479248047,15.1321992874146,13.0945072174072,13.0944652557373,13.0944223403931,13.0943803787231,13.0943384170532,13.0942964553833,13.0942544937134,13.0942125320435,13.0941705703735,13.0941286087036,13.0940866470337,13.0940446853638,13.0940027236938,13.0939607620239,13.093918800354,13.0938768386841,13.0938348770142,13.0937929153442,13.0937509536743,13.0937089920044,13.0936670303345,13.0936250686646,13.0935831069946,13.0935411453247,13.0934991836548,13.0934572219849,13.0934152603149,13.0933723449707,13.0933303833008,13.0932884216309,13.0932464599609,13.093204498291,13.0931625366211,13.0931205749512,13.0930786132812,13.0930366516113,13.0929946899414,13.0929527282715,13.0929107666016,13.0928688049316,13.0928268432617,13.0927848815918,13.0927429199219,13.092700958252,13.092658996582,13.0926170349121,13.0925750732422,13.0925331115723,13.0924911499023,13.0924491882324,13.0924072265625,13.0923652648926,13.0923233032227,13.0922813415527,13.0922393798828,13.0921974182129,13.092155456543,13.092113494873,13.0920715332031,13.0920295715332,13.0919876098633,13.0919456481934,13.0919036865234,13.0918617248535,13.0918197631836,13.0917778015137,13.0917358398438,13.0916938781738,13.0916519165039,13.091609954834
0,0,0,0,0,0,0,0,0,0,0,0,0,0,0,0,0,0,0,0,0,0,0,0,0,0,0,0,0,0,0,0,0,0,0,0,0,0,0,0,0,0,0,0,0,0,0,0,0,0,0,0,0,0,0,0,0,0,0,0,0,0,0,0,0,0,0,0,0,0,0,0,0,0,0,0,0,0,0,0,14.9907636642456,14.9907159805298,14.9906673431396,14.9906196594238,14.9905710220337,14.9905233383179,14.9904756546021,14.9904270172119,14.9903793334961,14.9170122146606,14.9169645309448,14.916916847229,14.9688568115234,15.0365829467773,15.1002388000488,15.1336030960083,15.1335544586182,15.133505821228,15.1334571838379,15.1334085464478,15.1333599090576,15.1333122253418,15.1332635879517,15.1332149505615,15.1331663131714,15.1331176757812,15.1330690383911,15.133020401001,15.1329717636108,15.1329231262207,15.1328744888306,15.1328258514404,15.1327772140503,15.1327285766602,15.1326808929443,15.1326322555542,15.1325836181641,15.1325349807739,15.1324863433838,15.1324377059937,13.0947132110596,13.0946712493896,13.0946292877197,13.0945873260498,13.0945453643799,13.09450340271,13.09446144104,13.0944194793701,13.0943775177002,13.0943355560303,13.0942935943604,13.0942516326904,13.0942096710205,13.0941677093506,13.0941247940063,13.0940828323364,13.0940408706665,13.0939989089966,13.0939569473267,13.0939149856567,13.0938730239868,13.0938310623169,13.093789100647,13.0937471389771,13.0937051773071,13.0936632156372,13.0936212539673,13.0935792922974,13.0935373306274,13.0934953689575,13.0934534072876,13.0934114456177,13.0933694839478,13.0933275222778,13.0932855606079,13.093243598938,13.0932016372681,13.0931596755981,13.0931177139282,13.0930757522583,13.0930328369141,13.0929908752441,13.0929489135742,13.0929069519043,13.0928649902344,13.0928230285645,13.0927810668945,13.0927391052246,13.0926971435547,13.0926551818848,13.0926132202148,13.0925712585449,13.092529296875,13.0924873352051,13.0924453735352,13.0924034118652,13.0923614501953,13.0923194885254,13.0922775268555,13.0922355651855,13.0921936035156,13.0921516418457,13.0921096801758,13.0920677185059,13.0920257568359,13.091983795166,13.0919418334961,13.0918998718262,13.0918579101562,13.0918159484863
0,0,0,0,0,0,0,0,0,0,0,0,0,0,0,0,0,0,0,0,0,0,0,0,0,0,0,0,0,0,0,0,0,0,0,0,0,0,0,0,0,0,0,0,0,0,0,0,0,0,0,0,0,0,0,0,0,0,0,0,0,0,0,0,0,0,0,0,0,0,0,0,0,0,0,0,0,0,0,0,0,0,0,0,0,0,0,14.9906635284424,14.9906158447266,14.9172477722168,14.917200088501,14.9171524047852,14.9691209793091,15.0368490219116,15.1005086898804,15.1338415145874,15.1337928771973,15.1337451934814,15.1336965560913,15.1336479187012,15.133599281311,15.1335506439209,15.1335020065308,15.1334533691406,15.1334047317505,15.1333560943604,15.1333074569702,15.1332588195801,15.1332101821899,15.1331615447998,15.1331129074097,15.1330642700195,15.1330165863037,15.1329679489136,15.1329193115234,15.1328706741333,15.1328220367432,15.132773399353,15.1327247619629,15.1326761245728,13.0949201583862,13.0948781967163,13.0948352813721,13.0947933197021,13.0947513580322,13.0947093963623,13.0946674346924,13.0946254730225,13.0945835113525,13.0945415496826,13.0944995880127,13.0944576263428,13.0944156646729,13.0943737030029,13.094331741333,13.0942897796631,13.0942478179932,13.0942058563232,13.0941638946533,13.0941219329834,13.0940799713135,13.0940380096436,13.0939960479736,13.0939540863037,13.0939121246338,13.0938701629639,13.0938272476196,13.0937852859497,13.0937433242798,13.0937013626099,13.0936594009399,13.09361743927,13.0935754776001,13.0935335159302,13.0934915542603,13.0934495925903,13.0934076309204,13.0933656692505,13.0933237075806,13.0932817459106,13.0932397842407,13.0931978225708,13.0931558609009,13.093113899231,13.093071937561,13.0930299758911,13.0929880142212,13.0929460525513,13.0929040908813,13.0928621292114,13.0928201675415,13.0927782058716,13.0927362442017,13.0926942825317,13.0926513671875,13.0926094055176,13.0925674438477,13.0925254821777,13.0924835205078,13.0924415588379,13.092399597168,13.092357635498,13.0923156738281,13.0922737121582,13.0922317504883,13.0921897888184,13.0921478271484,13.0921058654785,13.0920639038086,13.0920219421387
0,0,0,0,0,0,0,0,0,0,0,0,0,0,0,0,0,0,0,0,0,0,0,0,0,0,0,0,0,0,0,0,0,0,0,0,0,0,0,0,0,0,0,0,0,0,0,0,0,0,0,0,0,0,0,0,0,0,0,0,0,0,0,0,0,0,0,0,0,0,0,0,0,0,0,0,0,0,0,0,0,0,0,0,0,0,0,0,0,0,0,0,0,15.0371150970459,15.1007785797119,15.1340799331665,15.1340322494507,15.1339836120605,15.1339349746704,15.1338863372803,15.1338376998901,15.1337890625,15.1337404251099,15.1336917877197,15.1336431503296,15.1335945129395,15.1335458755493,15.1334972381592,15.133448600769,15.1334009170532,15.1333522796631,15.1333036422729,15.1332550048828,15.1332063674927,15.1331577301025,15.1331090927124,15.1330604553223,15.1330118179321,15.132963180542,15.1329145431519,13.0951261520386,13.0950841903687,13.0950422286987,13.0950002670288,13.0949583053589,13.094916343689,13.094874382019,13.0948324203491,13.0947904586792,13.0947484970093,13.0947065353394,13.0946645736694,13.0946226119995,13.0945806503296,13.0945377349854,13.0944957733154,13.0944538116455,13.0944118499756,13.0943698883057,13.0943279266357,13.0942859649658,13.0942440032959,13.094202041626,13.0941600799561,13.0941181182861,13.0940761566162,13.0940341949463,13.0939922332764,13.0939502716064,13.0939083099365,13.0938663482666,13.0938243865967,13.0937824249268,13.0937404632568,13.0936985015869,13.093656539917,13.0936145782471,13.0935726165771,13.0935306549072,13.093487739563,13.0934457778931,13.0934038162231,13.0933618545532,13.0933198928833,13.0932779312134,13.0932359695435,13.0931940078735,13.0931520462036,13.0931100845337,13.0930681228638,13.0930261611938,13.0929841995239,13.092942237854,13.0929002761841,13.0928583145142,13.0928163528442,13.0927743911743,13.0927324295044,13.0926904678345,13.0926485061646,13.0926065444946,13.0925645828247,13.0925226211548,13.0924806594849,13.0924386978149,13.092396736145,13.0923547744751,13.0923128128052,13.0922708511353,13.0922288894653
0,0,0,0,0,0,0,0,0,0,0,0,0,0,0,0,0,0,0,0,0,0,0,0,0,0,0,0,0,0,0,0,0,0,0,0,0,0,0,0,0,0,0,0,0,0,0,0,0,0,0,0,0,0,0,0,0,0,0,0,0,0,0,0,0,0,0,0,0,0,0,0,0,0,0,0,0,0,0,0,0,0,0,0,0,0,0,0,0,0,0,0,0,0,0,0,0,0,0,0,15.1340761184692,15.1340274810791,15.133978843689,15.1339302062988,15.1338815689087,15.1338338851929,15.1337852478027,15.1337366104126,15.1336879730225,15.1336393356323,15.1335906982422,15.1335420608521,15.1334934234619,15.1334447860718,15.1333961486816,15.1333475112915,15.1332988739014,15.1332502365112,15.1332015991211,15.1331539154053,13.0953330993652,13.0952911376953,13.0952491760254,13.0952062606812,13.0951642990112,13.0951223373413,13.0950803756714,13.0950384140015,13.0949964523315,13.0949544906616,13.0949125289917,13.0948705673218,13.0948286056519,13.0947866439819,13.094744682312,13.0947027206421,13.0946607589722,13.0946187973022,13.0945768356323,13.0945348739624,13.0944929122925,13.0944509506226,13.0944089889526,13.0943670272827,13.0943250656128,13.0942831039429,13.0942401885986,13.0941982269287,13.0941562652588,13.0941143035889,13.0940723419189,13.094030380249,13.0939884185791,13.0939464569092,13.0939044952393,13.0938625335693,13.0938205718994,13.0937786102295,13.0937366485596,13.0936946868896,13.0936527252197,13.0936107635498,13.0935688018799,13.09352684021,13.09348487854,13.0934429168701,13.0934009552002,13.0933589935303,13.0933170318604,13.0932750701904,13.0932331085205,13.0931911468506,13.0931482315063,13.0931062698364,13.0930643081665,13.0930223464966,13.0929803848267,13.0929384231567,13.0928964614868,13.0928544998169,13.092812538147,13.0927705764771,13.0927286148071,13.0926866531372,13.0926446914673,13.0926027297974,13.0925607681274,13.0925188064575,13.0924768447876,13.0924348831177
0,0,0,0,0,0,0,0,0,0,0,0,0,0,0,0,0,0,0,0,0,0,0,0,0,0,0,0,0,0,0,0,0,0,0,0,0,0,0,0,0,0,0,0,0,0,0,0,0,0,0,0,0,0,0,0,0,0,0,0,0,0,0,0,0,0,0,0,0,0,0,0,0,0,0,0,0,0,0,0,0,0,0,0,0,0,0,0,0,0,0,0,0,0,0,0,0,0,0,0,0,0,0,0,0,0,15.1340236663818,15.1339750289917,15.1339263916016,15.1338777542114,15.1338291168213,15.1337804794312,15.133731842041,15.1336832046509,15.1336345672607,15.1335859298706,15.1335382461548,15.1334896087646,15.1334409713745,15.1333923339844,13.0955390930176,13.0954971313477,13.0954551696777,13.0954132080078,13.0953712463379,13.095329284668,13.095287322998,13.0952453613281,13.0952033996582,13.0951614379883,13.0951194763184,13.0950775146484,13.0950355529785,13.0949935913086,13.0949516296387,13.0949087142944,13.0948667526245,13.0948247909546,13.0947828292847,13.0947408676147,13.0946989059448,13.0946569442749,13.094614982605,13.0945730209351,13.0945310592651,13.0944890975952,13.0944471359253,13.0944051742554,13.0943632125854,13.0943212509155,13.0942792892456,13.0942373275757,13.0941953659058,13.0941534042358,13.0941114425659,13.094069480896,13.0940275192261,13.0939855575562,13.0939426422119,13.093900680542,13.0938587188721,13.0938167572021,13.0937747955322,13.0937328338623,13.0936908721924,13.0936489105225,13.0936069488525,13.0935649871826,13.0935230255127,13.0934810638428,13.0934391021729,13.0933971405029,13.093355178833,13.0933132171631,13.0932712554932,13.0932292938232,13.0931873321533,13.0931453704834,13.0931034088135,13.0930614471436,13.0930194854736,13.0929775238037,13.0929355621338,13.0928936004639,13.0928516387939,13.092809677124,13.0927677154541,13.0927257537842,13.0926837921143,13.0926418304443
0,0,0,0,0,0,0,0,0,0,0,0,0,0,0,0,0,0,0,0,0,0,0,0,0,0,0,0,0,0,0,0,0,0,0,0,0,0,0,0,0,0,0,0,0,0,0,0,0,0,0,0,0,0,0,0,0,0,0,0,0,0,0,0,0,0,0,0,0,0,0,0,0,0,0,0,0,0,0,0,0,0,0,0,0,0,0,0,0,0,0,0,0,0,0,0,0,0,0,0,0,0,0,0,0,0,0,0,0,0,0,0,0,15.1339225769043,15.1338739395142,15.133825302124,15.1337766647339,15.1337280273438,15.1336793899536,15.1336307525635,13.0957460403442,13.0957040786743,13.0956621170044,13.0956201553345,13.0955781936646,13.0955352783203,13.0954933166504,13.0954513549805,13.0954093933105,13.0953674316406,13.0953254699707,13.0952835083008,13.0952415466309,13.0951995849609,13.095157623291,13.0951156616211,13.0950736999512,13.0950317382812,13.0949897766113,13.0949478149414,13.0949058532715,13.0948638916016,13.0948219299316,13.0947799682617,13.0947380065918,13.0946960449219,13.0946531295776,13.0946111679077,13.0945692062378,13.0945272445679,13.0944852828979,13.094443321228,13.0944013595581,13.0943593978882,13.0943174362183,13.0942754745483,13.0942335128784,13.0941915512085,13.0941495895386,13.0941076278687,13.0940656661987,13.0940237045288,13.0939817428589,13.093939781189,13.093897819519,13.0938558578491,13.0938138961792,13.0937719345093,13.0937299728394,13.0936880111694,13.0936450958252,13.0936031341553,13.0935611724854,13.0935192108154,13.0934772491455,13.0934352874756,13.0933933258057,13.0933513641357,13.0933094024658,13.0932674407959,13.093225479126,13.0931835174561,13.0931415557861,13.0930995941162,13.0930576324463,13.0930156707764,13.0929737091064,13.0929317474365,13.0928897857666,13.0928478240967
0,0,0,0,0,0,0,0,0,0,0,0,0,0,0,0,0,0,0,0,0,0,0,0,0,0,0,0,0,0,0,0,0,0,0,0,0,0,0,0,0,0,0,0,0,0,0,0,0,0,0,0,0,0,0,0,0,0,0,0,0,0,0,0,0,0,0,0,0,0,0,0,0,0,0,0,0,0,0,0,0,0,0,0,0,0,0,0,0,0,0,0,0,0,0,0,0,0,0,0,0,0,0,0,0,0,0,0,0,0,0,0,0,0,0,0,0,0,0,15.1338691711426,13.0959520339966,13.0959100723267,13.0958681106567,13.0958261489868,13.0957841873169,13.095742225647,13.0957002639771,13.0956583023071,13.0956163406372,13.0955743789673,13.0955324172974,13.0954904556274,13.0954484939575,13.0954065322876,13.0953645706177,13.0953226089478,13.0952796936035,13.0952377319336,13.0951957702637,13.0951538085938,13.0951118469238,13.0950698852539,13.095027923584,13.0949859619141,13.0949440002441,13.0949020385742,13.0948600769043,13.0948181152344,13.0947761535645,13.0947341918945,13.0946922302246,13.0946502685547,13.0946083068848,13.0945663452148,13.0945243835449,13.094482421875,13.0944404602051,13.0943984985352,13.0943555831909,13.094313621521,13.0942716598511,13.0942296981812,13.0941877365112,13.0941457748413,13.0941038131714,13.0940618515015,13.0940198898315,13.0939779281616,13.0939359664917,13.0938940048218,13.0938520431519,13.0938100814819,13.093768119812,13.0937261581421,13.0936841964722,13.0936422348022,13.0936002731323,13.0935583114624,13.0935163497925,13.0934743881226,13.0934324264526,13.0933904647827,13.0933485031128,13.0933065414429,13.0932645797729,13.093222618103,13.0931806564331,13.0931386947632,13.0930967330933,13.0930547714233
0,0,0,0,0,0,0,0,0,0,0,0,0,0,0,0,0,0,0,0,0,0,0,0,0,0,0,0,0,0,0,0,0,0,0,0,0,0,0,0,0,0,0,0,0,0,0,0,0,0,0,0,0,0,0,0,0,0,0,0,0,0,0,0,0,0,0,0,0,0,0,0,0,0,0,0,0,0,0,0,0,0,0,0,0,0,0,0,0,0,0,0,0,0,0,0,0,0,0,0,0,0,0,0,0,0,0,0,0,0,0,0,0,0,0,0,0,0,0,0,0,0,0,0,0,13.0959491729736,13.0959072113037,13.0958642959595,13.0958223342896,13.0957803726196,13.0957384109497,13.0956964492798,13.0956544876099,13.0956125259399,13.09557056427,13.0955286026001,13.0954866409302,13.0954446792603,13.0954027175903,13.0953607559204,13.0953187942505,13.0952768325806,13.0952348709106,13.0951929092407,13.0951509475708,13.0951089859009,13.095067024231,13.0950241088867,13.0949821472168,13.0949401855469,13.094898223877,13.094856262207,13.0948143005371,13.0947723388672,13.0947303771973,13.0946884155273,13.0946464538574,13.0946044921875,13.0945625305176,13.0945205688477,13.0944786071777,13.0944366455078,13.0943946838379,13.094352722168,13.094310760498,13.0942687988281,13.0942268371582,13.0941848754883,13.0941429138184,13.0941009521484,13.0940580368042,13.0940160751343,13.0939741134644,13.0939321517944,13.0938901901245,13.0938482284546,13.0938062667847,13.0937643051147,13.0937223434448,13.0936803817749,13.093638420105,13.0935964584351,13.0935544967651,13.0935125350952,13.0934705734253,13.0934286117554,13.0933866500854,13.0933446884155,13.0933027267456,13.0932607650757
0,0,0,0,0,0,0,0,0,0,0,0,0,0,0,0,0,0,0,0,0,0,0,0,0,0,0,0,0,0,0,0,0,0,0,0,0,0,0,0,0,0,0,0,0,0,0,0,0,0,0,0,0,0,0,0,0,0,0,0,0,0,0,0,0,0,0,0,0,0,0,0,0,0,0,0,0,0,0,0,0,0,0,0,0,0,0,0,0,0,0,0,0,0,0,0,0,0,0,0,0,0,0,0,0,0,0,0,0,0,0,0,0,0,0,0,0,0,0,0,0,0,0,0,0,0,0,0,0,0,0,13.0959033966064,13.0958614349365,13.0958194732666,13.0957775115967,13.0957355499268,13.0956935882568,13.0956516265869,13.0956087112427,13.0955667495728,13.0955247879028,13.0954828262329,13.095440864563,13.0953989028931,13.0953569412231,13.0953149795532,13.0952730178833,13.0952310562134,13.0951890945435,13.0951471328735,13.0951051712036,13.0950632095337,13.0950212478638,13.0949792861938,13.0949373245239,13.094895362854,13.0948534011841,13.0948114395142,13.0947685241699,13.0947265625,13.0946846008301,13.0946426391602,13.0946006774902,13.0945587158203,13.0945167541504,13.0944747924805,13.0944328308105,13.0943908691406,13.0943489074707,13.0943069458008,13.0942649841309,13.0942230224609,13.094181060791,13.0941390991211,13.0940971374512,13.0940551757812,13.0940132141113,13.0939712524414,13.0939292907715,13.0938873291016,13.0938453674316,13.0938034057617,13.0937614440918,13.0937194824219,13.093677520752,13.093635559082,13.0935935974121,13.0935516357422,13.0935096740723,13.0934677124023
15.0571918487549,15.0571441650391,15.0570955276489,15.0570468902588,15.056999206543,15.0569505691528,15.0569019317627,0,0,0,0,0,0,0,0,0,0,0,0,0,0,0,0,0,0,0,0,0,0,0,0,0,0,0,0,0,0,0,0,0,0,0,0,0,0,0,0,0,0,0,0,0,0,0,0,0,0,0,0,0,0,0,0,0,0,0,0,0,0,0,0,0,0,0,0,0,0,0,0,0,0,0,0,0,0,0,0,0,0,0,0,0,0,0,0,0,0,0,0,0,0,0,0,0,0,0,0,0,0,0,0,0,0,0,0,0,0,0,0,0,0,0,0,0,0,0,0,0,0,0,0,0,0,0,0,0,0,13.0958576202393,13.0958156585693,13.0957736968994,13.0957317352295,13.0956897735596,13.0956478118896,13.0956058502197,13.0955638885498,13.0955219268799,13.09547996521,13.09543800354,13.0953950881958,13.0953531265259,13.095311164856,13.095269203186,13.0952272415161,13.0951852798462,13.0951433181763,13.0951013565063,13.0950593948364,13.0950174331665,13.0949754714966,13.0949335098267,13.0948915481567,13.0948495864868,13.0948076248169,13.094765663147,13.0947237014771,13.0946817398071,13.0946397781372,13.0945978164673,13.0945558547974,13.0945138931274,13.0944709777832,13.0944290161133,13.0943870544434,13.0943450927734,13.0943031311035,13.0942611694336,13.0942192077637,13.0941772460938,13.0941352844238,13.0940933227539,13.094051361084,13.0940093994141,13.0939674377441,13.0939254760742,13.0938835144043,13.0938415527344,13.0937995910645,13.0937576293945,13.0937156677246,13.0936737060547
15.0574293136597,15.0573816299438,15.0573329925537,15.0572843551636,15.0572366714478,15.0571880340576,15.0571393966675,15.0570917129517,15.0570430755615,15.0569944381714,15.0569467544556,15.0568981170654,15.0568494796753,15.0568017959595,15.0567531585693,15.0567045211792,15.0566568374634,15.0566082000732,15.0565595626831,15.0565118789673,15.0564632415771,15.056414604187,15.0563669204712,15.0563182830811,15.0562696456909,15.0562219619751,0,0,0,0,0,0,0,0,0,0,0,0,0,0,0,0,0,0,0,0,0,0,0,0,0,0,0,0,0,0,0,0,0,0,0,0,0,0,0,0,0,0,0,0,0,0,0,0,0,0,0,0,0,0,0,0,0,0,0,0,0,0,0,0,0,0,0,0,0,0,0,0,0,0,0,0,0,0,0,0,0,0,0,0,0,0,0,0,0,0,0,0,0,0,0,0,0,0,0,0,0,0,0,0,0,0,0,0,0,0,0,0,0,0,0,0,0,13.0958118438721,13.0957698822021,13.0957279205322,13.0956859588623,13.0956439971924,13.0956020355225,13.0955600738525,13.0955181121826,13.0954761505127,13.0954341888428,13.0953922271729,13.0953502655029,13.095308303833,13.0952663421631,13.0952243804932,13.0951824188232,13.095139503479,13.0950975418091,13.0950555801392,13.0950136184692,13.0949716567993,13.0949296951294,13.0948877334595,13.0948457717896,13.0948038101196,13.0947618484497,13.0947198867798,13.0946779251099,13.0946359634399,13.09459400177,13.0945520401001,13.0945100784302,13.0944681167603,13.0944261550903,13.0943841934204,13.0943422317505,13.0943002700806,13.0942583084106,13.0942163467407,13.0941743850708,13.0941324234009,13.094090461731,13.094048500061,13.0940065383911,13.0939645767212,13.0939226150513,13.0938806533813
15.0576667785645,15.0576190948486,15.0575704574585,15.0575218200684,15.0574741363525,15.0574254989624,15.0573768615723,15.0573291778564,15.0572805404663,15.0572319030762,15.0571842193604,15.0571355819702,15.0570869445801,15.0570392608643,15.0569906234741,15.056941986084,15.0568943023682,15.056845664978,15.0567970275879,15.0567493438721,15.0567007064819,15.0566520690918,15.056604385376,15.0565557479858,15.0565071105957,15.0564594268799,15.0564107894897,15.0563621520996,15.0563144683838,15.0562658309937,15.0562171936035,15.0561695098877,15.0561208724976,15.0560722351074,15.0560245513916,15.0559759140015,15.0559272766113,15.0558795928955,15.0558309555054,15.0557823181152,15.0557346343994,15.0556859970093,15.0556373596191,15.0555896759033,0,0,0,0,0,0,0,0,0,0,0,0,0,0,0,0,0,0,0,0,0,0,0,0,0,0,0,0,0,0,0,0,0,0,0,0,0,0,0,0,0,0,0,0,0,0,0,0,0,0,0,0,0,0,0,0,0,0,0,0,0,0,0,0,0,0,0,0,0,0,0,0,0,0,0,0,0,0,0,0,0,0,0,0,0,0,0,0,0,0,0,0,0,0,0,0,0,0,0,0,0,0,0,0,0,13.0957670211792,13.095724105835,13.095682144165,13.0956401824951,13.0955982208252,13.0955562591553,13.0955142974854,13.0954723358154,13.0954303741455,13.0953884124756,13.0953464508057,13.0953044891357,13.0952625274658,13.0952205657959,13.095178604126,13.0951366424561,13.0950946807861,13.0950527191162,13.0950107574463,13.0949687957764,13.0949268341064,13.0948848724365,13.0948419570923,13.0947999954224,13.0947580337524,13.0947160720825,13.0946741104126,13.0946321487427,13.0945901870728,13.0945482254028,13.0945062637329,13.094464302063,13.0944223403931,13.0943803787231,13.0943384170532,13.0942964553833,13.0942544937134,13.0942125320435,13.0941705703735,13.0941286087036,13.0940866470337
15.0579051971436,15.0578565597534,15.0578079223633,15.0577602386475,15.0577116012573,15.0576629638672,15.0576143264771,15.0575666427612,15.0575180053711,15.057469367981,15.0574216842651,15.057373046875,15.0573244094849,15.057276725769,15.0572280883789,15.0571794509888,15.0571317672729,15.0570831298828,15.0570344924927,15.0569868087769,15.0569381713867,15.0568895339966,15.0568418502808,15.0567932128906,15.0567445755005,15.0566968917847,15.0566482543945,15.0565996170044,15.0565519332886,15.0565032958984,15.0564546585083,15.0564069747925,15.0563583374023,15.0563097000122,15.0562620162964,15.0562133789062,15.0561647415161,15.0561170578003,15.0560684204102,15.05601978302,15.0559720993042,15.0559234619141,15.0558748245239,15.0558271408081,15.055778503418,15.0557298660278,15.055682182312,15.0556335449219,15.0555849075317,14.9217510223389,14.921703338623,14.9216547012329,14.9565925598145,14.9949007034302,14.9948530197144,14.9948043823242,14.9947566986084,14.9947080612183,14.9946603775024,14.9946126937866,0,0,0,0,0,0,0,0,0,0,0,0,0,0,0,0,0,0,0,0,0,0,0,0,0,0,0,0,0,0,0,0,0,0,0,0,0,0,0,0,0,0,0,0,0,0,0,0,0,0,0,0,0,0,0,0,0,0,0,0,0,0,0,0,0,0,0,0,0,0,0,0,0,0,0,0,0,0,0,0,0,0,0,0,0,0,0,0,0,0,0,0,0,0,13.0957632064819,13.095721244812,13.0956792831421,13.0956373214722,13.0955953598022,13.0955533981323,13.0955114364624,13.0954685211182,13.0954265594482,13.0953845977783,13.0953426361084,13.0953006744385,13.0952587127686,13.0952167510986,13.0951747894287,13.0951328277588,13.0950908660889,13.0950489044189,13.095006942749,13.0949649810791,13.0949230194092,13.0948810577393,13.0948390960693,13.0947971343994,13.0947551727295,13.0947132110596,13.0946712493896,13.0946292877197,13.0945873260498,13.0945453643799,13.09450340271,13.09446144104,13.0944194793701,13.0943775177002,13.0943355560303,13.0942935943604
15.0581426620483,15.0580940246582,15.0580453872681,15.0579977035522,15.0579490661621,15.057900428772,15.0578527450562,15.057804107666,15.0577554702759,15.0577077865601,15.0576591491699,15.0576105117798,15.057562828064,15.0575141906738,15.0574655532837,15.0574178695679,15.0573692321777,15.0573205947876,15.0572729110718,15.0572242736816,15.0571756362915,15.0571279525757,15.0570793151855,15.0570306777954,15.0569829940796,15.0569343566895,15.0568857192993,15.0568380355835,15.0567893981934,15.0567407608032,15.0566930770874,15.0566444396973,15.0565958023071,15.0565481185913,15.0564994812012,15.056450843811,15.0564031600952,15.0563545227051,15.0563058853149,15.0562582015991,15.056209564209,15.0561609268188,15.056113243103,15.0560646057129,15.0560159683228,15.0559682846069,15.0559196472168,15.0558710098267,15.0558233261108,14.921986579895,14.9219388961792,14.9218902587891,14.9568157196045,14.9951372146606,14.9950895309448,14.9950408935547,14.9949932098389,14.994945526123,14.9948968887329,14.9948492050171,14.994800567627,14.9947528839111,14.994704246521,14.9946565628052,14.994607925415,14.9945602416992,14.9945116043091,14.9944639205933,14.9944152832031,14.9943675994873,14.9943189620972,14.9942712783813,14.9942235946655,14.9941749572754,14.9941272735596,0,0,0,0,0,0,0,0,0,0,0,0,0,0,0,0,0,0,0,0,0,0,0,0,0,0,0,0,0,0,0,0,0,0,0,0,0,0,0,0,0,0,0,0,0,0,0,0,0,0,0,0,0,0,0,0,0,0,0,0,0,0,0,0,0,0,0,0,0,0,0,0,0,0,0,0,0,0,0,0,0,0,0,0,0,13.0957174301147,13.0956754684448,13.0956335067749,13.095591545105,13.0955495834351,13.0955076217651,13.0954656600952,13.0954236984253,13.0953817367554,13.0953397750854,13.0952978134155,13.0952558517456,13.0952129364014,13.0951709747314,13.0951290130615,13.0950870513916,13.0950450897217,13.0950031280518,13.0949611663818,13.0949192047119,13.094877243042,13.0948352813721,13.0947933197021,13.0947513580322,13.0947093963623,13.0946674346924,13.0946254730225,13.0945835113525,13.0945415496826,13.0944995880127
15.0583801269531,15.058331489563,15.0582828521729,15.058235168457,15.0581865310669,15.0581378936768,15.0580902099609,15.0580415725708,15.0579929351807,15.0579452514648,15.0578966140747,15.0578479766846,15.0578002929688,15.0577516555786,15.0577030181885,15.0576553344727,15.0576066970825,15.0575580596924,15.0575103759766,15.0574617385864,15.0574131011963,15.0573654174805,15.0573167800903,15.0572681427002,15.0572204589844,15.0571718215942,15.0571231842041,15.0570755004883,15.0570268630981,15.056978225708,15.0569305419922,15.0568819046021,15.0568332672119,15.0567855834961,15.056736946106,15.0566883087158,15.056640625,15.0565919876099,15.0565433502197,15.0564956665039,15.0564470291138,15.0563983917236,15.0563507080078,15.0563020706177,15.0562534332275,15.0562057495117,15.0561571121216,15.0561084747314,15.0560607910156,14.9222221374512,14.9221744537354,14.9221258163452,14.9570398330688,14.9953737258911,14.9953260421753,14.9952783584595,14.9952297210693,14.9951820373535,14.9951333999634,14.9950857162476,14.9950370788574,14.9949893951416,14.9949407577515,14.9948930740356,14.9948444366455,14.9947967529297,14.9947481155396,14.9947004318237,14.9946517944336,14.9946041107178,14.994556427002,14.9945077896118,14.994460105896,14.9944114685059,14.99436378479,14.9943151473999,14.9942674636841,14.9942188262939,14.9941711425781,14.994122505188,14.9940748214722,14.994026184082,14.9939785003662,14.9939308166504,14.9938821792603,14.9938344955444,14.9937858581543,14.9937381744385,14.9936895370483,14.9203062057495,14.9202585220337,0,0,0,0,0,0,0,0,0,0,0,0,0,0,0,0,0,0,0,0,0,0,0,0,0,0,0,0,0,0,0,0,0,0,0,0,0,0,0,0,0,0,0,0,0,0,0,0,0,0,0,0,0,0,0,0,0,0,0,0,0,0,0,0,0,0,0,0,0,0,0,0,0,0,13.0957136154175,13.0956716537476,13.0956296920776,13.0955877304077,13.0955457687378,13.0955038070679,13.0954618453979,13.095419883728,13.0953779220581,13.0953359603882,13.0952939987183,13.0952520370483,13.0952100753784,13.0951681137085,13.0951261520386,13.0950841903687,13.0950422286987,13.0950002670288,13.0949583053589,13.094916343689,13.094874382019,13.0948324203491,13.0947904586792,13.0947484970093,13.0947065353394
15.0586175918579,15.0585689544678,15.058521270752,15.0584726333618,15.0584239959717,15.0583763122559,15.0583276748657,15.0582790374756,15.0582313537598,15.0581827163696,15.0581340789795,15.0580854415894,15.0580377578735,15.0579891204834,15.0579404830933,15.0578927993774,15.0578441619873,15.0577955245972,15.0577478408813,15.0576992034912,15.0576505661011,15.0576028823853,15.0575542449951,15.057505607605,15.0574579238892,15.057409286499,15.0573606491089,15.0573129653931,15.0572643280029,15.0572156906128,15.057168006897,15.0571193695068,15.0570707321167,15.0570230484009,15.0569744110107,15.0569257736206,15.0568780899048,15.0568294525146,15.0567808151245,15.0567331314087,15.0566844940186,15.0566358566284,15.0565881729126,15.0565395355225,15.0564908981323,15.0564432144165,15.0563945770264,15.0563459396362,15.0562982559204,14.9224576950073,14.9224100112915,14.9223613739014,14.9572639465332,14.9956111907959,14.9955625534058,14.9955148696899,14.9954662322998,14.995418548584,14.9953699111938,14.995322227478,14.9952735900879,14.9952259063721,14.9951772689819,14.9951295852661,14.995080947876,14.9950332641602,14.99498462677,14.9949369430542,14.9948883056641,14.9948406219482,14.9947929382324,14.9947443008423,14.9946966171265,14.9946479797363,14.9946002960205,14.9945516586304,14.9945039749146,14.9944553375244,14.9944076538086,14.9943590164185,14.9943113327026,14.9942626953125,14.9942150115967,14.9941673278809,14.9941186904907,14.9940710067749,14.9940223693848,14.9939746856689,14.9939260482788,14.9205417633057,14.9204940795898,14.920446395874,14.9728164672852,15.0405826568604,15.1042938232422,15.1371831893921,15.1371355056763,15.1370868682861,15.137038230896,15.1369895935059,15.1369409561157,15.1368923187256,15.1368436813354,15.1367950439453,15.1367464065552,15.136697769165,0,0,0,0,0,0,0,0,0,0,0,0,0,0,0,0,0,0,0,0,0,0,0,0,0,0,0,0,0,0,0,0,0,0,0,0,0,0,0,0,0,0,0,0,0,0,0,0,0,0,0,0,0,0,0,0,0,0,0,0,13.0958786010742,13.0958366394043,13.0957946777344,13.0957527160645,13.0957107543945,13.0956687927246,13.0956268310547,13.0955839157104,13.0955419540405,13.0954999923706,13.0954580307007,13.0954160690308,13.0953741073608,13.0953321456909,13.095290184021,13.0952482223511,13.0952062606812,13.0951642990112,13.0951223373413,13.0950803756714,13.0950384140015,13.0949964523315,13.0949544906616,13.0949125289917
15.0588550567627,15.0588064193726,15.0587587356567,15.0587100982666,15.0586614608765,15.0586137771606,15.0585651397705,15.0585165023804,15.0584688186646,15.0584201812744,15.0583715438843,15.0583238601685,15.0582752227783,15.0582265853882,15.0581789016724,15.0581302642822,15.0580816268921,15.0580339431763,15.0579853057861,15.057936668396,15.0578889846802,15.05784034729,15.0577917098999,15.0577430725098,15.0576953887939,15.0576467514038,15.0575981140137,15.0575504302979,15.0575017929077,15.0574531555176,15.0574054718018,15.0573568344116,15.0573081970215,15.0572605133057,15.0572118759155,15.0571632385254,15.0571155548096,15.0570669174194,15.0570182800293,15.0569705963135,15.0569219589233,15.0568733215332,15.0568256378174,15.0567770004272,15.0567283630371,15.0566806793213,15.0566320419312,15.056583404541,15.0565357208252,14.9226932525635,14.9226446151733,14.9225969314575,14.9574880599976,14.9958477020264,14.9957990646362,14.9957513809204,14.9957027435303,14.9956550598145,14.9956064224243,14.9955587387085,14.9955101013184,14.9954624176025,14.9954137802124,14.9953660964966,14.9953174591064,14.9952697753906,14.9952211380005,14.9951734542847,14.9951257705688,14.9950771331787,14.9950294494629,14.9949808120728,14.9949331283569,14.9948844909668,14.994836807251,14.9947881698608,14.994740486145,14.9946918487549,14.9946441650391,14.9945955276489,14.9945478439331,14.9945001602173,14.9944515228271,14.9944038391113,14.9943552017212,14.9943075180054,14.9942588806152,14.9942111968994,14.9941625595093,14.9207773208618,14.920729637146,14.9206819534302,14.9730806350708,15.0408496856689,15.1045637130737,15.1374225616455,15.1373739242554,15.1373252868652,15.1372766494751,15.137228012085,15.1371793746948,15.1371307373047,15.1370820999146,15.1370334625244,15.1369848251343,15.1369361877441,15.136887550354,15.1368389129639,15.1367902755737,15.1367416381836,15.1366939544678,15.1366453170776,15.1365966796875,15.1365480422974,15.1364994049072,15.1364507675171,15.136402130127,15.1363534927368,15.1363048553467,0,0,0,0,0,0,0,0,0,0,0,0,0,0,0,0,0,0,0,0,0,0,0,0,0,0,0,0,0,0,0,0,0,0,0,0,0,0,0,0,0,0,0,0,0,0,13.0961265563965,13.0960845947266,13.0960426330566,13.0960006713867,13.0959587097168,13.0959167480469,13.095874786377,13.095832824707,13.0957908630371,13.0957489013672,13.0957069396973,13.0956649780273,13.0956230163574,13.0955810546875,13.0955390930176,13.0954971313477,13.0954551696777,13.0954132080078,13.0953712463379,13.095329284668,13.095287322998,13.0952453613281,13.0952033996582,13.0951614379883,13.0951194763184
15.0590925216675,15.0590448379517,15.0589962005615,15.0589475631714,15.0588998794556,15.0588512420654,15.0588026046753,15.0587539672852,15.0587062835693,15.0586576461792,15.0586090087891,15.0585613250732,15.0585126876831,15.058464050293,15.0584163665771,15.058367729187,15.0583190917969,15.0582714080811,15.0582227706909,15.0581741333008,15.058126449585,15.0580778121948,15.0580291748047,15.0579814910889,15.0579328536987,15.0578842163086,15.0578365325928,15.0577878952026,15.0577392578125,15.0576915740967,15.0576429367065,15.0575942993164,15.0575466156006,15.0574979782104,15.0574493408203,15.0574016571045,15.0573530197144,15.0573043823242,15.0572566986084,15.0572080612183,15.0571594238281,15.0571117401123,15.0570631027222,15.057014465332,15.0569667816162,15.0569181442261,15.0568695068359,15.0568208694458,15.05677318573,14.9229288101196,14.9228801727295,14.9228324890137,14.9577121734619,14.9960842132568,14.9960355758667,14.9959878921509,14.9959392547607,14.9958915710449,14.9958429336548,14.995795249939,14.9957466125488,14.995698928833,14.9956502914429,14.9956026077271,14.9955549240112,14.9955062866211,14.9954586029053,14.9954099655151,14.9953622817993,14.9953136444092,14.9952659606934,14.9952173233032,14.9951696395874,14.9951210021973,14.9950733184814,14.9950246810913,14.9949769973755,14.9949283599854,14.9948806762695,14.9948320388794,14.9947843551636,14.9947366714478,14.9946880340576,14.9946403503418,14.9945917129517,14.9945440292358,14.9944953918457,14.9944477081299,14.9943990707397,14.921012878418,14.9209651947021,14.9209175109863,14.9733448028564,15.0411167144775,15.1048345565796,15.1376609802246,15.1376132965088,15.1375637054443,15.1375150680542,15.1374664306641,15.1374177932739,15.1373691558838,15.1373205184937,15.1372728347778,15.1372241973877,15.1371755599976,15.1371269226074,15.1370782852173,15.1370296478271,15.136981010437,15.1369323730469,15.1368837356567,15.1368350982666,15.1367864608765,15.1367378234863,15.1366891860962,15.1366405487061,15.1365919113159,15.1365432739258,15.1364946365356,13.0982246398926,13.0981826782227,13.0981407165527,13.0980987548828,13.0980567932129,13.0980138778687,13.0979719161987,13.0979299545288,13.0978879928589,13.097846031189,13.097804069519,13.0977621078491,0,0,0,0,0,0,0,0,0,0,0,0,0,0,0,0,0,0,0,0,0,0,0,0,0,0,0,0,0,0,0,13.096417427063,13.0963754653931,13.0963335037231,13.0962915420532,13.0962495803833,13.0962076187134,13.0961656570435,13.0961236953735,13.0960817337036,13.0960397720337,13.0959978103638,13.0959558486938,13.0959138870239,13.0958709716797,13.0958290100098,13.0957870483398,13.0957450866699,13.095703125,13.0956611633301,13.0956192016602,13.0955772399902,13.0955352783203,13.0954933166504,13.0954513549805,13.0954093933105,13.0953674316406,13.0953254699707
15.0593299865723,15.0592823028564,15.0592336654663,15.0591850280762,15.0591373443604,15.0590887069702,15.0590400695801,15.0589923858643,15.0589437484741,15.058895111084,15.0588474273682,15.058798789978,15.0587501525879,15.0587024688721,15.0586538314819,15.0586051940918,15.0585565567017,15.0585088729858,15.0584602355957,15.0584115982056,15.0583639144897,15.0583152770996,15.0582666397095,15.0582189559937,15.0581703186035,15.0581216812134,15.0580739974976,15.0580253601074,15.0579767227173,15.0579290390015,15.0578804016113,15.0578317642212,15.0577840805054,15.0577354431152,15.0576868057251,15.0576391220093,15.0575904846191,15.057541847229,15.0574941635132,15.057445526123,15.0573968887329,15.0573492050171,15.057300567627,15.0572519302368,15.057204246521,15.0571556091309,15.0571069717407,15.0570592880249,15.0570106506348,14.9231643676758,14.9231157302856,14.9230670928955,14.9579362869263,14.9963207244873,14.9962720870972,14.9962244033813,14.9961757659912,14.9961280822754,14.9960794448853,14.9960317611694,14.9959831237793,14.9959354400635,14.9958877563477,14.9958391189575,14.9957914352417,14.9957427978516,14.9956951141357,14.9956464767456,14.9955987930298,14.9955501556396,14.9955024719238,14.9954538345337,14.9954061508179,14.9953575134277,14.9953098297119,14.9952611923218,14.995213508606,14.9951648712158,14.9951171875,14.9950695037842,14.995020866394,14.9949731826782,14.9949245452881,14.9948768615723,14.9948282241821,14.9947805404663,14.9947319030762,14.9946842193604,14.9946355819702,14.9212484359741,14.9212007522583,14.9211521148682,14.9736089706421,15.0413837432861,15.1051054000854,15.137900352478,15.1378517150879,15.1378030776978,15.1377544403076,15.1377058029175,15.1376571655273,15.1376085281372,15.1375598907471,15.1375112533569,15.1374626159668,15.1374139785767,15.1373653411865,15.1373167037964,15.1372680664062,15.1372194290161,15.137170791626,15.1371221542358,15.1370735168457,15.1370248794556,15.1369762420654,15.1369276046753,15.1368789672852,15.1368312835693,15.1367826461792,15.1367340087891,13.0984306335449,13.098388671875,13.0983467102051,13.0983047485352,13.0982627868652,13.0982208251953,13.0981788635254,13.0981369018555,13.0980949401855,13.0980529785156,13.0980110168457,13.0979690551758,13.0979270935059,13.0978851318359,13.097843170166,13.0978002548218,13.0977582931519,13.0977163314819,13.097674369812,13.0976324081421,13.0975904464722,13.0975484848022,13.0975065231323,13.0974645614624,13.0974225997925,0,0,0,0,0,0,0,0,0,0,0,0,0,0,0,13.0967502593994,13.0967082977295,13.0966663360596,13.0966243743896,13.0965824127197,13.0965404510498,13.0964984893799,13.09645652771,13.0964136123657,13.0963716506958,13.0963296890259,13.096287727356,13.096245765686,13.0962038040161,13.0961618423462,13.0961198806763,13.0960779190063,13.0960359573364,13.0959939956665,13.0959520339966,13.0959100723267,13.0958681106567,13.0958261489868,13.0957841873169,13.095742225647,13.0957002639771,13.0956583023071,13.0956163406372,13.0955743789673,13.0955324172974
15.0595684051514,15.0595197677612,15.0594711303711,15.0594234466553,15.0593748092651,15.059326171875,15.0592775344849,15.059229850769,15.0591812133789,15.0591325759888,15.0590848922729,15.0590362548828,15.0589876174927,15.0589399337769,15.0588912963867,15.0588426589966,15.0587949752808,15.0587463378906,15.0586977005005,15.0586500167847,15.0586013793945,15.0585527420044,15.0585050582886,15.0584564208984,15.0584077835083,15.0583600997925,15.0583114624023,15.0582628250122,15.0582141876221,15.0581665039062,15.0581178665161,15.058069229126,15.0580215454102,15.05797290802,15.0579242706299,15.0578765869141,15.0578279495239,15.0577793121338,15.057731628418,15.0576829910278,15.0576343536377,15.0575866699219,15.0575380325317,15.0574893951416,15.0574417114258,15.0573930740356,15.0573444366455,15.0572967529297,15.0572481155396,14.9233989715576,14.9233512878418,14.9233026504517,14.9581604003906,14.9965572357178,14.9965085983276,14.9964609146118,14.9964122772217,14.9963645935059,14.99631690979,14.9962682723999,14.9962205886841,14.9961719512939,14.9961242675781,14.996075630188,14.9960279464722,14.995979309082,14.9959316253662,14.9958829879761,14.9958353042603,14.9957866668701,14.9957389831543,14.9956903457642,14.9956426620483,14.9955940246582,14.9955463409424,14.9954977035522,14.9954500198364,14.9954023361206,14.9953536987305,14.9953060150146,14.9952573776245,14.9952096939087,14.9951610565186,14.9951133728027,14.9950647354126,14.9950170516968,14.9949684143066,14.9949207305908,14.994873046875,14.921483039856,14.9214353561401,14.9213876724243,14.9738731384277,15.0416507720947,15.105375289917,15.1381387710571,15.138090133667,15.1380414962769,15.1379928588867,15.1379442214966,15.1378955841064,15.1378469467163,15.1377983093262,15.137749671936,15.1377010345459,15.1376523971558,15.1376037597656,15.1375551223755,15.1375064849854,15.1374578475952,15.1374101638794,15.1373615264893,15.1373128890991,15.137264251709,15.1372156143188,15.1371669769287,15.1371183395386,15.1370697021484,15.1370210647583,15.1369724273682,13.0986375808716,13.0985956192017,13.0985536575317,13.0985116958618,13.0984697341919,13.098427772522,13.0983858108521,13.0983438491821,13.0983018875122,13.098258972168,13.098217010498,13.0981750488281,13.0981330871582,13.0980911254883,13.0980491638184,13.0980072021484,13.0979652404785,13.0979232788086,13.0978813171387,13.0978393554688,13.0977973937988,13.0977554321289,13.097713470459,13.0976715087891,13.0976285934448,13.0975866317749,13.097544670105,13.0975027084351,13.0974607467651,13.0974187850952,13.0973768234253,13.0973348617554,13.0972929000854,13.0972509384155,13.0972089767456,13.0971670150757,13.0971250534058,13.0970830917358,13.0970411300659,13.096999168396,13.0969562530518,13.0969142913818,13.0968723297119,13.096830368042,13.0967884063721,13.0967464447021,13.0967044830322,13.0966625213623,13.0966205596924,13.0965785980225,13.0965366363525,13.0964946746826,13.0964527130127,13.0964107513428,13.0963687896729,13.0963268280029,13.096284866333,13.0962429046631,13.0962009429932,13.0961589813232,13.096116065979,13.0960741043091,13.0960321426392,13.0959901809692,13.0959482192993,13.0959062576294,13.0958642959595,13.0958223342896,13.0957803726196,13.0957384109497
15.0598058700562,15.059757232666,15.0597085952759,15.0596609115601,15.0596122741699,15.0595636367798,15.059515953064,15.0594673156738,15.0594186782837,15.0593709945679,15.0593223571777,15.0592737197876,15.0592260360718,15.0591773986816,15.0591287612915,15.0590801239014,15.0590324401855,15.0589838027954,15.0589351654053,15.0588874816895,15.0588388442993,15.0587902069092,15.0587425231934,15.0586938858032,15.0586452484131,15.0585975646973,15.0585489273071,15.058500289917,15.0584526062012,15.058403968811,15.0583553314209,15.0583076477051,15.0582590103149,15.0582103729248,15.058162689209,15.0581140518188,15.0580654144287,15.0580177307129,15.0579690933228,15.0579204559326,15.0578727722168,15.0578241348267,15.0577754974365,15.0577268600464,15.0576791763306,15.0576305389404,15.0575819015503,15.0575342178345,15.0574855804443,14.9236345291138,14.9235868453979,14.9235382080078,14.9583835601807,14.9967937469482,14.9967460632324,14.9966974258423,14.9966497421265,14.9966011047363,14.9965534210205,14.9965047836304,14.9964570999146,14.9964084625244,14.9963607788086,14.9963121414185,14.9962644577026,14.9962158203125,14.9961681365967,14.9961194992065,14.9960718154907,14.9960231781006,14.9959754943848,14.9959268569946,14.9958791732788,14.995831489563,14.9957828521729,14.995735168457,14.9956865310669,14.9956388473511,14.9955902099609,14.9955425262451,14.995493888855,14.9954462051392,14.995397567749,14.9953498840332,14.9953012466431,14.9952535629272,14.9952058792114,14.9951572418213,14.9951095581055,14.9217185974121,14.9216709136963,14.9216232299805,14.9741373062134,15.0419187545776,15.1056442260742,15.1383771896362,15.1383295059204,15.138279914856,15.1382312774658,15.1381826400757,15.1381340026855,15.1380863189697,15.1380376815796,15.1379890441895,15.1379404067993,15.1378917694092,15.137843132019,15.1377944946289,15.1377458572388,15.1376972198486,15.1376485824585,15.1375999450684,15.1375513076782,15.1375026702881,15.1374540328979,15.1374053955078,15.1373567581177,15.1373081207275,15.1372594833374,15.1372108459473,13.0988445281982,13.0988025665283,13.0987606048584,13.0987186431885,13.0986757278442,13.0986337661743,13.0985918045044,13.0985498428345,13.0985078811646,13.0984659194946,13.0984239578247,13.0983819961548,13.0983400344849,13.0982980728149,13.098256111145,13.0982141494751,13.0981721878052,13.0981302261353,13.098087310791,13.0980453491211,13.0980033874512,13.0979614257812,13.0979194641113,13.0978775024414,13.0978355407715,13.0977935791016,13.0977516174316,13.0977096557617,13.0976676940918,13.0976257324219,13.097583770752,13.097541809082,13.0974998474121,13.0974578857422,13.0974149703979,13.097373008728,13.0973310470581,13.0972890853882,13.0972471237183,13.0972051620483,13.0971632003784,13.0971212387085,13.0970792770386,13.0970373153687,13.0969953536987,13.0969533920288,13.0969114303589,13.096869468689,13.096827507019,13.0967855453491,13.0967426300049,13.096700668335,13.096658706665,13.0966167449951,13.0965747833252,13.0965328216553,13.0964908599854,13.0964488983154,13.0964069366455,13.0963649749756,13.0963230133057,13.0962810516357,13.0962390899658,13.0961971282959,13.096155166626,13.0961132049561,13.0960712432861,13.0960292816162,13.0959873199463,13.0959453582764
15.0600433349609,15.0599946975708,15.059947013855,15.0598983764648,15.0598497390747,15.0598011016846,15.0597534179688,15.0597047805786,15.0596561431885,15.0596084594727,15.0595598220825,15.0595111846924,15.0594635009766,15.0594148635864,15.0593662261963,15.0593185424805,15.0592699050903,15.0592212677002,15.0591735839844,15.0591249465942,15.0590763092041,15.0590286254883,15.0589799880981,15.058931350708,15.0588836669922,15.0588350296021,15.0587863922119,15.0587377548218,15.058690071106,15.0586414337158,15.0585927963257,15.0585451126099,15.0584964752197,15.0584478378296,15.0584001541138,15.0583515167236,15.0583028793335,15.0582551956177,15.0582065582275,15.0581579208374,15.0581102371216,15.0580615997314,15.0580129623413,15.0579652786255,15.0579166412354,15.0578680038452,15.0578203201294,15.0577716827393,15.0577230453491,14.9238700866699,14.9238224029541,14.923773765564,14.958607673645,14.9970302581787,14.9969825744629,14.9969339370728,14.9968862533569,14.9968376159668,14.996789932251,14.9967412948608,14.996693611145,14.9966449737549,14.9965972900391,14.9965486526489,14.9965009689331,14.996452331543,14.9964046478271,14.996356010437,14.9963083267212,14.9962606430054,14.9962120056152,14.9961643218994,14.9961156845093,14.9960680007935,14.9960193634033,14.9959716796875,14.9959230422974,14.9958753585815,14.9958267211914,14.9957790374756,14.9957304000854,14.9956827163696,14.9956340789795,14.9955863952637,14.9955387115479,14.9954900741577,14.9954423904419,14.9953937530518,14.9953460693359,14.9219541549683,14.9219064712524,14.9218587875366,14.9744005203247,15.0421857833862,15.1059103012085,15.1386165618896,15.1385679244995,15.1385192871094,15.1384706497192,15.1384220123291,15.138373374939,15.1383247375488,15.1382761001587,15.1382274627686,15.1381788253784,15.1381301879883,15.1380815505981,15.138032913208,15.1379842758179,15.1379356384277,15.1378870010376,15.1378383636475,15.1377897262573,15.1377410888672,15.1376924514771,15.1376438140869,15.1375961303711,15.137547492981,15.1374988555908,15.1374502182007,13.0990505218506,13.0990085601807,13.0989665985107,13.0989246368408,13.0988826751709,13.098840713501,13.0987987518311,13.0987567901611,13.0987148284912,13.0986728668213,13.0986309051514,13.0985889434814,13.0985469818115,13.0985040664673,13.0984621047974,13.0984201431274,13.0983781814575,13.0983362197876,13.0982942581177,13.0982522964478,13.0982103347778,13.0981683731079,13.098126411438,13.0980844497681,13.0980424880981,13.0980005264282,13.0979585647583,13.0979166030884,13.0978736877441,13.0978317260742,13.0977897644043,13.0977478027344,13.0977058410645,13.0976638793945,13.0976219177246,13.0975799560547,13.0975379943848,13.0974960327148,13.0974540710449,13.097412109375,13.0973701477051,13.0973281860352,13.0972862243652,13.0972442626953,13.0972013473511,13.0971593856812,13.0971174240112,13.0970754623413,13.0970335006714,13.0969915390015,13.0969495773315,13.0969076156616,13.0968656539917,13.0968236923218,13.0967817306519,13.0967397689819,13.096697807312,13.0966558456421,13.0966138839722,13.0965719223022,13.0965299606323,13.0964879989624,13.0964460372925,13.0964040756226,13.0963611602783,13.0963191986084,13.0962772369385,13.0962352752686,13.0961933135986,13.0961513519287
15.0602807998657,15.0602321624756,15.0601844787598,15.0601358413696,15.0600872039795,15.0600395202637,15.0599908828735,15.0599422454834,15.0598945617676,15.0598459243774,15.0597972869873,15.0597496032715,15.0597009658813,15.0596523284912,15.0596046447754,15.0595560073853,15.0595073699951,15.059458732605,15.0594110488892,15.059362411499,15.0593137741089,15.0592660903931,15.0592174530029,15.0591688156128,15.059121131897,15.0590724945068,15.0590238571167,15.0589761734009,15.0589275360107,15.0588788986206,15.0588312149048,15.0587825775146,15.0587339401245,15.0586862564087,15.0586376190186,15.0585889816284,15.0585403442383,15.0584926605225,15.0584440231323,15.0583953857422,15.0583477020264,15.0582990646362,15.0582504272461,15.0582027435303,15.0581541061401,15.05810546875,15.0580577850342,15.058009147644,15.0579605102539,14.9241056442261,14.9240579605103,14.9240093231201,14.9588317871094,14.9972667694092,14.9972190856934,14.9971704483032,14.9971227645874,14.9970741271973,14.9970264434814,14.9969778060913,14.9969301223755,14.9968814849854,14.9968338012695,14.9967861175537,14.9967374801636,14.9966897964478,14.9966411590576,14.9965934753418,14.9965448379517,14.9964971542358,14.9964485168457,14.9964008331299,14.9963521957397,14.9963045120239,14.9962558746338,14.996208190918,14.9961595535278,14.996111869812,14.9960632324219,14.9960155487061,14.9959669113159,14.9959192276001,14.9958715438843,14.9958229064941,14.9957752227783,14.9957265853882,14.9956789016724,14.9956302642822,14.9955825805664,14.9221897125244,14.9221420288086,14.9220943450928,14.9746646881104,15.0424528121948,15.1061773300171,15.1388549804688,15.1388072967529,15.1387577056885,15.1387090682983,15.1386604309082,15.1386117935181,15.1385631561279,15.1385145187378,15.1384658813477,15.1384172439575,15.1383686065674,15.1383199691772,15.1382722854614,15.1382236480713,15.1381750106812,15.138126373291,15.1380777359009,15.1380290985107,15.1379804611206,15.1379318237305,15.1378831863403,15.1378345489502,15.1377859115601,15.1377372741699,15.1376886367798,13.0992574691772,13.0992155075073,13.0991735458374,13.0991315841675,13.0990896224976,13.0990476608276,13.0990056991577,13.0989637374878,13.0989208221436,13.0988788604736,13.0988368988037,13.0987949371338,13.0987529754639,13.0987110137939,13.098669052124,13.0986270904541,13.0985851287842,13.0985431671143,13.0985012054443,13.0984592437744,13.0984172821045,13.0983753204346,13.0983324050903,13.0982904434204,13.0982484817505,13.0982065200806,13.0981645584106,13.0981225967407,13.0980806350708,13.0980386734009,13.097996711731,13.097954750061,13.0979127883911,13.0978708267212,13.0978288650513,13.0977869033813,13.0977449417114,13.0977020263672,13.0976600646973,13.0976181030273,13.0975761413574,13.0975341796875,13.0974922180176,13.0974502563477,13.0974082946777,13.0973663330078,13.0973243713379,13.097282409668,13.097240447998,13.0971984863281,13.0971565246582,13.0971145629883,13.0970726013184,13.0970296859741,13.0969877243042,13.0969457626343,13.0969038009644,13.0968618392944,13.0968198776245,13.0967779159546,13.0967359542847,13.0966939926147,13.0966520309448,13.0966100692749,13.096568107605,13.0965261459351,13.0964841842651,13.0964422225952,13.0964002609253,13.0963582992554
15.0605182647705,15.0604705810547,15.0604219436646,15.0603733062744,15.0603256225586,15.0602769851685,15.0602283477783,15.0601797103882,15.0601320266724,15.0600833892822,15.0600347518921,15.0599870681763,15.0599384307861,15.059889793396,15.0598421096802,15.05979347229,15.0597448348999,15.0596971511841,15.0596485137939,15.0595998764038,15.059552192688,15.0595035552979,15.0594549179077,15.0594072341919,15.0593585968018,15.0593099594116,15.0592613220215,15.0592136383057,15.0591650009155,15.0591163635254,15.0590686798096,15.0590200424194,15.0589714050293,15.0589237213135,15.0588750839233,15.0588264465332,15.0587787628174,15.0587301254272,15.0586814880371,15.0586338043213,15.0585851669312,15.058536529541,15.0584888458252,15.0584402084351,15.0583915710449,15.0583438873291,15.058295249939,15.0582466125488,15.0581979751587,14.9243412017822,14.9242935180664,14.9242448806763,14.9590559005737,14.9975032806396,14.9974555969238,14.9974069595337,14.9973592758179,14.9973115921021,14.9972629547119,14.9972152709961,14.997166633606,14.9971189498901,14.9970703125,14.9970226287842,14.996973991394,14.9969263076782,14.9968776702881,14.9968299865723,14.9967813491821,14.9967336654663,14.9966850280762,14.9966373443604,14.9965887069702,14.9965410232544,14.9964923858643,14.9964447021484,14.9963960647583,14.9963483810425,14.9962997436523,14.9962520599365,14.9962043762207,14.9961557388306,14.9961080551147,14.9960594177246,14.9960117340088,14.9959630966187,14.9959154129028,14.9958667755127,14.9958190917969,14.9224252700806,14.9223775863647,14.9223299026489,14.974928855896,15.0427198410034,15.1064434051514,15.1390943527222,15.139045715332,15.1389970779419,15.1389484405518,15.1388998031616,15.1388511657715,15.1388025283813,15.1387538909912,15.1387052536011,15.1386566162109,15.1386079788208,15.1385593414307,15.1385107040405,15.1384620666504,15.1384134292603,15.1383647918701,15.13831615448,15.1382675170898,15.1382188796997,15.1381702423096,15.1381216049194,15.1380729675293,15.1380243301392,15.137975692749,15.1379270553589,13.0994644165039,13.099422454834,13.0993804931641,13.0993385314941,13.0992956161499,13.09925365448,13.0992116928101,13.0991697311401,13.0991277694702,13.0990858078003,13.0990438461304,13.0990018844604,13.0989599227905,13.0989179611206,13.0988759994507,13.0988340377808,13.0987920761108,13.0987491607666,13.0987071990967,13.0986652374268,13.0986232757568,13.0985813140869,13.098539352417,13.0984973907471,13.0984554290771,13.0984134674072,13.0983715057373,13.0983295440674,13.0982875823975,13.0982456207275,13.0982036590576,13.0981616973877,13.0981187820435,13.0980768203735,13.0980348587036,13.0979928970337,13.0979509353638,13.0979089736938,13.0978670120239,13.097825050354,13.0977830886841,13.0977411270142,13.0976991653442,13.0976572036743,13.0976152420044,13.0975732803345,13.0975313186646,13.0974884033203,13.0974464416504,13.0974044799805,13.0973625183105,13.0973205566406,13.0972785949707,13.0972366333008,13.0971946716309,13.0971527099609,13.097110748291,13.0970687866211,13.0970268249512,13.0969848632812,13.0969429016113,13.0969009399414,13.0968589782715,13.0968170166016,13.0967750549316,13.0967330932617,13.0966911315918,13.0966491699219,13.0966062545776,13.0965642929077
15.0607557296753,15.0607080459595,15.0606594085693,15.0606107711792,15.0605630874634,15.0605144500732,15.0604658126831,15.0604181289673,15.0603694915771,15.060320854187,15.0602731704712,15.0602245330811,15.0601758956909,15.0601282119751,15.060079574585,15.0600309371948,15.0599822998047,15.0599346160889,15.0598859786987,15.0598373413086,15.0597896575928,15.0597410202026,15.0596923828125,15.0596446990967,15.0595960617065,15.0595474243164,15.0594997406006,15.0594511032104,15.0594024658203,15.0593547821045,15.0593061447144,15.0592575073242,15.0592098236084,15.0591611862183,15.0591125488281,15.059063911438,15.0590162277222,15.058967590332,15.0589189529419,15.0588712692261,15.0588226318359,15.0587739944458,15.05872631073,15.0586776733398,15.0586290359497,15.0585813522339,15.0585327148438,15.0584840774536,15.0584363937378,14.9245767593384,14.9245290756226,14.9244804382324,14.9592800140381,14.9977407455444,14.9976921081543,14.9976444244385,14.9975957870483,14.9975481033325,14.9974994659424,14.9974517822266,14.9974031448364,14.9973554611206,14.9973068237305,14.9972591400146,14.9972105026245,14.9971628189087,14.9971141815186,14.9970664978027,14.9970178604126,14.9969701766968,14.9969215393066,14.9968738555908,14.9968252182007,14.9967775344849,14.9967288970947,14.9966812133789,14.9966335296631,14.9965848922729,14.9965372085571,14.996488571167,14.9964408874512,14.996392250061,14.9963445663452,14.9962959289551,14.9962482452393,14.9961996078491,14.9961519241333,14.9961032867432,14.9960556030273,14.9226608276367,14.9226131439209,14.9225645065308,14.9751930236816,15.042986869812,15.1067094802856,15.1393327713013,15.1392841339111,15.139235496521,15.1391868591309,15.1391382217407,15.1390895843506,15.1390409469604,15.1389923095703,15.1389436721802,15.13889503479,15.1388463973999,15.1387977600098,15.1387491226196,15.1387004852295,15.1386518478394,15.1386032104492,15.1385545730591,15.1385059356689,15.1384582519531,15.138409614563,15.1383609771729,15.1383123397827,15.1382637023926,15.1382150650024,15.1381664276123,13.0996704101562,13.0996284484863,13.0995864868164,13.0995445251465,13.0995025634766,13.0994606018066,13.0994186401367,13.0993766784668,13.0993347167969,13.099292755127,13.099250793457,13.0992088317871,13.0991668701172,13.0991239547729,13.099081993103,13.0990400314331,13.0989980697632,13.0989561080933,13.0989141464233,13.0988721847534,13.0988302230835,13.0987882614136,13.0987462997437,13.0987043380737,13.0986623764038,13.0986204147339,13.0985774993896,13.0985355377197,13.0984935760498,13.0984516143799,13.09840965271,13.09836769104,13.0983257293701,13.0982837677002,13.0982418060303,13.0981998443604,13.0981578826904,13.0981159210205,13.0980739593506,13.0980319976807,13.0979900360107,13.0979471206665,13.0979051589966,13.0978631973267,13.0978212356567,13.0977792739868,13.0977373123169,13.097695350647,13.0976533889771,13.0976114273071,13.0975694656372,13.0975275039673,13.0974855422974,13.0974435806274,13.0974016189575,13.0973596572876,13.0973176956177,13.0972747802734,13.0972328186035,13.0971908569336,13.0971488952637,13.0971069335938,13.0970649719238,13.0970230102539,13.096981048584,13.0969390869141,13.0968971252441,13.0968551635742,13.0968132019043,13.0967712402344
15.0609941482544,15.0609455108643,15.0608968734741,15.0608491897583,15.0608005523682,15.060751914978,15.0607042312622,15.0606555938721,15.0606069564819,15.0605583190918,15.060510635376,15.0604619979858,15.0604133605957,15.0603656768799,15.0603170394897,15.0602684020996,15.0602207183838,15.0601720809937,15.0601234436035,15.0600757598877,15.0600271224976,15.0599784851074,15.0599308013916,15.0598821640015,15.0598335266113,15.0597858428955,15.0597372055054,15.0596885681152,15.0596399307251,15.0595922470093,15.0595436096191,15.059494972229,15.0594472885132,15.059398651123,15.0593500137329,15.0593023300171,15.059253692627,15.0592050552368,15.059157371521,15.0591087341309,15.0590600967407,15.0590124130249,15.0589637756348,15.0589151382446,15.0588665008545,15.0588188171387,15.0587701797485,15.0587215423584,15.0586738586426,14.9248123168945,14.9247636795044,14.9247159957886,14.9595041275024,14.9979772567749,14.9979286193848,14.9978809356689,14.9978322982788,14.997784614563,14.9977359771729,14.997688293457,14.9976396560669,14.9975919723511,14.9975433349609,14.9974956512451,14.997447013855,14.9973993301392,14.997350692749,14.9973030090332,14.9972543716431,14.9972066879272,14.9971590042114,14.9971103668213,14.9970626831055,14.9970140457153,14.9969663619995,14.9969177246094,14.9968700408936,14.9968214035034,14.9967737197876,14.9967250823975,14.9966773986816,14.9966287612915,14.9965810775757,14.9965324401855,14.9964847564697,14.9964361190796,14.9963884353638,14.9963407516479,14.9962921142578,14.9228954315186,14.9228477478027,14.9228000640869,14.9754571914673,15.0432548522949,15.1069765090942,15.1395721435547,15.1395235061646,15.1394739151001,15.13942527771,15.1393766403198,15.1393280029297,15.1392793655396,15.1392316818237,15.1391830444336,15.1391344070435,15.1390857696533,15.1390371322632,15.138988494873,15.1389398574829,15.1388912200928,15.1388425827026,15.1387939453125,15.1387453079224,15.1386966705322,15.1386480331421,15.138599395752,15.1385507583618,15.1385021209717,15.1384534835815,15.1384048461914,13.0998773574829,13.099835395813,13.0997934341431,13.0997514724731,13.0997095108032,13.0996675491333,13.0996255874634,13.0995836257935,13.0995407104492,13.0994987487793,13.0994567871094,13.0994148254395,13.0993728637695,13.0993309020996,13.0992889404297,13.0992469787598,13.0992050170898,13.0991630554199,13.09912109375,13.0990791320801,13.0990371704102,13.0989952087402,13.098952293396,13.0989103317261,13.0988683700562,13.0988264083862,13.0987844467163,13.0987424850464,13.0987005233765,13.0986585617065,13.0986166000366,13.0985746383667,13.0985326766968,13.0984907150269,13.0984487533569,13.098406791687,13.0983638763428,13.0983219146729,13.0982799530029,13.098237991333,13.0981960296631,13.0981540679932,13.0981121063232,13.0980701446533,13.0980281829834,13.0979862213135,13.0979442596436,13.0979022979736,13.0978603363037,13.0978183746338,13.0977754592896,13.0977334976196,13.0976915359497,13.0976495742798,13.0976076126099,13.0975656509399,13.09752368927,13.0974817276001,13.0974397659302,13.0973978042603,13.0973558425903,13.0973138809204,13.0972719192505,13.0972299575806,13.0971879959106,13.0971460342407,13.0971040725708,13.0970621109009,13.097020149231,13.096978187561
15.0612316131592,15.061182975769,15.0611343383789,15.0610866546631,15.0610380172729,15.0609893798828,15.060941696167,15.0608930587769,15.0608444213867,15.0607967376709,15.0607481002808,15.0606994628906,15.0606517791748,15.0606031417847,15.0605545043945,15.0605068206787,15.0604581832886,15.0604095458984,15.0603609085083,15.0603132247925,15.0602645874023,15.0602159500122,15.0601682662964,15.0601196289062,15.0600709915161,15.0600233078003,15.0599746704102,15.05992603302,15.0598783493042,15.0598297119141,15.0597810745239,15.0597333908081,15.059684753418,15.0596361160278,15.0595874786377,15.0595397949219,15.0594911575317,15.0594425201416,15.0593948364258,15.0593461990356,15.0592975616455,15.0592498779297,15.0592012405396,15.0591526031494,15.0591049194336,15.0590562820435,15.0590076446533,15.0589599609375,15.0589113235474,14.9250478744507,14.9249992370605,14.9249515533447,14.9597282409668,14.9982137680054,14.9981651306152,14.9981174468994,14.9980688095093,14.9980211257935,14.9979724884033,14.9979248046875,14.9978771209717,14.9978284835815,14.9977807998657,14.9977321624756,14.9976844787598,14.9976358413696,14.9975881576538,14.9975395202637,14.9974918365479,14.9974431991577,14.9973955154419,14.9973468780518,14.9972991943359,14.9972505569458,14.99720287323,14.9971542358398,14.997106552124,14.9970579147339,14.9970102310181,14.9969615936279,14.9969139099121,14.996865272522,14.9968175888062,14.9967699050903,14.9967212677002,14.9966735839844,14.9966249465942,14.9965772628784,14.9965286254883,14.9231309890747,14.9230833053589,14.9230356216431,14.9757213592529,15.0435218811035,15.1072425842285,15.1398105621338,15.1397619247437,15.1397132873535,15.1396646499634,15.1396160125732,15.1395673751831,15.139518737793,15.1394701004028,15.1394214630127,15.1393728256226,15.1393241882324,15.1392755508423,15.1392269134521,15.139178276062,15.1391296386719,15.1390810012817,15.1390323638916,15.1389837265015,15.1389350891113,15.1388864517212,15.1388378143311,15.1387891769409,15.1387405395508,15.1386919021606,15.1386442184448,13.1000843048096,13.1000423431396,13.1000003814697,13.0999584197998,13.0999155044556,13.0998735427856,13.0998315811157,13.0997896194458,13.0997476577759,13.099705696106,13.099663734436,13.0996217727661,13.0995798110962,13.0995378494263,13.0994958877563,13.0994539260864,13.0994119644165,13.0993690490723,13.0993270874023,13.0992851257324,13.0992431640625,13.0992012023926,13.0991592407227,13.0991172790527,13.0990753173828,13.0990333557129,13.098991394043,13.098949432373,13.0989074707031,13.0988655090332,13.0988235473633,13.098780632019,13.0987386703491,13.0986967086792,13.0986547470093,13.0986127853394,13.0985708236694,13.0985288619995,13.0984869003296,13.0984449386597,13.0984029769897,13.0983610153198,13.0983190536499,13.09827709198,13.0982351303101,13.0981922149658,13.0981502532959,13.098108291626,13.0980663299561,13.0980243682861,13.0979824066162,13.0979404449463,13.0978984832764,13.0978565216064,13.0978145599365,13.0977725982666,13.0977306365967,13.0976886749268,13.0976467132568,13.0976047515869,13.097562789917,13.0975208282471,13.0974779129028,13.0974359512329,13.097393989563,13.0973520278931,13.0973100662231,13.0972681045532,13.0972261428833,13.0971841812134
