14.5335483551025,14.5337343215942,14.5339212417603,14.607138633728,14.607325553894,14.6075124740601,14.6077003479004,14.6078882217407,14.6080760955811,14.6082639694214,14.6084518432617,14.6086397171021,14.6088275909424,14.6090154647827,12.8111305236816,12.8112955093384,12.8114595413208,14.609766960144,14.6099548339844,14.6101427078247,14.610330581665,14.6105184555054,14.6107063293457,14.610894203186,14.6110820770264,14.6112699508667,14.6114587783813,14.6116466522217,14.611834526062,14.6120223999023,14.6122102737427,14.6123991012573,12.8140954971313,12.8142604827881,12.8144254684448,14.613151550293,14.6133394241333,14.6135272979736,14.613715171814,14.6139039993286,14.6140918731689,14.5412168502808,14.5414037704468,14.6748704910278,14.6750593185425,14.6752481460571,14.6754369735718,14.6756258010864,14.6758146286011,14.6760034561157,12.8170623779297,12.8172273635864,12.8173923492432,14.6767587661743,14.676947593689,14.6771364212036,14.6773252487183,14.6775140762329,14.6777029037476,14.6778917312622,14.6780805587769,14.6782703399658,14.4307479858398,14.066780090332,13.7208614349365,13.3918190002441,13.0832366943359,13.0817928314209,12.8200340270996,12.8201990127563,12.8203639984131,14.6801595687866,14.6803483963013,14.6805372238159,14.6807260513306,14.6809148788452,14.6811046600342,14.6812934875488,14.6814823150635,14.6816711425781,14.6818599700928,14.6820487976074,14.6822385787964,14.682427406311,14.6826162338257,14.6828050613403,14.682993888855,14.6831836700439,14.6833724975586,14.6835613250732,14.6837501525879,14.6839399337769,14.6841287612915,14.6843175888062,14.6845064163208,14.6846961975098,14.6848850250244,14.6850738525391,14.6852626800537,14.6854524612427,14.6856412887573,14.685830116272,14.6860189437866,14.6862087249756,14.6863975524902,14.6865863800049,14.6867761611938,14.6869649887085,14.6871538162231,14.6873435974121,14.6875324249268,14.6877212524414,14.6879110336304,14.688099861145,14.6882886886597,14.6884784698486,14.6886672973633,14.6888561248779,14.6890459060669,14.6892347335815,14.6894245147705,14.6896133422852,14.6898021697998,14.6899919509888,14.6901807785034,14.6903705596924,14.690559387207,14.6907482147217,14.6909379959106,14.6911268234253,14.6913166046143,14.6915054321289,14.6916952133179,14.6918840408325,14.6920728683472,14.6922626495361,14.6924514770508,14.6926412582397,14.6928300857544,14.6930198669434,14.693208694458,14.693398475647,14.6935873031616,14.6937770843506,14.6939659118652,14.6941556930542,14.6943445205688,14.6945343017578,14.6947231292725,14.6949129104614,14.6951017379761,14.695291519165,14.6954803466797,14.6956701278687,14.6958599090576,14.6960487365723,14.6962385177612,14.6586971282959,14.6588859558105,14.6590757369995,14.6592645645142,14.6594533920288,14.7709589004517,14.8076257705688,14.8078174591064,14.8080081939697,14.808198928833,14.8083896636963,14.8085803985596,14.8087720870972,14.8089628219604,14.8091535568237,14.809344291687,14.8095359802246,14.8097267150879,14.8099174499512,14.8101081848145,14.8102998733521,14.8104906082153,14.8106813430786,14.8108720779419,14.8110637664795,14.8112545013428,14.7760887145996,14.7751483917236,14.8118276596069
14.5346870422363,14.534873008728,14.535059928894,14.6082830429077,14.6084699630737,14.6086578369141,14.6088457107544,14.6090326309204,14.6092205047607,14.6094083786011,14.6095962524414,14.6097841262817,14.6099720001221,14.6101598739624,12.8121337890625,12.8122987747192,12.812463760376,14.610912322998,14.6111001968384,14.6112880706787,14.611475944519,14.6116638183594,14.6118516921997,14.61203956604,14.6122274398804,14.6124153137207,14.612603187561,14.6127910614014,14.612979888916,14.6131677627563,14.6133556365967,14.613543510437,12.8150997161865,12.8152647018433,12.8154296875,14.6142959594727,14.6144847869873,14.6146726608276,14.614860534668,14.6150493621826,14.6152372360229,14.5423564910889,14.5425434112549,14.6760206222534,14.6762094497681,14.6763982772827,14.6765871047974,14.676775932312,14.6769647598267,14.6771535873413,12.8180675506592,12.8182325363159,12.8183965682983,14.6779088973999,14.6780977249146,14.6782875061035,14.6784763336182,14.6786651611328,14.6788539886475,14.6790428161621,14.6792316436768,14.6794204711914,14.4289464950562,14.0650682449341,13.7194528579712,13.3962297439575,13.204704284668,13.2048749923706,12.8210391998291,12.8212041854858,12.8213691711426,14.6813106536865,14.6814994812012,14.6816883087158,14.6818771362305,14.6820669174194,14.6822557449341,14.6824445724487,14.6826333999634,14.682822227478,14.683012008667,14.6832008361816,14.6833896636963,14.6835784912109,14.6837673187256,14.6839570999146,14.6841459274292,14.6843347549438,14.6845235824585,14.6847133636475,14.6849021911621,14.6850910186768,14.6852798461914,14.6854696273804,14.685658454895,14.6858472824097,14.6860370635986,14.6862258911133,14.6864147186279,14.6866035461426,14.6867933273315,14.6869821548462,14.6871709823608,14.6873607635498,14.6875495910645,14.6877384185791,14.6879281997681,14.6881170272827,14.6883058547974,14.6884956359863,14.688684463501,14.6888742446899,14.6890630722046,14.6892518997192,14.6894416809082,14.6896305084229,14.6898193359375,14.6900091171265,14.6901979446411,14.6903877258301,14.6905765533447,14.6907653808594,14.6909551620483,14.691143989563,14.691333770752,14.6915225982666,14.6917123794556,14.6919012069702,14.6920909881592,14.6922798156738,14.6924686431885,14.6926584243774,14.6928472518921,14.6930370330811,14.6932258605957,14.6934156417847,14.6936044692993,14.6937942504883,14.6939830780029,14.6941728591919,14.6943616867065,14.6945514678955,14.6947402954102,14.6949300765991,14.6951189041138,14.6953086853027,14.6954984664917,14.6956872940063,14.6958770751953,14.69606590271,14.6962556838989,14.6964445114136,14.6966342926025,14.6968240737915,14.6970129013062,14.6972026824951,14.6973915100098,14.6598472595215,14.6600370407104,14.6602258682251,14.6604146957397,14.6606044769287,14.7721185684204,14.8087882995605,14.8089790344238,14.8091707229614,14.8093614578247,14.809552192688,14.8097429275513,14.8099346160889,14.8101253509521,14.8103160858154,14.810507774353,14.8106985092163,14.8108892440796,14.8110799789429,14.8112716674805,14.8114624023438,14.811653137207,14.8118448257446,14.8120355606079,14.8122262954712,14.8124179840088,14.7761173248291,14.7763090133667,14.8129911422729
14.5358257293701,14.5360116958618,14.5361986160278,14.6094274520874,14.6096143722534,14.6098022460938,14.6099901199341,14.6101779937744,14.6103658676147,14.6105537414551,14.6107416152954,14.6109294891357,14.6111173629761,14.6113052368164,12.8131380081177,12.8133029937744,12.8134670257568,14.6120567321777,14.6122446060181,14.6124324798584,14.6126203536987,14.6128082275391,14.6129970550537,14.613184928894,14.6133728027344,14.6135606765747,14.613748550415,14.6139364242554,14.61412525177,14.6143131256104,14.6145009994507,14.614688873291,12.8161039352417,12.8162689208984,12.8164339065552,14.615442276001,14.6156301498413,14.6158180236816,14.616005897522,14.6161947250366,14.616382598877,14.543496131897,14.543683052063,14.677170753479,14.6773595809937,14.6775484085083,14.6777372360229,14.6779260635376,14.6781148910522,14.6783037185669,12.8190717697144,12.8192367553711,12.8194017410278,14.6790599822998,14.6792488098145,14.6794376373291,14.6796264648438,14.6798152923584,14.6800050735474,14.680193901062,14.6803827285767,14.6805715560913,14.4271459579468,14.0635204315186,13.7245664596558,13.589599609375,13.2057399749756,13.2059106826782,12.8220443725586,12.8222093582153,12.8223743438721,14.6824617385864,14.6826505661011,14.6828393936157,14.6830291748047,14.6832180023193,14.683406829834,14.6835956573486,14.6837854385376,14.6839742660522,14.6841630935669,14.6843519210815,14.6845407485962,14.6847305297852,14.6849193572998,14.6851081848145,14.6852979660034,14.6854867935181,14.6856756210327,14.6858644485474,14.6860542297363,14.686243057251,14.6864318847656,14.6866216659546,14.6868104934692,14.6869993209839,14.6871891021729,14.6873779296875,14.6875667572021,14.6877565383911,14.6879453659058,14.6881341934204,14.6883239746094,14.688512802124,14.6887016296387,14.6888914108276,14.6890802383423,14.6892690658569,14.6894588470459,14.6896476745605,14.6898374557495,14.6900262832642,14.6902151107788,14.6904048919678,14.6905937194824,14.6907835006714,14.690972328186,14.6911611557007,14.6913509368896,14.6915397644043,14.6917295455933,14.6919183731079,14.6921081542969,14.6922969818115,14.6924867630005,14.6926755905151,14.6928653717041,14.6930541992188,14.6932430267334,14.6934328079224,14.693621635437,14.693811416626,14.6940002441406,14.6941900253296,14.6943788528442,14.6945686340332,14.6947584152222,14.6949472427368,14.6951370239258,14.6953258514404,14.6955156326294,14.695704460144,14.695894241333,14.6960830688477,14.6962728500366,14.6964616775513,14.6966514587402,14.6968412399292,14.6970300674438,14.6972198486328,14.6974086761475,14.6975984573364,14.6977882385254,14.69797706604,14.698166847229,14.6983556747437,14.6985454559326,14.6609983444214,14.6611881256104,14.661376953125,14.6615657806396,14.6617546081543,14.7732782363892,14.8099508285522,14.8101425170898,14.8103332519531,14.8105239868164,14.8107147216797,14.8109064102173,14.8110971450806,14.8112878799438,14.8114795684814,14.8116703033447,14.811861038208,14.8120527267456,14.8122434616089,14.8124341964722,14.8126258850098,14.812816619873,14.8130073547363,14.8131990432739,14.8133897781372,14.8135805130005,14.7772779464722,14.7774696350098,14.8141536712646
14.5369644165039,14.5371503829956,14.5373373031616,14.6105728149414,14.6107587814331,14.6109466552734,14.6111345291138,14.6113224029541,14.6115102767944,14.6116981506348,14.6118860244751,14.6120738983154,14.6122627258301,14.6124505996704,12.8141422271729,12.8143072128296,12.814471244812,14.6132020950317,14.6133899688721,14.6135778427124,14.6137657165527,14.6139535903931,14.6141424179077,14.614330291748,14.6145181655884,14.6147060394287,14.614893913269,14.6150817871094,14.615270614624,14.6154584884644,14.6156463623047,14.615834236145,12.8171091079712,12.8172740936279,12.8174390792847,14.616587638855,14.6167755126953,14.6169633865356,14.6171522140503,14.6173400878906,14.6175289154053,14.5446367263794,14.5448236465454,14.6783208847046,14.6785106658936,14.6786994934082,14.6788883209229,14.6790771484375,14.6792659759521,14.6794548034668,12.8200769424438,12.8202419281006,12.8204069137573,14.6802110671997,14.6803998947144,14.680588722229,14.6807775497437,14.6809663772583,14.6811552047729,14.6813449859619,14.6815338134766,14.6817226409912,14.4253454208374,14.0694007873535,13.9745359420776,13.5906648635864,13.2067756652832,13.2069463729858,12.8230495452881,12.8232145309448,12.8233795166016,14.6836128234863,14.683801651001,14.6839914321899,14.6841802597046,14.6843690872192,14.6845579147339,14.6847476959229,14.6849365234375,14.6851253509521,14.6853151321411,14.6855039596558,14.6856927871704,14.6858816146851,14.686071395874,14.6862602233887,14.6864490509033,14.6866388320923,14.6868276596069,14.6870164871216,14.6872062683105,14.6873950958252,14.6875839233398,14.6877737045288,14.6879625320435,14.6881513595581,14.6883411407471,14.6885299682617,14.6887187957764,14.6889085769653,14.68909740448,14.6892862319946,14.6894760131836,14.6896648406982,14.6898546218872,14.6900434494019,14.6902322769165,14.6904220581055,14.6906108856201,14.6908006668091,14.6909894943237,14.6911792755127,14.6913681030273,14.691556930542,14.691746711731,14.6919355392456,14.6921253204346,14.6923141479492,14.6925039291382,14.6926927566528,14.6928825378418,14.6930713653564,14.6932611465454,14.6934499740601,14.693639755249,14.6938285827637,14.6940183639526,14.6942071914673,14.6943969726562,14.6945858001709,14.6947755813599,14.6949644088745,14.6951541900635,14.6953430175781,14.6955327987671,14.6957216262817,14.6959114074707,14.6961002349854,14.6962900161743,14.6964797973633,14.6966686248779,14.6968584060669,14.6970472335815,14.6972370147705,14.6974267959595,14.6976156234741,14.6978054046631,14.6979942321777,14.6981840133667,14.6983737945557,14.6985626220703,14.6987524032593,14.6989421844482,14.6991310119629,14.6993207931519,14.6995096206665,14.6996994018555,14.6621494293213,14.6623382568359,14.6625280380249,14.6627168655396,14.6629056930542,14.7744379043579,14.8111143112183,14.8113050460815,14.8114957809448,14.8116874694824,14.8118782043457,14.812068939209,14.8122596740723,14.8124513626099,14.8126420974731,14.8128328323364,14.813024520874,14.8132152557373,14.8134069442749,14.8135976791382,14.8137884140015,14.8139801025391,14.8141708374023,14.8143615722656,14.8145532608032,14.8147439956665,14.7784385681152,14.7786302566528,14.8153171539307
14.538104057312,14.5382900238037,14.5384769439697,14.6117172241211,14.6119041442871,14.6120920181274,14.6122798919678,14.6124677658081,14.6126556396484,14.6128435134888,14.6130313873291,14.6132192611694,14.6134071350098,14.6135950088501,12.815146446228,12.8153104782104,12.8154754638672,14.6143474578857,14.6145353317261,14.6147232055664,14.6149110794067,14.6150989532471,14.6152877807617,14.6154756546021,14.6156635284424,14.6158514022827,14.616039276123,14.6162271499634,14.616415977478,14.6166038513184,14.616792678833,14.6169805526733,12.8181133270264,12.8182783126831,12.8184432983398,14.617733001709,14.6179218292236,14.618109703064,14.6182975769043,14.6184864044189,14.6186742782593,14.5457763671875,14.5459632873535,14.6794719696045,14.6796607971191,14.6798496246338,14.6800384521484,14.6802282333374,14.6804170608521,14.6806058883667,12.8210821151733,12.8212471008301,12.8214120864868,14.6813621520996,14.6815509796143,14.6817398071289,14.6819286346436,14.6821174621582,14.6823072433472,14.6824960708618,14.6826848983765,14.6828737258911,14.4320106506348,14.359525680542,13.9756317138672,13.5917301177979,13.2078113555908,12.884090423584,12.8240556716919,12.8242206573486,14.6845750808716,14.6847648620605,14.6849536895752,14.6851425170898,14.6853322982788,14.6855211257935,14.6857099533081,14.6858987808228,14.6860885620117,14.6862773895264,14.686466217041,14.68665599823,14.6868448257446,14.6870336532593,14.6872234344482,14.6874122619629,14.6876010894775,14.6877908706665,14.6879796981812,14.6881685256958,14.6883583068848,14.6885471343994,14.6887359619141,14.688925743103,14.6891145706177,14.6893043518066,14.6894931793213,14.6896820068359,14.6898717880249,14.6900606155396,14.6902503967285,14.6904392242432,14.6906280517578,14.6908178329468,14.6910066604614,14.6911964416504,14.691385269165,14.691575050354,14.6917638778687,14.6919527053833,14.6921424865723,14.6923313140869,14.6925210952759,14.6927099227905,14.6928997039795,14.6930885314941,14.6932783126831,14.6934671401978,14.6936569213867,14.6938457489014,14.6940355300903,14.694224357605,14.6944141387939,14.6946029663086,14.6947927474976,14.6949815750122,14.6951713562012,14.6953601837158,14.6955499649048,14.6957387924194,14.6959285736084,14.6961183547974,14.696307182312,14.696496963501,14.6966857910156,14.6968755722046,14.6970643997192,14.6972541809082,14.6974439620972,14.6976327896118,14.6978225708008,14.6980123519897,14.6982011795044,14.6983909606934,14.698579788208,14.698769569397,14.6989593505859,14.6991481781006,14.6993379592896,14.6995277404785,14.6997165679932,14.6999063491821,14.7000961303711,14.7002849578857,14.7004747390747,14.7006645202637,14.7008533477783,14.6633005142212,14.6634902954102,14.6636791229248,14.6638679504395,14.6640577316284,14.775598526001,14.81227684021,14.8124675750732,14.8126592636108,14.8128499984741,14.8130407333374,14.813232421875,14.8134231567383,14.8136138916016,14.8138055801392,14.8139963150024,14.81418800354,14.8143787384033,14.8145694732666,14.8147611618042,14.8149518966675,14.8151435852051,14.8153343200684,14.8155250549316,14.8157167434692,14.8159074783325,14.7795991897583,14.7797908782959,14.8164806365967
14.5392427444458,14.5394287109375,14.5396165847778,14.6128625869751,14.6130495071411,14.6132373809814,14.6134252548218,14.6136131286621,14.6138010025024,14.6139888763428,14.6141767501831,14.6143646240234,14.6145524978638,14.6147403717041,12.8161506652832,12.8163156509399,12.8164796829224,14.6154928207397,14.6156806945801,14.6158685684204,14.6160573959351,14.6162452697754,14.6164331436157,14.6166210174561,14.6168088912964,14.616997718811,14.6171855926514,14.6173734664917,14.617561340332,14.6177501678467,14.617938041687,14.6181259155273,12.8191184997559,12.8192834854126,12.8194484710693,14.6188793182373,14.6190671920776,14.6192560195923,14.6194438934326,14.6196327209473,14.6198205947876,14.5469169616699,14.5471038818359,14.6806230545044,14.680811882019,14.6810007095337,14.6811895370483,14.6813793182373,14.681568145752,14.6817569732666,12.8220882415771,12.8222532272339,12.8224172592163,14.6825132369995,14.6827020645142,14.6828908920288,14.6830797195435,14.6832695007324,14.6834583282471,14.6836471557617,14.6838359832764,14.6840257644653,14.68421459198,14.3606519699097,13.9767284393311,13.5927963256836,13.2088470458984,12.882719039917,12.8250608444214,12.8252267837524,14.6857271194458,14.6859159469604,14.6861057281494,14.6862945556641,14.6864833831787,14.6866731643677,14.6868619918823,14.687050819397,14.6872406005859,14.6874294281006,14.6876182556152,14.6878080368042,14.6879968643188,14.6881856918335,14.6883754730225,14.6885643005371,14.6887540817261,14.6889429092407,14.6891317367554,14.6893215179443,14.689510345459,14.6896991729736,14.6898889541626,14.6900777816772,14.6902675628662,14.6904563903809,14.6906461715698,14.6908349990845,14.6910238265991,14.6912136077881,14.6914024353027,14.6915922164917,14.6917810440063,14.6919708251953,14.69215965271,14.6923484802246,14.6925382614136,14.6927270889282,14.6929168701172,14.6931056976318,14.6932954788208,14.6934843063354,14.6936740875244,14.6938629150391,14.694052696228,14.6942415237427,14.6944313049316,14.6946201324463,14.6948099136353,14.6949987411499,14.6951885223389,14.6953783035278,14.6955671310425,14.6957569122314,14.6959457397461,14.6961355209351,14.6963243484497,14.6965141296387,14.6967029571533,14.6968927383423,14.6970825195312,14.6972713470459,14.6974611282349,14.6976499557495,14.6978397369385,14.6980295181274,14.6982183456421,14.6984081268311,14.69859790802,14.6987867355347,14.6989765167236,14.6991653442383,14.6993551254272,14.6995449066162,14.6997337341309,14.6999235153198,14.7001132965088,14.7003021240234,14.7004919052124,14.7006816864014,14.700870513916,14.701060295105,14.7012500762939,14.7014398574829,14.7016286849976,14.7018184661865,14.7020082473755,14.6644515991211,14.6646413803101,14.6648302078247,14.6650199890137,14.6652088165283,14.7767581939697,14.813440322876,14.8136310577393,14.8138217926025,14.8140134811401,14.8142042160034,14.814395904541,14.8145866394043,14.8147773742676,14.8149690628052,14.8151597976685,14.8153514862061,14.8155422210693,14.8157329559326,14.8159246444702,14.8161153793335,14.8163070678711,14.8164978027344,14.816689491272,14.8168802261353,14.8170709609985,14.7807598114014,14.780951499939,14.817645072937
14.5403823852539,14.5405683517456,14.5407552719116,14.6140079498291,14.6141948699951,14.6143827438354,14.6145706176758,14.6147584915161,14.6149463653564,14.6151342391968,14.6153221130371,14.6155099868774,14.6156988143921,14.6158866882324,12.8171548843384,12.8173198699951,12.8174848556519,14.6166381835938,14.6168270111084,14.6170148849487,14.6172027587891,14.6173906326294,14.6175785064697,14.6177673339844,14.6179552078247,14.618143081665,14.6183309555054,14.61851978302,14.6187076568604,14.6188955307007,14.6190843582153,14.6192722320557,12.8201236724854,12.8202886581421,12.8204536437988,14.6200256347656,14.620213508606,14.6204023361206,14.6205902099609,14.6207790374756,14.6209669113159,14.5480575561523,14.5482444763184,14.6817741394043,14.6819629669189,14.6821517944336,14.6823406219482,14.6825304031372,14.6827192306519,14.6829080581665,12.8230934143066,12.8232583999634,12.8234233856201,14.6836643218994,14.6838531494141,14.684042930603,14.6842317581177,14.6844205856323,14.684609413147,14.6847991943359,14.6849880218506,14.6851768493652,14.6853656768799,14.3617782592773,13.9778242111206,13.5938625335693,13.2098827362061,12.8813486099243,12.8260669708252,12.8262319564819,14.68687915802,14.6870679855347,14.6872577667236,14.6874465942383,14.6876354217529,14.6878252029419,14.6880140304565,14.6882028579712,14.6883926391602,14.6885814666748,14.6887712478638,14.6889600753784,14.6891489028931,14.689338684082,14.6895275115967,14.6897172927856,14.6899061203003,14.6900949478149,14.6902847290039,14.6904735565186,14.6906633377075,14.6908521652222,14.6910409927368,14.6912307739258,14.6914196014404,14.6916093826294,14.691798210144,14.691987991333,14.6921768188477,14.6923666000366,14.6925554275513,14.6927452087402,14.6929340362549,14.6931228637695,14.6933126449585,14.6935014724731,14.6936912536621,14.6938800811768,14.6940698623657,14.6942586898804,14.6944484710693,14.6946382522583,14.6948270797729,14.6950168609619,14.6952056884766,14.6953954696655,14.6955842971802,14.6957740783691,14.6959629058838,14.6961526870728,14.6963415145874,14.6965312957764,14.6967210769653,14.69690990448,14.6970996856689,14.6972885131836,14.6974782943726,14.6976680755615,14.6978569030762,14.6980466842651,14.6982355117798,14.6984252929688,14.6986150741577,14.6988039016724,14.6989936828613,14.6991834640503,14.6993722915649,14.6995620727539,14.6997518539429,14.6999406814575,14.7001304626465,14.7003202438354,14.7005090713501,14.7006988525391,14.700888633728,14.7010774612427,14.7012672424316,14.7014570236206,14.7016458511353,14.7018356323242,14.7020254135132,14.7022151947021,14.7024040222168,14.7025938034058,14.7027835845947,14.7029733657837,14.7031621932983,14.6656036376953,14.66579246521,14.6659822463989,14.6661710739136,14.7777290344238,14.7779188156128,14.814603805542,14.8147945404053,14.8149852752686,14.8151769638062,14.8153676986694,14.815559387207,14.8157501220703,14.8159408569336,14.8161325454712,14.8163232803345,14.8165149688721,14.8167057037354,14.8168973922729,14.8170881271362,14.8172798156738,14.8174705505371,14.8176612854004,14.817852973938,14.8180437088013,14.8182353973389,14.7819204330444,14.7821130752563,14.818808555603
14.541522026062,14.5417079925537,14.5418949127197,14.6151533126831,14.6153402328491,14.6155281066895,14.6157159805298,14.6159038543701,14.6160917282104,14.6162796020508,14.6164684295654,14.6166563034058,14.6168441772461,14.6170320510864,12.8181591033936,12.8183240890503,12.818489074707,14.6177845001221,14.6179723739624,14.6181602478027,14.6183490753174,14.6185369491577,14.618724822998,14.6189126968384,14.619101524353,14.6192893981934,14.6194772720337,14.619665145874,14.6198539733887,14.620041847229,14.6202306747437,14.620418548584,12.8211288452148,12.8212938308716,12.8214588165283,14.6211719512939,14.6213598251343,14.6215486526489,14.6217365264893,14.6219253540039,14.6221132278442,14.5491981506348,14.5493850708008,14.6829252243042,14.6831140518188,14.6833038330078,14.6834926605225,14.6836814880371,14.6838703155518,14.6840600967407,12.8240995407104,12.8242645263672,12.8244285583496,14.6848163604736,14.6850051879883,14.6851940155029,14.6853828430176,14.6855726242065,14.6857614517212,14.6859502792358,14.6861400604248,14.6863288879395,14.6865177154541,14.362904548645,13.9789209365845,13.5949287414551,13.210919380188,12.8799772262573,12.827073097229,12.8272380828857,14.6880311965942,14.6882200241089,14.6884098052979,14.6885986328125,14.6887884140015,14.6889772415161,14.6891660690308,14.6893558502197,14.6895446777344,14.689733505249,14.689923286438,14.6901121139526,14.6903018951416,14.6904907226562,14.6906805038452,14.6908693313599,14.6910581588745,14.6912479400635,14.6914367675781,14.6916265487671,14.6918153762817,14.6920051574707,14.6921939849854,14.6923837661743,14.692572593689,14.6927623748779,14.6929512023926,14.6931409835815,14.6933298110962,14.6935195922852,14.6937084197998,14.6938982009888,14.6940870285034,14.6942768096924,14.694465637207,14.694655418396,14.6948442459106,14.6950340270996,14.6952228546143,14.6954126358032,14.6956014633179,14.6957912445068,14.6959800720215,14.6961698532104,14.6963596343994,14.6965484619141,14.696738243103,14.6969270706177,14.6971168518066,14.6973056793213,14.6974954605103,14.6976852416992,14.6978740692139,14.6980638504028,14.6982536315918,14.6984424591064,14.6986322402954,14.6988210678101,14.699010848999,14.699200630188,14.6993894577026,14.6995792388916,14.6997690200806,14.6999578475952,14.7001476287842,14.7003374099731,14.7005262374878,14.7007160186768,14.7009057998657,14.7010946273804,14.7012844085693,14.7014741897583,14.7016639709473,14.7018527984619,14.7020425796509,14.7022323608398,14.7024211883545,14.7026109695435,14.7028007507324,14.7029905319214,14.703179359436,14.703369140625,14.703558921814,14.7037487030029,14.7039375305176,14.7041273117065,14.7043170928955,14.6667547225952,14.6669445037842,14.6671342849731,14.6673231124878,14.7788896560669,14.7790794372559,14.815767288208,14.8159580230713,14.8161497116089,14.8163404464722,14.8165311813354,14.816722869873,14.8169136047363,14.8171052932739,14.8172960281372,14.8174877166748,14.8176784515381,14.8178701400757,14.818060874939,14.8182525634766,14.8184432983398,14.8186349868774,14.8188257217407,14.8190174102783,14.8192081451416,14.8193988800049,14.7830820083618,14.7832746505737,14.8199729919434
14.5426616668701,14.5428476333618,14.5430345535278,14.6162986755371,14.6164855957031,14.6166734695435,14.6168613433838,14.6170492172241,14.6172380447388,14.6174259185791,14.6176137924194,14.6178016662598,14.6179895401001,14.6181783676147,12.819164276123,12.8193292617798,12.8194942474365,14.6189308166504,14.6191186904907,14.6193065643311,14.6194944381714,14.619683265686,14.6198711395264,14.6200590133667,14.6202478408813,14.6204357147217,14.620623588562,14.6208114624023,14.621000289917,14.6211881637573,14.621376991272,14.6215648651123,12.8221340179443,12.8222990036011,12.8224639892578,14.6223182678223,14.6225070953369,14.6226949691772,14.6228837966919,14.6230716705322,14.6232604980469,14.5503396987915,14.5505266189575,14.6840763092041,14.6842660903931,14.6844549179077,14.6846437454224,14.6848335266113,14.685022354126,14.6852111816406,12.8251047134399,12.8252696990967,12.8254346847534,14.6859674453735,14.6861572265625,14.6863460540771,14.6865348815918,14.6867246627808,14.6869134902954,14.6871023178101,14.687292098999,14.6874809265137,14.6876697540283,14.3640308380127,13.9800176620483,13.5959949493408,13.2119560241699,12.8786067962646,12.8280792236328,12.8282451629639,14.6891832351685,14.6893730163574,14.6895618438721,14.6897506713867,14.6899404525757,14.6901292800903,14.6903190612793,14.6905078887939,14.6906976699829,14.6908864974976,14.6910753250122,14.6912651062012,14.6914539337158,14.6916437149048,14.6918325424194,14.6920223236084,14.692211151123,14.692400932312,14.6925897598267,14.6927795410156,14.6929683685303,14.6931581497192,14.6933469772339,14.6935367584229,14.6937255859375,14.6939153671265,14.6941041946411,14.6942939758301,14.6944828033447,14.6946725845337,14.6948614120483,14.6950511932373,14.695240020752,14.6954298019409,14.6956186294556,14.6958084106445,14.6959981918335,14.6961870193481,14.6963768005371,14.6965656280518,14.6967554092407,14.6969442367554,14.6971340179443,14.6973237991333,14.6975126266479,14.6977024078369,14.6978912353516,14.6980810165405,14.6982707977295,14.6984596252441,14.6986494064331,14.6988391876221,14.6990280151367,14.6992177963257,14.6994066238403,14.6995964050293,14.6997861862183,14.6999750137329,14.7001647949219,14.7003545761108,14.7005434036255,14.7007331848145,14.7009229660034,14.7011127471924,14.701301574707,14.701491355896,14.701681137085,14.7018699645996,14.7020597457886,14.7022495269775,14.7024393081665,14.7026281356812,14.7028179168701,14.7030076980591,14.703197479248,14.7033863067627,14.7035760879517,14.7037658691406,14.7039556503296,14.7041444778442,14.7043342590332,14.7045240402222,14.7047138214111,14.7049036026001,14.7050924301147,14.7052822113037,14.7054719924927,14.6679067611694,14.6680965423584,14.668285369873,14.668475151062,14.78005027771,14.7802400588989,14.816930770874,14.8171215057373,14.8173131942749,14.8175039291382,14.8176956176758,14.8178863525391,14.8180780410767,14.8182687759399,14.8184604644775,14.8186511993408,14.8188428878784,14.8190336227417,14.8192253112793,14.8194160461426,14.8196077346802,14.8197984695435,14.8199901580811,14.8201808929443,14.8203725814819,14.8205633163452,14.7842435836792,14.7844362258911,14.8211364746094
14.5438022613525,14.5439882278442,14.5441751480103,14.6174440383911,14.6176319122314,14.6178197860718,14.6180076599121,14.6181955337524,14.6183834075928,14.6185712814331,14.6187601089478,14.6189479827881,14.6191358566284,14.6193246841431,12.8201694488525,12.8203344345093,12.820499420166,14.6200771331787,14.620265007019,14.6204528808594,14.6206407546997,14.6208295822144,14.6210174560547,14.621205329895,14.6213941574097,14.62158203125,14.6217699050903,14.621958732605,14.6221466064453,14.6223344802856,14.6225233078003,14.6227111816406,12.8231401443481,12.8233051300049,12.8234701156616,14.6234645843506,14.6236534118652,14.6238412857056,14.6240301132202,14.6242189407349,14.6244068145752,14.5514802932739,14.5516672134399,14.6852283477783,14.685417175293,14.6856069564819,14.6857957839966,14.6859846115112,14.6861743927002,14.6863632202148,12.8261108398438,12.8262758255005,12.8264408111572,14.6871194839478,14.6873092651367,14.6874980926514,14.687686920166,14.687876701355,14.6880655288696,14.6882543563843,14.6884441375732,14.6886329650879,14.6888217926025,14.3651580810547,13.9811134338379,13.5970621109009,13.2129926681519,12.8772373199463,12.8290853500366,12.8292512893677,14.690336227417,14.6905250549316,14.6907148361206,14.6909036636353,14.6910924911499,14.6912822723389,14.6914710998535,14.6916608810425,14.6918497085571,14.6920394897461,14.6922283172607,14.6924180984497,14.6926069259644,14.6927967071533,14.692985534668,14.6931753158569,14.6933641433716,14.6935539245605,14.6937427520752,14.6939325332642,14.6941213607788,14.6943111419678,14.6944999694824,14.6946897506714,14.694878578186,14.695068359375,14.6952571868896,14.6954469680786,14.6956367492676,14.6958255767822,14.6960153579712,14.6962041854858,14.6963939666748,14.6965827941895,14.6967725753784,14.6969623565674,14.697151184082,14.697340965271,14.6975297927856,14.6977195739746,14.6979093551636,14.6980981826782,14.6982879638672,14.6984767913818,14.6986665725708,14.6988563537598,14.6990451812744,14.6992349624634,14.6994247436523,14.699613571167,14.699803352356,14.6999931335449,14.7001819610596,14.7003717422485,14.7005615234375,14.7007503509521,14.7009401321411,14.7011299133301,14.7013187408447,14.7015085220337,14.7016983032227,14.7018880844116,14.7020769119263,14.7022666931152,14.7024564743042,14.7026453018188,14.7028350830078,14.7030248641968,14.7032146453857,14.7034034729004,14.7035932540894,14.7037830352783,14.7039728164673,14.7041625976562,14.7043514251709,14.7045412063599,14.7047309875488,14.7049207687378,14.7051105499268,14.7052993774414,14.7054891586304,14.7056789398193,14.7058687210083,14.7060585021973,14.7062473297119,14.7064371109009,14.7066268920898,14.6690587997437,14.6692485809326,14.6694374084473,14.6696271896362,14.7812118530273,14.7814016342163,14.81809425354,14.8182859420776,14.8184766769409,14.8186683654785,14.8188591003418,14.8190507888794,14.8192415237427,14.8194332122803,14.8196239471436,14.8198156356812,14.8200063705444,14.820198059082,14.8203897476196,14.8205804824829,14.8207721710205,14.8209629058838,14.8211545944214,14.8213453292847,14.8215360641479,14.8217277526855,14.7854051589966,14.7855978012085,14.8223009109497
14.5449419021606,14.5451278686523,14.5453147888184,14.6185903549194,14.6187772750854,14.6189651489258,14.6191539764404,14.6193418502808,14.6195297241211,14.6197175979614,14.6199064254761,14.6200942993164,14.6202821731567,14.6204700469971,12.821174621582,12.8213396072388,12.8215045928955,14.621223449707,14.6214113235474,14.6215991973877,14.6217880249023,14.6219758987427,14.622163772583,14.6223526000977,14.622540473938,14.6227283477783,14.622917175293,14.6231050491333,14.6232929229736,14.6234817504883,14.6236696243286,14.6238584518433,12.8241453170776,12.8243103027344,12.8244752883911,14.6246118545532,14.6248006820679,14.6249885559082,14.6251773834229,14.6253652572632,14.6255540847778,14.5526218414307,14.5528087615967,14.6863803863525,14.6865692138672,14.6867580413818,14.6869478225708,14.6871366500854,14.6873254776001,14.6875152587891,12.8271169662476,12.8272819519043,12.827446937561,14.688271522522,14.6884613037109,14.6886501312256,14.6888389587402,14.6890287399292,14.6892175674438,14.6894073486328,14.6895961761475,14.6897850036621,14.6899747848511,14.3662843704224,13.9822111129761,13.5981283187866,13.2140293121338,12.8758668899536,12.8300924301147,12.8302574157715,14.6914882659912,14.6916780471802,14.6918668746948,14.6920566558838,14.6922454833984,14.6924352645874,14.6926240921021,14.692813873291,14.6930027008057,14.6931924819946,14.6933813095093,14.6935710906982,14.6937599182129,14.6939496994019,14.6941385269165,14.6943283081055,14.6945171356201,14.6947069168091,14.6948957443237,14.6950855255127,14.6952743530273,14.6954641342163,14.6956539154053,14.6958427429199,14.6960325241089,14.6962213516235,14.6964111328125,14.6965999603271,14.6967897415161,14.6969795227051,14.6971683502197,14.6973581314087,14.6975469589233,14.6977367401123,14.6979265213013,14.6981153488159,14.6983051300049,14.6984949111938,14.6986837387085,14.6988735198975,14.6990623474121,14.6992521286011,14.69944190979,14.6996307373047,14.6998205184937,14.7000102996826,14.7001991271973,14.7003889083862,14.7005786895752,14.7007675170898,14.7009572982788,14.7011470794678,14.7013368606567,14.7015256881714,14.7017154693604,14.7019052505493,14.702094078064,14.7022838592529,14.7024736404419,14.7026634216309,14.7028522491455,14.7030420303345,14.7032318115234,14.7034215927124,14.7036104202271,14.703800201416,14.703989982605,14.7041797637939,14.7043695449829,14.7045583724976,14.7047481536865,14.7049379348755,14.7051277160645,14.7053174972534,14.7055063247681,14.705696105957,14.705885887146,14.706075668335,14.7062654495239,14.7064542770386,14.7066440582275,14.7068338394165,14.7070236206055,14.7072134017944,14.7074031829834,14.7075929641724,14.7074270248413,14.6702108383179,14.6704006195068,14.6705904006958,14.6707792282104,14.7823724746704,14.7825622558594,14.8192586898804,14.8194494247437,14.8196411132812,14.8198328018188,14.8200235366821,14.8202152252197,14.820405960083,14.8205976486206,14.8207883834839,14.8209800720215,14.8211708068848,14.8213624954224,14.82155418396,14.8217449188232,14.8219366073608,14.8221273422241,14.8223190307617,14.822509765625,14.8227014541626,14.8228921890259,14.786566734314,14.7867593765259,14.8234663009644
14.5460824966431,14.5462684631348,14.5464553833008,14.6197366714478,14.6199235916138,14.6201114654541,14.6203002929688,14.6204881668091,14.6206760406494,14.6208639144897,14.6210527420044,14.6212406158447,14.6214284896851,14.6216173171997,12.8221797943115,12.8223447799683,12.822509765625,14.6223697662354,14.6225576400757,14.6227464675903,14.6229343414307,14.623122215271,14.6233110427856,14.623498916626,14.6236877441406,14.623875617981,14.6240634918213,14.6242523193359,14.6244401931763,14.6246280670166,14.6248168945312,14.6250057220459,12.8251514434814,12.8253164291382,12.8254814147949,14.6257591247559,14.6259469985962,14.6261358261108,14.6263246536255,14.6265125274658,14.6267013549805,14.5537633895874,14.5539503097534,14.6875324249268,14.6877212524414,14.6879110336304,14.688099861145,14.6882886886597,14.6884784698486,14.6886672973633,12.8281230926514,12.8282880783081,12.8284530639648,14.6894245147705,14.6896133422852,14.6898021697998,14.6899919509888,14.6901807785034,14.6903705596924,14.690559387207,14.6907482147217,14.6909379959106,14.6911268234253,14.3674116134644,13.9833078384399,13.5991954803467,13.2150659561157,12.8744974136353,12.8310995101929,12.8312644958496,14.6926412582397,14.6928310394287,14.6930198669434,14.6932096481323,14.693398475647,14.6935882568359,14.6937770843506,14.6939668655396,14.6941556930542,14.6943454742432,14.6945343017578,14.6947240829468,14.6949129104614,14.6951026916504,14.695291519165,14.695481300354,14.695671081543,14.6958599090576,14.6960496902466,14.6962385177612,14.6964282989502,14.6966171264648,14.6968069076538,14.6969966888428,14.6971855163574,14.6973752975464,14.697564125061,14.69775390625,14.697943687439,14.6981325149536,14.6983222961426,14.6985120773315,14.6987009048462,14.6988906860352,14.6990804672241,14.6992692947388,14.6994590759277,14.6996488571167,14.6998376846313,14.7000274658203,14.7002172470093,14.7004060745239,14.7005958557129,14.7007856369019,14.7009744644165,14.7011642456055,14.7013540267944,14.7015428543091,14.701732635498,14.701922416687,14.702112197876,14.7023010253906,14.7024908065796,14.7026805877686,14.7028703689575,14.7030591964722,14.7032489776611,14.7034387588501,14.7036285400391,14.7038173675537,14.7040071487427,14.7041969299316,14.7043867111206,14.7045755386353,14.7047653198242,14.7049551010132,14.7051448822021,14.7053346633911,14.7055234909058,14.7057132720947,14.7059030532837,14.7060928344727,14.7062826156616,14.7064723968506,14.7066612243652,14.7068510055542,14.7070407867432,14.7072305679321,14.7074203491211,14.7076101303101,14.707799911499,14.707989692688,14.7081785202026,14.7083683013916,14.7085580825806,14.7087478637695,14.7069110870361,14.6713638305664,14.6715536117554,14.67174243927,14.671932220459,14.7835340499878,14.7837238311768,14.8204231262207,14.820613861084,14.8208055496216,14.8209962844849,14.8211879730225,14.8213796615601,14.8215703964233,14.8217620849609,14.8219528198242,14.8221445083618,14.8223352432251,14.8225269317627,14.8227186203003,14.8229093551636,14.8231010437012,14.8232917785645,14.8234834671021,14.8236742019653,14.8238658905029,14.8240566253662,14.7877292633057,14.7879209518433,14.8246307373047
14.5472230911255,14.5474090576172,14.5475959777832,14.6208829879761,14.6210699081421,14.6212577819824,14.6214466094971,14.6216344833374,14.6218223571777,14.6220111846924,14.6221990585327,14.622386932373,14.6225757598877,14.622763633728,12.823184967041,12.8233499526978,12.8235149383545,14.6235160827637,14.6237049102783,14.6238927841187,14.6240816116333,14.6242694854736,14.624457359314,14.6246461868286,14.6248340606689,14.6250228881836,14.6252107620239,14.6253986358643,14.6255874633789,14.6257753372192,14.6259641647339,14.6261520385742,12.8261575698853,12.826322555542,12.8264875411987,14.6269063949585,14.6270942687988,14.6272830963135,14.6274719238281,14.6276597976685,14.6278486251831,14.5549049377441,14.5550918579102,14.688684463501,14.6888732910156,14.6890630722046,14.6892518997192,14.6894416809082,14.6896305084229,14.6898193359375,12.8291301727295,12.8292951583862,12.8294591903687,14.6905765533447,14.6907653808594,14.6909551620483,14.691143989563,14.691333770752,14.6915225982666,14.6917123794556,14.6919012069702,14.6920909881592,14.6922798156738,14.3685388565063,13.9844045639038,13.6002626419067,13.216103553772,12.8731279373169,12.8321056365967,12.8322715759277,14.6937942504883,14.6939840316772,14.6941728591919,14.6943626403809,14.6945514678955,14.6947412490845,14.6949300765991,14.6951198577881,14.6953086853027,14.6954984664917,14.6956882476807,14.6958770751953,14.6960668563843,14.6962556838989,14.6964454650879,14.6966342926025,14.6968240737915,14.6970138549805,14.6972026824951,14.6973924636841,14.6975812911987,14.6977710723877,14.6979608535767,14.6981496810913,14.6983394622803,14.6985292434692,14.6987180709839,14.6989078521729,14.6990976333618,14.6992864608765,14.6994762420654,14.6996660232544,14.699854850769,14.700044631958,14.700234413147,14.7004232406616,14.7006130218506,14.7008028030396,14.7009916305542,14.7011814117432,14.7013711929321,14.7015609741211,14.7017498016357,14.7019395828247,14.7021293640137,14.7023181915283,14.7025079727173,14.7026977539062,14.7028875350952,14.7030763626099,14.7032661437988,14.7034559249878,14.7036457061768,14.7038345336914,14.7040243148804,14.7042140960693,14.7044038772583,14.7045936584473,14.7047824859619,14.7049722671509,14.7051620483398,14.7053518295288,14.7055416107178,14.7057304382324,14.7059202194214,14.7061100006104,14.7062997817993,14.7064895629883,14.7066793441772,14.7068681716919,14.7070579528809,14.7072477340698,14.7074375152588,14.7076272964478,14.7078170776367,14.7080068588257,14.7081966400146,14.7083854675293,14.7085752487183,14.7087650299072,14.7089548110962,14.7091445922852,14.7093343734741,14.7095241546631,14.7097139358521,14.709903717041,14.706395149231,14.6725158691406,14.6727056503296,14.6728954315186,14.6730852127075,14.7846956253052,14.7848854064941,14.821587562561,14.8217782974243,14.8219699859619,14.8221616744995,14.8223524093628,14.8225440979004,14.8227348327637,14.8229265213013,14.8231182098389,14.8233089447021,14.8235006332397,14.823691368103,14.8238830566406,14.8240737915039,14.8242654800415,14.8244571685791,14.8246479034424,14.82483959198,14.8250303268433,14.8252220153809,14.788890838623,14.789083480835,14.8257961273193
14.5483636856079,14.5485496520996,14.5487365722656,14.6220293045044,14.6222171783447,14.6224050521851,14.6225929260254,14.6227807998657,14.6229696273804,14.6231575012207,14.623345375061,14.6235342025757,14.623722076416,14.6239109039307,12.8241910934448,12.8243560791016,12.8245210647583,14.6246633529663,14.624852180481,14.6250400543213,14.6252279281616,14.6254167556763,14.6256046295166,14.6257934570312,14.6259813308716,14.6261701583862,14.6263580322266,14.6265459060669,14.6267347335815,14.6269226074219,14.6271114349365,14.6272993087769,12.8271636962891,12.8273286819458,12.8274936676025,14.6280536651611,14.6282424926758,14.6284303665161,14.6286191940308,14.6288080215454,14.6289958953857,14.5560464859009,14.5562343597412,14.6898365020752,14.6900262832642,14.6902151107788,14.6904048919678,14.6905937194824,14.6907825469971,14.690972328186,12.8301362991333,12.83030128479,12.8304662704468,14.6917295455933,14.6919183731079,14.6921081542969,14.6922969818115,14.6924867630005,14.6926755905151,14.6928653717041,14.6930541992188,14.6932439804077,14.6934328079224,14.3696670532227,13.985502243042,13.6013298034668,13.2171401977539,12.8717584609985,12.8331127166748,12.8332786560059,14.6949472427368,14.6951370239258,14.6953258514404,14.6955156326294,14.695704460144,14.695894241333,14.696084022522,14.6962728500366,14.6964626312256,14.6966514587402,14.6968412399292,14.6970310211182,14.6972198486328,14.6974096298218,14.6975984573364,14.6977882385254,14.6979780197144,14.698166847229,14.698356628418,14.6985464096069,14.6987352371216,14.6989250183105,14.6991147994995,14.6993036270142,14.6994934082031,14.6996831893921,14.6998720169067,14.7000617980957,14.7002515792847,14.7004404067993,14.7006301879883,14.7008199691772,14.7010087966919,14.7011985778809,14.7013883590698,14.7015781402588,14.7017669677734,14.7019567489624,14.7021465301514,14.7023363113403,14.702525138855,14.7027149200439,14.7029047012329,14.7030944824219,14.7032833099365,14.7034730911255,14.7036628723145,14.7038526535034,14.7040414810181,14.704231262207,14.704421043396,14.704610824585,14.7048006057739,14.7049894332886,14.7051792144775,14.7053689956665,14.7055587768555,14.7057485580444,14.7059373855591,14.706127166748,14.706316947937,14.706506729126,14.7066965103149,14.7068862915039,14.7070751190186,14.7072649002075,14.7074546813965,14.7076444625854,14.7078342437744,14.7080240249634,14.7082138061523,14.7084035873413,14.7085933685303,14.7087821960449,14.7089719772339,14.7091617584229,14.7093515396118,14.7095413208008,14.7097311019897,14.7099208831787,14.7101106643677,14.7103004455566,14.7104902267456,14.7106800079346,14.7108697891235,14.7110595703125,14.7058792114258,14.6736688613892,14.6738586425781,14.6740484237671,14.6742372512817,14.7858572006226,14.7860469818115,14.8227519989014,14.822943687439,14.8231344223022,14.8233261108398,14.8235168457031,14.8237085342407,14.8239002227783,14.8240909576416,14.8242826461792,14.8244743347168,14.8246650695801,14.8248567581177,14.825047492981,14.8252391815186,14.8254299163818,14.8256216049194,14.825813293457,14.8260040283203,14.8261957168579,14.8263864517212,14.7900533676147,14.7902460098267,14.8269605636597
14.5495042800903,14.549690246582,14.549877166748,14.6231756210327,14.623363494873,14.6235513687134,14.6237392425537,14.6239280700684,14.6241159439087,14.6243047714233,14.6244926452637,14.624680519104,14.6248693466187,14.625057220459,12.8251962661743,12.8253612518311,12.8255271911621,14.6258106231689,14.6259984970093,14.6261873245239,14.6263751983643,14.6265640258789,14.6267518997192,14.6269407272339,14.6271286010742,14.6273174285889,14.6275053024292,14.6276941299438,14.6278820037842,14.6280708312988,14.6282587051392,14.6284475326538,12.8281698226929,12.8283348083496,12.8284997940063,14.6292009353638,14.6293897628784,14.6295785903931,14.6297664642334,14.629955291748,14.6301441192627,14.5571889877319,14.5573759078979,14.6909894943237,14.6911783218384,14.6913681030273,14.691556930542,14.691746711731,14.6919355392456,14.6921253204346,12.8311433792114,12.8313083648682,12.8314733505249,14.6928815841675,14.6930713653564,14.6932601928711,14.6934499740601,14.693639755249,14.6938285827637,14.6940183639526,14.6942071914673,14.6943969726562,14.6945858001709,14.3707942962646,13.9865999221802,13.6023969650269,13.2181777954102,12.8703899383545,12.8341197967529,12.834285736084,14.6961011886597,14.6962900161743,14.6964797973633,14.6966686248779,14.6968584060669,14.6970481872559,14.6972370147705,14.6974267959595,14.6976156234741,14.6978054046631,14.6979951858521,14.6981840133667,14.6983737945557,14.6985635757446,14.6987524032593,14.6989421844482,14.6991319656372,14.6993207931519,14.6995105743408,14.6997003555298,14.6998891830444,14.7000789642334,14.7002687454224,14.700457572937,14.700647354126,14.7008371353149,14.7010259628296,14.7012157440186,14.7014055252075,14.7015953063965,14.7017841339111,14.7019739151001,14.7021636962891,14.702353477478,14.7025423049927,14.7027320861816,14.7029218673706,14.7031116485596,14.7033004760742,14.7034902572632,14.7036800384521,14.7038698196411,14.7040596008301,14.7042484283447,14.7044382095337,14.7046279907227,14.7048177719116,14.7050065994263,14.7051963806152,14.7053861618042,14.7055759429932,14.7057657241821,14.7059555053711,14.7061443328857,14.7063341140747,14.7065238952637,14.7067136764526,14.7069034576416,14.7070932388306,14.7072830200195,14.7074718475342,14.7076616287231,14.7078514099121,14.7080411911011,14.70823097229,14.708420753479,14.708610534668,14.7088003158569,14.7089900970459,14.7091789245605,14.7093687057495,14.7095584869385,14.7097482681274,14.7099380493164,14.7101278305054,14.7103176116943,14.7105073928833,14.7106971740723,14.7108869552612,14.7110767364502,14.7112665176392,14.7114562988281,14.7116460800171,14.7118358612061,14.712025642395,14.712215423584,14.7053632736206,14.6748218536377,14.6750116348267,14.6752014160156,14.6753911972046,14.7870187759399,14.7872085571289,14.8239164352417,14.8241081237793,14.8242998123169,14.8244905471802,14.8246822357178,14.8248739242554,14.8250646591187,14.8252563476562,14.8254480361938,14.8256387710571,14.8258304595947,14.826021194458,14.8262128829956,14.8264045715332,14.8265953063965,14.8267869949341,14.8269777297974,14.827169418335,14.8273611068726,14.8275518417358,14.7912158966064,14.791407585144,14.8281259536743
14.5506448745728,14.5508317947388,14.5510187149048,14.6243228912354,14.6245107650757,14.624698638916,14.6248865127563,14.625075340271,14.6252632141113,14.6254510879517,14.6256399154663,14.6258277893066,14.6260166168213,14.6262044906616,12.8262023925781,12.8263673782349,12.8265333175659,14.6269578933716,14.6271457672119,14.6273345947266,14.6275224685669,14.6277112960815,14.6278991699219,14.6280879974365,14.6282758712769,14.6284646987915,14.6286525726318,14.6288414001465,14.6290292739868,14.6292181015015,14.6294069290161,14.6295948028564,12.8291759490967,12.8293418884277,12.8295068740845,14.6303491592407,14.6305379867554,14.6307258605957,14.6309146881104,14.631103515625,14.6312913894653,14.558331489563,14.558518409729,14.6921424865723,14.6923313140869,14.6925201416016,14.6927099227905,14.6928987503052,14.6930885314941,14.6932773590088,12.8321504592896,12.8323154449463,12.832480430603,14.6940355300903,14.694224357605,14.6944141387939,14.6946029663086,14.6947927474976,14.6949815750122,14.6951713562012,14.6953601837158,14.6955499649048,14.6957387924194,14.371922492981,13.9876976013184,13.6034650802612,13.2192153930664,12.8690214157104,12.8351278305054,12.8352928161621,14.6972541809082,14.6974439620972,14.6976327896118,14.6978225708008,14.6980123519897,14.6982011795044,14.6983909606934,14.6985807418823,14.698769569397,14.6989593505859,14.6991491317749,14.6993379592896,14.6995277404785,14.6997175216675,14.6999063491821,14.7000961303711,14.7002859115601,14.7004747390747,14.7006645202637,14.7008543014526,14.7010431289673,14.7012329101562,14.7014226913452,14.7016124725342,14.7018013000488,14.7019910812378,14.7021808624268,14.7023706436157,14.7025594711304,14.7027492523193,14.7029390335083,14.7031288146973,14.7033176422119,14.7035074234009,14.7036972045898,14.7038869857788,14.7040767669678,14.7042655944824,14.7044553756714,14.7046451568604,14.7048349380493,14.7050247192383,14.7052135467529,14.7054033279419,14.7055931091309,14.7057828903198,14.7059726715088,14.7061624526978,14.7063512802124,14.7065410614014,14.7067308425903,14.7069206237793,14.7071104049683,14.7073001861572,14.7074899673462,14.7076787948608,14.7078685760498,14.7080583572388,14.7082481384277,14.7084379196167,14.7086277008057,14.7088174819946,14.7090072631836,14.7091970443726,14.7093868255615,14.7095756530762,14.7097654342651,14.7099552154541,14.7101449966431,14.710334777832,14.710524559021,14.71071434021,14.7109041213989,14.7110939025879,14.7112836837769,14.7114734649658,14.7116632461548,14.7118530273438,14.7120428085327,14.7122325897217,14.7124223709106,14.7126121520996,14.7128019332886,14.7129917144775,14.7131814956665,14.7133712768555,14.7048473358154,14.6759748458862,14.6761646270752,14.6763544082642,14.6765441894531,14.7881813049316,14.7883710861206,14.8250818252563,14.8252735137939,14.8254642486572,14.8256559371948,14.8258476257324,14.8260383605957,14.8262300491333,14.8264217376709,14.8266124725342,14.8268041610718,14.8269948959351,14.8271865844727,14.8273782730103,14.8275690078735,14.8277606964111,14.8279523849487,14.828143119812,14.8283348083496,14.8285264968872,14.8287172317505,14.7923793792725,14.7925710678101,14.829291343689
14.5517864227295,14.5519723892212,14.5521593093872,14.625470161438,14.625657081604,14.6258459091187,14.626033782959,14.6262226104736,14.626410484314,14.6265983581543,14.6267871856689,14.6269750595093,14.6271638870239,14.6273517608643,12.8272085189819,12.8273735046387,12.8275394439697,14.6281051635742,14.6282939910889,14.6284818649292,14.6286706924438,14.6288585662842,14.6290473937988,14.6292352676392,14.6294240951538,14.6296119689941,14.6298007965088,14.6299896240234,14.6301774978638,14.6303663253784,14.6305541992188,14.6307430267334,12.8301830291748,12.8303480148315,12.8305130004883,14.6314973831177,14.631685256958,14.6318740844727,14.6320629119873,14.632251739502,14.6324396133423,14.559473991394,14.5596609115601,14.6932945251465,14.6934843063354,14.6936731338501,14.6938629150391,14.694052696228,14.6942415237427,14.6944313049316,12.8331575393677,12.8333225250244,12.8334875106812,14.6951885223389,14.6953773498535,14.6955671310425,14.6957559585571,14.6959457397461,14.6961355209351,14.6963243484497,14.6965141296387,14.6967029571533,14.6968927383423,14.3730497360229,13.9887952804565,13.6045322418213,13.2202529907227,12.8676538467407,12.8361349105835,12.8363008499146,14.6984081268311,14.69859790802,14.6987867355347,14.6989765167236,14.6991662979126,14.6993551254272,14.6995449066162,14.6997346878052,14.6999235153198,14.7001132965088,14.7003030776978,14.7004919052124,14.7006816864014,14.7008714675903,14.701060295105,14.7012500762939,14.7014398574829,14.7016296386719,14.7018184661865,14.7020082473755,14.7021980285645,14.7023878097534,14.7025766372681,14.702766418457,14.702956199646,14.703145980835,14.7033348083496,14.7035245895386,14.7037143707275,14.7039041519165,14.7040939331055,14.7042827606201,14.7044725418091,14.704662322998,14.704852104187,14.705041885376,14.7052307128906,14.7054204940796,14.7056102752686,14.7058000564575,14.7059898376465,14.7061796188354,14.7063684463501,14.7065582275391,14.706748008728,14.706937789917,14.707127571106,14.7073173522949,14.7075071334839,14.7076969146729,14.7078857421875,14.7080755233765,14.7082653045654,14.7084550857544,14.7086448669434,14.7088346481323,14.7090244293213,14.7092142105103,14.7094039916992,14.7095937728882,14.7097835540771,14.7099723815918,14.7101621627808,14.7103519439697,14.7105417251587,14.7107315063477,14.7109212875366,14.7111110687256,14.7113008499146,14.7114906311035,14.7116804122925,14.7118701934814,14.7120599746704,14.7122497558594,14.7124395370483,14.7126293182373,14.7128190994263,14.7130088806152,14.7131986618042,14.7133884429932,14.7135782241821,14.7137680053711,14.7139577865601,14.714147567749,14.714337348938,14.714527130127,14.7043313980103,14.6771287918091,14.677318572998,14.6775074005127,14.6776971817017,14.789342880249,14.789532661438,14.826247215271,14.8264379501343,14.8266296386719,14.8268213272095,14.8270130157471,14.8272037506104,14.8273954391479,14.8275861740112,14.8277778625488,14.8279695510864,14.8281602859497,14.8283519744873,14.8285436630249,14.8287343978882,14.8289260864258,14.8291177749634,14.829309463501,14.8295001983643,14.8296918869019,14.8298835754395,14.7935419082642,14.7937335968018,14.8304576873779
14.5529279708862,14.5531139373779,14.5533008575439,14.6266164779663,14.6268043518066,14.6269931793213,14.6271810531616,14.6273698806763,14.6275577545166,14.6277465820312,14.6279344558716,14.6281232833862,14.6283111572266,14.6284999847412,12.8282146453857,12.8283796310425,12.8285455703735,14.6292533874512,14.6294412612915,14.6296300888062,14.6298179626465,14.6300067901611,14.6301946640015,14.6303834915161,14.6305723190308,14.6307601928711,14.6309490203857,14.6311368942261,14.6313257217407,14.6315135955811,14.6317024230957,14.6318912506104,12.8311891555786,12.8313550949097,12.8315200805664,14.6326456069946,14.632833480835,14.6330223083496,14.6332111358643,14.6333999633789,14.6335878372192,14.5606164932251,14.5608034133911,14.6944484710693,14.694637298584,14.6948270797729,14.6950159072876,14.6952056884766,14.6953945159912,14.6955842971802,12.8341646194458,12.8343296051025,12.8344945907593,14.6963415145874,14.6965312957764,14.696720123291,14.69690990448,14.6970996856689,14.6972885131836,14.6974782943726,14.6976671218872,14.6978569030762,14.6980466842651,14.3741779327393,13.989893913269,13.6056003570557,13.2212915420532,12.8662853240967,12.8371429443359,12.8373079299927,14.6995620727539,14.6997518539429,14.6999406814575,14.7001304626465,14.7003202438354,14.7005090713501,14.7006988525391,14.700888633728,14.7010774612427,14.7012672424316,14.7014570236206,14.7016468048096,14.7018356323242,14.7020254135132,14.7022151947021,14.7024049758911,14.7025938034058,14.7027835845947,14.7029733657837,14.7031631469727,14.7033519744873,14.7035417556763,14.7037315368652,14.7039213180542,14.7041110992432,14.7042999267578,14.7044897079468,14.7046794891357,14.7048692703247,14.7050590515137,14.7052478790283,14.7054376602173,14.7056274414062,14.7058172225952,14.7060070037842,14.7061967849731,14.7063856124878,14.7065753936768,14.7067651748657,14.7069549560547,14.7071447372437,14.7073345184326,14.7075242996216,14.7077140808105,14.7079038619995,14.7080926895142,14.7082824707031,14.7084722518921,14.7086620330811,14.70885181427,14.709041595459,14.7092313766479,14.7094211578369,14.7096109390259,14.7098007202148,14.7099905014038,14.7101802825928,14.7103700637817,14.7105588912964,14.7107486724854,14.7109384536743,14.7111282348633,14.7113180160522,14.7115077972412,14.7116975784302,14.7118873596191,14.7120771408081,14.7122669219971,14.712456703186,14.712646484375,14.712836265564,14.7130260467529,14.7132158279419,14.7134056091309,14.7135953903198,14.7137851715088,14.7139749526978,14.714165687561,14.71435546875,14.714545249939,14.7147350311279,14.7149248123169,14.7151145935059,14.7153043746948,14.7154941558838,14.7156839370728,14.7038154602051,14.6782817840576,14.6784715652466,14.6786613464355,14.6788511276245,14.7905054092407,14.7906951904297,14.8274126052856,14.8276033401489,14.8277950286865,14.8279867172241,14.8281784057617,14.828369140625,14.8285608291626,14.8287525177002,14.8289432525635,14.8291349411011,14.8293266296387,14.829517364502,14.8297090530396,14.8299007415771,14.8300914764404,14.830283164978,14.8304748535156,14.8306665420532,14.8308572769165,14.8310489654541,14.7947053909302,14.7948961257935,14.8316230773926
14.554069519043,14.5542554855347,14.5544424057007,14.6277647018433,14.6279525756836,14.6281404495239,14.6283283233643,14.6285171508789,14.6287050247192,14.6288938522339,14.6290817260742,14.6292705535889,14.6294593811035,14.6296472549438,12.8292207717896,12.8293857574463,12.8295516967773,14.6304006576538,14.6305894851685,14.6307773590088,14.6309661865234,14.6311550140381,14.6313428878784,14.6315317153931,14.6317195892334,14.631908416748,14.6320972442627,14.632285118103,14.6324739456177,14.632661819458,14.6328506469727,14.6330394744873,12.8321962356567,12.8323621749878,12.8325271606445,14.6337938308716,14.6339817047119,14.6341705322266,14.6343593597412,14.6345481872559,14.6347370147705,14.5617589950562,14.5619459152222,14.6956014633179,14.6957902908325,14.6959800720215,14.6961698532104,14.6963586807251,14.6965484619141,14.6967372894287,12.8351726531982,12.835337638855,12.8355016708374,14.6974954605103,14.6976842880249,14.6978740692139,14.6980638504028,14.6982526779175,14.6984424591064,14.6986322402954,14.6988210678101,14.699010848999,14.699200630188,14.3753070831299,13.9909915924072,13.60666847229,13.2223291397095,12.864917755127,12.8381509780884,12.8383159637451,14.7007160186768,14.7009057998657,14.7010946273804,14.7012844085693,14.7014741897583,14.7016639709473,14.7018527984619,14.7020425796509,14.7022323608398,14.7024221420288,14.7026109695435,14.7028007507324,14.7029905319214,14.7031803131104,14.703369140625,14.703558921814,14.7037487030029,14.7039384841919,14.7041282653809,14.7043170928955,14.7045068740845,14.7046966552734,14.7048864364624,14.7050762176514,14.705265045166,14.705454826355,14.7056446075439,14.7058343887329,14.7060241699219,14.7062139511108,14.7064027786255,14.7065925598145,14.7067823410034,14.7069721221924,14.7071619033813,14.7073516845703,14.7075414657593,14.7077312469482,14.7079210281372,14.7081098556519,14.7082996368408,14.7084894180298,14.7086791992188,14.7088689804077,14.7090587615967,14.7092485427856,14.7094383239746,14.7096281051636,14.7098178863525,14.7100076675415,14.7101974487305,14.7103872299194,14.7105770111084,14.7107667922974,14.7109565734863,14.7111463546753,14.7113351821899,14.7115249633789,14.7117147445679,14.7119045257568,14.7120943069458,14.7122840881348,14.7124738693237,14.7126636505127,14.7128534317017,14.7130432128906,14.7132339477539,14.7134237289429,14.7136135101318,14.7138032913208,14.7139930725098,14.7141828536987,14.7143726348877,14.7145624160767,14.7147521972656,14.7149419784546,14.7151317596436,14.7153215408325,14.7155113220215,14.7157011032104,14.7158908843994,14.7160806655884,14.7162714004517,14.7164611816406,14.7166509628296,14.7168407440186,14.7032995223999,14.6794357299805,14.6796255111694,14.6798152923584,14.6800050735474,14.7916679382324,14.7918577194214,14.8285779953003,14.8287696838379,14.8289604187012,14.8291521072388,14.8293437957764,14.8295345306396,14.8297262191772,14.8299179077148,14.8301095962524,14.8303003311157,14.8304920196533,14.8306837081909,14.8308744430542,14.8310661315918,14.8312578201294,14.831449508667,14.8316402435303,14.8318319320679,14.8320236206055,14.8322153091431,14.7958688735962,14.7960596084595,14.8327894210815
14.5552110671997,14.5553970336914,14.5555849075317,14.6289119720459,14.6290998458862,14.6292877197266,14.6294765472412,14.6296644210815,14.6298532485962,14.6300420761108,14.6302299499512,14.6304187774658,14.6306066513062,14.6307954788208,12.8302278518677,12.8303928375244,12.8305587768555,14.6315488815308,14.6317377090454,14.6319255828857,14.6321144104004,14.6323022842407,14.6324911117554,14.63267993927,14.6328678131104,14.633056640625,14.6332454681396,14.63343334198,14.6336221694946,14.6338109970093,14.6339988708496,14.6341876983643,12.8332033157349,12.8333692550659,12.8335342407227,14.6349420547485,14.6351308822632,14.6353197097778,14.6355075836182,14.6356964111328,14.6358852386475,14.5629014968872,14.5630893707275,14.6967544555664,14.6969442367554,14.6971340179443,14.697322845459,14.6975126266479,14.6977014541626,14.6978912353516,12.8361797332764,12.8363447189331,12.8365097045898,14.6986494064331,14.6988382339478,14.6990280151367,14.6992177963257,14.6994066238403,14.6995964050293,14.6997861862183,14.6999750137329,14.7001647949219,14.7003545761108,14.3764352798462,13.9920902252197,13.6077365875244,13.22336769104,12.8635282516479,12.8391590118408,12.8393239974976,14.7018699645996,14.7020597457886,14.7022495269775,14.7024393081665,14.7026281356812,14.7028179168701,14.7030076980591,14.703197479248,14.7033863067627,14.7035760879517,14.7037658691406,14.7039556503296,14.7041454315186,14.7043342590332,14.7045240402222,14.7047138214111,14.7049036026001,14.7050933837891,14.7052822113037,14.7054719924927,14.7056617736816,14.7058515548706,14.7060413360596,14.7062311172485,14.7064199447632,14.7066097259521,14.7067995071411,14.7069892883301,14.707179069519,14.707368850708,14.707558631897,14.7077484130859,14.7079381942749,14.7081270217896,14.7083168029785,14.7085065841675,14.7086963653564,14.7088861465454,14.7090759277344,14.7092657089233,14.7094554901123,14.7096452713013,14.7098350524902,14.7100248336792,14.7102146148682,14.7104043960571,14.7105941772461,14.7107839584351,14.710973739624,14.711163520813,14.711353302002,14.7115430831909,14.7117328643799,14.7119226455688,14.7121124267578,14.7123022079468,14.7124919891357,14.7126817703247,14.7128715515137,14.7130613327026,14.7132511138916,14.7134408950806,14.7136306762695,14.7138204574585,14.7140102386475,14.7142000198364,14.7143898010254,14.7145795822144,14.7147693634033,14.7149591445923,14.7151489257812,14.7153387069702,14.7155284881592,14.7157182693481,14.7159090042114,14.7160987854004,14.7162885665894,14.7164783477783,14.7166681289673,14.7168579101562,14.7170476913452,14.7172374725342,14.7174282073975,14.7176179885864,14.7178077697754,14.7179975509644,14.7027835845947,14.6805896759033,14.6807794570923,14.6809692382812,14.6811590194702,14.7928304672241,14.7930212020874,14.8297433853149,14.8299350738525,14.8301267623901,14.8303174972534,14.830509185791,14.8307008743286,14.8308916091919,14.8310832977295,14.8312749862671,14.8314666748047,14.831657409668,14.8318490982056,14.8320407867432,14.8322324752808,14.8324241638184,14.8326148986816,14.8328065872192,14.8329982757568,14.8331899642944,14.833381652832,14.7970323562622,14.7972230911255,14.8339557647705
14.5563535690308,14.5565395355225,14.5567264556885,14.6300592422485,14.6302480697632,14.6304359436035,14.6306247711182,14.6308126449585,14.6310014724731,14.6311893463135,14.6313781738281,14.6315660476685,14.6317548751831,14.6319437026978,12.8312339782715,12.8313989639282,12.8315649032593,14.6326971054077,14.6328859329224,14.6330738067627,14.6332626342773,14.633451461792,14.6336393356323,14.633828163147,14.6340169906616,14.634204864502,14.6343936920166,14.6345825195312,14.6347703933716,14.6349592208862,14.6351480484009,14.6353359222412,12.8342113494873,12.834376335144,12.8345413208008,14.6360902786255,14.6362791061401,14.6364679336548,14.6366567611694,14.6368455886841,14.6370344161987,14.5640449523926,14.5642318725586,14.6979084014893,14.6980981826782,14.6982870101929,14.6984767913818,14.6986665725708,14.6988554000854,14.6990451812744,12.8371877670288,12.8373527526855,12.837516784668,14.699803352356,14.6999921798706,14.7001819610596,14.7003717422485,14.7005605697632,14.7007503509521,14.7009401321411,14.7011289596558,14.7013187408447,14.7015085220337,14.3775634765625,13.9931888580322,13.6088056564331,13.2244062423706,12.8621339797974,12.8401670455933,12.84033203125,14.7030248641968,14.7032146453857,14.7034034729004,14.7035932540894,14.7037830352783,14.7039728164673,14.7041625976562,14.7043514251709,14.7045412063599,14.7047309875488,14.7049207687378,14.7051105499268,14.7052993774414,14.7054891586304,14.7056789398193,14.7058687210083,14.7060585021973,14.7062482833862,14.7064371109009,14.7066268920898,14.7068166732788,14.7070064544678,14.7071962356567,14.7073860168457,14.7075757980347,14.7077655792236,14.7079553604126,14.7081441879272,14.7083339691162,14.7085237503052,14.7087135314941,14.7089033126831,14.7090930938721,14.709282875061,14.70947265625,14.709662437439,14.7098522186279,14.7100419998169,14.7102317810059,14.7104215621948,14.7106113433838,14.7108011245728,14.7109909057617,14.7111806869507,14.7113704681396,14.7115602493286,14.7117500305176,14.7119398117065,14.7121295928955,14.7123193740845,14.7125091552734,14.7126989364624,14.7128887176514,14.7130784988403,14.7132682800293,14.7134580612183,14.7136478424072,14.7138376235962,14.7140274047852,14.7142171859741,14.7144069671631,14.7145967483521,14.714786529541,14.71497631073,14.7151660919189,14.7153558731079,14.7155466079712,14.7157363891602,14.7159261703491,14.7161159515381,14.7163057327271,14.716495513916,14.716685295105,14.7168750762939,14.7170648574829,14.7172555923462,14.7174453735352,14.7176351547241,14.7178249359131,14.7180147171021,14.718204498291,14.71839427948,14.7185850143433,14.7187747955322,14.7189645767212,14.7191543579102,14.7022676467896,14.6817436218262,14.6819334030151,14.6821231842041,14.6823129653931,14.7939939498901,14.7941837310791,14.7943754196167,14.79456615448,14.7947568893433,14.7949476242065,14.7951393127441,14.7953300476074,14.7955207824707,14.795711517334,14.7959032058716,14.7960939407349,14.7962846755981,14.7964763641357,14.796667098999,14.7968578338623,14.7970485687256,14.7972402572632,14.7974309921265,14.7976217269897,14.7978134155273,14.7980041503906,14.7981958389282,14.7983865737915,14.7985773086548
14.5574951171875,14.5576810836792,14.5578689575195,14.6312074661255,14.6313953399658,14.6315841674805,14.6317720413208,14.6319608688354,14.6321496963501,14.6323375701904,14.6325263977051,14.6327142715454,14.6329030990601,14.6330919265747,12.8322410583496,12.8324060440063,12.8325719833374,14.6338453292847,14.6340341567993,14.634222984314,14.6344108581543,14.6345996856689,14.6347885131836,14.6349763870239,14.6351652145386,14.6353540420532,14.6355419158936,14.6357307434082,14.6359195709229,14.6361074447632,14.6362962722778,14.6364850997925,12.8352184295654,12.8353834152222,12.8355484008789,14.6372394561768,14.6374282836914,14.6376171112061,14.6378059387207,14.6379947662354,14.63818359375,14.5651884078979,14.565375328064,14.6990623474121,14.6992511749268,14.6994409561157,14.6996307373047,14.6998205184937,14.7000093460083,14.7001991271973,12.8381958007812,12.838360786438,12.8385248184204,14.7009572982788,14.7011461257935,14.7013359069824,14.7015256881714,14.7017154693604,14.701904296875,14.702094078064,14.7022838592529,14.7024736404419,14.7026624679565,14.3786926269531,13.9942874908447,13.6098737716675,13.2254447937012,12.8607406616211,12.8411750793457,12.8413400650024,14.7041797637939,14.7043685913086,14.7045583724976,14.7047481536865,14.7049379348755,14.7051277160645,14.7053165435791,14.7055063247681,14.705696105957,14.705885887146,14.706075668335,14.7062654495239,14.7064542770386,14.7066440582275,14.7068338394165,14.7070236206055,14.7072134017944,14.7074031829834,14.7075929641724,14.7077827453613,14.7079725265503,14.7081613540649,14.7083511352539,14.7085409164429,14.7087306976318,14.7089204788208,14.7091102600098,14.7093000411987,14.7094898223877,14.7096796035767,14.7098693847656,14.7100591659546,14.7102489471436,14.7104387283325,14.7106285095215,14.7108182907104,14.7110080718994,14.7111978530884,14.7113876342773,14.7115774154663,14.7117671966553,14.7119569778442,14.7121467590332,14.7123365402222,14.7125263214111,14.7127161026001,14.7129058837891,14.713095664978,14.713285446167,14.713475227356,14.7136650085449,14.7138547897339,14.7140445709229,14.7142343521118,14.7144241333008,14.7146139144897,14.7148036956787,14.7149934768677,14.715184211731,14.7153739929199,14.7155637741089,14.7157535552979,14.7159433364868,14.7161331176758,14.7163228988647,14.7165126800537,14.7167024612427,14.7168922424316,14.7170829772949,14.7172727584839,14.7174625396729,14.7176523208618,14.7178421020508,14.7180318832397,14.718222618103,14.718412399292,14.718602180481,14.7187919616699,14.7189817428589,14.7191715240479,14.7193622589111,14.7195520401001,14.7197418212891,14.719931602478,14.720121383667,14.7203121185303,14.7017517089844,14.682897567749,14.683087348938,14.683277130127,14.6834669113159,14.7951564788818,14.7953472137451,14.7955389022827,14.795729637146,14.7959203720093,14.7961111068726,14.7963027954102,14.7964935302734,14.7966842651367,14.7968759536743,14.7970666885376,14.7972574234009,14.7974491119385,14.7976398468018,14.797830581665,14.7980222702026,14.7982130050659,14.7984037399292,14.7985954284668,14.7987861633301,14.7989768981934,14.799168586731,14.7993602752686,14.7995500564575,14.7997417449951
14.5586376190186,14.5588235855103,14.5590105056763,14.6323556900024,14.6325435638428,14.6327323913574,14.6329202651978,14.6331090927124,14.6332979202271,14.6334857940674,14.633674621582,14.6338634490967,14.634051322937,14.6342401504517,12.8332481384277,12.8334131240845,12.8335790634155,14.6349945068359,14.6351823806763,14.6353712081909,14.6355600357056,14.6357479095459,14.6359367370605,14.6361255645752,14.6363143920898,14.6365022659302,14.6366910934448,14.6368799209595,14.6370677947998,14.6372566223145,14.6374454498291,14.6376342773438,12.8362255096436,12.8363914489746,12.8365564346313,14.638388633728,14.6385774612427,14.6387662887573,14.638955116272,14.6391439437866,14.6393327713013,14.5663318634033,14.5665187835693,14.700216293335,14.7004060745239,14.7005949020386,14.7007846832275,14.7009744644165,14.7011632919312,14.7013530731201,12.8392038345337,12.8393688201904,12.8395328521729,14.7021112442017,14.7023010253906,14.7024908065796,14.7026796340942,14.7028694152832,14.7030591964722,14.7032489776611,14.7034378051758,14.7036275863647,14.7038173675537,14.3798217773438,13.9953870773315,13.6109428405762,13.2264833450317,12.8593473434448,12.8421840667725,12.8423490524292,14.7053337097168,14.7055234909058,14.7057132720947,14.7059030532837,14.7060928344727,14.7062826156616,14.7064714431763,14.7066612243652,14.7068510055542,14.7070407867432,14.7072305679321,14.7074203491211,14.7076101303101,14.707799911499,14.707989692688,14.7081785202026,14.7083683013916,14.7085580825806,14.7087478637695,14.7089376449585,14.7091274261475,14.7093172073364,14.7095069885254,14.7096967697144,14.7098865509033,14.7100763320923,14.7102661132812,14.7104558944702,14.7106456756592,14.7108354568481,14.7110252380371,14.7112150192261,14.711404800415,14.711594581604,14.711784362793,14.7119741439819,14.7121639251709,14.7123537063599,14.7125434875488,14.7127332687378,14.7129230499268,14.7131128311157,14.7133026123047,14.7134923934937,14.7136821746826,14.7138719558716,14.7140617370605,14.7142515182495,14.7144412994385,14.7146310806274,14.7148208618164,14.7150106430054,14.7152013778687,14.7153911590576,14.7155809402466,14.7157707214355,14.7159605026245,14.7161502838135,14.7163400650024,14.7165298461914,14.7167196273804,14.7169103622437,14.7171001434326,14.7172899246216,14.7174797058105,14.7176694869995,14.7178592681885,14.7180500030518,14.7182397842407,14.7184295654297,14.7186193466187,14.7188091278076,14.7189989089966,14.7191896438599,14.7193794250488,14.7195692062378,14.7197589874268,14.7199487686157,14.720139503479,14.720329284668,14.7205190658569,14.7207088470459,14.7208986282349,14.7210893630981,14.7212791442871,14.7214689254761,14.7012357711792,14.6840524673462,14.6842422485352,14.6844320297241,14.6846218109131,14.7963199615479,14.7965106964111,14.7967023849487,14.796893119812,14.7970838546753,14.7972755432129,14.7974662780762,14.7976570129395,14.7978487014771,14.7980394363403,14.7982301712036,14.7984218597412,14.7986125946045,14.7988033294678,14.7989950180054,14.7991857528687,14.7993774414062,14.7995681762695,14.7997589111328,14.7999505996704,14.8001413345337,14.800332069397,14.8005237579346,14.8007144927979,14.8009052276611
14.5597801208496,14.5599660873413,14.5601530075073,14.6335039138794,14.6336917877197,14.6338806152344,14.634069442749,14.6342573165894,14.634446144104,14.6346349716187,14.634822845459,14.6350116729736,14.6352005004883,14.6353883743286,12.8342552185059,12.8344202041626,12.834587097168,14.6361427307129,14.6363315582275,14.6365203857422,14.6367082595825,14.6368970870972,14.6370859146118,14.6372747421265,14.6374626159668,14.6376514434814,14.6378402709961,14.6380290985107,14.6382169723511,14.6384057998657,14.6385946273804,14.638783454895,12.837233543396,12.8373985290527,12.8375644683838,14.6395378112793,14.6397266387939,14.6399154663086,14.6401042938232,14.6402931213379,14.6404819488525,14.5674753189087,14.5676622390747,14.7013702392578,14.7015600204468,14.7017498016357,14.7019386291504,14.7021284103394,14.7023181915283,14.7025079727173,12.8402118682861,12.8403768539429,12.8405418395996,14.7032661437988,14.7034549713135,14.7036447525024,14.7038345336914,14.7040243148804,14.7042140960693,14.704402923584,14.7045927047729,14.7047824859619,14.7049722671509,14.3809509277344,13.996485710144,13.6120119094849,13.2275218963623,12.8579540252686,12.8431921005249,12.8433570861816,14.7064895629883,14.7066783905029,14.7068681716919,14.7070579528809,14.7072477340698,14.7074375152588,14.7076272964478,14.7078170776367,14.7080068588257,14.7081956863403,14.7083854675293,14.7085752487183,14.7087650299072,14.7089548110962,14.7091445922852,14.7093343734741,14.7095241546631,14.7097139358521,14.709903717041,14.71009349823,14.7102832794189,14.7104730606079,14.7106628417969,14.7108526229858,14.7110424041748,14.7112321853638,14.7114219665527,14.7116117477417,14.7118015289307,14.7119913101196,14.7121810913086,14.7123708724976,14.7125606536865,14.7127504348755,14.7129402160645,14.7131299972534,14.7133197784424,14.7135095596313,14.7136993408203,14.7138891220093,14.7140789031982,14.7142686843872,14.7144584655762,14.7146482467651,14.7148380279541,14.7150278091431,14.7152185440063,14.7154083251953,14.7155981063843,14.7157878875732,14.7159776687622,14.7161674499512,14.7163572311401,14.7165470123291,14.7167377471924,14.7169275283813,14.7171173095703,14.7173070907593,14.7174968719482,14.7176866531372,14.7178764343262,14.7180671691895,14.7182569503784,14.7184467315674,14.7186365127563,14.7188262939453,14.7190170288086,14.7192068099976,14.7193965911865,14.7195863723755,14.7197761535645,14.7199668884277,14.7201566696167,14.7203464508057,14.7205362319946,14.7207260131836,14.7209167480469,14.7211065292358,14.7212963104248,14.7214860916138,14.7216768264771,14.721866607666,14.722056388855,14.7222461700439,14.7224369049072,14.7226266860962,14.700719833374,14.685206413269,14.6853971481323,14.6855869293213,14.6857767105103,14.7974834442139,14.7976751327515,14.7978658676147,14.798056602478,14.7982482910156,14.7984390258789,14.7986297607422,14.7988214492798,14.7990121841431,14.7992038726807,14.7993946075439,14.7995853424072,14.7997770309448,14.7999677658081,14.8001594543457,14.800350189209,14.8005409240723,14.8007326126099,14.8009233474731,14.8011150360107,14.801305770874,14.8014965057373,14.8016881942749,14.8018789291382,14.8020706176758
14.5609226226807,14.5611085891724,14.5612955093384,14.6346521377563,14.634840965271,14.6350288391113,14.635217666626,14.6354064941406,14.635594367981,14.6357831954956,14.6359720230103,14.6361608505249,14.6363487243652,14.6365375518799,12.835262298584,12.835428237915,12.8355941772461,14.6372919082642,14.6374807357788,14.6376686096191,14.6378574371338,14.6380462646484,14.6382350921631,14.6384229660034,14.6386117935181,14.6388006210327,14.6389894485474,14.639178276062,14.6393661499023,14.639554977417,14.6397438049316,14.6399326324463,12.8382415771484,12.8384065628052,12.8385715484619,14.6406869888306,14.6408758163452,14.6410646438599,14.6412534713745,14.6414422988892,14.6416311264038,14.5686187744141,14.5688066482544,14.702525138855,14.7027139663696,14.7029037475586,14.7030935287476,14.7032833099365,14.7034721374512,14.7036619186401,12.8412199020386,12.8413848876953,12.8415498733521,14.7044200897217,14.7046098709106,14.7047996520996,14.7049894332886,14.7051792144775,14.7053680419922,14.7055578231812,14.7057476043701,14.7059373855591,14.706127166748,14.3820810317993,13.9975852966309,13.6130809783936,13.2285614013672,12.8565616607666,12.8442010879517,12.8443660736084,14.7076444625854,14.7078342437744,14.7080240249634,14.708212852478,14.708402633667,14.708592414856,14.7087821960449,14.7089719772339,14.7091617584229,14.7093515396118,14.7095413208008,14.7097311019897,14.7099208831787,14.7101106643677,14.7103004455566,14.7104902267456,14.7106800079346,14.7108697891235,14.7110595703125,14.7112493515015,14.7114391326904,14.7116289138794,14.7118186950684,14.7120084762573,14.7121982574463,14.7123880386353,14.7125778198242,14.7127676010132,14.7129573822021,14.7131471633911,14.7133369445801,14.713526725769,14.713716506958,14.713906288147,14.7140960693359,14.7142858505249,14.7144756317139,14.7146654129028,14.7148551940918,14.7150459289551,14.715235710144,14.715425491333,14.715615272522,14.7158050537109,14.7159948348999,14.7161846160889,14.7163743972778,14.7165641784668,14.7167549133301,14.716944694519,14.717134475708,14.717324256897,14.7175140380859,14.7177038192749,14.7178936004639,14.7180843353271,14.7182741165161,14.7184638977051,14.718653678894,14.718843460083,14.7190341949463,14.7192239761353,14.7194137573242,14.7196035385132,14.7197933197021,14.7199840545654,14.7201738357544,14.7203636169434,14.7205533981323,14.7207441329956,14.7209339141846,14.7211236953735,14.7213134765625,14.7215042114258,14.7216939926147,14.7218837738037,14.7220735549927,14.722264289856,14.7224540710449,14.7226438522339,14.7228336334229,14.7230243682861,14.7232141494751,14.7234039306641,14.7235946655273,14.7237844467163,14.7002048492432,14.6863613128662,14.6865510940552,14.6867418289185,14.6869316101074,14.7986478805542,14.7988386154175,14.7990293502808,14.7992210388184,14.7994117736816,14.7996034622192,14.7997941970825,14.7999858856201,14.8001766204834,14.8003673553467,14.8005590438843,14.8007497787476,14.8009414672852,14.8011322021484,14.801323890686,14.8015146255493,14.8017053604126,14.8018970489502,14.8020877838135,14.8022794723511,14.8024702072144,14.802661895752,14.8028526306152,14.8030443191528,14.8032350540161
14.5620651245117,14.5622520446777,14.5624389648438,14.6358013153076,14.6359891891479,14.6361780166626,14.6363668441772,14.6365547180176,14.6367435455322,14.6369323730469,14.6371212005615,14.6373090744019,14.6374979019165,14.6376867294312,12.8362693786621,12.8364353179932,12.8366012573242,14.6384410858154,14.6386299133301,14.6388177871704,14.6390066146851,14.6391954421997,14.6393842697144,14.639573097229,14.6397609710693,14.639949798584,14.6401386260986,14.6403274536133,14.6405162811279,14.6407051086426,14.6408929824829,14.6410818099976,12.8392496109009,12.8394145965576,12.8395795822144,14.6418371200562,14.6420259475708,14.6422147750854,14.6424036026001,14.6425924301147,14.6427812576294,14.5697631835938,14.5699510574341,14.7036790847778,14.7038688659668,14.7040586471558,14.7042484283447,14.7044372558594,14.7046270370483,14.7048168182373,12.8422288894653,12.8423938751221,12.8425579071045,14.7055749893188,14.7057647705078,14.7059545516968,14.7061443328857,14.7063341140747,14.7065238952637,14.7067127227783,14.7069025039673,14.7070922851562,14.7072820663452,14.3832101821899,13.9986848831177,13.6141500473022,13.2296009063721,12.8551692962646,12.8452100753784,12.8453750610352,14.7087993621826,14.7089891433716,14.7091789245605,14.7093687057495,14.7095584869385,14.7097482681274,14.7099380493164,14.7101278305054,14.7103176116943,14.7105073928833,14.7106971740723,14.7108869552612,14.7110767364502,14.7112665176392,14.7114562988281,14.7116460800171,14.7118358612061,14.712025642395,14.712215423584,14.7124052047729,14.7125949859619,14.7127847671509,14.7129745483398,14.7131643295288,14.7133541107178,14.7135438919067,14.7137336730957,14.7139234542847,14.7141132354736,14.7143030166626,14.7144927978516,14.7146825790405,14.7148723602295,14.7150630950928,14.7152528762817,14.7154426574707,14.7156324386597,14.7158222198486,14.7160120010376,14.7162017822266,14.7163915634155,14.7165813446045,14.7167720794678,14.7169618606567,14.7171516418457,14.7173414230347,14.7175312042236,14.7177209854126,14.7179117202759,14.7181015014648,14.7182912826538,14.7184810638428,14.7186708450317,14.7188606262207,14.719051361084,14.7192411422729,14.7194309234619,14.7196207046509,14.7198104858398,14.7200012207031,14.7201910018921,14.7203807830811,14.72057056427,14.7207612991333,14.7209510803223,14.7211408615112,14.7213306427002,14.7215213775635,14.7217111587524,14.7219009399414,14.7220907211304,14.7222814559937,14.7224712371826,14.7226610183716,14.7228517532349,14.7230415344238,14.7232313156128,14.7234220504761,14.723611831665,14.723801612854,14.723991394043,14.7241821289062,14.7243719100952,14.7245616912842,14.7247524261475,14.7249422073364,14.699688911438,14.6875162124634,14.6877059936523,14.6878967285156,14.6880865097046,14.7998113632202,14.8000030517578,14.8001937866211,14.8003854751587,14.800576210022,14.8007669448853,14.8009586334229,14.8011493682861,14.8013410568237,14.801531791687,14.8017234802246,14.8019142150879,14.8021059036255,14.8022966384888,14.8024883270264,14.8026790618896,14.8028707504272,14.8030614852905,14.8032531738281,14.8034439086914,14.803635597229,14.8038263320923,14.8040180206299,14.8042087554932,14.8043994903564
14.5632085800171,14.5633945465088,14.5651063919067,14.6369495391846,14.6371383666992,14.6373271942139,14.6375150680542,14.6377038955688,14.6378927230835,14.6380815505981,14.6382694244385,14.6384582519531,14.6386470794678,14.6388359069824,12.8372774124146,12.8374433517456,12.8376092910767,14.6395902633667,14.6397790908813,14.639967918396,14.6401557922363,14.640344619751,14.6405334472656,14.6407222747803,14.6409111022949,14.6410999298096,14.6412878036499,14.6414766311646,14.6416654586792,14.6418542861938,14.6420431137085,14.6422319412231,12.8402576446533,12.8404235839844,12.8405885696411,14.6429862976074,14.6431751251221,14.6433639526367,14.6435527801514,14.6437425613403,14.643931388855,14.5709075927734,14.5710945129395,14.704833984375,14.705023765564,14.7052135467529,14.7054023742676,14.7055921554565,14.7057819366455,14.7059717178345,12.8432369232178,12.8434019088745,12.8435668945312,14.706729888916,14.706919670105,14.7071094512939,14.7072992324829,14.7074890136719,14.7076787948608,14.7078685760498,14.7080583572388,14.7082481384277,14.7084369659424,14.3843402862549,13.9997844696045,13.6152191162109,13.2306394577026,12.853777885437,12.8462190628052,12.8463840484619,14.7099552154541,14.7101449966431,14.710334777832,14.710524559021,14.71071434021,14.7109041213989,14.7110939025879,14.7112836837769,14.7114734649658,14.7116632461548,14.7118530273438,14.7120428085327,14.7122325897217,14.7124223709106,14.7126121520996,14.7128019332886,14.7129917144775,14.7131814956665,14.7133712768555,14.7135610580444,14.7137508392334,14.7139406204224,14.7141304016113,14.7143201828003,14.7145099639893,14.7146997451782,14.7148895263672,14.7150802612305,14.7152700424194,14.7154598236084,14.7156496047974,14.7158393859863,14.7160291671753,14.7162189483643,14.7164087295532,14.7165985107422,14.7167892456055,14.7169790267944,14.7171688079834,14.7173585891724,14.7175483703613,14.7177381515503,14.7179288864136,14.7181186676025,14.7183084487915,14.7184982299805,14.7186880111694,14.7188777923584,14.7190685272217,14.7192583084106,14.7194480895996,14.7196378707886,14.7198286056519,14.7200183868408,14.7202081680298,14.7203979492188,14.7205877304077,14.720778465271,14.72096824646,14.7211580276489,14.7213478088379,14.7215385437012,14.7217283248901,14.7219181060791,14.7221088409424,14.7222986221313,14.7224884033203,14.7226781845093,14.7228689193726,14.7230587005615,14.7232484817505,14.7234392166138,14.7236289978027,14.7238187789917,14.724009513855,14.7241992950439,14.7243890762329,14.7245798110962,14.7247695922852,14.7249593734741,14.7251501083374,14.7253398895264,14.7255296707153,14.7257204055786,14.7259101867676,14.7260999679565,14.6991729736328,14.6886720657349,14.6888618469238,14.6890516281128,14.6892414093018,14.8009757995605,14.8011674880981,14.8013582229614,14.8015489578247,14.8017406463623,14.8019313812256,14.8021230697632,14.8023138046265,14.8025054931641,14.8026962280273,14.8028879165649,14.8030786514282,14.8032703399658,14.8034610748291,14.8036527633667,14.8038444519043,14.8040351867676,14.8042268753052,14.8044176101685,14.8046092987061,14.8048000335693,14.8049917221069,14.8051824569702,14.8053741455078,14.8055648803711
14.5643510818481,14.5645380020142,14.568323135376,14.6380987167358,14.6382875442505,14.6384763717651,14.6386642456055,14.6388530731201,14.6390419006348,14.6392307281494,14.6394195556641,14.6396074295044,14.639796257019,14.6399850845337,12.838285446167,12.838451385498,12.8386173248291,14.640739440918,14.6409282684326,14.6411170959473,14.6413059234619,14.6414947509766,14.6416835784912,14.6418714523315,14.6420602798462,14.6422491073608,14.6424379348755,14.6426267623901,14.6428155899048,14.6430044174194,14.6431932449341,14.6433820724487,12.8412656784058,12.8414316177368,12.8415966033936,14.644136428833,14.6443252563477,14.6445140838623,14.644702911377,14.6448917388916,14.6450815200806,14.5720520019531,14.5722389221191,14.7059888839722,14.7061786651611,14.7063684463501,14.7065582275391,14.7067470550537,14.7069368362427,14.7071266174316,12.8442459106445,12.8444108963013,12.844575881958,14.7078857421875,14.7080755233765,14.7082653045654,14.7084541320801,14.708643913269,14.708833694458,14.709023475647,14.7092132568359,14.7094030380249,14.7095928192139,14.3854694366455,14.0008840560913,13.6162891387939,13.2316789627075,12.8523855209351,12.8472280502319,12.8473930358887,14.7111110687256,14.7113008499146,14.7114906311035,14.7116804122925,14.7118701934814,14.7120599746704,14.7122497558594,14.7124395370483,14.7126293182373,14.7128190994263,14.7130088806152,14.7131986618042,14.7133884429932,14.7135782241821,14.7137680053711,14.7139577865601,14.714147567749,14.714337348938,14.714527130127,14.7147169113159,14.7149066925049,14.7150974273682,14.7152872085571,14.7154769897461,14.7156667709351,14.715856552124,14.716046333313,14.716236114502,14.7164258956909,14.7166166305542,14.7168064117432,14.7169961929321,14.7171859741211,14.7173757553101,14.717565536499,14.717755317688,14.7179460525513,14.7181358337402,14.7183256149292,14.7185153961182,14.7187051773071,14.7188959121704,14.7190856933594,14.7192754745483,14.7194652557373,14.7196550369263,14.7198457717896,14.7200355529785,14.7202253341675,14.7204151153564,14.7206048965454,14.7207956314087,14.7209854125977,14.7211751937866,14.7213649749756,14.7215557098389,14.7217454910278,14.7219352722168,14.7221260070801,14.722315788269,14.722505569458,14.722695350647,14.7228860855103,14.7230758666992,14.7232656478882,14.7234563827515,14.7236461639404,14.7238359451294,14.7240266799927,14.7242164611816,14.7244062423706,14.7245969772339,14.7247867584229,14.7249765396118,14.7251672744751,14.7253570556641,14.7255477905273,14.7257375717163,14.7259273529053,14.7261180877686,14.7263078689575,14.7264976501465,14.7266883850098,14.7268781661987,14.727068901062,14.727258682251,14.698657989502,14.689826965332,14.690016746521,14.69020652771,14.6903972625732,14.8021402359009,14.8023319244385,14.8025226593018,14.8027143478394,14.8029050827026,14.8030967712402,14.8032875061035,14.8034791946411,14.8036699295044,14.803861618042,14.8040523529053,14.8042440414429,14.8044347763062,14.8046264648438,14.804817199707,14.8050088882446,14.8052005767822,14.8053913116455,14.8055830001831,14.8057737350464,14.805965423584,14.8061561584473,14.8063478469849,14.8065395355225,14.8067302703857
14.5654945373535,14.5656814575195,14.5715408325195,14.6392478942871,14.6394367218018,14.6396255493164,14.6398134231567,14.6400022506714,14.640191078186,14.6403799057007,14.6405687332153,14.64075756073,14.6409454345703,14.641134262085,12.8392934799194,12.8394594192505,12.8396253585815,14.6418895721436,14.6420783996582,14.6422672271729,14.6424551010132,14.6426439285278,14.6428327560425,14.6430215835571,14.6432104110718,14.6433992385864,14.6435880661011,14.6437768936157,14.6439657211304,14.644154548645,14.6443433761597,14.64453125,12.8422746658325,12.8424396514893,12.8426055908203,14.6452865600586,14.6454753875732,14.6456642150879,14.6458530426025,14.6460428237915,14.6462316513062,14.5731964111328,14.5733833312988,14.7071437835693,14.7073335647583,14.7075233459473,14.7077131271362,14.7079029083252,14.7080926895142,14.7082824707031,12.8452548980713,12.845419883728,12.8455848693848,14.7090406417847,14.7092304229736,14.7094202041626,14.7096099853516,14.7097997665405,14.7099895477295,14.7101793289185,14.7103691101074,14.7105588912964,14.7107486724854,14.3866004943848,14.0019836425781,13.617359161377,13.2327194213867,12.8509941101074,12.848237991333,12.8484029769897,14.7122669219971,14.712456703186,14.712646484375,14.712836265564,14.7130260467529,14.7132158279419,14.7134056091309,14.7135953903198,14.7137851715088,14.7139749526978,14.7141647338867,14.7143545150757,14.7145442962646,14.7147340774536,14.7149248123169,14.7151145935059,14.7153043746948,14.7154941558838,14.7156839370728,14.7158737182617,14.7160634994507,14.7162532806396,14.7164430618286,14.7166337966919,14.7168235778809,14.7170133590698,14.7172031402588,14.7173929214478,14.7175827026367,14.7177724838257,14.717963218689,14.7181529998779,14.7183427810669,14.7185325622559,14.7187223434448,14.7189130783081,14.7191028594971,14.719292640686,14.719482421875,14.719672203064,14.7198629379272,14.7200527191162,14.7202425003052,14.7204322814941,14.7206230163574,14.7208127975464,14.7210025787354,14.7211923599243,14.7213830947876,14.7215728759766,14.7217626571655,14.7219524383545,14.7221431732178,14.7223329544067,14.7225227355957,14.722713470459,14.7229032516479,14.7230930328369,14.7232828140259,14.7234735488892,14.7236633300781,14.7238531112671,14.7240438461304,14.7242336273193,14.7244234085083,14.7246141433716,14.7248039245605,14.7249937057495,14.7251844406128,14.7253742218018,14.725564956665,14.725754737854,14.725944519043,14.7261352539062,14.7263250350952,14.7265157699585,14.7267055511475,14.7268953323364,14.7270860671997,14.7272758483887,14.727466583252,14.7276563644409,14.7278461456299,14.7280368804932,14.7282266616821,14.7284173965454,14.6741428375244,14.6558036804199,14.6559934616089,14.6561822891235,14.6563720703125,14.6565608978271,14.6567497253418,14.6569395065308,14.6571283340454,14.6573181152344,14.657506942749,14.657696723938,14.6578855514526,14.6580753326416,14.6582641601562,14.6584539413452,14.6586427688599,14.6588325500488,14.6590213775635,14.6592111587524,14.6593999862671,14.6595897674561,14.659779548645,14.6599683761597,14.6601581573486,14.6603469848633,14.6605367660522,14.6607255935669,14.6609153747559,14.6611051559448
14.5666379928589,14.5668249130249,14.5747604370117,14.6403970718384,14.640585899353,14.6407747268677,14.6409635543823,14.641152381897,14.6413412094116,14.641529083252,14.6417179107666,14.6419067382812,14.6420955657959,14.6422843933105,12.8403015136719,12.8404674530029,12.840633392334,14.6430387496948,14.6432275772095,14.6434164047241,14.6436052322388,14.6437940597534,14.6439828872681,14.6441717147827,14.6443605422974,14.644549369812,14.6447381973267,14.6449270248413,14.645115852356,14.6453046798706,14.6454935073853,14.6456823348999,12.8432836532593,12.843448638916,12.8436136245728,14.6464376449585,14.6466264724731,14.6468152999878,14.6470041275024,14.6471929550171,14.6473817825317,14.5743408203125,14.5745286941528,14.7082996368408,14.7084884643555,14.7086782455444,14.7088680267334,14.7090578079224,14.7092475891113,14.7094373703003,12.8462648391724,12.8464288711548,12.8465938568115,14.7101964950562,14.7103862762451,14.7105760574341,14.710765838623,14.710955619812,14.711145401001,14.7113351821899,14.7115249633789,14.7117147445679,14.7119045257568,14.3877305984497,14.0030841827393,13.61842918396,13.2337589263916,12.8496026992798,12.8492469787598,12.8494119644165,14.7134227752686,14.7136125564575,14.7138023376465,14.7139921188354,14.7141819000244,14.7143716812134,14.7145614624023,14.7147512435913,14.7149419784546,14.7151317596436,14.7153215408325,14.7155113220215,14.7157011032104,14.7158908843994,14.7160806655884,14.7162704467773,14.7164602279663,14.7166509628296,14.7168407440186,14.7170305252075,14.7172203063965,14.7174100875854,14.7175998687744,14.7177896499634,14.7179803848267,14.7181701660156,14.7183599472046,14.7185497283936,14.7187395095825,14.7189302444458,14.7191200256348,14.7193098068237,14.7194995880127,14.7196893692017,14.7198801040649,14.7200698852539,14.7202596664429,14.7204494476318,14.7206401824951,14.7208299636841,14.721019744873,14.721209526062,14.7214002609253,14.7215900421143,14.7217798233032,14.7219696044922,14.7221603393555,14.7223501205444,14.7225399017334,14.7227306365967,14.7229204177856,14.7231101989746,14.7232999801636,14.7234907150269,14.7236804962158,14.7238702774048,14.7240610122681,14.724250793457,14.724440574646,14.7246313095093,14.7248210906982,14.7250118255615,14.7252016067505,14.7253913879395,14.7255821228027,14.7257719039917,14.7259616851807,14.7261524200439,14.7263422012329,14.7265329360962,14.7267227172852,14.7269124984741,14.7271032333374,14.7272930145264,14.7274837493896,14.7276735305786,14.7278642654419,14.7280540466309,14.7282438278198,14.7284345626831,14.7286243438721,14.7288150787354,14.7290048599243,14.7291955947876,14.7293853759766,14.7295761108398,14.6736240386963,14.6569566726685,14.6571455001831,14.6573352813721,14.6575241088867,14.6577138900757,14.6579027175903,14.6580924987793,14.6582813262939,14.6584711074829,14.6586599349976,14.6588497161865,14.6590385437012,14.6592283248901,14.6594171524048,14.6596069335938,14.6597957611084,14.6599855422974,14.660174369812,14.660364151001,14.6605539321899,14.6607427597046,14.6609325408936,14.6611213684082,14.6613111495972,14.6615009307861,14.6616897583008,14.6618795394897,14.6620683670044,14.6622581481934
