11.0580129623413,11.0581474304199,11.0582818984985,11.0584173202515,11.0585517883301,11.0586862564087,11.0588216781616,11.0589561462402,11.0590915679932,11.0592260360718,11.0593605041504,11.0594959259033,11.0596303939819,11.0597648620605,11.0599002838135,11.0600347518921,11.060170173645,11.0603046417236,11.0604391098022,11.0605745315552,11.0607089996338,11.0608444213867,11.0609788894653,11.0611143112183,11.1635112762451,11.2765827178955,11.3919563293457,11.5097141265869,11.6299324035645,11.7526893615723,11.8780641555786,12.0061435699463,12.1370153427124,12.2707710266113,12.4075078964233,12.547327041626,12.690333366394,12.8366374969482,12.9863548278809,13.0015993118286,13.0017576217651,13.0019159317017,13.0020742416382,13.0022325515747,13.0023918151855,13.0025501251221,13.0027084350586,13.0028667449951,13.003026008606,13.0031843185425,13.003342628479,13.0035009384155,13.0036602020264,13.0166578292847,13.0168161392212,13.0865898132324,13.0867490768433,13.0869092941284,13.0870685577393,13.0872278213501,13.0873880386353,13.0875473022461,13.0877065658569,13.0878667831421,13.0880260467529,13.0881862640381,13.0883455276489,13.0885047912598,13.0886650085449,13.0888242721558,13.0889844894409,13.0891437530518,13.0893030166626,13.0894632339478,13.0896224975586,13.0897827148438,13.0899419784546,13.0901012420654,13.0902614593506,13.0904207229614,13.0905809402466,13.0907402038574,13.0908994674683,13.0910596847534,13.0912189483643,13.0913791656494,13.0915384292603,13.0916986465454,13.0918579101562,13.0920181274414,13.0921773910522,13.0923366546631,13.0924968719482,13.0926561355591,13.0928163528442,13.0929756164551,13.0931358337402,13.0932950973511,12.8782415390015,12.878396987915,12.8785543441772,12.9514722824097,12.9516305923462,12.9517879486084,12.9519462585449,12.9521045684814,12.9522619247437,12.9524202346802,12.9525785446167,12.9527368545532,12.9528942108154,12.953052520752,12.9532108306885,12.953369140625,12.9535264968872,12.9536848068237,12.9538431167603,12.9540014266968,12.954158782959,12.9543170928955,12.954475402832,12.9546337127686,12.9547920227051,12.9549493789673,12.9551076889038,12.9552659988403,12.9554243087769,12.9555826187134,12.9557409286499,12.9558982849121,12.9560565948486,12.9562149047852,12.9563732147217,12.9565315246582,12.9566898345947,12.9568481445312,12.9570055007935,12.95716381073,12.9573221206665,12.957480430603,12.9576387405396,12.9577970504761,12.9579553604126,12.9581136703491,12.8854732513428,12.8856315612793,12.8857889175415,13.0187425613403,13.0189008712769,13.0190601348877,13.0192184448242,13.0193777084351,13.0195369720459,13.0196952819824,13.0198545455933,13.0200138092041,13.0201730728149,13.0203313827515,13.0204906463623,13.0206499099731,13.0208082199097,13.0209674835205,13.0211267471313,13.0212860107422,13.0214443206787,13.0216035842896,13.0217628479004,13.0219221115112,13.0220804214478,13.0222396850586,13.0223989486694,13.0225582122803,13.0227165222168,13.0228757858276,13.0230350494385,13.0231943130493,13.0233535766602,13.0235118865967,13.0236711502075,13.0238304138184,13.0239896774292,13.02414894104,13.0243072509766,13.0244665145874
11.0590839385986,11.0592184066772,11.0593538284302,11.0594882965088,11.0596227645874,11.0597581863403,11.0598926544189,11.0600280761719,11.0601625442505,11.0602970123291,11.060432434082,11.0605669021606,11.0607023239136,11.0608367919922,11.0609722137451,11.0611066818237,11.0612411499023,11.0613765716553,11.0615110397339,11.0616464614868,11.0617809295654,11.0619163513184,11.062050819397,11.0621862411499,11.1642017364502,11.2772932052612,11.3926811218262,11.5104541778564,11.6306886672974,11.7534608840942,11.8788528442383,12.0069484710693,12.1378374099731,12.2716121673584,12.4083681106567,12.5482053756714,12.6912317276001,12.8375568389893,12.9872961044312,13.0028591156006,13.0030174255371,13.0031766891479,13.0033349990845,13.003493309021,13.0036516189575,13.0038108825684,13.0039691925049,13.0041275024414,13.0042858123779,13.0044450759888,13.0046033859253,13.0047616958618,13.0049209594727,13.0179204940796,13.0180778503418,13.0878582000732,13.0880174636841,13.0881776809692,13.0883369445801,13.0884971618652,13.0886564254761,13.0888156890869,13.0889759063721,13.0891351699829,13.0892953872681,13.0894546508789,13.0896148681641,13.0897741317749,13.0899343490601,13.0900936126709,13.0902528762817,13.0904130935669,13.0905723571777,13.0907325744629,13.0908918380737,13.0910520553589,13.0912113189697,13.0913705825806,13.0915307998657,13.0916900634766,13.0918502807617,13.0920095443726,13.0921697616577,13.0923290252686,13.0924892425537,13.0926485061646,13.0928087234497,13.0929679870605,13.0931272506714,13.0932874679565,13.0934467315674,13.0936069488525,13.0937662124634,13.0939264297485,13.0940856933594,13.0942459106445,13.0944051742554,13.0945653915405,12.879490852356,12.8796463012695,12.8798036575317,12.9527292251587,12.9528865814209,12.9530448913574,12.9532022476196,12.9533605575562,12.9535188674927,12.9536771774292,12.9538345336914,12.9539928436279,12.9541511535645,12.954309463501,12.9544668197632,12.9546251296997,12.9547834396362,12.9549417495728,12.9551000595093,12.9552574157715,12.955415725708,12.9555740356445,12.9557323455811,12.9558906555176,12.9560489654541,12.9562063217163,12.9563646316528,12.9565229415894,12.9566812515259,12.9568395614624,12.9569978713989,12.9571561813354,12.9573135375977,12.9574718475342,12.9576301574707,12.9577884674072,12.9579467773438,12.9581050872803,12.9582633972168,12.9584217071533,12.9585800170898,12.9587383270264,12.9588966369629,12.9590539932251,12.9592123031616,12.9593706130981,12.8867244720459,12.8868818283081,12.8870391845703,13.0200052261353,13.0201644897461,13.0203237533569,13.0204820632935,13.0206413269043,13.0208005905151,13.020959854126,13.0211181640625,13.0212774276733,13.0214366912842,13.0215950012207,13.0217542648315,13.0219135284424,13.0220727920532,13.0222320556641,13.0223903656006,13.0225496292114,13.0227088928223,13.0228681564331,13.0230264663696,13.0231857299805,13.0233449935913,13.0235042572021,13.023663520813,13.0238218307495,13.0239810943604,13.0241403579712,13.024299621582,13.0244588851929,13.0246171951294,13.0247764587402,13.0249357223511,13.0250949859619,13.0252542495728,13.0254135131836,13.0255718231201,13.025731086731
11.060154914856,11.0602903366089,11.0604248046875,11.0605602264404,11.060694694519,11.060830116272,11.0609645843506,11.0610990524292,11.0612344741821,11.0613689422607,11.0615043640137,11.0616388320923,11.0617742538452,11.0619087219238,11.0620441436768,11.0621786117554,11.062313079834,11.0624485015869,11.0625829696655,11.0627183914185,11.0628528594971,11.06298828125,11.0631227493286,11.0632581710815,11.1648931503296,11.2780027389526,11.3934059143066,11.511194229126,11.631443977356,11.7542324066162,11.8796405792236,12.0077533721924,12.1386604309082,12.2724523544312,12.4092273712158,12.5490846633911,12.6921310424805,12.8384761810303,12.9882354736328,13.0041198730469,13.0042781829834,13.0044364929199,13.0045957565308,13.0047540664673,13.0049123764038,13.0050716400146,13.0052299499512,13.0053882598877,13.0055465698242,13.0057058334351,13.0058641433716,13.0060224533081,13.0061817169189,13.0191822052002,13.0193405151367,13.0891275405884,13.0892868041992,13.0894460678101,13.0896062850952,13.0897655487061,13.0899257659912,13.0900850296021,13.0902452468872,13.090404510498,13.0905647277832,13.090723991394,13.0908842086792,13.09104347229,13.0912027359009,13.091362953186,13.0915222167969,13.091682434082,13.0918416976929,13.092001914978,13.0921611785889,13.092321395874,13.0924806594849,13.09264087677,13.0928001403809,13.092960357666,13.0931196212769,13.093279838562,13.0934391021729,13.093599319458,13.0937585830688,13.093918800354,13.0940780639648,13.09423828125,13.0943975448608,13.094557762146,13.0947170257568,13.094877243042,13.0950365066528,13.095196723938,13.0953559875488,13.095516204834,13.0956754684448,13.09583568573,12.8807401657104,12.880895614624,12.8810529708862,12.9539852142334,12.9541435241699,12.9543008804321,12.9544591903687,12.9546175003052,12.9547758102417,12.9549331665039,12.9550914764404,12.955249786377,12.9554080963135,12.95556640625,12.9557237625122,12.9558820724487,12.9560403823853,12.9561986923218,12.9563570022583,12.9565153121948,12.956672668457,12.9568309783936,12.9569892883301,12.9571475982666,12.9573059082031,12.9574642181396,12.9576225280762,12.9577798843384,12.9579381942749,12.9580965042114,12.9582548141479,12.9584131240845,12.958571434021,12.9587297439575,12.958888053894,12.9590463638306,12.9592046737671,12.9593629837036,12.9595212936401,12.9596786499023,12.9598369598389,12.9599952697754,12.9601535797119,12.9603118896484,12.960470199585,12.9606285095215,12.8879747390747,12.8881330490112,12.8882904052734,13.0212688446045,13.0214281082153,13.0215873718262,13.021746635437,13.0219049453735,13.0220642089844,13.0222234725952,13.0223827362061,13.0225410461426,13.0227003097534,13.0228595733643,13.0230188369751,13.0231781005859,13.0233364105225,13.0234956741333,13.0236549377441,13.023814201355,13.0239734649658,13.0241317749023,13.0242910385132,13.024450302124,13.0246095657349,13.0247688293457,13.0249271392822,13.0250864028931,13.0252456665039,13.0254049301147,13.0255641937256,13.0257234573364,13.0258827209473,13.0260410308838,13.0262002944946,13.0263595581055,13.0265188217163,13.0266780853271,13.026837348938,13.0269966125488
11.0612268447876,11.0613622665405,11.0614967346191,11.0616321563721,11.0617666244507,11.0619010925293,11.0620365142822,11.0621709823608,11.0623064041138,11.0624408721924,11.0625762939453,11.0627107620239,11.0628461837769,11.0629806518555,11.0631160736084,11.063250541687,11.0633859634399,11.0635204315186,11.0636558532715,11.0637903213501,11.063925743103,11.0640602111816,11.0641956329346,11.0643301010132,11.1655836105347,11.2787132263184,11.3941307067871,11.5119342803955,11.6321992874146,11.7550039291382,11.880428314209,12.0085592269897,12.1394834518433,12.2732934951782,12.4100875854492,12.5499639511108,12.6930303573608,12.8393964767456,12.9891767501831,13.0053806304932,13.0055389404297,13.0056972503662,13.0058565139771,13.0060148239136,13.0061731338501,13.0063323974609,13.0064907073975,13.006649017334,13.0068082809448,13.0069665908813,13.0071249008179,13.0072841644287,13.0074424743652,13.0204448699951,13.0206022262573,13.0903959274292,13.0905561447144,13.0907154083252,13.0908756256104,13.0910348892212,13.0911951065063,13.0913543701172,13.0915145874023,13.0916738510132,13.0918340682983,13.0919933319092,13.0921535491943,13.0923128128052,13.0924730300903,13.0926322937012,13.0927925109863,13.0929517745972,13.0931119918823,13.0932712554932,13.0934314727783,13.0935907363892,13.0937509536743,13.0939102172852,13.0940704345703,13.0942296981812,13.0943899154663,13.0945491790771,13.0947093963623,13.0948686599731,13.0950288772583,13.0951881408691,13.0953483581543,13.0955076217651,13.0956678390503,13.0958280563354,13.0959873199463,13.0961475372314,13.0963068008423,13.0964670181274,13.0966262817383,13.0967864990234,13.0969457626343,13.0971059799194,12.8819894790649,12.8821458816528,12.882303237915,12.9552421569824,12.9554004669189,12.9555578231812,12.9557161331177,12.9558744430542,12.9560327529907,12.9561901092529,12.9563484191895,12.956506729126,12.9566650390625,12.956823348999,12.9569816589355,12.9571390151978,12.9572973251343,12.9574556350708,12.9576139450073,12.9577722549438,12.9579305648804,12.9580888748169,12.9582462310791,12.9584045410156,12.9585628509521,12.9587211608887,12.9588794708252,12.9590377807617,12.9591960906982,12.9593544006348,12.9595127105713,12.9596710205078,12.9598293304443,12.9599876403809,12.9601459503174,12.9603042602539,12.9604625701904,12.960620880127,12.9607782363892,12.9609365463257,12.9610948562622,12.9612531661987,12.9614114761353,12.9615697860718,12.9617280960083,12.9618864059448,12.8892259597778,12.8893842697144,12.8895416259766,13.022533416748,13.0226926803589,13.0228509902954,13.0230102539062,13.0231695175171,13.0233287811279,13.0234880447388,13.0236463546753,13.0238056182861,13.023964881897,13.0241241455078,13.0242834091187,13.0244417190552,13.024600982666,13.0247602462769,13.0249195098877,13.0250787734985,13.0252380371094,13.0253963470459,13.0255556106567,13.0257148742676,13.0258741378784,13.0260334014893,13.0261926651001,13.0263519287109,13.0265102386475,13.0266695022583,13.0268287658691,13.02698802948,13.0271472930908,13.0273065567017,13.0274658203125,13.0276250839233,13.0277843475342,13.0279426574707,13.0281019210815,13.0282611846924
11.0622987747192,11.0624341964722,11.0625686645508,11.0627040863037,11.0628385543823,11.0629739761353,11.0631084442139,11.0632438659668,11.0633783340454,11.0635137557983,11.063648223877,11.0637836456299,11.0639181137085,11.0640535354614,11.06418800354,11.064323425293,11.0644578933716,11.0645933151245,11.0647277832031,11.0648632049561,11.0649976730347,11.0651330947876,11.0652675628662,11.0654029846191,11.1662750244141,11.2794237136841,11.3948554992676,11.512674331665,11.6329545974731,11.7557754516602,11.8812170028687,12.0093641281128,12.1403064727783,12.2741346359253,12.4109477996826,12.5508441925049,12.6939306259155,12.8403167724609,12.9901189804077,13.0066413879395,13.006799697876,13.0069589614868,13.0071172714233,13.0072755813599,13.0074348449707,13.0075931549072,13.0077514648438,13.0079107284546,13.0080690383911,13.008228302002,13.0083866119385,13.008544921875,13.0087041854858,13.02170753479,13.0218648910522,13.0916652679443,13.0918254852295,13.0919847488403,13.0921449661255,13.0923042297363,13.0924644470215,13.0926237106323,13.0927839279175,13.0929441452026,13.0931034088135,13.0932636260986,13.0934228897095,13.0935831069946,13.0937423706055,13.0939025878906,13.0940618515015,13.0942220687866,13.0943813323975,13.0945415496826,13.0947008132935,13.0948610305786,13.0950212478638,13.0951805114746,13.0953407287598,13.0954999923706,13.0956602096558,13.0958194732666,13.0959796905518,13.0961389541626,13.0962991714478,13.0964584350586,13.0966186523438,13.0967788696289,13.0969381332397,13.0970983505249,13.0972576141357,13.0974178314209,13.0975770950317,13.0977373123169,13.0978975296021,13.0980567932129,13.098217010498,13.0983772277832,12.8832397460938,12.8833951950073,12.8835525512695,12.9564990997314,12.956657409668,12.9568147659302,12.9569730758667,12.9571313858032,12.9572896957397,12.9574480056763,12.9576063156128,12.957763671875,12.9579219818115,12.958080291748,12.9582386016846,12.9583969116211,12.9585552215576,12.9587135314941,12.9588718414307,12.9590291976929,12.9591875076294,12.9593458175659,12.9595041275024,12.959662437439,12.9598207473755,12.959979057312,12.9601373672485,12.9602956771851,12.9604539871216,12.9606122970581,12.9607706069946,12.9609289169312,12.9610872268677,12.9612455368042,12.9614038467407,12.9615621566772,12.9617204666138,12.9618787765503,12.9620370864868,12.9621953964233,12.9623537063599,12.9625120162964,12.9626703262329,12.9628286361694,12.962986946106,12.9631452560425,12.890477180481,12.8906354904175,12.8907928466797,13.0237970352173,13.0239562988281,13.024115562439,13.0242748260498,13.0244340896606,13.0245933532715,13.024751663208,13.0249109268188,13.0250701904297,13.0252294540405,13.0253887176514,13.0255479812622,13.0257062911987,13.0258655548096,13.0260248184204,13.0261840820312,13.0263433456421,13.0265026092529,13.0266618728638,13.0268211364746,13.0269794464111,13.027138710022,13.0272979736328,13.0274572372437,13.0276165008545,13.0277757644653,13.0279350280762,13.028094291687,13.0282535552979,13.0284128189087,13.0285711288452,13.0287303924561,13.0288896560669,13.0290489196777,13.0292081832886,13.0293674468994,13.0295267105103
11.0633707046509,11.0635061264038,11.0636405944824,11.0637760162354,11.063910484314,11.0640459060669,11.0641803741455,11.0643157958984,11.0644512176514,11.06458568573,11.0647211074829,11.0648555755615,11.0649909973145,11.0651254653931,11.065260887146,11.0653953552246,11.0655307769775,11.0656652450562,11.0658006668091,11.0659351348877,11.0660705566406,11.0662059783936,11.0663404464722,11.0664758682251,11.1669883728027,11.2801294326782,11.395580291748,11.5134143829346,11.6337108612061,11.7565469741821,11.882004737854,12.0101699829102,12.1411294937134,12.2749767303467,12.411808013916,12.5517234802246,12.6948299407959,12.8412380218506,12.9910612106323,13.0079021453857,13.0080614089966,13.0082197189331,13.0083789825439,13.0085372924805,13.008695602417,13.0088548660278,13.0090131759644,13.0091714859009,13.0093307495117,13.0094890594482,13.0096483230591,13.0098066329956,13.0099649429321,13.022970199585,13.0231285095215,13.0929355621338,13.0930948257446,13.0932550430298,13.0934143066406,13.0935745239258,13.0937337875366,13.0938940048218,13.0940542221069,13.0942134857178,13.0943737030029,13.0945329666138,13.0946931838989,13.0948524475098,13.0950126647949,13.0951728820801,13.0953321456909,13.0954923629761,13.0956516265869,13.0958118438721,13.0959711074829,13.0961313247681,13.0962915420532,13.0964508056641,13.0966110229492,13.0967702865601,13.0969305038452,13.0970897674561,13.0972499847412,13.0974102020264,13.0975694656372,13.0977296829224,13.0978889465332,13.0980491638184,13.0982093811035,13.0983686447144,13.0985288619995,13.0986881256104,13.0988483428955,13.0990085601807,13.0991678237915,13.0993280410767,13.0994882583618,13.0996475219727,12.8844900131226,12.8846454620361,12.8848028182983,12.9577560424805,12.957914352417,12.9580726623535,12.95823097229,12.9583883285522,12.9585466384888,12.9587049484253,12.9588632583618,12.9590215682983,12.9591798782349,12.9593381881714,12.9594964981079,12.9596548080444,12.959813117981,12.9599704742432,12.9601287841797,12.9602870941162,12.9604454040527,12.9606037139893,12.9607620239258,12.9609203338623,12.9610786437988,12.9612369537354,12.9613952636719,12.9615535736084,12.9617118835449,12.9618701934814,12.962028503418,12.9621868133545,12.962345123291,12.9625034332275,12.9626617431641,12.9628200531006,12.9629783630371,12.9631366729736,12.9632949829102,12.9634532928467,12.9636116027832,12.9637699127197,12.9639282226562,12.9640865325928,12.9642448425293,12.9644041061401,12.8917293548584,12.8918867111206,12.8920440673828,13.0250616073608,13.0252208709717,13.0253801345825,13.0255393981934,13.0256986618042,13.025857925415,13.0260171890259,13.0261754989624,13.0263347625732,13.0264940261841,13.0266532897949,13.0268125534058,13.0269718170166,13.0271310806274,13.0272903442383,13.0274486541748,13.0276079177856,13.0277671813965,13.0279264450073,13.0280857086182,13.028244972229,13.0284042358398,13.0285634994507,13.0287227630615,13.0288820266724,13.0290412902832,13.029200553894,13.0293598175049,13.0295190811157,13.0296773910522,13.0298366546631,13.0299959182739,13.0301551818848,13.0303144454956,13.0304737091064,13.0306329727173,13.0307922363281
11.0644435882568,11.0645780563354,11.0647134780884,11.064847946167,11.0649833679199,11.0651187896729,11.0652532577515,11.0653886795044,11.065523147583,11.0656585693359,11.0657930374146,11.0659284591675,11.0660629272461,11.066198348999,11.066333770752,11.0664682388306,11.0666036605835,11.0667381286621,11.066873550415,11.0670080184937,11.0671434402466,11.0672788619995,11.0674133300781,11.0675487518311,11.1676836013794,11.2808351516724,11.3963060379028,11.5141544342041,11.6344661712646,11.7573184967041,11.8827934265137,12.0109748840332,12.1419525146484,12.2758178710938,12.4126682281494,12.5526037216187,12.6957302093506,12.8421583175659,12.9920034408569,13.0091638565063,13.0093221664429,13.0094814300537,13.0096397399902,13.0097990036011,13.0099573135376,13.0101165771484,13.010274887085,13.0104331970215,13.0105924606323,13.0107507705688,13.0109100341797,13.0110683441162,13.0112276077271,13.0242328643799,13.0243911743164,13.0942049026489,13.0943651199341,13.0945243835449,13.0946846008301,13.0948448181152,13.0950040817261,13.0951642990112,13.0953235626221,13.0954837799072,13.0956439971924,13.0958032608032,13.0959634780884,13.0961227416992,13.0962829589844,13.0964431762695,13.0966024398804,13.0967626571655,13.0969219207764,13.0970821380615,13.0972423553467,13.0974016189575,13.0975618362427,13.0977210998535,13.0978813171387,13.0980415344238,13.0982007980347,13.0983610153198,13.0985202789307,13.0986804962158,13.098840713501,13.0989999771118,13.099160194397,13.0993204116821,13.099479675293,13.0996398925781,13.0998001098633,13.0999593734741,13.1001195907593,13.1002788543701,13.1004390716553,13.1005992889404,13.1007585525513,13.1009187698364,12.8857402801514,12.8858957290649,12.8860530853271,12.9590139389038,12.9591722488403,12.9593296051025,12.9594879150391,12.9596462249756,12.9598045349121,12.9599628448486,12.9601211547852,12.9602794647217,12.9604377746582,12.9605960845947,12.9607543945312,12.9609127044678,12.9610710144043,12.9612293243408,12.961386680603,12.9615449905396,12.9617033004761,12.9618616104126,12.9620199203491,12.9621782302856,12.9623365402222,12.9624948501587,12.9626531600952,12.9628114700317,12.9629697799683,12.9631280899048,12.9632863998413,12.9634447097778,12.9636039733887,12.9637622833252,12.9639205932617,12.9640789031982,12.9642372131348,12.9643955230713,12.9645538330078,12.9647121429443,12.9648704528809,12.9650287628174,12.9651870727539,12.9653453826904,12.965503692627,12.9656620025635,12.8929805755615,12.893138885498,12.8932962417603,13.0263271331787,13.0264863967896,13.0266447067261,13.0268039703369,13.0269632339478,13.0271224975586,13.0272817611694,13.0274410247803,13.0276002883911,13.027759552002,13.0279188156128,13.0280780792236,13.0282363891602,13.028395652771,13.0285549163818,13.0287141799927,13.0288734436035,13.0290327072144,13.0291919708252,13.029351234436,13.0295104980469,13.0296697616577,13.0298290252686,13.0299882888794,13.0301475524902,13.0303068161011,13.0304660797119,13.0306253433228,13.0307846069336,13.0309438705444,13.0311031341553,13.0312623977661,13.031421661377,13.0315809249878,13.0317401885986,13.0318994522095,13.0320587158203
11.0655164718628,11.0656509399414,11.0657863616943,11.0659208297729,11.0660562515259,11.0661907196045,11.0663261413574,11.066460609436,11.066596031189,11.0667314529419,11.0668659210205,11.0670013427734,11.0671358108521,11.067271232605,11.0674066543579,11.0675411224365,11.0676765441895,11.0678110122681,11.067946434021,11.0680818557739,11.0682163238525,11.0683517456055,11.0684862136841,11.068621635437,11.1683788299561,11.2815399169922,11.3970308303833,11.5148954391479,11.6352224349976,11.7580909729004,11.8835821151733,12.0117807388306,12.1427755355835,12.2766599655151,12.4135284423828,12.5534830093384,12.6966304779053,12.8430795669556,12.9929466247559,13.010425567627,13.0105838775635,13.0107431411743,13.0109014511108,13.0110607147217,13.0112190246582,13.011378288269,13.0115365982056,13.0116958618164,13.0118541717529,13.0120134353638,13.0121717453003,13.0123310089111,13.0124893188477,13.0254964828491,13.0256547927856,13.0954751968384,13.0956354141235,13.0957946777344,13.0959548950195,13.0961151123047,13.0962743759155,13.0964345932007,13.0965938568115,13.0967540740967,13.0969142913818,13.0970735549927,13.0972337722778,13.097393989563,13.0975532531738,13.097713470459,13.0978727340698,13.098032951355,13.0981931686401,13.098352432251,13.0985126495361,13.0986728668213,13.0988321304321,13.0989923477173,13.0991525650024,13.0993118286133,13.0994720458984,13.0996322631836,13.0997915267944,13.0999517440796,13.1001110076904,13.1002712249756,13.1004314422607,13.1005907058716,13.1007509231567,13.1009111404419,13.1010704040527,13.1012306213379,13.101390838623,13.1015510559082,13.101710319519,13.1018705368042,13.1020307540894,13.1021900177002,12.8869905471802,12.8871469497681,12.8873043060303,12.9602718353271,12.9604301452637,12.9605875015259,12.9607458114624,12.9609041213989,12.9610624313354,12.961220741272,12.9613790512085,12.961537361145,12.9616956710815,12.9618539810181,12.9620122909546,12.9621706008911,12.9623289108276,12.9624872207642,12.9626455307007,12.9628038406372,12.9629621505737,12.9631204605103,12.9632787704468,12.9634370803833,12.9635953903198,12.9637537002563,12.9639120101929,12.9640703201294,12.9642286300659,12.9643869400024,12.964545249939,12.9647035598755,12.964861869812,12.9650201797485,12.9651784896851,12.9653377532959,12.9654960632324,12.9656543731689,12.9658126831055,12.965970993042,12.9661293029785,12.966287612915,12.9664459228516,12.9666042327881,12.9667634963989,12.9669218063354,12.894232749939,12.8943910598755,12.8945484161377,13.0275917053223,13.0277509689331,13.0279102325439,13.0280694961548,13.0282287597656,13.0283880233765,13.0285472869873,13.0287065505981,13.028865814209,13.0290241241455,13.0291833877563,13.0293426513672,13.029501914978,13.0296611785889,13.0298204421997,13.0299797058105,13.0301389694214,13.0302982330322,13.0304574966431,13.0306167602539,13.0307760238647,13.0309352874756,13.0310945510864,13.0312538146973,13.0314130783081,13.0315723419189,13.0317316055298,13.0318908691406,13.0320501327515,13.0322093963623,13.0323686599731,13.032527923584,13.0326871871948,13.0328464508057,13.0330057144165,13.0331649780273,13.0333242416382
11.0665884017944,11.0667238235474,11.0668592453003,11.0669937133789,11.0671291351318,11.0672636032104,11.0673990249634,11.0675344467163,11.0676689147949,11.0678043365479,11.0679388046265,11.0680742263794,11.0682096481323,11.0683441162109,11.0684795379639,11.0686140060425,11.0687494277954,11.0688848495483,11.069019317627,11.0691547393799,11.0692901611328,11.0694246292114,11.0695600509644,11.0696954727173,11.1373767852783,11.1375122070312,11.1376485824585,11.1377849578857,11.1379203796387,11.1380567550659,11.1381921768188,11.1383285522461,11.138463973999,11.1386003494263,11.1387357711792,11.1388721466064,11.1390075683594,11.1391439437866,11.1392793655396,11.1394157409668,11.1395511627197,11.139687538147,11.1398239135742,11.1399593353271,11.1400957107544,11.1402311325073,11.1403675079346,11.1405029296875,11.1406393051147,11.140775680542,11.1409111022949,11.1410474777222,11.1411828994751,11.1413192749023,11.1414556503296,11.1415910720825,11.1417274475098,11.1418628692627,11.1419992446899,11.1421356201172,11.1422710418701,11.1424074172974,11.1425437927246,11.1426792144775,11.1428155899048,11.142951965332,11.143087387085,11.1432237625122,11.1433591842651,11.1434955596924,11.1436319351196,11.1437673568726,11.1439037322998,11.1440401077271,11.14417552948,11.1443119049072,11.1444482803345,11.1445846557617,11.1447200775146,11.1448564529419,11.1449928283691,11.1451282501221,11.1452646255493,11.1454010009766,11.1455364227295,11.1456727981567,11.145809173584,11.1459455490112,11.1460809707642,11.1462173461914,11.1463537216187,11.1464891433716,11.1466255187988,11.1467618942261,11.1468982696533,11.1470336914062,11.1471700668335,11.1473064422607,11.147442817688,11.1475782394409,11.1477146148682,11.1478509902954,11.1479873657227,11.1481227874756,11.1482591629028,11.1483955383301,11.1485319137573,11.1486673355103,11.1488037109375,11.1489400863647,11.149076461792,11.1492128372192,11.1493482589722,11.1494846343994,11.1496210098267,11.1497573852539,11.1498928070068,11.1500291824341,11.1501655578613,11.1503019332886,11.1504383087158,11.1505737304688,11.150710105896,11.1508464813232,11.1509828567505,11.1511192321777,11.151255607605,11.1513910293579,11.1515274047852,11.1516637802124,11.1518001556396,11.1519365310669,11.1520729064941,11.1522083282471,11.1523447036743,11.1524810791016,11.1526174545288,11.1527538299561,11.1528902053833,11.1530265808105,11.1531620025635,11.1532983779907,11.153434753418,11.1535711288452,11.1537075042725,11.1538438796997,11.153980255127,11.1541166305542,11.1542530059814,11.1543893814087,11.1545248031616,11.1546611785889,11.1547975540161,11.1549339294434,11.1550703048706,11.1552066802979,11.1553430557251,11.1554794311523,11.1556158065796,13.0307674407959,13.0309267044067,13.0310859680176,13.0312452316284,13.0314044952393,13.0315637588501,13.0317230224609,13.0318822860718,13.0320415496826,13.0322008132935,13.0323610305786,13.0325202941895,13.0326795578003,13.0328388214111,13.032998085022,13.0331573486328,13.0333166122437,13.0334758758545,13.0336351394653,13.0337944030762,13.033953666687,13.0341129302979,13.0342721939087,13.0344314575195,13.0345907211304
11.0676622390747,11.0677967071533,11.0679321289062,11.0680665969849,11.0682020187378,11.0683374404907,11.0684719085693,11.0686073303223,11.0687417984009,11.0688772201538,11.0690126419067,11.0691471099854,11.0692825317383,11.0694179534912,11.0695524215698,11.0696878433228,11.0698232650757,11.0699577331543,11.0700931549072,11.0702285766602,11.0703630447388,11.0704984664917,11.0706338882446,11.0707683563232,11.1384572982788,11.1385927200317,11.138729095459,11.1388645172119,11.1390008926392,11.1391363143921,11.1392726898193,11.1394081115723,11.1395444869995,11.1396799087524,11.1398162841797,11.1399526596069,11.1400880813599,11.1402244567871,11.14035987854,11.1404962539673,11.1406326293945,11.1407680511475,11.1409044265747,11.1410398483276,11.1411762237549,11.1413116455078,11.1414480209351,11.1415843963623,11.1417198181152,11.1418561935425,11.1419925689697,11.1421279907227,11.1422643661499,11.1423997879028,11.1425361633301,11.1426725387573,11.1428079605103,11.1429443359375,11.1430807113647,11.1432161331177,11.1433525085449,11.1434888839722,11.1436243057251,11.1437606811523,11.1438970565796,11.1440324783325,11.1441688537598,11.144305229187,11.1444406509399,11.1445770263672,11.1447134017944,11.1448488235474,11.1449851989746,11.1451215744019,11.1452569961548,11.145393371582,11.1455297470093,11.1456661224365,11.1458015441895,11.1459379196167,11.1460742950439,11.1462097167969,11.1463460922241,11.1464824676514,11.1466188430786,11.1467542648315,11.1468906402588,11.147027015686,11.1471633911133,11.1472988128662,11.1474351882935,11.1475715637207,11.1477079391479,11.1478433609009,11.1479797363281,11.1481161117554,11.1482524871826,11.1483888626099,11.1485242843628,11.14866065979,11.1487970352173,11.1489334106445,11.1490688323975,11.1492052078247,11.149341583252,11.1494779586792,11.1496143341064,11.1497497558594,11.1498861312866,11.1500225067139,11.1501588821411,11.1502952575684,11.1504306793213,11.1505670547485,11.1507034301758,11.150839805603,11.1509761810303,11.1511125564575,11.1512479782104,11.1513843536377,11.1515207290649,11.1516571044922,11.1517934799194,11.1519298553467,11.1520652770996,11.1522016525269,11.1523380279541,11.1524744033813,11.1526107788086,11.1527471542358,11.1528835296631,11.153018951416,11.1531553268433,11.1532917022705,11.1534280776978,11.153564453125,11.1537008285522,11.1538372039795,11.1539735794067,11.154109954834,11.1542453765869,11.1543817520142,11.1545181274414,11.1546545028687,11.1547908782959,11.1549272537231,11.1550636291504,11.1552000045776,11.1553363800049,11.1554727554321,11.1556091308594,11.1557455062866,11.1558818817139,11.1560173034668,11.156153678894,11.1562900543213,11.1564264297485,11.1565628051758,11.156699180603,11.1568355560303,11.1569719314575,11.1571083068848,11.157244682312,11.1573810577393,11.1575174331665,11.1576538085938,11.157790184021,11.1579265594482,11.1580629348755,11.1581993103027,11.15833568573,11.1584720611572,11.1586084365845,11.1587448120117,11.158881187439,11.1590175628662,11.1591539382935,11.1592903137207,11.1594266891479,11.1595630645752,13.03537940979,13.0355386734009,13.0356979370117,13.0358572006226
11.0687351226807,11.0688695907593,11.0690050125122,11.0691404342651,11.0692749023438,11.0694103240967,11.0695457458496,11.0696802139282,11.0698156356812,11.0699510574341,11.0700855255127,11.0702209472656,11.0703563690186,11.0704908370972,11.0706262588501,11.070761680603,11.0708961486816,11.0710315704346,11.0711669921875,11.0713014602661,11.071436882019,11.071572303772,11.0717067718506,11.0718421936035,11.139536857605,11.1396732330322,11.1398086547852,11.1399450302124,11.1400814056396,11.1402168273926,11.1403532028198,11.1404886245728,11.140625,11.1407604217529,11.1408967971802,11.1410331726074,11.1411685943604,11.1413049697876,11.1414403915405,11.1415767669678,11.141713142395,11.1418485641479,11.1419849395752,11.1421213150024,11.1422567367554,11.1423931121826,11.1425294876099,11.1426649093628,11.14280128479,11.142936706543,11.1430730819702,11.1432094573975,11.1433448791504,11.1434812545776,11.1436176300049,11.1437530517578,11.1438894271851,11.1440258026123,11.1441612243652,11.1442975997925,11.1444339752197,11.1445693969727,11.1447057723999,11.1448421478271,11.1449785232544,11.1451139450073,11.1452503204346,11.1453866958618,11.1455221176147,11.145658493042,11.1457948684692,11.1459302902222,11.1460666656494,11.1462030410767,11.1463394165039,11.1464748382568,11.1466112136841,11.1467475891113,11.1468839645386,11.1470193862915,11.1471557617188,11.147292137146,11.1474285125732,11.1475639343262,11.1477003097534,11.1478366851807,11.1479730606079,11.1481084823608,11.1482448577881,11.1483812332153,11.1485176086426,11.1486539840698,11.1487894058228,11.14892578125,11.1490621566772,11.1491985321045,11.1493349075317,11.1494703292847,11.1496067047119,11.1497430801392,11.1498794555664,11.1500158309937,11.1501512527466,11.1502876281738,11.1504240036011,11.1505603790283,11.1506967544556,11.1508321762085,11.1509685516357,11.151104927063,11.1512413024902,11.1513776779175,11.1515140533447,11.151650428772,11.1517858505249,11.1519222259521,11.1520586013794,11.1521949768066,11.1523313522339,11.1524677276611,11.1526041030884,11.1527395248413,11.1528759002686,11.1530122756958,11.153148651123,11.1532850265503,11.1534214019775,11.1535577774048,11.153694152832,11.1538305282593,11.1539659500122,11.1541023254395,11.1542387008667,11.1543750762939,11.1545114517212,11.1546478271484,11.1547842025757,11.1549205780029,11.1550569534302,11.1551933288574,11.1553297042847,11.1554651260376,11.1556015014648,11.1557378768921,11.1558742523193,11.1560106277466,11.1561470031738,11.1562833786011,11.1564197540283,11.1565561294556,11.1566925048828,11.1568288803101,11.1569652557373,11.1571016311646,11.1572380065918,11.157374382019,11.1575107574463,11.1576471328735,11.1577835083008,11.157919883728,11.1580562591553,11.1581926345825,11.1583290100098,11.158465385437,11.1586017608643,11.1587381362915,11.1588745117188,11.159010887146,11.1591472625732,11.1592836380005,11.1594200134277,11.159556388855,11.1596927642822,11.1598291397095,11.1599655151367,11.160101890564,11.1602382659912,11.1603746414185,11.16051197052,11.1606483459473,13.0366458892822,13.0368061065674,13.0369653701782,13.0371246337891
11.0698080062866,11.0699434280396,11.0700788497925,11.0702133178711,11.070348739624,11.070484161377,11.0706186294556,11.0707540512085,11.0708894729614,11.07102394104,11.071159362793,11.0712947845459,11.0714292526245,11.0715646743774,11.0717000961304,11.0718355178833,11.0719699859619,11.0721054077148,11.0722408294678,11.0723752975464,11.0725107192993,11.0726461410522,11.0727815628052,11.0729160308838,11.1406173706055,11.1407537460327,11.1408891677856,11.1410255432129,11.1411619186401,11.1412973403931,11.1414337158203,11.1415691375732,11.1417055130005,11.1418418884277,11.1419773101807,11.1421136856079,11.1422500610352,11.1423854827881,11.1425218582153,11.1426572799683,11.1427936553955,11.1429300308228,11.1430654525757,11.1432018280029,11.1433382034302,11.1434736251831,11.1436100006104,11.1437463760376,11.1438817977905,11.1440181732178,11.144154548645,11.1442899703979,11.1444263458252,11.1445627212524,11.1446990966797,11.1448345184326,11.1449708938599,11.1451072692871,11.14524269104,11.1453790664673,11.1455154418945,11.1456508636475,11.1457872390747,11.145923614502,11.1460599899292,11.1461954116821,11.1463317871094,11.1464681625366,11.1466045379639,11.1467399597168,11.146876335144,11.1470127105713,11.1471490859985,11.1472845077515,11.1474208831787,11.147557258606,11.1476936340332,11.1478290557861,11.1479654312134,11.1481018066406,11.1482381820679,11.1483745574951,11.148509979248,11.1486463546753,11.1487827301025,11.1489191055298,11.1490545272827,11.14919090271,11.1493272781372,11.1494636535645,11.1496000289917,11.1497364044189,11.1498718261719,11.1500082015991,11.1501445770264,11.1502809524536,11.1504173278809,11.1505527496338,11.150689125061,11.1508255004883,11.1509618759155,11.1510982513428,11.15123462677,11.1513700485229,11.1515064239502,11.1516427993774,11.1517791748047,11.1519155502319,11.1520519256592,11.1521883010864,11.1523237228394,11.1524600982666,11.1525964736938,11.1527328491211,11.1528692245483,11.1530055999756,11.1531419754028,11.1532783508301,11.153413772583,11.1535501480103,11.1536865234375,11.1538228988647,11.153959274292,11.1540956497192,11.1542320251465,11.1543684005737,11.154504776001,11.1546411514282,11.1547775268555,11.1549129486084,11.1550493240356,11.1551856994629,11.1553220748901,11.1554584503174,11.1555948257446,11.1557312011719,11.1558675765991,11.1560039520264,11.1561403274536,11.1562767028809,11.1564130783081,11.1565494537354,11.1566858291626,11.1568222045898,11.1569585800171,11.1570949554443,11.1572313308716,11.1573677062988,11.1575040817261,11.1576404571533,11.1577768325806,11.1579132080078,11.1580495834351,11.1581859588623,11.1583223342896,11.1584587097168,11.158595085144,11.1587314605713,11.1588678359985,11.1590042114258,11.159140586853,11.1592769622803,11.1594133377075,11.1595497131348,11.159686088562,11.1598224639893,11.1599588394165,11.1600952148438,11.160231590271,11.1603679656982,11.1605043411255,11.1606407165527,11.16077709198,11.1609144210815,11.1610507965088,11.161187171936,11.1613235473633,11.1614599227905,11.1615962982178,11.161732673645,13.0379133224487,13.0380725860596,13.0382318496704,13.0383920669556
11.0708818435669,11.0710172653198,11.0711517333984,11.0712871551514,11.0714225769043,11.0715579986572,11.0716924667358,11.0718278884888,11.0719633102417,11.0720977783203,11.0722332000732,11.0723686218262,11.0725040435791,11.0726385116577,11.0727739334106,11.0729093551636,11.0730438232422,11.0731792449951,11.073314666748,11.073450088501,11.0735845565796,11.0737199783325,11.0738554000854,11.0739908218384,11.141697883606,11.1418342590332,11.1419706344604,11.1421060562134,11.1422424316406,11.1423788070679,11.1425142288208,11.142650604248,11.142786026001,11.1429224014282,11.1430587768555,11.1431941986084,11.1433305740356,11.1434669494629,11.1436023712158,11.1437387466431,11.1438751220703,11.1440105438232,11.1441469192505,11.1442832946777,11.144419670105,11.1445550918579,11.1446914672852,11.1448278427124,11.1449632644653,11.1450996398926,11.1452360153198,11.1453714370728,11.1455078125,11.1456441879272,11.1457805633545,11.1459159851074,11.1460523605347,11.1461887359619,11.1463241577148,11.1464605331421,11.1465969085693,11.1467332839966,11.1468687057495,11.1470050811768,11.147141456604,11.1472778320312,11.1474132537842,11.1475496292114,11.1476860046387,11.1478223800659,11.1479587554932,11.1480941772461,11.1482305526733,11.1483669281006,11.1485033035278,11.1486396789551,11.148775100708,11.1489114761353,11.1490478515625,11.1491842269897,11.149320602417,11.1494560241699,11.1495923995972,11.1497287750244,11.1498651504517,11.1500015258789,11.1501369476318,11.1502733230591,11.1504096984863,11.1505460739136,11.1506824493408,11.1508188247681,11.150954246521,11.1510906219482,11.1512269973755,11.1513633728027,11.15149974823,11.1516361236572,11.1517724990845,11.1519079208374,11.1520442962646,11.1521806716919,11.1523170471191,11.1524534225464,11.1525897979736,11.1527261734009,11.1528625488281,11.1529979705811,11.1531343460083,11.1532707214355,11.1534070968628,11.15354347229,11.1536798477173,11.1538162231445,11.1539525985718,11.154088973999,11.154224395752,11.1543607711792,11.1544971466064,11.1546335220337,11.1547698974609,11.1549062728882,11.1550426483154,11.1551790237427,11.1553153991699,11.1554517745972,11.1555881500244,11.1557245254517,11.1558609008789,11.1559972763062,11.1561336517334,11.1562700271606,11.1564064025879,11.1565427780151,11.1566781997681,11.1568145751953,11.1569509506226,11.1570873260498,11.1572237014771,11.1573600769043,11.1574964523315,11.1576328277588,11.157769203186,11.1579055786133,11.1580419540405,11.1581783294678,11.158314704895,11.1584510803223,11.1585874557495,11.1587247848511,11.1588611602783,11.1589975357056,11.1591339111328,11.1592702865601,11.1594066619873,11.1595430374146,11.1596794128418,11.159815788269,11.1599521636963,11.1600885391235,11.1602249145508,11.160361289978,11.1604976654053,11.1606340408325,11.1607704162598,11.160906791687,11.1610431671143,11.1611795425415,11.1613168716431,11.1614532470703,11.1615896224976,11.1617259979248,11.1618623733521,11.1619987487793,11.1621351242065,11.1622714996338,11.162407875061,11.1625442504883,11.1626815795898,11.1628179550171,13.0391807556152,13.0393400192261,13.0394992828369,13.0396595001221
11.0719556808472,11.0720911026001,11.072226524353,11.0723609924316,11.0724964141846,11.0726318359375,11.0727663040161,11.072901725769,11.073037147522,11.0731725692749,11.0733070373535,11.0734424591064,11.0735778808594,11.0737133026123,11.0738477706909,11.0739831924438,11.0741186141968,11.0742540359497,11.0743885040283,11.0745239257812,11.0746593475342,11.0747947692871,11.07493019104,11.0750646591187,11.1448698043823,11.143461227417,11.1430511474609,11.1431875228882,11.1433229446411,11.1434593200684,11.1435956954956,11.1437311172485,11.1438674926758,11.144003868103,11.144139289856,11.1442756652832,11.1444120407104,11.1445484161377,11.1446838378906,11.1448202133179,11.1449565887451,11.145092010498,11.1452283859253,11.1453647613525,11.1455001831055,11.1456365585327,11.14577293396,11.1459093093872,11.1460447311401,11.1461811065674,11.1463174819946,11.1464538574219,11.1465892791748,11.1467256546021,11.1468620300293,11.1469984054565,11.1471338272095,11.1472702026367,11.147406578064,11.1475429534912,11.1476783752441,11.1478147506714,11.1479511260986,11.1480875015259,11.1482229232788,11.1483592987061,11.1484956741333,11.1486320495605,11.1487684249878,11.1489038467407,11.149040222168,11.1491765975952,11.1493129730225,11.1494493484497,11.149585723877,11.1497211456299,11.1498575210571,11.1499938964844,11.1501302719116,11.1502666473389,11.1504030227661,11.150538444519,11.1506748199463,11.1508111953735,11.1509475708008,11.151083946228,11.1512203216553,11.1513557434082,11.1514921188354,11.1516284942627,11.1517648696899,11.1519012451172,11.1520376205444,11.1521739959717,11.1523103713989,11.1524467468262,11.1525821685791,11.1527185440063,11.1528549194336,11.1529912948608,11.1531276702881,11.1532640457153,11.1534004211426,11.1535367965698,11.1536722183228,11.15380859375,11.1539449691772,11.1540813446045,11.1542177200317,11.154354095459,11.1544904708862,11.1546268463135,11.1547632217407,11.154899597168,11.1550359725952,11.1551723480225,11.1553087234497,11.1554441452026,11.1555805206299,11.1557168960571,11.1558532714844,11.1559896469116,11.1561260223389,11.1562623977661,11.1563987731934,11.1565351486206,11.1566715240479,11.1568078994751,11.1569442749023,11.1570806503296,11.1572170257568,11.1573534011841,11.1574897766113,11.1576261520386,11.1577625274658,11.1578989028931,11.1580352783203,11.1581716537476,11.1583080291748,11.1584444046021,11.1585807800293,11.1587171554565,11.1588535308838,11.158989906311,11.1591262817383,11.1592626571655,11.1593990325928,11.15953540802,11.1596717834473,11.1598081588745,11.1599454879761,11.1600818634033,11.1602182388306,11.1603546142578,11.1604909896851,11.1606273651123,11.1607637405396,11.1609001159668,11.161036491394,11.1611728668213,11.1613092422485,11.1614456176758,11.1615829467773,11.1617193222046,11.1618556976318,11.1619920730591,11.1621284484863,11.1622648239136,11.1624011993408,11.1625375747681,11.1626739501953,11.1628112792969,11.1629476547241,11.1630840301514,11.1632204055786,11.1633567810059,11.1634931564331,11.1636295318604,11.1637659072876,11.1639032363892,13.0404481887817,13.0406074523926,13.0407667160034,13.0409269332886
11.0730295181274,11.0731649398804,11.0733003616333,11.0734348297119,11.0735702514648,11.0737056732178,11.0738410949707,11.0739765167236,11.0741109848022,11.0742464065552,11.0743818283081,11.074517250061,11.0746517181396,11.0747871398926,11.0749225616455,11.0750579833984,11.0751924514771,11.07532787323,11.0754632949829,11.0755987167358,11.0757341384888,11.0758686065674,11.0760040283203,11.0761394500732,11.1732482910156,11.2864809036255,11.4020919799805,11.5200805664062,11.6405162811279,11.7634973526001,11.8891048431396,12.0174236297607,11.1660108566284,11.1661472320557,11.1662836074829,11.1749458312988,12.702935218811,12.8495302200317,12.9995489120483,13.0192642211914,13.0194225311279,13.0195817947388,13.0197410583496,13.0198993682861,13.020058631897,13.0202178955078,13.0203762054443,13.0205354690552,13.020694732666,13.0208539962769,13.0210123062134,13.0211715698242,13.0213298797607,11.1688766479492,11.1690120697021,11.1691484451294,13.1045331954956,13.1046934127808,13.1048536300659,13.1050138473511,13.1051731109619,13.1053333282471,13.1054935455322,13.1056537628174,13.1058139801025,13.1059741973877,13.1061334609985,13.1062936782837,13.1064538955688,13.106614112854,13.1067743301392,13.1069345474243,13.1070947647095,11.1716060638428,11.17174243927,11.1718788146973,11.1943912506104,13.1078948974609,13.1080551147461,13.1082153320312,13.1083755493164,13.1085357666016,13.1086959838867,13.1088552474976,13.1090154647827,13.1091756820679,13.109335899353,13.1094961166382,13.1096563339233,13.1098165512085,13.1099767684937,13.1101369857788,13.110297203064,13.1104564666748,11.1744709014893,11.1746072769165,11.1747436523438,13.1110973358154,12.895751953125,12.8959083557129,12.8960657119751,12.9690828323364,12.9692411422729,12.9693994522095,12.969557762146,11.2442502975464,11.2428140640259,11.2413778305054,11.2399425506592,11.238507270813,11.2370719909668,11.2356376647949,11.234203338623,11.2327699661255,11.1772031784058,11.177339553833,11.1774759292603,11.2270383834839,11.225606918335,11.224175453186,11.2227439880371,11.2213134765625,11.2198829650879,11.2184524536133,11.217022895813,11.2155933380127,11.2141647338867,11.2127361297607,11.2113075256348,11.2098798751831,11.2084522247314,11.2070245742798,11.2055978775024,11.2041711807251,11.2027454376221,11.1800737380981,11.1802101135254,11.1803464889526,11.1970548629761,11.1956329345703,11.1942119598389,11.1927909851074,11.191370010376,11.1899499893188,11.1885299682617,11.1871109008789,11.1856918334961,11.1842727661133,11.1828546524048,11.1814365386963,11.1800184249878,11.1786012649536,11.1771841049194,11.1757678985596,11.1743516921997,11.1729354858398,11.1715202331543,11.1701049804688,11.1686897277832,11.167275428772,11.1658620834351,11.1644477844238,11.1630344390869,11.1628036499023,11.1629400253296,11.1630764007568,11.1632137298584,11.1633501052856,11.1634864807129,11.1636228561401,11.1637592315674,11.1638956069946,11.1640329360962,11.1641693115234,11.1643056869507,11.1644420623779,11.1645784378052,11.1647148132324,11.164852142334,11.1649885177612,13.0417156219482,13.0418758392334,13.0420351028442,13.0421943664551
11.074104309082,11.0742387771606,11.0743741989136,11.0745096206665,11.0746450424194,11.0747804641724,11.074914932251,11.0750503540039,11.0751857757568,11.0753211975098,11.0754556655884,11.0755910873413,11.0757265090942,11.0758619308472,11.0759973526001,11.076132774353,11.0762672424316,11.0764026641846,11.0765380859375,11.0766735076904,11.0768089294434,11.076943397522,11.0770788192749,11.0772142410278,11.1739435195923,11.2871866226196,11.4028129577637,11.5208215713501,11.6412734985352,11.7642707824707,11.8898944854736,12.0182294845581,11.1670951843262,11.1672315597534,11.1673679351807,11.1757221221924,12.7038354873657,12.8504524230957,13.0004930496216,13.0205278396606,13.0206861495972,13.020845413208,13.0210046768188,13.0211639404297,13.0213222503662,13.0214815139771,13.0216407775879,13.0217990875244,13.0219583511353,13.0221176147461,13.0222759246826,13.0224351882935,13.0225944519043,11.1699600219727,11.1700963973999,11.1702327728271,13.1058053970337,13.1059656143188,13.106125831604,13.1062860488892,13.1064453125,13.1066055297852,13.1067657470703,13.1069259643555,13.1070861816406,13.1072463989258,13.1074066162109,13.1075668334961,13.1077270507812,13.1078863143921,13.1080465316772,13.1082067489624,13.1083669662476,11.1726903915405,11.1728277206421,11.1729640960693,11.1958436965942,13.1091680526733,13.1093282699585,13.1094884872437,13.1096487045288,13.1098079681396,13.1099681854248,13.11012840271,13.1102886199951,13.1104488372803,13.1106090545654,13.1107692718506,13.1109294891357,13.1110897064209,13.1112499237061,13.1114101409912,13.1115703582764,13.1117305755615,11.1755561828613,11.1756925582886,11.1758289337158,13.1123704910278,12.8970041275024,12.8971605300903,12.8973178863525,12.9703426361084,12.9705009460449,12.9706592559814,12.970817565918,12.9709758758545,12.971134185791,12.9712934494019,12.9714517593384,12.9716100692749,12.9717683792114,12.9719276428223,12.9720859527588,12.9722442626953,11.1782894134521,11.1784257888794,11.1785621643066,12.9728784561157,12.9730367660522,12.9731960296631,12.9733543395996,12.9735126495361,12.9736709594727,12.9738302230835,12.97398853302,12.9741468429565,12.9743051528931,12.9744644165039,12.9746227264404,12.974781036377,12.9749402999878,12.9750986099243,12.9752569198608,12.9754161834717,12.9755744934082,11.1811599731445,11.1812963485718,11.181432723999,12.9762096405029,12.9763679504395,12.976526260376,12.9766855239868,12.9768438339233,12.9770021438599,12.904257774353,12.9044160842896,12.9045734405518,13.0377216339111,13.037880897522,13.0380401611328,13.0381994247437,13.0383586883545,13.0385179519653,13.0386781692505,13.0388374328613,11.183892250061,11.1840286254883,11.1841659545898,13.039475440979,13.0396347045898,13.0397939682007,13.0399532318115,13.0401124954224,13.0402727127075,13.0404319763184,13.0405912399292,13.04075050354,13.0409107208252,13.041069984436,12.5450716018677,12.2746143341064,12.015513420105,11.7669353485107,11.5284337997437,11.3622455596924,11.1866292953491,11.1867656707764,11.1869020462036,11.1870393753052,13.0428247451782,13.0429840087891,13.0431432723999,13.0433034896851,13.0434627532959
11.0751781463623,11.0753135681152,11.0754489898682,11.0755844116211,11.0757188796997,11.0758543014526,11.0759897232056,11.0761251449585,11.0762605667114,11.0763959884644,11.076530456543,11.0766658782959,11.0768013000488,11.0769367218018,11.0770721435547,11.0772075653076,11.0773420333862,11.0774774551392,11.0776128768921,11.077748298645,11.0778837203979,11.0780191421509,11.0781545639038,11.0782890319824,11.1746397018433,11.2878932952881,11.4035329818726,11.5215625762939,11.6420297622681,11.765043258667,11.8906831741333,12.0190362930298,11.1681785583496,11.1683149337769,11.1684513092041,11.1764974594116,12.704737663269,12.8513746261597,13.0014362335205,13.0217914581299,13.0219507217407,13.0221090316772,13.0222682952881,13.0224275588989,13.0225868225098,13.0227451324463,13.0229043960571,13.023063659668,13.0232229232788,13.0233812332153,13.0235404968262,13.023699760437,13.0238580703735,11.1710453033447,11.171181678772,11.1713171005249,13.1070775985718,13.1072378158569,13.1073980331421,13.1075582504272,13.1077184677124,13.1078786849976,13.1080389022827,13.1081991195679,13.1083583831787,13.1085186004639,13.108678817749,13.1088390350342,13.1089992523193,13.1091594696045,13.1093196868896,13.1094799041748,13.10964012146,11.1737756729126,11.1739120483398,11.1740484237671,11.1972980499268,13.1104412078857,13.1106014251709,13.1107616424561,13.1109218597412,13.1110811233521,13.1112413406372,13.1114015579224,13.1115617752075,13.1117219924927,13.1118822097778,13.112042427063,13.1122026443481,13.1123628616333,13.1125230789185,13.1126832962036,13.1128435134888,13.1130037307739,11.1766414642334,11.1767778396606,11.1769142150879,13.1136445999146,12.8982572555542,12.8984136581421,12.8985710144043,12.9716024398804,12.9717607498169,12.9719190597534,12.9720773696899,12.9722366333008,12.9723949432373,12.9725532531738,12.9727115631104,12.9728708267212,12.9730291366577,12.9731874465942,12.9733457565308,12.9735050201416,11.1793746948242,11.1795120239258,11.179648399353,12.974139213562,12.9742975234985,12.9744558334351,12.9746150970459,12.9747734069824,12.9749317169189,12.9750900268555,12.9752492904663,12.9754076004028,12.9755659103394,12.9757251739502,12.9758834838867,12.9760417938232,12.9762010574341,12.9763593673706,12.9765186309814,12.976676940918,12.9768352508545,11.1822462081909,11.1823825836182,11.1825199127197,12.9774703979492,12.9776287078857,12.9777879714966,12.9779462814331,12.9781055450439,12.9782638549805,12.9055118560791,12.9056701660156,12.9058275222778,13.0389881134033,13.0391483306885,13.0393075942993,13.0394668579102,13.039626121521,13.0397853851318,13.039945602417,13.0401048660278,11.1849794387817,11.185115814209,11.1852531433105,13.0407428741455,13.0409021377563,13.0410614013672,13.041220664978,13.0413808822632,13.041540145874,13.0416994094849,13.0418586730957,13.0420188903809,13.0421781539917,12.8260498046875,12.5434789657593,12.2730903625488,12.0139122009277,11.7653999328613,11.5880746841431,11.570764541626,11.1877164840698,11.1878538131714,11.1879901885986,11.1881265640259,13.044093132019,13.0442523956299,13.0444116592407,13.0445718765259,13.0447311401367
11.0762529373169,11.0763883590698,11.0765237808228,11.0766592025757,11.0767936706543,11.0769290924072,11.0770645141602,11.0771999359131,11.077335357666,11.0774707794189,11.0776052474976,11.0777406692505,11.0778760910034,11.0780115127563,11.0781469345093,11.0782823562622,11.0784177780151,11.0785531997681,11.0786876678467,11.0788230895996,11.0789585113525,11.0790939331055,11.0792293548584,11.0793647766113,11.1753358840942,11.2885990142822,11.4042539596558,11.5223035812378,11.6427869796753,11.7658166885376,11.8914737701416,12.0198431015015,11.1692628860474,11.1693992614746,11.1695356369019,11.1772737503052,12.705638885498,12.8522968292236,13.0023803710938,13.0230560302734,13.02321434021,13.0233736038208,13.0235328674316,13.0236921310425,13.023850440979,13.0240097045898,13.0241689682007,13.0243282318115,13.024486541748,13.0246458053589,13.0248050689697,13.0249643325806,13.0251226425171,11.1721296310425,11.1722660064697,11.172402381897,13.1083507537842,13.1085109710693,13.1086711883545,13.1088304519653,13.1089906692505,13.1091508865356,13.1093111038208,13.109471321106,13.1096315383911,13.1097917556763,13.1099519729614,13.1101121902466,13.1102724075317,13.1104326248169,13.1105928421021,13.1107530593872,13.1109132766724,11.1748609542847,11.1749973297119,11.1751337051392,11.198751449585,13.1117143630981,13.1118745803833,13.1120347976685,13.1121950149536,13.1123552322388,13.1125154495239,13.1126756668091,13.1128358840942,13.1129961013794,13.1131563186646,13.1133165359497,13.1134767532349,13.11363697052,13.1137971878052,13.1139574050903,13.1141176223755,13.1142778396606,11.1777267456055,11.1778631210327,11.1780004501343,13.1149187088013,12.899510383606,12.8996667861938,12.8998241424561,12.9728631973267,12.9730215072632,12.9731798171997,12.9733381271362,12.9734964370728,12.9736547470093,12.9738140106201,12.9739723205566,12.9741306304932,12.974289894104,12.9744482040405,12.9746065139771,12.9747648239136,11.1804609298706,11.1805982589722,11.1807346343994,12.9753999710083,12.9755582809448,12.9757165908813,12.9758758544922,12.9760341644287,12.9761924743652,12.9763517379761,12.9765100479126,12.9766683578491,12.97682762146,12.9769859313965,12.977144241333,12.9773035049438,12.9774618148804,12.9776210784912,12.9777793884277,12.9779376983643,12.9780969619751,11.1833333969116,11.1834697723389,11.1836061477661,12.9787321090698,12.9788904190063,12.9790487289429,12.9792079925537,12.9793663024902,12.9795255661011,12.9067659378052,12.9069242477417,12.9070816040039,13.0402565002441,13.040415763855,13.0405750274658,13.0407342910767,13.0408935546875,13.0410537719727,13.0412130355835,13.0413722991943,11.1860666275024,11.1862030029297,11.1863403320312,13.042010307312,13.0421695709229,13.042329788208,13.0424890518188,13.0426483154297,13.0428085327148,13.0429677963257,13.0431270599365,13.0432863235474,13.0434465408325,12.8243865966797,12.5418872833252,12.2714796066284,12.0123119354248,11.8230628967285,11.6238679885864,11.5718898773193,11.1888046264648,11.1889410018921,11.1890783309937,11.1892147064209,13.0453615188599,13.0455207824707,13.0456800460815,13.0458402633667,13.0459995269775
11.0773277282715,11.0774631500244,11.0775985717773,11.0777339935303,11.0778694152832,11.0780038833618,11.0781393051147,11.0782747268677,11.0784101486206,11.0785455703735,11.0786809921265,11.0788164138794,11.0789518356323,11.0790863037109,11.0792217254639,11.0793571472168,11.0794925689697,11.0796279907227,11.0797634124756,11.0798988342285,11.0800342559814,11.0801696777344,11.0803050994873,11.0804405212402,11.1760320663452,11.2893400192261,11.404974937439,11.5230388641357,11.6435441970825,11.7665891647339,11.8922624588013,12.0206499099731,11.1703472137451,11.1704835891724,11.1706199645996,11.1780490875244,12.7065401077271,12.8532199859619,13.003324508667,13.0243196487427,13.0244789123535,13.0246381759644,13.0247974395752,13.0249557495117,13.0251150131226,13.0252742767334,13.0254335403442,13.0255928039551,13.0257520675659,13.0259103775024,13.0260696411133,13.0262289047241,13.0263872146606,11.1732139587402,11.1733503341675,11.1734867095947,13.1096229553223,13.1097831726074,13.1099433898926,13.1101036071777,13.1102638244629,13.110424041748,13.1105842590332,13.1107444763184,13.1109046936035,13.1110649108887,13.1112251281738,13.111385345459,13.1115455627441,13.1117057800293,13.1118659973145,13.1120262145996,13.1121864318848,11.1759462356567,11.176082611084,11.1762189865112,11.2002058029175,13.1129875183105,13.1131477355957,13.1133079528809,13.113468170166,13.1136283874512,13.1137886047363,13.1139488220215,13.1141090393066,13.1142692565918,13.114429473877,13.1145896911621,13.1147499084473,13.1149101257324,13.1150703430176,13.1152315139771,13.1153917312622,13.1155519485474,11.1788129806519,11.1789493560791,11.1790857315063,13.116192817688,12.9007635116577,12.9009199142456,12.9010772705078,12.9741230010986,12.9742813110352,12.9744396209717,12.9745988845825,12.974757194519,12.9749155044556,12.9750747680664,12.9752330780029,12.9753913879395,12.975549697876,12.9757089614868,12.9758672714233,12.9760255813599,11.1815481185913,11.1816844940186,11.1818208694458,12.9766607284546,12.9768190383911,12.976978302002,12.9771366119385,12.977294921875,12.9774541854858,12.9776124954224,12.9777708053589,12.9779300689697,12.9780883789062,12.9782476425171,12.9784059524536,12.9785642623901,12.978723526001,12.9788818359375,12.9790410995483,12.9791994094849,11.2395677566528,11.184419631958,11.1845569610596,11.1846933364868,12.9799928665161,12.980152130127,12.9803104400635,12.9804697036743,12.9806280136108,12.9807872772217,12.9080209732056,12.9081792831421,12.9083366394043,13.0415239334106,13.0416831970215,13.0418424606323,13.0420026779175,13.0421619415283,13.0423212051392,13.04248046875,13.0426406860352,11.1871538162231,11.1872911453247,11.187427520752,13.0432786941528,13.0434379577637,13.0435981750488,13.0437574386597,13.0439167022705,13.0440759658813,13.0442361831665,13.0443954467773,13.0445547103882,13.0447149276733,12.8227224349976,12.5402965545654,12.2698097229004,12.067777633667,11.9559831619263,11.6223707199097,11.5730152130127,11.1898927688599,11.1900291442871,11.1901664733887,11.1903028488159,13.0466299057007,13.0467891693115,13.0469493865967,13.0471086502075,13.0472688674927
11.0784025192261,11.078537940979,11.0786733627319,11.0788087844849,11.0789442062378,11.0790796279907,11.0792150497437,11.0793504714966,11.0794858932495,11.0796203613281,11.0797557830811,11.079891204834,11.0800266265869,11.0801620483398,11.0802974700928,11.0804328918457,11.0805683135986,11.0807037353516,11.0808391571045,11.0809745788574,11.0811100006104,11.0812454223633,11.0813808441162,11.0815153121948,11.1767282485962,11.2900590896606,11.4056959152222,11.523775100708,11.6443014144897,11.7673625946045,11.8930530548096,12.0214567184448,11.1714315414429,11.1715679168701,11.1717052459717,11.178825378418,12.7074422836304,12.8541421890259,13.0042686462402,13.0255842208862,13.0257434844971,13.0259027481079,13.0260620117188,13.0262212753296,13.0263795852661,13.026538848877,13.0266981124878,13.0268573760986,13.0270166397095,13.0271759033203,13.0273342132568,13.0274934768677,13.0276527404785,11.1742992401123,11.1744356155396,11.1745719909668,13.1108961105347,13.1110563278198,13.111216545105,13.1113767623901,13.1115369796753,13.1116971969604,13.1118574142456,13.1120176315308,13.1121778488159,13.1123380661011,13.1124982833862,13.1126585006714,13.1128187179565,13.1129789352417,13.1131401062012,13.1133003234863,13.1134605407715,11.1770315170288,11.1771678924561,11.1773052215576,11.20166015625,13.1142616271973,13.1144218444824,13.1145820617676,13.1147422790527,13.1149024963379,13.115062713623,13.1152229309082,13.1153831481934,13.1155433654785,13.1157035827637,13.1158638000488,13.116024017334,13.1161851882935,13.1163454055786,13.1165056228638,13.1166658401489,13.1168260574341,11.1798992156982,11.1800355911255,11.1801719665527,13.1174669265747,12.9020175933838,12.9021730422974,12.9023303985596,12.9753837585449,12.9755420684814,12.975700378418,12.9758596420288,12.9760179519653,12.9761762619019,12.9763355255127,12.9764938354492,12.9766521453857,12.9768114089966,12.9769697189331,12.9771280288696,12.9772872924805,11.1826343536377,11.1827707290649,11.1829080581665,12.9779214859009,12.9780807495117,12.9782390594482,12.9783973693848,12.9785566329956,12.9787149429321,12.978874206543,12.9790325164795,12.979190826416,12.9793500900269,12.9795083999634,12.9796676635742,12.9798259735107,12.9799852371216,12.9801435470581,12.9803028106689,12.9804611206055,11.2328262329102,11.185507774353,11.1856441497803,11.1857805252075,12.9812545776367,12.9814138412476,12.9815731048584,12.9817314147949,12.9818906784058,12.9820489883423,12.909276008606,12.9094343185425,12.9095916748047,13.0427913665771,13.0429515838623,13.0431108474731,13.043270111084,13.0434303283691,13.04358959198,13.0437488555908,13.043909072876,11.1882419586182,11.1883783340454,11.188515663147,13.0445470809937,13.0447063446045,13.0448665618896,13.0450258255005,13.0451850891113,13.0453453063965,13.0455045700073,13.0456638336182,13.0458240509033,13.0459833145142,12.8210592269897,12.5385885238647,12.3228368759155,12.3212261199951,11.957145690918,11.6208734512329,11.5741405487061,11.1909809112549,11.1911182403564,11.1912546157837,11.1913919448853,13.0478992462158,13.0480585098267,13.0482187271118,13.0483779907227,13.0485372543335
11.079478263855,11.0796136856079,11.0797491073608,11.0798845291138,11.0800199508667,11.0801544189453,11.0802898406982,11.0804252624512,11.0805606842041,11.080696105957,11.08083152771,11.0809669494629,11.0811023712158,11.0812377929688,11.0813732147217,11.0815086364746,11.0816440582275,11.0817794799805,11.0819149017334,11.0820503234863,11.0821857452393,11.0823211669922,11.0824565887451,11.082592010498,11.1774244308472,11.2907695770264,11.4064168930054,11.5245113372803,11.645058631897,11.7681360244751,11.8938426971436,12.0222644805908,11.1725168228149,11.1726531982422,11.1727895736694,11.1796016693115,12.7083435058594,12.8550653457642,13.0052137374878,13.0268497467041,13.0270080566406,13.0271673202515,13.0273265838623,13.0274858474731,13.027645111084,13.0278043746948,13.0279636383057,13.0281229019165,13.028281211853,13.0284404754639,13.0285997390747,13.0287590026855,13.0289173126221,11.1753845214844,11.1755208969116,11.1756572723389,13.1121702194214,13.1123304367065,13.1124906539917,13.1126508712769,13.112811088562,13.1129713058472,13.1131315231323,13.1132917404175,13.1134519577026,13.1136121749878,13.1137723922729,13.1139326095581,13.1140928268433,13.1142530441284,13.1144132614136,13.1145734786987,13.1147336959839,11.1781177520752,11.1782541275024,11.1783905029297,11.2031154632568,13.115535736084,13.1156959533691,13.1158561706543,13.1160163879395,13.1161766052246,13.1163368225098,13.1164970397949,13.1166572570801,13.1168174743652,13.1169786453247,13.1171388626099,13.117299079895,13.1174592971802,13.1176195144653,13.1177797317505,13.1179399490356,13.1181001663208,11.1809854507446,11.1811218261719,11.1812591552734,13.1187419891357,12.9032707214355,12.9034271240234,12.9035844802856,12.9766445159912,12.9768028259277,12.9769620895386,12.9771203994751,12.9772787094116,12.9774379730225,12.977596282959,12.9777545928955,12.9779138565063,12.9780721664429,12.9782314300537,12.9783897399902,12.9785480499268,11.1837215423584,11.1838579177856,11.1839942932129,12.9791831970215,12.979341506958,12.9795007705688,12.9796590805054,12.9798183441162,12.9799766540527,12.9801359176636,12.9802942276001,12.9804525375366,12.9806118011475,12.980770111084,12.9809293746948,12.9810876846313,12.9812469482422,12.9814052581787,12.9815645217896,12.9817228317261,11.2260932922363,11.1865949630737,11.186731338501,11.1868686676025,12.9825172424316,12.9826755523682,12.982834815979,12.9829931259155,12.9831523895264,12.9833116531372,12.9105310440063,12.9106893539429,12.9108467102051,13.044059753418,13.0442199707031,13.044379234314,13.0445384979248,13.04469871521,13.0448579788208,13.0450172424316,13.0451774597168,11.1893301010132,11.1894664764404,11.189603805542,13.0458154678345,13.0459747314453,13.0461349487305,13.0462942123413,13.0464544296265,13.0466136932373,13.0467729568481,13.0469331741333,13.0470924377441,13.0472526550293,12.8193969726562,12.5889110565186,12.3706130981445,12.3414831161499,11.958309173584,11.6193771362305,11.5752668380737,11.1920700073242,11.1922063827515,11.192343711853,11.1924800872803,13.049168586731,13.0493278503418,13.049488067627,13.0496473312378,13.0498065948486
11.0805540084839,11.0806894302368,11.0808248519897,11.0809593200684,11.0810947418213,11.0812301635742,11.0813655853271,11.0815010070801,11.081636428833,11.0817718505859,11.0819072723389,11.0820426940918,11.0821781158447,11.0823135375977,11.0824489593506,11.0825843811035,11.0827198028564,11.0828552246094,11.0829906463623,11.0831260681152,11.0832614898682,11.0833969116211,11.083532333374,11.083667755127,11.1781206130981,11.2914800643921,11.4071388244629,11.5252475738525,11.6458158493042,11.7689094543457,11.8946323394775,12.0230712890625,11.1736011505127,11.1737384796143,11.1738748550415,11.1803779602051,12.7092456817627,12.8559875488281,13.006157875061,13.0281143188477,13.0282735824585,13.0284328460693,13.0285921096802,13.028751373291,13.0289106369019,13.0290699005127,13.0292282104492,13.0293874740601,13.0295467376709,13.0297060012817,13.0298652648926,13.0300245285034,13.0301828384399,11.1764698028564,11.176607131958,11.1767435073853,13.1134433746338,13.1136035919189,13.1137638092041,13.1139240264893,13.1140842437744,13.1142444610596,13.1144046783447,13.1145658493042,13.1147260665894,13.1148862838745,13.1150465011597,13.1152067184448,13.11536693573,13.1155271530151,13.1156873703003,13.1158475875854,13.1160078048706,11.1792030334473,11.1793403625488,11.1794767379761,11.2045707702637,13.1168098449707,13.1169700622559,13.117130279541,13.1172904968262,13.1174516677856,13.1176118850708,13.117772102356,13.1179323196411,13.1180925369263,13.1182527542114,13.1184129714966,13.1185731887817,13.1187334060669,13.1188945770264,13.1190547943115,13.1192150115967,13.1193752288818,11.182071685791,11.1822090148926,11.1823453903198,13.1200170516968,12.9045248031616,12.9046812057495,12.9048385620117,12.9779062271118,12.9780645370483,12.9782228469849,12.9783811569214,12.9785404205322,12.9786987304688,12.9788579940796,12.9790163040161,12.9791746139526,12.9793338775635,12.9794921875,12.9796514511108,12.9798097610474,11.1848087310791,11.1849451065063,11.1850814819336,12.9804449081421,12.9806032180786,12.9807624816895,12.980920791626,12.9810800552368,12.9812383651733,12.9813976287842,12.9815559387207,12.9817152023315,12.9818735122681,12.9820327758789,12.9821910858154,12.9823503494263,12.9825086593628,12.9826679229736,12.9828262329102,12.982985496521,11.219367980957,11.1876821517944,11.187819480896,11.1879558563232,12.9837799072266,12.9839382171631,12.9840974807739,12.9842557907104,12.9844150543213,12.9845733642578,12.9117860794067,12.9119443893433,12.9121017456055,13.0453281402588,13.0454883575439,13.0456476211548,13.0458078384399,13.0459671020508,13.0461263656616,13.0462865829468,13.0464458465576,11.1904182434082,11.1905546188354,11.190691947937,13.0470848083496,13.0472440719604,13.0474033355713,13.0475635528564,13.0477228164673,13.0478830337524,13.0480422973633,13.0482015609741,13.0483617782593,13.0485210418701,12.8667278289795,12.7257289886475,12.3689441680908,12.3426837921143,11.9594717025757,11.617880821228,11.5763921737671,11.1931581497192,11.1932954788208,11.193431854248,11.1935691833496,13.0504379272461,13.0505971908569,13.0507574081421,13.0509166717529,13.0510768890381
11.0816297531128,11.0817651748657,11.0819005966187,11.0820350646973,11.0821704864502,11.0823059082031,11.0824413299561,11.082576751709,11.0827121734619,11.0828475952148,11.0829830169678,11.0831184387207,11.0832538604736,11.0833892822266,11.0835247039795,11.0836601257324,11.0837955474854,11.0839309692383,11.0840663909912,11.0842018127441,11.0843372344971,11.08447265625,11.0846080780029,11.0847444534302,11.1788177490234,11.2921915054321,11.4078598022461,11.5259838104248,11.6465730667114,11.7696828842163,11.8954229354858,12.0238790512085,11.1746864318848,11.1748237609863,11.1749601364136,11.1811542510986,12.710147857666,12.8569107055664,13.0071020126343,13.0293798446655,13.0295391082764,13.0296983718872,13.029857635498,13.0300168991089,13.0301761627197,13.0303354263306,13.0304937362671,13.0306529998779,13.0308122634888,13.0309715270996,13.0311307907104,13.0312900543213,13.0314493179321,11.1775560379028,11.1776924133301,11.1778287887573,13.1147174835205,13.1148777008057,13.1150379180908,13.115198135376,13.1153583526611,13.1155185699463,13.1156787872314,13.1158390045166,13.1160001754761,13.1161603927612,13.1163206100464,13.1164808273315,13.1166410446167,13.1168012619019,13.116961479187,13.1171216964722,13.1172828674316,11.1802892684937,11.1804265975952,11.1805629730225,11.2060260772705,13.1180839538574,13.1182451248169,13.1184053421021,13.1185655593872,13.1187257766724,13.1188859939575,13.1190462112427,13.1192073822021,13.1193675994873,13.1195278167725,13.1196880340576,13.1198482513428,13.1200084686279,13.1201686859131,13.1203298568726,13.1204900741577,13.1206502914429,11.1831588745117,11.183295249939,11.1834325790405,13.1212921142578,12.9057788848877,12.9059352874756,12.9060926437378,12.9791679382324,12.9793262481689,12.9794845581055,12.979642868042,12.9798021316528,12.9799604415894,12.9801197052002,12.9802780151367,12.9804363250732,12.9805955886841,12.9807538986206,12.9809131622314,12.981071472168,11.1858959197998,11.1860322952271,11.1861696243286,12.9817066192627,12.9818658828735,12.9820241928101,12.9821834564209,12.9823417663574,12.9825010299683,12.9826593399048,12.9828186035156,12.9829769134521,12.983136177063,12.9832944869995,12.9834537506104,12.9836120605469,12.9837713241577,12.9839296340942,12.9840888977051,12.9842472076416,11.2126512527466,11.1887702941895,11.1889066696167,11.1890439987183,12.9850416183472,12.985200881958,12.9853601455688,12.9855184555054,12.9856777191162,12.9858360290527,12.9130420684814,12.913200378418,12.9133577346802,13.0465974807739,13.0467567443848,13.0469169616699,13.0470762252808,13.0472354888916,13.0473957061768,13.0475549697876,13.0477151870728,11.1915063858032,11.1916437149048,11.191780090332,13.0483531951904,13.0485134124756,13.0486726760864,13.0488328933716,13.0489921569824,13.0491523742676,13.0493116378784,13.0494709014893,13.0496311187744,13.0497903823853,13.0499505996704,12.7269668579102,12.3672761917114,12.3438844680786,11.9606351852417,11.6163854598999,11.5775184631348,11.1942472457886,11.1943845748901,11.1945209503174,11.1946582794189,13.0517072677612,13.0518674850464,13.0520267486572,13.0521869659424,13.0523462295532
11.0827054977417,11.0828409194946,11.0829763412476,11.0831117630005,11.0832471847534,11.0833826065063,11.0835180282593,11.0836534500122,11.0837888717651,11.0839242935181,11.084059715271,11.0841951370239,11.0843305587769,11.0844659805298,11.0846014022827,11.0847368240356,11.0848722457886,11.0850076675415,11.0851430892944,11.0852785110474,11.0854139328003,11.0855493545532,11.0856847763062,11.0858201980591,11.1795139312744,11.2929019927979,11.4085807800293,11.5267200469971,11.6473302841187,11.7704563140869,11.8962135314941,12.0246858596802,11.1757717132568,11.1759090423584,11.1760454177856,11.1819305419922,12.7110500335693,12.8578338623047,13.0080471038818,13.0306453704834,13.0308046340942,13.0309638977051,13.0311231613159,13.0312824249268,13.0314416885376,13.0316009521484,13.0317602157593,13.0319194793701,13.0320777893066,13.0322370529175,13.0323963165283,13.0325555801392,13.03271484375,11.1786413192749,11.1787786483765,11.1789150238037,13.1159915924072,13.1161518096924,13.1163120269775,13.1164722442627,13.1166324615479,13.116792678833,13.1169538497925,13.1171140670776,13.1172742843628,13.1174345016479,13.1175947189331,13.1177549362183,13.1179151535034,13.1180763244629,13.118236541748,13.1183967590332,13.1185569763184,11.1813764572144,11.1815128326416,11.1816492080688,11.2074823379517,13.1193590164185,13.1195192337036,13.1196804046631,13.1198406219482,13.1200008392334,13.1201610565186,13.1203212738037,13.1204814910889,13.1206426620483,13.1208028793335,13.1209630966187,13.1211233139038,13.121283531189,13.1214447021484,13.1216049194336,13.1217651367188,13.1219253540039,11.1842460632324,11.1843824386597,11.1845197677612,13.1225671768188,12.9070339202881,12.907190322876,12.9073476791382,12.9804286956787,12.9805879592896,12.9807462692261,12.9809045791626,12.9810638427734,12.98122215271,12.9813814163208,12.9815397262573,12.9816989898682,12.9818572998047,12.9820165634155,12.9821748733521,12.9823341369629,11.1869831085205,11.1871204376221,11.1872568130493,12.9829692840576,12.9831275939941,12.983286857605,12.9834451675415,12.9836044311523,12.9837627410889,12.9839220046997,12.9840803146362,12.9842395782471,12.9843978881836,12.9845571517944,12.9847164154053,12.9848747253418,12.9850339889526,12.9851922988892,12.9853515625,12.9855098724365,11.2059421539307,11.1898584365845,11.1899948120117,11.1901321411133,12.9863052368164,12.9864635467529,12.9866228103638,12.9867811203003,12.9869403839111,12.987099647522,12.9142980575562,12.9144563674927,12.9146137237549,13.0478658676147,13.0480260848999,13.0481853485107,13.0483455657959,13.0485048294067,13.0486650466919,13.0488243103027,13.0489845275879,11.1925954818726,11.1927318572998,11.1928691864014,13.0496225357056,13.0497827529907,13.0499420166016,13.0501022338867,13.0502614974976,13.0504217147827,13.0505809783936,13.0507411956787,13.0509004592896,13.0510606765747,13.0512199401855,12.7282056808472,12.365608215332,12.345085144043,11.961799621582,11.6148900985718,11.5786447525024,11.1953363418579,11.1954736709595,11.1956100463867,11.1957473754883,13.0529775619507,13.0531368255615,13.0532970428467,13.0534572601318,13.0536165237427
11.0837812423706,11.0839166641235,11.0840520858765,11.0841875076294,11.0843229293823,11.0844583511353,11.0845937728882,11.0847291946411,11.084864616394,11.085000038147,11.0851354598999,11.0852708816528,11.0854072570801,11.085542678833,11.0856781005859,11.0858135223389,11.0859489440918,11.0860843658447,11.0862197875977,11.0863552093506,11.0864906311035,11.0866260528564,11.0867614746094,11.0868968963623,11.1802110671997,11.2936124801636,11.4093027114868,11.5274572372437,11.6480836868286,11.7712297439575,11.8970031738281,12.0254936218262,11.1768579483032,11.1769943237305,11.177131652832,11.1827068328857,12.7119522094727,12.858757019043,13.0089921951294,13.0319108963013,13.0320701599121,13.0322294235229,13.0323886871338,13.0325479507446,13.0327072143555,13.0328664779663,13.0330257415771,13.033185005188,13.0333442687988,13.0335035324097,13.0336627960205,13.0338220596313,13.0339813232422,11.1797275543213,11.1798648834229,11.1800012588501,13.1172657012939,13.1174259185791,13.1175861358643,13.1177473068237,13.1179075241089,13.118067741394,13.1182279586792,13.1183881759644,13.1185483932495,13.118709564209,13.1188697814941,13.1190299987793,13.1191902160645,13.1193504333496,13.1195116043091,13.1196718215942,13.1198320388794,11.1824626922607,11.182599067688,11.1827363967896,11.2089385986328,13.1206340789795,13.1207942962646,13.1209554672241,13.1211156845093,13.1212759017944,13.1214361190796,13.1215963363647,13.1217575073242,13.1219177246094,13.1220779418945,13.1222381591797,13.1223993301392,13.1225595474243,13.1227197647095,13.1228799819946,13.1230401992798,13.1232013702393,11.1853332519531,11.1854696273804,11.1856069564819,13.1238431930542,12.9082889556885,12.9084453582764,12.9086017608643,12.9816913604736,12.9818496704102,12.9820079803467,12.9821672439575,12.982325553894,12.9824848175049,12.9826431274414,12.9828023910522,12.9829607009888,12.9831199645996,12.9832782745361,12.983437538147,12.9835958480835,11.1880712509155,11.1882076263428,11.1883449554443,12.9842309951782,12.9843902587891,12.9845485687256,12.9847078323364,12.9848670959473,12.9850254058838,12.9851846694946,12.9853429794312,12.985502243042,12.9856605529785,12.9858198165894,12.9859790802002,12.9861373901367,12.9862966537476,12.9864549636841,12.9866142272949,12.9867734909058,11.1991243362427,11.1909465789795,11.1910829544067,11.1912202835083,12.9875679016113,12.9877271652222,12.9878854751587,12.9880447387695,12.9882040023804,12.9883623123169,12.9155540466309,12.9157123565674,12.9158697128296,13.0491352081299,13.049295425415,13.0494546890259,13.049614906311,13.0497741699219,13.049934387207,13.0500936508179,13.050253868103,11.1936836242676,11.1938209533691,11.1939582824707,13.050892829895,13.0510520935059,13.051212310791,13.0513715744019,13.051531791687,13.0516910552979,13.051851272583,13.0520105361938,13.052170753479,13.0523300170898,13.052490234375,12.7294435501099,12.363941192627,12.3462867736816,11.962963104248,11.6133947372437,11.5797719955444,11.1964254379272,11.1965627670288,11.1967000961304,11.1968364715576,13.0542478561401,13.054407119751,13.0545673370361,13.0547275543213,13.0548868179321
11.0848579406738,11.0849933624268,11.0851287841797,11.0852642059326,11.0853996276855,11.0855350494385,11.0856704711914,11.0858058929443,11.0859413146973,11.0860767364502,11.0862121582031,11.0863475799561,11.086483001709,11.0866193771362,11.0867547988892,11.0868902206421,11.087025642395,11.0871610641479,11.0872964859009,11.0874319076538,11.0875673294067,11.0877027511597,11.0878381729126,11.0879745483398,11.1809072494507,11.2943239212036,11.4100246429443,11.5281934738159,11.6488361358643,11.7720041275024,11.8977937698364,12.0263013839722,11.1779432296753,11.1780805587769,11.1782169342041,11.1834840774536,12.712854385376,12.8596801757812,13.009937286377,13.0331773757935,13.0333366394043,13.0334959030151,13.033655166626,13.0338144302368,13.0339736938477,13.0341329574585,13.0342922210693,13.0344514846802,13.034610748291,13.0347700119019,13.0349292755127,13.0350885391235,13.0352478027344,11.1808137893677,11.1809511184692,11.1810874938965,13.118540763855,13.1187009811401,13.1188611984253,13.1190214157104,13.1191816329956,13.1193428039551,13.1195030212402,13.1196632385254,13.1198234558105,13.1199836730957,13.1201448440552,13.1203050613403,13.1204652786255,13.1206254959106,13.1207866668701,13.1209468841553,13.1211071014404,11.1835498809814,11.1836862564087,11.1838226318359,11.2103958129883,13.1219091415405,13.1220703125,13.1222305297852,13.1223907470703,13.1225509643555,13.1227121353149,13.1228723526001,13.1230325698853,13.1231927871704,13.1233539581299,13.123514175415,13.1236743927002,13.1238346099854,13.1239957809448,13.12415599823,13.1243162155151,13.1244764328003,11.1864204406738,11.1865568161011,11.1866941452026,13.1251192092896,12.9095439910889,12.9097003936768,12.9098567962646,12.9829530715942,12.9831113815308,12.9832706451416,12.9834289550781,12.983588218689,12.9837465286255,12.9839057922363,12.9840641021729,12.9842233657837,12.9843816757202,12.9845409393311,12.9847002029419,12.9848585128784,11.1891593933105,11.1892957687378,11.189432144165,12.9854936599731,12.985652923584,12.9858121871948,12.9859704971313,12.9861297607422,12.9862880706787,12.9864473342896,12.9866056442261,12.9867649078369,12.9869241714478,12.9870824813843,12.9872417449951,12.987401008606,12.9875593185425,12.9877185821533,12.9878778457642,12.9880361557007,11.1921644210815,11.1920347213745,11.1921720504761,11.1923093795776,12.9888315200806,12.9889898300171,12.9891490936279,12.9893083572388,12.9894666671753,12.9896259307861,12.9168109893799,12.9169692993164,12.9171266555786,13.0504055023193,13.0505647659302,13.0507249832153,13.0508842468262,13.0510444641113,13.0512037277222,13.0513639450073,13.0515232086182,11.1947727203369,11.1949100494385,11.19504737854,13.0521621704102,13.0523223876953,13.0524816513062,13.0526418685913,13.0528011322021,13.0529613494873,13.0531206130981,13.0532808303833,13.0534400939941,13.0536003112793,13.0537605285645,12.7306823730469,12.3622741699219,12.347487449646,11.9641275405884,11.6119003295898,11.5808982849121,11.1975154876709,11.1976528167725,11.1977891921997,11.1979265213013,13.0555181503296,13.0556783676147,13.0558376312256,13.0559978485107,13.0561580657959
11.0859346389771,11.08607006073,11.0862054824829,11.0863409042358,11.0864763259888,11.0866117477417,11.0867471694946,11.0868825912476,11.0870180130005,11.0871534347534,11.0872888565063,11.0874242782593,11.0875606536865,11.0876960754395,11.0878314971924,11.0879669189453,11.0881023406982,11.0882377624512,11.0883731842041,11.088508605957,11.0886449813843,11.0887804031372,11.0889158248901,11.0890512466431,11.181604385376,11.2950353622437,11.4107456207275,11.5289306640625,11.6495885848999,11.772777557373,11.8985843658447,12.0271091461182,11.1790294647217,11.1791667938232,11.1793031692505,11.1842603683472,12.7137575149536,12.8606042861938,13.0108823776245,13.0344438552856,13.0346031188965,13.0347623825073,13.0349216461182,13.035080909729,13.0352401733398,13.0353994369507,13.0355587005615,13.0357179641724,13.0358772277832,13.036036491394,13.0361957550049,13.0363550186157,13.0365142822266,11.1819009780884,11.1820373535156,11.1821737289429,13.1198148727417,13.1199760437012,13.1201362609863,13.1202964782715,13.1204566955566,13.1206178665161,13.1207780838013,13.1209383010864,13.1210985183716,13.1212587356567,13.1214199066162,13.1215801239014,13.1217403411865,13.121901512146,13.1220617294312,13.1222219467163,13.1223821640015,11.1846361160278,11.1847734451294,11.1849098205566,11.2118530273438,13.1231851577759,13.123345375061,13.1235055923462,13.1236667633057,13.1238269805908,13.123987197876,13.1241483688354,13.1243085861206,13.1244688034058,13.1246290206909,13.1247901916504,13.1249504089355,13.1251106262207,13.1252717971802,13.1254320144653,13.1255922317505,13.1257524490356,11.1875076293945,11.1876449584961,11.1877822875977,13.1263952255249,12.9107990264893,12.9109554290771,12.9111127853394,12.9842157363892,12.9843740463257,12.9845333099365,12.984691619873,12.9848508834839,12.9850091934204,12.9851684570312,12.9853267669678,12.9854860305786,12.9856443405151,12.985803604126,12.9859628677368,12.9861211776733,11.1902475357056,11.1903839111328,11.1905212402344,12.9867572784424,12.9869155883789,12.9870748519897,12.9872331619263,12.9873924255371,12.9875516891479,12.9877099990845,12.9878692626953,12.9880285263062,12.9881868362427,12.9883460998535,12.9885053634644,12.9886636734009,12.9888229370117,12.9889822006226,12.9891405105591,12.9892997741699,11.1929864883423,11.1931238174438,11.1932601928711,11.1933975219727,12.9900951385498,12.9902534484863,12.9904127120972,12.990571975708,12.9907302856445,12.9908895492554,12.9180669784546,12.9182252883911,12.9183826446533,13.0516748428345,13.0518341064453,13.0519943237305,13.0521545410156,13.0523138046265,13.0524740219116,13.0526332855225,13.0527935028076,11.1958627700806,11.1959991455078,11.1961364746094,13.0534324645996,13.0535917282104,13.0537519454956,13.0539121627808,13.0540714263916,13.0542316436768,13.0543909072876,13.0545511245728,13.0547103881836,13.0548706054688,13.0550308227539,12.7319211959839,12.3606071472168,12.3486890792847,11.9652919769287,11.610405921936,11.5820255279541,11.1986055374146,11.1987419128418,11.1988792419434,11.1990156173706,13.0567893981934,13.0569486618042,13.0571088790894,13.0572681427002,13.0574283599854
11.0870113372803,11.0871467590332,11.0872821807861,11.0874176025391,11.087553024292,11.0876884460449,11.0878238677979,11.0879592895508,11.0880947113037,11.088231086731,11.0883665084839,11.0885019302368,11.0886373519897,11.0887727737427,11.0889081954956,11.0890436172485,11.0891790390015,11.0893154144287,11.0894508361816,11.0895862579346,11.0897216796875,11.0898571014404,11.0899925231934,11.0901288986206,11.1823015213013,11.2957458496094,11.4114675521851,11.5296669006348,11.6503410339355,11.773551940918,11.899374961853,12.0279169082642,11.1801156997681,11.1802530288696,11.1803894042969,11.185037612915,12.7146596908569,12.8615274429321,13.0118284225464,13.0357103347778,13.0358695983887,13.0360288619995,13.0361881256104,13.0363473892212,13.036506652832,13.0366659164429,13.0368251800537,13.0369844436646,13.0371437072754,13.0373029708862,13.0374622344971,13.0376214981079,13.0377807617188,11.1829872131348,11.1831245422363,11.1832609176636,13.1210899353027,13.1212511062622,13.1214113235474,13.1215715408325,13.1217317581177,13.1218929290771,13.1220531463623,13.1222133636475,13.1223745346069,13.1225347518921,13.1226949691772,13.1228551864624,13.1230163574219,13.123176574707,13.1233367919922,13.1234979629517,13.1236581802368,11.1857233047485,11.1858606338501,11.1859970092773,11.2133102416992,13.1244602203369,13.1246213912964,13.1247816085815,13.124942779541,13.1251029968262,13.1252632141113,13.1254243850708,13.125584602356,13.1257448196411,13.1259050369263,13.1260662078857,13.1262264251709,13.1263866424561,13.1265478134155,13.1267080307007,13.1268682479858,13.1270294189453,11.1885957717896,11.1887321472168,11.1888694763184,13.1276712417603,12.9120540618896,12.9122104644775,12.9123678207397,12.9854784011841,12.9856367111206,12.9857959747314,12.985954284668,12.9861135482788,12.9862718582153,12.9864311218262,12.986590385437,12.9867486953735,12.9869079589844,12.9870662689209,12.9872255325317,12.9873847961426,11.1913356781006,11.1914720535278,11.1916093826294,12.9880199432373,12.9881792068481,12.9883375167847,12.9884967803955,12.9886560440063,12.9888143539429,12.9889736175537,12.9891328811646,12.9892911911011,12.9894504547119,12.9896097183228,12.9897680282593,12.9899272918701,12.990086555481,12.9902458190918,12.9904041290283,12.9905633926392,11.1940755844116,11.1942129135132,11.1943492889404,11.194486618042,12.991358757019,12.9915170669556,12.9916763305664,12.9918355941772,12.9919948577881,12.9921541213989,12.9193239212036,12.9194822311401,12.9196395874023,13.0529451370239,13.0531044006348,13.0532646179199,13.0534238815308,13.0535840988159,13.0537433624268,13.0539035797119,13.0540637969971,11.1969518661499,11.1970891952515,11.197226524353,13.0547027587891,13.0548629760742,13.0550222396851,13.0551824569702,13.0553417205811,13.0555019378662,13.0556621551514,13.0558214187622,13.0559816360474,13.0561408996582,13.0563011169434,12.7331600189209,12.3589382171631,12.3498916625977,11.966456413269,11.6089124679565,11.5831527709961,11.1996955871582,11.1998319625854,11.199969291687,11.2001056671143,13.0580596923828,13.058219909668,13.0583801269531,13.058539390564,13.0586996078491
11.0880880355835,11.0882234573364,11.0883588790894,11.0884943008423,11.0886297225952,11.0887651443481,11.0889015197754,11.0890369415283,11.0891723632812,11.0893077850342,11.0894432067871,11.08957862854,11.089714050293,11.0898504257202,11.0899858474731,11.0901212692261,11.090256690979,11.0903921127319,11.0905284881592,11.0906639099121,11.090799331665,11.090934753418,11.0910701751709,11.0912065505981,11.1829986572266,11.2964572906494,11.4121894836426,11.5304040908813,11.6510934829712,11.7743253707886,11.9001655578613,12.0287246704102,11.1812019348145,11.181339263916,11.1814756393433,11.1858139038086,12.7155628204346,12.8624515533447,13.0127735137939,13.03697681427,13.0371360778809,13.0372953414917,13.0374546051025,13.0376148223877,13.0377740859985,13.0379333496094,13.0380926132202,13.0382518768311,13.0384111404419,13.0385704040527,13.0387296676636,13.0388889312744,13.0390481948853,11.1840744018555,11.1842107772827,11.18434715271,13.1223659515381,13.1225261688232,13.1226863861084,13.1228475570679,13.123007774353,13.1231679916382,13.1233291625977,13.1234893798828,13.123649597168,13.1238098144531,13.1239709854126,13.1241312026978,13.1242914199829,13.1244525909424,13.1246128082275,13.1247730255127,13.1249341964722,11.1868114471436,11.1869478225708,11.1870851516724,11.214768409729,13.1257362365723,13.1258974075317,13.1260576248169,13.1262187957764,13.1263790130615,13.1265392303467,13.1267004013062,13.1268606185913,13.1270208358765,13.1271820068359,13.1273422241211,13.1275024414062,13.1276636123657,13.1278238296509,13.1279850006104,13.1281452178955,13.1283054351807,11.1896839141846,11.1898202896118,11.1899576187134,13.1289482116699,12.9133100509644,12.9134664535522,12.9136238098145,12.986741065979,12.9868993759155,12.9870586395264,12.9872169494629,12.9873762130737,12.9875354766846,12.9876937866211,12.9878530502319,12.9880123138428,12.9881706237793,12.9883298873901,12.988489151001,12.9886474609375,11.1924247741699,11.1925611495972,11.1926975250244,12.9892835617065,12.9894428253174,12.9896011352539,12.9897603988647,12.9899196624756,12.9900779724121,12.9902372360229,12.9903964996338,12.9905548095703,12.9907140731812,12.990873336792,12.9910326004028,12.9911909103394,12.9913501739502,12.991509437561,12.9916677474976,12.9918270111084,11.195164680481,11.1953020095825,11.1954383850098,11.1955757141113,12.9926223754883,12.9927816390991,12.99294090271,12.9931001663208,12.9932584762573,12.9934177398682,12.920581817627,12.9207391738892,12.9208974838257,13.0542154312134,13.0543746948242,13.0545349121094,13.0546941757202,13.0548543930054,13.0550146102905,13.0551738739014,13.0553340911865,11.1980419158936,11.1981782913208,11.1983156204224,13.0559730529785,13.0561332702637,13.0562925338745,13.0564527511597,13.0566129684448,13.0567722320557,13.0569324493408,13.057092666626,13.0572519302368,13.057412147522,13.0575723648071,12.7343997955322,12.3572645187378,12.3510932922363,11.9676208496094,11.6074190139771,11.5842800140381,11.2007856369019,11.2009229660034,11.2010593414307,13.0591716766357,13.0593309402466,13.0594911575317,13.0596513748169,13.0598106384277,13.0599708557129
11.0891647338867,11.0893001556396,11.0894365310669,11.0895719528198,11.0897073745728,11.0898427963257,11.0899782180786,11.0901136398315,11.0902500152588,11.0903854370117,11.0905208587646,11.0906562805176,11.0907917022705,11.0909271240234,11.0910634994507,11.0911989212036,11.0913343429565,11.0914697647095,11.0916061401367,11.0917415618896,11.0918769836426,11.0920124053955,11.0921478271484,11.0922842025757,11.1836957931519,11.2971687316895,11.4129114151001,11.5311412811279,11.6518459320068,11.7750997543335,11.9009561538696,12.0295324325562,11.1822891235352,11.1824254989624,11.182562828064,11.1865911483765,12.7164659500122,12.8633756637573,13.0137195587158,13.0382442474365,13.0384035110474,13.0385627746582,13.038722038269,13.0388813018799,13.0390405654907,13.0392007827759,13.0393600463867,13.0395193099976,13.0396785736084,13.0398378372192,13.0399971008301,13.0401563644409,13.0403156280518,11.1851615905762,11.1852979660034,11.1854343414307,13.1236410140991,13.1238021850586,13.1239624023438,13.1241226196289,13.1242837905884,13.1244440078735,13.1246042251587,13.1247653961182,13.1249256134033,13.1250858306885,13.1252470016479,13.1254072189331,13.1255674362183,13.1257286071777,13.1258888244629,13.126049041748,13.1262102127075,11.1878986358643,11.1880359649658,11.1881723403931,11.2162265777588,13.1270132064819,13.1271734237671,13.1273345947266,13.1274948120117,13.1276550292969,13.1278162002563,13.1279764175415,13.128137588501,13.1282978057861,13.1284580230713,13.1286191940308,13.1287794113159,13.1289396286011,13.1291007995605,13.1292610168457,13.1294221878052,13.1295824050903,11.1907720565796,11.1909093856812,11.1910467147827,13.1302251815796,12.9145660400391,12.914722442627,12.9148797988892,12.9880046844482,12.9881629943848,12.9883213043213,12.9884805679321,12.988639831543,12.9887981414795,12.9889574050903,12.9891166687012,12.9892749786377,12.9894342422485,12.9895935058594,12.9897518157959,12.9899110794067,11.1935129165649,11.1936502456665,11.1937866210938,12.9905471801758,12.9907064437866,12.9908647537231,12.991024017334,12.9911832809448,12.9913425445557,12.9915008544922,12.991660118103,12.9918193817139,12.9919776916504,12.9921369552612,12.9922962188721,12.9924554824829,12.9926137924194,12.9927730560303,12.9929323196411,12.993091583252,11.1962537765503,11.1963911056519,11.1965284347534,11.196665763855,12.9938869476318,12.9940462112427,12.9942045211792,12.99436378479,12.9945230484009,12.9946823120117,12.921838760376,12.9219970703125,12.9221544265747,13.0554857254028,13.0556449890137,13.0558052062988,13.055965423584,13.0561246871948,13.05628490448,13.0564451217651,13.056604385376,11.1991310119629,11.1992683410645,11.199405670166,13.0572443008423,13.0574035644531,13.0575637817383,13.0577239990234,13.0578832626343,13.0580434799194,13.0582036972046,13.0583629608154,13.0585231781006,13.0586833953857,13.0588436126709,12.7356395721436,12.3555917739868,12.3522958755493,11.968786239624,11.6059265136719,11.5854082107544,11.2018756866455,11.2020130157471,11.2021503448486,13.0604429244995,13.0606021881104,13.0607624053955,13.0609226226807,13.0610828399658,13.0612421035767
