10.6932363510132,12.4736003875732,12.5168924331665,12.5639953613281,12.5868787765503,12.5870361328125,12.5871934890747,12.5873508453369,12.5875082015991,12.5876665115356,12.5878248214722,12.5879821777344,12.5881404876709,12.5882978439331,12.5884561538696,12.5886144638062,12.5887718200684,12.5889301300049,10.6545867919922,10.6547203063965,10.6548538208008,10.6768083572388,12.5897197723389,12.5898771286011,12.5900354385376,12.5901937484741,12.5903511047363,10.5671310424805,10.5672636032104,10.5673961639404,10.5675287246704,10.5676612854004,10.5677938461304,10.5679264068604,10.5680589675903,10.5681915283203,10.5683240890503,10.5684566497803,10.5685892105103,10.5687217712402,10.5688543319702,10.5689878463745,10.5691204071045,10.5692529678345,10.5693855285645,10.5695180892944,10.5696506500244,10.5697832107544,10.5699157714844,10.5700483322144,10.5701808929443,10.5703134536743,10.5704460144043,10.5705795288086,10.5707120895386,10.5708446502686,10.5709772109985,10.5711097717285,10.5712423324585,10.5713748931885,10.5715074539185,10.5716400146484,10.5717735290527,10.5719060897827,10.5720386505127,10.5721712112427,10.5723037719727,10.5724363327026,10.5725698471069,10.5727024078369,10.5728349685669,10.5729675292969,10.5731000900269,10.5732326507568,10.5733661651611,10.5734987258911,10.5736312866211,10.5737638473511,10.5738964080811,10.574028968811,10.5741624832153,10.5742950439453,10.5744276046753,10.5745601654053,10.5746936798096,10.5748262405396,10.5749588012695,10.5750913619995,10.5752248764038,10.5753574371338,10.5754899978638,10.5756225585938,10.575756072998,10.575888633728,10.576021194458,10.5761547088623,10.5762872695923,10.5764198303223,10.5765523910522,10.5766859054565,10.5768184661865,10.5769510269165,10.5770835876465,10.5772171020508,10.5773496627808,10.5774822235107,10.5776147842407,10.577748298645,10.577880859375,10.578013420105,10.5781469345093,10.5782794952393,10.5784120559692,10.5785446166992,10.5786781311035,10.5788106918335,10.5789432525635,10.5790767669678,10.5792093276978,10.5793418884277,10.579475402832,10.579607963562,10.579740524292,10.5798740386963,10.5800065994263,10.5801401138306,10.5802726745605,10.5804052352905,10.5805387496948,10.5806713104248,10.5808038711548,10.5809373855591,10.5810699462891,10.581202507019,10.5813360214233,10.5814685821533,10.5816020965576,10.5817346572876,10.5818672180176,10.5820007324219,10.5821332931519,10.5822668075562,10.5823993682861,10.5825319290161,10.5826654434204,10.5827980041504,10.5829315185547,10.5830640792847,10.583197593689,10.5833301544189,10.5834636688232,10.5835962295532,10.5837287902832,10.5838623046875,10.5839948654175,10.5841283798218,10.5842609405518,10.5843944549561,10.584527015686,10.5846605300903,10.5847930908203,10.5849266052246,10.5850591659546,10.619891166687,10.7227821350098,10.8276863098145,10.9346561431885,11.0436859130859,11.1549777984619,11.2685346603394,11.3844270706177,11.5027179718018,10.6752099990845,10.6753435134888,10.6754770278931,10.6756114959717,12.1330661773682,12.2675189971924,12.4049835205078,12.5318613052368
10.6932687759399,12.4736394882202,12.5181150436401,12.5640354156494,12.5881080627441,12.5882654190063,12.5884227752686,12.5885801315308,12.588737487793,12.5888957977295,12.589054107666,12.5892114639282,12.5893697738647,12.589527130127,12.5896854400635,12.58984375,12.5900011062622,12.5901594161987,10.6556272506714,10.65576171875,10.65589427948,10.6768455505371,12.5909490585327,12.5911073684692,12.5912656784058,12.591423034668,12.5915813446045,10.5681629180908,10.5682954788208,10.5684280395508,10.5685606002808,10.5686941146851,10.568826675415,10.568959236145,10.569091796875,10.569224357605,10.569356918335,10.5694894790649,10.5696220397949,10.5697546005249,10.5698871612549,10.5700197219849,10.5701522827148,10.5702848434448,10.5704183578491,10.5705509185791,10.5706834793091,10.5708160400391,10.570948600769,10.571081161499,10.571213722229,10.571346282959,10.571478843689,10.5716123580933,10.5717449188232,10.5718774795532,10.5720100402832,10.5721426010132,10.5722751617432,10.5724077224731,10.5725412368774,10.5726737976074,10.5728063583374,10.5729389190674,10.5730714797974,10.5732040405273,10.5733375549316,10.5734701156616,10.5736026763916,10.5737352371216,10.5738677978516,10.5740013122559,10.5741338729858,10.5742664337158,10.5743989944458,10.5745315551758,10.5746650695801,10.5747976303101,10.57493019104,10.57506275177,10.5751953125,10.5753288269043,10.5754613876343,10.5755939483643,10.5757265090942,10.5758600234985,10.5759925842285,10.5761251449585,10.5762586593628,10.5763912200928,10.5765237808228,10.5766572952271,10.576789855957,10.576922416687,10.5770559310913,10.5771884918213,10.5773210525513,10.5774536132812,10.5775871276855,10.5777196884155,10.5778522491455,10.5779848098755,10.5781183242798,10.5782508850098,10.5783834457397,10.578516960144,10.578649520874,10.578782081604,10.578914642334,10.5790481567383,10.5791807174683,10.5793132781982,10.5794467926025,10.5795793533325,10.5797128677368,10.5798454284668,10.5799779891968,10.5801115036011,10.5802440643311,10.580376625061,10.5805101394653,10.5806427001953,10.5807752609253,10.5809087753296,10.5810413360596,10.5811748504639,10.5813074111938,10.5814399719238,10.5815734863281,10.5817060470581,10.5818386077881,10.5819721221924,10.5821046829224,10.5822381973267,10.5823707580566,10.5825042724609,10.5826368331909,10.5827693939209,10.5829029083252,10.5830354690552,10.5831689834595,10.5833015441895,10.5834350585938,10.5835676193237,10.5837001800537,10.583833694458,10.583966255188,10.5840997695923,10.5842323303223,10.5843658447266,10.5844984054565,10.5846319198608,10.5847644805908,10.5848979949951,10.5850305557251,10.5851640701294,10.5852966308594,10.5854301452637,10.5855627059937,10.5856962203979,10.5858287811279,10.5859622955322,10.5860948562622,10.6199731826782,10.7228660583496,10.8277721405029,10.9347505569458,11.0437746047974,11.1550674438477,11.268627166748,11.3845224380493,11.5028162002563,10.6762542724609,10.6763877868652,10.6765222549438,10.6766567230225,12.1331758499146,12.2676305770874,12.4050979614258,12.5330877304077
10.6933012008667,12.4736785888672,12.5193376541138,12.5640754699707,12.589337348938,12.5894947052002,12.5896520614624,12.5898094177246,12.5899677276611,12.5901250839233,12.5902833938599,12.5904407501221,12.5905990600586,12.5907573699951,12.5909147262573,12.5910730361938,12.5912313461304,12.5913896560669,10.6566686630249,10.6568021774292,10.6569356918335,10.6768827438354,12.5921792984009,12.5923376083374,12.5924949645996,12.5926532745361,12.5928115844727,10.5691957473755,10.5693283081055,10.5694608688354,10.5695934295654,10.5697259902954,10.5698585510254,10.5699911117554,10.5701236724854,10.5702571868896,10.5703897476196,10.5705223083496,10.5706548690796,10.5707874298096,10.5709199905396,10.5710525512695,10.5711851119995,10.5713176727295,10.5714511871338,10.5715837478638,10.5717163085938,10.5718488693237,10.5719814300537,10.5721139907837,10.5722465515137,10.572380065918,10.5725126266479,10.5726451873779,10.5727777481079,10.5729103088379,10.5730428695679,10.5731763839722,10.5733089447021,10.5734415054321,10.5735740661621,10.5737066268921,10.5738391876221,10.5739727020264,10.5741052627563,10.5742378234863,10.5743703842163,10.5745029449463,10.5746364593506,10.5747690200806,10.5749015808105,10.5750341415405,10.5751676559448,10.5753002166748,10.5754327774048,10.5755653381348,10.5756978988647,10.575831413269,10.575963973999,10.576096534729,10.576229095459,10.5763626098633,10.5764951705933,10.5766277313232,10.5767612457275,10.5768938064575,10.5770263671875,10.5771598815918,10.5772924423218,10.5774250030518,10.5775585174561,10.577691078186,10.577823638916,10.5779571533203,10.5780897140503,10.5782222747803,10.5783557891846,10.5784883499146,10.5786209106445,10.5787534713745,10.5788869857788,10.5790195465088,10.5791521072388,10.5792856216431,10.579418182373,10.579550743103,10.5796842575073,10.5798168182373,10.5799493789673,10.5800828933716,10.5802154541016,10.5803480148315,10.5804815292358,10.5806140899658,10.5807466506958,10.5808801651001,10.5810127258301,10.5811462402344,10.5812788009644,10.5814113616943,10.5815448760986,10.5816774368286,10.5818109512329,10.5819435119629,10.5820760726929,10.5822095870972,10.5823421478271,10.5824756622314,10.5826082229614,10.5827407836914,10.5828742980957,10.5830068588257,10.58314037323,10.58327293396,10.5834064483643,10.5835390090942,10.5836715698242,10.5838050842285,10.5839376449585,10.5840711593628,10.5842037200928,10.5843372344971,10.5844697952271,10.5846033096313,10.5847358703613,10.5848693847656,10.5850019454956,10.5851354598999,10.5852680206299,10.5854015350342,10.5855340957642,10.5856676101685,10.5858001708984,10.5859336853027,10.5860662460327,10.586199760437,10.586332321167,10.5864658355713,10.5865983963013,10.5867319107056,10.5868644714355,10.5869979858398,10.5871305465698,10.6200551986694,10.7229490280151,10.8278570175171,10.9348373413086,11.0438632965088,11.1551580429077,11.2687196731567,11.3846158981323,11.5029134750366,10.6772994995117,10.677433013916,10.6775674819946,10.6777019500732,12.1332845687866,12.2677412033081,12.4052114486694,12.5343141555786
10.6933336257935,12.4737176895142,12.5205602645874,12.5641164779663,12.5905666351318,12.590723991394,12.5908813476562,12.5910387039185,12.591197013855,12.5913553237915,12.5915126800537,12.5916709899902,12.5918292999268,12.591986656189,12.5921449661255,12.592303276062,12.5924615859985,12.5926189422607,10.6577091217041,10.6578435897827,10.657977104187,10.6769199371338,12.593409538269,12.5935678482056,12.5937252044678,12.5938835144043,12.5940418243408,10.5702285766602,10.5703611373901,10.5704936981201,10.5706262588501,10.5707588195801,10.5708913803101,10.57102394104,10.57115650177,10.5712900161743,10.5714225769043,10.5715551376343,10.5716876983643,10.5718202590942,10.5719528198242,10.5720853805542,10.5722188949585,10.5723514556885,10.5724840164185,10.5726165771484,10.5727491378784,10.5728816986084,10.5730142593384,10.5731477737427,10.5732803344727,10.5734128952026,10.5735454559326,10.5736780166626,10.5738115310669,10.5739440917969,10.5740766525269,10.5742092132568,10.5743417739868,10.5744752883911,10.5746078491211,10.5747404098511,10.5748729705811,10.575005531311,10.5751390457153,10.5752716064453,10.5754041671753,10.5755367279053,10.5756702423096,10.5758028030396,10.5759353637695,10.5760679244995,10.5762014389038,10.5763339996338,10.5764665603638,10.5765991210938,10.576732635498,10.576865196228,10.576997756958,10.577130317688,10.5772638320923,10.5773963928223,10.5775289535522,10.5776624679565,10.5777950286865,10.5779275894165,10.5780611038208,10.5781936645508,10.5783262252808,10.5784597396851,10.578592300415,10.578724861145,10.5788583755493,10.5789909362793,10.5791244506836,10.5792570114136,10.5793895721436,10.5795230865479,10.5796556472778,10.5797882080078,10.5799207687378,10.5800542831421,10.5801868438721,10.5803203582764,10.5804529190063,10.5805854797363,10.5807189941406,10.5808515548706,10.5809841156006,10.5811176300049,10.5812501907349,10.5813827514648,10.5815162658691,10.5816488265991,10.5817823410034,10.5819149017334,10.5820474624634,10.5821809768677,10.5823135375977,10.582447052002,10.5825796127319,10.5827121734619,10.5828456878662,10.5829782485962,10.5831117630005,10.5832443237305,10.5833778381348,10.5835103988647,10.583643913269,10.583776473999,10.583909034729,10.5840425491333,10.5841751098633,10.5843086242676,10.5844411849976,10.5845746994019,10.5847072601318,10.5848407745361,10.5849733352661,10.5851068496704,10.5852394104004,10.5853729248047,10.5855054855347,10.585638999939,10.5857715606689,10.5859050750732,10.5860376358032,10.5861711502075,10.5863037109375,10.5864372253418,10.5865697860718,10.5867033004761,10.5868358612061,10.5869693756104,10.5871019363403,10.5872354507446,10.5873680114746,10.5875015258789,10.5876350402832,10.5877676010132,10.5879011154175,10.5880336761475,10.5881671905518,10.6201372146606,10.723032951355,10.8279418945312,10.9349241256714,11.0439519882202,11.1552486419678,11.2688112258911,11.3847103118896,11.5030117034912,10.6783447265625,10.6784782409668,10.6786127090454,10.678747177124,12.1333932876587,12.2678527832031,12.4053249359131,12.5355415344238
10.6933660507202,12.4737567901611,12.5207815170288,12.5641565322876,12.591796875,12.5919542312622,12.5921115875244,12.5922689437866,12.5924272537231,12.5925846099854,12.5927429199219,12.5929012298584,12.5930595397949,12.5932168960571,12.5933752059937,12.5935335159302,12.5936918258667,12.5938491821289,10.6587505340576,10.6588850021362,10.6590185165405,10.6769571304321,12.5946397781372,12.5947980880737,12.5949563980103,12.5951137542725,12.595272064209,10.5712614059448,10.5713939666748,10.5715265274048,10.5716590881348,10.5717916488647,10.5719242095947,10.5720567703247,10.572190284729,10.572322845459,10.572455406189,10.5725879669189,10.5727205276489,10.5728530883789,10.5729866027832,10.5731191635132,10.5732517242432,10.5733842849731,10.5735168457031,10.5736494064331,10.5737829208374,10.5739154815674,10.5740480422974,10.5741806030273,10.5743131637573,10.5744466781616,10.5745792388916,10.5747117996216,10.5748443603516,10.5749769210815,10.5751104354858,10.5752429962158,10.5753755569458,10.5755081176758,10.5756416320801,10.5757741928101,10.57590675354,10.57603931427,10.5761728286743,10.5763053894043,10.5764379501343,10.5765705108643,10.5767040252686,10.5768365859985,10.5769691467285,10.5771017074585,10.5772352218628,10.5773677825928,10.5775003433228,10.5776338577271,10.577766418457,10.577898979187,10.578031539917,10.5781650543213,10.5782976150513,10.5784301757812,10.5785636901855,10.5786962509155,10.5788288116455,10.5789623260498,10.5790948867798,10.5792284011841,10.5793609619141,10.579493522644,10.5796270370483,10.5797595977783,10.5798931121826,10.5800256729126,10.5801582336426,10.5802917480469,10.5804243087769,10.5805568695068,10.5806903839111,10.5808229446411,10.5809555053711,10.5810890197754,10.5812215805054,10.5813550949097,10.5814876556396,10.5816202163696,10.5817537307739,10.5818862915039,10.5820188522339,10.5821523666382,10.5822849273682,10.5824184417725,10.5825510025024,10.5826845169067,10.5828170776367,10.5829496383667,10.583083152771,10.583215713501,10.5833492279053,10.5834817886353,10.5836153030396,10.5837478637695,10.5838804244995,10.5840139389038,10.5841464996338,10.5842800140381,10.5844125747681,10.5845460891724,10.5846786499023,10.5848121643066,10.5849447250366,10.5850782394409,10.5852108001709,10.5853443145752,10.5854768753052,10.5856103897095,10.5857429504395,10.5858764648438,10.5860090255737,10.586142539978,10.586275100708,10.5864086151123,10.5865411758423,10.5866746902466,10.5868072509766,10.5869407653809,10.5870733261108,10.5872068405151,10.5873403549194,10.5874729156494,10.5876064300537,10.5877389907837,10.587872505188,10.588005065918,10.5881385803223,10.5882711410522,10.5884046554565,10.5885381698608,10.5886707305908,10.5888042449951,10.5889368057251,10.5890703201294,10.5892038345337,10.6202192306519,10.7231168746948,10.8280277252197,10.9350109100342,11.0440397262573,11.1553392410278,11.2689037322998,11.384804725647,11.5031099319458,10.6793899536133,10.6795234680176,10.6796579360962,10.6797924041748,12.1335020065308,12.2679643630981,12.4054393768311,12.536768913269
10.693398475647,12.4737958908081,12.5208215713501,12.5641965866089,12.5930271148682,12.5931844711304,12.5933418273926,12.5934991836548,12.5936574935913,12.5938148498535,12.59397315979,12.5941314697266,12.5942897796631,12.5944471359253,12.5946054458618,12.5947637557983,12.5949220657349,12.5950803756714,10.6597919464111,10.6599264144897,10.660059928894,10.6769943237305,10.7204971313477,12.5960283279419,12.5961866378784,12.5963449478149,12.5965032577515,10.5722942352295,10.5724267959595,10.5725593566895,10.5726919174194,10.5728244781494,10.5729579925537,10.5730905532837,10.5732231140137,10.5733556747437,10.5734882354736,10.5736217498779,10.5737543106079,10.5738868713379,10.5740194320679,10.5741519927979,10.5742845535278,10.5744180679321,10.5745506286621,10.5746831893921,10.5748157501221,10.5749492645264,10.5750818252563,10.5752143859863,10.5753469467163,10.5754795074463,10.5756130218506,10.5757455825806,10.5758781433105,10.5760107040405,10.5761442184448,10.5762767791748,10.5764093399048,10.5765419006348,10.5766754150391,10.576807975769,10.576940536499,10.5770740509033,10.5772066116333,10.5773391723633,10.5774717330933,10.5776052474976,10.5777378082275,10.5778703689575,10.5780038833618,10.5781364440918,10.5782690048218,10.5784015655518,10.5785350799561,10.578667640686,10.578800201416,10.5789337158203,10.5790662765503,10.5791988372803,10.5793323516846,10.5794649124146,10.5795974731445,10.5797309875488,10.5798635482788,10.5799970626831,10.5801296234131,10.5802621841431,10.5803956985474,10.5805282592773,10.5806617736816,10.5807943344116,10.5809278488159,10.5810604095459,10.5811929702759,10.5813264846802,10.5814590454102,10.5815925598145,10.5817251205444,10.5818576812744,10.5819911956787,10.5821237564087,10.5822563171387,10.582389831543,10.5825223922729,10.5826559066772,10.5827884674072,10.5829210281372,10.5830545425415,10.5831871032715,10.5833206176758,10.5834531784058,10.5835866928101,10.58371925354,10.5838527679443,10.5839853286743,10.5841178894043,10.5842514038086,10.5843839645386,10.5845174789429,10.5846500396729,10.5847835540771,10.5849161148071,10.5850496292114,10.5851821899414,10.5853157043457,10.5854482650757,10.58558177948,10.58571434021,10.5858478546143,10.5859804153442,10.5861139297485,10.5862464904785,10.5863800048828,10.5865125656128,10.5866460800171,10.5867786407471,10.5869121551514,10.5870447158813,10.5871782302856,10.5873117446899,10.5874443054199,10.5875778198242,10.5877103805542,10.5878438949585,10.5879764556885,10.5881099700928,10.5882425308228,10.5883760452271,10.5885095596313,10.5886421203613,10.5887756347656,10.5889081954956,10.5890417098999,10.5891752243042,10.5893077850342,10.5894412994385,10.5895738601685,10.5897073745728,10.5898408889771,10.589973449707,10.5901069641113,10.5902395248413,10.6203012466431,10.7231998443604,10.8281126022339,10.935097694397,11.0441284179688,11.1554288864136,11.2689962387085,11.38489818573,11.5032072067261,10.6804351806641,10.6805686950684,10.680703163147,10.6808376312256,12.1336116790771,12.2680759429932,12.405553817749,12.5379962921143
10.6934309005737,12.4738340377808,12.5208606719971,12.5642366409302,12.5942573547363,12.5944147109985,12.5945720672607,12.5947294235229,12.5948877334595,12.595046043396,12.5952033996582,12.5953617095947,12.5955200195312,12.5956783294678,12.5958366394043,12.5959939956665,12.596152305603,12.5963106155396,10.660834312439,10.6609678268433,10.6611013412476,10.6770315170288,10.7205295562744,12.5972595214844,12.5974178314209,12.5975761413574,12.5977334976196,10.5733270645142,10.5734596252441,10.5735931396484,10.5737257003784,10.5738582611084,10.5739908218384,10.5741233825684,10.5742568969727,10.5743894577026,10.5745220184326,10.5746545791626,10.5747871398926,10.5749206542969,10.5750532150269,10.5751857757568,10.5753183364868,10.5754518508911,10.5755844116211,10.5757169723511,10.5758495330811,10.5759830474854,10.5761156082153,10.5762481689453,10.5763807296753,10.5765142440796,10.5766468048096,10.5767793655396,10.5769119262695,10.5770454406738,10.5771780014038,10.5773105621338,10.5774431228638,10.5775766372681,10.577709197998,10.577841758728,10.5779752731323,10.5781078338623,10.5782403945923,10.5783739089966,10.5785064697266,10.5786390304565,10.5787715911865,10.5789051055908,10.5790376663208,10.5791702270508,10.5793037414551,10.5794363021851,10.579568862915,10.5797023773193,10.5798349380493,10.5799674987793,10.5801010131836,10.5802335739136,10.5803670883179,10.5804996490479,10.5806322097778,10.5807657241821,10.5808982849121,10.5810317993164,10.5811643600464,10.5812969207764,10.5814304351807,10.5815629959106,10.5816965103149,10.5818290710449,10.5819625854492,10.5820951461792,10.5822286605835,10.5823612213135,10.5824937820435,10.5826272964478,10.5827598571777,10.582893371582,10.583025932312,10.583158493042,10.5832920074463,10.5834245681763,10.5835580825806,10.5836906433105,10.5838241577148,10.5839567184448,10.5840892791748,10.5842227935791,10.5843553543091,10.5844888687134,10.5846214294434,10.5847549438477,10.5848875045776,10.5850210189819,10.5851535797119,10.5852870941162,10.5854196548462,10.5855531692505,10.5856857299805,10.5858192443848,10.5859518051147,10.586085319519,10.586217880249,10.5863513946533,10.5864839553833,10.5866174697876,10.5867500305176,10.5868835449219,10.5870161056519,10.5871496200562,10.5872831344604,10.5874156951904,10.5875492095947,10.5876817703247,10.587815284729,10.587947845459,10.5880813598633,10.5882139205933,10.5883474349976,10.5884809494019,10.5886135101318,10.5887470245361,10.5888795852661,10.5890130996704,10.5891466140747,10.5892791748047,10.589412689209,10.589545249939,10.5896787643433,10.5898122787476,10.5899448394775,10.5900783538818,10.5902109146118,10.5903444290161,10.5904779434204,10.5906105041504,10.5907440185547,10.590877532959,10.591010093689,10.5911436080933,10.5912761688232,10.6203832626343,10.7232837677002,10.828197479248,10.9351854324341,11.0442171096802,11.1555194854736,11.2690877914429,11.3849925994873,11.5033054351807,10.6814813613892,10.6816148757935,10.6817493438721,10.6818838119507,12.1337203979492,12.2681865692139,12.4056673049927,12.5392236709595
10.6934633255005,12.4738731384277,12.520899772644,12.5642766952515,12.5954875946045,12.5956449508667,12.5958023071289,12.5959606170654,12.5961179733276,12.5962762832642,12.5964345932007,12.5965929031372,12.5967512130737,12.5969085693359,12.5970668792725,12.597225189209,12.5973834991455,12.597541809082,10.6618757247925,10.6620101928711,10.6621437072754,10.6770687103271,10.7205629348755,12.5984907150269,12.5986490249634,12.5988073348999,12.5989646911621,10.5743608474731,10.5744934082031,10.5746259689331,10.5747594833374,10.5748920440674,10.5750246047974,10.5751571655273,10.5752897262573,10.5754232406616,10.5755558013916,10.5756883621216,10.5758209228516,10.5759544372559,10.5760869979858,10.5762195587158,10.5763521194458,10.5764856338501,10.5766181945801,10.5767507553101,10.57688331604,10.5770168304443,10.5771493911743,10.5772819519043,10.5774145126343,10.5775480270386,10.5776805877686,10.5778131484985,10.5779466629028,10.5780792236328,10.5782117843628,10.5783452987671,10.5784778594971,10.5786104202271,10.5787439346313,10.5788764953613,10.5790090560913,10.5791425704956,10.5792751312256,10.5794076919556,10.5795412063599,10.5796737670898,10.5798063278198,10.5799398422241,10.5800724029541,10.5802049636841,10.5803384780884,10.5804710388184,10.5806035995483,10.5807371139526,10.5808696746826,10.5810022354126,10.5811357498169,10.5812683105469,10.5814018249512,10.5815343856812,10.5816669464111,10.5818004608154,10.5819330215454,10.5820665359497,10.5821990966797,10.582332611084,10.582465171814,10.5825986862183,10.5827312469482,10.5828647613525,10.5829973220825,10.5831308364868,10.5832633972168,10.5833969116211,10.5835294723511,10.5836620330811,10.5837955474854,10.5839281082153,10.5840616226196,10.5841941833496,10.5843276977539,10.5844602584839,10.5845928192139,10.5847263336182,10.5848588943481,10.5849924087524,10.5851249694824,10.5852584838867,10.5853910446167,10.585524559021,10.585657119751,10.5857906341553,10.5859231948853,10.5860567092896,10.5861892700195,10.5863227844238,10.5864553451538,10.5865888595581,10.5867214202881,10.5868549346924,10.5869874954224,10.5871210098267,10.587254524231,10.5873870849609,10.5875205993652,10.5876531600952,10.5877866744995,10.5879192352295,10.5880527496338,10.5881853103638,10.5883188247681,10.5884523391724,10.5885848999023,10.5887184143066,10.5888509750366,10.5889844894409,10.5891180038452,10.5892505645752,10.5893840789795,10.5895166397095,10.5896501541138,10.5897836685181,10.589916229248,10.5900497436523,10.5901823043823,10.5903158187866,10.5904493331909,10.5905818939209,10.5907154083252,10.5908489227295,10.5909814834595,10.5911149978638,10.5912475585938,10.591381072998,10.5915145874023,10.5916471481323,10.5917806625366,10.5919141769409,10.5920467376709,10.5921802520752,10.5923137664795,10.6204652786255,10.72336769104,10.8282833099365,10.9352722167969,11.0443124771118,11.1556100845337,11.2691802978516,11.3850870132446,11.5034027099609,10.6825265884399,10.6826610565186,10.6827955245972,10.6829299926758,12.1338291168213,12.2682981491089,12.4057807922363,12.540452003479
10.6934957504272,12.4739122390747,12.520938873291,12.5643167495728,12.596718788147,12.5968761444092,12.5970335006714,12.5971908569336,12.5973491668701,12.5975074768066,12.5976657867432,12.5978240966797,12.5979824066162,12.5981397628784,12.5982980728149,12.5984563827515,12.598614692688,12.5987730026245,10.6629180908203,10.6630516052246,10.6631851196289,10.6771059036255,10.7205963134766,12.5997219085693,12.5998802185059,12.6000385284424,12.6001968383789,10.5753946304321,10.5755271911621,10.5756597518921,10.5757923126221,10.5759258270264,10.5760583877563,10.5761909484863,10.5763235092163,10.5764570236206,10.5765895843506,10.5767221450806,10.5768547058105,10.5769882202148,10.5771207809448,10.5772533416748,10.5773868560791,10.5775194168091,10.5776519775391,10.577784538269,10.5779180526733,10.5780506134033,10.5781831741333,10.5783166885376,10.5784492492676,10.5785818099976,10.5787153244019,10.5788478851318,10.5789804458618,10.5791139602661,10.5792465209961,10.5793790817261,10.5795125961304,10.5796451568604,10.5797777175903,10.5799112319946,10.5800437927246,10.5801763534546,10.5803098678589,10.5804424285889,10.5805749893188,10.5807085037231,10.5808410644531,10.5809745788574,10.5811071395874,10.5812397003174,10.5813732147217,10.5815057754517,10.5816383361816,10.5817718505859,10.5819044113159,10.5820379257202,10.5821704864502,10.5823030471802,10.5824365615845,10.5825691223145,10.5827026367188,10.5828351974487,10.582968711853,10.583101272583,10.5832347869873,10.5833673477173,10.5835008621216,10.5836334228516,10.5837669372559,10.5838994979858,10.5840330123901,10.5841655731201,10.5842990875244,10.5844316482544,10.5845651626587,10.5846977233887,10.584831237793,10.5849637985229,10.5850973129272,10.5852298736572,10.5853624343872,10.5854959487915,10.5856285095215,10.5857620239258,10.5858945846558,10.5860280990601,10.58616065979,10.5862941741943,10.5864267349243,10.5865602493286,10.5866928100586,10.5868263244629,10.5869598388672,10.5870923995972,10.5872259140015,10.5873584747314,10.5874919891357,10.5876245498657,10.58775806427,10.587890625,10.5880241394043,10.5881567001343,10.5882902145386,10.5884237289429,10.5885562896729,10.5886898040771,10.5888223648071,10.5889558792114,10.5890893936157,10.5892219543457,10.58935546875,10.58948802948,10.5896215438843,10.5897550582886,10.5898876190186,10.5900211334229,10.5901536941528,10.5902872085571,10.5904207229614,10.5905532836914,10.5906867980957,10.5908203125,10.59095287323,10.5910863876343,10.5912189483643,10.5913524627686,10.5914859771729,10.5916185379028,10.5917520523071,10.5918855667114,10.5920181274414,10.5921516418457,10.59228515625,10.59241771698,10.5925512313843,10.5926847457886,10.5928182601929,10.5929508209229,10.5930843353271,10.5932178497314,10.5933504104614,10.6205472946167,10.7234506607056,10.8283681869507,10.9353590011597,11.0444087982178,11.1557006835938,11.2692728042603,11.385181427002,11.5034990310669,10.683572769165,10.6837072372437,10.6838417053223,10.6839761734009,12.1339378356934,12.2684097290039,12.4058952331543,12.5416793823242
10.693528175354,12.4739513397217,12.520977973938,12.564356803894,12.5979499816895,12.5981073379517,12.5982646942139,12.5984220504761,12.5985803604126,12.5987386703491,12.5988969802856,12.5990552902222,12.5992136001587,12.5993719100952,12.5995292663574,12.5996875762939,12.5998458862305,12.600004196167,10.6639604568481,10.6640939712524,10.6642274856567,10.6771430969238,10.7206296920776,12.6009540557861,12.6011114120483,12.6012697219849,12.6014280319214,10.5764284133911,10.5765609741211,10.5766935348511,10.5768270492554,10.5769596099854,10.5770921707153,10.5772247314453,10.5773582458496,10.5774908065796,10.5776233673096,10.5777568817139,10.5778894424438,10.5780220031738,10.5781545639038,10.5782880783081,10.5784206390381,10.5785531997681,10.5786867141724,10.5788192749023,10.5789518356323,10.5790853500366,10.5792179107666,10.5793504714966,10.5794839859009,10.5796165466309,10.5797491073608,10.5798826217651,10.5800151824951,10.5801477432251,10.5802812576294,10.5804138183594,10.5805463790894,10.5806798934937,10.5808124542236,10.5809459686279,10.5810785293579,10.5812110900879,10.5813446044922,10.5814771652222,10.5816106796265,10.5817432403564,10.5818758010864,10.5820093154907,10.5821418762207,10.582275390625,10.582407951355,10.582540512085,10.5826740264893,10.5828065872192,10.5829401016235,10.5830726623535,10.5832052230835,10.5833387374878,10.5834712982178,10.5836048126221,10.5837373733521,10.5838708877563,10.5840034484863,10.5841369628906,10.5842695236206,10.5844030380249,10.5845355987549,10.5846691131592,10.5848016738892,10.5849351882935,10.5850687026978,10.5852012634277,10.585334777832,10.585467338562,10.5856008529663,10.5857334136963,10.5858669281006,10.5859994888306,10.5861330032349,10.5862655639648,10.5863990783691,10.5865316390991,10.5866651535034,10.5867977142334,10.5869312286377,10.5870637893677,10.587197303772,10.587329864502,10.5874633789062,10.5875959396362,10.5877294540405,10.5878620147705,10.5879955291748,10.5881280899048,10.5882616043091,10.5883951187134,10.5885276794434,10.5886611938477,10.5887937545776,10.5889272689819,10.5890607833862,10.5891933441162,10.5893268585205,10.5894594192505,10.5895929336548,10.5897264480591,10.5898590087891,10.5899925231934,10.5901250839233,10.5902585983276,10.5903921127319,10.5905246734619,10.5906581878662,10.5907917022705,10.5909242630005,10.5910577774048,10.5911903381348,10.5913238525391,10.5914573669434,10.5915899276733,10.5917234420776,10.5918569564819,10.5919895172119,10.5921230316162,10.5922565460205,10.5923891067505,10.5925226211548,10.5926561355591,10.5927896499634,10.5929222106934,10.5930557250977,10.593189239502,10.5933218002319,10.5934553146362,10.5935888290405,10.5937213897705,10.5938549041748,10.5939884185791,10.5941219329834,10.5942544937134,10.5943880081177,10.6206293106079,10.7235345840454,10.8284540176392,10.9354457855225,11.0445051193237,11.1557903289795,11.2693643569946,11.385274887085,11.5035943984985,10.6846189498901,10.6847534179688,10.6848878860474,10.685022354126,12.1340475082397,12.2685213088989,12.4060087203979,12.5429077148438
10.6935606002808,12.4739904403687,12.5210180282593,12.5643968582153,12.5991811752319,12.5993385314941,12.5994958877563,12.5996532440186,12.5998115539551,12.5999698638916,12.6001281738281,12.6002864837646,12.6004447937012,12.6006031036377,12.6007614135742,12.6009197235107,12.6010780334473,12.6012363433838,10.665002822876,10.6651363372803,10.6652708053589,10.6771802902222,10.7206621170044,12.6021852493286,12.6023435592651,12.6025018692017,12.6026601791382,10.5774621963501,10.5775947570801,10.5777282714844,10.5778608322144,10.5779933929443,10.5781259536743,10.5782594680786,10.5783920288086,10.5785245895386,10.5786581039429,10.5787906646729,10.5789232254028,10.5790567398071,10.5791893005371,10.5793218612671,10.5794553756714,10.5795879364014,10.5797204971313,10.5798540115356,10.5799865722656,10.5801191329956,10.5802526473999,10.5803852081299,10.5805187225342,10.5806512832642,10.5807838439941,10.5809173583984,10.5810499191284,10.5811824798584,10.5813159942627,10.5814485549927,10.581582069397,10.581714630127,10.5818471908569,10.5819807052612,10.5821132659912,10.5822467803955,10.5823793411255,10.5825119018555,10.5826454162598,10.5827779769897,10.582911491394,10.583044052124,10.5831775665283,10.5833101272583,10.5834426879883,10.5835762023926,10.5837087631226,10.5838422775269,10.5839748382568,10.5841083526611,10.5842409133911,10.5843744277954,10.5845069885254,10.5846405029297,10.5847730636597,10.584906578064,10.5850391387939,10.5851726531982,10.5853052139282,10.5854387283325,10.5855712890625,10.5857048034668,10.5858373641968,10.5859708786011,10.5861043930054,10.5862369537354,10.5863704681396,10.5865030288696,10.5866365432739,10.5867691040039,10.5869026184082,10.5870351791382,10.5871686935425,10.5873012542725,10.5874347686768,10.5875673294067,10.587700843811,10.587833404541,10.5879669189453,10.5881004333496,10.5882329940796,10.5883665084839,10.5884990692139,10.5886325836182,10.5887651443481,10.5888986587524,10.5890321731567,10.5891647338867,10.589298248291,10.589430809021,10.5895643234253,10.5896978378296,10.5898303985596,10.5899639129639,10.5900964736938,10.5902299880981,10.5903635025024,10.5904960632324,10.5906295776367,10.590763092041,10.590895652771,10.5910291671753,10.5911617279053,10.5912952423096,10.5914287567139,10.5915613174438,10.5916948318481,10.5918283462524,10.5919609069824,10.5920944213867,10.592227935791,10.592360496521,10.5924940109253,10.5926275253296,10.5927600860596,10.5928936004639,10.5930271148682,10.5931606292725,10.5932931900024,10.5934267044067,10.593560218811,10.593692779541,10.5938262939453,10.5939598083496,10.5940933227539,10.5942258834839,10.5943593978882,10.5944929122925,10.5946254730225,10.5947589874268,10.5948925018311,10.5950260162354,10.5951585769653,10.5952920913696,10.5954256057739,10.6207113265991,10.7236185073853,10.8285388946533,10.9355325698853,11.0446004867554,11.1558809280396,11.2694568634033,11.3853693008423,11.5036907196045,10.6856660842896,10.6857995986938,10.6859340667725,10.6860685348511,12.1341562271118,12.2686319351196,12.4061222076416,12.5441370010376
10.6935939788818,12.4740295410156,12.5210571289062,12.5644369125366,12.6004123687744,12.6005697250366,12.6007280349731,12.6008853912354,12.6010437011719,12.6012020111084,12.6013603210449,12.6015186309814,12.601676940918,12.6018352508545,12.601993560791,12.6021509170532,12.6023092269897,12.6024675369263,10.6660451889038,10.6661796569824,10.6663131713867,10.6772174835205,10.7206954956055,12.6034173965454,12.6035757064819,12.6037340164185,12.603892326355,10.5784959793091,10.5786294937134,10.5787620544434,10.5788946151733,10.5790281295776,10.5791606903076,10.5792932510376,10.5794267654419,10.5795593261719,10.5796918869019,10.5798254013062,10.5799579620361,10.5800905227661,10.5802240371704,10.5803565979004,10.5804901123047,10.5806226730347,10.5807552337646,10.5808887481689,10.5810213088989,10.5811538696289,10.5812873840332,10.5814199447632,10.5815534591675,10.5816860198975,10.5818185806274,10.5819520950317,10.5820846557617,10.582218170166,10.582350730896,10.582483291626,10.5826168060303,10.5827493667603,10.5828828811646,10.5830154418945,10.5831489562988,10.5832815170288,10.5834140777588,10.5835475921631,10.5836801528931,10.5838136672974,10.5839462280273,10.5840797424316,10.5842123031616,10.5843458175659,10.5844783782959,10.5846118927002,10.5847444534302,10.5848779678345,10.5850105285645,10.5851440429688,10.5852766036987,10.5854091644287,10.585542678833,10.5856761932373,10.5858087539673,10.5859422683716,10.5860748291016,10.5862083435059,10.5863409042358,10.5864744186401,10.5866069793701,10.5867404937744,10.5868740081787,10.5870065689087,10.587140083313,10.587272644043,10.5874061584473,10.5875396728516,10.5876722335815,10.5878057479858,10.5879383087158,10.5880718231201,10.5882043838501,10.5883378982544,10.5884704589844,10.5886039733887,10.588737487793,10.5888700485229,10.5890035629272,10.5891361236572,10.5892696380615,10.5894021987915,10.5895357131958,10.5896692276001,10.5898017883301,10.5899353027344,10.5900678634644,10.5902013778687,10.5903348922729,10.5904674530029,10.5906009674072,10.5907344818115,10.5908670425415,10.5910005569458,10.5911331176758,10.5912666320801,10.5914001464844,10.5915327072144,10.5916662216187,10.5917997360229,10.5919322967529,10.5920658111572,10.5921993255615,10.5923318862915,10.5924654006958,10.5925989151001,10.5927314758301,10.5928649902344,10.5929985046387,10.593132019043,10.5932645797729,10.5933980941772,10.5935316085815,10.5936641693115,10.5937976837158,10.5939311981201,10.5940647125244,10.5941972732544,10.5943307876587,10.594464302063,10.594596862793,10.5947303771973,10.5948638916016,10.5949974060059,10.5951299667358,10.5952634811401,10.5953969955444,10.5955305099487,10.5956630706787,10.595796585083,10.5959300994873,10.5960636138916,10.5961971282959,10.5963296890259,10.5964632034302,10.6207933425903,10.7237014770508,10.8286237716675,10.935619354248,11.0447053909302,11.1559715270996,11.269549369812,11.3854637145996,11.5037870407104,10.6867122650146,10.6868467330933,10.6869812011719,10.6871156692505,12.1342649459839,12.2687435150146,12.4062366485596,12.5453653335571
10.6936264038086,12.4740686416626,12.5210962295532,12.5644769668579,12.6016445159912,12.6018018722534,12.6019592285156,12.6021175384521,12.6022758483887,12.6024341583252,12.6025915145874,12.6027498245239,12.6029081344604,12.603066444397,12.6032247543335,12.60338306427,12.6035413742065,12.6036996841431,10.667088508606,10.6672220230103,10.6673564910889,10.6772546768188,10.7207288742065,12.6046495437622,12.6048078536987,12.6049661636353,12.6051244735718,10.5795307159424,10.5796632766724,10.5797967910767,10.5799293518066,10.5800628662109,10.5801954269409,10.5803279876709,10.5804615020752,10.5805940628052,10.5807266235352,10.5808601379395,10.5809926986694,10.5811252593994,10.5812587738037,10.5813913345337,10.581524848938,10.581657409668,10.5817899703979,10.5819234848022,10.5820560455322,10.5821895599365,10.5823221206665,10.5824546813965,10.5825881958008,10.5827207565308,10.5828542709351,10.582986831665,10.5831203460693,10.5832529067993,10.5833854675293,10.5835189819336,10.5836515426636,10.5837850570679,10.5839176177979,10.5840511322021,10.5841836929321,10.5843172073364,10.5844497680664,10.5845832824707,10.5847158432007,10.584849357605,10.584981918335,10.5851154327393,10.5852479934692,10.5853815078735,10.5855140686035,10.5856475830078,10.5857801437378,10.5859136581421,10.5860462188721,10.5861797332764,10.5863122940063,10.5864458084106,10.5865783691406,10.5867118835449,10.5868444442749,10.5869779586792,10.5871105194092,10.5872440338135,10.5873775482178,10.5875101089478,10.5876436233521,10.587776184082,10.5879096984863,10.5880432128906,10.5881757736206,10.5883092880249,10.5884428024292,10.5885753631592,10.5887088775635,10.5888414382935,10.5889749526978,10.5891075134277,10.589241027832,10.5893745422363,10.5895071029663,10.5896406173706,10.5897731781006,10.5899066925049,10.5900402069092,10.5901727676392,10.5903062820435,10.5904388427734,10.5905723571777,10.590705871582,10.590838432312,10.5909719467163,10.5911045074463,10.5912380218506,10.5913715362549,10.5915040969849,10.5916376113892,10.5917711257935,10.5919036865234,10.5920372009277,10.592170715332,10.592303276062,10.5924367904663,10.5925703048706,10.5927028656006,10.5928363800049,10.5929698944092,10.5931034088135,10.5932359695435,10.5933694839478,10.5935029983521,10.593635559082,10.5937690734863,10.5939025878906,10.5940361022949,10.5941686630249,10.5943021774292,10.5944356918335,10.5945682525635,10.5947017669678,10.5948352813721,10.5949687957764,10.5951013565063,10.5952348709106,10.5953683853149,10.5955018997192,10.5956344604492,10.5957679748535,10.5959014892578,10.5960350036621,10.5961685180664,10.5963010787964,10.5964345932007,10.596568107605,10.5967016220093,10.5968341827393,10.5969676971436,10.5971012115479,10.5972347259521,10.5973682403564,10.5975017547607,10.6208753585815,10.7237854003906,10.828709602356,10.9357070922852,11.044825553894,11.1560621261597,11.2696409225464,11.3855571746826,11.5038833618164,10.6877593994141,10.6878938674927,10.6880283355713,10.6881628036499,12.134373664856,12.2688550949097,12.4063501358032,12.546594619751
10.6936588287354,12.4741077423096,12.5211353302002,12.5645170211792,12.602876663208,12.6030340194702,12.6031913757324,12.6033496856689,12.6035079956055,12.603666305542,12.6038246154785,12.603982925415,12.6041412353516,12.6042995452881,12.6044578552246,12.6046161651611,12.6047744750977,12.6049327850342,10.6681318283081,10.6682653427124,10.668399810791,10.6772918701172,10.7207622528076,12.6058826446533,12.6060409545898,12.6061992645264,12.6063575744629,10.5805654525757,10.5806980133057,10.58083152771,10.5809640884399,10.5810976028442,10.5812301635742,10.5813627243042,10.5814962387085,10.5816287994385,10.5817613601685,10.5818948745728,10.5820274353027,10.582160949707,10.582293510437,10.5824270248413,10.5825595855713,10.5826921463013,10.5828256607056,10.5829582214355,10.5830917358398,10.5832242965698,10.5833578109741,10.5834903717041,10.5836229324341,10.5837564468384,10.5838890075684,10.5840225219727,10.5841550827026,10.5842885971069,10.5844211578369,10.5845546722412,10.5846872329712,10.5848207473755,10.5849533081055,10.5850868225098,10.5852193832397,10.585352897644,10.585485458374,10.5856189727783,10.5857515335083,10.5858850479126,10.5860176086426,10.5861511230469,10.5862836837769,10.5864171981812,10.5865497589111,10.5866832733154,10.5868158340454,10.5869493484497,10.5870819091797,10.587215423584,10.587347984314,10.5874814987183,10.5876140594482,10.5877475738525,10.5878810882568,10.5880136489868,10.5881471633911,10.5882806777954,10.5884132385254,10.5885467529297,10.5886793136597,10.588812828064,10.5889463424683,10.5890789031982,10.5892124176025,10.5893459320068,10.5894784927368,10.5896120071411,10.5897445678711,10.5898780822754,10.5900115966797,10.5901441574097,10.590277671814,10.5904102325439,10.5905437469482,10.5906772613525,10.5908098220825,10.5909433364868,10.5910768508911,10.5912094116211,10.5913429260254,10.5914754867554,10.5916090011597,10.591742515564,10.5918750762939,10.5920085906982,10.5921421051025,10.5922746658325,10.5924081802368,10.5925416946411,10.5926742553711,10.5928077697754,10.5929412841797,10.593074798584,10.593207359314,10.5933408737183,10.5934743881226,10.5936069488525,10.5937404632568,10.5938739776611,10.5940074920654,10.5941400527954,10.5942735671997,10.594407081604,10.594539642334,10.5946731567383,10.5948066711426,10.5949401855469,10.5950727462769,10.5952062606812,10.5953397750854,10.5954732894897,10.5956058502197,10.595739364624,10.5958728790283,10.5960063934326,10.5961399078369,10.5962724685669,10.5964059829712,10.5965394973755,10.5966730117798,10.5968055725098,10.5969390869141,10.5970726013184,10.5972061157227,10.597339630127,10.5974721908569,10.5976057052612,10.5977392196655,10.5978727340698,10.5980062484741,10.5981397628784,10.5982723236084,10.5984058380127,10.598539352417,10.6209573745728,10.7238693237305,10.8287944793701,10.9357938766479,11.0449285507202,11.1561517715454,11.2697334289551,11.3856515884399,11.503978729248,10.6888065338135,10.6889410018921,10.6890754699707,10.6892099380493,12.134482383728,12.2689666748047,12.4064645767212,12.5470790863037
10.6936912536621,12.4741468429565,12.5211744308472,12.5645570755005,12.6041088104248,12.604266166687,12.6044235229492,12.6045818328857,12.6047401428223,12.6048984527588,12.6050567626953,12.6052150726318,12.6053733825684,12.6055316925049,12.6056900024414,12.6058483123779,12.6060066223145,12.606164932251,10.6691751480103,10.6693086624146,10.6694431304932,10.6773290634155,10.7207946777344,12.6071157455444,12.607274055481,12.6074323654175,12.607590675354,10.581600189209,10.5817337036133,10.5818662643433,10.5819988250732,10.5821323394775,10.5822649002075,10.5823984146118,10.5825309753418,10.5826635360718,10.5827970504761,10.5829296112061,10.5830631256104,10.5831956863403,10.5833292007446,10.5834617614746,10.5835943222046,10.5837278366089,10.5838603973389,10.5839939117432,10.5841264724731,10.5842599868774,10.5843925476074,10.5845260620117,10.5846586227417,10.584792137146,10.584924697876,10.5850582122803,10.5851907730103,10.5853242874146,10.5854568481445,10.5855903625488,10.5857229232788,10.5858564376831,10.5859889984131,10.5861225128174,10.5862550735474,10.5863885879517,10.5865211486816,10.5866546630859,10.5867872238159,10.5869207382202,10.5870532989502,10.5871868133545,10.5873193740845,10.5874528884888,10.5875854492188,10.587718963623,10.5878524780273,10.5879850387573,10.5881185531616,10.5882511138916,10.5883846282959,10.5885171890259,10.5886507034302,10.5887842178345,10.5889167785645,10.5890502929688,10.589183807373,10.589316368103,10.5894498825073,10.5895833969116,10.5897159576416,10.5898494720459,10.5899829864502,10.5901155471802,10.5902490615845,10.5903825759888,10.5905151367188,10.590648651123,10.5907821655273,10.5909147262573,10.5910482406616,10.5911808013916,10.5913143157959,10.5914478302002,10.5915803909302,10.5917139053345,10.5918474197388,10.5919799804688,10.592113494873,10.592246055603,10.5923795700073,10.5925130844116,10.5926456451416,10.5927791595459,10.5929126739502,10.5930461883545,10.5931787490845,10.5933122634888,10.5934457778931,10.593578338623,10.5937118530273,10.5938453674316,10.5939779281616,10.5941114425659,10.5942449569702,10.5943784713745,10.5945110321045,10.5946445465088,10.5947780609131,10.5949115753174,10.5950441360474,10.5951776504517,10.595311164856,10.5954446792603,10.5955772399902,10.5957107543945,10.5958442687988,10.5959777832031,10.5961103439331,10.5962438583374,10.5963773727417,10.596510887146,10.5966444015503,10.5967769622803,10.5969104766846,10.5970439910889,10.5971775054932,10.5973110198975,10.5974435806274,10.5975770950317,10.597710609436,10.5978441238403,10.5979776382446,10.5981111526489,10.5982437133789,10.5983772277832,10.5985107421875,10.5986442565918,10.5987777709961,10.5989112854004,10.5990438461304,10.5991773605347,10.599310874939,10.5994443893433,10.5995779037476,10.621039390564,10.723952293396,10.8288793563843,10.9358806610107,11.0450172424316,11.1562423706055,11.2698259353638,11.3857460021973,11.504075050354,10.6898536682129,10.6899881362915,10.6901226043701,10.690258026123,12.1345920562744,12.2690782546997,12.4065780639648,12.5471954345703
10.6937236785889,12.4741859436035,12.5212144851685,12.5645971298218,12.6053409576416,12.6054983139038,12.6056566238403,12.6058139801025,12.6059722900391,12.6061305999756,12.6062889099121,12.6064472198486,12.6066064834595,12.606764793396,12.6069231033325,12.607081413269,12.6072397232056,12.6073980331421,10.6702184677124,10.6703519821167,10.6704864501953,10.6773662567139,10.7208280563354,12.6083488464355,12.6085071563721,12.6086654663086,12.6088237762451,12.6089820861816,10.5827684402466,10.5829010009766,10.5830345153809,10.5831670761108,10.5833005905151,10.5834331512451,10.5835657119751,10.5836992263794,10.5838317871094,10.5839653015137,10.5840978622437,10.5842313766479,10.5843639373779,10.5844974517822,10.5846300125122,10.5847635269165,10.5848960876465,10.5850296020508,10.5851621627808,10.5852956771851,10.585428237915,10.5855617523193,10.5856943130493,10.5858278274536,10.5859603881836,10.5860939025879,10.5862264633179,10.5863599777222,10.5864925384521,10.5866260528564,10.5867586135864,10.5868921279907,10.5870246887207,10.587158203125,10.587290763855,10.5874242782593,10.5875568389893,10.5876903533936,10.5878238677979,10.5879564285278,10.5880899429321,10.5882225036621,10.5883560180664,10.5884885787964,10.5886220932007,10.588755607605,10.588888168335,10.5890216827393,10.5891542434692,10.5892877578735,10.5894212722778,10.5895538330078,10.5896873474121,10.5898199081421,10.5899534225464,10.5900869369507,10.5902194976807,10.590353012085,10.5904865264893,10.5906200408936,10.5907526016235,10.5908861160278,10.5910196304321,10.5911521911621,10.5912857055664,10.5914192199707,10.5915517807007,10.591685295105,10.5918188095093,10.5919513702393,10.5920848846436,10.5922183990479,10.5923509597778,10.5924844741821,10.5926179885864,10.5927505493164,10.5928840637207,10.593017578125,10.593150138855,10.5932836532593,10.5934171676636,10.5935497283936,10.5936832427979,10.5938167572021,10.5939493179321,10.5940828323364,10.5942163467407,10.594349861145,10.594482421875,10.5946159362793,10.5947494506836,10.5948829650879,10.5950155258179,10.5951490402222,10.5952825546265,10.5954160690308,10.5955486297607,10.595682144165,10.5958156585693,10.5959491729736,10.5960817337036,10.5962152481079,10.5963487625122,10.5964822769165,10.5966157913208,10.5967483520508,10.5968818664551,10.5970153808594,10.5971488952637,10.597282409668,10.5974149703979,10.5975484848022,10.5976819992065,10.5978155136108,10.5979490280151,10.5980825424194,10.5982151031494,10.5983486175537,10.598482131958,10.5986156463623,10.5987491607666,10.5988826751709,10.5990152359009,10.5991487503052,10.5992822647095,10.5994157791138,10.5995492935181,10.5996828079224,10.5998163223267,10.5999488830566,10.6000823974609,10.6002159118652,10.6003494262695,10.6004829406738,10.6006164550781,10.6211214065552,10.7240362167358,10.8289651870728,10.9359674453735,11.0451059341431,11.1563329696655,11.2699184417725,11.3858394622803,11.50417137146,10.6909017562866,10.6910362243652,10.6911706924438,10.6913051605225,12.1347007751465,12.2691888809204,12.4066925048828,12.5473117828369
10.6937561035156,12.4742240905762,12.5212535858154,12.5646371841431,12.6065740585327,12.6067314147949,12.6068897247314,12.6070470809937,12.6072053909302,12.6073637008667,12.6075220108032,12.6076803207397,12.6078386306763,12.6079978942871,12.6081562042236,12.6083145141602,12.6084728240967,12.6086311340332,10.6712617874146,10.6713962554932,10.6715307235718,10.6774034500122,10.7208614349365,12.6095819473267,12.6097402572632,12.6098985671997,12.6100568771362,12.6102151870728,10.5838031768799,10.5839366912842,10.5840692520142,10.5842027664185,10.5843353271484,10.5844688415527,10.5846014022827,10.584734916687,10.584867477417,10.5850009918213,10.5851335525513,10.5852670669556,10.5853996276855,10.5855331420898,10.5856657028198,10.5857992172241,10.5859317779541,10.5860652923584,10.5861978530884,10.5863313674927,10.5864639282227,10.586597442627,10.5867300033569,10.5868635177612,10.5869960784912,10.5871295928955,10.5872621536255,10.5873956680298,10.5875282287598,10.5876617431641,10.5877952575684,10.5879278182983,10.5880613327026,10.5881938934326,10.5883274078369,10.5884599685669,10.5885934829712,10.5887269973755,10.5888595581055,10.5889930725098,10.5891256332397,10.589259147644,10.5893926620483,10.5895252227783,10.5896587371826,10.5897912979126,10.5899248123169,10.5900583267212,10.5901908874512,10.5903244018555,10.5904569625854,10.5905904769897,10.590723991394,10.590856552124,10.5909900665283,10.5911235809326,10.5912570953369,10.5913896560669,10.5915231704712,10.5916566848755,10.5917892456055,10.5919227600098,10.5920562744141,10.5921897888184,10.5923223495483,10.5924558639526,10.5925893783569,10.5927219390869,10.5928554534912,10.5929889678955,10.5931215286255,10.5932550430298,10.5933885574341,10.5935220718384,10.5936546325684,10.5937881469727,10.593921661377,10.5940542221069,10.5941877365112,10.5943212509155,10.5944538116455,10.5945873260498,10.5947208404541,10.5948543548584,10.5949869155884,10.5951204299927,10.595253944397,10.5953874588013,10.5955200195312,10.5956535339355,10.5957870483398,10.5959205627441,10.5960531234741,10.5961866378784,10.5963201522827,10.596453666687,10.5965871810913,10.5967197418213,10.5968532562256,10.5969867706299,10.5971202850342,10.5972537994385,10.5973863601685,10.5975198745728,10.5976533889771,10.5977869033813,10.5979204177856,10.5980529785156,10.5981864929199,10.5983200073242,10.5984535217285,10.5985870361328,10.5987205505371,10.5988540649414,10.5989866256714,10.5991201400757,10.59925365448,10.5993871688843,10.5995206832886,10.5996541976929,10.5997877120972,10.5999202728271,10.6000537872314,10.6001873016357,10.60032081604,10.6004543304443,10.6005878448486,10.6007213592529,10.6008548736572,10.6009883880615,10.6011209487915,10.6012544631958,10.6013879776001,10.6015214920044,10.6016550064087,10.6212034225464,10.7241201400757,10.8290500640869,10.9360542297363,11.0451946258545,11.1564235687256,11.2700099945068,11.3859338760376,11.5042676925659,10.6919498443604,10.6920833587646,10.6922187805176,10.6923532485962,12.1348094940186,12.2693004608154,12.4068059921265,12.5474281311035
10.6937894821167,12.4742631912231,12.5212926864624,12.5646772384644,12.6078071594238,12.607964515686,12.6081228256226,12.6082801818848,12.6084384918213,12.6085968017578,12.6087551116943,12.6089134216309,12.6090726852417,12.6092309951782,12.6093893051147,12.6095476150513,12.6097059249878,12.6098642349243,10.672306060791,10.6724405288696,10.6725740432739,10.6774406433105,10.7208948135376,12.6108150482178,12.6109733581543,12.6111326217651,12.6112909317017,12.6114492416382,10.5848388671875,10.5849723815918,10.5851049423218,10.5852384567261,10.5853710174561,10.5855045318604,10.5856370925903,10.5857706069946,10.5859031677246,10.5860366821289,10.5861692428589,10.5863027572632,10.5864353179932,10.5865688323975,10.5867013931274,10.5868349075317,10.5869674682617,10.587100982666,10.587233543396,10.5873670578003,10.5875005722046,10.5876331329346,10.5877666473389,10.5878992080688,10.5880327224731,10.5881652832031,10.5882987976074,10.5884313583374,10.5885648727417,10.588698387146,10.588830947876,10.5889644622803,10.5890970230103,10.5892305374146,10.5893640518188,10.5894966125488,10.5896301269531,10.5897626876831,10.5898962020874,10.5900297164917,10.5901622772217,10.590295791626,10.590428352356,10.5905618667603,10.5906953811646,10.5908279418945,10.5909614562988,10.5910949707031,10.5912275314331,10.5913610458374,10.5914945602417,10.5916271209717,10.591760635376,10.5918941497803,10.5920267105103,10.5921602249146,10.5922937393188,10.5924272537231,10.5925598144531,10.5926933288574,10.5928268432617,10.592960357666,10.593092918396,10.5932264328003,10.5933599472046,10.5934934616089,10.5936260223389,10.5937595367432,10.5938930511475,10.5940256118774,10.5941591262817,10.594292640686,10.5944261550903,10.5945587158203,10.5946922302246,10.5948257446289,10.5949583053589,10.5950918197632,10.5952253341675,10.5953588485718,10.5954914093018,10.5956249237061,10.5957584381104,10.5958919525146,10.5960245132446,10.5961580276489,10.5962915420532,10.5964250564575,10.5965585708618,10.5966911315918,10.5968246459961,10.5969581604004,10.5970916748047,10.597225189209,10.597357749939,10.5974912643433,10.5976247787476,10.5977582931519,10.5978918075562,10.5980243682861,10.5981578826904,10.5982913970947,10.598424911499,10.5985584259033,10.5986919403076,10.5988245010376,10.5989580154419,10.5990915298462,10.5992250442505,10.5993585586548,10.5994920730591,10.5996255874634,10.5997591018677,10.5998916625977,10.600025177002,10.6001586914062,10.6002922058105,10.6004257202148,10.6005592346191,10.6006927490234,10.6008262634277,10.600959777832,10.601092338562,10.6012258529663,10.6013593673706,10.6014928817749,10.6016263961792,10.6017599105835,10.6018934249878,10.6020269393921,10.6021604537964,10.6022939682007,10.602427482605,10.6025609970093,10.6026945114136,10.6212854385376,10.7242031097412,10.8291358947754,10.9361410140991,11.0452833175659,11.1565141677856,11.2701025009155,11.3860282897949,11.5043630599976,10.6929969787598,10.6931314468384,10.6932668685913,10.6934013366699,12.1349191665649,12.2694120407104,12.4069194793701,12.5475444793701
10.6938219070435,12.4743022918701,12.5213317871094,12.5647172927856,12.6090402603149,12.6091976165771,12.6093559265137,12.6095132827759,12.6096715927124,12.6098299026489,12.6099891662598,12.6101474761963,12.6103057861328,12.6104640960693,12.6106224060059,12.6107807159424,12.6109399795532,12.6110982894897,10.6733503341675,10.6734838485718,10.6736183166504,10.6774778366089,10.720929145813,12.6120491027832,12.6122074127197,12.6123657226562,12.6125249862671,12.6126832962036,10.5858745574951,10.5860080718994,10.5861406326294,10.5862741470337,10.5864067077637,10.586540222168,10.5866727828979,10.5868062973022,10.5869388580322,10.5870723724365,10.5872049331665,10.5873384475708,10.5874719619751,10.5876045227051,10.5877380371094,10.5878705978394,10.5880041122437,10.5881366729736,10.5882701873779,10.5884027481079,10.5885362625122,10.5886697769165,10.5888023376465,10.5889358520508,10.5890684127808,10.5892019271851,10.5893354415894,10.5894680023193,10.5896015167236,10.5897340774536,10.5898675918579,10.5900011062622,10.5901336669922,10.5902671813965,10.5903997421265,10.5905332565308,10.5906667709351,10.590799331665,10.5909328460693,10.5910663604736,10.5911989212036,10.5913324356079,10.5914659500122,10.5915985107422,10.5917320251465,10.5918655395508,10.5919981002808,10.5921316146851,10.5922651290894,10.5923976898193,10.5925312042236,10.5926647186279,10.5927972793579,10.5929307937622,10.5930643081665,10.5931978225708,10.5933303833008,10.5934638977051,10.5935974121094,10.5937309265137,10.5938634872437,10.5939970016479,10.5941305160522,10.5942640304565,10.5943975448608,10.5945301055908,10.5946636199951,10.5947971343994,10.5949306488037,10.5950632095337,10.595196723938,10.5953302383423,10.5954637527466,10.5955963134766,10.5957298278809,10.5958633422852,10.5959968566895,10.5961294174194,10.5962629318237,10.596396446228,10.5965299606323,10.5966625213623,10.5967960357666,10.5969295501709,10.5970630645752,10.5971956253052,10.5973291397095,10.5974626541138,10.5975961685181,10.5977296829224,10.5978631973267,10.5979957580566,10.5981292724609,10.5982627868652,10.5983963012695,10.5985298156738,10.5986633300781,10.5987958908081,10.5989294052124,10.5990629196167,10.599196434021,10.5993299484253,10.5994634628296,10.5995969772339,10.5997295379639,10.5998630523682,10.5999965667725,10.6001300811768,10.6002635955811,10.6003971099854,10.6005306243896,10.6006641387939,10.6007976531982,10.6009302139282,10.6010637283325,10.6011972427368,10.6013307571411,10.6014642715454,10.6015977859497,10.601731300354,10.6018648147583,10.6019983291626,10.6021318435669,10.6022653579712,10.6023988723755,10.6025323867798,10.6026659011841,10.6027984619141,10.6029319763184,10.6030654907227,10.603199005127,10.6033325195312,10.6034660339355,10.6035995483398,10.6037330627441,10.6213674545288,10.7242870330811,10.8292207717896,10.9362277984619,11.0453720092773,11.1566123962402,11.2701950073242,11.3861227035522,11.5044593811035,10.6940460205078,10.6941804885864,10.694314956665,10.6944494247437,12.135027885437,12.2695236206055,12.4070339202881,12.547661781311
10.6938543319702,12.4743413925171,12.5213718414307,12.5647583007812,12.6102733612061,12.6104316711426,12.6105890274048,12.6107473373413,12.6109056472778,12.6110639572144,12.6112222671509,12.6113805770874,12.6115398406982,12.6116981506348,12.6118564605713,12.6120147705078,12.6121730804443,12.6123323440552,10.6743946075439,10.6745290756226,10.6746625900269,10.6775150299072,10.7209663391113,12.6132831573486,12.6134414672852,12.613600730896,12.6137590408325,12.613917350769,10.5869102478027,10.587043762207,10.587176322937,10.5873098373413,10.5874433517456,10.5875759124756,10.5877094268799,10.5878419876099,10.5879755020142,10.5881080627441,10.5882415771484,10.5883741378784,10.5885076522827,10.588641166687,10.588773727417,10.5889072418213,10.5890398025513,10.5891733169556,10.5893068313599,10.5894393920898,10.5895729064941,10.5897054672241,10.5898389816284,10.5899724960327,10.5901050567627,10.590238571167,10.590371131897,10.5905046463013,10.5906381607056,10.5907707214355,10.5909042358398,10.5910377502441,10.5911703109741,10.5913038253784,10.5914373397827,10.5915699005127,10.591703414917,10.5918369293213,10.5919694900513,10.5921030044556,10.5922365188599,10.5923690795898,10.5925025939941,10.5926361083984,10.5927686691284,10.5929021835327,10.593035697937,10.593168258667,10.5933017730713,10.5934352874756,10.5935688018799,10.5937013626099,10.5938348770142,10.5939683914185,10.5941019058228,10.5942344665527,10.594367980957,10.5945014953613,10.5946350097656,10.5947675704956,10.5949010848999,10.5950345993042,10.5951681137085,10.5953016281128,10.5954341888428,10.5955677032471,10.5957012176514,10.5958347320557,10.59596824646,10.5961008071899,10.5962343215942,10.5963678359985,10.5965013504028,10.5966339111328,10.5967674255371,10.5969009399414,10.5970344543457,10.59716796875,10.59730052948,10.5974340438843,10.5975675582886,10.5977010726929,10.5978345870972,10.5979671478271,10.5981006622314,10.5982341766357,10.59836769104,10.5985012054443,10.5986347198486,10.5987672805786,10.5989007949829,10.5990343093872,10.5991678237915,10.5993013381958,10.5994348526001,10.5995683670044,10.5997009277344,10.5998344421387,10.599967956543,10.6001014709473,10.6002349853516,10.6003684997559,10.6005020141602,10.6006355285645,10.6007680892944,10.6009016036987,10.601035118103,10.6011686325073,10.6013021469116,10.6014356613159,10.6015691757202,10.6017026901245,10.6018362045288,10.6019697189331,10.6021032333374,10.6022367477417,10.602370262146,10.6025037765503,10.6026363372803,10.6027698516846,10.6029033660889,10.6030368804932,10.6031703948975,10.6033039093018,10.6034374237061,10.6035709381104,10.6037044525146,10.6038379669189,10.6039714813232,10.6041049957275,10.6042385101318,10.6043720245361,10.6045055389404,10.6046390533447,10.604772567749,10.62144947052,10.7243709564209,10.8293056488037,10.936315536499,11.0454607009888,11.1567096710205,11.2702865600586,11.3862161636353,11.5045557022095,10.6950941085815,10.6952285766602,10.6953630447388,10.6954984664917,12.1351366043091,12.2696352005005,12.4071474075317,12.5477781295776
10.693886756897,10.7340354919434,12.5214109420776,12.5647983551025,12.6115074157715,12.6116647720337,12.6118230819702,12.6119804382324,12.6121397018433,12.6122980117798,12.6124563217163,12.6126146316528,12.6127729415894,12.6129322052002,12.6130905151367,12.6132488250732,12.6134071350098,12.6135663986206,10.6754388809204,10.675573348999,10.6757078170776,10.6775522232056,10.7210035324097,12.6145172119141,12.6146764755249,12.6148347854614,12.6149930953979,12.6151514053345,10.5879468917847,10.5880794525146,10.5882129669189,10.5883455276489,10.5884790420532,10.5886125564575,10.5887451171875,10.5888786315918,10.5890111923218,10.5891447067261,10.5892782211304,10.5894107818604,10.5895442962646,10.5896768569946,10.5898103713989,10.5899438858032,10.5900764465332,10.5902099609375,10.5903425216675,10.5904760360718,10.5906095504761,10.5907421112061,10.5908756256104,10.5910091400146,10.5911417007446,10.5912752151489,10.5914087295532,10.5915412902832,10.5916748046875,10.5918083190918,10.5919408798218,10.5920743942261,10.5922079086304,10.5923404693604,10.5924739837646,10.5926074981689,10.5927400588989,10.5928735733032,10.5930070877075,10.5931396484375,10.5932731628418,10.5934066772461,10.5935392379761,10.5936727523804,10.5938062667847,10.593939781189,10.5940723419189,10.5942058563232,10.5943393707275,10.5944728851318,10.5946054458618,10.5947389602661,10.5948724746704,10.5950059890747,10.5951385498047,10.595272064209,10.5954055786133,10.5955390930176,10.5956726074219,10.5958061218262,10.5959386825562,10.5960721969604,10.5962057113647,10.596339225769,10.5964727401733,10.5966062545776,10.5967388153076,10.5968723297119,10.5970058441162,10.5971393585205,10.5972728729248,10.5974054336548,10.5975389480591,10.5976724624634,10.5978059768677,10.597939491272,10.598072052002,10.5982055664062,10.5983390808105,10.5984725952148,10.5986061096191,10.5987386703491,10.5988721847534,10.5990056991577,10.599139213562,10.5992727279663,10.5994062423706,10.5995388031006,10.5996723175049,10.5998058319092,10.5999393463135,10.6000728607178,10.6002063751221,10.6003398895264,10.6004734039307,10.600606918335,10.6007394790649,10.6008729934692,10.6010065078735,10.6011400222778,10.6012735366821,10.6014070510864,10.6015405654907,10.601674079895,10.6018075942993,10.6019411087036,10.6020746231079,10.6022081375122,10.6023406982422,10.6024742126465,10.6026077270508,10.6027412414551,10.6028747558594,10.6030082702637,10.603141784668,10.6032752990723,10.6034088134766,10.6035423278809,10.6036758422852,10.6038093566895,10.6039428710938,10.604076385498,10.6042098999023,10.6043434143066,10.6044769287109,10.6046104431152,10.6047439575195,10.6048774719238,10.6050109863281,10.6051445007324,10.6052780151367,10.605411529541,10.6055450439453,10.6056785583496,10.6058120727539,10.6215314865112,10.7244539260864,10.8293914794922,10.9364023208618,11.0455493927002,11.1568078994751,11.2703790664673,11.3863105773926,11.5046520233154,10.6961421966553,10.6962766647339,10.6964120864868,10.6965465545654,12.1352453231812,12.2697458267212,12.4072618484497,12.5478944778442
10.6939191818237,10.7340679168701,12.5214500427246,12.5648384094238,12.6125421524048,12.6128988265991,12.6130571365356,12.6132144927979,12.6133737564087,12.6135320663452,12.6136903762817,12.6138486862183,12.6140079498291,12.6141662597656,12.6143245697021,12.6144828796387,12.6146421432495,12.614800453186,10.6764831542969,10.6766176223755,10.6767520904541,10.6775894165039,10.7210416793823,12.6157522201538,12.6159105300903,12.6160688400269,12.6162281036377,12.6163864135742,10.5889825820923,10.5891160964966,10.5892496109009,10.5893821716309,10.5895156860352,10.5896482467651,10.5897817611694,10.5899152755737,10.5900478363037,10.590181350708,10.590313911438,10.5904474258423,10.5905809402466,10.5907135009766,10.5908470153809,10.5909805297852,10.5911130905151,10.5912466049194,10.5913801193237,10.5915126800537,10.591646194458,10.5917797088623,10.5919122695923,10.5920457839966,10.5921792984009,10.5923118591309,10.5924453735352,10.5925788879395,10.5927114486694,10.5928449630737,10.592978477478,10.593111038208,10.5932445526123,10.5933780670166,10.5935106277466,10.5936441421509,10.5937776565552,10.5939111709595,10.5940437316895,10.5941772460938,10.594310760498,10.5944442749023,10.5945768356323,10.5947103500366,10.5948438644409,10.5949764251709,10.5951099395752,10.5952434539795,10.5953769683838,10.5955095291138,10.5956430435181,10.5957765579224,10.5959100723267,10.596043586731,10.5961771011353,10.5963096618652,10.5964431762695,10.5965766906738,10.5967102050781,10.5968437194824,10.5969772338867,10.5971097946167,10.597243309021,10.5973768234253,10.5975103378296,10.5976438522339,10.5977773666382,10.5979108810425,10.5980434417725,10.5981769561768,10.5983104705811,10.5984439849854,10.5985774993896,10.5987110137939,10.5988435745239,10.5989770889282,10.5991106033325,10.5992441177368,10.5993776321411,10.5995111465454,10.5996437072754,10.5997772216797,10.599910736084,10.6000442504883,10.6001777648926,10.6003112792969,10.6004447937012,10.6005773544312,10.6007108688354,10.6008443832397,10.600977897644,10.6011114120483,10.6012449264526,10.6013784408569,10.6015119552612,10.6016454696655,10.6017789840698,10.6019124984741,10.6020460128784,10.6021785736084,10.6023120880127,10.602445602417,10.6025791168213,10.6027126312256,10.6028461456299,10.6029796600342,10.6031131744385,10.6032466888428,10.6033802032471,10.6035137176514,10.6036472320557,10.60378074646,10.6039142608643,10.6040477752686,10.6041812896729,10.6043148040771,10.6044483184814,10.6045818328857,10.60471534729,10.6048488616943,10.6049823760986,10.6051158905029,10.6052494049072,10.6053829193115,10.6055164337158,10.6056499481201,10.6057834625244,10.6059169769287,10.606050491333,10.6061840057373,10.6063175201416,10.6064510345459,10.6065845489502,10.6067180633545,10.6068515777588,10.6216135025024,10.7245378494263,10.8294763565063,10.9364891052246,11.0456380844116,11.1569061279297,11.270471572876,11.3864049911499,11.5047473907471,10.6971912384033,10.6973257064819,10.6974611282349,10.6975955963135,12.1353549957275,12.2698574066162,12.4073753356934,12.5480108261108
10.6939516067505,10.7341003417969,12.5214891433716,12.5648784637451,12.6125831604004,12.6141328811646,12.6142911911011,12.6144495010376,12.6146078109741,12.6147661209106,12.6149244308472,12.615083694458,12.6152420043945,12.6154003143311,12.6155595779419,12.6157178878784,12.6158761978149,12.6160354614258,10.6775283813477,10.6776628494263,10.6777973175049,10.6779317855835,10.7210788726807,12.6169862747192,12.6171455383301,12.6173038482666,12.6174631118774,12.617621421814,10.5900192260742,10.5901527404785,10.5902853012085,10.5904188156128,10.5905523300171,10.5906848907471,10.5908184051514,10.5909519195557,10.5910844802856,10.5912179946899,10.5913515090942,10.5914840698242,10.5916175842285,10.5917510986328,10.5918836593628,10.5920171737671,10.5921506881714,10.5922832489014,10.5924167633057,10.59255027771,10.5926828384399,10.5928163528442,10.5929498672485,10.5930824279785,10.5932159423828,10.5933494567871,10.5934820175171,10.5936155319214,10.5937490463257,10.59388256073,10.59401512146,10.5941486358643,10.5942821502686,10.5944147109985,10.5945482254028,10.5946817398071,10.5948152542114,10.5949478149414,10.5950813293457,10.59521484375,10.5953483581543,10.5954809188843,10.5956144332886,10.5957479476929,10.5958814620972,10.5960149765015,10.5961475372314,10.5962810516357,10.59641456604,10.5965480804443,10.5966815948486,10.5968141555786,10.5969476699829,10.5970811843872,10.5972146987915,10.5973482131958,10.5974817276001,10.5976142883301,10.5977478027344,10.5978813171387,10.598014831543,10.5981483459473,10.5982818603516,10.5984153747559,10.5985488891602,10.5986824035645,10.5988149642944,10.5989484786987,10.599081993103,10.5992155075073,10.5993490219116,10.5994825363159,10.5996160507202,10.5997486114502,10.5998821258545,10.6000156402588,10.6001491546631,10.6002826690674,10.6004161834717,10.600549697876,10.600682258606,10.6008157730103,10.6009492874146,10.6010828018188,10.6012163162231,10.6013498306274,10.6014833450317,10.601616859436,10.6017503738403,10.6018838882446,10.6020164489746,10.6021499633789,10.6022834777832,10.6024169921875,10.6025505065918,10.6026840209961,10.6028175354004,10.6029510498047,10.603084564209,10.6032180786133,10.6033515930176,10.6034851074219,10.6036186218262,10.6037521362305,10.6038856506348,10.6040191650391,10.6041526794434,10.6042861938477,10.604419708252,10.6045532226562,10.6046867370605,10.6048202514648,10.6049537658691,10.6050872802734,10.6052207946777,10.605354309082,10.6054878234863,10.6056213378906,10.6057548522949,10.6058883666992,10.6060218811035,10.6061553955078,10.6062889099121,10.6064224243164,10.6065559387207,10.606689453125,10.6068229675293,10.6069564819336,10.6070909500122,10.6072244644165,10.6073579788208,10.6074914932251,10.6076250076294,10.6077585220337,10.607892036438,10.6216955184937,10.7246217727661,10.8295621871948,10.9365758895874,11.045726776123,11.1570043563843,11.2705640792847,11.3864984512329,11.504843711853,10.6982402801514,10.69837474823,10.6985101699829,10.6986446380615,12.1354637145996,12.2699689865112,12.4074897766113,12.5481271743774
10.6939849853516,10.7341337203979,12.5215282440186,12.5649185180664,12.6126232147217,12.6153678894043,12.6155261993408,12.615683555603,12.6158418655396,12.6160011291504,12.6161594390869,12.6163177490234,12.6164770126343,12.6166353225708,12.6167936325073,12.6169528961182,12.6171112060547,12.6172695159912,10.6785736083984,10.6787080764771,10.6788425445557,10.6789770126343,10.721116065979,12.618221282959,12.6183805465698,12.6185388565063,12.6186981201172,12.6188564300537,10.5910558700562,10.5911893844604,10.5913228988647,10.5914554595947,10.591588973999,10.5917224884033,10.5918550491333,10.5919885635376,10.5921220779419,10.5922546386719,10.5923881530762,10.5925216674805,10.5926542282104,10.5927877426147,10.592921257019,10.593053817749,10.5931873321533,10.5933208465576,10.5934534072876,10.5935869216919,10.5937204360962,10.5938539505005,10.5939865112305,10.5941200256348,10.5942535400391,10.594386100769,10.5945196151733,10.5946531295776,10.5947866439819,10.5949192047119,10.5950527191162,10.5951862335205,10.5953197479248,10.5954523086548,10.5955858230591,10.5957193374634,10.5958528518677,10.5959854125977,10.596118927002,10.5962524414062,10.5963859558105,10.5965194702148,10.5966520309448,10.5967855453491,10.5969190597534,10.5970525741577,10.597186088562,10.597318649292,10.5974521636963,10.5975856781006,10.5977191925049,10.5978527069092,10.5979862213135,10.5981197357178,10.5982522964478,10.5983858108521,10.5985193252563,10.5986528396606,10.5987863540649,10.5989198684692,10.5990533828735,10.5991868972778,10.5993204116821,10.5994539260864,10.5995864868164,10.5997200012207,10.599853515625,10.5999870300293,10.6001205444336,10.6002540588379,10.6003875732422,10.6005210876465,10.6006546020508,10.6007871627808,10.6009206771851,10.6010541915894,10.6011877059937,10.6013212203979,10.6014547348022,10.6015882492065,10.6017217636108,10.6018552780151,10.6019878387451,10.6021213531494,10.6022548675537,10.602388381958,10.6025218963623,10.6026554107666,10.6027889251709,10.6029224395752,10.6030559539795,10.6031894683838,10.6033229827881,10.6034564971924,10.6035900115967,10.603723526001,10.6038570404053,10.6039905548096,10.6041240692139,10.6042575836182,10.6043910980225,10.6045246124268,10.6046581268311,10.6047916412354,10.6049251556396,10.6050586700439,10.6051921844482,10.6053256988525,10.6054592132568,10.6055927276611,10.6057262420654,10.6058597564697,10.605993270874,10.6061267852783,10.6062602996826,10.6063938140869,10.6065273284912,10.6066608428955,10.6067943572998,10.6069278717041,10.6070613861084,10.6071949005127,10.6073293685913,10.6074628829956,10.6075963973999,10.6077299118042,10.6078634262085,10.6079969406128,10.6081304550171,10.6082639694214,10.6083974838257,10.60853099823,10.6086645126343,10.6087989807129,10.6089324951172,10.6217775344849,10.7247047424316,10.829647064209,10.9366626739502,11.0458154678345,11.157114982605,11.270655632019,11.3865928649902,11.504940032959,10.6992893218994,10.6994247436523,10.699559211731,10.6996936798096,12.1355724334717,12.2700805664062,12.407603263855,12.5482444763184
10.6940174102783,10.7341661453247,12.5215682983398,12.5649585723877,12.6126642227173,12.616602897644,12.6167602539062,12.6169185638428,12.6170768737793,12.6172351837158,12.6173944473267,12.6175527572632,12.617712020874,12.6178703308105,12.6180286407471,12.6181879043579,12.6183462142944,12.618504524231,10.6796188354492,10.6797533035278,10.6798877716064,10.6800222396851,10.7211532592773,12.619457244873,12.6196155548096,12.6197748184204,12.6199331283569,12.6200914382935,10.5920934677124,10.5922260284424,10.5923595428467,10.592493057251,10.592625617981,10.5927591323853,10.5928926467896,10.5930252075195,10.5931587219238,10.5932922363281,10.5934247970581,10.5935583114624,10.5936918258667,10.593825340271,10.593957901001,10.5940914154053,10.5942249298096,10.5943574905396,10.5944910049438,10.5946245193481,10.5947580337524,10.5948905944824,10.5950241088867,10.595157623291,10.5952911376953,10.5954236984253,10.5955572128296,10.5956907272339,10.5958242416382,10.5959568023682,10.5960903167725,10.5962238311768,10.5963573455811,10.5964908599854,10.5966234207153,10.5967569351196,10.5968904495239,10.5970239639282,10.5971574783325,10.5972900390625,10.5974235534668,10.5975570678711,10.5976905822754,10.5978240966797,10.5979566574097,10.598090171814,10.5982236862183,10.5983572006226,10.5984907150269,10.5986242294312,10.5987577438354,10.5988903045654,10.5990238189697,10.599157333374,10.5992908477783,10.5994243621826,10.5995578765869,10.5996913909912,10.5998249053955,10.5999584197998,10.6000919342041,10.6002254486084,10.6003589630127,10.600492477417,10.600625038147,10.6007585525513,10.6008920669556,10.6010255813599,10.6011590957642,10.6012926101685,10.6014261245728,10.6015596389771,10.6016931533813,10.6018266677856,10.6019601821899,10.6020936965942,10.6022262573242,10.6023597717285,10.6024932861328,10.6026268005371,10.6027603149414,10.6028938293457,10.60302734375,10.6031608581543,10.6032943725586,10.6034278869629,10.6035614013672,10.6036949157715,10.6038284301758,10.6039619445801,10.6040954589844,10.6042289733887,10.604362487793,10.6044960021973,10.6046295166016,10.6047630310059,10.6048965454102,10.6050300598145,10.6051635742188,10.605297088623,10.6054306030273,10.6055641174316,10.6056976318359,10.6058311462402,10.6059646606445,10.6060981750488,10.6062316894531,10.6063652038574,10.6064987182617,10.606632232666,10.6067657470703,10.6068992614746,10.6070327758789,10.6071662902832,10.6072998046875,10.6074342727661,10.6075677871704,10.6077013015747,10.607834815979,10.6079683303833,10.6081018447876,10.6082353591919,10.6083688735962,10.6085023880005,10.6086359024048,10.6087694168091,10.6089038848877,10.609037399292,10.6091709136963,10.6093044281006,10.6094379425049,10.6095714569092,10.6097049713135,10.6098394393921,10.6099729537964,10.6218595504761,10.7247886657715,10.8297319412231,10.936749458313,11.0459041595459,11.1572389602661,11.2707481384277,11.3866872787476,11.5050363540649,10.7003393173218,10.7004737854004,10.700608253479,10.7007436752319,12.1356811523438,12.2701921463013,12.4077167510986,12.548360824585
10.6940498352051,10.7341985702515,12.5216073989868,12.5476789474487,12.5478363037109,12.5479946136475,12.5481519699097,12.5483102798462,12.5484676361084,12.5486259460449,12.5487833023071,12.5489416122437,12.5490989685059,12.5492572784424,12.5494146347046,12.5495729446411,12.5497312545776,12.5498886108398,10.6806650161743,10.6807994842529,10.6809339523315,10.6810674667358,10.72119140625,12.550835609436,12.5509939193726,12.5511522293091,12.5513095855713,12.5514678955078,10.5931301116943,10.5932636260986,10.5933961868286,10.5935297012329,10.5936632156372,10.5937967300415,10.5939292907715,10.5940628051758,10.5941963195801,10.5943288803101,10.5944623947144,10.5945959091187,10.5947294235229,10.5948619842529,10.5949954986572,10.5951290130615,10.5952625274658,10.5953950881958,10.5955286026001,10.5956621170044,10.5957956314087,10.5959281921387,10.596061706543,10.5961952209473,10.5963287353516,10.5964622497559,10.5965948104858,10.5967283248901,10.5968618392944,10.5969953536987,10.597128868103,10.597261428833,10.5973949432373,10.5975284576416,10.5976619720459,10.5977954864502,10.5979280471802,10.5980615615845,10.5981950759888,10.5983285903931,10.5984621047974,10.5985956192017,10.5987281799316,10.5988616943359,10.5989952087402,10.5991287231445,10.5992622375488,10.5993957519531,10.5995292663574,10.5996618270874,10.5997953414917,10.599928855896,10.6000623703003,10.6001958847046,10.6003293991089,10.6004629135132,10.6005964279175,10.6007299423218,10.6008634567261,10.6009969711304,10.6011304855347,10.601263999939,10.6013975143433,10.6015310287476,10.6016645431519,10.6017980575562,10.6019315719604,10.6020650863647,10.602198600769,10.602331161499,10.6024646759033,10.6025981903076,10.6027317047119,10.6028652191162,10.6029987335205,10.6031322479248,10.6032657623291,10.6033992767334,10.6035327911377,10.603666305542,10.6037998199463,10.6039333343506,10.6040668487549,10.6042003631592,10.6043338775635,10.6044673919678,10.6046009063721,10.6047344207764,10.6048679351807,10.605001449585,10.6051349639893,10.6052684783936,10.6054019927979,10.6055355072021,10.6056690216064,10.6058025360107,10.605936050415,10.6060695648193,10.6062030792236,10.6063365936279,10.6064701080322,10.6066036224365,10.6067371368408,10.6068706512451,10.6070041656494,10.6071376800537,10.607271194458,10.6074047088623,10.6075391769409,10.6076726913452,10.6078062057495,10.6079397201538,10.6080732345581,10.6082067489624,10.6083402633667,10.608473777771,10.6086072921753,10.6087408065796,10.6088752746582,10.6090087890625,10.6091423034668,10.6092758178711,10.6094093322754,10.6095428466797,10.609676361084,10.6098098754883,10.6099443435669,10.6100778579712,10.6102113723755,10.6103448867798,10.6104784011841,10.6106119155884,10.6107454299927,10.6108798980713,10.6110134124756,10.6219415664673,10.7248725891113,10.8298177719116,10.9368371963501,11.0459928512573,11.1573486328125,11.2708406448364,11.3867807388306,11.5051326751709,10.7013883590698,10.7015237808228,10.7016582489014,10.7017936706543,12.1357908248901,12.270302772522,12.4078311920166,12.5484771728516
10.6940822601318,10.7342309951782,12.5216464996338,12.5489072799683,12.5490655899048,12.549222946167,12.5493812561035,12.5495386123657,12.5496969223022,12.5498552322388,12.550012588501,12.5501708984375,12.5503282546997,12.5504865646362,12.5506439208984,12.550802230835,12.5509595870972,12.5511178970337,10.6817102432251,10.6818447113037,10.6819791793823,10.6821136474609,10.7212285995483,12.5520648956299,12.5522232055664,12.5523815155029,12.5525388717651,12.5526971817017,10.5941677093506,10.5943002700806,10.5944337844849,10.5945672988892,10.5947008132935,10.5948333740234,10.5949668884277,10.595100402832,10.5952339172363,10.5953664779663,10.5954999923706,10.5956335067749,10.5957670211792,10.5958995819092,10.5960330963135,10.5961666107178,10.5963001251221,10.5964336395264,10.5965662002563,10.5966997146606,10.5968332290649,10.5969667434692,10.5970993041992,10.5972328186035,10.5973663330078,10.5974998474121,10.5976333618164,10.5977668762207,10.5978994369507,10.598032951355,10.5981664657593,10.5982999801636,10.5984334945679,10.5985670089722,10.5986995697021,10.5988330841064,10.5989665985107,10.599100112915,10.5992336273193,10.5993671417236,10.5995006561279,10.5996332168579,10.5997667312622,10.5999002456665,10.6000337600708,10.6001672744751,10.6003007888794,10.6004343032837,10.600567817688,10.6007013320923,10.6008338928223,10.6009674072266,10.6011009216309,10.6012344360352,10.6013679504395,10.6015014648438,10.601634979248,10.6017684936523,10.6019020080566,10.6020355224609,10.6021690368652,10.6023025512695,10.6024360656738,10.6025695800781,10.6027030944824,10.6028366088867,10.602970123291,10.6031036376953,10.6032371520996,10.6033706665039,10.6035041809082,10.6036376953125,10.6037712097168,10.6039047241211,10.6040382385254,10.6041717529297,10.604305267334,10.6044387817383,10.6045722961426,10.6047058105469,10.6048393249512,10.6049728393555,10.6051063537598,10.6052398681641,10.6053733825684,10.6055068969727,10.605640411377,10.6057739257812,10.6059074401855,10.6060409545898,10.6061744689941,10.6063079833984,10.6064414978027,10.606575012207,10.6067085266113,10.6068420410156,10.6069755554199,10.6071090698242,10.6072425842285,10.6073760986328,10.6075096130371,10.6076440811157,10.60777759552,10.6079111099243,10.6080446243286,10.6081781387329,10.6083116531372,10.6084451675415,10.6085786819458,10.6087121963501,10.6088457107544,10.608980178833,10.6091136932373,10.6092472076416,10.6093807220459,10.6095142364502,10.6096477508545,10.6097812652588,10.6099147796631,10.6100492477417,10.610182762146,10.6103162765503,10.6104497909546,10.6105833053589,10.6107168197632,10.6108512878418,10.6109848022461,10.6111183166504,10.6112518310547,10.611385345459,10.6115188598633,10.6116533279419,10.6117868423462,10.6119203567505,10.6120538711548,10.6220235824585,10.7249555587769,10.8299026489258,10.9369239807129,11.0460815429688,11.1574392318726,11.2709321975708,11.3868751525879,11.5052280426025,10.7024383544922,10.7025728225708,10.7027082443237,10.7028436660767,12.1358995437622,12.270414352417,12.4079446792603,12.5485935211182
10.6941146850586,10.7342643737793,12.5216856002808,12.5501365661621,12.5502948760986,12.5504522323608,12.5506105422974,12.5507678985596,12.5509262084961,12.5510835647583,12.5512418746948,12.5514001846313,12.5515575408936,12.5517158508301,12.5518732070923,12.5520315170288,12.552188873291,12.5523471832275,10.6827564239502,10.6828908920288,10.6830253601074,10.683159828186,10.7212657928467,12.553295135498,12.5534524917603,12.5536108016968,12.5537691116333,12.5539264678955,10.5952053070068,10.5953378677368,10.5954713821411,10.5956048965454,10.5957384109497,10.5958709716797,10.596004486084,10.5961380004883,10.5962715148926,10.5964040756226,10.5965375900269,10.5966711044312,10.5968046188354,10.5969381332397,10.5970706939697,10.597204208374,10.5973377227783,10.5974712371826,10.5976047515869,10.5977373123169,10.5978708267212,10.5980043411255,10.5981378555298,10.5982713699341,10.5984048843384,10.5985374450684,10.5986709594727,10.598804473877,10.5989379882812,10.5990715026855,10.5992050170898,10.5993385314941,10.5994710922241,10.5996046066284,10.5997381210327,10.599871635437,10.6000051498413,10.6001386642456,10.6002721786499,10.6004056930542,10.6005392074585,10.6006717681885,10.6008052825928,10.6009387969971,10.6010723114014,10.6012058258057,10.60133934021,10.6014728546143,10.6016063690186,10.6017398834229,10.6018733978271,10.6020069122314,10.6021404266357,10.60227394104,10.6024074554443,10.6025409698486,10.6026744842529,10.6028079986572,10.6029415130615,10.6030750274658,10.6032085418701,10.6033420562744,10.6034755706787,10.603609085083,10.6037425994873,10.6038761138916,10.6040096282959,10.6041431427002,10.6042766571045,10.6044101715088,10.6045436859131,10.6046772003174,10.6048107147217,10.604944229126,10.6050777435303,10.6052112579346,10.6053447723389,10.6054782867432,10.6056118011475,10.6057453155518,10.6058788299561,10.6060123443604,10.6061458587646,10.6062793731689,10.6064128875732,10.6065464019775,10.6066799163818,10.6068134307861,10.6069469451904,10.6070804595947,10.607213973999,10.6073474884033,10.6074810028076,10.6076145172119,10.6077489852905,10.6078824996948,10.6080160140991,10.6081495285034,10.6082830429077,10.608416557312,10.6085500717163,10.6086835861206,10.6088171005249,10.6089506149292,10.6090850830078,10.6092185974121,10.6093521118164,10.6094856262207,10.609619140625,10.6097526550293,10.6098861694336,10.6100196838379,10.6101541519165,10.6102876663208,10.6104211807251,10.6105546951294,10.6106882095337,10.610821723938,10.6109561920166,10.6110897064209,10.6112232208252,10.6113567352295,10.6114902496338,10.6116237640381,10.6117582321167,10.611891746521,10.6120252609253,10.6121587753296,10.6122922897339,10.6124267578125,10.6125602722168,10.6126937866211,10.6128273010254,10.612961769104,10.6130952835083,10.6221055984497,10.7250394821167,10.8299884796143,10.9370107650757,11.0461702346802,11.1575298309326,11.2710247039795,11.3869695663452,11.5053243637085,10.7034883499146,10.7036237716675,10.7037582397461,10.703893661499,12.1360082626343,12.270525932312,12.4080591201782,12.5487098693848
10.6941480636597,10.7342967987061,12.5217247009277,12.551365852356,12.5515232086182,12.5516815185547,12.5518398284912,12.5519971847534,12.5521554946899,12.5523128509521,12.5524711608887,12.5526294708252,12.5527868270874,12.5529451370239,12.5531034469604,12.5532608032227,12.5534191131592,12.5535764694214,10.6838026046753,10.6839370727539,10.6840715408325,10.6842060089111,10.7213039398193,12.5545244216919,12.5546827316284,12.5548400878906,12.5549983978271,12.5551567077637,10.5962429046631,10.5963754653931,10.5965089797974,10.5966424942017,10.596776008606,10.5969095230103,10.5970420837402,10.5971755981445,10.5973091125488,10.5974426269531,10.5975761413574,10.5977087020874,10.5978422164917,10.597975730896,10.5981092453003,10.5982427597046,10.5983762741089,10.5985088348389,10.5986423492432,10.5987758636475,10.5989093780518,10.5990428924561,10.5991764068604,10.5993099212646,10.5994424819946,10.5995759963989,10.5997095108032,10.5998430252075,10.5999765396118,10.6001100540161,10.6002435684204,10.6003770828247,10.6005096435547,10.600643157959,10.6007766723633,10.6009101867676,10.6010437011719,10.6011772155762,10.6013107299805,10.6014442443848,10.6015777587891,10.6017112731934,10.6018447875977,10.6019773483276,10.6021108627319,10.6022443771362,10.6023778915405,10.6025114059448,10.6026449203491,10.6027784347534,10.6029119491577,10.603045463562,10.6031789779663,10.6033124923706,10.6034460067749,10.6035795211792,10.6037130355835,10.6038465499878,10.6039800643921,10.6041135787964,10.6042470932007,10.6043815612793,10.6045150756836,10.6046485900879,10.6047821044922,10.6049156188965,10.6050491333008,10.6051826477051,10.6053161621094,10.6054496765137,10.605583190918,10.6057167053223,10.6058502197266,10.6059837341309,10.6061172485352,10.6062507629395,10.6063842773438,10.606517791748,10.6066513061523,10.6067848205566,10.6069183349609,10.6070518493652,10.6071853637695,10.6073188781738,10.6074523925781,10.6075859069824,10.6077194213867,10.607852935791,10.6079874038696,10.6081209182739,10.6082544326782,10.6083879470825,10.6085214614868,10.6086549758911,10.6087884902954,10.6089220046997,10.609055519104,10.6091899871826,10.6093235015869,10.6094570159912,10.6095905303955,10.6097240447998,10.6098575592041,10.6099910736084,10.6101245880127,10.6102590560913,10.6103925704956,10.6105260848999,10.6106595993042,10.6107931137085,10.6109266281128,10.6110610961914,10.6111946105957,10.611328125,10.6114616394043,10.6115951538086,10.6117296218872,10.6118631362915,10.6119966506958,10.6121301651001,10.6122636795044,10.612398147583,10.6125316619873,10.6126651763916,10.6127986907959,10.6129322052002,10.6130666732788,10.6132001876831,10.6133337020874,10.6134672164917,10.6136016845703,10.6137351989746,10.6138687133789,10.6140022277832,10.6141366958618,10.6221876144409,10.7251234054565,10.8300733566284,10.9370975494385,11.0462589263916,11.1576204299927,11.2711181640625,11.3870639801025,11.5054206848145,10.7045383453369,10.7046737670898,10.7048082351685,10.7049436569214,12.1361169815063,12.270637512207,12.4081726074219,12.5488262176514
10.6941804885864,10.7343301773071,12.521764755249,12.5525951385498,12.5527534484863,12.5529108047485,12.5530691146851,12.5532274246216,12.5533847808838,12.5535430908203,12.5537004470825,12.553858757019,12.5540170669556,12.5541744232178,12.5543327331543,12.5544900894165,12.554648399353,12.5548067092896,10.6848487854004,10.684983253479,10.6851177215576,10.6852521896362,10.7213411331177,12.5557546615601,12.5559120178223,12.5560703277588,12.5562286376953,12.5563859939575,10.5972805023193,10.5974140167236,10.5975475311279,10.5976800918579,10.5978136062622,10.5979471206665,10.5980806350708,10.5982141494751,10.5983476638794,10.5984802246094,10.5986137390137,10.598747253418,10.5988807678223,10.5990142822266,10.5991477966309,10.5992813110352,10.5994138717651,10.5995473861694,10.5996809005737,10.599814414978,10.5999479293823,10.6000814437866,10.6002149581909,10.6003484725952,10.6004810333252,10.6006145477295,10.6007480621338,10.6008815765381,10.6010150909424,10.6011486053467,10.601282119751,10.6014156341553,10.6015491485596,10.6016826629639,10.6018152236938,10.6019487380981,10.6020822525024,10.6022157669067,10.602349281311,10.6024827957153,10.6026163101196,10.6027498245239,10.6028833389282,10.6030168533325,10.6031503677368,10.6032838821411,10.6034173965454,10.6035509109497,10.603684425354,10.6038179397583,10.6039514541626,10.6040849685669,10.6042184829712,10.6043519973755,10.6044855117798,10.6046190261841,10.6047525405884,10.6048860549927,10.605019569397,10.6051530838013,10.6052865982056,10.6054210662842,10.6055545806885,10.6056880950928,10.6058216094971,10.6059551239014,10.6060886383057,10.60622215271,10.6063556671143,10.6064891815186,10.6066226959229,10.6067562103271,10.6068897247314,10.6070232391357,10.60715675354,10.6072902679443,10.6074237823486,10.6075572967529,10.6076917648315,10.6078252792358,10.6079587936401,10.6080923080444,10.6082258224487,10.608359336853,10.6084928512573,10.6086263656616,10.6087598800659,10.6088933944702,10.6090269088745,10.6091604232788,10.6092948913574,10.6094284057617,10.609561920166,10.6096954345703,10.6098289489746,10.6099624633789,10.6100959777832,10.6102304458618,10.6103639602661,10.6104974746704,10.6106309890747,10.610764503479,10.6108980178833,10.6110324859619,10.6111660003662,10.6112995147705,10.6114330291748,10.6115665435791,10.6117000579834,10.611834526062,10.6119680404663,10.6121015548706,10.6122350692749,10.6123685836792,10.6125030517578,10.6126365661621,10.6127700805664,10.6129035949707,10.613037109375,10.6131715774536,10.6133050918579,10.6134386062622,10.6135721206665,10.6137065887451,10.6138401031494,10.6139736175537,10.614107131958,10.6142416000366,10.6143751144409,10.6145086288452,10.6146421432495,10.6147766113281,10.6149101257324,10.6150436401367,10.6151781082153,10.6222696304321,10.7252063751221,10.8301582336426,10.9371843338013,11.046347618103,11.1577110290527,11.2712182998657,11.3871574401855,11.5055170059204,10.7055892944336,10.7057237625122,10.7058591842651,10.7059946060181,12.1362266540527,12.2707481384277,12.4082870483398,12.548942565918
10.6623592376709,10.6624927520752,10.6626272201538,10.6627616882324,10.6628952026367,10.6630296707153,10.6631631851196,10.6632976531982,10.6634321212769,10.6635665893555,10.6637001037598,10.6638345718384,10.663969039917,10.6641025543213,10.6642370223999,10.6643714904785,10.6645050048828,10.6646394729614,10.66477394104,10.6649074554443,10.6650419235229,10.6651763916016,10.6653108596802,10.6654443740845,10.6655788421631,10.6657133102417,10.665846824646,10.6659812927246,10.5983190536499,10.5984516143799,10.5985851287842,10.5987186431885,10.5988521575928,10.5989856719971,10.5991191864014,10.5992517471313,10.5993852615356,10.5995187759399,10.5996522903442,10.5997858047485,10.5999193191528,10.6000528335571,10.6001863479614,10.6003189086914,10.6004524230957,10.6005859375,10.6007194519043,10.6008529663086,10.6009864807129,10.6011199951172,10.6012535095215,10.6013870239258,10.6015205383301,10.6016540527344,10.6017866134644,10.6019201278687,10.6020536422729,10.6021871566772,10.6023206710815,10.6024541854858,10.6025876998901,10.6027212142944,10.6028547286987,10.602988243103,10.6031217575073,10.6032552719116,10.6033887863159,10.6035223007202,10.6036558151245,10.6037893295288,10.6039228439331,10.6040563583374,10.6041898727417,10.604323387146,10.6044569015503,10.6045904159546,10.6047239303589,10.6048574447632,10.6049909591675,10.6051244735718,10.6052579879761,10.6053915023804,10.6055250167847,10.605658531189,10.6057920455933,10.6059255599976,10.6060590744019,10.6061935424805,10.6063270568848,10.6064605712891,10.6065940856934,10.6067276000977,10.606861114502,10.6069946289062,10.6071281433105,10.6072616577148,10.6073951721191,10.6075296401978,10.6076631546021,10.6077966690063,10.6079301834106,10.6080636978149,10.6081972122192,10.6083307266235,10.6084642410278,10.6085977554321,10.6087312698364,10.6088647842407,10.608998298645,10.6091318130493,10.6092662811279,10.6093997955322,10.6095333099365,10.6096668243408,10.6098003387451,10.6099338531494,10.6100673675537,10.610200881958,10.6103353500366,10.6104688644409,10.6106023788452,10.6107358932495,10.6108694076538,10.6110029220581,10.6111373901367,10.611270904541,10.6114044189453,10.6115379333496,10.6116714477539,10.6118049621582,10.6119394302368,10.6120729446411,10.6122064590454,10.6123399734497,10.612473487854,10.6126079559326,10.6127414703369,10.6128749847412,10.6130084991455,10.6131429672241,10.6132764816284,10.6134099960327,10.613543510437,10.6136779785156,10.6138114929199,10.6139450073242,10.6140785217285,10.6142129898071,10.6143465042114,10.6144800186157,10.61461353302,10.6147480010986,10.6148815155029,10.6150150299072,10.6151485443115,10.6152830123901,10.6154165267944,10.6155500411987,10.6156845092773,10.6158180236816,10.6159515380859,10.6160850524902,10.6162195205688,10.6223516464233,10.684398651123,10.684534072876,10.6846685409546,10.6848030090332,10.6849374771118,10.6850728988647,10.6852073669434,10.685341835022,10.6854763031006,10.6856107711792,10.6857461929321,10.6858806610107,10.6860151290894,10.686149597168,10.6862850189209,10.6864194869995
