12.0189743041992,12.0191535949707,12.0193319320679,12.019510269165,12.0196886062622,12.0198669433594,12.0200462341309,12.020224571228,12.0204029083252,12.0205812454224,12.0207595825195,12.020938873291,12.0211172103882,12.0212955474854,12.0214738845825,12.021653175354,12.0218315124512,12.0220098495483,10.0007877349854,10.0009365081787,10.0010852813721,10.0012340545654,10.0013818740845,10.0015306472778,10.0016794204712,10.0018281936646,10.0019769668579,10.0021257400513,10.0022735595703,10.0024223327637,10.002571105957,10.0027198791504,10.0028686523438,10.0030174255371,10.0031652450562,10.0033140182495,10.0034627914429,10.0036115646362,10.0037603378296,10.0039091110229,10.0040578842163,10.0042066574097,10.004355430603,10.0045032501221,10.0046520233154,10.0048007965088,10.0049495697021,10.0050983428955,10.0052471160889,10.0053958892822,10.0055446624756,10.0056934356689,10.0058422088623,10.0059909820557,10.006139755249,10.0062885284424,10.0064373016357,10.0065860748291,10.0067348480225,10.0068836212158,10.0070323944092,10.0071811676025,10.0073299407959,10.0074787139893,10.0076274871826,10.007776260376,10.0079250335693,10.0080738067627,10.0082225799561,10.0083713531494,10.0085201263428,10.0086688995361,10.0088176727295,10.0089664459229,10.0091152191162,10.0092639923096,10.0094127655029,10.0095615386963,10.0097103118896,10.009859085083,10.0100078582764,10.0101566314697,10.0103054046631,10.0104541778564,10.0106039047241,10.0107526779175,10.0109014511108,10.0110502243042,10.0111989974976,10.0113477706909,10.0114965438843,10.0116453170776,10.011794090271,10.0119438171387,10.012092590332,10.0122413635254,10.0123901367188,10.0125389099121,10.0126876831055,10.0128374099731,10.0129861831665,10.0131349563599,10.0132837295532,10.0134325027466,10.0135822296143,10.0137310028076,10.013879776001,10.0140285491943,10.0141773223877,10.0143270492554,10.0144758224487,10.0146245956421,10.0147733688354,10.0149221420288,10.0150718688965,10.0152206420898,10.0153694152832,10.0155181884766,10.0156679153442,10.0158166885376,10.015965461731,10.0161151885986,10.016263961792,10.0164127349854,10.0165615081787,10.0167112350464,10.0168600082397,10.0170087814331,10.0171585083008,10.0173072814941,10.0174560546875,10.0176057815552,10.0177545547485,10.0179033279419,10.0180521011353,10.0182018280029,10.0183506011963,10.0184993743896,10.0186491012573,10.0187978744507,10.018946647644,10.0190963745117,10.0192451477051,10.0193948745728,10.0195436477661,10.0196924209595,10.0198421478271,10.0199909210205,10.0201396942139,10.0202894210815,10.0204381942749,10.0205879211426,10.0207366943359,10.0208854675293,10.021035194397,10.0211839675903,10.021333694458,10.0214824676514,10.021632194519,10.0217809677124,10.0219297409058,10.0220794677734,10.1051759719849,10.1988716125488,10.294322013855,10.3915758132935,10.490683555603,10.5917015075684,10.6946830749512,10.7996864318848,10.9067726135254,11.0160036087036,11.1274452209473,11.241171836853,11.3571538925171,11.4756546020508,11.5966548919678,11.7202348709106,11.8464756011963,11.9683542251587,11.9685325622559,11.9687099456787
12.0181541442871,12.0183324813843,12.0185108184814,12.0186891555786,12.0188674926758,12.0190458297729,12.0192251205444,12.0194034576416,12.0195817947388,12.0197601318359,12.0199384689331,12.0201177597046,12.0202960968018,12.0204744338989,12.0206527709961,12.0208311080933,12.0210103988647,12.0211887359619,10.0001049041748,10.0002536773682,10.0004014968872,10.0005502700806,10.0006990432739,10.0008478164673,10.0009956359863,10.0011444091797,10.001293182373,10.0014419555664,10.0015907287598,10.0017395019531,10.0018873214722,10.0020360946655,10.0021848678589,10.0023336410522,10.0024824142456,10.002631187439,10.002779006958,10.0029277801514,10.0030765533447,10.0032253265381,10.0033740997314,10.0035228729248,10.0036716461182,10.0038204193115,10.0039682388306,10.0041170120239,10.0042657852173,10.0044145584106,10.004563331604,10.0047121047974,10.0048608779907,10.0050096511841,10.0051584243774,10.0053071975708,10.0054559707642,10.0056047439575,10.0057525634766,10.0059013366699,10.0060501098633,10.0061988830566,10.00634765625,10.0064964294434,10.0066452026367,10.0067939758301,10.0069427490234,10.0070915222168,10.0072402954102,10.0073890686035,10.0075378417969,10.0076866149902,10.0078353881836,10.007984161377,10.0081329345703,10.0082817077637,10.008430480957,10.0085792541504,10.0087280273438,10.0088768005371,10.0090255737305,10.0091743469238,10.0093231201172,10.0094718933105,10.0096216201782,10.0097703933716,10.0099191665649,10.0100679397583,10.0102167129517,10.010365486145,10.0105142593384,10.0106630325317,10.0108118057251,10.0109605789185,10.0111093521118,10.0112590789795,10.0114078521729,10.0115566253662,10.0117053985596,10.0118541717529,10.0120029449463,10.0121517181396,10.0123014450073,10.0124502182007,10.012598991394,10.0127477645874,10.0128965377808,10.0130453109741,10.0131950378418,10.0133438110352,10.0134925842285,10.0136413574219,10.0137901306152,10.0139398574829,10.0140886306763,10.0142374038696,10.014386177063,10.0145349502563,10.014684677124,10.0148334503174,10.0149822235107,10.0151309967041,10.0152807235718,10.0154294967651,10.0155782699585,10.0157270431519,10.0158767700195,10.0160255432129,10.0161743164062,10.0163240432739,10.0164728164673,10.0166215896606,10.016770362854,10.0169200897217,10.017068862915,10.0172176361084,10.0173673629761,10.0175161361694,10.0176649093628,10.0178146362305,10.0179634094238,10.0181121826172,10.0182609558105,10.0184106826782,10.0185594558716,10.0187082290649,10.0188579559326,10.019006729126,10.0191564559937,10.019305229187,10.0194540023804,10.019603729248,10.0197525024414,10.0199012756348,10.0200510025024,10.0201997756958,10.0203495025635,10.0204982757568,10.0206470489502,10.0207967758179,10.0209455490112,10.0210952758789,10.0212440490723,10.0213928222656,10.1060266494751,10.1997385025024,10.295205116272,10.3924751281738,10.4916009902954,10.5926361083984,10.6956357955933,10.8006582260132,10.9077634811401,11.017014503479,11.1284761428833,11.2422351837158,11.3582258224487,11.4767503738403,11.5977735519409,11.7213773727417,11.8476428985596,11.9675340652466,11.9677124023438,11.9678907394409
12.0173330307007,12.0175113677979,12.017689704895,12.0178680419922,12.0180473327637,12.0182256698608,12.018404006958,12.0185823440552,12.0187606811523,12.0189390182495,12.0191173553467,12.0192966461182,12.0194749832153,12.0196533203125,12.0198316574097,12.0200099945068,12.0201892852783,12.0203676223755,9.99942111968994,9.9995698928833,9.99971866607666,9.99986743927002,10.0000162124634,10.0001640319824,10.0003128051758,10.0004615783691,10.0006103515625,10.0007581710815,10.0009069442749,10.0010557174683,10.0012044906616,10.001353263855,10.001501083374,10.0016498565674,10.0017986297607,10.0019474029541,10.0020961761475,10.0022449493408,10.0023927688599,10.0025415420532,10.0026903152466,10.0028390884399,10.0029878616333,10.0031366348267,10.00328540802,10.0034332275391,10.0035820007324,10.0037307739258,10.0038795471191,10.0040283203125,10.0041770935059,10.0043258666992,10.0044746398926,10.0046234130859,10.004771232605,10.0049200057983,10.0050687789917,10.0052175521851,10.0053663253784,10.0055150985718,10.0056638717651,10.0058126449585,10.0059614181519,10.0061101913452,10.0062589645386,10.0064077377319,10.0065565109253,10.0067052841187,10.006854057312,10.0070028305054,10.0071516036987,10.0073003768921,10.0074491500854,10.0075979232788,10.0077466964722,10.0078954696655,10.0080442428589,10.0081930160522,10.0083417892456,10.008490562439,10.0086393356323,10.0087881088257,10.008936882019,10.0090856552124,10.0092344284058,10.0093832015991,10.0095319747925,10.0096807479858,10.0098295211792,10.0099782943726,10.0101270675659,10.0102758407593,10.010425567627,10.0105743408203,10.0107231140137,10.010871887207,10.0110206604004,10.0111694335938,10.0113182067871,10.0114669799805,10.0116167068481,10.0117654800415,10.0119142532349,10.0120630264282,10.0122117996216,10.0123605728149,10.0125093460083,10.012659072876,10.0128078460693,10.0129566192627,10.0131053924561,10.0132541656494,10.0134038925171,10.0135526657104,10.0137014389038,10.0138502120972,10.0139989852905,10.0141487121582,10.0142974853516,10.0144462585449,10.0145950317383,10.0147438049316,10.0148935317993,10.0150423049927,10.015191078186,10.0153398513794,10.0154895782471,10.0156383514404,10.0157871246338,10.0159358978271,10.0160856246948,10.0162343978882,10.0163831710815,10.0165328979492,10.0166816711426,10.0168304443359,10.0169792175293,10.017128944397,10.0172777175903,10.0174264907837,10.0175762176514,10.0177249908447,10.0178737640381,10.0180225372314,10.0181722640991,10.0183210372925,10.0184698104858,10.0186195373535,10.0187683105469,10.0189170837402,10.0190668106079,10.0192155838013,10.0193653106689,10.0195140838623,10.0196628570557,10.0198125839233,10.0199613571167,10.0201101303101,10.0202598571777,10.0204086303711,10.0205583572388,10.0207071304321,10.1068773269653,10.2006053924561,10.2960872650146,10.3933744430542,10.4925174713135,10.5935707092285,10.6965885162354,10.8016300201416,10.9087543487549,11.0180253982544,11.1295080184937,11.2432975769043,11.359299659729,11.4778461456299,11.5988922119141,11.7225198745728,11.8488111495972,11.9667148590088,11.966893196106,11.9670715332031
12.0165128707886,12.0166912078857,12.0168695449829,12.0170478820801,12.0172262191772,12.0174045562744,12.0175828933716,12.0177612304688,12.0179395675659,12.0181188583374,12.0182971954346,12.0184755325317,12.0186538696289,12.0188322067261,12.0190105438232,12.0191888809204,12.0193681716919,12.0195465087891,9.99873828887939,9.99888706207275,9.99903583526611,9.99918365478516,9.99933242797852,9.99948120117188,9.99962997436523,9.99977779388428,9.99992656707764,10.000075340271,10.0002241134644,10.0003728866577,10.0005207061768,10.0006694793701,10.0008182525635,10.0009670257568,10.0011157989502,10.0012636184692,10.0014123916626,10.001561164856,10.0017099380493,10.0018587112427,10.0020065307617,10.0021553039551,10.0023040771484,10.0024528503418,10.0026016235352,10.0027503967285,10.0028991699219,10.0030469894409,10.0031957626343,10.0033445358276,10.003493309021,10.0036420822144,10.0037908554077,10.0039396286011,10.0040884017944,10.0042362213135,10.0043849945068,10.0045337677002,10.0046825408936,10.0048313140869,10.0049800872803,10.0051288604736,10.005277633667,10.0054264068604,10.0055751800537,10.0057239532471,10.0058727264404,10.0060205459595,10.0061693191528,10.0063180923462,10.0064668655396,10.0066156387329,10.0067644119263,10.0069131851196,10.007061958313,10.0072107315063,10.0073595046997,10.0075082778931,10.0076570510864,10.0078058242798,10.0079545974731,10.0081033706665,10.0082521438599,10.0084009170532,10.0085496902466,10.0086984634399,10.0088472366333,10.0089960098267,10.0091457366943,10.0092945098877,10.0094432830811,10.0095920562744,10.0097408294678,10.0098896026611,10.0100383758545,10.0101871490479,10.0103359222412,10.0104846954346,10.0106334686279,10.0107822418213,10.010931968689,10.0110807418823,10.0112295150757,10.011378288269,10.0115270614624,10.0116758346558,10.0118246078491,10.0119733810425,10.0121231079102,10.0122718811035,10.0124206542969,10.0125694274902,10.0127182006836,10.012866973877,10.0130167007446,10.013165473938,10.0133142471313,10.0134630203247,10.0136117935181,10.0137615203857,10.0139102935791,10.0140590667725,10.0142078399658,10.0143566131592,10.0145063400269,10.0146551132202,10.0148038864136,10.0149526596069,10.0151023864746,10.015251159668,10.0153999328613,10.0155487060547,10.0156984329224,10.0158472061157,10.0159959793091,10.0161447525024,10.0162944793701,10.0164432525635,10.0165920257568,10.0167407989502,10.0168905258179,10.0170392990112,10.0171880722046,10.0173377990723,10.0174865722656,10.017635345459,10.0177850723267,10.01793384552,10.0180826187134,10.0182313919067,10.0183811187744,10.0185298919678,10.0186786651611,10.0188283920288,10.0189771652222,10.0191268920898,10.0192756652832,10.0194244384766,10.0195741653442,10.0197229385376,10.019871711731,10.0200214385986,10.1077280044556,10.2014713287354,10.2969703674316,10.3942747116089,10.4934349060059,10.5945053100586,10.6975412368774,10.80260181427,10.9097461700439,11.0190372467041,11.130539894104,11.2443609237671,11.360372543335,11.4789419174194,11.6000118255615,11.7236623764038,11.8499784469604,11.965895652771,11.9660739898682,11.966251373291
12.0156917572021,12.0158700942993,12.0160484313965,12.0162267684937,12.0164051055908,12.0165843963623,12.0167627334595,12.0169410705566,12.0171194076538,12.017297744751,12.0174760818481,12.0176544189453,12.0178327560425,12.0180110931396,12.0181903839111,12.0183687210083,12.0185470581055,12.0187253952026,9.99805545806885,9.99820423126221,9.99835300445557,9.99850082397461,9.99864959716797,9.99879837036133,9.99894618988037,9.99909496307373,9.99924373626709,9.99939250946045,9.99954032897949,9.99968910217285,9.99983787536621,9.99998664855957,10.0001354217529,10.000283241272,10.0004320144653,10.0005807876587,10.0007295608521,10.0008773803711,10.0010261535645,10.0011749267578,10.0013236999512,10.0014724731445,10.0016202926636,10.0017690658569,10.0019178390503,10.0020666122437,10.002215385437,10.0023641586304,10.0025119781494,10.0026607513428,10.0028095245361,10.0029582977295,10.0031070709229,10.0032558441162,10.0034046173096,10.0035533905029,10.003701210022,10.0038499832153,10.0039987564087,10.0041475296021,10.0042963027954,10.0044450759888,10.0045938491821,10.0047426223755,10.0048913955688,10.0050392150879,10.0051879882812,10.0053367614746,10.005485534668,10.0056343078613,10.0057830810547,10.005931854248,10.0060806274414,10.0062294006348,10.0063781738281,10.0065269470215,10.0066757202148,10.0068244934082,10.0069732666016,10.0071220397949,10.0072708129883,10.0074195861816,10.007568359375,10.0077171325684,10.0078659057617,10.0080146789551,10.0081634521484,10.0083122253418,10.0084609985352,10.0086097717285,10.0087585449219,10.0089073181152,10.0090560913086,10.009204864502,10.0093536376953,10.0095024108887,10.009651184082,10.0097999572754,10.0099496841431,10.0100984573364,10.0102472305298,10.0103960037231,10.0105447769165,10.0106935501099,10.0108423233032,10.0109910964966,10.0111398696899,10.0112886428833,10.011438369751,10.0115871429443,10.0117359161377,10.0118846893311,10.0120334625244,10.0121822357178,10.0123310089111,10.0124807357788,10.0126295089722,10.0127782821655,10.0129270553589,10.0130758285522,10.0132255554199,10.0133743286133,10.0135231018066,10.013671875,10.0138206481934,10.013970375061,10.0141191482544,10.0142679214478,10.0144166946411,10.0145654678345,10.0147151947021,10.0148639678955,10.0150127410889,10.0151615142822,10.0153112411499,10.0154600143433,10.0156087875366,10.01575756073,10.0159072875977,10.016056060791,10.0162048339844,10.0163536071777,10.0165033340454,10.0166521072388,10.0168008804321,10.0169496536255,10.0170993804932,10.0172481536865,10.0173969268799,10.0175466537476,10.0176954269409,10.0178442001343,10.017993927002,10.0181427001953,10.0182914733887,10.018440246582,10.0185899734497,10.0187387466431,10.0188884735107,10.0190372467041,10.0191860198975,10.0193357467651,10.1085786819458,10.202338218689,10.2978534698486,10.3951740264893,10.4943523406982,10.5954399108887,10.6984949111938,10.8035736083984,10.9107370376587,11.0200481414795,11.1315717697144,11.2454242706299,11.3614463806152,11.480037689209,11.6011304855347,11.7248058319092,11.851146697998,11.9650764465332,11.9652547836304,11.9654321670532
12.01487159729,12.0150499343872,12.0152282714844,12.0154066085815,12.0155849456787,12.0157632827759,12.015941619873,12.0161199569702,12.0162982940674,12.0164766311646,12.0166549682617,12.0168342590332,12.0170125961304,12.0171909332275,12.0173692703247,12.0175476074219,12.017725944519,12.0179042816162,9.9973726272583,9.99752140045166,9.9976692199707,9.99781799316406,9.99796676635742,9.99811553955078,9.99826335906982,9.99841213226318,9.99856090545654,9.99870872497559,9.99885749816895,9.9990062713623,9.99915504455566,9.99930286407471,9.99945163726807,9.99960041046143,9.99974918365479,9.99989700317383,10.0000457763672,10.0001945495605,10.0003433227539,10.0004920959473,10.0006399154663,10.0007886886597,10.000937461853,10.0010862350464,10.0012350082397,10.0013828277588,10.0015316009521,10.0016803741455,10.0018291473389,10.0019779205322,10.0021257400513,10.0022745132446,10.002423286438,10.0025720596313,10.0027208328247,10.0028696060181,10.0030183792114,10.0031661987305,10.0033149719238,10.0034637451172,10.0036125183105,10.0037612915039,10.0039100646973,10.0040588378906,10.004207611084,10.004355430603,10.0045042037964,10.0046529769897,10.0048017501831,10.0049505233765,10.0050992965698,10.0052480697632,10.0053968429565,10.0055456161499,10.0056943893433,10.0058431625366,10.00599193573,10.0061407089233,10.0062894821167,10.0064382553101,10.0065860748291,10.0067348480225,10.0068836212158,10.0070323944092,10.0071811676025,10.0073299407959,10.0074787139893,10.0076274871826,10.007776260376,10.0079250335693,10.0080738067627,10.0082225799561,10.0083723068237,10.0085210800171,10.0086698532104,10.0088186264038,10.0089673995972,10.0091161727905,10.0092649459839,10.0094137191772,10.0095624923706,10.009711265564,10.0098600387573,10.0100088119507,10.010157585144,10.0103063583374,10.0104551315308,10.0106048583984,10.0107536315918,10.0109024047852,10.0110511779785,10.0111999511719,10.0113487243652,10.0114974975586,10.011646270752,10.0117959976196,10.011944770813,10.0120935440063,10.0122423171997,10.0123910903931,10.0125398635864,10.0126886367798,10.0128383636475,10.0129871368408,10.0131359100342,10.0132846832275,10.0134334564209,10.0135831832886,10.0137319564819,10.0138807296753,10.0140295028687,10.014178276062,10.0143280029297,10.014476776123,10.0146255493164,10.0147743225098,10.0149230957031,10.0150728225708,10.0152215957642,10.0153703689575,10.0155191421509,10.0156688690186,10.0158176422119,10.0159664154053,10.0161151885986,10.0162649154663,10.0164136886597,10.016562461853,10.0167112350464,10.0168609619141,10.0170097351074,10.0171585083008,10.0173082351685,10.0174570083618,10.0176057815552,10.0177555084229,10.0179042816162,10.0180530548096,10.0182027816772,10.0183515548706,10.018500328064,10.0186500549316,10.1094303131104,10.2032060623169,10.2987375259399,10.3960742950439,10.4952688217163,10.5963754653931,10.6994485855103,10.8045463562012,10.9117288589478,11.0210599899292,11.132604598999,11.246488571167,11.3625192642212,11.4811334609985,11.6022500991821,11.7259492874146,11.8523149490356,11.9642572402954,11.9644355773926,11.9646129608154
12.0140514373779,12.0142297744751,12.0144081115723,12.0145864486694,12.0147647857666,12.0149431228638,12.0151214599609,12.0152997970581,12.0154781341553,12.0156564712524,12.0158348083496,12.0160131454468,12.0161914825439,12.0163698196411,12.0165481567383,12.0167264938354,12.0169057846069,12.0170841217041,9.99668979644775,9.99683856964111,9.99698734283447,9.99713516235352,9.99728393554688,9.99743270874023,9.99758052825928,9.99772930145264,9.997878074646,9.99802589416504,9.9981746673584,9.99832344055176,9.99847221374512,9.99862003326416,9.99876880645752,9.99891757965088,9.99906539916992,9.99921417236328,9.99936294555664,9.99951171875,9.99965953826904,9.9998083114624,9.99995708465576,10.0001058578491,10.0002546310425,10.0004024505615,10.0005512237549,10.0006999969482,10.0008487701416,10.0009965896606,10.001145362854,10.0012941360474,10.0014429092407,10.0015916824341,10.0017404556274,10.0018882751465,10.0020370483398,10.0021858215332,10.0023345947266,10.0024833679199,10.0026321411133,10.0027799606323,10.0029287338257,10.003077507019,10.0032262802124,10.0033750534058,10.0035238265991,10.0036725997925,10.0038204193115,10.0039691925049,10.0041179656982,10.0042667388916,10.004415512085,10.0045642852783,10.0047130584717,10.004861831665,10.0050106048584,10.0051593780518,10.0053071975708,10.0054559707642,10.0056047439575,10.0057535171509,10.0059022903442,10.0060510635376,10.006199836731,10.0063486099243,10.0064973831177,10.006646156311,10.0067949295044,10.0069437026978,10.0070924758911,10.0072412490845,10.0073900222778,10.0075387954712,10.0076875686646,10.0078363418579,10.0079851150513,10.0081338882446,10.008282661438,10.0084314346313,10.0085802078247,10.0087289810181,10.0088777542114,10.0090265274048,10.0091753005981,10.0093240737915,10.0094738006592,10.0096225738525,10.0097713470459,10.0099201202393,10.0100688934326,10.010217666626,10.0103664398193,10.0105152130127,10.0106639862061,10.0108127593994,10.0109615325928,10.0111112594604,10.0112600326538,10.0114088058472,10.0115575790405,10.0117063522339,10.0118551254272,10.0120038986206,10.0121536254883,10.0123023986816,10.012451171875,10.0125999450684,10.0127487182617,10.0128974914551,10.0130472183228,10.0131959915161,10.0133447647095,10.0134935379028,10.0136423110962,10.0137910842896,10.0139408111572,10.0140895843506,10.0142383575439,10.0143871307373,10.0145359039307,10.0146856307983,10.0148344039917,10.0149831771851,10.0151319503784,10.0152816772461,10.0154304504395,10.0155792236328,10.0157279968262,10.0158777236938,10.0160264968872,10.0161752700806,10.0163240432739,10.0164737701416,10.016622543335,10.0167713165283,10.0169200897217,10.0170698165894,10.0172185897827,10.0173673629761,10.0175170898438,10.0176658630371,10.0178146362305,10.01819896698,10.1102809906006,10.2040729522705,10.2996206283569,10.3969745635986,10.496187210083,10.5973110198975,10.7004013061523,10.8055181503296,10.9127206802368,11.0220718383789,11.1336364746094,11.2475519180298,11.3635969161987,11.4822301864624,11.6033697128296,11.7270927429199,11.8534832000732,11.9634380340576,11.9636163711548,11.9637937545776
12.0132312774658,12.013409614563,12.0135879516602,12.0137662887573,12.0139446258545,12.0141229629517,12.0143013000488,12.014479637146,12.0146579742432,12.0148363113403,12.0150146484375,12.0151929855347,12.0153713226318,12.015549659729,12.0157279968262,12.0159063339233,12.0160846710205,12.0162630081177,9.99600696563721,9.99615573883057,9.99630451202393,9.99645233154297,9.99660110473633,9.99674987792969,9.99689769744873,9.99704647064209,9.99719524383545,9.99734306335449,9.99749183654785,9.99764060974121,9.99778842926025,9.99793720245361,9.99808597564697,9.99823474884033,9.99838256835938,9.99853134155273,9.99868011474609,9.99882793426514,9.9989767074585,9.99912548065186,9.99927425384521,9.99942207336426,9.99957084655762,9.99971961975098,9.99986839294434,10.0000162124634,10.0001649856567,10.0003137588501,10.0004625320435,10.0006113052368,10.0007591247559,10.0009078979492,10.0010566711426,10.0012054443359,10.0013542175293,10.0015020370483,10.0016508102417,10.0017995834351,10.0019483566284,10.0020971298218,10.0022449493408,10.0023937225342,10.0025424957275,10.0026912689209,10.0028400421143,10.0029888153076,10.003137588501,10.00328540802,10.0034341812134,10.0035829544067,10.0037317276001,10.0038805007935,10.0040292739868,10.0041780471802,10.0043268203735,10.0044755935669,10.0046234130859,10.0047721862793,10.0049209594727,10.005069732666,10.0052185058594,10.0053672790527,10.0055160522461,10.0056648254395,10.0058135986328,10.0059623718262,10.0061111450195,10.0062599182129,10.0064086914062,10.0065574645996,10.006706237793,10.0068550109863,10.0070037841797,10.007152557373,10.0073013305664,10.0074501037598,10.0075988769531,10.0077476501465,10.0078964233398,10.0080451965332,10.0081939697266,10.0083427429199,10.0084915161133,10.0086402893066,10.0087890625,10.0089378356934,10.0090866088867,10.0092353820801,10.0093841552734,10.0095329284668,10.0096817016602,10.0098304748535,10.0099792480469,10.0101280212402,10.0102777481079,10.0104265213013,10.0105752944946,10.010724067688,10.0108728408813,10.0110216140747,10.0111703872681,10.0113191604614,10.0114679336548,10.0116176605225,10.0117664337158,10.0119152069092,10.0120639801025,10.0122127532959,10.0123615264893,10.0125112533569,10.0126600265503,10.0128087997437,10.012957572937,10.0131063461304,10.0132551193237,10.0134048461914,10.0135536193848,10.0137023925781,10.0138511657715,10.0139999389648,10.0141487121582,10.0142984390259,10.0144472122192,10.0145959854126,10.014744758606,10.0148944854736,10.015043258667,10.0151920318604,10.0153408050537,10.0154895782471,10.0156393051147,10.0157880783081,10.0159368515015,10.0160856246948,10.0162353515625,10.0163841247559,10.0165328979492,10.0166826248169,10.0168313980103,10.0169801712036,10.017128944397,10.0190343856812,10.1111326217651,10.2049398422241,10.3005046844482,10.3978748321533,10.4971046447754,10.5982456207275,10.7013559341431,10.8064908981323,10.9137125015259,11.0230836868286,11.134669303894,11.2486162185669,11.3646831512451,11.4833269119263,11.6044902801514,11.7282371520996,11.8546514511108,11.9626188278198,11.962797164917,11.9629755020142
12.0124111175537,12.0125894546509,12.012767791748,12.0129461288452,12.0131244659424,12.0133028030396,12.0134811401367,12.0136594772339,12.0138378143311,12.0140161514282,12.0141944885254,12.0143728256226,12.0145511627197,12.0147294998169,12.0149078369141,12.0150861740112,12.0152645111084,12.0154428482056,9.99532508850098,9.99547290802002,9.99562168121338,9.99577045440674,9.99591827392578,9.99606704711914,9.99621486663818,9.99636363983154,9.9965124130249,9.99666023254395,9.9968090057373,9.99695777893066,9.99710559844971,9.99725437164307,9.99740314483643,9.99755191802979,9.99769973754883,9.99784851074219,9.99799728393555,9.99814510345459,9.99829387664795,9.99844264984131,9.99859046936035,9.99873924255371,9.99888801574707,9.99903678894043,9.99918460845947,9.99933338165283,9.99948215484619,9.99963092803955,9.99977874755859,9.99992752075195,10.0000762939453,10.0002250671387,10.000373840332,10.0005216598511,10.0006704330444,10.0008192062378,10.0009679794312,10.0011157989502,10.0012645721436,10.0014133453369,10.0015621185303,10.0017108917236,10.001859664917,10.002007484436,10.0021562576294,10.0023050308228,10.0024538040161,10.0026025772095,10.0027513504028,10.0028991699219,10.0030479431152,10.0031967163086,10.003345489502,10.0034942626953,10.0036430358887,10.003791809082,10.0039396286011,10.0040884017944,10.0042371749878,10.0043859481812,10.0045347213745,10.0046834945679,10.0048322677612,10.0049810409546,10.0051298141479,10.0052785873413,10.0054273605347,10.005576133728,10.0057239532471,10.0058727264404,10.0060214996338,10.0061702728271,10.0063190460205,10.0064678192139,10.0066165924072,10.0067653656006,10.0069141387939,10.0070629119873,10.0072116851807,10.007360458374,10.0075092315674,10.0076580047607,10.0078067779541,10.0079555511475,10.0081043243408,10.0082530975342,10.0084018707275,10.0085506439209,10.0086994171143,10.0088481903076,10.0089979171753,10.0091466903687,10.009295463562,10.0094442367554,10.0095930099487,10.0097417831421,10.0098905563354,10.0100393295288,10.0101881027222,10.0103368759155,10.0104856491089,10.0106344223022,10.0107841491699,10.0109329223633,10.0110816955566,10.01123046875,10.0113792419434,10.0115280151367,10.0116767883301,10.0118255615234,10.0119752883911,10.0121240615845,10.0122728347778,10.0124216079712,10.0125703811646,10.0127191543579,10.0128679275513,10.0130176544189,10.0131664276123,10.0133152008057,10.013463973999,10.0136127471924,10.0137615203857,10.0139112472534,10.0140600204468,10.0142087936401,10.0143575668335,10.0145063400269,10.0146560668945,10.0148048400879,10.0149536132812,10.0151023864746,10.0152521133423,10.0154008865356,10.015549659729,10.0156984329224,10.01584815979,10.0159969329834,10.0161457061768,10.0162944793701,10.0164442062378,10.0198707580566,10.1119842529297,10.2058076858521,10.3013877868652,10.3987760543823,10.4980220794678,10.5991821289062,10.7023096084595,10.8074636459351,10.9147052764893,11.0240955352783,11.1357011795044,11.249680519104,11.3657684326172,11.4844236373901,11.6056098937988,11.7293815612793,11.8558206558228,11.9618005752563,11.9619779586792,11.9621562957764
12.0115909576416,12.0117692947388,12.0119476318359,12.0121259689331,12.0123043060303,12.0124826431274,12.0126609802246,12.0128393173218,12.0130176544189,12.0131959915161,12.013373374939,12.0135517120361,12.0137300491333,12.0139083862305,12.0140867233276,12.0142660140991,12.0144443511963,12.0146226882935,9.99464225769043,9.99479103088379,9.99493885040283,9.99508762359619,9.99523544311523,9.99538421630859,9.99553298950195,9.995680809021,9.99582958221436,9.99597835540771,9.99612617492676,9.99627494812012,9.99642372131348,9.99657154083252,9.99672031402588,9.99686908721924,9.99701690673828,9.99716567993164,9.997314453125,9.99746227264404,9.9976110458374,9.99775981903076,9.9979076385498,9.99805641174316,9.99820518493652,9.99835395812988,9.99850177764893,9.99865055084229,9.99879932403564,9.99894714355469,9.99909591674805,9.99924468994141,9.99939346313477,9.99954128265381,9.99969005584717,9.99983882904053,9.99998760223389,10.0001354217529,10.0002841949463,10.0004329681396,10.000581741333,10.0007305145264,10.0008783340454,10.0010271072388,10.0011758804321,10.0013246536255,10.0014734268188,10.0016212463379,10.0017700195312,10.0019187927246,10.002067565918,10.0022163391113,10.0023651123047,10.0025129318237,10.0026617050171,10.0028104782104,10.0029592514038,10.0031080245972,10.0032567977905,10.0034046173096,10.0035533905029,10.0037021636963,10.0038509368896,10.003999710083,10.0041484832764,10.0042972564697,10.0044460296631,10.0045948028564,10.0047435760498,10.0048913955688,10.0050401687622,10.0051889419556,10.0053377151489,10.0054864883423,10.0056352615356,10.005784034729,10.0059328079224,10.0060815811157,10.0062303543091,10.0063791275024,10.0065279006958,10.0066766738892,10.0068254470825,10.0069742202759,10.0071229934692,10.0072717666626,10.007420539856,10.0075693130493,10.0077180862427,10.007866859436,10.0080156326294,10.0081644058228,10.0083131790161,10.0084619522095,10.0086107254028,10.0087594985962,10.0089082717896,10.0090570449829,10.0092058181763,10.0093545913696,10.009503364563,10.0096521377563,10.009801864624,10.0099506378174,10.0100994110107,10.0102481842041,10.0103969573975,10.0105457305908,10.0106945037842,10.0108432769775,10.0109920501709,10.0111408233643,10.0112905502319,10.0114393234253,10.0115880966187,10.011736869812,10.0118856430054,10.0120344161987,10.0121831893921,10.0123319625854,10.0124816894531,10.0126304626465,10.0127792358398,10.0129280090332,10.0130767822266,10.0132255554199,10.0133752822876,10.013524055481,10.0136728286743,10.0138216018677,10.013970375061,10.0141201019287,10.0142688751221,10.0144176483154,10.0145664215088,10.0147151947021,10.0148649215698,10.0150136947632,10.0151624679565,10.0153112411499,10.0154600143433,10.0156097412109,10.0157585144043,10.0207071304321,10.1128358840942,10.20667552948,10.3022718429565,10.399676322937,10.4989404678345,10.6001176834106,10.7032632827759,10.8084363937378,10.9156970977783,11.0251083374023,11.1367349624634,11.2507381439209,11.3668556213379,11.485520362854,11.6067304611206,11.730525970459,11.8569898605347,11.9609813690186,11.9611597061157,11.9613380432129
12.0107707977295,12.0109491348267,12.0111274719238,12.011305809021,12.0114841461182,12.0116624832153,12.0118408203125,12.0120191574097,12.0121974945068,12.012375831604,12.0125541687012,12.0127325057983,12.0129098892212,12.0130882263184,12.0132665634155,12.0134449005127,12.0136232376099,12.013801574707,9.99395942687988,9.99410820007324,9.9942569732666,9.99440479278564,9.994553565979,9.99470138549805,9.99485015869141,9.99499893188477,9.99514675140381,9.99529552459717,9.99544429779053,9.99559211730957,9.99574089050293,9.99588871002197,9.99603748321533,9.99618625640869,9.99633407592773,9.99648284912109,9.99663162231445,9.9967794418335,9.99692821502686,9.99707698822021,9.99722480773926,9.99737358093262,9.99752235412598,9.99767017364502,9.99781894683838,9.99796772003174,9.9981164932251,9.99826431274414,9.9984130859375,9.99856185913086,9.9987096786499,9.99885845184326,9.99900722503662,9.99915599822998,9.99930381774902,9.99945259094238,9.99960136413574,9.9997501373291,9.99989795684814,10.0000467300415,10.0001955032349,10.0003442764282,10.0004920959473,10.0006408691406,10.000789642334,10.0009384155273,10.0010871887207,10.0012350082397,10.0013837814331,10.0015325546265,10.0016813278198,10.0018301010132,10.0019788742065,10.0021266937256,10.0022754669189,10.0024242401123,10.0025730133057,10.002721786499,10.0028705596924,10.0030183792114,10.0031671524048,10.0033159255981,10.0034646987915,10.0036134719849,10.0037622451782,10.0039110183716,10.0040597915649,10.004207611084,10.0043563842773,10.0045051574707,10.0046539306641,10.0048027038574,10.0049514770508,10.0051002502441,10.0052490234375,10.0053977966309,10.0055465698242,10.0056953430176,10.0058441162109,10.0059928894043,10.0061416625977,10.006290435791,10.0064392089844,10.0065870285034,10.0067358016968,10.0068845748901,10.0070333480835,10.0071821212769,10.0073308944702,10.0074796676636,10.0076284408569,10.0077772140503,10.007926940918,10.0080757141113,10.0082244873047,10.008373260498,10.0085220336914,10.0086708068848,10.0088195800781,10.0089683532715,10.0091171264648,10.0092658996582,10.0094146728516,10.0095634460449,10.0097122192383,10.0098609924316,10.010009765625,10.0101585388184,10.0103073120117,10.0104570388794,10.0106058120728,10.0107545852661,10.0109033584595,10.0110521316528,10.0112009048462,10.0113496780396,10.0114984512329,10.0116472244263,10.0117969512939,10.0119457244873,10.0120944976807,10.012243270874,10.0123920440674,10.0125408172607,10.0126895904541,10.0128393173218,10.0129880905151,10.0131368637085,10.0132856369019,10.0134344100952,10.0135831832886,10.0137329101562,10.0138816833496,10.014030456543,10.0141792297363,10.0143280029297,10.0144777297974,10.0146265029907,10.0147752761841,10.0149240493774,10.0150728225708,10.0215435028076,10.1136884689331,10.2075433731079,10.3031558990479,10.400577545166,10.4998588562012,10.601053237915,10.7042179107666,10.8094100952148,10.9166898727417,11.0261211395264,11.137767791748,11.2517786026001,11.3679418563843,11.4866180419922,11.6078510284424,11.7316703796387,11.8581590652466,11.9601631164551,11.9603414535522,11.9605188369751
12.0099515914917,12.0101289749146,12.0103073120117,12.0104856491089,12.0106639862061,12.0108423233032,12.0110206604004,12.0111989974976,12.0113773345947,12.0115556716919,12.0117340087891,12.0119123458862,12.0120906829834,12.0122690200806,12.0124473571777,12.0126247406006,12.0128030776978,12.0129814147949,9.99327754974365,9.99342632293701,9.99357414245605,9.99372291564941,9.99387073516846,9.99401950836182,9.99416732788086,9.99431610107422,9.99446487426758,9.99461269378662,9.99476146697998,9.99490928649902,9.99505805969238,9.99520683288574,9.99535465240479,9.99550342559814,9.9956521987915,9.99580001831055,9.99594879150391,9.99609756469727,9.99624538421631,9.99639415740967,9.99654293060303,9.99669075012207,9.99683952331543,9.99698829650879,9.99713611602783,9.99728488922119,9.99743366241455,9.99758148193359,9.99773025512695,9.99787902832031,9.99802684783936,9.99817562103271,9.99832439422607,9.99847221374512,9.99862098693848,9.99876976013184,9.9989185333252,9.99906635284424,9.9992151260376,9.99936389923096,9.99951267242432,9.99966049194336,9.99980926513672,9.99995803833008,10.0001068115234,10.0002546310425,10.0004034042358,10.0005521774292,10.0007009506226,10.0008497238159,10.000997543335,10.0011463165283,10.0012950897217,10.001443862915,10.0015926361084,10.0017404556274,10.0018892288208,10.0020380020142,10.0021867752075,10.0023355484009,10.0024843215942,10.0026321411133,10.0027809143066,10.0029296875,10.0030784606934,10.0032272338867,10.0033760070801,10.0035247802734,10.0036725997925,10.0038213729858,10.0039701461792,10.0041189193726,10.0042676925659,10.0044164657593,10.0045652389526,10.004714012146,10.0048627853394,10.0050115585327,10.0051603317261,10.0053081512451,10.0054569244385,10.0056056976318,10.0057544708252,10.0059032440186,10.0060520172119,10.0062007904053,10.0063495635986,10.006498336792,10.0066471099854,10.0067958831787,10.0069446563721,10.0070934295654,10.0072422027588,10.0073909759521,10.0075397491455,10.0076885223389,10.0078372955322,10.0079860687256,10.0081348419189,10.0082836151123,10.0084323883057,10.008581161499,10.0087299346924,10.0088787078857,10.0090274810791,10.0091762542725,10.0093259811401,10.0094747543335,10.0096235275269,10.0097723007202,10.0099210739136,10.0100698471069,10.0102186203003,10.0103673934937,10.010516166687,10.0106649398804,10.0108137130737,10.0109624862671,10.0111122131348,10.0112609863281,10.0114097595215,10.0115585327148,10.0117073059082,10.0118560791016,10.0120048522949,10.0121536254883,10.012303352356,10.0124521255493,10.0126008987427,10.012749671936,10.0128984451294,10.0130472183228,10.0131959915161,10.0133457183838,10.0134944915771,10.0136432647705,10.0137920379639,10.0139408111572,10.0140905380249,10.0142393112183,10.0143880844116,10.0223798751831,10.1145401000977,10.2084112167358,10.3040399551392,10.401478767395,10.5007772445679,10.6019897460938,10.7051725387573,10.8103828430176,10.9176826477051,11.0271339416504,11.1388006210327,11.252818107605,11.369029045105,11.4877157211304,11.6089715957642,11.7328147888184,11.8593292236328,11.9593448638916,11.9595222473145,11.9597005844116
12.0091314315796,12.0093097686768,12.0094881057739,12.0096664428711,12.0098447799683,12.0100231170654,12.0102005004883,12.0103788375854,12.0105571746826,12.0107355117798,12.010913848877,12.0110921859741,12.0112705230713,12.0114488601685,12.0116271972656,12.0118055343628,12.01198387146,12.0121622085571,9.99259567260742,9.99274349212646,9.99289226531982,9.99304008483887,9.99318885803223,9.99333667755127,9.99348545074463,9.99363422393799,9.99378204345703,9.99393081665039,9.99407863616943,9.99422740936279,9.99437618255615,9.9945240020752,9.99467277526855,9.9948205947876,9.99496936798096,9.99511814117432,9.99526596069336,9.99541473388672,9.99556255340576,9.99571132659912,9.99586009979248,9.99600791931152,9.99615669250488,9.99630546569824,9.99645328521729,9.99660205841064,9.996750831604,9.99689865112305,9.99704742431641,9.99719619750977,9.99734401702881,9.99749279022217,9.99764156341553,9.99778938293457,9.99793815612793,9.99808692932129,9.99823474884033,9.99838352203369,9.99853229522705,9.99868106842041,9.99882888793945,9.99897766113281,9.99912643432617,9.99927520751953,9.99942302703857,9.99957180023193,9.99972057342529,9.99986934661865,10.0000171661377,10.0001659393311,10.0003147125244,10.0004634857178,10.0006113052368,10.0007600784302,10.0009088516235,10.0010576248169,10.0012063980103,10.0013542175293,10.0015029907227,10.001651763916,10.0018005371094,10.0019493103027,10.0020980834961,10.0022459030151,10.0023946762085,10.0025434494019,10.0026922225952,10.0028409957886,10.0029897689819,10.003137588501,10.0032863616943,10.0034351348877,10.0035839080811,10.0037326812744,10.0038814544678,10.0040302276611,10.0041790008545,10.0043277740479,10.0044755935669,10.0046243667603,10.0047731399536,10.004921913147,10.0050706863403,10.0052194595337,10.0053682327271,10.0055170059204,10.0056657791138,10.0058145523071,10.0059633255005,10.0061120986938,10.0062608718872,10.0064096450806,10.0065584182739,10.0067071914673,10.0068559646606,10.007004737854,10.0071535110474,10.0073022842407,10.0074510574341,10.0075998306274,10.0077486038208,10.0078973770142,10.0080461502075,10.0081949234009,10.0083436965942,10.0084924697876,10.008641242981,10.0087900161743,10.0089387893677,10.009087562561,10.0092363357544,10.0093851089478,10.0095338821411,10.0096826553345,10.0098314285278,10.0099802017212,10.0101299285889,10.0102787017822,10.0104274749756,10.0105762481689,10.0107250213623,10.0108737945557,10.011022567749,10.0111713409424,10.0113201141357,10.0114688873291,10.0116176605225,10.0117673873901,10.0119161605835,10.0120649337769,10.0122137069702,10.0123624801636,10.0125112533569,10.0126600265503,10.012809753418,10.0129585266113,10.0131072998047,10.013256072998,10.0134048461914,10.0135536193848,10.0137033462524,10.0232172012329,10.1153926849365,10.2092790603638,10.3049249649048,10.402379989624,10.5016956329346,10.6029262542725,10.706127166748,10.8113565444946,10.9186754226685,11.0281467437744,11.1398344039917,11.2538585662842,11.3701162338257,11.4888134002686,11.6100931167603,11.7339601516724,11.860499382019,11.9585266113281,11.958703994751,11.9588823318481
12.0083122253418,12.008490562439,12.0086679458618,12.008846282959,12.0090246200562,12.0092029571533,12.0093812942505,12.0095596313477,12.0097379684448,12.009916305542,12.0100936889648,12.010272026062,12.0104503631592,12.0106287002563,12.0108070373535,12.0109853744507,12.0111637115479,12.011342048645,9.99191284179688,9.99206161499023,9.99221038818359,9.99235820770264,9.992506980896,9.99265480041504,9.9928035736084,9.99295139312744,9.9931001663208,9.99324798583984,9.9933967590332,9.99354457855225,9.99369335174561,9.99384212493896,9.99398994445801,9.99413871765137,9.99428653717041,9.99443531036377,9.99458408355713,9.99473190307617,9.99488067626953,9.99502849578857,9.99517726898193,9.99532604217529,9.99547386169434,9.9956226348877,9.99577140808105,9.9959192276001,9.99606800079346,9.9962158203125,9.99636459350586,9.99651336669922,9.99666118621826,9.99680995941162,9.99695873260498,9.99710655212402,9.99725532531738,9.99740409851074,9.99755191802979,9.99770069122314,9.9978494644165,9.99799823760986,9.99814605712891,9.99829483032227,9.99844360351562,9.99859142303467,9.99874019622803,9.99888896942139,9.99903774261475,9.99918556213379,9.99933433532715,9.99948310852051,9.99963188171387,9.99977970123291,9.99992847442627,10.0000772476196,10.000226020813,10.000373840332,10.0005226135254,10.0006713867188,10.0008201599121,10.0009689331055,10.0011167526245,10.0012655258179,10.0014142990112,10.0015630722046,10.0017118453979,10.001859664917,10.0020084381104,10.0021572113037,10.0023059844971,10.0024547576904,10.0026035308838,10.0027513504028,10.0029001235962,10.0030488967896,10.0031976699829,10.0033464431763,10.0034952163696,10.003643989563,10.0037927627563,10.0039405822754,10.0040893554688,10.0042381286621,10.0043869018555,10.0045356750488,10.0046844482422,10.0048332214355,10.0049819946289,10.0051307678223,10.0052795410156,10.005428314209,10.0055770874023,10.0057258605957,10.0058736801147,10.0060224533081,10.0061712265015,10.0063199996948,10.0064687728882,10.0066175460815,10.0067663192749,10.0069150924683,10.0070638656616,10.007212638855,10.0073614120483,10.0075101852417,10.0076589584351,10.0078077316284,10.0079565048218,10.0081052780151,10.0082540512085,10.0084028244019,10.0085515975952,10.0087013244629,10.0088500976562,10.0089988708496,10.009147644043,10.0092964172363,10.0094451904297,10.009593963623,10.0097427368164,10.0098915100098,10.0100402832031,10.0101890563965,10.0103378295898,10.0104866027832,10.0106353759766,10.0107841491699,10.0109338760376,10.011082649231,10.0112314224243,10.0113801956177,10.011528968811,10.0116777420044,10.0118265151978,10.0119752883911,10.0121240615845,10.0122737884521,10.0124225616455,10.0125713348389,10.0127201080322,10.0128688812256,10.0130176544189,10.0240535736084,10.1162443161011,10.2101469039917,10.3058090209961,10.403281211853,10.5026140213013,10.6038627624512,10.7070817947388,10.8123302459717,10.9196681976318,11.0291595458984,11.1408681869507,11.2548990249634,11.3712034225464,11.4899110794067,11.611213684082,11.7351055145264,11.861668586731,11.9577083587646,11.9578857421875,11.9580640792847
12.007493019104,12.0076704025269,12.007848739624,12.0080270767212,12.0082054138184,12.0083837509155,12.0085620880127,12.0087394714355,12.0089178085327,12.0090961456299,12.0092744827271,12.0094528198242,12.0096311569214,12.0098094940186,12.0099868774414,12.0101652145386,12.0103435516357,9.9910831451416,9.99123096466064,9.991379737854,9.99152755737305,9.99167633056641,9.99182415008545,9.99197292327881,9.99212074279785,9.99226951599121,9.99241733551025,9.99256610870361,9.99271488189697,9.99286270141602,9.99301147460938,9.99315929412842,9.99330806732178,9.99345588684082,9.99360466003418,9.99375247955322,9.99390125274658,9.99405002593994,9.99419784545898,9.99434661865234,9.99449443817139,9.99464321136475,9.99479198455811,9.99493980407715,9.99508857727051,9.99523639678955,9.99538516998291,9.99553394317627,9.99568176269531,9.99583053588867,9.99597930908203,9.99612712860107,9.99627590179443,9.99642467498779,9.99657249450684,9.9967212677002,9.99686908721924,9.9970178604126,9.99716663360596,9.99731540679932,9.99746322631836,9.99761199951172,9.99776077270508,9.99790859222412,9.99805736541748,9.99820613861084,9.99835395812988,9.99850273132324,9.9986515045166,9.99880027770996,9.998948097229,9.99909687042236,9.99924564361572,9.99939441680908,9.99954223632812,9.99969100952148,9.99983978271484,9.9999885559082,10.0001363754272,10.0002851486206,10.000433921814,10.0005826950073,10.0007305145264,10.0008792877197,10.0010280609131,10.0011768341064,10.0013256072998,10.0014734268188,10.0016222000122,10.0017709732056,10.0019197463989,10.0020685195923,10.0022172927856,10.0023651123047,10.002513885498,10.0026626586914,10.0028114318848,10.0029602050781,10.0031089782715,10.0032577514648,10.0034055709839,10.0035543441772,10.0037031173706,10.003851890564,10.0040006637573,10.0041494369507,10.004298210144,10.0044469833374,10.0045957565308,10.0047445297241,10.0048923492432,10.0050411224365,10.0051898956299,10.0053386688232,10.0054874420166,10.00563621521,10.0057849884033,10.0059337615967,10.00608253479,10.0062313079834,10.0063800811768,10.0065288543701,10.0066776275635,10.0068264007568,10.0069751739502,10.0071239471436,10.0072727203369,10.0074214935303,10.0075702667236,10.007719039917,10.0078678131104,10.0080165863037,10.0081653594971,10.0083141326904,10.0084629058838,10.0086116790771,10.0087604522705,10.0089092254639,10.0090579986572,10.0092067718506,10.0093555450439,10.0095043182373,10.0096530914307,10.009801864624,10.0099515914917,10.0101003646851,10.0102491378784,10.0103979110718,10.0105466842651,10.0106954574585,10.0108442306519,10.0109930038452,10.0111417770386,10.0112905502319,10.0114393234253,10.011589050293,10.0117378234863,10.0118865966797,10.012035369873,10.0121841430664,10.0123329162598,10.0248908996582,10.1170969009399,10.2110157012939,10.3066940307617,10.404182434082,10.503532409668,10.6047992706299,10.7080364227295,10.8133039474487,10.9206619262695,11.0301723480225,11.1419019699097,11.2559394836426,11.3722915649414,11.4910087585449,11.6123352050781,11.7362508773804,11.8628396987915,11.9568901062012,11.957067489624,11.9572458267212
12.0066728591919,12.0068511962891,12.0070295333862,12.0072078704834,12.0073862075806,12.0075635910034,12.0077419281006,12.0079202651978,12.0080986022949,12.0082769393921,12.0084552764893,12.0086326599121,12.0088109970093,12.0089893341064,12.0091676712036,12.0093460083008,12.0095243453979,9.99040126800537,9.99054908752441,9.99069786071777,9.99084568023682,9.99099445343018,9.99114227294922,9.99129104614258,9.99143886566162,9.99158763885498,9.99173545837402,9.99188423156738,9.99203205108643,9.99218082427979,9.99232864379883,9.99247741699219,9.99262523651123,9.99277400970459,9.99292278289795,9.99307060241699,9.99321937561035,9.99336719512939,9.99351596832275,9.9936637878418,9.99381256103516,9.9939603805542,9.99410915374756,9.99425792694092,9.99440574645996,9.99455451965332,9.99470233917236,9.99485111236572,9.99499988555908,9.99514770507812,9.99529647827148,9.99544429779053,9.99559307098389,9.99574184417725,9.99588966369629,9.99603843688965,9.99618721008301,9.99633502960205,9.99648380279541,9.99663257598877,9.99678039550781,9.99692916870117,9.99707794189453,9.99722576141357,9.99737453460693,9.99752330780029,9.99767112731934,9.9978199005127,9.99796867370605,9.9981164932251,9.99826526641846,9.99841403961182,9.99856281280518,9.99871063232422,9.99885940551758,9.99900817871094,9.99915599822998,9.99930477142334,9.9994535446167,9.99960231781006,9.9997501373291,9.99989891052246,10.0000476837158,10.0001964569092,10.0003452301025,10.0004930496216,10.0006418228149,10.0007905960083,10.0009393692017,10.0010871887207,10.0012359619141,10.0013847351074,10.0015335083008,10.0016822814941,10.0018310546875,10.0019788742065,10.0021276473999,10.0022764205933,10.0024251937866,10.00257396698,10.0027227401733,10.0028715133667,10.0030193328857,10.0031681060791,10.0033168792725,10.0034656524658,10.0036144256592,10.0037631988525,10.0039119720459,10.0040607452393,10.0042085647583,10.0043573379517,10.004506111145,10.0046548843384,10.0048036575317,10.0049524307251,10.0051012039185,10.0052499771118,10.0053987503052,10.0055475234985,10.0056962966919,10.0058450698853,10.0059938430786,10.006142616272,10.0062913894653,10.0064401626587,10.0065889358521,10.0067377090454,10.0068864822388,10.0070352554321,10.0071840286255,10.0073328018188,10.0074815750122,10.0076303482056,10.0077791213989,10.0079278945923,10.0080766677856,10.008225440979,10.0083742141724,10.0085229873657,10.0086717605591,10.0088205337524,10.0089693069458,10.0091180801392,10.0092668533325,10.0094156265259,10.0095643997192,10.0097131729126,10.009861946106,10.0100107192993,10.0101594924927,10.010308265686,10.0104570388794,10.0106058120728,10.0107545852661,10.0109043121338,10.0110530853271,10.0112018585205,10.0113506317139,10.0114994049072,10.0116481781006,10.0257272720337,10.1179494857788,10.2118835449219,10.3075790405273,10.4050846099854,10.504451751709,10.6057357788086,10.7089920043945,10.8142786026001,10.9216556549072,11.0311861038208,11.142936706543,11.2569799423218,11.3733787536621,11.4921073913574,11.6134567260742,11.7373962402344,11.8640098571777,11.9560718536377,11.9562492370605,11.9564275741577
12.0058536529541,12.0060319900513,12.0062103271484,12.0063886642456,12.0065670013428,12.0067443847656,12.0069227218628,12.00710105896,12.0072793960571,12.0074577331543,12.0076351165771,12.0078134536743,12.0079917907715,12.0081701278687,12.0083484649658,12.0085258483887,12.0087041854858,9.98971939086914,9.98986721038818,9.99001598358154,9.99016380310059,9.99031257629395,9.99046039581299,9.99060916900635,9.99075698852539,9.99090576171875,9.99105358123779,9.99120235443115,9.9913501739502,9.99149894714355,9.9916467666626,9.99179553985596,9.991943359375,9.99209213256836,9.9922399520874,9.99238872528076,9.9925365447998,9.99268531799316,9.99283313751221,9.99298191070557,9.99312973022461,9.99327850341797,9.99342727661133,9.99357509613037,9.99372386932373,9.99387168884277,9.99402046203613,9.99416828155518,9.99431705474854,9.99446582794189,9.99461364746094,9.9947624206543,9.99491024017334,9.9950590133667,9.99520778656006,9.9953556060791,9.99550437927246,9.99565315246582,9.99580097198486,9.99594974517822,9.99609756469727,9.99624633789062,9.99639511108398,9.99654293060303,9.99669170379639,9.99684047698975,9.99698829650879,9.99713706970215,9.99728584289551,9.99743366241455,9.99758243560791,9.99773120880127,9.99787902832031,9.99802780151367,9.99817657470703,9.99832534790039,9.99847316741943,9.99862194061279,9.99877071380615,9.9989185333252,9.99906730651855,9.99921607971191,9.99936485290527,9.99951267242432,9.99966144561768,9.99981021881104,9.99995899200439,10.0001068115234,10.0002555847168,10.0004043579102,10.0005531311035,10.0007019042969,10.0008497238159,10.0009984970093,10.0011472702026,10.001296043396,10.0014448165894,10.0015926361084,10.0017414093018,10.0018901824951,10.0020389556885,10.0021877288818,10.0023365020752,10.0024852752686,10.0026330947876,10.002781867981,10.0029306411743,10.0030794143677,10.003228187561,10.0033769607544,10.0035257339478,10.0036735534668,10.0038223266602,10.0039710998535,10.0041198730469,10.0042686462402,10.0044174194336,10.004566192627,10.0047149658203,10.0048637390137,10.005012512207,10.0051612854004,10.0053100585938,10.0054578781128,10.0056066513062,10.0057554244995,10.0059041976929,10.0060529708862,10.0062017440796,10.0063505172729,10.0064992904663,10.0066480636597,10.006796836853,10.0069456100464,10.0070943832397,10.0072431564331,10.0073919296265,10.0075407028198,10.0076894760132,10.0078382492065,10.0079870223999,10.0081357955933,10.0082845687866,10.00843334198,10.0085821151733,10.0087308883667,10.0088796615601,10.0090284347534,10.0091772079468,10.0093259811401,10.0094747543335,10.0096235275269,10.0097732543945,10.0099220275879,10.0100708007812,10.0102195739746,10.010368347168,10.0105171203613,10.0106658935547,10.010814666748,10.0109634399414,10.0265645980835,10.1188020706177,10.2127523422241,10.308464050293,10.4059858322144,10.50537109375,10.6066722869873,10.7099466323853,10.8152523040771,10.9226484298706,11.0321998596191,11.143970489502,11.2580289840698,11.3744668960571,11.4932060241699,11.6145792007446,11.7385425567627,11.8651809692383,11.9552536010742,11.9554319381714,11.9556093215942
12.0050354003906,12.0052127838135,12.0053911209106,12.0055694580078,12.005747795105,12.0059251785278,12.006103515625,12.0062818527222,12.0064601898193,12.0066375732422,12.0068159103394,12.0069942474365,12.0071725845337,12.0073509216309,12.0075283050537,12.0077066421509,12.007884979248,9.98903751373291,9.98918533325195,9.98933410644531,9.98948192596436,9.98963069915771,9.98977851867676,9.98992729187012,9.99007511138916,9.99022388458252,9.99037170410156,9.99052047729492,9.99066829681396,9.99081707000732,9.99096488952637,9.99111366271973,9.99126148223877,9.99141025543213,9.99155807495117,9.99170684814453,9.99185466766357,9.99200344085693,9.99215126037598,9.99230003356934,9.99244785308838,9.99259662628174,9.99274444580078,9.99289321899414,9.99304103851318,9.99318981170654,9.99333763122559,9.99348640441895,9.9936351776123,9.99378299713135,9.99393177032471,9.99407958984375,9.99422836303711,9.99437618255615,9.99452495574951,9.99467372894287,9.99482154846191,9.99497032165527,9.99511814117432,9.99526691436768,9.99541568756104,9.99556350708008,9.99571228027344,9.9958610534668,9.99600887298584,9.9961576461792,9.99630641937256,9.9964542388916,9.99660301208496,9.996750831604,9.99689960479736,9.99704837799072,9.99719619750977,9.99734497070312,9.99749374389648,9.99764251708984,9.99779033660889,9.99793910980225,9.99808788299561,9.99823570251465,9.99838447570801,9.99853324890137,9.99868106842041,9.99882984161377,9.99897861480713,9.99912738800049,9.99927520751953,9.99942398071289,9.99957275390625,9.99972152709961,9.99986934661865,10.000018119812,10.0001668930054,10.0003156661987,10.0004644393921,10.0006122589111,10.0007610321045,10.0009098052979,10.0010585784912,10.0012073516846,10.0013551712036,10.001503944397,10.0016527175903,10.0018014907837,10.0019502639771,10.0020990371704,10.0022468566895,10.0023956298828,10.0025444030762,10.0026931762695,10.0028419494629,10.0029907226562,10.0031394958496,10.0032873153687,10.003436088562,10.0035848617554,10.0037336349487,10.0038824081421,10.0040311813354,10.0041799545288,10.0043287277222,10.0044775009155,10.0046253204346,10.0047740936279,10.0049228668213,10.0050716400146,10.005220413208,10.0053691864014,10.0055179595947,10.0056667327881,10.0058155059814,10.0059642791748,10.0061130523682,10.0062618255615,10.0064105987549,10.0065593719482,10.0067081451416,10.006856918335,10.0070056915283,10.0071544647217,10.007303237915,10.0074520111084,10.0076007843018,10.0077495574951,10.0078983306885,10.0080471038818,10.0081958770752,10.0083446502686,10.0084934234619,10.0086421966553,10.0087909698486,10.008939743042,10.0090885162354,10.0092372894287,10.0093860626221,10.0095348358154,10.0096836090088,10.0098323822021,10.0099811553955,10.0101299285889,10.0102787017822,10.0274019241333,10.1196556091309,10.2136211395264,10.3093490600586,10.4068880081177,10.506290435791,10.6076097488403,10.7109022140503,10.8162269592285,10.9236431121826,11.0332136154175,11.1450052261353,11.2590847015381,11.3755550384521,11.4943046569824,11.6157007217407,11.739688873291,11.8663511276245,11.9544363021851,11.9546136856079,11.9547920227051
12.0042161941528,12.00439453125,12.0045719146729,12.00475025177,12.0049285888672,12.00510597229,12.0052843093872,12.0054626464844,12.0056409835815,12.0058183670044,12.0059967041016,12.0061750411987,12.0063533782959,12.0065307617188,12.0067090988159,12.0068874359131,12.0070657730103,9.98835563659668,9.98850440979004,9.98865222930908,9.98880100250244,9.98894882202148,9.98909664154053,9.98924541473389,9.98939323425293,9.98954200744629,9.98968982696533,9.98983860015869,9.98998641967773,9.99013519287109,9.99028301239014,9.9904317855835,9.99057960510254,9.99072742462158,9.99087619781494,9.99102401733398,9.99117279052734,9.99132061004639,9.99146938323975,9.99161720275879,9.99176597595215,9.99191379547119,9.99206256866455,9.99221038818359,9.99235916137695,9.99250793457031,9.99265575408936,9.99280452728271,9.99295234680176,9.99310111999512,9.99324893951416,9.99339771270752,9.99354553222656,9.99369430541992,9.99384307861328,9.99399089813232,9.99413967132568,9.99428749084473,9.99443626403809,9.99458408355713,9.99473285675049,9.99488162994385,9.99502944946289,9.99517822265625,9.99532604217529,9.99547481536865,9.99562358856201,9.99577140808105,9.99592018127441,9.99606895446777,9.99621677398682,9.99636554718018,9.99651432037354,9.99666213989258,9.99681091308594,9.9969596862793,9.99710750579834,9.9972562789917,9.99740505218506,9.9975528717041,9.99770164489746,9.99785041809082,9.99799823760986,9.99814701080322,9.99829578399658,9.99844455718994,9.99859237670898,9.99874114990234,9.9988899230957,9.99903774261475,9.99918651580811,9.99933528900146,9.99948406219482,9.99963188171387,9.99978065490723,9.99992942810059,10.0000782012939,10.0002269744873,10.0003747940063,10.0005235671997,10.0006723403931,10.0008211135864,10.0009689331055,10.0011177062988,10.0012664794922,10.0014152526855,10.0015640258789,10.0017127990723,10.0018606185913,10.0020093917847,10.002158164978,10.0023069381714,10.0024557113647,10.0026044845581,10.0027523040771,10.0029010772705,10.0030498504639,10.0031986236572,10.0033473968506,10.0034961700439,10.0036449432373,10.0037937164307,10.003942489624,10.0040903091431,10.0042390823364,10.0043878555298,10.0045366287231,10.0046854019165,10.0048341751099,10.0049829483032,10.0051317214966,10.0052804946899,10.0054292678833,10.0055780410767,10.00572681427,10.0058755874634,10.0060234069824,10.0061721801758,10.0063209533691,10.0064697265625,10.0066184997559,10.0067672729492,10.0069160461426,10.0070648193359,10.0072135925293,10.0073623657227,10.007511138916,10.0076599121094,10.0078086853027,10.0079574584961,10.0081062316895,10.0082550048828,10.0084037780762,10.0085525512695,10.0087013244629,10.0088500976562,10.0089988708496,10.009147644043,10.0092964172363,10.0094451904297,10.0095949172974,10.0282402038574,10.1205081939697,10.2144908905029,10.3102340698242,10.407790184021,10.507209777832,10.6085472106934,10.7118577957153,10.8172006607056,10.9246368408203,11.0342273712158,11.1460399627686,11.2601404190063,11.3766431808472,11.4954032897949,11.6168231964111,11.7408351898193,11.8675231933594,11.9536180496216,11.9537963867188,11.9539737701416
12.003396987915,12.0035753250122,12.0037536621094,12.0039310455322,12.0041093826294,12.0042877197266,12.0044651031494,12.0046434402466,12.0048217773438,12.0050001144409,12.0051774978638,12.0053558349609,12.0055341720581,12.005711555481,12.0058898925781,12.0060682296753,12.0062465667725,9.98767471313477,9.98782253265381,9.98797035217285,9.98811912536621,9.98826694488525,9.98841571807861,9.98856353759766,9.98871231079102,9.98886013031006,9.9890079498291,9.98915672302246,9.9893045425415,9.98945331573486,9.98960113525391,9.98974990844727,9.98989772796631,9.99004554748535,9.99019432067871,9.99034214019775,9.99049091339111,9.99063873291016,9.99078750610352,9.99093532562256,9.99108409881592,9.99123191833496,9.99138069152832,9.99152851104736,9.99167728424072,9.99182510375977,9.99197387695312,9.99212169647217,9.99227046966553,9.99241828918457,9.99256706237793,9.99271488189697,9.99286365509033,9.99301242828369,9.99316024780273,9.99330902099609,9.99345684051514,9.9936056137085,9.99375343322754,9.9939022064209,9.99405097961426,9.9941987991333,9.99434757232666,9.9944953918457,9.99464416503906,9.99479198455811,9.99494075775146,9.99508953094482,9.99523735046387,9.99538612365723,9.99553489685059,9.99568271636963,9.99583148956299,9.99597930908203,9.99612808227539,9.99627685546875,9.99642467498779,9.99657344818115,9.99672222137451,9.99687004089355,9.99701881408691,9.99716758728027,9.99731540679932,9.99746417999268,9.99761295318604,9.99776077270508,9.99790954589844,9.9980583190918,9.99820709228516,9.9983549118042,9.99850368499756,9.99865245819092,9.99880027770996,9.99894905090332,9.99909782409668,9.99924659729004,9.99939441680908,9.99954319000244,9.9996919631958,9.99984073638916,9.9999885559082,10.0001373291016,10.0002861022949,10.0004348754883,10.0005836486816,10.0007314682007,10.000880241394,10.0010290145874,10.0011777877808,10.0013265609741,10.0014743804932,10.0016231536865,10.0017719268799,10.0019207000732,10.0020694732666,10.00221824646,10.002366065979,10.0025148391724,10.0026636123657,10.0028123855591,10.0029611587524,10.0031099319458,10.0032587051392,10.0034074783325,10.0035552978516,10.0037040710449,10.0038528442383,10.0040016174316,10.004150390625,10.0042991638184,10.0044479370117,10.0045967102051,10.0047454833984,10.0048942565918,10.0050420761108,10.0051908493042,10.0053396224976,10.0054883956909,10.0056371688843,10.0057859420776,10.005934715271,10.0060834884644,10.0062322616577,10.0063810348511,10.0065298080444,10.0066785812378,10.0068273544312,10.0069761276245,10.0071249008179,10.0072736740112,10.0074224472046,10.0075712203979,10.0077199935913,10.0078687667847,10.008017539978,10.0081663131714,10.0083150863647,10.0084638595581,10.0086126327515,10.0087614059448,10.0089101791382,10.0290775299072,10.1213617324829,10.2153596878052,10.3111200332642,10.4086923599243,10.508129119873,10.6094846725464,10.7128143310547,10.8181753158569,10.925630569458,11.0352420806885,11.1470746994019,11.2611970901489,11.3777322769165,11.4965028762817,11.6179456710815,11.7419815063477,11.8686943054199,11.9528007507324,11.9529781341553,11.9531564712524
12.0025787353516,12.0027561187744,12.0029344558716,12.0031127929688,12.0032901763916,12.0034685134888,12.0036468505859,12.0038242340088,12.004002571106,12.0041809082031,12.004358291626,12.0045366287231,12.0047149658203,12.0048933029175,12.0050706863403,12.0052490234375,12.0054273605347,9.98699283599854,9.98714160919189,9.98728942871094,9.98743724822998,9.98758602142334,9.98773384094238,9.98788166046143,9.98803043365479,9.98817825317383,9.98832702636719,9.98847484588623,9.98862266540527,9.98877143859863,9.98891925811768,9.98906803131104,9.98921585083008,9.98936462402344,9.98951244354248,9.98966026306152,9.98980903625488,9.98995685577393,9.99010562896729,9.99025344848633,9.99040222167969,9.99055004119873,9.99069881439209,9.99084663391113,9.99099540710449,9.99114322662354,9.99129199981689,9.99143981933594,9.9915885925293,9.99173641204834,9.9918851852417,9.99203300476074,9.9921817779541,9.99232959747314,9.9924783706665,9.99262619018555,9.99277496337891,9.99292278289795,9.99307155609131,9.99321937561035,9.99336814880371,9.99351692199707,9.99366474151611,9.99381351470947,9.99396133422852,9.99411010742188,9.99425792694092,9.99440670013428,9.99455547332764,9.99470329284668,9.99485206604004,9.99499988555908,9.99514865875244,9.9952974319458,9.99544525146484,9.9955940246582,9.99574279785156,9.99589061737061,9.99603939056396,9.99618816375732,9.99633598327637,9.99648475646973,9.99663257598877,9.99678134918213,9.99693012237549,9.99707794189453,9.99722671508789,9.99737548828125,9.99752426147461,9.99767208099365,9.99782085418701,9.99796962738037,9.99811744689941,9.99826622009277,9.99841499328613,9.99856281280518,9.99871158599854,9.99886035919189,9.99900913238525,9.9991569519043,9.99930572509766,9.99945449829102,9.99960327148438,9.99975109100342,9.99989986419678,10.0000486373901,10.0001974105835,10.0003461837769,10.0004940032959,10.0006427764893,10.0007915496826,10.000940322876,10.0010890960693,10.0012369155884,10.0013856887817,10.0015344619751,10.0016832351685,10.0018320083618,10.0019807815552,10.0021286010742,10.0022773742676,10.0024261474609,10.0025749206543,10.0027236938477,10.002872467041,10.0030202865601,10.0031690597534,10.0033178329468,10.0034666061401,10.0036153793335,10.0037641525269,10.0039129257202,10.0040616989136,10.0042104721069,10.004358291626,10.0045070648193,10.0046558380127,10.0048046112061,10.0049533843994,10.0051021575928,10.0052509307861,10.0053997039795,10.0055484771729,10.0056972503662,10.0058460235596,10.0059947967529,10.0061435699463,10.0062913894653,10.0064401626587,10.0065889358521,10.0067377090454,10.0068864822388,10.0070352554321,10.0071840286255,10.0073328018188,10.0074815750122,10.0076303482056,10.0077791213989,10.0079278945923,10.0080766677856,10.008225440979,10.0299158096313,10.1222152709961,10.2162284851074,10.3120050430298,10.4095945358276,10.5090494155884,10.6104221343994,10.7137699127197,10.8191509246826,10.92662525177,11.0362558364868,11.1481094360352,11.2622537612915,11.3788204193115,11.4976043701172,11.619068145752,11.7431287765503,11.8698663711548,11.9519834518433,11.9521608352661,11.952338218689
12.0017595291138,12.0019378662109,12.0021162033081,12.002293586731,12.0024719238281,12.002649307251,12.0028276443481,12.0030059814453,12.0031833648682,12.0033617019653,12.0035400390625,12.0037183761597,12.0038957595825,12.0040740966797,12.0042524337769,12.0044298171997,12.0046081542969,9.98631191253662,9.98645973205566,9.98660755157471,9.98675632476807,9.98690414428711,9.98705291748047,9.98720073699951,9.98734855651855,9.98749732971191,9.98764514923096,9.98779296875,9.98794174194336,9.9880895614624,9.98823833465576,9.9883861541748,9.98853397369385,9.98868274688721,9.98883056640625,9.98897933959961,9.98912715911865,9.98927593231201,9.98942375183105,9.9895715713501,9.98972034454346,9.9898681640625,9.99001693725586,9.9901647567749,9.99031352996826,9.9904613494873,9.99061012268066,9.99075794219971,9.99090671539307,9.99105453491211,9.99120330810547,9.99135112762451,9.99149990081787,9.99164772033691,9.99179649353027,9.99194431304932,9.99209308624268,9.99224090576172,9.99238967895508,9.99253749847412,9.99268627166748,9.99283409118652,9.99298286437988,9.99313068389893,9.99327945709229,9.99342727661133,9.99357604980469,9.99372482299805,9.99387264251709,9.99402141571045,9.99416923522949,9.99431800842285,9.99446582794189,9.99461460113525,9.99476337432861,9.99491119384766,9.99505996704102,9.99520874023438,9.99535655975342,9.99550533294678,9.99565315246582,9.99580192565918,9.99595069885254,9.99609851837158,9.99624729156494,9.9963960647583,9.99654388427734,9.9966926574707,9.99684143066406,9.99698925018311,9.99713802337646,9.99728679656982,9.99743461608887,9.99758338928223,9.99773216247559,9.99787998199463,9.99802875518799,9.99817752838135,9.99832630157471,9.99847412109375,9.99862289428711,9.99877166748047,9.99891948699951,9.99906826019287,9.99921703338623,9.99936580657959,9.99951362609863,9.99966239929199,9.99981117248535,9.99995994567871,10.0001087188721,10.0002565383911,10.0004053115845,10.0005540847778,10.0007028579712,10.0008516311646,10.0009994506836,10.001148223877,10.0012969970703,10.0014457702637,10.001594543457,10.0017423629761,10.0018911361694,10.0020399093628,10.0021886825562,10.0023374557495,10.0024862289429,10.0026340484619,10.0027828216553,10.0029315948486,10.003080368042,10.0032291412354,10.0033779144287,10.0035266876221,10.0036754608154,10.0038232803345,10.0039720535278,10.0041208267212,10.0042695999146,10.0044183731079,10.0045671463013,10.0047159194946,10.004864692688,10.0050134658813,10.0051622390747,10.0053100585938,10.0054588317871,10.0056076049805,10.0057563781738,10.0059051513672,10.0060539245605,10.0062026977539,10.0063514709473,10.0065002441406,10.006649017334,10.0067977905273,10.0069465637207,10.0070953369141,10.0072441101074,10.0073928833008,10.0075416564941,10.0307531356812,10.123067855835,10.217098236084,10.3128910064697,10.4104976654053,10.5099687576294,10.6113595962524,10.7147264480591,10.820125579834,10.927619934082,11.0372705459595,11.1491451263428,11.2633104324341,11.3799095153809,11.4987163543701,11.6201915740967,11.7442750930786,11.8710374832153,11.9511661529541,11.951343536377,11.9515209197998
12.0009412765503,12.0011196136475,12.0012969970703,12.0014753341675,12.0016527175903,12.0018310546875,12.0020093917847,12.0021867752075,12.0023651123047,12.0025434494019,12.0027208328247,12.0028991699219,12.003077507019,12.0032548904419,12.0034332275391,12.0036115646362,12.0037889480591,9.98563003540039,9.98577880859375,9.98592662811279,9.98607444763184,9.9862232208252,9.98637104034424,9.98651885986328,9.98666763305664,9.98681545257568,9.98696422576904,9.98711204528809,9.98725986480713,9.98740863800049,9.98755645751953,9.98770427703857,9.98785305023193,9.98800086975098,9.98814964294434,9.98829746246338,9.98844528198242,9.98859405517578,9.98874187469482,9.98889064788818,9.98903846740723,9.98918628692627,9.98933506011963,9.98948287963867,9.98963165283203,9.98977947235107,9.98992824554443,9.99007606506348,9.99022483825684,9.99037265777588,9.99052143096924,9.99066925048828,9.99081707000732,9.99096584320068,9.99111366271973,9.99126243591309,9.99141025543213,9.99155902862549,9.99170684814453,9.99185562133789,9.99200344085693,9.99215221405029,9.99230003356934,9.9924488067627,9.99259757995605,9.9927453994751,9.99289417266846,9.9930419921875,9.99319076538086,9.9933385848999,9.99348735809326,9.9936351776123,9.99378395080566,9.99393272399902,9.99408054351807,9.99422931671143,9.99437713623047,9.99452590942383,9.99467372894287,9.99482250213623,9.99497127532959,9.99511909484863,9.99526786804199,9.99541664123535,9.99556446075439,9.99571323394775,9.9958610534668,9.99600982666016,9.99615859985352,9.99630641937256,9.99645519256592,9.99660396575928,9.99675178527832,9.99690055847168,9.99704933166504,9.99719715118408,9.99734592437744,9.9974946975708,9.99764251708984,9.9977912902832,9.99794006347656,9.99808883666992,9.99823665618896,9.99838542938232,9.99853420257568,9.99868297576904,9.99883079528809,9.99897956848145,9.9991283416748,9.99927616119385,9.99942493438721,9.99957370758057,9.99972248077393,9.99987125396729,10.0000190734863,10.0001678466797,10.000316619873,10.0004653930664,10.0006132125854,10.0007619857788,10.0009107589722,10.0010595321655,10.0012083053589,10.0013561248779,10.0015048980713,10.0016536712646,10.001802444458,10.0019512176514,10.0020999908447,10.0022478103638,10.0023965835571,10.0025453567505,10.0026941299438,10.0028429031372,10.0029916763306,10.0031404495239,10.003288269043,10.0034370422363,10.0035858154297,10.003734588623,10.0038833618164,10.0040321350098,10.0041809082031,10.0043296813965,10.0044775009155,10.0046262741089,10.0047750473022,10.0049238204956,10.005072593689,10.0052213668823,10.0053701400757,10.005518913269,10.0056676864624,10.0058164596558,10.0059652328491,10.0061140060425,10.0062627792358,10.0064115524292,10.0065603256226,10.0067081451416,10.006856918335,10.0315914154053,10.1239223480225,10.2179679870605,10.3137769699097,10.4114007949829,10.5108890533447,10.6122980117798,10.7156820297241,10.8211011886597,10.928614616394,11.0382852554321,11.1501798629761,11.2643671035767,11.3809986114502,11.499828338623,11.6213140487671,11.7454223632812,11.8722105026245,11.9503488540649,11.9505262374878,11.9507036209106
12.0001230239868,12.0003004074097,12.0004787445068,12.000657081604,12.0008344650269,12.001012802124,12.0011901855469,12.001368522644,12.0015468597412,12.0017242431641,12.0019025802612,12.0020799636841,12.0022583007812,12.0024366378784,12.0026140213013,12.0027923583984,12.0029706954956,9.98494911193848,9.98509693145752,9.98524570465088,9.98539352416992,9.98554134368896,9.98569011688232,9.98583793640137,9.98598575592041,9.98613452911377,9.98628234863281,9.98643016815186,9.98657894134521,9.98672676086426,9.9868745803833,9.98702335357666,9.9871711730957,9.98731994628906,9.98746776580811,9.98761558532715,9.98776435852051,9.98791217803955,9.98806095123291,9.98820877075195,9.988356590271,9.98850536346436,9.9886531829834,9.98880195617676,9.9889497756958,9.98909759521484,9.9892463684082,9.98939418792725,9.98954296112061,9.98969078063965,9.98983955383301,9.98998737335205,9.99013519287109,9.99028396606445,9.9904317855835,9.99058055877686,9.9907283782959,9.99087715148926,9.9910249710083,9.99117374420166,9.9913215637207,9.99147033691406,9.99161815643311,9.99176692962646,9.99191474914551,9.99206352233887,9.99221134185791,9.99236011505127,9.99250793457031,9.99265670776367,9.99280452728271,9.99295330047607,9.99310207366943,9.99324989318848,9.99339866638184,9.99354648590088,9.99369525909424,9.99384307861328,9.99399185180664,9.994140625,9.99428844451904,9.9944372177124,9.99458503723145,9.9947338104248,9.99488258361816,9.99503040313721,9.99517917633057,9.99532699584961,9.99547576904297,9.99562454223633,9.99577236175537,9.99592113494873,9.99606990814209,9.99621772766113,9.99636650085449,9.99651432037354,9.99666309356689,9.99681186676025,9.99696063995361,9.99710845947266,9.99725723266602,9.99740600585938,9.99755382537842,9.99770259857178,9.99785137176514,9.99799919128418,9.99814796447754,9.9982967376709,9.99844551086426,9.9985933303833,9.99874210357666,9.99889087677002,9.99903964996338,9.99918746948242,9.99933624267578,9.99948501586914,9.9996337890625,9.99978160858154,9.9999303817749,10.0000791549683,10.0002279281616,10.0003757476807,10.000524520874,10.0006732940674,10.0008220672607,10.0009708404541,10.0011186599731,10.0012674331665,10.0014162063599,10.0015649795532,10.0017137527466,10.0018615722656,10.002010345459,10.0021591186523,10.0023078918457,10.0024566650391,10.0026054382324,10.0027542114258,10.0029020309448,10.0030508041382,10.0031995773315,10.0033483505249,10.0034971237183,10.0036458969116,10.003794670105,10.003942489624,10.0040912628174,10.0042400360107,10.0043888092041,10.0045375823975,10.0046863555908,10.0048351287842,10.0049839019775,10.0051326751709,10.0052814483643,10.0054292678833,10.0055780410767,10.00572681427,10.0058755874634,10.0060243606567,10.0061731338501,10.0324296951294,10.1247758865356,10.2188377380371,10.3146629333496,10.4123029708862,10.5118093490601,10.6132364273071,10.7166385650635,10.8220767974854,10.9296092987061,11.0393009185791,11.1512155532837,11.2654237747192,11.3820886611938,11.500940322876,11.6224374771118,11.7465696334839,11.8733825683594,11.9495315551758,11.9497089385986,11.9498863220215
11.9993047714233,11.9994821548462,11.9996604919434,11.9998378753662,12.0000162124634,12.0001945495605,12.0003719329834,12.0005502700806,12.0007276535034,12.0009059906006,12.0010843276978,12.0012617111206,12.0014400482178,12.0016174316406,12.0017957687378,12.001974105835,12.0021514892578,9.98426818847656,9.98441600799561,9.98456478118896,9.98471260070801,9.98486042022705,9.98500823974609,9.98515701293945,9.9853048324585,9.98545265197754,9.9856014251709,9.98574924468994,9.98589706420898,9.98604583740234,9.98619365692139,9.98634147644043,9.98649024963379,9.98663806915283,9.98678588867188,9.98693466186523,9.98708248138428,9.98723125457764,9.98737907409668,9.98752689361572,9.98767566680908,9.98782348632812,9.98797130584717,9.98812007904053,9.98826789855957,9.98841667175293,9.98856449127197,9.98871231079102,9.98886108398438,9.98900890350342,9.98915767669678,9.98930549621582,9.98945426940918,9.98960208892822,9.98974990844727,9.98989868164062,9.99004650115967,9.99019527435303,9.99034309387207,9.99049186706543,9.99063968658447,9.99078845977783,9.99093627929688,9.99108505249023,9.99123287200928,9.99138164520264,9.99152946472168,9.99167823791504,9.99182605743408,9.99197483062744,9.99212265014648,9.99227142333984,9.99241924285889,9.99256801605225,9.99271583557129,9.99286460876465,9.99301242828369,9.99316120147705,9.99330997467041,9.99345779418945,9.99360656738281,9.99375438690186,9.99390316009521,9.99405097961426,9.99419975280762,9.99434852600098,9.99449634552002,9.99464511871338,9.99479293823242,9.99494171142578,9.99509048461914,9.99523830413818,9.99538707733154,9.99553489685059,9.99568367004395,9.9958324432373,9.99598026275635,9.99612903594971,9.99627780914307,9.99642562866211,9.99657440185547,9.99672317504883,9.99687099456787,9.99701976776123,9.99716854095459,9.99731636047363,9.99746513366699,9.99761390686035,9.99776172637939,9.99791049957275,9.99805927276611,9.99820804595947,9.99835586547852,9.99850463867188,9.99865341186523,9.99880218505859,9.99895000457764,9.999098777771,9.99924755096436,9.99939632415771,9.99954414367676,9.99969291687012,9.99984169006348,9.99999046325684,10.0001382827759,10.0002870559692,10.0004358291626,10.000584602356,10.0007333755493,10.0008811950684,10.0010299682617,10.0011787414551,10.0013275146484,10.0014762878418,10.0016241073608,10.0017728805542,10.0019216537476,10.0020704269409,10.0022192001343,10.0023670196533,10.0025157928467,10.00266456604,10.0028133392334,10.0029621124268,10.0031108856201,10.0032596588135,10.0034074783325,10.0035562515259,10.0037050247192,10.0038537979126,10.004002571106,10.0041513442993,10.0043001174927,10.004448890686,10.0045967102051,10.0047454833984,10.0048942565918,10.0050430297852,10.0051918029785,10.0053405761719,10.0054893493652,10.0332679748535,10.1256294250488,10.2197074890137,10.3155498504639,10.4132061004639,10.5127296447754,10.6141738891602,10.7175951004028,10.8230514526367,10.9306039810181,11.0403156280518,11.1522521972656,11.2664813995361,11.3831777572632,11.5020532608032,11.6235618591309,11.7477178573608,11.8745555877686,11.9487142562866,11.9488925933838,11.9490699768066
11.9984865188599,11.9986639022827,11.9988422393799,11.9990196228027,11.9991979598999,11.9993762969971,11.9995536804199,11.9997320175171,11.9999094009399,12.0000877380371,12.00026512146,12.0004434585571,12.0006217956543,12.0007991790771,12.0009775161743,12.0011548995972,12.0013332366943,9.98358726501465,9.98373508453369,9.98388290405273,9.98403167724609,9.98417949676514,9.98432731628418,9.98447608947754,9.98462390899658,9.98477172851562,9.98491954803467,9.98506832122803,9.98521614074707,9.98536396026611,9.98551273345947,9.98566055297852,9.98580837249756,9.98595714569092,9.98610496520996,9.986252784729,9.98640155792236,9.98654937744141,9.98669719696045,9.98684597015381,9.98699378967285,9.98714256286621,9.98729038238525,9.9874382019043,9.98758697509766,9.9877347946167,9.98788261413574,9.9880313873291,9.98817920684814,9.9883279800415,9.98847579956055,9.98862361907959,9.98877239227295,9.98892021179199,9.98906898498535,9.98921680450439,9.98936557769775,9.9895133972168,9.98966121673584,9.9898099899292,9.98995780944824,9.9901065826416,9.99025440216064,9.990403175354,9.99055099487305,9.99069976806641,9.99084758758545,9.99099636077881,9.99114418029785,9.99129295349121,9.99144077301025,9.99158954620361,9.99173736572266,9.99188613891602,9.99203395843506,9.99218273162842,9.99233055114746,9.99247932434082,9.99262714385986,9.99277591705322,9.99292373657227,9.99307250976562,9.99322032928467,9.99336910247803,9.99351692199707,9.99366569519043,9.99381446838379,9.99396228790283,9.99411106109619,9.99425888061523,9.99440765380859,9.99455642700195,9.994704246521,9.99485301971436,9.9950008392334,9.99514961242676,9.99529838562012,9.99544620513916,9.99559497833252,9.99574375152588,9.99589157104492,9.99604034423828,9.99618816375732,9.99633693695068,9.99648571014404,9.99663352966309,9.99678230285645,9.9969310760498,9.99707889556885,9.99722766876221,9.99737644195557,9.99752521514893,9.99767303466797,9.99782180786133,9.99797058105469,9.99811840057373,9.99826717376709,9.99841594696045,9.99856472015381,9.99871253967285,9.99886131286621,9.99901008605957,9.99915885925293,9.99930667877197,9.99945545196533,9.99960422515869,9.99975299835205,9.99990081787109,10.0000495910645,10.0001983642578,10.0003471374512,10.0004949569702,10.0006437301636,10.0007925033569,10.0009412765503,10.0010900497437,10.0012378692627,10.0013866424561,10.0015354156494,10.0016841888428,10.0018329620361,10.0019807815552,10.0021295547485,10.0022783279419,10.0024271011353,10.0025758743286,10.002724647522,10.0028734207153,10.0030212402344,10.0031700134277,10.0033187866211,10.0034675598145,10.0036163330078,10.0037651062012,10.0039138793945,10.0040616989136,10.0042104721069,10.0043592453003,10.0045080184937,10.004656791687,10.0048055648804,10.0341062545776,10.1264839172363,10.2205772399902,10.3164358139038,10.4141092300415,10.513650894165,10.6151123046875,10.7185525894165,10.8240280151367,10.9315996170044,11.0413312911987,11.1532878875732,11.2675380706787,11.3842582702637,11.5031652450562,11.6246852874756,11.7488660812378,11.8757286071777,11.9478979110718,11.9480752944946,11.9482526779175
11.9976682662964,11.9978466033936,11.9980239868164,11.9982023239136,11.9983797073364,11.9985580444336,11.9987354278564,11.9989137649536,11.9990911483765,11.9992694854736,11.9994468688965,11.9996252059937,11.9998025894165,11.9999809265137,12.0001592636108,12.0003366470337,12.0005149841309,9.98290634155273,9.98305416107178,9.98320293426514,9.98335075378418,9.98349857330322,9.98364639282227,9.98379516601562,9.98394298553467,9.98409080505371,9.98423862457275,9.98438739776611,9.98453521728516,9.9846830368042,9.98483180999756,9.9849796295166,9.98512744903564,9.98527526855469,9.98542404174805,9.98557186126709,9.98571968078613,9.98586845397949,9.98601627349854,9.98616409301758,9.98631286621094,9.98646068572998,9.98660850524902,9.98675727844238,9.98690509796143,9.98705291748047,9.98720169067383,9.98734951019287,9.98749828338623,9.98764610290527,9.98779392242432,9.98794269561768,9.98809051513672,9.98823928833008,9.98838710784912,9.98853492736816,9.98868370056152,9.98883152008057,9.98898029327393,9.98912811279297,9.98927593231201,9.98942470550537,9.98957252502441,9.98972129821777,9.98986911773682,9.99001789093018,9.99016571044922,9.99031448364258,9.99046230316162,9.99061012268066,9.99075889587402,9.99090671539307,9.99105548858643,9.99120330810547,9.99135208129883,9.99149990081787,9.99164867401123,9.99179649353027,9.99194526672363,9.99209308624268,9.99224185943604,9.99238967895508,9.99253845214844,9.9926872253418,9.99283504486084,9.9929838180542,9.99313163757324,9.9932804107666,9.99342823028564,9.993577003479,9.99372482299805,9.99387359619141,9.99402236938477,9.99417018890381,9.99431896209717,9.99446678161621,9.99461555480957,9.99476432800293,9.99491214752197,9.99506092071533,9.99520874023438,9.99535751342773,9.99550628662109,9.99565410614014,9.9958028793335,9.99595165252686,9.9960994720459,9.99624824523926,9.99639701843262,9.99654483795166,9.99669361114502,9.99684238433838,9.99699020385742,9.99713897705078,9.99728775024414,9.99743556976318,9.99758434295654,9.9977331161499,9.99788093566895,9.9980297088623,9.99817848205566,9.99832725524902,9.99847507476807,9.99862384796143,9.99877262115479,9.99892139434814,9.99906921386719,9.99921798706055,9.99936676025391,9.99951553344727,9.99966335296631,9.99981212615967,9.99996089935303,10.0001096725464,10.0002574920654,10.0004062652588,10.0005550384521,10.0007038116455,10.0008525848389,10.0010004043579,10.0011491775513,10.0012979507446,10.001446723938,10.0015954971313,10.0017433166504,10.0018920898438,10.0020408630371,10.0021896362305,10.0023384094238,10.0024862289429,10.0026350021362,10.0027837753296,10.0029325485229,10.0030813217163,10.0032300949097,10.003378868103,10.0035266876221,10.0036754608154,10.0038242340088,10.0039730072021,10.0041217803955,10.0349454879761,10.1273374557495,10.2214469909668,10.3173227310181,10.4150133132935,10.5145711898804,10.6160516738892,10.7195091247559,10.8250036239624,10.9325952529907,11.0423469543457,11.1543235778809,11.2685956954956,11.3853225708008,11.5042781829834,11.6258096694946,11.7500133514404,11.8769016265869,11.9470806121826,11.9472579956055,11.9474363327026
11.9968500137329,11.9970283508301,11.9972057342529,11.9973840713501,11.9975614547729,11.9977397918701,11.997917175293,11.9980955123901,11.998272895813,11.9984512329102,11.998628616333,11.9988069534302,11.998984336853,11.9991626739502,11.999340057373,11.9995183944702,11.9996967315674,9.98222541809082,9.98237323760986,9.98252201080322,9.98266983032227,9.98281764984131,9.98296546936035,9.98311424255371,9.98326206207275,9.9834098815918,9.98355770111084,9.9837064743042,9.98385429382324,9.98400211334229,9.98414993286133,9.98429870605469,9.98444652557373,9.98459434509277,9.98474311828613,9.98489093780518,9.98503875732422,9.98518657684326,9.98533535003662,9.98548316955566,9.98563098907471,9.98577976226807,9.98592758178711,9.98607540130615,9.98622417449951,9.98637199401855,9.9865198135376,9.98666858673096,9.98681640625,9.98696422576904,9.9871129989624,9.98726081848145,9.9874095916748,9.98755741119385,9.98770523071289,9.98785400390625,9.98800182342529,9.98814964294434,9.9882984161377,9.98844623565674,9.9885950088501,9.98874282836914,9.98889064788818,9.98903942108154,9.98918724060059,9.98933601379395,9.98948383331299,9.98963260650635,9.98978042602539,9.98992919921875,9.99007701873779,9.99022483825684,9.9903736114502,9.99052143096924,9.9906702041626,9.99081802368164,9.990966796875,9.99111461639404,9.9912633895874,9.99141120910645,9.9915599822998,9.99170780181885,9.99185657501221,9.99200439453125,9.99215316772461,9.99230098724365,9.99244976043701,9.99259757995605,9.99274635314941,9.99289417266846,9.99304294586182,9.99319171905518,9.99333953857422,9.99348831176758,9.99363613128662,9.99378490447998,9.99393272399902,9.99408149719238,9.99423027038574,9.99437808990479,9.99452686309814,9.99467468261719,9.99482345581055,9.99497222900391,9.99512004852295,9.99526882171631,9.99541759490967,9.99556541442871,9.99571418762207,9.99586200714111,9.99601078033447,9.99615955352783,9.99630737304688,9.99645614624023,9.99660491943359,9.99675273895264,9.996901512146,9.99705028533936,9.9971981048584,9.99734687805176,9.99749565124512,9.99764442443848,9.99779224395752,9.99794101715088,9.99808979034424,9.99823760986328,9.99838638305664,9.99853515625,9.99868392944336,9.9988317489624,9.99898052215576,9.99912929534912,9.99927806854248,9.99942588806152,9.99957466125488,9.99972343444824,9.9998722076416,10.0000200271606,10.000168800354,10.0003175735474,10.0004663467407,10.0006141662598,10.0007629394531,10.0009117126465,10.0010604858398,10.0012092590332,10.0013570785522,10.0015058517456,10.001654624939,10.0018033981323,10.0019521713257,10.0020999908447,10.0022487640381,10.0023975372314,10.0025463104248,10.0026950836182,10.0028438568115,10.0029916763306,10.0031404495239,10.0032892227173,10.0034379959106,10.0357837677002,10.128191947937,10.2223176956177,10.318208694458,10.4159164428711,10.51549243927,10.6169900894165,10.7204666137695,10.8259792327881,10.9335908889771,11.0433626174927,11.1553602218628,11.2696533203125,11.3863878250122,11.505392074585,11.6269330978394,11.7511625289917,11.8780746459961,11.9462642669678,11.9464416503906,11.9466190338135
11.9960327148438,11.9962100982666,11.9963884353638,11.9965658187866,11.9967441558838,11.9969215393066,11.9970998764038,11.9972772598267,11.9974546432495,11.9976329803467,11.9978103637695,11.9979887008667,11.9981670379639,11.9983444213867,11.9985227584839,11.9987001419067,11.9988784790039,9.98154449462891,9.98169326782227,9.98184108734131,9.98198890686035,9.98213672637939,9.98228454589844,9.9824333190918,9.98258113861084,9.98272895812988,9.98287677764893,9.98302555084229,9.98317337036133,9.98332118988037,9.98346900939941,9.98361778259277,9.98376560211182,9.98391342163086,9.9840612411499,9.98421001434326,9.9843578338623,9.98450565338135,9.98465442657471,9.98480224609375,9.98495006561279,9.98509788513184,9.9852466583252,9.98539447784424,9.98554229736328,9.98569107055664,9.98583889007568,9.98598670959473,9.98613548278809,9.98628330230713,9.98643112182617,9.98657989501953,9.98672771453857,9.98687553405762,9.98702430725098,9.98717212677002,9.98731994628906,9.98746871948242,9.98761653900146,9.98776531219482,9.98791313171387,9.98806095123291,9.98820972442627,9.98835754394531,9.98850631713867,9.98865413665771,9.98880195617676,9.98895072937012,9.98909854888916,9.98924732208252,9.98939514160156,9.98954391479492,9.98969173431396,9.98983955383301,9.98998832702637,9.99013614654541,9.99028491973877,9.99043273925781,9.99058151245117,9.99072933197021,9.99087810516357,9.99102592468262,9.99117469787598,9.99132251739502,9.99147129058838,9.99161911010742,9.99176788330078,9.99191570281982,9.99206447601318,9.99221229553223,9.99236106872559,9.99250888824463,9.99265766143799,9.99280548095703,9.99295425415039,9.99310207366943,9.99325084686279,9.99339962005615,9.9935474395752,9.99369621276855,9.9938440322876,9.99399280548096,9.99414157867432,9.99428939819336,9.99443817138672,9.99458599090576,9.99473476409912,9.99488353729248,9.99503135681152,9.99518013000488,9.99532794952393,9.99547672271729,9.99562549591064,9.99577331542969,9.99592208862305,9.99607086181641,9.99621868133545,9.99636745452881,9.99651622772217,9.99666404724121,9.99681282043457,9.99696159362793,9.99710941314697,9.99725818634033,9.99740695953369,9.99755477905273,9.99770355224609,9.99785232543945,9.9980001449585,9.99814891815186,9.99829769134521,9.99844646453857,9.99859428405762,9.99874305725098,9.99889183044434,9.9990406036377,9.99918842315674,9.9993371963501,9.99948596954346,9.99963474273682,9.99978256225586,9.99993133544922,10.0000801086426,10.0002288818359,10.000376701355,10.0005254745483,10.0006742477417,10.0008230209351,10.0009708404541,10.0011196136475,10.0012683868408,10.0014171600342,10.0015659332275,10.0017137527466,10.0018625259399,10.0020112991333,10.0021600723267,10.00230884552,10.0024576187134,10.0026054382324,10.0027542114258,10.0366230010986,10.1290464401245,10.2231884002686,10.3190956115723,10.416820526123,10.5164136886597,10.6179294586182,10.7214241027832,10.8269557952881,10.9345865249634,11.0443782806396,11.1563968658447,11.2707109451294,11.3874530792236,11.5065050125122,11.6280574798584,11.7523107528687,11.8792476654053,11.9454479217529,11.9456253051758,11.9458026885986
11.9952144622803,11.9953927993774,11.9955701828003,11.9957485198975,11.9959259033203,11.9961032867432,11.9962816238403,11.9964590072632,11.9966373443604,11.9968147277832,11.9969930648804,11.9971704483032,11.9973487854004,11.9975261688232,11.9977045059204,11.9978818893433,11.9980602264404,9.98086452484131,9.98101234436035,9.98116016387939,9.98130798339844,9.98145580291748,9.98160457611084,9.98175239562988,9.98190021514893,9.98204803466797,9.98219680786133,9.98234462738037,9.98249244689941,9.98264026641846,9.9827880859375,9.98293685913086,9.9830846786499,9.98323249816895,9.98338031768799,9.98352909088135,9.98367691040039,9.98382472991943,9.98397254943848,9.98412132263184,9.98426914215088,9.98441696166992,9.98456573486328,9.98471355438232,9.98486137390137,9.98500919342041,9.98515796661377,9.98530578613281,9.98545360565186,9.98560237884521,9.98575019836426,9.9858980178833,9.98604679107666,9.9861946105957,9.98634243011475,9.98649120330811,9.98663902282715,9.98678684234619,9.98693561553955,9.98708343505859,9.98723125457764,9.987380027771,9.98752784729004,9.9876766204834,9.98782444000244,9.98797225952148,9.98812103271484,9.98826885223389,9.98841762542725,9.98856544494629,9.98871326446533,9.98886203765869,9.98900985717773,9.98915863037109,9.98930644989014,9.98945426940918,9.98960304260254,9.98975086212158,9.98989963531494,9.99004745483398,9.99019622802734,9.99034404754639,9.99049282073975,9.99064064025879,9.99078941345215,9.99093723297119,9.99108600616455,9.99123382568359,9.99138259887695,9.991530418396,9.99167919158936,9.9918270111084,9.99197578430176,9.9921236038208,9.99227237701416,9.9924201965332,9.99256896972656,9.99271678924561,9.99286556243896,9.99301338195801,9.99316215515137,9.99330997467041,9.99345874786377,9.99360752105713,9.99375534057617,9.99390411376953,9.99405193328857,9.99420070648193,9.99434947967529,9.99449729919434,9.9946460723877,9.99479389190674,9.9949426651001,9.99509143829346,9.9952392578125,9.99538803100586,9.99553680419922,9.99568462371826,9.99583339691162,9.99598121643066,9.99612998962402,9.99627876281738,9.99642658233643,9.99657535552979,9.99672412872314,9.99687194824219,9.99702072143555,9.99716949462891,9.99731731414795,9.99746608734131,9.99761486053467,9.99776363372803,9.99791145324707,9.99806022644043,9.99820899963379,9.99835681915283,9.99850559234619,9.99865436553955,9.99880313873291,9.99895095825195,9.99909973144531,9.99924850463867,9.99939632415771,9.99954509735107,9.99969387054443,9.99984264373779,9.99999141693115,10.0001392364502,10.0002880096436,10.0004367828369,10.0005855560303,10.0007333755493,10.0008821487427,10.001030921936,10.0011796951294,10.0013284683228,10.0014762878418,10.0016250610352,10.0017738342285,10.0019226074219,10.0020713806152,10.0374622344971,10.129900932312,10.2240591049194,10.3199825286865,10.4177236557007,10.5173349380493,10.6188678741455,10.7223815917969,10.8279323577881,10.9355821609497,11.0453939437866,11.1574335098267,11.2717695236206,11.3885173797607,11.5076189041138,11.6291828155518,11.7534599304199,11.8804216384888,11.9446315765381,11.9448089599609,11.9449863433838
11.9943971633911,11.994574546814,11.9947528839111,11.994930267334,11.9951086044312,11.995285987854,11.9954633712769,11.995641708374,11.9958190917969,11.995997428894,11.9961748123169,11.9963531494141,11.9965305328369,11.9967088699341,11.9968862533569,11.9970636367798,11.997241973877,9.98018360137939,9.98033142089844,9.9804801940918,9.98062801361084,9.98077583312988,9.98092365264893,9.98107147216797,9.98121929168701,9.98136806488037,9.98151588439941,9.98166370391846,9.9818115234375,9.98195934295654,9.9821081161499,9.98225593566895,9.98240375518799,9.98255157470703,9.98269939422607,9.98284816741943,9.98299598693848,9.98314380645752,9.98329162597656,9.98344039916992,9.98358821868896,9.98373603820801,9.98388385772705,9.98403263092041,9.98418045043945,9.9843282699585,9.98447704315186,9.9846248626709,9.98477268218994,9.98492050170898,9.98506927490234,9.98521709442139,9.98536491394043,9.98551368713379,9.98566150665283,9.98580932617188,9.98595809936523,9.98610591888428,9.98625373840332,9.98640251159668,9.98655033111572,9.98669815063477,9.98684692382812,9.98699474334717,9.98714256286621,9.98729133605957,9.98743915557861,9.98758697509766,9.98773574829102,9.98788356781006,9.98803234100342,9.98818016052246,9.9883279800415,9.98847675323486,9.98862457275391,9.98877334594727,9.98892116546631,9.98906993865967,9.98921775817871,9.98936557769775,9.98951435089111,9.98966217041016,9.98981094360352,9.98995876312256,9.99010753631592,9.99025535583496,9.99040412902832,9.99055194854736,9.99069976806641,9.99084854125977,9.99099636077881,9.99114513397217,9.99129295349121,9.99144172668457,9.99158954620361,9.99173831939697,9.99188613891602,9.99203491210938,9.99218368530273,9.99233150482178,9.99248027801514,9.99262809753418,9.99277687072754,9.99292469024658,9.99307346343994,9.99322128295898,9.99337005615234,9.9935188293457,9.99366664886475,9.99381542205811,9.99396324157715,9.99411201477051,9.99425983428955,9.99440860748291,9.99455738067627,9.99470520019531,9.99485397338867,9.99500179290771,9.99515056610107,9.99529933929443,9.99544715881348,9.99559593200684,9.9957447052002,9.99589252471924,9.9960412979126,9.99619007110596,9.996337890625,9.99648666381836,9.99663543701172,9.99678325653076,9.99693202972412,9.99708080291748,9.99722862243652,9.99737739562988,9.99752616882324,9.99767398834229,9.99782276153564,9.997971534729,9.99811935424805,9.99826812744141,9.99841690063477,9.99856567382812,9.99871349334717,9.99886226654053,9.99901103973389,9.99915885925293,9.99930763244629,9.99945640563965,9.99960517883301,9.99975299835205,9.99990177154541,10.0000505447388,10.0001993179321,10.0003471374512,10.0004959106445,10.0006446838379,10.0007934570312,10.0009422302246,10.0010900497437,10.001238822937,10.0013875961304,10.0383014678955,10.1307563781738,10.2249298095703,10.3208703994751,10.4186277389526,10.518256187439,10.6198072433472,10.7233390808105,10.8289089202881,10.9365787506104,11.0464105606079,11.1584711074829,11.2728281021118,11.3895835876465,11.5087327957153,11.6303071975708,11.7546091079712,11.8815956115723,11.9438152313232,11.9439926147461,11.9441699981689
