9.92818927764893,9.92835807800293,9.92852687835693,9.92869567871094,9.92886447906494,9.92903232574463,9.92920112609863,9.92936992645264,9.92953872680664,9.92970752716064,9.92987632751465,9.93004512786865,9.93021392822266,9.93038177490234,9.93055057525635,9.93071937561035,9.93088817596436,9.93105697631836,9.93122577667236,9.93139457702637,9.93156337738037,9.93173217773438,9.93190097808838,9.93206977844238,9.93223857879639,9.93240737915039,9.93257617950439,9.9327449798584,9.9329137802124,9.93308258056641,9.93325138092041,9.93342018127441,9.93358898162842,9.93375778198242,9.93392658233643,9.93409538269043,9.93426418304443,9.93443298339844,9.93460178375244,9.93477058410645,9.93493938446045,9.93510818481445,9.93527698516846,9.93544578552246,9.93561458587646,9.93578338623047,9.93595218658447,9.93612098693848,9.93628978729248,10.0219469070435,10.1144027709961,10.2085800170898,10.3045272827148,10.4022960662842,10.5019378662109,10.6035060882568,10.7070589065552,10.8126535415649,10.9203519821167,11.0302181243896,11.1423168182373,11.2567167282104,11.3734912872314,11.4927139282227,11.6144618988037,11.7387933731079,11.8658084869385,11.9133863449097,11.9135885238647,11.9137916564941,11.9139938354492,11.9141969680786,11.9143991470337,11.9146022796631,11.9148044586182,11.9150075912476,11.915210723877,11.915412902832,11.9156160354614,11.9158191680908,11.9160213470459,11.9162244796753,11.9295063018799,11.9297094345093,11.9299125671387,12.0010118484497,12.0012159347534,12.0014200210571,12.0016241073608,12.0018281936646,12.0020322799683,12.002236366272,12.0024404525757,12.0026454925537,12.0028495788574,12.0030536651611,12.0032577514648,12.0034618377686,12.0036659240723,12.003870010376,12.004075050354,12.0042791366577,12.0044832229614,12.0046873092651,12.0048913955688,12.0050964355469,12.0053005218506,12.0055046081543,12.005708694458,12.0059127807617,12.0061178207397,12.0063219070435,12.0065259933472,12.0067300796509,12.0069351196289,12.0071392059326,12.0073432922363,12.0075483322144,12.0077524185181,12.0079565048218,12.0081615447998,12.0083656311035,12.0085697174072,12.0087747573853,12.008978843689,12.0091829299927,12.0093879699707,12.0095920562744,12.0097961425781,12.0100011825562,12.0102052688599,12.0104093551636,11.7913694381714,11.7915697097778,11.7917709350586,11.8660917282104,11.8662958145142,11.8664999008179,11.8667030334473,11.866904258728,11.8671064376831,11.8673086166382,11.8675107955933,11.8677129745483,11.8679151535034,11.8681173324585,11.8683195114136,11.8685216903687,11.8687238693237,11.8689250946045,11.8691272735596,11.8693294525146,11.8695316314697,11.8697338104248,11.8699359893799,11.870138168335,11.87034034729,11.8705425262451,11.8707447052002,11.8709468841553,11.8711490631104,11.8713512420654,11.8715524673462,11.8717546463013,11.8719568252563,11.8721590042114,11.8723611831665,11.8725633621216,11.8727655410767,11.8729677200317,11.8731698989868,11.8733730316162,11.8735752105713,11.8737773895264,11.8739795684814,11.8741817474365,11.8743839263916,11.8745861053467,11.8747882843018,11.8749904632568
9.9268102645874,9.92697906494141,9.92714691162109,9.9273157119751,9.9274845123291,9.92765331268311,9.92782211303711,9.9279899597168,9.9281587600708,9.9283275604248,9.92849636077881,9.92866516113281,9.92883396148682,9.9290018081665,9.92917060852051,9.92933940887451,9.92950820922852,9.92967700958252,9.92984580993652,9.93001461029053,9.93018341064453,9.93035125732422,9.93052005767822,9.93068885803223,9.93085765838623,9.93102645874023,9.93119525909424,9.93136405944824,9.93153285980225,9.93170166015625,9.93187046051025,9.93203926086426,9.93220806121826,9.93237686157227,9.93254566192627,9.93271446228027,9.93288326263428,9.93305110931396,9.93321990966797,9.93338966369629,9.93355751037598,9.9337272644043,9.93389511108398,9.9340648651123,9.93423366546631,9.93440246582031,9.93457126617432,9.93474006652832,9.93490886688232,10.0216131210327,10.1140623092651,10.208233833313,10.3041744232178,10.4019365310669,10.5015707015991,10.6031322479248,10.7066774368286,10.8122653961182,10.9199562072754,11.0298137664795,11.1419038772583,11.2562961578369,11.3730611801147,11.4922742843628,11.614013671875,11.7383375167847,11.8653430938721,11.9117288589478,11.9119319915771,11.9121341705322,11.9123363494873,11.9125394821167,11.9127416610718,11.9129447937012,11.9131469726562,11.9133501052856,11.9135522842407,11.9137554168701,11.9139585494995,11.9141607284546,11.914363861084,11.9145669937134,11.927845954895,11.9280500411987,11.9282531738281,11.9993419647217,11.9995460510254,11.9997501373291,11.9999542236328,12.0001583099365,12.0003623962402,12.0005664825439,12.0007705688477,12.0009746551514,12.0011787414551,12.0013828277588,12.0015869140625,12.0017919540405,12.0019960403442,12.0022001266479,12.0024042129517,12.0026082992554,12.0028123855591,12.0030164718628,12.0032205581665,12.0034255981445,12.0036296844482,12.003833770752,12.0040378570557,12.0042419433594,12.0044460296631,12.0046510696411,12.0048551559448,12.0050592422485,12.0052633285522,12.005467414856,12.005672454834,12.0058765411377,12.0060806274414,12.0062847137451,12.0064897537231,12.0066938400269,12.0068979263306,12.0071020126343,12.0073070526123,12.007511138916,12.0077152252197,12.0079202651978,12.0081243515015,12.0083284378052,12.0085325241089,12.0087366104126,11.7897272109985,11.7899284362793,11.7901287078857,11.8644390106201,11.8646430969238,11.8648471832275,11.8650503158569,11.865252494812,11.8654537200928,11.8656558990479,11.8658580780029,11.866060256958,11.8662624359131,11.8664646148682,11.8666667938232,11.866868019104,11.8670701980591,11.8672723770142,11.8674745559692,11.8676767349243,11.8678789138794,11.8680801391602,11.8682823181152,11.8684844970703,11.8686866760254,11.8688888549805,11.8690910339355,11.8692932128906,11.8694944381714,11.8696966171265,11.8698987960815,11.8701009750366,11.8703031539917,11.8705053329468,11.8707075119019,11.8709096908569,11.871111869812,11.8713140487671,11.8715162277222,11.8717184066772,11.8719205856323,11.8721227645874,11.8723249435425,11.8725271224976,11.8727293014526,11.8729314804077,11.8731336593628,11.8733358383179
9.92543125152588,9.92560005187988,9.92576789855957,9.92593669891357,9.92610549926758,9.92627429962158,9.92644214630127,9.92661094665527,9.92677974700928,9.92694854736328,9.92711639404297,9.92728519439697,9.92745399475098,9.92762279510498,9.92779159545898,9.92795944213867,9.92812824249268,9.92829704284668,9.92846584320068,9.92863464355469,9.92880344390869,9.92897129058838,9.92914009094238,9.92930889129639,9.92947769165039,9.92964649200439,9.9298152923584,9.9299840927124,9.93015193939209,9.93032073974609,9.9304895401001,9.9306583404541,9.93082714080811,9.93099594116211,9.93116474151611,9.93133354187012,9.93150234222412,9.93167114257812,9.93183994293213,9.93200874328613,9.93217754364014,9.93234539031982,9.93251419067383,9.93268299102783,9.93285179138184,9.93302059173584,9.93318939208984,9.93335819244385,9.93352699279785,10.021279335022,10.1137228012085,10.2078876495361,10.3038215637207,10.4015769958496,10.5012044906616,10.6027584075928,10.7062969207764,10.8118762969971,10.9195594787598,11.0294094085693,11.1414909362793,11.2558746337891,11.372631072998,11.4918355941772,11.6135654449463,11.7378816604614,11.8648767471313,11.9100723266602,11.9102745056152,11.9104776382446,11.9106798171997,11.9108819961548,11.9110851287842,11.9112873077393,11.9114904403687,11.9116926193237,11.9118957519531,11.9120979309082,11.9123010635376,11.9125032424927,11.9127063751221,11.9129095077515,11.9261865615845,11.9263906478882,11.9265937805176,11.997673034668,11.9978761672974,11.9980802536011,11.9982843399048,11.9984884262085,11.9986925125122,11.9988965988159,11.9991006851196,11.9993047714233,11.9995088577271,11.9997129440308,11.9999170303345,12.0001211166382,12.0003252029419,12.0005302429199,12.0007343292236,12.0009384155273,12.0011425018311,12.0013465881348,12.0015506744385,12.0017547607422,12.0019588470459,12.0021629333496,12.0023670196533,12.002571105957,12.0027751922607,12.0029802322388,12.0031843185425,12.0033884048462,12.0035924911499,12.0037965774536,12.0040006637573,12.0042057037354,12.0044097900391,12.0046138763428,12.0048179626465,12.0050220489502,12.0052270889282,12.0054311752319,12.0056352615356,12.0058393478394,12.0060434341431,12.0062484741211,12.0064525604248,12.0066566467285,12.0068607330322,12.0070648193359,11.7880859375,11.7882862091064,11.7884874343872,11.8627872467041,11.8629913330078,11.8631954193115,11.8633975982666,11.8635997772217,11.8638019561768,11.8640041351318,11.8642063140869,11.8644075393677,11.8646097183228,11.8648118972778,11.8650140762329,11.865216255188,11.8654174804688,11.8656196594238,11.8658218383789,11.866024017334,11.8662252426147,11.8664274215698,11.8666296005249,11.86683177948,11.8670339584351,11.8672351837158,11.8674373626709,11.867639541626,11.8678417205811,11.8680438995361,11.8682460784912,11.868447303772,11.8686494827271,11.8688516616821,11.8690538406372,11.8692560195923,11.8694581985474,11.8696603775024,11.8698625564575,11.8700647354126,11.8702659606934,11.8704681396484,11.8706703186035,11.8708724975586,11.8710746765137,11.8712768554688,11.8714790344238,11.8716812133789
9.92405223846436,9.92422103881836,9.92438983917236,9.92455768585205,9.92472648620605,9.92489528656006,9.92506313323975,9.92523193359375,9.92540073394775,9.92556953430176,9.92573738098145,9.92590618133545,9.92607498168945,9.92624378204346,9.92641162872314,9.92658042907715,9.92674922943115,9.92691802978516,9.92708587646484,9.92725467681885,9.92742347717285,9.92759227752686,9.92776107788086,9.92792892456055,9.92809772491455,9.92826652526855,9.92843532562256,9.92860412597656,9.92877197265625,9.92894077301025,9.92910957336426,9.92927837371826,9.92944717407227,9.92961597442627,9.92978477478027,9.92995357513428,9.93012142181396,9.93029022216797,9.93045902252197,9.93062782287598,9.93079662322998,9.93096542358398,9.93113422393799,9.93130302429199,9.931471824646,9.931640625,9.931809425354,9.93197727203369,9.9321460723877,10.0209455490112,10.1133823394775,10.207540512085,10.3034687042236,10.4012174606323,10.5008373260498,10.6023855209351,10.7059154510498,10.8114881515503,10.9191637039185,11.0290050506592,11.1410789489746,11.2554540634155,11.3722019195557,11.4913969039917,11.6131172180176,11.7374248504639,11.8644104003906,11.9084167480469,11.908618927002,11.908821105957,11.9090232849121,11.9092254638672,11.9094285964966,11.9096307754517,11.9098329544067,11.9100360870361,11.9102382659912,11.9104413986206,11.9106435775757,11.9108467102051,11.9110488891602,11.9112520217896,11.9245281219482,11.9247312545776,11.924934387207,11.9960041046143,11.996208190918,11.9964113235474,11.9966154098511,11.9968194961548,11.9970235824585,11.9972276687622,11.9974317550659,11.9976358413696,11.9978399276733,11.9980440139771,11.9982481002808,11.9984521865845,11.9986562728882,11.9988603591919,11.9990644454956,11.9992685317993,11.999472618103,11.9996767044067,11.9998807907104,12.0000848770142,12.0002889633179,12.0004930496216,12.0006971359253,12.000901222229,12.0011053085327,12.0013093948364,12.0015134811401,12.0017175674438,12.0019216537476,12.0021266937256,12.0023307800293,12.002534866333,12.0027389526367,12.0029430389404,12.0031471252441,12.0033512115479,12.0035552978516,12.0037603378296,12.0039644241333,12.004168510437,12.0043725967407,12.0045766830444,12.0047817230225,12.0049858093262,12.0051898956299,12.0053939819336,11.7864446640015,11.7866458892822,11.7868461608887,11.8611354827881,11.8613395690918,11.8615436553955,11.8617458343506,11.8619480133057,11.8621501922607,11.8623523712158,11.8625535964966,11.8627557754517,11.8629579544067,11.8631601333618,11.8633613586426,11.8635635375977,11.8637657165527,11.8639678955078,11.8641691207886,11.8643712997437,11.8645734786987,11.8647747039795,11.8649768829346,11.8651790618896,11.8653812408447,11.8655824661255,11.8657846450806,11.8659868240356,11.8661890029907,11.8663911819458,11.8665924072266,11.8667945861816,11.8669967651367,11.8671989440918,11.8674011230469,11.8676023483276,11.8678045272827,11.8680067062378,11.8682088851929,11.8684110641479,11.868613243103,11.8688144683838,11.8690166473389,11.8692188262939,11.869421005249,11.8696231842041,11.8698253631592,11.8700275421143
9.92267417907715,9.92284297943115,9.92301082611084,9.92317962646484,9.92334842681885,9.92351627349854,9.92368507385254,9.92385387420654,9.92402172088623,9.92419052124023,9.92435932159424,9.92452716827393,9.92469596862793,9.92486476898193,9.92503261566162,9.92520141601562,9.92537021636963,9.92553901672363,9.92570686340332,9.92587566375732,9.92604446411133,9.92621326446533,9.92638111114502,9.92654991149902,9.92671871185303,9.92688751220703,9.92705535888672,9.92722415924072,9.92739295959473,9.92756175994873,9.92773056030273,9.92789840698242,9.92806720733643,9.92823600769043,9.92840480804443,9.92857360839844,9.92874145507812,9.92891025543213,9.92907905578613,9.92924785614014,9.92941665649414,9.92958545684814,9.92975425720215,9.92992210388184,9.93009090423584,9.93025970458984,9.93042850494385,9.93059730529785,9.93076610565186,10.0206117630005,10.1130428314209,10.2071943283081,10.3031158447266,10.400857925415,10.5004711151123,10.602011680603,10.7055349349976,10.8110990524292,10.9187669754028,11.028600692749,11.1406660079956,11.2550325393677,11.371771812439,11.4909572601318,11.6126689910889,11.7369689941406,11.8639440536499,11.9067602157593,11.9069623947144,11.9071655273438,11.9073677062988,11.9075698852539,11.907772064209,11.9079742431641,11.9081773757935,11.9083795547485,11.9085826873779,11.908784866333,11.9089879989624,11.9091901779175,11.9093923568726,11.909595489502,11.922869682312,11.9230728149414,11.9232759475708,11.9943351745605,11.9945392608643,11.994743347168,11.9949474334717,11.9951515197754,11.9953546524048,11.9955587387085,11.9957628250122,11.9959669113159,11.9961709976196,11.9963750839233,11.9965791702271,11.9967832565308,11.9969873428345,11.9971914291382,11.9973945617676,11.9975986480713,11.997802734375,11.9980068206787,11.9982109069824,11.9984149932861,11.9986190795898,11.9988231658936,11.9990272521973,11.999231338501,11.9994354248047,11.9996395111084,11.9998435974121,12.0000476837158,12.0002517700195,12.0004558563232,12.000659942627,12.0008640289307,12.0010690689087,12.0012731552124,12.0014772415161,12.0016813278198,12.0018854141235,12.0020895004272,12.002293586731,12.0024976730347,12.0027017593384,12.0029058456421,12.0031108856201,12.0033149719238,12.0035181045532,12.0037221908569,11.7848043441772,11.7850046157837,11.7852058410645,11.8594846725464,11.8596887588501,11.8598928451538,11.8600950241089,11.860297203064,11.8604984283447,11.8607006072998,11.8609027862549,11.8611040115356,11.8613061904907,11.8615083694458,11.8617105484009,11.8619117736816,11.8621139526367,11.8623161315918,11.8625173568726,11.8627195358276,11.8629217147827,11.8631229400635,11.8633251190186,11.8635272979736,11.8637285232544,11.8639307022095,11.8641328811646,11.8643341064453,11.8645362854004,11.8647384643555,11.8649406433105,11.8651418685913,11.8653440475464,11.8655462265015,11.8657484054565,11.8659496307373,11.8661518096924,11.8663539886475,11.8665561676025,11.8667573928833,11.8669595718384,11.8671617507935,11.8673639297485,11.8675661087036,11.8677682876587,11.8679695129395,11.8681716918945,11.8683738708496
9.92129611968994,9.92146492004395,9.92163372039795,9.92180156707764,9.92197036743164,9.92213821411133,9.92230701446533,9.92247581481934,9.92264366149902,9.92281246185303,9.92298030853271,9.92314910888672,9.92331790924072,9.92348575592041,9.92365455627441,9.92382335662842,9.92399120330811,9.92416000366211,9.92432880401611,9.9244966506958,9.9246654510498,9.92483425140381,9.9250020980835,9.9251708984375,9.9253396987915,9.92550849914551,9.9256763458252,9.9258451461792,9.9260139465332,9.92618179321289,9.92635059356689,9.9265193939209,9.9266881942749,9.92685699462891,9.92702484130859,9.9271936416626,9.9273624420166,9.92753124237061,9.92769908905029,9.9278678894043,9.9280366897583,9.9282054901123,9.92837429046631,9.92854309082031,9.9287109375,9.928879737854,9.92904853820801,9.92921733856201,9.92952728271484,10.0202779769897,10.1127023696899,10.2068481445312,10.3027629852295,10.4004983901978,10.5001049041748,10.601637840271,10.705153465271,10.8107109069824,10.9183712005615,11.0281963348389,11.1402540206909,11.2546119689941,11.3713417053223,11.4905185699463,11.6122207641602,11.7365131378174,11.8634786605835,11.9051055908203,11.9053077697754,11.9055099487305,11.9057121276855,11.9059143066406,11.9061164855957,11.9063186645508,11.9065217971802,11.9067239761353,11.9069261550903,11.9071292877197,11.9073314666748,11.9075345993042,11.9077367782593,11.9079389572144,11.9212121963501,11.9214153289795,11.9216184616089,11.9926671981812,11.9928712844849,11.9930753707886,11.9932794570923,11.9934825897217,11.9936866760254,11.9938907623291,11.9940948486328,11.9942989349365,11.9945030212402,11.9947061538696,11.9949102401733,11.9951143264771,11.9953184127808,11.9955224990845,11.9957265853882,11.9959306716919,11.9961338043213,11.996337890625,11.9965419769287,11.9967460632324,11.9969501495361,11.9971542358398,11.9973583221436,11.9975624084473,11.997766494751,11.9979705810547,11.9981746673584,11.9983787536621,11.9985828399658,11.9987869262695,11.9989910125732,11.999195098877,11.9993991851807,11.9996032714844,11.9998073577881,12.0000114440918,12.0002155303955,12.0004196166992,12.0006237030029,12.0008277893066,12.0010318756104,12.0012359619141,12.0014400482178,12.0016441345215,12.0018482208252,12.0020523071289,11.783164024353,11.7833642959595,11.7835655212402,11.8578338623047,11.8580379486084,11.8582420349121,11.8584442138672,11.8586463928223,11.858847618103,11.8590497970581,11.8592519760132,11.8594532012939,11.859655380249,11.8598575592041,11.8600587844849,11.8602609634399,11.8604621887207,11.8606643676758,11.8608665466309,11.8610677719116,11.8612699508667,11.8614711761475,11.8616733551025,11.8618755340576,11.8620767593384,11.8622789382935,11.8624811172485,11.8626823425293,11.8628845214844,11.8630867004395,11.8632879257202,11.8634901046753,11.8636922836304,11.8638935089111,11.8640956878662,11.8642978668213,11.8644990921021,11.8647012710571,11.8649034500122,11.8651056289673,11.865306854248,11.8655090332031,11.8657112121582,11.8659133911133,11.866114616394,11.8663167953491,11.8665189743042,11.8667211532593
9.91991901397705,9.92008781433105,9.92025566101074,9.92042446136475,9.92059230804443,9.92076110839844,9.92092895507812,9.92109775543213,9.92126560211182,9.92143440246582,9.92160320281982,9.92177104949951,9.92193984985352,9.9221076965332,9.92227649688721,9.92244529724121,9.9226131439209,9.9227819442749,9.92294979095459,9.92311859130859,9.9232873916626,9.92345523834229,9.92362403869629,9.92379283905029,9.92396068572998,9.92412948608398,9.92429828643799,9.92446613311768,9.92463493347168,9.92480373382568,9.92497158050537,9.92514038085938,9.92530918121338,9.92547798156738,9.92564582824707,9.92581462860107,9.92598342895508,9.92615127563477,9.92632007598877,9.92648887634277,9.92665767669678,9.92682552337646,9.92699432373047,9.92716312408447,9.92733192443848,9.92750072479248,9.92766857147217,9.92783737182617,9.92920017242432,10.019944190979,10.1123628616333,10.2065019607544,10.3024101257324,10.4001388549805,10.4997386932373,10.601263999939,10.7047729492188,10.8103227615356,10.9179744720459,11.0277919769287,11.1398410797119,11.2541904449463,11.3709125518799,11.4900798797607,11.6117725372314,11.7360572814941,11.8630123138428,11.903450012207,11.9036521911621,11.9038553237915,11.9040575027466,11.9042596817017,11.9044618606567,11.9046640396118,11.9048662185669,11.905068397522,11.9052715301514,11.9054737091064,11.9056758880615,11.9058790206909,11.906081199646,11.9062833786011,11.9195547103882,11.9197578430176,11.919960975647,11.9910001754761,11.9912042617798,11.9914073944092,11.9916114807129,11.9918155670166,11.9920196533203,11.9922227859497,11.9924268722534,11.9926309585571,11.9928350448608,11.9930381774902,11.9932422637939,11.9934463500977,11.9936504364014,11.9938545227051,11.9940576553345,11.9942617416382,11.9944658279419,11.9946699142456,11.9948740005493,11.995078086853,11.9952812194824,11.9954853057861,11.9956893920898,11.9958934783936,11.9960975646973,11.996301651001,11.9965057373047,11.9967098236084,11.9969139099121,11.9971170425415,11.9973211288452,11.9975252151489,11.9977293014526,11.9979333877563,11.9981374740601,11.9983415603638,11.9985456466675,11.9987497329712,11.9989538192749,11.9991579055786,11.9993619918823,11.999566078186,11.9997701644897,11.9999742507935,12.0001783370972,12.0003824234009,11.7815246582031,11.7817249298096,11.7819261550903,11.8561840057373,11.856388092041,11.8565921783447,11.8567943572998,11.8569955825806,11.8571977615356,11.8573989868164,11.8576011657715,11.8578033447266,11.8580045700073,11.8582067489624,11.8584079742432,11.8586101531982,11.858811378479,11.8590135574341,11.8592157363892,11.8594169616699,11.859619140625,11.8598203659058,11.8600225448608,11.8602237701416,11.8604259490967,11.8606271743774,11.8608293533325,11.8610315322876,11.8612327575684,11.8614349365234,11.8616361618042,11.8618383407593,11.8620405197144,11.8622417449951,11.8624439239502,11.8626461029053,11.862847328186,11.8630495071411,11.8632516860962,11.863452911377,11.863655090332,11.8638572692871,11.8640584945679,11.8642606735229,11.864462852478,11.8646640777588,11.8648662567139,11.8650684356689
9.91854190826416,9.91870975494385,9.91887855529785,9.91904640197754,9.91921520233154,9.91938400268555,9.91955184936523,9.91972064971924,9.91988849639893,9.92005729675293,9.92022514343262,9.92039394378662,9.92056179046631,9.92073059082031,9.9208984375,9.921067237854,9.92123508453369,9.9214038848877,9.9215726852417,9.92174053192139,9.92190933227539,9.92207717895508,9.92224597930908,9.92241477966309,9.92258262634277,9.92275142669678,9.92291927337646,9.92308807373047,9.92325687408447,9.92342472076416,9.92359352111816,9.92376232147217,9.92393016815186,9.92409896850586,9.92426776885986,9.92443561553955,9.92460441589355,9.92477321624756,9.92494106292725,9.92510986328125,9.92527866363525,9.92544651031494,9.92561531066895,9.92578411102295,9.92595291137695,9.92612075805664,9.92628955841064,9.92645835876465,9.92887210845947,10.0196104049683,10.1120233535767,10.2061557769775,10.3020582199097,10.3997793197632,10.4993715286255,10.6008911132812,10.7043924331665,10.8099346160889,10.9175786972046,11.0273876190186,11.1394290924072,11.2537698745728,11.3704824447632,11.4896411895752,11.6113243103027,11.7356014251709,11.8625469207764,11.9017963409424,11.9019985198975,11.9022006988525,11.9024028778076,11.9026050567627,11.9028072357178,11.9030094146729,11.9032115936279,11.903413772583,11.9036159515381,11.9038181304932,11.9040212631226,11.9042234420776,11.9044256210327,11.9046287536621,11.9178972244263,11.9181003570557,11.9183034896851,11.989333152771,11.9895372390747,11.9897403717041,11.9899444580078,11.9901485443115,11.9903516769409,11.9905557632446,11.9907598495483,11.9909629821777,11.9911670684814,11.9913711547852,11.9915752410889,11.9917783737183,11.991982460022,11.9921865463257,11.9923906326294,11.9925937652588,11.9927978515625,11.9930019378662,11.9932060241699,11.9934091567993,11.993613243103,11.9938173294067,11.9940214157104,11.9942255020142,11.9944286346436,11.9946327209473,11.994836807251,11.9950408935547,11.9952449798584,11.9954490661621,11.9956531524658,11.9958562850952,11.9960603713989,11.9962644577026,11.9964685440063,11.9966726303101,11.9968767166138,11.9970808029175,11.9972848892212,11.9974889755249,11.9976930618286,11.9978971481323,11.998101234436,11.9983043670654,11.9985084533691,11.9987125396729,11.7798852920532,11.7800855636597,11.7802867889404,11.8545341491699,11.8547382354736,11.8549423217773,11.8551445007324,11.8553457260132,11.8555479049683,11.855749130249,11.8559513092041,11.8561525344849,11.8563547134399,11.8565559387207,11.8567581176758,11.8569593429565,11.8571615219116,11.8573627471924,11.8575649261475,11.8577661514282,11.8579683303833,11.8581695556641,11.8583717346191,11.8585729598999,11.858775138855,11.8589763641357,11.8591785430908,11.8593797683716,11.8595819473267,11.8597841262817,11.8599853515625,11.8601875305176,11.8603887557983,11.8605909347534,11.8607921600342,11.8609943389893,11.8611965179443,11.8613977432251,11.8615999221802,11.8618011474609,11.862003326416,11.8622055053711,11.8624067306519,11.8626089096069,11.862811088562,11.8630123138428,11.8632144927979,11.8634166717529
9.91716480255127,9.91733360290527,9.91750144958496,9.91767024993896,9.91783809661865,9.91800689697266,9.91817474365234,9.91834354400635,9.91851139068604,9.91868019104004,9.91884803771973,9.91901683807373,9.91918468475342,9.91935253143311,9.91952133178711,9.9196891784668,9.9198579788208,9.9200267791748,9.92019462585449,9.9203634262085,9.92053127288818,9.92070007324219,9.92086791992188,9.92103672027588,9.92120456695557,9.92137336730957,9.92154216766357,9.92171001434326,9.92187881469727,9.92204666137695,9.92221546173096,9.92238330841064,9.92255210876465,9.92272090911865,9.92288875579834,9.92305755615234,9.92322635650635,9.92339420318604,9.92356300354004,9.92373180389404,9.92389965057373,9.92406845092773,9.92423725128174,9.92440509796143,9.92457389831543,9.92474269866943,9.92491054534912,9.92507934570312,9.92854404449463,10.0192766189575,10.1116828918457,10.2058095932007,10.3017053604126,10.3994197845459,10.499005317688,10.6005172729492,10.7040109634399,10.8095455169678,10.917181968689,11.0269832611084,11.1390161514282,11.2533483505249,11.3700523376465,11.4892024993896,11.610876083374,11.7351446151733,11.8620805740356,11.9001417160034,11.9003438949585,11.9005460739136,11.9007482528687,11.9009504318237,11.9011526107788,11.9013547897339,11.901556968689,11.901759147644,11.9019613265991,11.9021644592285,11.9023666381836,11.9025688171387,11.9027709960938,11.9029731750488,11.9162406921387,11.9164438247681,11.9166469573975,11.9876661300659,11.9878702163696,11.9880743026733,11.9882774353027,11.9884815216064,11.9886856079102,11.9888887405396,11.9890928268433,11.9892959594727,11.9895000457764,11.9897041320801,11.9899072647095,11.9901113510132,11.9903154373169,11.9905185699463,11.99072265625,11.9909267425537,11.9911308288574,11.9913339614868,11.9915380477905,11.9917421340942,11.9919462203979,11.9921493530273,11.9923534393311,11.9925575256348,11.9927616119385,11.9929647445679,11.9931688308716,11.9933729171753,11.993577003479,11.9937801361084,11.9939842224121,11.9941883087158,11.9943923950195,11.9945964813232,11.994800567627,11.9950037002563,11.9952077865601,11.9954118728638,11.9956159591675,11.9958200454712,11.9960241317749,11.9962282180786,11.9964323043823,11.9966354370117,11.9968395233154,11.9970436096191,11.7782459259033,11.7784471511841,11.7786474227905,11.8528852462769,11.8530893325806,11.85329246521,11.853494644165,11.8536968231201,11.8538980484009,11.854100227356,11.8543014526367,11.8545036315918,11.8547048568726,11.8549060821533,11.8551082611084,11.8553094863892,11.8555116653442,11.855712890625,11.8559150695801,11.8561162948608,11.8563184738159,11.8565196990967,11.8567218780518,11.8569231033325,11.8571243286133,11.8573265075684,11.8575277328491,11.8577299118042,11.857931137085,11.85813331604,11.8583345413208,11.8585367202759,11.8587379455566,11.8589401245117,11.8591413497925,11.8593435287476,11.8595447540283,11.8597469329834,11.8599481582642,11.8601503372192,11.8603525161743,11.8605537414551,11.8607559204102,11.8609571456909,11.861159324646,11.8613615036011,11.8615627288818,11.8617649078369
9.9157886505127,9.9159574508667,9.91612529754639,9.91629314422607,9.91646194458008,9.91662979125977,9.91679859161377,9.91696643829346,9.91713428497314,9.91730308532715,9.91747093200684,9.91763973236084,9.91780757904053,9.91797637939453,9.91814422607422,9.91831302642822,9.91848087310791,9.91864967346191,9.9188175201416,9.91898536682129,9.91915416717529,9.91932201385498,9.91949081420898,9.91965961456299,9.91982746124268,9.91999626159668,9.92016410827637,9.92033290863037,9.92050075531006,9.92066955566406,9.92083740234375,9.92100620269775,9.92117404937744,9.92134284973145,9.92151069641113,9.92167949676514,9.92184829711914,9.92201614379883,9.92218494415283,9.92235279083252,9.92252159118652,9.92269039154053,9.92285823822021,9.92302703857422,9.92319583892822,9.92336368560791,9.92353248596191,9.92370128631592,9.9282169342041,10.0189437866211,10.1113433837891,10.2054634094238,10.3013525009155,10.3990602493286,10.4986391067505,10.6001434326172,10.7036304473877,10.809157371521,10.9167861938477,11.0265798568726,11.1386041641235,11.2529277801514,11.3696231842041,11.4887638092041,11.6104278564453,11.7346887588501,11.8616151809692,11.8984889984131,11.8986902236938,11.8988924026489,11.899094581604,11.8992967605591,11.8994989395142,11.8997011184692,11.8999032974243,11.9001054763794,11.9003076553345,11.9005098342896,11.9007120132446,11.9009141921997,11.9011173248291,11.9013195037842,11.9145851135254,11.9147872924805,11.9149904251099,11.9860010147095,11.9862041473389,11.9864082336426,11.986611366272,11.9868154525757,11.9870185852051,11.9872226715088,11.9874258041382,11.9876298904419,11.9878339767456,11.988037109375,11.9882411956787,11.9884443283081,11.9886484146118,11.9888525009155,11.9890556335449,11.9892597198486,11.9894638061523,11.9896669387817,11.9898710250854,11.9900751113892,11.9902782440186,11.9904823303223,11.990686416626,11.9908895492554,11.9910936355591,11.9912977218628,11.9915018081665,11.9917049407959,11.9919090270996,11.9921131134033,11.9923162460327,11.9925203323364,11.9927244186401,11.9929285049438,11.9931325912476,11.993335723877,11.9935398101807,11.9937438964844,11.9939479827881,11.9941520690918,11.9943552017212,11.9945592880249,11.9947633743286,11.9949674606323,11.9951705932617,11.9953746795654,11.7766084671021,11.7768087387085,11.7770090103149,11.8512363433838,11.8514404296875,11.8516435623169,11.851845741272,11.8520479202271,11.8522491455078,11.8524503707886,11.8526525497437,11.8528537750244,11.8530559539795,11.8532571792603,11.853458404541,11.8536605834961,11.8538618087769,11.8540639877319,11.8542652130127,11.8544664382935,11.8546686172485,11.8548698425293,11.8550720214844,11.8552732467651,11.8554744720459,11.855676651001,11.8558778762817,11.8560800552368,11.8562812805176,11.8564825057983,11.8566846847534,11.8568859100342,11.8570880889893,11.85728931427,11.8574914932251,11.8576927185059,11.8578948974609,11.8580961227417,11.8582983016968,11.8584995269775,11.8587017059326,11.8589029312134,11.8591051101685,11.8593063354492,11.8595085144043,11.8597097396851,11.8599119186401,11.8601131439209
9.91441249847412,9.91458129882812,9.91474914550781,9.9149169921875,9.9150857925415,9.91525363922119,9.9154224395752,9.91559028625488,9.91575813293457,9.91592693328857,9.91609477996826,9.91626262664795,9.91643142700195,9.91659927368164,9.91676807403564,9.91693592071533,9.91710376739502,9.91727256774902,9.91744041442871,9.91760921478271,9.9177770614624,9.91794586181641,9.91811370849609,9.9182825088501,9.91845035552979,9.91861915588379,9.91878700256348,9.91895580291748,9.91912364959717,9.91929149627686,9.91946029663086,9.91962909698486,9.91979694366455,9.91996574401855,9.92013359069824,9.92030239105225,9.92047023773193,9.92063903808594,9.92080688476562,9.92097568511963,9.92114353179932,9.92131233215332,9.92148113250732,9.92164897918701,9.92181777954102,9.9219856262207,9.92215442657471,9.92232227325439,9.92788887023926,10.0186100006104,10.1110038757324,10.205117225647,10.3009996414185,10.3987007141113,10.498272895813,10.5997705459595,10.7032499313354,10.8087692260742,10.916389465332,11.0261754989624,11.1381912231445,11.2525072097778,11.3691930770874,11.4883251190186,11.6099796295166,11.7342329025269,11.8611488342285,11.8968353271484,11.8970375061035,11.8972396850586,11.8974418640137,11.8976440429688,11.8978452682495,11.8980474472046,11.8982496261597,11.8984518051147,11.8986539840698,11.8988561630249,11.89905834198,11.8992605209351,11.8994626998901,11.8996658325195,11.9129295349121,11.9131317138672,11.9133348464966,11.9843349456787,11.9845390319824,11.9847421646118,11.9849452972412,11.9851493835449,11.9853525161743,11.985556602478,11.9857606887817,11.9859638214111,11.9861679077148,11.9863710403442,11.9865751266479,11.9867782592773,11.9869823455811,11.9871854782104,11.9873895645142,11.9875936508179,11.9877967834473,11.988000869751,11.9882040023804,11.9884080886841,11.9886121749878,11.9888153076172,11.9890193939209,11.9892225265503,11.989426612854,11.9896306991577,11.9898338317871,11.9900379180908,11.9902420043945,11.9904451370239,11.9906492233276,11.9908533096313,11.9910573959351,11.9912605285645,11.9914646148682,11.9916687011719,11.9918718338013,11.992075920105,11.9922800064087,11.9924840927124,11.9926872253418,11.9928913116455,11.9930953979492,11.9932994842529,11.9935026168823,11.993706703186,11.7749700546265,11.7751703262329,11.7753715515137,11.849588394165,11.8497915267944,11.8499956130981,11.8501977920532,11.850399017334,11.8506002426147,11.8508024215698,11.8510036468506,11.8512048721313,11.8514070510864,11.8516082763672,11.8518104553223,11.852011680603,11.8522129058838,11.8524150848389,11.8526163101196,11.8528175354004,11.8530197143555,11.8532209396362,11.853422164917,11.8536243438721,11.8538255691528,11.8540267944336,11.8542289733887,11.8544301986694,11.8546314239502,11.8548336029053,11.855034828186,11.8552360534668,11.8554382324219,11.8556394577026,11.8558416366577,11.8560428619385,11.8562440872192,11.8564462661743,11.8566474914551,11.8568496704102,11.8570508956909,11.857253074646,11.8574542999268,11.8576564788818,11.8578577041626,11.8580598831177,11.8582611083984,11.8584632873535
9.91303730010986,9.91320514678955,9.91337394714355,9.91354179382324,9.91370964050293,9.91387844085693,9.91404628753662,9.91421413421631,9.91438293457031,9.91455078125,9.91471862792969,9.91488647460938,9.91505527496338,9.91522312164307,9.91539192199707,9.91555976867676,9.91572761535645,9.91589641571045,9.91606426239014,9.91623210906982,9.91640090942383,9.91656875610352,9.91673755645752,9.91690540313721,9.91707324981689,9.9172420501709,9.91740989685059,9.91757869720459,9.91774654388428,9.91791534423828,9.91808319091797,9.91825199127197,9.91841983795166,9.91858863830566,9.91875648498535,9.91892433166504,9.91909313201904,9.91926097869873,9.91942977905273,9.91959762573242,9.91976642608643,9.91993522644043,9.92010307312012,9.92027187347412,9.92043972015381,9.92060852050781,9.9207763671875,9.9209451675415,9.92756175994873,10.0182762145996,10.1106634140015,10.2047710418701,10.3006467819214,10.398341178894,10.4979066848755,10.5993967056274,10.7028684616089,10.8083810806274,10.9159936904907,11.0257711410522,11.1377792358398,11.2520866394043,11.368763923645,11.487886428833,11.6095323562622,11.7337770462036,11.8606834411621,11.8951826095581,11.8953847885132,11.8955869674683,11.8957891464233,11.8959913253784,11.8961925506592,11.8963947296143,11.8965969085693,11.8967990875244,11.8970012664795,11.8972034454346,11.8974056243896,11.8976078033447,11.8978099822998,11.8980121612549,11.9112739562988,11.9114770889282,11.9116792678833,11.9826698303223,11.9828729629517,11.9830770492554,11.9832801818848,11.9834842681885,11.9836874008179,11.9838914871216,11.984094619751,11.9842987060547,11.9845018386841,11.9847059249878,11.9849090576172,11.9851131439209,11.9853162765503,11.985520362854,11.9857234954834,11.9859275817871,11.9861307144165,11.9863348007202,11.9865379333496,11.9867420196533,11.9869451522827,11.9871492385864,11.9873523712158,11.9875564575195,11.9877605438232,11.9879636764526,11.9881677627563,11.9883708953857,11.9885749816895,11.9887790679932,11.9889822006226,11.9891862869263,11.98939037323,11.9895935058594,11.9897975921631,11.9900016784668,11.9902048110962,11.9904088973999,11.9906129837036,11.990816116333,11.9910202026367,11.9912242889404,11.9914274215698,11.9916315078735,11.9918346405029,11.9920387268066,11.7733325958252,11.7735328674316,11.7737340927124,11.8479404449463,11.84814453125,11.8483476638794,11.8485498428345,11.8487510681152,11.848952293396,11.8491544723511,11.8493556976318,11.8495569229126,11.8497581481934,11.8499603271484,11.8501615524292,11.85036277771,11.850564956665,11.8507661819458,11.8509674072266,11.8511695861816,11.8513708114624,11.8515720367432,11.8517732620239,11.851975440979,11.8521766662598,11.8523778915405,11.8525791168213,11.8527812957764,11.8529825210571,11.8531837463379,11.853385925293,11.8535871505737,11.8537883758545,11.8539905548096,11.8541917800903,11.8543930053711,11.8545951843262,11.8547964096069,11.8549976348877,11.8551998138428,11.8554010391235,11.8556032180786,11.8558044433594,11.8560056686401,11.8562078475952,11.856409072876,11.8566112518311,11.8568124771118
9.91166210174561,9.91182994842529,9.9119987487793,9.91216659545898,9.91233444213867,9.91250228881836,9.91267108917236,9.91283893585205,9.91300678253174,9.91317462921143,9.91334342956543,9.91351127624512,9.9136791229248,9.91384792327881,9.9140157699585,9.91418361663818,9.91435241699219,9.91452026367188,9.91468811035156,9.91485691070557,9.91502475738525,9.91519260406494,9.91536140441895,9.91552925109863,9.91569709777832,9.91586589813232,9.91603374481201,9.91620254516602,9.9163703918457,9.91653823852539,9.91670703887939,9.91687488555908,9.91704368591309,9.91721153259277,9.91737937927246,9.91754817962646,9.91771602630615,9.91788482666016,9.91805267333984,9.91822147369385,9.91838932037354,9.91855812072754,9.91872596740723,9.91889381408691,9.91906261444092,9.91923046112061,9.91939926147461,9.9195671081543,9.92723369598389,10.0179424285889,10.1103239059448,10.2044248580933,10.3002939224243,10.3979816436768,10.497540473938,10.5990238189697,10.7024879455566,10.8079929351807,10.9155979156494,11.0253677368164,11.1373672485352,11.2516651153564,11.3683347702026,11.4874477386475,11.6090841293335,11.7333211898804,11.8602170944214,11.8935308456421,11.8937330245972,11.8939352035522,11.894136428833,11.8943386077881,11.8945407867432,11.8947429656982,11.894944190979,11.8951463699341,11.8953485488892,11.8955507278442,11.8957529067993,11.8959550857544,11.8961572647095,11.8963594436646,11.9096193313599,11.9098224639893,11.9100246429443,11.9810056686401,11.9812088012695,11.9814119338989,11.9816160202026,11.981819152832,11.9820222854614,11.9822263717651,11.9824295043945,11.9826335906982,11.9828367233276,11.983039855957,11.9832439422607,11.9834470748901,11.9836511611938,11.9838542938232,11.984058380127,11.9842615127563,11.9844655990601,11.9846687316895,11.9848728179932,11.9850759506226,11.9852800369263,11.9854831695557,11.9856872558594,11.9858903884888,11.9860944747925,11.9862976074219,11.9865016937256,11.986704826355,11.9869089126587,11.9871120452881,11.9873161315918,11.9875202178955,11.9877233505249,11.9879274368286,11.988130569458,11.9883346557617,11.9885387420654,11.9887418746948,11.9889459609985,11.9891490936279,11.9893531799316,11.9895572662354,11.9897603988647,11.9899644851685,11.9901676177979,11.9903717041016,11.7716960906982,11.7718963623047,11.7720966339111,11.8462934494019,11.8464965820312,11.846700668335,11.8469018936157,11.8471031188965,11.8473052978516,11.8475065231323,11.8477077484131,11.8479089736938,11.8481111526489,11.8483123779297,11.8485136032104,11.8487148284912,11.8489170074463,11.8491182327271,11.8493194580078,11.8495206832886,11.8497219085693,11.8499240875244,11.8501253128052,11.8503265380859,11.8505277633667,11.8507289886475,11.8509311676025,11.8511323928833,11.8513336181641,11.8515348434448,11.8517370223999,11.8519382476807,11.8521394729614,11.8523416519165,11.8525428771973,11.852744102478,11.8529453277588,11.8531475067139,11.8533487319946,11.8535499572754,11.8537521362305,11.8539533615112,11.854154586792,11.8543567657471,11.8545579910278,11.8547592163086,11.8549613952637,11.8551626205444
9.91028785705566,9.91045570373535,9.91062355041504,9.91079139709473,9.91095924377441,9.91112804412842,9.91129589080811,9.91146373748779,9.91163158416748,9.91179943084717,9.91196823120117,9.91213607788086,9.91230392456055,9.91247177124023,9.91264057159424,9.91280841827393,9.91297626495361,9.9131441116333,9.9133129119873,9.91348075866699,9.91364860534668,9.91381740570068,9.91398525238037,9.91415309906006,9.91432189941406,9.91448974609375,9.91465759277344,9.91482639312744,9.91499423980713,9.91516208648682,9.91533088684082,9.91549873352051,9.9156665802002,9.9158353805542,9.91600322723389,9.91617202758789,9.91633987426758,9.91650772094727,9.91667652130127,9.91684436798096,9.91701316833496,9.91718101501465,9.91734886169434,9.91751766204834,9.91768550872803,9.91785430908203,9.91802215576172,9.91819095611572,9.92690658569336,10.0176086425781,10.1099843978882,10.2040786743164,10.2999420166016,10.3976230621338,10.4971742630005,10.5986499786377,10.7021074295044,10.8076047897339,10.9152021408081,11.0249633789062,11.1369543075562,11.2512445449829,11.3679046630859,11.4870090484619,11.6086359024048,11.7328653335571,11.859751701355,11.8918790817261,11.8920812606812,11.8922834396362,11.892484664917,11.8926868438721,11.8928890228271,11.8930902481079,11.893292427063,11.8934946060181,11.8936958312988,11.8938980102539,11.894100189209,11.8943023681641,11.8945045471191,11.8947067260742,11.9079647064209,11.9081678390503,11.9083709716797,11.9793405532837,11.9795446395874,11.9797477722168,11.9799509048462,11.9801549911499,11.9803581237793,11.9805612564087,11.9807653427124,11.9809684753418,11.9811716079712,11.9813756942749,11.9815788269043,11.981782913208,11.9819860458374,11.9821891784668,11.9823932647705,11.9825963973999,11.9828004837036,11.983003616333,11.9832067489624,11.9834108352661,11.9836139678955,11.9838180541992,11.9840211868286,11.9842252731323,11.9844284057617,11.9846324920654,11.9848356246948,11.9850397109985,11.9852428436279,11.9854469299316,11.985650062561,11.9858541488647,11.9860572814941,11.9862613677979,11.9864645004272,11.986668586731,11.9868717193604,11.9870758056641,11.9872789382935,11.9874830245972,11.9876871109009,11.9878902435303,11.988094329834,11.9882974624634,11.9885015487671,11.9887046813965,11.7700595855713,11.7702598571777,11.7704601287842,11.8446464538574,11.8448495864868,11.8450536727905,11.8452548980713,11.8454561233521,11.8456573486328,11.8458595275879,11.8460607528687,11.8462619781494,11.8464632034302,11.8466644287109,11.8468656539917,11.8470678329468,11.8472690582275,11.8474702835083,11.8476715087891,11.8478727340698,11.8480749130249,11.8482761383057,11.8484773635864,11.8486785888672,11.8488798141479,11.8490810394287,11.8492832183838,11.8494844436646,11.8496856689453,11.8498868942261,11.8500881195068,11.8502893447876,11.8504915237427,11.8506927490234,11.8508939743042,11.851095199585,11.85129737854,11.8514986038208,11.8516998291016,11.8519010543823,11.8521032333374,11.8523044586182,11.8525056838989,11.852707862854,11.8529090881348,11.8531103134155,11.8533115386963,11.8535137176514
9.90891265869141,9.90908145904541,9.9092493057251,9.90941715240479,9.90958499908447,9.90975284576416,9.90992069244385,9.91008853912354,9.91025733947754,9.91042518615723,9.91059303283691,9.9107608795166,9.91092872619629,9.91109752655029,9.91126537322998,9.91143321990967,9.91160106658936,9.91176891326904,9.91193771362305,9.91210556030273,9.91227340698242,9.91244125366211,9.91261005401611,9.9127779006958,9.91294574737549,9.91311359405518,9.91328239440918,9.91345024108887,9.91361808776855,9.91378688812256,9.91395473480225,9.91412258148193,9.91429138183594,9.91445922851562,9.91462707519531,9.91479587554932,9.914963722229,9.91513156890869,9.9153003692627,9.91546821594238,9.91563606262207,9.91580486297607,9.91597270965576,9.91614151000977,9.91630935668945,9.91647720336914,9.91664600372314,9.91681385040283,9.92657947540283,10.0172758102417,10.1096448898315,10.2037324905396,10.2995891571045,10.3972635269165,10.496808052063,10.59827709198,10.7017269134521,10.8072156906128,10.9148063659668,11.0245590209961,11.1365423202515,11.2508239746094,11.3674755096436,11.4865703582764,11.6081876754761,11.7324085235596,11.8592863082886,11.8902282714844,11.8904304504395,11.8906316757202,11.8908338546753,11.8910350799561,11.8912372589111,11.8914394378662,11.891640663147,11.8918428421021,11.8920440673828,11.8922462463379,11.892448425293,11.892650604248,11.8928527832031,11.8930549621582,11.9063110351562,11.9065141677856,11.9067163467407,11.9776773452759,11.9778804779053,11.9780836105347,11.9782876968384,11.9784908294678,11.9786939620972,11.9788970947266,11.9791011810303,11.9793043136597,11.9795074462891,11.9797115325928,11.9799146652222,11.9801177978516,11.9803218841553,11.9805250167847,11.9807281494141,11.9809322357178,11.9811353683472,11.9813385009766,11.9815425872803,11.9817457199097,11.9819488525391,11.9821529388428,11.9823560714722,11.9825601577759,11.9827632904053,11.982967376709,11.9831705093384,11.9833736419678,11.9835777282715,11.9837808609009,11.9839849472046,11.984188079834,11.9843921661377,11.9845952987671,11.9847993850708,11.9850025177002,11.9852066040039,11.9854097366333,11.985613822937,11.9858169555664,11.9860210418701,11.9862241744995,11.9864282608032,11.9866313934326,11.986834526062,11.9870386123657,11.7684230804443,11.7686233520508,11.7688236236572,11.842999458313,11.8432035446167,11.8434066772461,11.8436088562012,11.8438100814819,11.8440113067627,11.8442125320435,11.8444137573242,11.844614982605,11.8448162078857,11.8450174331665,11.8452186584473,11.8454208374023,11.8456220626831,11.8458232879639,11.8460245132446,11.8462257385254,11.8464269638062,11.8466281890869,11.8468294143677,11.8470306396484,11.8472328186035,11.8474340438843,11.847635269165,11.8478364944458,11.8480377197266,11.8482389450073,11.8484401702881,11.8486413955688,11.8488435745239,11.8490447998047,11.8492460250854,11.8494472503662,11.849648475647,11.8498506546021,11.8500518798828,11.8502531051636,11.8504543304443,11.8506555557251,11.8508577346802,11.8510589599609,11.8512601852417,11.8514614105225,11.8516635894775,11.8518648147583
9.90753936767578,9.90770721435547,9.90787506103516,9.90804290771484,9.90821075439453,9.90837860107422,9.90854644775391,9.90871429443359,9.90888214111328,9.90905094146729,9.90921878814697,9.90938663482666,9.90955448150635,9.90972232818604,9.90989017486572,9.91005802154541,9.91022682189941,9.9103946685791,9.91056251525879,9.91073036193848,9.91089820861816,9.91106700897217,9.91123485565186,9.91140270233154,9.91157054901123,9.91173934936523,9.91190719604492,9.91207504272461,9.9122428894043,9.91241073608398,9.91257953643799,9.91274738311768,9.91291522979736,9.91308403015137,9.91325187683105,9.91341972351074,9.91358757019043,9.91375637054443,9.91392421722412,9.91409206390381,9.91426086425781,9.9144287109375,9.91459655761719,9.91476535797119,9.91493320465088,9.91510105133057,9.91526985168457,9.91543769836426,9.92625141143799,10.016942024231,10.1093044281006,10.203387260437,10.2992362976074,10.3969039916992,10.4964418411255,10.5979032516479,10.7013463973999,10.806827545166,10.9144096374512,11.0241556167603,11.1361303329468,11.2504034042358,11.3670454025269,11.4861326217651,11.6077404022217,11.7319507598877,11.8588199615479,11.8885774612427,11.8887796401978,11.8889808654785,11.8891830444336,11.8893842697144,11.8895864486694,11.8897876739502,11.8899898529053,11.890191078186,11.8903932571411,11.8905954360962,11.8907976150513,11.890998840332,11.8912010192871,11.8914031982422,11.9046583175659,11.904860496521,11.9050636291504,11.9760141372681,11.9762172698975,11.9764204025269,11.9766235351562,11.97682762146,11.9770307540894,11.9772338867188,11.9774370193481,11.9776411056519,11.9778442382812,11.9780473709106,11.97825050354,11.9784545898438,11.9786577224731,11.9788608551025,11.9790639877319,11.9792680740356,11.979471206665,11.9796743392944,11.9798784255981,11.9800815582275,11.9802846908569,11.9804887771606,11.98069190979,11.9808950424194,11.9810991287231,11.9813022613525,11.9815053939819,11.9817094802856,11.981912612915,11.9821157455444,11.9823198318481,11.9825229644775,11.9827270507812,11.9829301834106,11.98313331604,11.9833374023438,11.9835405349731,11.9837446212769,11.9839477539062,11.98415184021,11.9843549728394,11.9845590591431,11.9847621917725,11.9849653244019,11.9851694107056,11.985372543335,11.7667875289917,11.7669878005981,11.7671880722046,11.8413534164429,11.8415575027466,11.841760635376,11.8419618606567,11.8421630859375,11.8423643112183,11.8425664901733,11.8427677154541,11.8429689407349,11.8431701660156,11.8433713912964,11.8435726165771,11.8437738418579,11.8439750671387,11.8441762924194,11.8443775177002,11.844578742981,11.8447799682617,11.8449811935425,11.8451824188232,11.845383644104,11.8455848693848,11.8457870483398,11.8459882736206,11.8461894989014,11.8463907241821,11.8465919494629,11.8467931747437,11.8469944000244,11.8471956253052,11.8473968505859,11.8475980758667,11.8477993011475,11.8480014801025,11.8482027053833,11.8484039306641,11.8486051559448,11.8488063812256,11.8490076065063,11.8492088317871,11.8494110107422,11.8496122360229,11.8498134613037,11.8500146865845,11.8502159118652
9.90616512298584,9.90633296966553,9.90650081634521,9.9066686630249,9.90683650970459,9.90700435638428,9.90717315673828,9.90734100341797,9.90750885009766,9.90767669677734,9.90784454345703,9.90801239013672,9.90818023681641,9.90834808349609,9.90851593017578,9.90868377685547,9.90885257720947,9.90902042388916,9.90918827056885,9.90935611724854,9.90952396392822,9.90969181060791,9.9098596572876,9.9100284576416,9.91019630432129,9.91036415100098,9.91053199768066,9.91069984436035,9.91086769104004,9.91103649139404,9.91120433807373,9.91137218475342,9.91154003143311,9.91170883178711,9.9118766784668,9.91204452514648,9.91221237182617,9.91238117218018,9.91254901885986,9.91271686553955,9.91288471221924,9.91305351257324,9.91322135925293,9.91338920593262,9.9135570526123,9.91372585296631,9.913893699646,9.91406154632568,9.92592430114746,10.0166082382202,10.1089649200439,10.2030410766602,10.2988834381104,10.3965444564819,10.496075630188,10.5975303649902,10.7009658813477,10.8064393997192,10.9140138626099,11.0237512588501,11.1357183456421,11.2499828338623,11.3666162490845,11.4856939315796,11.607292175293,11.7314939498901,11.8583545684814,11.8869276046753,11.8871288299561,11.8873310089111,11.8875322341919,11.887734413147,11.8879356384277,11.8881378173828,11.8883390426636,11.8885412216187,11.8887424468994,11.8889446258545,11.8891458511353,11.8893480300903,11.8895502090454,11.8897523880005,11.9030055999756,11.9032077789307,11.9034099578857,11.9743509292603,11.9745540618896,11.9747581481934,11.9749612808228,11.9751644134521,11.9753675460815,11.9755706787109,11.9757738113403,11.9759769439697,11.9761810302734,11.9763841629028,11.9765872955322,11.9767904281616,11.976993560791,11.9771976470947,11.9774007797241,11.9776039123535,11.9778070449829,11.9780111312866,11.978214263916,11.9784173965454,11.9786205291748,11.9788246154785,11.9790277481079,11.9792308807373,11.9794340133667,11.9796380996704,11.9798412322998,11.9800443649292,11.9802484512329,11.9804515838623,11.9806547164917,11.9808588027954,11.9810619354248,11.9812650680542,11.9814691543579,11.9816722869873,11.981876373291,11.9820795059204,11.9822826385498,11.9824867248535,11.9826898574829,11.9828939437866,11.983097076416,11.9833002090454,11.9835033416748,11.9837074279785,11.7651529312134,11.7653532028198,11.7655534744263,11.8397083282471,11.8399114608765,11.8401145935059,11.8403167724609,11.8405179977417,11.8407192230225,11.8409204483032,11.841121673584,11.8413228988647,11.8415241241455,11.8417253494263,11.841926574707,11.8421277999878,11.8423290252686,11.8425302505493,11.8427314758301,11.8429327011108,11.8431339263916,11.8433351516724,11.8435363769531,11.8437376022339,11.8439388275146,11.8441400527954,11.8443412780762,11.8445425033569,11.8447437286377,11.8449449539185,11.8451461791992,11.84534740448,11.8455486297607,11.8457498550415,11.8459510803223,11.846152305603,11.8463535308838,11.8465547561646,11.8467559814453,11.8469572067261,11.8471593856812,11.8473606109619,11.8475618362427,11.8477630615234,11.8479642868042,11.848165512085,11.8483667373657,11.8485679626465
9.90479183197021,9.9049596786499,9.90512752532959,9.90529537200928,9.90546321868896,9.90563106536865,9.90579891204834,9.90596675872803,9.90613460540771,9.9063024520874,9.90647029876709,9.90663814544678,9.90680599212646,9.90697479248047,9.90714263916016,9.90731048583984,9.90747833251953,9.90764617919922,9.90781402587891,9.90798187255859,9.90814971923828,9.90831756591797,9.90848541259766,9.90865325927734,9.90882205963135,9.90898990631104,9.90915775299072,9.90932559967041,9.9094934463501,9.90966129302979,9.90982913970947,9.90999794006348,9.91016578674316,9.91033363342285,9.91050148010254,9.91066932678223,9.91083812713623,9.91100597381592,9.91117382049561,9.91134166717529,9.91150951385498,9.91167831420898,9.91184616088867,9.91201400756836,9.91218185424805,9.91235065460205,9.91251850128174,9.91268634796143,9.92559623718262,10.0162754058838,10.1086254119873,10.2026948928833,10.2985315322876,10.396185874939,10.4957094192505,10.5971565246582,10.7005844116211,10.8060512542725,10.9136180877686,11.0233478546143,11.1353063583374,11.2495622634888,11.3661870956421,11.485255241394,11.6068449020386,11.7310361862183,11.857889175415,11.8852777481079,11.8854789733887,11.8856811523438,11.8858823776245,11.8860836029053,11.8862857818604,11.8864870071411,11.8866891860962,11.886890411377,11.887092590332,11.8872938156128,11.8874959945679,11.8876972198486,11.8878993988037,11.8881015777588,11.9013528823853,11.9015550613403,11.9017581939697,11.9726886749268,11.9728918075562,11.9730949401855,11.9732980728149,11.9735012054443,11.973705291748,11.9739084243774,11.9741115570068,11.9743146896362,11.9745178222656,11.974720954895,11.9749240875244,11.9751272201538,11.9753313064575,11.9755344390869,11.9757375717163,11.9759407043457,11.9761438369751,11.9763469696045,11.9765510559082,11.9767541885376,11.976957321167,11.9771604537964,11.9773635864258,11.9775676727295,11.9777708053589,11.9779739379883,11.9781770706177,11.9783811569214,11.9785842895508,11.9787874221802,11.9789905548096,11.9791946411133,11.9793977737427,11.9796009063721,11.9798049926758,11.9800081253052,11.9802112579346,11.9804153442383,11.9806184768677,11.9808216094971,11.9810256958008,11.9812288284302,11.9814319610596,11.9816360473633,11.9818391799927,11.9820423126221,11.7635183334351,11.7637186050415,11.7639188766479,11.8380632400513,11.8382663726807,11.8384695053101,11.8386716842651,11.8388729095459,11.8390731811523,11.8392744064331,11.8394756317139,11.8396768569946,11.8398780822754,11.8400793075562,11.8402805328369,11.8404817581177,11.8406829833984,11.8408842086792,11.84108543396,11.8412866592407,11.8414878845215,11.8416891098022,11.841890335083,11.8420915603638,11.8422927856445,11.8424940109253,11.8426952362061,11.8428955078125,11.8430967330933,11.843297958374,11.8434991836548,11.8437004089355,11.8439016342163,11.8441028594971,11.8443040847778,11.8445053100586,11.8447065353394,11.8449077606201,11.8451089859009,11.8453102111816,11.8455114364624,11.8457126617432,11.8459148406982,11.846116065979,11.8463172912598,11.8465185165405,11.8467197418213,11.8469209671021
9.90341949462891,9.90358734130859,9.90375518798828,9.90392208099365,9.90408992767334,9.90425777435303,9.90442562103271,9.9045934677124,9.90476131439209,9.90492916107178,9.90509700775146,9.90526485443115,9.90543270111084,9.90560054779053,9.90576839447021,9.9059362411499,9.90610408782959,9.90627193450928,9.90643978118896,9.90660858154297,9.90677642822266,9.90694427490234,9.90711212158203,9.90727996826172,9.90744781494141,9.90761566162109,9.90778350830078,9.90795135498047,9.90811920166016,9.90828704833984,9.90845489501953,9.90862369537354,9.90879154205322,9.90895938873291,9.9091272354126,9.90929508209229,9.90946292877197,9.90963077545166,9.90979957580566,9.90996742248535,9.91013526916504,9.91030311584473,9.91047096252441,9.9106388092041,9.91080760955811,9.91097545623779,9.91114330291748,9.91131114959717,9.92526912689209,10.015941619873,10.1082859039307,10.2023487091064,10.2981786727905,10.3958263397217,10.495343208313,10.5967836380005,10.7002038955688,10.8056631088257,10.9132223129272,11.0229434967041,11.1348934173584,11.2491416931152,11.3657569885254,11.4848165512085,11.6063966751099,11.7305784225464,11.8574237823486,11.8836278915405,11.8838300704956,11.8840312957764,11.8842325210571,11.8844347000122,11.884635925293,11.8848371505737,11.8850393295288,11.8852405548096,11.8854427337646,11.8856439590454,11.8858461380005,11.8860473632812,11.8862495422363,11.8864517211914,11.8997011184692,11.8999032974243,11.9001054763794,11.9710273742676,11.971230506897,11.9714336395264,11.9716367721558,11.9718399047852,11.9720430374146,11.9722461700439,11.9724493026733,11.9726524353027,11.9728555679321,11.9730587005615,11.9732618331909,11.9734649658203,11.9736680984497,11.9738712310791,11.9740743637085,11.9742784500122,11.9744815826416,11.974684715271,11.9748878479004,11.9750909805298,11.9752941131592,11.9754972457886,11.975700378418,11.9759044647217,11.9761075973511,11.9763107299805,11.9765138626099,11.9767169952393,11.976921081543,11.9771242141724,11.9773273468018,11.9775304794312,11.9777336120605,11.9779376983643,11.9781408309937,11.978343963623,11.9785470962524,11.9787511825562,11.9789543151855,11.9791574478149,11.9793615341187,11.979564666748,11.9797677993774,11.9799709320068,11.9801740646362,11.9803781509399,11.7618837356567,11.7620840072632,11.7622842788696,11.8364191055298,11.8366222381592,11.8368253707886,11.8370265960693,11.8372278213501,11.8374290466309,11.8376302719116,11.8378305435181,11.8380317687988,11.8382329940796,11.8384342193604,11.8386354446411,11.8388366699219,11.8390378952026,11.8392391204834,11.8394403457642,11.8396415710449,11.8398427963257,11.8400430679321,11.8402442932129,11.8404455184937,11.8406467437744,11.8408479690552,11.8410491943359,11.8412504196167,11.8414516448975,11.8416519165039,11.8418531417847,11.8420543670654,11.8422555923462,11.842456817627,11.8426580429077,11.8428592681885,11.8430604934692,11.84326171875,11.8434629440308,11.8436641693115,11.8438653945923,11.844066619873,11.8442678451538,11.8444690704346,11.8446702957153,11.8448715209961,11.8450727462769,11.8452739715576
9.90204620361328,9.90221405029297,9.90238189697266,9.90254974365234,9.90271759033203,9.90288543701172,9.90305328369141,9.90322113037109,9.90338897705078,9.90355682373047,9.90372467041016,9.90389251708984,9.90406036376953,9.90422821044922,9.90439510345459,9.90456295013428,9.90473079681396,9.90489864349365,9.90506649017334,9.90523433685303,9.90540218353271,9.9055700302124,9.90573787689209,9.90590572357178,9.90607357025146,9.90624237060547,9.90641021728516,9.90657806396484,9.90674591064453,9.90691375732422,9.90708160400391,9.90724945068359,9.90741729736328,9.90758514404297,9.90775299072266,9.90792083740234,9.90808868408203,9.90825653076172,9.90842437744141,9.90859317779541,9.9087610244751,9.90892887115479,9.90909671783447,9.90926456451416,9.90943241119385,9.90960025787354,9.90976905822754,9.90993690490723,9.92494106292725,10.0156078338623,10.107946395874,10.2020025253296,10.2978267669678,10.3954668045044,10.4949769973755,10.5964107513428,10.6998233795166,10.8052749633789,10.9128265380859,11.0225400924683,11.1344814300537,11.2487211227417,11.365327835083,11.4843788146973,11.6059494018555,11.7301216125488,11.8569583892822,11.8819789886475,11.8821811676025,11.8823823928833,11.8825836181641,11.8827857971191,11.8829870223999,11.8831882476807,11.8833904266357,11.8835916519165,11.8837928771973,11.8839950561523,11.8841962814331,11.8843984603882,11.8845996856689,11.884801864624,11.8980493545532,11.8982515335083,11.8984537124634,11.9693651199341,11.9695682525635,11.9697713851929,11.9699745178223,11.9701776504517,11.9703807830811,11.9705839157104,11.9707870483398,11.9709901809692,11.9711933135986,11.971396446228,11.9715995788574,11.9718027114868,11.9720058441162,11.9722089767456,11.972412109375,11.9726152420044,11.9728193283081,11.9730224609375,11.9732255935669,11.9734287261963,11.9736318588257,11.9738349914551,11.9740381240845,11.9742412567139,11.9744443893433,11.9746475219727,11.9748506546021,11.9750547409058,11.9752578735352,11.9754610061646,11.9756641387939,11.9758672714233,11.9760704040527,11.9762744903564,11.9764776229858,11.9766807556152,11.9768838882446,11.977087020874,11.9772911071777,11.9774942398071,11.9776973724365,11.9779005050659,11.9781045913696,11.978307723999,11.9785108566284,11.9787139892578,11.7602500915527,11.7604503631592,11.7606506347656,11.8347749710083,11.8349771499634,11.8351812362671,11.8353824615479,11.8355836868286,11.8357839584351,11.8359851837158,11.8361864089966,11.8363876342773,11.8365888595581,11.8367891311646,11.8369903564453,11.8371915817261,11.8373928070068,11.8375940322876,11.8377952575684,11.8379964828491,11.8381977081299,11.8383979797363,11.8385992050171,11.8388004302979,11.8390016555786,11.8392028808594,11.8394031524658,11.8396043777466,11.8398056030273,11.8400068283081,11.8402080535889,11.8404092788696,11.8406095504761,11.8408107757568,11.8410120010376,11.8412132263184,11.8414144515991,11.8416156768799,11.8418169021606,11.8420181274414,11.8422193527222,11.8424205780029,11.8426218032837,11.8428220748901,11.8430233001709,11.8432245254517,11.8434257507324,11.8436269760132
9.90067481994629,9.90084266662598,9.90100955963135,9.90117740631104,9.90134525299072,9.90151309967041,9.9016809463501,9.90184879302979,9.90201663970947,9.90218353271484,9.90235137939453,9.90251922607422,9.90268707275391,9.90285491943359,9.90302276611328,9.90319061279297,9.90335845947266,9.90352630615234,9.90369415283203,9.90386199951172,9.90402984619141,9.90419769287109,9.90436553955078,9.90453338623047,9.90470123291016,9.90486907958984,9.90503692626953,9.90520477294922,9.90537261962891,9.90554046630859,9.90570831298828,9.90587615966797,9.90604400634766,9.90621185302734,9.90637969970703,9.90654754638672,9.90671539306641,9.90688323974609,9.90705108642578,9.90721893310547,9.90738677978516,9.90755462646484,9.90772247314453,9.90789031982422,9.90805816650391,9.90822601318359,9.9083948135376,9.90856266021729,9.9246129989624,10.0152730941772,10.1076068878174,10.2016572952271,10.2974739074707,10.3951082229614,10.494610786438,10.5960369110107,10.6994428634644,10.8048877716064,10.9124307632446,11.0221357345581,11.134069442749,11.2483005523682,11.3648986816406,11.4839401245117,11.6055011749268,11.729663848877,11.8564929962158,11.8803310394287,11.8805322647095,11.8807334899902,11.8809356689453,11.8811368942261,11.8813381195068,11.8815393447876,11.8817415237427,11.8819427490234,11.8821439743042,11.882345199585,11.88254737854,11.8827486038208,11.8829507827759,11.8831520080566,11.8963985443115,11.8966007232666,11.8968029022217,11.9677047729492,11.9679079055786,11.968111038208,11.9683141708374,11.9685163497925,11.9687194824219,11.9689226150513,11.9691257476807,11.9693288803101,11.9695320129395,11.9697351455688,11.9699382781982,11.9701414108276,11.970344543457,11.9705476760864,11.9707508087158,11.9709539413452,11.9711570739746,11.971360206604,11.9715633392334,11.9717664718628,11.9719696044922,11.9721727371216,11.972375869751,11.9725790023804,11.9727821350098,11.9729852676392,11.9731884002686,11.9733915328979,11.9735946655273,11.9737977981567,11.9740018844604,11.9742050170898,11.9744081497192,11.9746112823486,11.974814414978,11.9750175476074,11.9752206802368,11.9754238128662,11.9756278991699,11.9758310317993,11.9760341644287,11.9762372970581,11.9764404296875,11.9766435623169,11.9768466949463,11.9770498275757,11.758617401123,11.7588167190552,11.7590169906616,11.8331308364868,11.8333339691162,11.8335371017456,11.8337383270264,11.8339395523071,11.8341407775879,11.8343410491943,11.8345422744751,11.8347434997559,11.8349447250366,11.8351449966431,11.8353462219238,11.8355474472046,11.8357486724854,11.8359498977661,11.8361501693726,11.8363513946533,11.8365526199341,11.8367538452148,11.8369550704956,11.8371553421021,11.8373565673828,11.8375577926636,11.8377590179443,11.8379592895508,11.8381605148315,11.8383617401123,11.8385629653931,11.8387632369995,11.8389644622803,11.839165687561,11.8393669128418,11.8395681381226,11.8397693634033,11.8399696350098,11.8401708602905,11.8403720855713,11.8405733108521,11.8407745361328,11.8409757614136,11.8411769866943,11.8413782119751,11.8415784835815,11.8417797088623,11.8419809341431
9.89930248260498,9.89947032928467,9.89963817596436,9.89980602264404,9.89997386932373,9.9001407623291,9.90030860900879,9.90047645568848,9.90064430236816,9.90081214904785,9.90097999572754,9.90114688873291,9.9013147354126,9.90148258209229,9.90165042877197,9.90181827545166,9.90198612213135,9.90215396881104,9.90232181549072,9.90248870849609,9.90265655517578,9.90282440185547,9.90299224853516,9.90316009521484,9.90332794189453,9.90349578857422,9.90366363525391,9.90383148193359,9.90399932861328,9.90416717529297,9.90433502197266,9.90450286865234,9.90467071533203,9.90483856201172,9.90500640869141,9.90517425537109,9.90534210205078,9.90550994873047,9.90567779541016,9.90584564208984,9.90601348876953,9.90618133544922,9.90634918212891,9.90651702880859,9.90668487548828,9.90685272216797,9.90702056884766,9.90718841552734,9.92428398132324,10.0149374008179,10.1072645187378,10.2013111114502,10.2971220016479,10.3947486877441,10.4942445755005,10.595664024353,10.6990623474121,10.8044996261597,10.9120349884033,11.0217323303223,11.1336574554443,11.2478799819946,11.3644695281982,11.4835014343262,11.6050539016724,11.7292070388794,11.8560276031494,11.87868309021,11.8788843154907,11.8790855407715,11.8792867660522,11.8794889450073,11.8796901702881,11.8798913955688,11.8800926208496,11.8802938461304,11.8804960250854,11.8806972503662,11.880898475647,11.8811006546021,11.8813018798828,11.8815031051636,11.8947477340698,11.8949499130249,11.89515209198,11.9660444259644,11.9662466049194,11.9664497375488,11.9666528701782,11.9668560028076,11.967059135437,11.9672622680664,11.9674654006958,11.9676675796509,11.9678707122803,11.9680738449097,11.9682769775391,11.9684801101685,11.9686832427979,11.9688863754272,11.9690895080566,11.969292640686,11.9694957733154,11.9696989059448,11.9699020385742,11.9701051712036,11.970308303833,11.9705114364624,11.9707136154175,11.9709167480469,11.9711198806763,11.9713230133057,11.9715261459351,11.9717302322388,11.9719333648682,11.9721364974976,11.972339630127,11.9725427627563,11.9727458953857,11.9729490280151,11.9731521606445,11.9733552932739,11.9735584259033,11.9737615585327,11.9739646911621,11.9741678237915,11.9743709564209,11.9745750427246,11.974778175354,11.9749813079834,11.9751834869385,11.9753866195679,11.756983757019,11.7571840286255,11.7573843002319,11.8314876556396,11.831690788269,11.8318939208984,11.8320951461792,11.8322954177856,11.8324966430664,11.8326978683472,11.8328990936279,11.8330993652344,11.8333005905151,11.8335018157959,11.8337020874023,11.8339033126831,11.8341045379639,11.8343057632446,11.8345060348511,11.8347072601318,11.8349084854126,11.8351097106934,11.8353099822998,11.8355112075806,11.8357124328613,11.8359136581421,11.8361139297485,11.8363151550293,11.8365163803101,11.8367166519165,11.8369178771973,11.837119102478,11.8373203277588,11.8375205993652,11.837721824646,11.8379230499268,11.8381242752075,11.838324546814,11.8385257720947,11.8387269973755,11.8389282226562,11.839129447937,11.8393297195435,11.8395309448242,11.839732170105,11.8399333953857,11.8401346206665,11.8403358459473
9.89793109893799,9.89809894561768,9.89826679229736,9.89843463897705,9.89860153198242,9.89876937866211,9.8989372253418,9.89910507202148,9.89927196502686,9.89943981170654,9.89960765838623,9.89977550506592,9.89994335174561,9.90011024475098,9.90027809143066,9.90044593811035,9.90061378479004,9.90078163146973,9.90094947814941,9.9011173248291,9.90128421783447,9.90145206451416,9.90161991119385,9.90178775787354,9.90195560455322,9.90212345123291,9.9022912979126,9.90245914459229,9.90262603759766,9.90279388427734,9.90296173095703,9.90312957763672,9.90329742431641,9.90346527099609,9.90363311767578,9.90380096435547,9.90396881103516,9.90413665771484,9.90430450439453,9.90447235107422,9.90464019775391,9.90480804443359,9.90497589111328,9.90514373779297,9.90531158447266,9.90547943115234,9.90564727783203,9.90581512451172,9.9239559173584,10.0146017074585,10.1069231033325,10.2009620666504,10.2967681884766,10.3943891525269,10.493878364563,10.5952911376953,10.6986818313599,10.8041114807129,10.911639213562,11.0213289260864,11.1332454681396,11.2474594116211,11.3640403747559,11.4830636978149,11.6046056747437,11.7287492752075,11.855562210083,11.8770351409912,11.877236366272,11.8774375915527,11.8776397705078,11.8778409957886,11.8780422210693,11.8782434463501,11.8784446716309,11.8786458969116,11.8788480758667,11.8790493011475,11.8792505264282,11.879451751709,11.8796539306641,11.8798551559448,11.8930978775024,11.8933000564575,11.8935022354126,11.9643840789795,11.9645872116089,11.9647903442383,11.9649925231934,11.9651956558228,11.9653987884521,11.9656019210815,11.9658050537109,11.966007232666,11.9662103652954,11.9664134979248,11.9666166305542,11.9668197631836,11.967022895813,11.9672250747681,11.9674282073975,11.9676313400269,11.9678344726562,11.9680376052856,11.968240737915,11.9684438705444,11.9686470031738,11.9688501358032,11.9690523147583,11.9692554473877,11.9694585800171,11.9696617126465,11.9698648452759,11.9700679779053,11.9702711105347,11.9704742431641,11.9706773757935,11.9708805084229,11.9710836410522,11.9712867736816,11.971489906311,11.9716930389404,11.9718961715698,11.9720993041992,11.9723024368286,11.972505569458,11.9727087020874,11.9729118347168,11.9731149673462,11.9733180999756,11.973521232605,11.9737243652344,11.7553520202637,11.7555513381958,11.7557516098022,11.8298444747925,11.8300476074219,11.8302507400513,11.830451965332,11.8306531906128,11.8308534622192,11.8310546875,11.8312559127808,11.8314561843872,11.831657409668,11.8318586349487,11.8320589065552,11.8322601318359,11.8324613571167,11.8326616287231,11.8328628540039,11.8330640792847,11.8332643508911,11.8334655761719,11.8336668014526,11.8338670730591,11.8340682983398,11.8342695236206,11.8344697952271,11.8346710205078,11.8348722457886,11.835072517395,11.8352737426758,11.8354749679565,11.835675239563,11.8358764648438,11.8360776901245,11.836277961731,11.8364791870117,11.8366804122925,11.8368816375732,11.8370819091797,11.8372831344604,11.8374843597412,11.837685585022,11.8378858566284,11.8380870819092,11.8382883071899,11.8384895324707,11.8386907577515
9.89656066894531,9.89672756195068,9.89689540863037,9.89706325531006,9.89723110198975,9.89739799499512,9.8975658416748,9.89773368835449,9.89790058135986,9.89806842803955,9.89823627471924,9.89840412139893,9.89857196807861,9.89873886108398,9.89890670776367,9.89907455444336,9.89924240112305,9.89940929412842,9.89957714080811,9.89974498748779,9.89991283416748,9.90008068084717,9.90024757385254,9.90041542053223,9.90058326721191,9.9007511138916,9.90091896057129,9.90108680725098,9.90125370025635,9.90142154693604,9.90158939361572,9.90175724029541,9.9019250869751,9.90209293365479,9.90226078033447,9.90242862701416,9.90259647369385,9.90276336669922,9.90293121337891,9.90309906005859,9.90326690673828,9.90343475341797,9.90360260009766,9.90377044677734,9.90393829345703,9.90410614013672,9.90427398681641,9.90444183349609,9.92362785339355,10.0142660140991,10.1065807342529,10.2006139755249,10.2964134216309,10.3940286636353,10.4935131072998,10.5949182510376,10.6983022689819,10.8037233352661,10.9112434387207,11.0209245681763,11.132833480835,11.2470388412476,11.3636112213135,11.4826250076294,11.6041584014893,11.72829246521,11.8550968170166,11.8753881454468,11.8755893707275,11.8757905960083,11.8759918212891,11.8761930465698,11.8763952255249,11.8765964508057,11.8767976760864,11.8769989013672,11.8772001266479,11.8774013519287,11.8776025772095,11.8778038024902,11.8780059814453,11.8782072067261,11.8914480209351,11.8916501998901,11.8918523788452,11.9627246856689,11.962926864624,11.9631299972534,11.9633331298828,11.9635362625122,11.9637384414673,11.9639415740967,11.9641447067261,11.9643478393555,11.9645500183105,11.9647531509399,11.9649562835693,11.9651594161987,11.9653625488281,11.9655647277832,11.9657678604126,11.965970993042,11.9661741256714,11.9663772583008,11.9665794372559,11.9667825698853,11.9669857025146,11.967188835144,11.9673919677734,11.9675951004028,11.9677982330322,11.9680013656616,11.9682035446167,11.9684066772461,11.9686098098755,11.9688129425049,11.9690160751343,11.9692192077637,11.9694223403931,11.9696254730225,11.9698286056519,11.9700317382812,11.9702348709106,11.97043800354,11.9706411361694,11.9708442687988,11.9710474014282,11.9712505340576,11.971453666687,11.9716567993164,11.9718589782715,11.9720621109009,11.7537202835083,11.7539196014404,11.7541198730469,11.8282022476196,11.828405380249,11.8286085128784,11.8288097381592,11.8290100097656,11.8292112350464,11.8294115066528,11.8296127319336,11.8298139572144,11.8300142288208,11.8302154541016,11.830415725708,11.8306169509888,11.8308181762695,11.831018447876,11.8312196731567,11.8314208984375,11.8316211700439,11.8318223953247,11.8320236206055,11.8322238922119,11.8324251174927,11.8326253890991,11.8328266143799,11.8330278396606,11.8332281112671,11.8334293365479,11.8336296081543,11.8338308334351,11.8340320587158,11.8342323303223,11.834433555603,11.8346347808838,11.8348350524902,11.835036277771,11.8352375030518,11.8354377746582,11.835638999939,11.8358402252197,11.8360404968262,11.8362417221069,11.8364429473877,11.8366432189941,11.8368444442749,11.8370456695557
9.89519023895264,9.89535713195801,9.8955249786377,9.89569282531738,9.89585971832275,9.89602756500244,9.89619541168213,9.8963623046875,9.89653015136719,9.89669799804688,9.89686489105225,9.89703273773193,9.89720058441162,9.89736747741699,9.89753532409668,9.89770317077637,9.89787101745605,9.89803791046143,9.89820575714111,9.8983736038208,9.89854145050049,9.89870834350586,9.89887619018555,9.89904403686523,9.89921188354492,9.89937973022461,9.89954662322998,9.89971446990967,9.89988231658936,9.90005016326904,9.90021800994873,9.9003849029541,9.90055274963379,9.90072059631348,9.90088844299316,9.90105628967285,9.90122413635254,9.90139102935791,9.9015588760376,9.90172672271729,9.90189456939697,9.90206241607666,9.90223026275635,9.90239810943604,9.90256595611572,9.90273380279541,9.90290069580078,9.90306854248047,9.92329978942871,10.0139303207397,10.1062393188477,10.2002658843994,10.2960577011108,10.3936672210693,10.4931440353394,10.5945444107056,10.6979217529297,10.8033351898193,10.9108476638794,11.0205211639404,11.1324214935303,11.246618270874,11.3631820678711,11.4821872711182,11.6037111282349,11.7278347015381,11.8546314239502,11.8737421035767,11.8739433288574,11.8741445541382,11.8743457794189,11.8745470046997,11.8747482299805,11.8749494552612,11.875150680542,11.8753519058228,11.8755531311035,11.8757543563843,11.875955581665,11.8761568069458,11.8763580322266,11.8765602111816,11.889799118042,11.8900012969971,11.8902034759521,11.9610652923584,11.9612684249878,11.9614706039429,11.9616737365723,11.9618768692017,11.9620790481567,11.9622821807861,11.9624853134155,11.9626874923706,11.962890625,11.9630937576294,11.9632968902588,11.9634990692139,11.9637022018433,11.9639053344727,11.9641084671021,11.9643106460571,11.9645137786865,11.9647169113159,11.9649200439453,11.9651222229004,11.9653253555298,11.9655284881592,11.9657316207886,11.965934753418,11.966136932373,11.9663400650024,11.9665431976318,11.9667463302612,11.9669494628906,11.96715259552,11.9673557281494,11.9675579071045,11.9677610397339,11.9679641723633,11.9681673049927,11.9683704376221,11.9685735702515,11.9687767028809,11.9689798355103,11.9691829681396,11.969386100769,11.9695882797241,11.9697914123535,11.9699945449829,11.9701976776123,11.9704008102417,11.7520885467529,11.7522878646851,11.7524881362915,11.8265609741211,11.8267631530762,11.8269662857056,11.8271675109863,11.8273677825928,11.8275690078735,11.8277702331543,11.8279705047607,11.8281717300415,11.8283720016479,11.8285732269287,11.8287734985352,11.8289747238159,11.8291749954224,11.8293762207031,11.8295764923096,11.8297777175903,11.8299789428711,11.8301792144775,11.8303804397583,11.8305807113647,11.8307819366455,11.830982208252,11.8311834335327,11.8313846588135,11.8315849304199,11.8317861557007,11.8319864273071,11.8321876525879,11.8323879241943,11.8325891494751,11.8327894210815,11.8329906463623,11.8331918716431,11.8333921432495,11.8335933685303,11.833794593811,11.8339948654175,11.8341960906982,11.8343963623047,11.8345975875854,11.8347988128662,11.8349990844727,11.8352003097534,11.8354015350342
9.89381980895996,9.89398670196533,9.89415454864502,9.89432239532471,9.89448928833008,9.89465713500977,9.89482402801514,9.89499187469482,9.89515972137451,9.89532661437988,9.89549446105957,9.89566230773926,9.89582920074463,9.89599704742432,9.896164894104,9.89633178710938,9.89649963378906,9.89666748046875,9.89683437347412,9.89700222015381,9.8971700668335,9.89733791351318,9.89750480651855,9.89767265319824,9.89784049987793,9.89800834655762,9.89817523956299,9.89834308624268,9.89851093292236,9.89867877960205,9.89884567260742,9.89901351928711,9.8991813659668,9.89934921264648,9.89951610565186,9.89968395233154,9.89985179901123,9.90001964569092,9.90018749237061,9.90035533905029,9.90052223205566,9.90069007873535,9.90085792541504,9.90102577209473,9.90119361877441,9.9013614654541,9.90152835845947,9.90169620513916,9.92297172546387,10.0135946273804,10.1058969497681,10.1999168395996,10.2957029342651,10.3933057785034,10.4927759170532,10.5941686630249,10.6975393295288,10.8029479980469,10.9104518890381,11.0201177597046,11.1320095062256,11.2461977005005,11.3627529144287,11.4817485809326,11.6032638549805,11.7273778915405,11.8541660308838,11.8720960617065,11.872296333313,11.8724975585938,11.8726987838745,11.8729000091553,11.873101234436,11.8733024597168,11.8735036849976,11.8737049102783,11.8739061355591,11.8741073608398,11.8743085861206,11.8745098114014,11.8747110366821,11.8749132156372,11.8881502151489,11.888352394104,11.8885545730591,11.9594068527222,11.9596090316772,11.9598121643066,11.960015296936,11.9602174758911,11.9604206085205,11.9606237411499,11.960825920105,11.9610290527344,11.9612312316895,11.9614343643188,11.9616374969482,11.9618396759033,11.9620428085327,11.9622459411621,11.9624481201172,11.9626512527466,11.962854385376,11.9630575180054,11.9632596969604,11.9634628295898,11.9636659622192,11.9638690948486,11.9640712738037,11.9642744064331,11.9644775390625,11.9646806716919,11.964882850647,11.9650859832764,11.9652891159058,11.9654922485352,11.9656944274902,11.9658975601196,11.966100692749,11.9663038253784,11.9665069580078,11.9667100906372,11.9669122695923,11.9671154022217,11.9673185348511,11.9675216674805,11.9677248001099,11.9679279327393,11.9681310653687,11.9683332443237,11.9685363769531,11.9687395095825,11.7504577636719,11.750657081604,11.7508563995361,11.8249197006226,11.8251218795776,11.825325012207,11.8255262374878,11.8257265090942,11.825927734375,11.8261280059814,11.8263282775879,11.8265295028687,11.8267297744751,11.8269309997559,11.8271312713623,11.8273324966431,11.8275327682495,11.8277339935303,11.8279342651367,11.8281354904175,11.8283367156982,11.8285369873047,11.8287382125854,11.8289384841919,11.8291397094727,11.8293399810791,11.8295412063599,11.8297414779663,11.8299427032471,11.8301429748535,11.8303442001343,11.8305444717407,11.8307456970215,11.8309459686279,11.8311471939087,11.8313474655151,11.8315486907959,11.8317489624023,11.8319501876831,11.8321504592896,11.8323516845703,11.8325519561768,11.8327531814575,11.8329544067383,11.8331546783447,11.8333559036255,11.8335561752319,11.8337574005127
9.89244937896729,9.89261722564697,9.89278507232666,9.89295196533203,9.89311981201172,9.89328670501709,9.89345455169678,9.89362144470215,9.89378929138184,9.89395713806152,9.89412403106689,9.89429187774658,9.89445877075195,9.89462661743164,9.89479446411133,9.8949613571167,9.89512920379639,9.89529705047607,9.89546394348145,9.89563179016113,9.89579963684082,9.89596652984619,9.89613437652588,9.89630222320557,9.89646911621094,9.89663696289062,9.89680480957031,9.89697170257568,9.89713954925537,9.89730739593506,9.89747428894043,9.89764213562012,9.8978099822998,9.89797782897949,9.89814472198486,9.89831256866455,9.89848041534424,9.89864826202393,9.8988151550293,9.89898300170898,9.89915084838867,9.89931869506836,9.89948654174805,9.89965343475342,9.89982128143311,9.89998912811279,9.90015697479248,9.90032482147217,9.92264366149902,10.013258934021,10.1055545806885,10.1995687484741,10.2953481674194,10.3929433822632,10.4924068450928,10.5937929153442,10.6971569061279,10.8025579452515,10.9100561141968,11.0197134017944,11.1315984725952,11.245777130127,11.3623237609863,11.4813108444214,11.6028156280518,11.726921081543,11.8537006378174,11.8704500198364,11.8706512451172,11.8708524703979,11.8710536956787,11.8712549209595,11.8714551925659,11.8716564178467,11.8718576431274,11.8720588684082,11.872260093689,11.8724613189697,11.8726625442505,11.8728637695312,11.873064994812,11.8732662200928,11.8865022659302,11.8867034912109,11.886905670166,11.9577484130859,11.9579515457153,11.9581537246704,11.9583568572998,11.9585590362549,11.9587621688843,11.9589643478394,11.9591674804688,11.9593706130981,11.9595727920532,11.9597759246826,11.9599781036377,11.9601812362671,11.9603843688965,11.9605865478516,11.960789680481,11.960991859436,11.9611949920654,11.9613981246948,11.9616003036499,11.9618034362793,11.9620065689087,11.9622087478638,11.9624118804932,11.9626150131226,11.962818145752,11.963020324707,11.9632234573364,11.9634265899658,11.9636287689209,11.9638319015503,11.9640350341797,11.9642381668091,11.9644403457642,11.9646434783936,11.9648466110229,11.9650497436523,11.9652528762817,11.9654550552368,11.9656581878662,11.9658613204956,11.966064453125,11.9662675857544,11.9664697647095,11.9666728973389,11.9668760299683,11.9670782089233,11.7488269805908,11.7490262985229,11.7492256164551,11.823278427124,11.8234806060791,11.8236837387085,11.8238849639893,11.8240852355957,11.8242864608765,11.8244867324829,11.8246870040894,11.8248882293701,11.8250885009766,11.8252897262573,11.8254899978638,11.8256912231445,11.825891494751,11.8260917663574,11.8262929916382,11.8264932632446,11.8266944885254,11.8268947601318,11.8270959854126,11.827296257019,11.8274974822998,11.8276977539062,11.827898979187,11.8280992507935,11.8282995223999,11.8285007476807,11.8287010192871,11.8289022445679,11.8291025161743,11.8293037414551,11.8295040130615,11.8297052383423,11.8299055099487,11.8301067352295,11.8303070068359,11.8305082321167,11.8307085037231,11.8309097290039,11.8311100006104,11.8313112258911,11.8315114974976,11.8317127227783,11.8319129943848,11.8321142196655
9.89107990264893,9.89124774932861,9.89141464233398,9.89158248901367,9.89174938201904,9.89191722869873,9.89208507537842,9.89225196838379,9.89241981506348,9.89258670806885,9.89275455474854,9.89292144775391,9.89308929443359,9.89325618743896,9.89342403411865,9.89359188079834,9.89375877380371,9.8939266204834,9.89409351348877,9.89426136016846,9.89442920684814,9.89459609985352,9.8947639465332,9.89493083953857,9.89509868621826,9.89526653289795,9.89543342590332,9.89560127258301,9.8957691192627,9.89593601226807,9.89610385894775,9.89627170562744,9.89643859863281,9.8966064453125,9.89677429199219,9.89694118499756,9.89710903167725,9.89727687835693,9.89744472503662,9.89761161804199,9.89777946472168,9.89794731140137,9.89811515808105,9.89828205108643,9.89844989776611,9.8986177444458,9.89878559112549,9.89895248413086,9.92231559753418,10.0129270553589,10.1052131652832,10.1992206573486,10.2949934005737,10.3925819396973,10.4920387268066,10.5934171676636,10.6967735290527,10.8021669387817,10.9096574783325,11.0193090438843,11.1311864852905,11.2453575134277,11.3618946075439,11.4808721542358,11.6023683547974,11.7264633178711,11.853235244751,11.8688049316406,11.8690061569214,11.8692064285278,11.8694076538086,11.8696088790894,11.8698101043701,11.8700113296509,11.8702125549316,11.8704137802124,11.8706140518188,11.8708152770996,11.8710165023804,11.8712177276611,11.8714189529419,11.8716201782227,11.8848543167114,11.8850564956665,11.8852577209473,11.956090927124,11.9562931060791,11.9564962387085,11.9566984176636,11.956901550293,11.957103729248,11.9573068618774,11.9575090408325,11.9577121734619,11.957914352417,11.9581174850464,11.9583196640015,11.9585227966309,11.9587259292603,11.9589281082153,11.9591312408447,11.9593334197998,11.9595365524292,11.9597387313843,11.9599418640137,11.9601449966431,11.9603471755981,11.9605503082275,11.9607534408569,11.960955619812,11.9611587524414,11.9613609313965,11.9615640640259,11.9617671966553,11.9619693756104,11.9621725082397,11.9623756408691,11.9625787734985,11.9627809524536,11.962984085083,11.9631872177124,11.9633893966675,11.9635925292969,11.9637956619263,11.9639987945557,11.9642009735107,11.9644041061401,11.9646072387695,11.9648103713989,11.965012550354,11.9652156829834,11.9654178619385,11.7471971511841,11.7473964691162,11.7475957870483,11.8216381072998,11.8218402862549,11.8220434188843,11.8222436904907,11.8224449157715,11.8226451873779,11.8228454589844,11.8230466842651,11.8232469558716,11.8234481811523,11.8236484527588,11.8238487243652,11.824049949646,11.8242502212524,11.8244504928589,11.8246517181396,11.8248519897461,11.8250532150269,11.8252534866333,11.8254547119141,11.8256549835205,11.825855255127,11.8260564804077,11.8262567520142,11.8264570236206,11.8266582489014,11.8268585205078,11.8270597457886,11.827260017395,11.8274602890015,11.8276615142822,11.8278617858887,11.8280630111694,11.8282632827759,11.8284635543823,11.8286647796631,11.8288650512695,11.8290662765503,11.8292665481567,11.8294677734375,11.8296680450439,11.8298692703247,11.8300695419312,11.8302707672119,11.8304710388184
9.88971138000488,9.88987827301025,9.89004611968994,9.89021301269531,9.890380859375,9.89054775238037,9.89071559906006,9.89088249206543,9.89105033874512,9.89121723175049,9.89138507843018,9.89155197143555,9.89171981811523,9.89188671112061,9.89205455780029,9.89222145080566,9.89238929748535,9.89255619049072,9.89272403717041,9.89289093017578,9.89305877685547,9.89322662353516,9.89339351654053,9.89356136322021,9.89372825622559,9.89389610290527,9.89406394958496,9.89423084259033,9.89439868927002,9.89456558227539,9.89473342895508,9.89490127563477,9.89506816864014,9.89523601531982,9.89540386199951,9.89557075500488,9.89573860168457,9.89590644836426,9.89607334136963,9.89624118804932,9.896409034729,9.89657592773438,9.89674377441406,9.89691162109375,9.89707851409912,9.89724636077881,9.8974142074585,9.89758205413818,9.92198753356934,10.0125951766968,10.1048707962036,10.1988725662231,10.294638633728,10.3922204971313,10.4916696548462,10.5930414199829,10.6963901519775,10.801775932312,10.9092588424683,11.0189027786255,11.1307725906372,11.2449369430542,11.3614654541016,11.4804344177246,11.601921081543,11.7260065078735,11.8527698516846,11.8671598434448,11.8673610687256,11.8675622940063,11.8677625656128,11.8679637908936,11.8681650161743,11.8683662414551,11.8685674667358,11.8687677383423,11.868968963623,11.8691701889038,11.8693714141846,11.8695726394653,11.8697738647461,11.8699750900269,11.883207321167,11.8834085464478,11.8836107254028,11.9544334411621,11.9546356201172,11.9548387527466,11.9550409317017,11.9552440643311,11.9554462432861,11.9556493759155,11.9558515548706,11.9560546875,11.9562568664551,11.9564599990845,11.9566621780396,11.9568653106689,11.957067489624,11.9572706222534,11.9574728012085,11.9576759338379,11.957878112793,11.9580812454224,11.9582834243774,11.9584865570068,11.9586887359619,11.9588918685913,11.9590940475464,11.9592971801758,11.9595003128052,11.9597024917603,11.9599056243896,11.9601078033447,11.9603109359741,11.9605140686035,11.9607162475586,11.960919380188,11.9611215591431,11.9613246917725,11.9615278244019,11.9617300033569,11.9619331359863,11.9621362686157,11.9623384475708,11.9625415802002,11.9627447128296,11.962947845459,11.9631500244141,11.9633531570435,11.9635553359985,11.9637584686279,11.7455673217773,11.7457666397095,11.7459659576416,11.8199977874756,11.8201999664307,11.8204030990601,11.8206043243408,11.8208045959473,11.8210048675537,11.8212051391602,11.8214063644409,11.8216066360474,11.8218069076538,11.8220081329346,11.822208404541,11.8224086761475,11.8226099014282,11.8228101730347,11.8230104446411,11.8232116699219,11.8234119415283,11.8236122131348,11.8238134384155,11.824013710022,11.8242139816284,11.8244152069092,11.8246154785156,11.8248157501221,11.8250169754028,11.8252172470093,11.8254175186157,11.8256187438965,11.8258190155029,11.8260192871094,11.8262205123901,11.8264207839966,11.826621055603,11.8268222808838,11.8270225524902,11.827223777771,11.8274240493774,11.8276243209839,11.8278255462646,11.8280258178711,11.8282270431519,11.8284273147583,11.8286275863647,11.8288288116455
9.88834285736084,9.88850975036621,9.88867664337158,9.88884449005127,9.88901138305664,9.88917922973633,9.8893461227417,9.88951396942139,9.88968086242676,9.88984775543213,9.89001560211182,9.89018249511719,9.89035034179688,9.89051723480225,9.89068508148193,9.8908519744873,9.89101982116699,9.89118671417236,9.89135456085205,9.89152145385742,9.89168930053711,9.89185619354248,9.89202404022217,9.89219093322754,9.89235877990723,9.89252662658691,9.89269351959229,9.89286136627197,9.89302825927734,9.89319610595703,9.8933629989624,9.89353084564209,9.89369869232178,9.89386558532715,9.89403343200684,9.89420032501221,9.89436817169189,9.89453601837158,9.89470291137695,9.89487075805664,9.89503765106201,9.8952054977417,9.89537334442139,9.89554023742676,9.89570808410645,9.89587593078613,9.8960428237915,9.89621067047119,9.92166042327881,10.0122623443604,10.1045293807983,10.1985244750977,10.2942838668823,10.3918590545654,10.4913015365601,10.5926656723022,10.6960077285767,10.8013858795166,10.9088611602783,11.0184965133667,11.1303577423096,11.244514465332,11.3610363006592,11.4799966812134,11.6014738082886,11.725549697876,11.8523054122925,11.8655157089233,11.8657169342041,11.8659172058105,11.8661184310913,11.8663196563721,11.8665208816528,11.8667211532593,11.86692237854,11.8671236038208,11.8673248291016,11.867525100708,11.8677263259888,11.8679275512695,11.8681287765503,11.8683300018311,11.8815603256226,11.8817615509033,11.8819637298584,11.9527769088745,11.9529790878296,11.9531812667847,11.9533843994141,11.9535865783691,11.9537897109985,11.9539918899536,11.9541940689087,11.9543972015381,11.9545993804932,11.9548025131226,11.9550046920776,11.955207824707,11.9554100036621,11.9556121826172,11.9558153152466,11.9560174942017,11.9562206268311,11.9564228057861,11.9566259384155,11.9568281173706,11.95703125,11.9572334289551,11.9574365615845,11.9576387405396,11.9578418731689,11.958044052124,11.9582471847534,11.9584493637085,11.9586524963379,11.9588556289673,11.9590578079224,11.9592609405518,11.9594631195068,11.9596662521362,11.9598684310913,11.9600715637207,11.9602746963501,11.9604768753052,11.9606800079346,11.960883140564,11.961085319519,11.9612884521484,11.9614906311035,11.9616937637329,11.961895942688,11.9620990753174,11.7439374923706,11.7441377639771,11.7443370819092,11.8183584213257,11.8185606002808,11.8187627792358,11.8189640045166,11.819164276123,11.8193655014038,11.8195657730103,11.8197660446167,11.8199663162231,11.8201675415039,11.8203678131104,11.8205680847168,11.8207683563232,11.820969581604,11.8211698532104,11.8213701248169,11.8215703964233,11.8217716217041,11.8219718933105,11.822172164917,11.8223733901978,11.8225736618042,11.8227739334106,11.8229751586914,11.8231754302979,11.8233757019043,11.8235759735107,11.8237771987915,11.8239774703979,11.8241777420044,11.8243780136108,11.8245792388916,11.824779510498,11.8249797821045,11.8251810073853,11.8253812789917,11.8255815505981,11.8257827758789,11.8259830474854,11.8261833190918,11.8263845443726,11.826584815979,11.8267850875854,11.8269863128662,11.8271865844727
9.8869743347168,9.88714122772217,9.88730907440186,9.88747596740723,9.8876428604126,9.88781070709229,9.88797760009766,9.88814449310303,9.88831233978271,9.88847923278809,9.88864707946777,9.88881397247314,9.88898181915283,9.8891487121582,9.88931560516357,9.88948345184326,9.88965034484863,9.88981819152832,9.88998508453369,9.89015293121338,9.89031982421875,9.89048767089844,9.89065456390381,9.8908224105835,9.89098930358887,9.89115715026855,9.89132404327393,9.89149188995361,9.89165878295898,9.89182662963867,9.89199352264404,9.89216136932373,9.8923282623291,9.89249610900879,9.89266300201416,9.89283084869385,9.89299774169922,9.89316558837891,9.89333343505859,9.89350032806396,9.89366817474365,9.89383506774902,9.89400291442871,9.89416980743408,9.89433765411377,9.89450550079346,9.89467239379883,9.89484024047852,9.92133235931396,10.0119304656982,10.1041879653931,10.1981754302979,10.2939291000366,10.3914976119995,10.4909324645996,10.5922899246216,10.6956243515015,10.8009948730469,10.9084625244141,11.0180902481079,11.1299428939819,11.2440910339355,11.3606042861938,11.4795570373535,11.6010265350342,11.7250928878784,11.8518400192261,11.8638715744019,11.8640727996826,11.8642740249634,11.8644742965698,11.8646755218506,11.8648767471313,11.8650770187378,11.8652782440186,11.8654794692993,11.8656797409058,11.8658809661865,11.8660821914673,11.866283416748,11.8664836883545,11.8666849136353,11.8799133300781,11.8801155090332,11.880316734314,11.9511203765869,11.951322555542,11.9515256881714,11.9517278671265,11.9519300460815,11.9521322250366,11.952335357666,11.9525375366211,11.9527406692505,11.9529428482056,11.9531450271606,11.95334815979,11.9535503387451,11.9537525177002,11.9539556503296,11.9541578292847,11.9543609619141,11.9545631408691,11.9547653198242,11.9549684524536,11.9551706314087,11.9553737640381,11.9555759429932,11.9557790756226,11.9559812545776,11.9561834335327,11.9563865661621,11.9565887451172,11.9567918777466,11.9569940567017,11.9571971893311,11.9573993682861,11.9576025009155,11.9578046798706,11.9580078125,11.9582109451294,11.9584131240845,11.9586162567139,11.9588184356689,11.9590215682983,11.9592237472534,11.9594268798828,11.9596300125122,11.9598321914673,11.9600353240967,11.9602375030518,11.9604396820068,11.7423095703125,11.7425088882446,11.7427082061768,11.8167190551758,11.8169212341309,11.8171243667603,11.8173246383667,11.8175249099731,11.8177261352539,11.8179264068604,11.8181266784668,11.8183269500732,11.8185272216797,11.8187274932861,11.8189287185669,11.8191289901733,11.8193292617798,11.8195295333862,11.819730758667,11.8199310302734,11.8201313018799,11.8203315734863,11.8205318450928,11.8207330703735,11.82093334198,11.8211336135864,11.8213348388672,11.8215351104736,11.8217353820801,11.8219356536865,11.822135925293,11.8223371505737,11.8225374221802,11.8227376937866,11.8229379653931,11.8231382369995,11.8233394622803,11.8235397338867,11.8237400054932,11.8239402770996,11.8241415023804,11.8243417739868,11.8245420455933,11.824743270874,11.8249435424805,11.8251438140869,11.8253450393677,11.8255453109741
