9.36086750030518,9.36100387573242,9.36113929748535,9.3612756729126,9.36141204833984,9.36154747009277,9.36168384552002,9.36181926727295,9.3619556427002,9.36209106445312,9.36222743988037,9.3623628616333,9.36249923706055,9.36263465881348,9.36277103424072,9.36290740966797,9.3630428314209,9.36317920684814,9.36331462860107,9.36345100402832,9.36358737945557,9.3637228012085,9.36385917663574,9.36399459838867,9.36413097381592,9.36426734924316,9.36440277099609,9.36453914642334,9.36467552185059,9.36481094360352,9.36494731903076,9.36508274078369,9.36521911621094,9.36535549163818,9.36549091339111,9.36562728881836,9.36576366424561,9.36589908599854,9.36603546142578,9.36617183685303,9.36630725860596,9.3664436340332,9.36658000946045,9.3667163848877,9.36685180664062,9.36698818206787,9.36712455749512,9.36725997924805,9.36739635467529,9.36753273010254,9.36766910552979,9.36780452728271,9.36794090270996,9.36807727813721,9.36821365356445,9.36834907531738,9.36848545074463,9.36862182617188,9.36875820159912,9.36889362335205,9.3690299987793,9.36916637420654,9.36930274963379,9.36943817138672,9.36957454681396,9.36971092224121,9.36984729766846,9.3699836730957,9.37011909484863,9.37025547027588,9.37039184570312,9.37052822113037,9.37066459655762,9.37080097198486,9.37093639373779,9.37107276916504,9.37120914459229,9.37134552001953,9.37148189544678,9.37161827087402,9.37175464630127,9.3718900680542,9.37202644348145,9.37216281890869,9.37229919433594,9.37243556976318,9.37257194519043,9.37270832061768,9.37284469604492,9.37298011779785,9.3731164932251,9.37325286865234,9.37338924407959,9.37352561950684,9.37366199493408,9.37379837036133,9.37393474578857,9.37407112121582,9.37420749664307,9.37434387207031,9.37448024749756,9.3746166229248,9.37475204467773,9.37488842010498,9.37502479553223,9.37516117095947,9.37529754638672,9.37543392181396,9.37557029724121,9.37570667266846,9.3758430480957,9.37597942352295,9.3761157989502,9.37625217437744,9.37638854980469,9.37652492523193,9.37666130065918,9.37679767608643,9.37693405151367,9.37707042694092,9.4005241394043,9.48292255401611,9.56677722930908,9.65212821960449,9.73901653289795,9.82748317718506,9.91757106781006,10.0093269348145,10.1027956008911,10.1980266571045,10.2621412277222,10.2619562149048,10.2617712020874,10.26158618927,10.2614011764526,10.2612152099609,10.2610301971436,10.2608451843262,10.2606601715088,10.2604751586914,10.260290145874,10.2601051330566,10.2599201202393,10.2597351074219,10.2595500946045,10.2593650817871,10.2591800689697,10.2589950561523,10.258810043335,10.2586250305176,10.2584400177002,10.2582550048828,10.2580699920654,10.257884979248,10.257700920105,10.2575159072876,10.2573308944702,10.2571458816528,10.2569608688354,10.2567758560181,10.2565908432007,10.2564067840576,10.2562227249146,10.2560396194458,10.2558555603027,10.255672454834,10.2554893493652,10.2553052902222,10.2551221847534,10.2549390792847,10.2547550201416,10.2545719146729,10.2543878555298,10.254204750061,10.2540216445923,10.2538375854492,10.2536544799805,10.2534713745117,10.2532873153687,10.2531042098999,10.2529211044312,10.2527370452881,10.2525539398193
9.36106491088867,9.3612003326416,9.36133670806885,9.36147212982178,9.36160850524902,9.36174392700195,9.3618803024292,9.36201572418213,9.36215209960938,9.36228847503662,9.36242389678955,9.3625602722168,9.36269569396973,9.36283206939697,9.3629674911499,9.36310386657715,9.36324024200439,9.36337566375732,9.36351203918457,9.3636474609375,9.36378383636475,9.36392021179199,9.36405563354492,9.36419200897217,9.3643274307251,9.36446380615234,9.36460018157959,9.36473560333252,9.36487197875977,9.36500835418701,9.36514377593994,9.36528015136719,9.36541652679443,9.36555194854736,9.36568832397461,9.36582469940186,9.36596012115479,9.36609649658203,9.36623287200928,9.36636829376221,9.36650466918945,9.3666410446167,9.36677646636963,9.36691284179688,9.36704921722412,9.36718463897705,9.3673210144043,9.36745738983154,9.36759376525879,9.36772918701172,9.36786556243896,9.36800193786621,9.36813831329346,9.36827373504639,9.36841011047363,9.36854648590088,9.36868286132812,9.36881828308105,9.3689546585083,9.36909103393555,9.36922740936279,9.36936378479004,9.36949920654297,9.36963558197021,9.36977195739746,9.36990833282471,9.37004470825195,9.37018013000488,9.37031650543213,9.37045288085938,9.37058925628662,9.37072563171387,9.3708610534668,9.37099742889404,9.37113380432129,9.37127017974854,9.37140655517578,9.37154293060303,9.37167930603027,9.3718147277832,9.37195110321045,9.3720874786377,9.37222385406494,9.37236022949219,9.37249660491943,9.37263298034668,9.37276935577393,9.37290477752686,9.3730411529541,9.37317752838135,9.37331390380859,9.37345027923584,9.37358665466309,9.37372303009033,9.37385940551758,9.37399578094482,9.37413215637207,9.37426853179932,9.37440490722656,9.37454032897949,9.37467670440674,9.37481307983398,9.37494945526123,9.37508583068848,9.37522220611572,9.37535858154297,9.37549495697021,9.37563133239746,9.37576770782471,9.37590408325195,9.3760404586792,9.37617683410645,9.37631320953369,9.37644958496094,9.37658596038818,9.37672233581543,9.37685871124268,9.37699508666992,9.37713146209717,9.37726783752441,9.40077590942383,9.48317813873291,9.56703758239746,9.65239334106445,9.73928642272949,9.82775783538818,9.91785144805908,10.0096120834351,10.1030864715576,10.1983232498169,10.2953720092773,10.3202629089355,10.3200750350952,10.3198881149292,10.3197011947632,10.3195142745972,10.3193264007568,10.3191394805908,10.3189525604248,10.3187656402588,10.3185777664185,10.3183908462524,10.3182039260864,10.3180170059204,10.3178291320801,10.3176422119141,10.317455291748,10.317268371582,10.317081451416,10.31689453125,10.3167066574097,10.3165197372437,10.3163328170776,10.3161458969116,10.3159589767456,10.3157711029053,10.3155841827393,10.3153972625732,10.3152103424072,10.3150234222412,10.3148365020752,10.3146495819092,10.3144626617432,10.3142757415771,10.3140897750854,10.3139038085938,10.3137178421021,10.3135328292847,10.313346862793,10.3131608963013,10.3129758834839,10.3127899169922,10.3126049041748,10.3124189376831,10.3122339248657,10.312047958374,10.3118629455566,10.3116769790649,10.3114919662476,10.3113059997559,10.3111209869385,10.3109350204468,10.3107500076294
9.36126136779785,9.36139678955078,9.36153316497803,9.36166954040527,9.3618049621582,9.36194133758545,9.36207675933838,9.36221313476562,9.36234855651855,9.3624849319458,9.36262035369873,9.36275672912598,9.36289310455322,9.36302852630615,9.3631649017334,9.36330032348633,9.36343669891357,9.36357307434082,9.36370849609375,9.363844871521,9.36398029327393,9.36411666870117,9.36425304412842,9.36438846588135,9.36452484130859,9.36466026306152,9.36479663848877,9.36493301391602,9.36506843566895,9.36520481109619,9.36534118652344,9.36547660827637,9.36561298370361,9.36574935913086,9.36588478088379,9.36602115631104,9.36615753173828,9.36629295349121,9.36642932891846,9.3665657043457,9.36670112609863,9.36683750152588,9.36697387695312,9.36711025238037,9.3672456741333,9.36738204956055,9.36751842498779,9.36765384674072,9.36779022216797,9.36792659759521,9.36806297302246,9.36819839477539,9.36833477020264,9.36847114562988,9.36860752105713,9.36874294281006,9.3688793182373,9.36901569366455,9.3691520690918,9.36928844451904,9.36942386627197,9.36956024169922,9.36969661712646,9.36983299255371,9.36996936798096,9.37010478973389,9.37024116516113,9.37037754058838,9.37051391601562,9.37065029144287,9.3707857131958,9.37092208862305,9.37105846405029,9.37119483947754,9.37133121490479,9.37146759033203,9.37160396575928,9.37173938751221,9.37187576293945,9.3720121383667,9.37214851379395,9.37228488922119,9.37242126464844,9.37255764007568,9.37269401550293,9.37282943725586,9.37296581268311,9.37310218811035,9.3732385635376,9.37337493896484,9.37351131439209,9.37364768981934,9.37378406524658,9.37392044067383,9.37405681610107,9.37419319152832,9.37432861328125,9.3744649887085,9.37460136413574,9.37473773956299,9.37487411499023,9.37501049041748,9.37514686584473,9.37528324127197,9.37541961669922,9.37555599212646,9.37569236755371,9.37582874298096,9.3759651184082,9.37610149383545,9.3762378692627,9.37637424468994,9.37651062011719,9.37664699554443,9.37678337097168,9.37691974639893,9.37705612182617,9.37719249725342,9.37732887268066,9.37746524810791,9.40102767944336,9.48343467712402,9.56729793548584,9.65265846252441,9.73955631256104,9.82803249359131,9.91813087463379,10.0098972320557,10.1033763885498,10.198618888855,10.2956733703613,10.3792352676392,10.3790464401245,10.3788566589355,10.3786678314209,10.3784780502319,10.3782892227173,10.3780994415283,10.3779106140137,10.3777208328247,10.3775320053101,10.3773422241211,10.3771533966064,10.3769636154175,10.3767747879028,10.3765850067139,10.3763961791992,10.3762063980103,10.3760175704956,10.375828742981,10.375638961792,10.3754501342773,10.3752603530884,10.3750715255737,10.3748826980591,10.3746929168701,10.3745040893555,10.3743152618408,10.3741254806519,10.3739366531372,10.3737478256226,10.3735580444336,10.3733692169189,10.37317943573,10.3729906082153,10.3728017807007,10.372612953186,10.3724241256714,10.3722372055054,10.372049331665,10.3718614578247,10.3716735839844,10.371485710144,10.371298789978,10.3711109161377,10.3709230422974,10.370735168457,10.370548248291,10.3703603744507,10.3701725006104,10.36998462677,10.369797706604,10.3696098327637
9.36145782470703,9.36159420013428,9.36172962188721,9.36186599731445,9.36200141906738,9.36213779449463,9.36227321624756,9.3624095916748,9.36254596710205,9.36268138885498,9.36281776428223,9.36295318603516,9.3630895614624,9.36322498321533,9.36336135864258,9.36349773406982,9.36363315582275,9.36376953125,9.36390590667725,9.36404132843018,9.36417770385742,9.36431312561035,9.3644495010376,9.36458587646484,9.36472129821777,9.36485767364502,9.36499404907227,9.3651294708252,9.36526584625244,9.36540126800537,9.36553764343262,9.36567401885986,9.36580944061279,9.36594581604004,9.36608219146729,9.36621761322021,9.36635398864746,9.36649036407471,9.36662673950195,9.36676216125488,9.36689853668213,9.36703491210938,9.3671703338623,9.36730670928955,9.3674430847168,9.36757946014404,9.36771488189697,9.36785125732422,9.36798763275146,9.36812305450439,9.36825942993164,9.36839580535889,9.36853218078613,9.36866855621338,9.36880397796631,9.36894035339355,9.3690767288208,9.36921310424805,9.36934852600098,9.36948490142822,9.36962127685547,9.36975765228271,9.36989402770996,9.37002944946289,9.37016582489014,9.37030220031738,9.37043857574463,9.37057495117188,9.3707103729248,9.37084674835205,9.3709831237793,9.37111949920654,9.37125587463379,9.37139225006104,9.37152862548828,9.37166404724121,9.37180042266846,9.3719367980957,9.37207317352295,9.3722095489502,9.37234592437744,9.37248229980469,9.37261772155762,9.37275409698486,9.37289047241211,9.37302684783936,9.3731632232666,9.37329959869385,9.37343597412109,9.37357234954834,9.37370872497559,9.37384510040283,9.37398147583008,9.37411785125732,9.37425327301025,9.3743896484375,9.37452602386475,9.37466239929199,9.37479877471924,9.37493515014648,9.37507152557373,9.37520790100098,9.37534427642822,9.37548065185547,9.37561702728271,9.37575340270996,9.37588977813721,9.37602615356445,9.3761625289917,9.37629890441895,9.37643527984619,9.37657165527344,9.37670803070068,9.37684440612793,9.37698078155518,9.37711715698242,9.37725353240967,9.37738990783691,9.37752628326416,9.37766265869141,9.40127944946289,9.48369026184082,9.56755924224854,9.65292453765869,9.73982620239258,9.82830810546875,9.91841125488281,10.0101823806763,10.1036672592163,10.1989145278931,10.2959756851196,10.3949012756348,10.4386949539185,10.4385032653809,10.4383115768433,10.43812084198,10.4379291534424,10.4377374649048,10.4375457763672,10.4373540878296,10.4371633529663,10.4369716644287,10.4367799758911,10.4365882873535,10.4363975524902,10.4362058639526,10.436014175415,10.4358224868774,10.4356317520142,10.4354400634766,10.435248374939,10.4350566864014,10.4348659515381,10.4346742630005,10.4344825744629,10.4342918395996,10.434100151062,10.4339094161987,10.4337177276611,10.4335260391235,10.4333353042603,10.4331436157227,10.4329519271851,10.4327611923218,10.4325695037842,10.4323787689209,10.4321870803833,10.4319953918457,10.4318046569824,10.4316129684448,10.4314231872559,10.4312334060669,10.4310436248779,10.430853843689,10.4306640625,10.430474281311,10.4302845001221,10.4300947189331,10.4299049377441,10.4297151565552,10.4295253753662,10.4293355941772,10.4291458129883
9.36165428161621,9.36179065704346,9.3619270324707,9.36206245422363,9.36219882965088,9.36233425140381,9.36247062683105,9.36260604858398,9.36274242401123,9.36287784576416,9.36301422119141,9.36315059661865,9.36328601837158,9.36342239379883,9.36355781555176,9.363694190979,9.36383056640625,9.36396598815918,9.36410236358643,9.36423778533936,9.3643741607666,9.36451053619385,9.36464595794678,9.36478233337402,9.36491870880127,9.3650541305542,9.36519050598145,9.36532688140869,9.36546230316162,9.36559867858887,9.36573505401611,9.36587047576904,9.36600685119629,9.36614322662354,9.36627864837646,9.36641502380371,9.36655139923096,9.36668682098389,9.36682319641113,9.36695957183838,9.36709499359131,9.36723136901855,9.3673677444458,9.36750411987305,9.36763954162598,9.36777591705322,9.36791229248047,9.36804866790771,9.36818408966064,9.36832046508789,9.36845684051514,9.36859321594238,9.36872863769531,9.36886501312256,9.3690013885498,9.36913776397705,9.36927318572998,9.36940956115723,9.36954593658447,9.36968231201172,9.36981868743896,9.36995410919189,9.37009048461914,9.37022686004639,9.37036323547363,9.37049961090088,9.37063503265381,9.37077140808105,9.3709077835083,9.37104415893555,9.37118053436279,9.37131690979004,9.37145328521729,9.37158870697021,9.37172508239746,9.37186145782471,9.37199783325195,9.3721342086792,9.37227058410645,9.37240695953369,9.37254238128662,9.37267875671387,9.37281513214111,9.37295150756836,9.37308788299561,9.37322425842285,9.3733606338501,9.37349700927734,9.37363338470459,9.37376976013184,9.37390613555908,9.37404155731201,9.37417793273926,9.3743143081665,9.37445068359375,9.374587059021,9.37472343444824,9.37485980987549,9.37499618530273,9.37513256072998,9.37526893615723,9.37540531158447,9.37554168701172,9.37567806243896,9.37581443786621,9.37595081329346,9.3760871887207,9.37622356414795,9.3763599395752,9.37649631500244,9.37663269042969,9.37676906585693,9.37690544128418,9.37704181671143,9.37717819213867,9.37731456756592,9.37745094299316,9.37758731842041,9.37772369384766,9.3778600692749,9.40153026580811,9.48394584655762,9.56781959533691,9.65318965911865,9.74009609222412,9.82858276367188,9.91869163513184,10.0104675292969,10.1039581298828,10.1992111206055,10.2962770462036,10.3952083587646,10.4960594177246,10.4988393783569,10.4986457824707,10.4984521865845,10.4982585906982,10.498064994812,10.4978704452515,10.4976768493652,10.497483253479,10.4972896575928,10.4970960617065,10.4969024658203,10.4967088699341,10.4965152740479,10.4963216781616,10.4961280822754,10.4959344863892,10.4957408905029,10.4955472946167,10.4953536987305,10.4951591491699,10.494966506958,10.4947719573975,10.4945793151855,10.4943857192993,10.4941921234131,10.4939985275269,10.4938049316406,10.4936113357544,10.4934177398682,10.4932241439819,10.4930305480957,10.4928369522095,10.4926433563232,10.492449760437,10.4922561645508,10.4920625686646,10.4918689727783,10.4916763305664,10.4914827346802,10.4912891387939,10.4910974502563,10.4909048080444,10.4907131195068,10.4905214309692,10.4903287887573,10.4901371002197,10.4899454116821,10.4897527694702,10.4895610809326,10.489369392395
9.36185169219971,9.36198711395264,9.36212348937988,9.36225891113281,9.36239528656006,9.3625316619873,9.36266708374023,9.36280345916748,9.36293888092041,9.36307525634766,9.36321067810059,9.36334705352783,9.36348342895508,9.36361885070801,9.36375522613525,9.36389064788818,9.36402702331543,9.36416339874268,9.36429882049561,9.36443519592285,9.3645715713501,9.36470699310303,9.36484336853027,9.3649787902832,9.36511516571045,9.3652515411377,9.36538696289062,9.36552333831787,9.36565971374512,9.36579513549805,9.36593151092529,9.36606788635254,9.36620330810547,9.36633968353271,9.36647605895996,9.36661148071289,9.36674785614014,9.36688423156738,9.36702060699463,9.36715602874756,9.3672924041748,9.36742877960205,9.36756420135498,9.36770057678223,9.36783695220947,9.36797332763672,9.36810874938965,9.36824512481689,9.36838150024414,9.36851787567139,9.36865329742432,9.36878967285156,9.36892604827881,9.36906242370605,9.36919784545898,9.36933422088623,9.36947059631348,9.36960697174072,9.36974334716797,9.3698787689209,9.37001514434814,9.37015151977539,9.37028789520264,9.37042427062988,9.37056064605713,9.37069606781006,9.3708324432373,9.37096881866455,9.3711051940918,9.37124156951904,9.37137794494629,9.37151336669922,9.37164974212646,9.37178611755371,9.37192249298096,9.3720588684082,9.37219524383545,9.3723316192627,9.37246704101562,9.37260341644287,9.37273979187012,9.37287616729736,9.37301254272461,9.37314891815186,9.3732852935791,9.37342166900635,9.37355804443359,9.37369441986084,9.37383079528809,9.37396621704102,9.37410259246826,9.37423896789551,9.37437534332275,9.37451171875,9.37464809417725,9.37478446960449,9.37492084503174,9.37505722045898,9.37519359588623,9.37532997131348,9.37546634674072,9.37560272216797,9.37573909759521,9.37587547302246,9.37601184844971,9.37614822387695,9.3762845993042,9.37642097473145,9.37655735015869,9.37669372558594,9.37683010101318,9.37696647644043,9.37710285186768,9.37723922729492,9.37737560272217,9.37751197814941,9.37764835357666,9.37778472900391,9.37792110443115,9.3780574798584,9.40178203582764,9.48420238494873,9.56807994842529,9.65345478057861,9.74036598205566,9.828857421875,9.91897106170654,10.0107526779175,10.104248046875,10.1995067596436,10.2965784072876,10.3955163955688,10.4963731765747,10.5598773956299,10.5596809387207,10.5594854354858,10.5592889785767,10.5590934753418,10.5588970184326,10.5587015151978,10.5585050582886,10.5583095550537,10.5581130981445,10.5579175949097,10.5577211380005,10.5575256347656,10.5573301315308,10.5571336746216,10.5569381713867,10.5567417144775,10.5565462112427,10.5563507080078,10.5561542510986,10.5559587478638,10.5557622909546,10.5555667877197,10.5553712844849,10.5551748275757,10.5549793243408,10.554783821106,10.5545873641968,10.5543918609619,10.5541963577271,10.5540008544922,10.553804397583,10.5536088943481,10.5534133911133,10.5532169342041,10.5530214309692,10.5528259277344,10.5526304244995,10.5524339675903,10.5522384643555,10.5520429611206,10.5518474578857,10.5516519546509,10.5514574050903,10.5512638092041,10.5510692596436,10.550874710083,10.5506811141968,10.5504865646362,10.5502920150757
9.36204814910889,9.36218452453613,9.36231994628906,9.36245632171631,9.36259174346924,9.36272811889648,9.36286354064941,9.36299991607666,9.36313629150391,9.36327171325684,9.36340808868408,9.36354351043701,9.36367988586426,9.3638162612915,9.36395168304443,9.36408805847168,9.36422348022461,9.36435985565186,9.3644962310791,9.36463165283203,9.36476802825928,9.36490440368652,9.36503982543945,9.3651762008667,9.36531257629395,9.36544799804688,9.36558437347412,9.36571979522705,9.3658561706543,9.36599254608154,9.36612892150879,9.36626434326172,9.36640071868896,9.36653709411621,9.36667251586914,9.36680889129639,9.36694526672363,9.36708068847656,9.36721706390381,9.36735343933105,9.36748886108398,9.36762523651123,9.36776161193848,9.36789798736572,9.36803340911865,9.3681697845459,9.36830615997314,9.36844253540039,9.36857795715332,9.36871433258057,9.36885070800781,9.36898708343506,9.3691234588623,9.36925888061523,9.36939525604248,9.36953163146973,9.36966800689697,9.3698034286499,9.36993980407715,9.37007617950439,9.37021255493164,9.37034893035889,9.37048530578613,9.37062072753906,9.37075710296631,9.37089347839355,9.3710298538208,9.37116622924805,9.37130260467529,9.37143802642822,9.37157440185547,9.37171077728271,9.37184715270996,9.37198352813721,9.37211990356445,9.3722562789917,9.37239170074463,9.37252807617188,9.37266445159912,9.37280082702637,9.37293720245361,9.37307357788086,9.37320995330811,9.37334632873535,9.3734827041626,9.37361907958984,9.37375450134277,9.37389087677002,9.37402725219727,9.37416362762451,9.37430000305176,9.374436378479,9.37457275390625,9.3747091293335,9.37484550476074,9.37498188018799,9.37511825561523,9.37525463104248,9.37539100646973,9.37552738189697,9.37566375732422,9.37580013275146,9.37593650817871,9.37607288360596,9.3762092590332,9.37634563446045,9.3764820098877,9.37661838531494,9.37675476074219,9.37689113616943,9.37702751159668,9.37716388702393,9.37730026245117,9.37743663787842,9.37757301330566,9.37770938873291,9.37784576416016,9.3779821395874,9.37811851501465,9.37825489044189,9.40203380584717,9.48445796966553,9.56834030151367,9.65371990203857,9.74063682556152,9.82913208007812,9.91925144195557,10.0110378265381,10.1045389175415,10.199803352356,10.2968807220459,10.3958234786987,10.4966869354248,10.5995264053345,10.6214303970337,10.6212320327759,10.6210336685181,10.6208353042603,10.6206369400024,10.6204385757446,10.6202402114868,10.6200428009033,10.6198444366455,10.6196460723877,10.6194477081299,10.6192493438721,10.6190509796143,10.6188526153564,10.6186552047729,10.6184568405151,10.6182584762573,10.6180601119995,10.6178617477417,10.6176643371582,10.6174659729004,10.6172676086426,10.6170692443848,10.6168718338013,10.6166734695435,10.6164751052856,10.6162767410278,10.6160793304443,10.6158809661865,10.6156826019287,10.6154851913452,10.6152868270874,10.6150884628296,10.6148910522461,10.6146926879883,10.6144943237305,10.614296913147,10.6140985488892,10.6139001846313,10.6137027740479,10.61350440979,10.6133069992065,10.6131086349487,10.6129102706909,10.6127128601074,10.6125164031982,10.6123199462891,10.6121234893799,10.6119270324707
9.36224460601807,9.36238098144531,9.36251640319824,9.36265277862549,9.36278915405273,9.36292457580566,9.36306095123291,9.36319637298584,9.36333274841309,9.36346912384033,9.36360454559326,9.36374092102051,9.36387634277344,9.36401271820068,9.36414909362793,9.36428451538086,9.36442089080811,9.36455631256104,9.36469268798828,9.36482906341553,9.36496448516846,9.3651008605957,9.36523723602295,9.36537265777588,9.36550903320312,9.36564540863037,9.3657808303833,9.36591720581055,9.36605358123779,9.36618900299072,9.36632537841797,9.36646175384521,9.36659717559814,9.36673355102539,9.36686992645264,9.36700534820557,9.36714172363281,9.36727809906006,9.3674144744873,9.36754989624023,9.36768627166748,9.36782264709473,9.36795806884766,9.3680944442749,9.36823081970215,9.36836719512939,9.36850261688232,9.36863899230957,9.36877536773682,9.36891174316406,9.36904811859131,9.36918354034424,9.36931991577148,9.36945629119873,9.36959266662598,9.36972904205322,9.36986446380615,9.3700008392334,9.37013721466064,9.37027359008789,9.37040996551514,9.37054538726807,9.37068176269531,9.37081813812256,9.3709545135498,9.37109088897705,9.3712272644043,9.37136268615723,9.37149906158447,9.37163543701172,9.37177181243896,9.37190818786621,9.37204456329346,9.3721809387207,9.37231636047363,9.37245273590088,9.37258911132812,9.37272548675537,9.37286186218262,9.37299823760986,9.37313461303711,9.37327098846436,9.3734073638916,9.37354373931885,9.37367916107178,9.37381553649902,9.37395191192627,9.37408828735352,9.37422466278076,9.37436103820801,9.37449741363525,9.3746337890625,9.37477016448975,9.37490653991699,9.37504291534424,9.37517929077148,9.37531566619873,9.37545204162598,9.37558841705322,9.37572479248047,9.37586116790771,9.37599754333496,9.37613391876221,9.37627029418945,9.3764066696167,9.37654304504395,9.37667942047119,9.37681579589844,9.37695217132568,9.37708854675293,9.37722492218018,9.37736129760742,9.37749767303467,9.37763404846191,9.37777042388916,9.37790679931641,9.37804317474365,9.3781795501709,9.37831592559814,9.37845230102539,9.4022855758667,9.48471450805664,9.56860065460205,9.65398502349854,9.74090671539307,9.82940769195557,9.91953086853027,10.0113229751587,10.104829788208,10.200098991394,10.2971820831299,10.3961315155029,10.4970006942749,10.5998458862305,10.6839056015015,10.683705329895,10.6835050582886,10.6833038330078,10.6831035614014,10.6829023361206,10.6827020645142,10.6825017929077,10.682300567627,10.6821002960205,10.6819000244141,10.6816987991333,10.6814985275269,10.6812982559204,10.681097984314,10.6808977127075,10.6806964874268,10.6804962158203,10.6802959442139,10.6800947189331,10.6798944473267,10.6796941757202,10.6794939041138,10.679292678833,10.6790924072266,10.6788921356201,10.6786918640137,10.6784915924072,10.6782913208008,10.6780910491943,10.6778898239136,10.6776895523071,10.6774892807007,10.6772890090942,10.6770887374878,10.6768884658813,10.6766881942749,10.6764879226685,10.676287651062,10.6760873794556,10.6758861541748,10.6756858825684,10.6754856109619,10.6752853393555,10.675085067749,10.6748847961426,10.6746845245361,10.674485206604,10.6742868423462
9.36244201660156,9.36257743835449,9.36271381378174,9.36284923553467,9.36298561096191,9.36312103271484,9.36325740814209,9.36339378356934,9.36352920532227,9.36366558074951,9.36380100250244,9.36393737792969,9.36407375335693,9.36420917510986,9.36434555053711,9.36448192596436,9.36461734771729,9.36475372314453,9.36488914489746,9.36502552032471,9.36516189575195,9.36529731750488,9.36543369293213,9.36557006835938,9.3657054901123,9.36584186553955,9.3659782409668,9.36611366271973,9.36625003814697,9.36638641357422,9.36652183532715,9.36665821075439,9.36679458618164,9.36693096160889,9.36706638336182,9.36720275878906,9.36733913421631,9.36747455596924,9.36761093139648,9.36774730682373,9.36788368225098,9.36801910400391,9.36815547943115,9.3682918548584,9.36842823028564,9.36856365203857,9.36870002746582,9.36883640289307,9.36897277832031,9.36910820007324,9.36924457550049,9.36938095092773,9.36951732635498,9.36965370178223,9.36978912353516,9.3699254989624,9.37006187438965,9.37019824981689,9.37033462524414,9.37047004699707,9.37060642242432,9.37074279785156,9.37087917327881,9.37101554870605,9.3711519241333,9.37128734588623,9.37142372131348,9.37156009674072,9.37169647216797,9.37183284759521,9.37196922302246,9.37210559844971,9.37224102020264,9.37237739562988,9.37251377105713,9.37265014648438,9.37278652191162,9.37292289733887,9.37305927276611,9.37319564819336,9.37333202362061,9.37346744537354,9.37360382080078,9.37374019622803,9.37387657165527,9.37401294708252,9.37414932250977,9.37428569793701,9.37442207336426,9.3745584487915,9.37469482421875,9.374831199646,9.37496757507324,9.37510395050049,9.37524032592773,9.37537670135498,9.37551307678223,9.37564945220947,9.37578582763672,9.37592220306396,9.37605857849121,9.37619495391846,9.3763313293457,9.37646770477295,9.3766040802002,9.37674045562744,9.37687683105469,9.37701320648193,9.37714958190918,9.37728595733643,9.37742233276367,9.37755870819092,9.37769508361816,9.37783145904541,9.37796783447266,9.3781042098999,9.37824058532715,9.37837696075439,9.37851333618164,9.37864971160889,9.40253734588623,9.48497009277344,9.56886196136475,9.6542501449585,9.74117660522461,9.82968235015869,9.9198112487793,10.0116081237793,10.1051197052002,10.2003955841064,10.2974843978882,10.3964385986328,10.4973134994507,10.6001653671265,10.705060005188,10.7469177246094,10.74671459198,10.7465114593506,10.7463083267212,10.7461061477661,10.7459030151367,10.7456998825073,10.7454967498779,10.7452936172485,10.7450914382935,10.7448883056641,10.7446851730347,10.7444820404053,10.7442789077759,10.7440767288208,10.7438735961914,10.743670463562,10.7434673309326,10.7432651519775,10.7430620193481,10.7428588867188,10.7426557540894,10.7424535751343,10.7422504425049,10.7420473098755,10.7418451309204,10.741641998291,10.7414388656616,10.7412366867065,10.7410335540771,10.7408313751221,10.7406282424927,10.7404251098633,10.7402229309082,10.7400197982788,10.7398166656494,10.7396144866943,10.7394113540649,10.7392091751099,10.7390060424805,10.7388038635254,10.738600730896,10.7383985519409,10.7381954193115,10.7379932403564,10.7377901077271,10.737587928772,10.7373847961426
9.36263847351074,9.36277389526367,9.36291027069092,9.36304664611816,9.36318206787109,9.36331844329834,9.36345386505127,9.36359024047852,9.36372661590576,9.36386203765869,9.36399841308594,9.36413383483887,9.36427021026611,9.36440658569336,9.36454200744629,9.36467838287354,9.36481475830078,9.36495018005371,9.36508655548096,9.3652229309082,9.36535835266113,9.36549472808838,9.36563110351562,9.36576652526855,9.3659029006958,9.36603927612305,9.36617469787598,9.36631107330322,9.36644744873047,9.3665828704834,9.36671924591064,9.36685562133789,9.36699104309082,9.36712741851807,9.36726379394531,9.36739921569824,9.36753559112549,9.36767196655273,9.36780834197998,9.36794376373291,9.36808013916016,9.3682165145874,9.36835289001465,9.36848831176758,9.36862468719482,9.36876106262207,9.36889743804932,9.36903285980225,9.36916923522949,9.36930561065674,9.36944198608398,9.36957836151123,9.36971378326416,9.36985015869141,9.36998653411865,9.3701229095459,9.37025928497314,9.37039470672607,9.37053108215332,9.37066745758057,9.37080383300781,9.37094020843506,9.3710765838623,9.37121200561523,9.37134838104248,9.37148475646973,9.37162113189697,9.37175750732422,9.37189388275146,9.37203025817871,9.37216567993164,9.37230205535889,9.37243843078613,9.37257480621338,9.37271118164062,9.37284755706787,9.37298393249512,9.37312030792236,9.37325668334961,9.37339210510254,9.37352848052979,9.37366485595703,9.37380123138428,9.37393760681152,9.37407398223877,9.37421035766602,9.37434673309326,9.37448310852051,9.37461948394775,9.374755859375,9.37489223480225,9.37502861022949,9.37516498565674,9.37530136108398,9.37543773651123,9.37557411193848,9.37571048736572,9.37584686279297,9.37598323822021,9.37611961364746,9.37625598907471,9.37639236450195,9.3765287399292,9.37666511535645,9.37680149078369,9.37693786621094,9.37707424163818,9.37721061706543,9.37734699249268,9.37748336791992,9.37761974334717,9.37775611877441,9.37789249420166,9.37802886962891,9.37816524505615,9.3783016204834,9.37843799591064,9.37857437133789,9.37871074676514,9.37884712219238,9.40278816223145,9.48522663116455,9.56912231445312,9.65451526641846,9.74144649505615,9.82995700836182,9.92009162902832,10.0118932723999,10.1054105758667,10.2006912231445,10.2977857589722,10.396746635437,10.4976272583008,10.6004858016968,10.7053861618042,10.8108825683594,10.8106775283813,10.810471534729,10.810266494751,10.8100605010986,10.8098554611206,10.8096504211426,10.8094444274902,10.8092393875122,10.8090343475342,10.8088283538818,10.8086233139038,10.8084182739258,10.8082132339478,10.8080072402954,10.8078022003174,10.8075971603394,10.807391166687,10.807186126709,10.806981086731,10.8067760467529,10.8065700531006,10.8063650131226,10.8061599731445,10.8059549331665,10.8057489395142,10.8055438995361,10.8053388595581,10.8051338195801,10.8049287796021,10.804723739624,10.8045177459717,10.8043127059937,10.8041076660156,10.8039026260376,10.8036975860596,10.8034925460815,10.8032875061035,10.8030815124512,10.8028764724731,10.8026714324951,10.8024663925171,10.8022613525391,10.802056312561,10.801851272583,10.801646232605,10.801441192627,10.8012361526489
9.36283493041992,9.36297130584717,9.3631067276001,9.36324310302734,9.36337947845459,9.36351490020752,9.36365127563477,9.3637866973877,9.36392307281494,9.36405944824219,9.36419486999512,9.36433124542236,9.36446666717529,9.36460304260254,9.36473941802979,9.36487483978271,9.36501121520996,9.36514759063721,9.36528301239014,9.36541938781738,9.36555576324463,9.36569118499756,9.3658275604248,9.36596393585205,9.36609935760498,9.36623573303223,9.36637210845947,9.3665075302124,9.36664390563965,9.36678028106689,9.36691570281982,9.36705207824707,9.36718845367432,9.36732482910156,9.36746025085449,9.36759662628174,9.36773300170898,9.36786842346191,9.36800479888916,9.36814117431641,9.36827754974365,9.36841297149658,9.36854934692383,9.36868572235107,9.36882209777832,9.36895751953125,9.3690938949585,9.36923027038574,9.36936664581299,9.36950302124023,9.36963844299316,9.36977481842041,9.36991119384766,9.3700475692749,9.37018394470215,9.37031936645508,9.37045574188232,9.37059211730957,9.37072849273682,9.37086486816406,9.37100124359131,9.37113666534424,9.37127304077148,9.37140941619873,9.37154579162598,9.37168216705322,9.37181854248047,9.37195491790771,9.37209033966064,9.37222671508789,9.37236309051514,9.37249946594238,9.37263584136963,9.37277221679688,9.37290859222412,9.37304496765137,9.37318134307861,9.37331676483154,9.37345314025879,9.37358951568604,9.37372589111328,9.37386226654053,9.37399864196777,9.37413501739502,9.37427139282227,9.37440776824951,9.37454414367676,9.374680519104,9.37481689453125,9.3749532699585,9.37508964538574,9.37522602081299,9.37536239624023,9.37549877166748,9.37563419342041,9.37577056884766,9.3759069442749,9.37604331970215,9.37617969512939,9.37631607055664,9.37645244598389,9.37658882141113,9.37672519683838,9.37686157226562,9.37699794769287,9.37713527679443,9.37727165222168,9.37740802764893,9.37754440307617,9.37768077850342,9.37781715393066,9.37795352935791,9.37808990478516,9.3782262802124,9.37836265563965,9.37849903106689,9.37863540649414,9.37877178192139,9.37890815734863,9.37904453277588,9.40303993225098,9.48548221588135,9.5693826675415,9.65478038787842,9.7417163848877,9.83023262023926,9.92037105560303,10.0121784210205,10.1057014465332,10.2009878158569,10.2980880737305,10.3970537185669,10.4979410171509,10.6008052825928,10.7057113647461,10.8127174377441,10.8754053115845,10.8751974105835,10.8749904632568,10.8747825622559,10.8745746612549,10.8743667602539,10.8741588592529,10.873950958252,10.873743057251,10.87353515625,10.873327255249,10.873119354248,10.8729114532471,10.8727035522461,10.8724956512451,10.8722887039185,10.8720808029175,10.8718729019165,10.8716650009155,10.8714570999146,10.8712491989136,10.8710412979126,10.8708343505859,10.870626449585,10.870418548584,10.870210647583,10.8700037002563,10.8697957992554,10.8695878982544,10.8693799972534,10.8691730499268,10.8689651489258,10.8687572479248,10.8685493469238,10.8683423995972,10.8681344985962,10.8679265975952,10.8677196502686,10.8675117492676,10.8673038482666,10.8670969009399,10.866888999939,10.866681098938,10.8664741516113,10.8662662506104,10.8660583496094,10.8658514022827
9.36303234100342,9.36316776275635,9.36330413818359,9.36343955993652,9.36357593536377,9.36371231079102,9.36384773254395,9.36398410797119,9.36411952972412,9.36425590515137,9.36439228057861,9.36452770233154,9.36466407775879,9.36480045318604,9.36493587493896,9.36507225036621,9.36520767211914,9.36534404754639,9.36548042297363,9.36561584472656,9.36575222015381,9.36588859558105,9.36602401733398,9.36616039276123,9.36629676818848,9.36643218994141,9.36656856536865,9.3667049407959,9.36684131622314,9.36697673797607,9.36711311340332,9.36724948883057,9.3673849105835,9.36752128601074,9.36765766143799,9.36779403686523,9.36792945861816,9.36806583404541,9.36820220947266,9.3683385848999,9.36847400665283,9.36861038208008,9.36874675750732,9.36888313293457,9.3690185546875,9.36915493011475,9.36929130554199,9.36942768096924,9.36956310272217,9.36969947814941,9.36983585357666,9.36997222900391,9.37010860443115,9.37024402618408,9.37038040161133,9.37051677703857,9.37065315246582,9.37078952789307,9.37092590332031,9.37106132507324,9.37119770050049,9.37133407592773,9.37147045135498,9.37160682678223,9.37174320220947,9.37187957763672,9.37201499938965,9.37215137481689,9.37228775024414,9.37242412567139,9.37256050109863,9.37269687652588,9.37283325195312,9.37296962738037,9.3731050491333,9.37324142456055,9.37337779998779,9.37351417541504,9.37365055084229,9.37378692626953,9.37392330169678,9.37405967712402,9.37419605255127,9.37433242797852,9.37446880340576,9.37460517883301,9.37474155426025,9.3748779296875,9.37501430511475,9.37515068054199,9.37528610229492,9.37542247772217,9.37555885314941,9.37569522857666,9.37583160400391,9.37596797943115,9.3761043548584,9.37624073028564,9.37637710571289,9.37651348114014,9.37664985656738,9.37678623199463,9.37692260742188,9.37705898284912,9.37719535827637,9.37733173370361,9.37746906280518,9.37760543823242,9.37774181365967,9.37787818908691,9.37801456451416,9.37815093994141,9.37828731536865,9.3784236907959,9.37856006622314,9.37869644165039,9.37883281707764,9.37896919250488,9.37910556793213,9.37924194335938,9.40329170227051,9.48573875427246,9.56964302062988,9.6550464630127,9.74198627471924,9.83050727844238,9.92065143585205,10.0124645233154,10.1059923171997,10.201283454895,10.2983894348145,10.3973617553711,10.498254776001,10.6011257171631,10.7060375213623,10.8130493164062,10.9222221374512,10.9407033920288,10.9404935836792,10.9402828216553,10.9400730133057,10.9398622512817,10.9396514892578,10.9394416809082,10.9392309188843,10.9390211105347,10.9388103485107,10.9385995864868,10.9383897781372,10.9381790161133,10.9379692077637,10.9377584457397,10.9375486373901,10.9373388290405,10.9371280670166,10.936918258667,10.9367074966431,10.9364976882935,10.9362869262695,10.9360771179199,10.935866355896,10.9356565475464,10.9354467391968,10.9352359771729,10.9350261688232,10.9348163604736,10.9346055984497,10.9343957901001,10.9341850280762,10.9339752197266,10.933765411377,10.933554649353,10.9333448410034,10.9331350326538,10.9329242706299,10.9327144622803,10.9325046539307,10.9322948455811,10.9320840835571,10.9318742752075,10.9316644668579,10.931453704834,10.9312438964844
9.3632287979126,9.36336421966553,9.36350059509277,9.36363697052002,9.36377239227295,9.3639087677002,9.36404514312744,9.36418056488037,9.36431694030762,9.36445236206055,9.36458873748779,9.36472511291504,9.36486053466797,9.36499691009521,9.36513328552246,9.36526870727539,9.36540508270264,9.36554145812988,9.36567687988281,9.36581325531006,9.3659496307373,9.36608505249023,9.36622142791748,9.36635780334473,9.36649322509766,9.3666296005249,9.36676597595215,9.36690139770508,9.36703777313232,9.36717414855957,9.3673095703125,9.36744594573975,9.36758232116699,9.36771869659424,9.36785411834717,9.36799049377441,9.36812686920166,9.36826324462891,9.36839866638184,9.36853504180908,9.36867141723633,9.36880779266357,9.3689432144165,9.36907958984375,9.369215965271,9.36935234069824,9.36948776245117,9.36962413787842,9.36976051330566,9.36989688873291,9.37003326416016,9.37016868591309,9.37030506134033,9.37044143676758,9.37057781219482,9.37071418762207,9.37085056304932,9.37098598480225,9.37112236022949,9.37125873565674,9.37139511108398,9.37153148651123,9.37166786193848,9.37180423736572,9.37193965911865,9.3720760345459,9.37221240997314,9.37234878540039,9.37248516082764,9.37262153625488,9.37275791168213,9.37289428710938,9.3730297088623,9.37316608428955,9.3733024597168,9.37343883514404,9.37357521057129,9.37371158599854,9.37384796142578,9.37398433685303,9.37412071228027,9.37425708770752,9.37439346313477,9.37452983856201,9.37466621398926,9.3748025894165,9.37493801116943,9.37507438659668,9.37521076202393,9.37534713745117,9.37548351287842,9.37561988830566,9.37575626373291,9.37589263916016,9.3760290145874,9.37616539001465,9.37630176544189,9.37643814086914,9.37657451629639,9.37671089172363,9.37684726715088,9.37698364257812,9.37712001800537,9.37725639343262,9.37739276885986,9.37752914428711,9.37766551971436,9.37780284881592,9.37793922424316,9.37807559967041,9.37821197509766,9.3783483505249,9.37848472595215,9.37862110137939,9.37875747680664,9.37889385223389,9.37903022766113,9.37916660308838,9.37930297851562,9.37943935394287,9.40354347229004,9.48599433898926,9.56990432739258,9.65531158447266,9.7422571182251,9.83078193664551,9.92093181610107,10.012749671936,10.1062822341919,10.2015800476074,10.2986917495728,10.3976697921753,10.4985685348511,10.6014451980591,10.7063627243042,10.8133811950684,10.9225616455078,11.0070028305054,11.0067901611328,11.0065774917603,11.0063648223877,11.0061511993408,11.0059385299683,11.0057258605957,11.0055131912231,11.0052995681763,11.0050868988037,11.0048742294312,11.0046615600586,11.004448890686,11.0042352676392,11.0040225982666,11.003809928894,11.0035972595215,11.0033845901489,11.0031719207764,11.0029592514038,11.0027456283569,11.0025329589844,11.0023202896118,11.0021076202393,11.0018949508667,11.0016822814941,11.0014696121216,11.001256942749,11.0010442733765,11.0008316040039,11.0006189346313,11.0004062652588,11.0001935958862,10.9999809265137,10.9997682571411,10.9995555877686,10.999342918396,10.9991302490234,10.9989175796509,10.9987049102783,10.9984922409058,10.9982795715332,10.9980669021606,10.9978542327881,10.9976415634155,10.997428894043
9.36342525482178,9.36356163024902,9.36369705200195,9.3638334274292,9.36396980285645,9.36410522460938,9.36424160003662,9.36437797546387,9.3645133972168,9.36464977264404,9.36478519439697,9.36492156982422,9.36505794525146,9.36519336700439,9.36532974243164,9.36546611785889,9.36560153961182,9.36573791503906,9.36587429046631,9.36600971221924,9.36614608764648,9.36628246307373,9.36641788482666,9.36655426025391,9.36669063568115,9.36682605743408,9.36696243286133,9.36709880828857,9.36723518371582,9.36737060546875,9.367506980896,9.36764335632324,9.36777877807617,9.36791515350342,9.36805152893066,9.36818790435791,9.36832332611084,9.36845970153809,9.36859607696533,9.36873245239258,9.36886787414551,9.36900424957275,9.369140625,9.36927700042725,9.36941337585449,9.36954879760742,9.36968517303467,9.36982154846191,9.36995792388916,9.37009429931641,9.37022972106934,9.37036609649658,9.37050247192383,9.37063884735107,9.37077522277832,9.37091064453125,9.3710470199585,9.37118339538574,9.37131977081299,9.37145614624023,9.37159252166748,9.37172889709473,9.37186431884766,9.3720006942749,9.37213706970215,9.37227344512939,9.37240982055664,9.37254619598389,9.37268257141113,9.37281894683838,9.37295436859131,9.37309074401855,9.3732271194458,9.37336349487305,9.37349987030029,9.37363624572754,9.37377262115479,9.37390899658203,9.37404537200928,9.37418174743652,9.37431812286377,9.37445449829102,9.37459087371826,9.37472629547119,9.37486267089844,9.37499904632568,9.37513542175293,9.37527179718018,9.37540817260742,9.37554454803467,9.37568092346191,9.37581729888916,9.37595367431641,9.37609004974365,9.3762264251709,9.37636280059814,9.37649917602539,9.37663555145264,9.37677192687988,9.37690830230713,9.37704467773438,9.37718105316162,9.37731742858887,9.37745380401611,9.37759017944336,9.37772655487061,9.37786293029785,9.37800025939941,9.37813663482666,9.37827301025391,9.37840938568115,9.3785457611084,9.37868213653564,9.37881851196289,9.37895488739014,9.37909126281738,9.37922763824463,9.37936401367188,9.37950038909912,9.37963676452637,9.40379524230957,9.48625087738037,9.57016468048096,9.65557670593262,9.74252700805664,9.83105754852295,9.92121124267578,10.0130348205566,10.1065731048584,10.2018756866455,10.2989931106567,10.3979768753052,10.4988822937012,10.6017646789551,10.7066879272461,10.8137140274048,10.9229001998901,11.0343008041382,11.0738954544067,11.0736799240112,11.07346534729,11.0732488632202,11.0730333328247,11.0728178024292,11.0726022720337,11.0723876953125,11.072172164917,11.0719566345215,11.071741104126,11.0715255737305,11.071310043335,11.0710945129395,11.0708789825439,11.0706634521484,11.0704479217529,11.0702333450317,11.0700178146362,11.0698022842407,11.0695867538452,11.0693712234497,11.0691556930542,11.0689401626587,11.0687255859375,11.068510055542,11.0682945251465,11.068078994751,11.0678644180298,11.0676488876343,11.0674333572388,11.0672178268433,11.0670022964478,11.0667877197266,11.0665721893311,11.0663566589355,11.0661420822144,11.0659265518188,11.0657110214233,11.0654964447021,11.0652809143066,11.0650653839111,11.0648508071899,11.0646352767944,11.0644197463989
9.36362266540527,9.3637580871582,9.36389446258545,9.36402988433838,9.36416625976562,9.36430263519287,9.3644380569458,9.36457443237305,9.36471080780029,9.36484622955322,9.36498260498047,9.3651180267334,9.36525440216064,9.36539077758789,9.36552619934082,9.36566257476807,9.36579895019531,9.36593437194824,9.36607074737549,9.36620712280273,9.36634254455566,9.36647891998291,9.36661529541016,9.3667516708374,9.36688709259033,9.36702346801758,9.36715984344482,9.36729526519775,9.367431640625,9.36756801605225,9.36770439147949,9.36783981323242,9.36797618865967,9.36811256408691,9.36824798583984,9.36838436126709,9.36852073669434,9.36865711212158,9.36879253387451,9.36892890930176,9.369065284729,9.36920166015625,9.3693380355835,9.36947345733643,9.36960983276367,9.36974620819092,9.36988258361816,9.37001895904541,9.37015438079834,9.37029075622559,9.37042713165283,9.37056350708008,9.37069988250732,9.37083530426025,9.3709716796875,9.37110805511475,9.37124443054199,9.37138080596924,9.37151718139648,9.37165355682373,9.37178897857666,9.37192535400391,9.37206172943115,9.3721981048584,9.37233448028564,9.37247085571289,9.37260723114014,9.37274360656738,9.37287902832031,9.37301540374756,9.3731517791748,9.37328815460205,9.3734245300293,9.37356090545654,9.37369728088379,9.37383365631104,9.37397003173828,9.37410640716553,9.37424278259277,9.37437915802002,9.37451457977295,9.3746509552002,9.37478733062744,9.37492370605469,9.37506008148193,9.37519645690918,9.37533283233643,9.37546920776367,9.37560558319092,9.37574195861816,9.37587833404541,9.37601470947266,9.3761510848999,9.37628746032715,9.37642383575439,9.37656021118164,9.37669658660889,9.37683296203613,9.37696933746338,9.37710571289062,9.37724208831787,9.37737846374512,9.37751483917236,9.37765121459961,9.37778759002686,9.3779239654541,9.37806034088135,9.37819766998291,9.37833404541016,9.3784704208374,9.37860679626465,9.37874317169189,9.37887954711914,9.37901592254639,9.37915229797363,9.37928867340088,9.37942504882812,9.37956142425537,9.37969779968262,9.37983512878418,9.4040470123291,9.48650646209717,9.57042503356934,9.65584182739258,9.74279689788818,9.83133220672607,9.9214916229248,10.0133199691772,10.1068639755249,10.2021722793579,10.299295425415,10.3982849121094,10.4991960525513,10.6020851135254,10.7070140838623,10.8140459060669,10.9232397079468,11.034649848938,11.14182472229,11.1416063308716,11.1413879394531,11.141170501709,11.1409521102905,11.1407337188721,11.1405153274536,11.1402978897095,11.140079498291,11.1398611068726,11.1396436691284,11.13942527771,11.1392068862915,11.138988494873,11.1387710571289,11.1385526657104,11.138334274292,11.1381168365479,11.1378984451294,11.1376810073853,11.1374626159668,11.1372442245483,11.1370267868042,11.1368083953857,11.1365900039673,11.1363725662231,11.1361541748047,11.1359367370605,11.1357183456421,11.1355009078979,11.1352825164795,11.1350650787354,11.1348466873169,11.1346292495728,11.1344108581543,11.1341934204102,11.1339750289917,11.1337575912476,11.1335391998291,11.133321762085,11.1331033706665,11.1328859329224,11.1326675415039,11.1324501037598,11.1322326660156
9.36381912231445,9.3639554977417,9.36409091949463,9.36422729492188,9.3643627166748,9.36449909210205,9.3646354675293,9.36477088928223,9.36490726470947,9.36504364013672,9.36517906188965,9.36531543731689,9.36545181274414,9.36558723449707,9.36572360992432,9.36585998535156,9.36599540710449,9.36613178253174,9.36626815795898,9.36640357971191,9.36653995513916,9.36667633056641,9.36681175231934,9.36694812774658,9.36708450317383,9.36721992492676,9.367356300354,9.36749267578125,9.3676290512085,9.36776447296143,9.36790084838867,9.36803722381592,9.36817359924316,9.36830902099609,9.36844539642334,9.36858177185059,9.36871814727783,9.36885356903076,9.36898994445801,9.36912631988525,9.3692626953125,9.36939811706543,9.36953449249268,9.36967086791992,9.36980724334717,9.36994361877441,9.37007904052734,9.37021541595459,9.37035179138184,9.37048816680908,9.37062454223633,9.37075996398926,9.3708963394165,9.37103271484375,9.371169090271,9.37130546569824,9.37144184112549,9.37157821655273,9.37171363830566,9.37185001373291,9.37198638916016,9.3721227645874,9.37225914001465,9.37239551544189,9.37253189086914,9.37266826629639,9.37280368804932,9.37294006347656,9.37307643890381,9.37321281433105,9.3733491897583,9.37348556518555,9.37362194061279,9.37375831604004,9.37389469146729,9.37403106689453,9.37416744232178,9.37430286407471,9.37443923950195,9.3745756149292,9.37471199035645,9.37484836578369,9.37498474121094,9.37512111663818,9.37525749206543,9.37539386749268,9.37553024291992,9.37566661834717,9.37580299377441,9.37593936920166,9.37607574462891,9.37621212005615,9.3763484954834,9.37648487091064,9.37662124633789,9.37675762176514,9.37689399719238,9.37703037261963,9.37716674804688,9.37730312347412,9.37743949890137,9.37757587432861,9.37771224975586,9.37784862518311,9.37798500061035,9.3781213760376,9.37825775146484,9.37839508056641,9.37853145599365,9.3786678314209,9.37880420684814,9.37894058227539,9.37907695770264,9.37921333312988,9.37934970855713,9.37948608398438,9.37962245941162,9.37975883483887,9.37989521026611,9.38003253936768,9.40429878234863,9.48676300048828,9.57068634033203,9.65610694885254,9.74306678771973,9.83160781860352,9.92177200317383,10.0136051177979,10.1071548461914,10.2024688720703,10.299596786499,10.3985929489136,10.4995098114014,10.6024045944214,10.7073392868042,10.814377784729,10.9235782623291,11.0349998474121,11.1486825942993,11.2103710174561,11.2101497650146,11.2099294662476,11.2097082138062,11.2094879150391,11.2092666625977,11.2090463638306,11.2088251113892,11.2086038589478,11.2083835601807,11.2081623077393,11.2079420089722,11.2077207565308,11.2075004577637,11.2072792053223,11.2070589065552,11.2068376541138,11.2066173553467,11.2063961029053,11.2061758041382,11.2059555053711,11.2057342529297,11.2055139541626,11.2052927017212,11.2050724029541,11.2048511505127,11.2046308517456,11.2044105529785,11.2041893005371,11.20396900177,11.2037487030029,11.2035274505615,11.2033071517944,11.2030868530273,11.2028656005859,11.2026453018188,11.2024250030518,11.2022037506104,11.2019834518433,11.2017631530762,11.2015428543091,11.2013216018677,11.2011013031006,11.2008810043335
9.36401557922363,9.36415195465088,9.36428833007812,9.36442375183105,9.3645601272583,9.36469554901123,9.36483192443848,9.36496829986572,9.36510372161865,9.3652400970459,9.36537647247314,9.36551189422607,9.36564826965332,9.36578464508057,9.3659200668335,9.36605644226074,9.36619281768799,9.36632823944092,9.36646461486816,9.36660099029541,9.36673641204834,9.36687278747559,9.36700916290283,9.36714553833008,9.36728096008301,9.36741733551025,9.3675537109375,9.36768913269043,9.36782550811768,9.36796188354492,9.36809825897217,9.3682336807251,9.36837005615234,9.36850643157959,9.36864280700684,9.36877822875977,9.36891460418701,9.36905097961426,9.3691873550415,9.36932277679443,9.36945915222168,9.36959552764893,9.36973190307617,9.36986827850342,9.37000370025635,9.37014007568359,9.37027645111084,9.37041282653809,9.37054920196533,9.37068462371826,9.37082099914551,9.37095737457275,9.37109375,9.37123012542725,9.37136650085449,9.37150287628174,9.37163829803467,9.37177467346191,9.37191104888916,9.37204742431641,9.37218379974365,9.3723201751709,9.37245655059814,9.37259197235107,9.37272834777832,9.37286472320557,9.37300109863281,9.37313747406006,9.3732738494873,9.37341022491455,9.3735466003418,9.37368297576904,9.37381935119629,9.37395572662354,9.37409210205078,9.37422752380371,9.37436389923096,9.3745002746582,9.37463665008545,9.3747730255127,9.37490940093994,9.37504577636719,9.37518215179443,9.37531852722168,9.37545490264893,9.37559127807617,9.37572765350342,9.37586402893066,9.37600040435791,9.37613677978516,9.3762731552124,9.37640953063965,9.37654590606689,9.37668228149414,9.37681865692139,9.37695503234863,9.37709140777588,9.37722778320312,9.37736415863037,9.37750053405762,9.37763690948486,9.37777328491211,9.37790966033936,9.3780460357666,9.37818241119385,9.37831878662109,9.37845516204834,9.3785924911499,9.37872886657715,9.37886524200439,9.37900161743164,9.37913799285889,9.37927436828613,9.37941074371338,9.37954711914062,9.37968349456787,9.37981986999512,9.37995624542236,9.38009357452393,9.38022994995117,9.40455055236816,9.48701858520508,9.57094669342041,9.65637302398682,9.74333763122559,9.83188247680664,9.92205238342285,10.0138912200928,10.1074457168579,10.2027645111084,10.2998991012573,10.3989000320435,10.4998235702515,10.6027250289917,10.7076654434204,10.8147106170654,10.9239177703857,11.0353488922119,11.1490392684937,11.2650966644287,11.2797660827637,11.2795419692993,11.2793188095093,11.2790956497192,11.2788715362549,11.2786483764648,11.2784242630005,11.2782011032104,11.2779769897461,11.2777538299561,11.277530670166,11.2773065567017,11.2770833969116,11.2768592834473,11.2766361236572,11.2764129638672,11.2761888504028,11.2759656906128,11.2757425308228,11.2755184173584,11.2752952575684,11.2750720977783,11.274847984314,11.2746248245239,11.2744016647339,11.2741785049438,11.2739543914795,11.2737312316895,11.2735080718994,11.2732839584351,11.273060798645,11.272837638855,11.2726144790649,11.2723913192749,11.2721681594849,11.2719440460205,11.2717208862305,11.2714977264404,11.2712745666504,11.2710514068604,11.2708282470703,11.270604133606,11.2703809738159
9.36421298980713,9.36434841156006,9.3644847869873,9.36462116241455,9.36475658416748,9.36489295959473,9.36502933502197,9.3651647567749,9.36530113220215,9.36543655395508,9.36557292938232,9.36570930480957,9.3658447265625,9.36598110198975,9.36611747741699,9.36625385284424,9.36638927459717,9.36652565002441,9.36666202545166,9.36679744720459,9.36693382263184,9.36707019805908,9.36720561981201,9.36734199523926,9.3674783706665,9.36761474609375,9.36775016784668,9.36788654327393,9.36802291870117,9.3681583404541,9.36829471588135,9.36843109130859,9.36856746673584,9.36870288848877,9.36883926391602,9.36897563934326,9.36911201477051,9.36924839019775,9.36938381195068,9.36952018737793,9.36965656280518,9.36979293823242,9.36992835998535,9.3700647354126,9.37020111083984,9.37033748626709,9.37047386169434,9.37061023712158,9.37074565887451,9.37088203430176,9.371018409729,9.37115478515625,9.3712911605835,9.37142753601074,9.37156295776367,9.37169933319092,9.37183570861816,9.37197208404541,9.37210845947266,9.3722448348999,9.37238121032715,9.37251663208008,9.37265300750732,9.37278938293457,9.37292575836182,9.37306213378906,9.37319850921631,9.37333488464355,9.3734712600708,9.37360763549805,9.37374401092529,9.37388038635254,9.37401580810547,9.37415218353271,9.37428855895996,9.37442493438721,9.37456130981445,9.3746976852417,9.37483406066895,9.37497043609619,9.37510681152344,9.37524318695068,9.37537956237793,9.37551593780518,9.37565231323242,9.37578868865967,9.37592506408691,9.37606143951416,9.37619781494141,9.37633419036865,9.3764705657959,9.37660694122314,9.37674331665039,9.37687969207764,9.37701606750488,9.37715244293213,9.37728881835938,9.37742519378662,9.37756156921387,9.37769794464111,9.37783432006836,9.37797069549561,9.37810707092285,9.3782434463501,9.37837982177734,9.37851619720459,9.37865257263184,9.3787899017334,9.37892627716064,9.37906265258789,9.37919902801514,9.37933540344238,9.37947177886963,9.37960815429688,9.37974452972412,9.37988090515137,9.38001728057861,9.38015460968018,9.38029098510742,9.38042736053467,9.4048023223877,9.48727512359619,9.57120704650879,9.65663814544678,9.74360752105713,9.83215808868408,9.92233180999756,10.0141763687134,10.1077365875244,10.2030611038208,10.3002004623413,10.3992080688477,10.5001373291016,10.6030445098877,10.7079916000366,10.8150424957275,10.9242563247681,11.0356979370117,11.149395942688,11.2654600143433,11.3298864364624,11.3300504684448,11.3302154541016,11.3303804397583,11.330545425415,11.3307104110718,11.3308753967285,11.3310403823853,11.331205368042,11.3313703536987,11.3315353393555,11.3316993713379,11.3318643569946,11.3320293426514,11.3321943283081,11.3323593139648,11.3325242996216,11.3326892852783,11.3328542709351,11.3330192565918,11.3331842422485,11.3333492279053,11.333514213562,11.3336791992188,11.3338451385498,11.3340101242065,11.3341751098633,11.33434009552,11.3345050811768,11.3346700668335,11.3348350524902,11.335000038147,11.3351650238037,11.3353300094604,11.3354949951172,11.3356599807739,11.3358249664307,11.3359909057617,11.3361558914185,11.3363208770752,11.3364858627319,11.3366508483887,11.3368158340454
9.36440944671631,9.36454582214355,9.36468124389648,9.36481761932373,9.36495399475098,9.36508941650391,9.36522579193115,9.3653621673584,9.36549758911133,9.36563396453857,9.36577033996582,9.36590576171875,9.366042137146,9.36617851257324,9.36631393432617,9.36645030975342,9.36658668518066,9.36672210693359,9.36685848236084,9.36699485778809,9.36713027954102,9.36726665496826,9.36740303039551,9.36753940582275,9.36767482757568,9.36781120300293,9.36794757843018,9.36808395385742,9.36821937561035,9.3683557510376,9.36849212646484,9.36862850189209,9.36876392364502,9.36890029907227,9.36903667449951,9.36917304992676,9.36930847167969,9.36944484710693,9.36958122253418,9.36971759796143,9.36985301971436,9.3699893951416,9.37012577056885,9.37026214599609,9.37039852142334,9.37053489685059,9.37067031860352,9.37080669403076,9.37094306945801,9.37107944488525,9.3712158203125,9.37135219573975,9.37148761749268,9.37162399291992,9.37176036834717,9.37189674377441,9.37203311920166,9.37216949462891,9.37230587005615,9.37244129180908,9.37257766723633,9.37271404266357,9.37285041809082,9.37298679351807,9.37312316894531,9.37325954437256,9.3733959197998,9.37353229522705,9.3736686706543,9.37380409240723,9.37394046783447,9.37407684326172,9.37421321868896,9.37434959411621,9.37448596954346,9.3746223449707,9.37475872039795,9.3748950958252,9.37503147125244,9.37516784667969,9.37530422210693,9.37544059753418,9.37557697296143,9.37571334838867,9.37584972381592,9.37598609924316,9.37612247467041,9.37625885009766,9.3763952255249,9.37653160095215,9.37666797637939,9.37680435180664,9.37694072723389,9.37707710266113,9.37721347808838,9.37734985351562,9.37748622894287,9.37762260437012,9.37775897979736,9.37789535522461,9.37803173065186,9.3781681060791,9.37830448150635,9.37844085693359,9.37857723236084,9.37871360778809,9.37885093688965,9.37898731231689,9.37912368774414,9.37926006317139,9.37939643859863,9.37953281402588,9.37966918945312,9.37980556488037,9.37994194030762,9.38007831573486,9.38021564483643,9.38035202026367,9.38048839569092,9.38062477111816,9.40505409240723,9.48753070831299,9.57146835327148,9.65690326690674,9.74387741088867,9.83243274688721,9.92261219024658,10.014461517334,10.1080265045166,10.2033567428589,10.3005027770996,10.3995161056519,10.5004510879517,10.603364944458,10.7083168029785,10.815375328064,10.9245948791504,11.0360441207886,11.1497526168823,11.2658243179321,11.3301248550415,11.3302898406982,11.330454826355,11.3306188583374,11.3307838439941,11.3309488296509,11.3311138153076,11.3312788009644,11.3314437866211,11.3316087722778,11.3317737579346,11.3319387435913,11.332103729248,11.3322687149048,11.3324337005615,11.3325986862183,11.332763671875,11.3329286575317,11.3330936431885,11.3332586288452,11.333423614502,11.3335886001587,11.3337535858154,11.3339185714722,11.3340835571289,11.3342485427856,11.3344135284424,11.3345785140991,11.3347434997559,11.3349084854126,11.3350734710693,11.3352384567261,11.3354043960571,11.3355693817139,11.3357343673706,11.3358993530273,11.3360643386841,11.3362293243408,11.3363943099976,11.3365592956543,11.336724281311,11.3368902206421,11.3370552062988
9.3646068572998,9.36474227905273,9.36487865447998,9.36501407623291,9.36515045166016,9.3652868270874,9.36542224884033,9.36555862426758,9.36569499969482,9.36583042144775,9.365966796875,9.36610317230225,9.36623859405518,9.36637496948242,9.36651134490967,9.3666467666626,9.36678314208984,9.36691951751709,9.36705589294434,9.36719131469727,9.36732769012451,9.36746406555176,9.36759948730469,9.36773586273193,9.36787223815918,9.36800861358643,9.36814403533936,9.3682804107666,9.36841678619385,9.36855316162109,9.36868858337402,9.36882495880127,9.36896133422852,9.36909770965576,9.36923313140869,9.36936950683594,9.36950588226318,9.36964225769043,9.36977863311768,9.36991405487061,9.37005043029785,9.3701868057251,9.37032318115234,9.37045955657959,9.37059497833252,9.37073135375977,9.37086772918701,9.37100410461426,9.3711404800415,9.37127685546875,9.37141227722168,9.37154865264893,9.37168502807617,9.37182140350342,9.37195777893066,9.37209415435791,9.37223052978516,9.37236595153809,9.37250232696533,9.37263870239258,9.37277507781982,9.37291145324707,9.37304782867432,9.37318420410156,9.37332057952881,9.37345695495605,9.3735933303833,9.37372875213623,9.37386512756348,9.37400150299072,9.37413787841797,9.37427425384521,9.37441062927246,9.37454700469971,9.37468338012695,9.3748197555542,9.37495613098145,9.37509250640869,9.37522888183594,9.37536525726318,9.37550163269043,9.37563800811768,9.37577438354492,9.37591075897217,9.37604713439941,9.37618350982666,9.37631988525391,9.37645626068115,9.3765926361084,9.37672901153564,9.37686538696289,9.37700176239014,9.37713813781738,9.37727451324463,9.37741088867188,9.37754726409912,9.37768363952637,9.37782001495361,9.37795639038086,9.37809276580811,9.37822914123535,9.3783655166626,9.37850189208984,9.37863826751709,9.37877464294434,9.37891101837158,9.37904834747314,9.37918472290039,9.37932109832764,9.37945747375488,9.37959384918213,9.37973022460938,9.37986660003662,9.38000297546387,9.38013935089111,9.38027572631836,9.38041305541992,9.38054943084717,9.38068580627441,9.38082218170166,9.40530490875244,9.4877872467041,9.57172870635986,9.6571683883667,9.74414825439453,9.83270835876465,9.92289257049561,10.0147466659546,10.1083173751831,10.2036533355713,10.3008050918579,10.3998231887817,10.5007648468018,10.603684425354,10.7086429595947,10.8157072067261,10.924934387207,11.0363903045654,11.1501083374023,11.266188621521,11.3303632736206,11.3305282592773,11.3306932449341,11.3308582305908,11.3310232162476,11.3311882019043,11.3313522338867,11.3315172195435,11.3316822052002,11.3318471908569,11.3320121765137,11.3321771621704,11.3323421478271,11.3325071334839,11.3326721191406,11.3328371047974,11.3330020904541,11.3331670761108,11.3333320617676,11.3334970474243,11.3336620330811,11.3338270187378,11.3339920043945,11.3341569900513,11.334321975708,11.3344869613647,11.3346529006958,11.3348178863525,11.3349828720093,11.335147857666,11.3353128433228,11.3354778289795,11.3356428146362,11.335807800293,11.3359727859497,11.3361377716064,11.3363027572632,11.3364686965942,11.336633682251,11.3367986679077,11.3369636535645,11.3371286392212,11.3372936248779
9.36480331420898,9.36493968963623,9.36507511138916,9.36521148681641,9.36534786224365,9.36548328399658,9.36561965942383,9.36575508117676,9.365891456604,9.36602783203125,9.3661642074585,9.36629962921143,9.36643600463867,9.36657238006592,9.36670780181885,9.36684417724609,9.36698055267334,9.36711597442627,9.36725234985352,9.36738872528076,9.36752510070801,9.36766052246094,9.36779689788818,9.36793327331543,9.36806869506836,9.36820507049561,9.36834144592285,9.3684778213501,9.36861324310303,9.36874961853027,9.36888599395752,9.36902236938477,9.3691577911377,9.36929416656494,9.36943054199219,9.36956691741943,9.36970329284668,9.36983871459961,9.36997509002686,9.3701114654541,9.37024784088135,9.37038421630859,9.37051963806152,9.37065601348877,9.37079238891602,9.37092876434326,9.37106513977051,9.37120151519775,9.37133693695068,9.37147331237793,9.37160968780518,9.37174606323242,9.37188243865967,9.37201881408691,9.37215518951416,9.37229061126709,9.37242698669434,9.37256336212158,9.37269973754883,9.37283611297607,9.37297248840332,9.37310886383057,9.37324523925781,9.37338161468506,9.37351703643799,9.37365341186523,9.37378978729248,9.37392616271973,9.37406253814697,9.37419891357422,9.37433528900146,9.37447166442871,9.37460803985596,9.3747444152832,9.37488079071045,9.3750171661377,9.37515354156494,9.37528991699219,9.37542629241943,9.37556266784668,9.37569904327393,9.37583541870117,9.37597179412842,9.37610816955566,9.37624454498291,9.37638092041016,9.3765172958374,9.37665367126465,9.37679004669189,9.37692642211914,9.37706279754639,9.37719917297363,9.37733554840088,9.37747192382812,9.37760829925537,9.37774467468262,9.37788105010986,9.37801742553711,9.37815380096436,9.3782901763916,9.37842655181885,9.37856292724609,9.37869930267334,9.37883567810059,9.37897205352783,9.37910938262939,9.37924575805664,9.37938213348389,9.37951850891113,9.37965488433838,9.37979125976562,9.37992763519287,9.38006401062012,9.38020038604736,9.38033676147461,9.38047409057617,9.38061046600342,9.38074684143066,9.38088321685791,9.38101959228516,9.40555667877197,9.48804378509521,9.57199001312256,9.65743446350098,9.74441814422607,9.83298301696777,9.92317295074463,10.0150327682495,10.1086082458496,10.2039499282837,10.3011064529419,10.4001312255859,10.5010786056519,10.6040048599243,10.7089681625366,10.8160400390625,10.9252738952637,11.0367364883423,11.1504650115967,11.2665519714355,11.3306016921997,11.3307666778564,11.3309316635132,11.3310966491699,11.3312616348267,11.3314266204834,11.3315916061401,11.3317565917969,11.3319215774536,11.3320865631104,11.3322505950928,11.3324155807495,11.3325805664062,11.332745552063,11.3329105377197,11.3330755233765,11.3332405090332,11.3334054946899,11.333571434021,11.3337364196777,11.3339014053345,11.3340663909912,11.3342313766479,11.3343963623047,11.3345613479614,11.3347263336182,11.3348913192749,11.3350563049316,11.3352212905884,11.3353862762451,11.3355512619019,11.3357162475586,11.3358821868896,11.3360471725464,11.3362121582031,11.3363771438599,11.3365421295166,11.3367071151733,11.3368721008301,11.3370370864868,11.3372030258179,11.3373680114746,11.3375329971313
9.36499977111816,9.36513614654541,9.36527252197266,9.36540794372559,9.36554431915283,9.36568069458008,9.36581611633301,9.36595249176025,9.3660888671875,9.36622428894043,9.36636066436768,9.36649703979492,9.36663246154785,9.3667688369751,9.36690521240234,9.36704063415527,9.36717700958252,9.36731338500977,9.36744976043701,9.36758518218994,9.36772155761719,9.36785793304443,9.36799430847168,9.36812973022461,9.36826610565186,9.3684024810791,9.36853885650635,9.36867427825928,9.36881065368652,9.36894702911377,9.36908340454102,9.36921882629395,9.36935520172119,9.36949157714844,9.36962795257568,9.36976337432861,9.36989974975586,9.37003612518311,9.37017250061035,9.3703088760376,9.37044429779053,9.37058067321777,9.37071704864502,9.37085342407227,9.37098979949951,9.37112617492676,9.37126159667969,9.37139797210693,9.37153434753418,9.37167072296143,9.37180709838867,9.37194347381592,9.37207984924316,9.37221527099609,9.37235164642334,9.37248802185059,9.37262439727783,9.37276077270508,9.37289714813232,9.37303352355957,9.37316989898682,9.37330627441406,9.37344169616699,9.37357807159424,9.37371444702148,9.37385082244873,9.37398719787598,9.37412357330322,9.37425994873047,9.37439632415771,9.37453269958496,9.37466907501221,9.37480545043945,9.3749418258667,9.37507820129395,9.37521457672119,9.37535095214844,9.37548732757568,9.37562370300293,9.37576007843018,9.37589645385742,9.37603282928467,9.37616920471191,9.37630558013916,9.37644195556641,9.37657833099365,9.3767147064209,9.37685108184814,9.37698745727539,9.37712383270264,9.37726020812988,9.37739658355713,9.37753295898438,9.37766933441162,9.37780570983887,9.37794208526611,9.37807846069336,9.37821483612061,9.37835121154785,9.3784875869751,9.37862396240234,9.37876033782959,9.37889671325684,9.37903308868408,9.37916946411133,9.37930679321289,9.37944316864014,9.37957954406738,9.37971591949463,9.37985229492188,9.37998867034912,9.38012504577637,9.38026142120361,9.38039779663086,9.38053512573242,9.38067150115967,9.38080787658691,9.38094425201416,9.38108062744141,9.38121700286865,9.4058084487915,9.48829936981201,9.57225036621094,9.65769958496094,9.74468803405762,9.83325862884521,9.92345333099365,10.0153179168701,10.1088991165161,10.2042465209961,10.3014087677002,10.4004392623901,10.501392364502,10.6043243408203,10.7092943191528,10.8163719177246,10.925612449646,11.0370817184448,11.150821685791,11.2669162750244,11.3308410644531,11.3310050964355,11.3311700820923,11.331335067749,11.3315000534058,11.3316650390625,11.3318300247192,11.331995010376,11.3321599960327,11.3323249816895,11.3324899673462,11.3326549530029,11.3328199386597,11.3329849243164,11.3331499099731,11.3333148956299,11.3334798812866,11.3336448669434,11.3338098526001,11.3339748382568,11.3341398239136,11.3343048095703,11.3344697952271,11.3346347808838,11.3347997665405,11.3349647521973,11.335129737854,11.3352956771851,11.3354606628418,11.3356256484985,11.3357906341553,11.335955619812,11.3361206054688,11.3362855911255,11.3364505767822,11.336615562439,11.33678150177,11.3369464874268,11.3371114730835,11.3372764587402,11.337441444397,11.3376064300537,11.3377714157104
9.36519718170166,9.36533260345459,9.36546897888184,9.36560535430908,9.36574077606201,9.36587715148926,9.3660135269165,9.36614894866943,9.36628532409668,9.36642169952393,9.36655712127686,9.3666934967041,9.36682987213135,9.36696624755859,9.36710166931152,9.36723804473877,9.36737442016602,9.36750984191895,9.36764621734619,9.36778259277344,9.36791896820068,9.36805438995361,9.36819076538086,9.36832714080811,9.36846351623535,9.36859893798828,9.36873531341553,9.36887168884277,9.36900806427002,9.36914348602295,9.3692798614502,9.36941623687744,9.36955261230469,9.36968898773193,9.36982440948486,9.36996078491211,9.37009716033936,9.3702335357666,9.37036895751953,9.37050533294678,9.37064170837402,9.37077808380127,9.37091445922852,9.37105083465576,9.37118625640869,9.37132263183594,9.37145900726318,9.37159538269043,9.37173175811768,9.37186813354492,9.37200450897217,9.3721399307251,9.37227630615234,9.37241268157959,9.37254905700684,9.37268543243408,9.37282180786133,9.37295818328857,9.37309455871582,9.37323093414307,9.373366355896,9.37350273132324,9.37363910675049,9.37377548217773,9.37391185760498,9.37404823303223,9.37418460845947,9.37432098388672,9.37445735931396,9.37459373474121,9.37473011016846,9.3748664855957,9.37500286102295,9.3751392364502,9.37527561187744,9.37541198730469,9.37554836273193,9.37568473815918,9.37582111358643,9.37595653533936,9.3760929107666,9.37622928619385,9.37636566162109,9.37650203704834,9.37663841247559,9.37677574157715,9.37691211700439,9.37704849243164,9.37718486785889,9.37732124328613,9.37745761871338,9.37759399414062,9.37773036956787,9.37786674499512,9.37800312042236,9.37813949584961,9.37827587127686,9.3784122467041,9.37854862213135,9.37868499755859,9.37882137298584,9.37895774841309,9.37909412384033,9.37923049926758,9.37936782836914,9.37950420379639,9.37964057922363,9.37977695465088,9.37991333007812,9.38004970550537,9.38018608093262,9.38032245635986,9.38045883178711,9.38059616088867,9.38073253631592,9.38086891174316,9.38100528717041,9.38114166259766,9.3812780380249,9.38141441345215,9.40606021881104,9.48855590820312,9.57251071929932,9.65796566009521,9.74495887756348,9.83353328704834,9.92373371124268,10.0156030654907,10.1091899871826,10.2045421600342,10.3017110824585,10.4007472991943,10.5017061233521,10.6046447753906,10.709620475769,10.816704750061,10.9259519577026,11.0374279022217,11.1511783599854,11.2672805786133,11.3310794830322,11.331244468689,11.3314094543457,11.3315744400024,11.3317384719849,11.3319034576416,11.3320684432983,11.3322334289551,11.3323984146118,11.3325634002686,11.3327283859253,11.332893371582,11.3330583572388,11.3332233428955,11.3333883285522,11.333553314209,11.3337182998657,11.3338832855225,11.3340482711792,11.3342132568359,11.3343782424927,11.3345441818237,11.3347091674805,11.3348741531372,11.3350391387939,11.3352041244507,11.3353691101074,11.3355340957642,11.3356990814209,11.3358640670776,11.3360290527344,11.3361940383911,11.3363599777222,11.3365249633789,11.3366899490356,11.3368549346924,11.3370199203491,11.3371849060059,11.3373498916626,11.3375158309937,11.3376808166504,11.3378458023071,11.3380107879639
9.36539363861084,9.36553001403809,9.36566638946533,9.36580181121826,9.36593818664551,9.36607456207275,9.36620998382568,9.36634635925293,9.36648273468018,9.36661815643311,9.36675453186035,9.3668909072876,9.36702632904053,9.36716270446777,9.36729907989502,9.36743545532227,9.3675708770752,9.36770725250244,9.36784362792969,9.36797904968262,9.36811542510986,9.36825180053711,9.36838817596436,9.36852359771729,9.36865997314453,9.36879634857178,9.36893272399902,9.36906814575195,9.3692045211792,9.36934089660645,9.36947727203369,9.36961364746094,9.36974906921387,9.36988544464111,9.37002182006836,9.37015819549561,9.37029457092285,9.37042999267578,9.37056636810303,9.37070274353027,9.37083911895752,9.37097549438477,9.3711109161377,9.37124729156494,9.37138366699219,9.37152004241943,9.37165641784668,9.37179279327393,9.37192916870117,9.3720645904541,9.37220096588135,9.37233734130859,9.37247371673584,9.37261009216309,9.37274646759033,9.37288284301758,9.37301921844482,9.37315559387207,9.373291015625,9.37342739105225,9.37356376647949,9.37370014190674,9.37383651733398,9.37397289276123,9.37410926818848,9.37424564361572,9.37438201904297,9.37451839447021,9.37465476989746,9.37479114532471,9.37492752075195,9.3750638961792,9.37520027160645,9.37533664703369,9.37547206878662,9.37560844421387,9.37574481964111,9.37588119506836,9.37601757049561,9.37615394592285,9.3762903213501,9.37642669677734,9.37656307220459,9.37669944763184,9.37683582305908,9.37697219848633,9.37710857391357,9.37724590301514,9.37738227844238,9.37751865386963,9.37765502929688,9.37779140472412,9.37792778015137,9.37806415557861,9.37820053100586,9.37833690643311,9.37847328186035,9.3786096572876,9.37874603271484,9.37888240814209,9.37901878356934,9.37915515899658,9.37929153442383,9.37942886352539,9.37956523895264,9.37970161437988,9.37983798980713,9.37997436523438,9.38011074066162,9.38024711608887,9.38038349151611,9.38051986694336,9.38065719604492,9.38079357147217,9.38092994689941,9.38106632232666,9.38120269775391,9.38133907318115,9.3814754486084,9.38161277770996,9.40631294250488,9.48881244659424,9.57277202606201,9.65823078155518,9.74522876739502,9.83380889892578,9.9240140914917,10.0158891677856,10.1094808578491,10.2048387527466,10.3020124435425,10.4010553359985,10.5020198822021,10.6049642562866,10.7099475860596,10.8170366287231,10.926290512085,11.0377750396729,11.1515350341797,11.2676448822021,11.3313179016113,11.3314828872681,11.3316478729248,11.3318128585815,11.3319778442383,11.332142829895,11.3323078155518,11.3324728012085,11.3326377868652,11.332802772522,11.3329668045044,11.3331327438354,11.3332977294922,11.3334627151489,11.3336277008057,11.3337926864624,11.3339576721191,11.3341226577759,11.3342876434326,11.3344526290894,11.3346176147461,11.3347826004028,11.3349475860596,11.3351125717163,11.335277557373,11.3354425430298,11.3356075286865,11.3357734680176,11.3359384536743,11.3361034393311,11.3362684249878,11.3364334106445,11.3365983963013,11.336763381958,11.3369283676147,11.3370943069458,11.3372592926025,11.3374242782593,11.337589263916,11.3377542495728,11.3379192352295,11.3380842208862,11.3382501602173
9.36559104919434,9.36572647094727,9.36586284637451,9.36599922180176,9.36613464355469,9.36627101898193,9.36640739440918,9.36654281616211,9.36667919158936,9.3668155670166,9.36695098876953,9.36708736419678,9.36722373962402,9.36736011505127,9.3674955368042,9.36763191223145,9.36776828765869,9.36790466308594,9.36804008483887,9.36817646026611,9.36831283569336,9.36844825744629,9.36858463287354,9.36872100830078,9.36885738372803,9.36899375915527,9.3691291809082,9.36926555633545,9.3694019317627,9.36953830718994,9.36967372894287,9.36981010437012,9.36994647979736,9.37008285522461,9.37021923065186,9.37035465240479,9.37049102783203,9.37062740325928,9.37076377868652,9.37090015411377,9.3710355758667,9.37117195129395,9.37130832672119,9.37144470214844,9.37158107757568,9.37171745300293,9.37185382843018,9.37198925018311,9.37212562561035,9.3722620010376,9.37239837646484,9.37253475189209,9.37267112731934,9.37280750274658,9.37294387817383,9.37307929992676,9.373215675354,9.37335205078125,9.3734884262085,9.37362480163574,9.37376117706299,9.37389755249023,9.37403392791748,9.37417030334473,9.37430667877197,9.37444305419922,9.37457942962646,9.37471580505371,9.37485218048096,9.3749885559082,9.37512397766113,9.37526035308838,9.37539672851562,9.37553310394287,9.37566947937012,9.37580585479736,9.37594223022461,9.37607860565186,9.3762149810791,9.37635135650635,9.37648773193359,9.37662410736084,9.37676048278809,9.37689685821533,9.37703323364258,9.37716960906982,9.37730598449707,9.37744235992432,9.37757968902588,9.37771606445312,9.37785243988037,9.37798881530762,9.37812519073486,9.37826156616211,9.37839794158936,9.3785343170166,9.37867069244385,9.37880706787109,9.37894344329834,9.37907981872559,9.37921619415283,9.37935256958008,9.37948894500732,9.37962627410889,9.37976264953613,9.37989902496338,9.38003540039062,9.38017177581787,9.38030815124512,9.38044452667236,9.38058090209961,9.38071823120117,9.38085460662842,9.38099098205566,9.38112735748291,9.38126373291016,9.3814001083374,9.38153648376465,9.38167381286621,9.38181018829346,9.40656471252441,9.48906803131104,9.57303237915039,9.65849590301514,9.74549961090088,9.83408355712891,9.92429447174072,10.0161743164062,10.1097717285156,10.205135345459,10.3023147583008,10.4013624191284,10.5023336410522,10.6052846908569,10.7102737426758,10.8173694610596,10.9266300201416,11.0381202697754,11.151891708374,11.2680082321167,11.3315563201904,11.3317213058472,11.3318862915039,11.3320512771606,11.3322162628174,11.3323812484741,11.3325462341309,11.3327112197876,11.3328762054443,11.3330411911011,11.3332061767578,11.3333711624146,11.3335361480713,11.333701133728,11.3338661193848,11.3340311050415,11.3341960906982,11.334361076355,11.3345260620117,11.3346910476685,11.3348560333252,11.3350210189819,11.335186958313,11.3353519439697,11.3355169296265,11.3356819152832,11.3358469009399,11.3360118865967,11.3361768722534,11.3363418579102,11.3365068435669,11.3366727828979,11.3368377685547,11.3370027542114,11.3371677398682,11.3373327255249,11.3374977111816,11.3376626968384,11.3378286361694,11.3379936218262,11.3381586074829,11.3383235931396,11.3384885787964
9.36578750610352,9.36592388153076,9.36605930328369,9.36619567871094,9.36633205413818,9.36646747589111,9.36660385131836,9.36674022674561,9.36687660217285,9.36701202392578,9.36714839935303,9.36728477478027,9.3674201965332,9.36755657196045,9.3676929473877,9.36782932281494,9.36796474456787,9.36810111999512,9.36823749542236,9.36837387084961,9.36850929260254,9.36864566802979,9.36878204345703,9.36891841888428,9.36905384063721,9.36919021606445,9.3693265914917,9.36946296691895,9.36959838867188,9.36973476409912,9.36987113952637,9.37000751495361,9.37014389038086,9.37027931213379,9.37041568756104,9.37055206298828,9.37068843841553,9.37082481384277,9.3709602355957,9.37109661102295,9.3712329864502,9.37136936187744,9.37150573730469,9.37164211273193,9.37177848815918,9.37191390991211,9.37205028533936,9.3721866607666,9.37232303619385,9.37245941162109,9.37259578704834,9.37273216247559,9.37286853790283,9.37300395965576,9.37314033508301,9.37327671051025,9.3734130859375,9.37354946136475,9.37368583679199,9.37382221221924,9.37395858764648,9.37409496307373,9.37423133850098,9.37436771392822,9.37450408935547,9.37464046478271,9.37477588653564,9.37491226196289,9.37504863739014,9.37518501281738,9.37532138824463,9.37545776367188,9.37559413909912,9.37573051452637,9.37586688995361,9.37600326538086,9.37613964080811,9.37627601623535,9.3764123916626,9.37654876708984,9.37668514251709,9.37682151794434,9.37695789337158,9.37709426879883,9.37723064422607,9.37736701965332,9.37750339508057,9.37763977050781,9.37777614593506,9.37791347503662,9.37804985046387,9.37818622589111,9.37832260131836,9.37845897674561,9.37859535217285,9.3787317276001,9.37886810302734,9.37900447845459,9.37914085388184,9.37927722930908,9.37941360473633,9.37954998016357,9.37968730926514,9.37982368469238,9.37996006011963,9.38009643554688,9.38023281097412,9.38036918640137,9.38050556182861,9.38064193725586,9.38077831268311,9.38091564178467,9.38105201721191,9.38118839263916,9.38132476806641,9.38146114349365,9.3815975189209,9.38173484802246,9.38187122344971,9.38200759887695,9.40681648254395,9.48932456970215,9.57329368591309,9.65876197814941,9.74576950073242,9.83435916900635,9.92457389831543,10.0164594650269,10.1100625991821,10.2054319381714,10.3026170730591,10.4016704559326,10.5026483535767,10.6056051254272,10.710599899292,10.8177013397217,10.9269695281982,11.0384664535522,11.1522483825684,11.2683725357056,11.3317956924438,11.3319606781006,11.3321256637573,11.3322906494141,11.3324546813965,11.3326196670532,11.33278465271,11.3329496383667,11.3331146240234,11.3332796096802,11.3334445953369,11.3336095809937,11.3337745666504,11.3339395523071,11.3341045379639,11.3342704772949,11.3344354629517,11.3346004486084,11.3347654342651,11.3349304199219,11.3350954055786,11.3352603912354,11.3354253768921,11.3355903625488,11.3357553482056,11.3359203338623,11.336085319519,11.3362512588501,11.3364162445068,11.3365812301636,11.3367462158203,11.3369112014771,11.3370761871338,11.3372411727905,11.3374071121216,11.3375720977783,11.3377370834351,11.3379020690918,11.3380670547485,11.3382320404053,11.3383979797363,11.3385629653931,11.3387279510498
9.36598491668701,9.36612033843994,9.36625671386719,9.36639308929443,9.36652851104736,9.36666488647461,9.36680126190186,9.36693668365479,9.36707305908203,9.36720943450928,9.36734580993652,9.36748123168945,9.3676176071167,9.36775398254395,9.36788940429688,9.36802577972412,9.36816215515137,9.36829853057861,9.36843395233154,9.36857032775879,9.36870670318604,9.36884307861328,9.36897850036621,9.36911487579346,9.3692512512207,9.36938762664795,9.3695240020752,9.36965942382812,9.36979579925537,9.36993217468262,9.37006855010986,9.37020397186279,9.37034034729004,9.37047672271729,9.37061309814453,9.37074947357178,9.37088584899902,9.37102127075195,9.3711576461792,9.37129402160645,9.37143039703369,9.37156677246094,9.37170314788818,9.37183856964111,9.37197494506836,9.37211132049561,9.37224769592285,9.3723840713501,9.37252044677734,9.37265682220459,9.37279319763184,9.37292861938477,9.37306499481201,9.37320137023926,9.3733377456665,9.37347412109375,9.373610496521,9.37374687194824,9.37388324737549,9.37401962280273,9.37415599822998,9.37429237365723,9.37442874908447,9.3745641708374,9.37470054626465,9.37483692169189,9.37497329711914,9.37510967254639,9.37524604797363,9.37538242340088,9.37551879882812,9.37565517425537,9.37579154968262,9.37592792510986,9.37606430053711,9.37620067596436,9.3763370513916,9.37647342681885,9.37660980224609,9.37674617767334,9.37688255310059,9.37701892852783,9.37715530395508,9.37729167938232,9.37742805480957,9.37756443023682,9.37770080566406,9.37783718109131,9.37797355651855,9.37811088562012,9.37824726104736,9.37838363647461,9.37852001190186,9.3786563873291,9.37879276275635,9.37892913818359,9.37906551361084,9.37920188903809,9.37933826446533,9.37947463989258,9.37961101531982,9.37974739074707,9.37988471984863,9.38002109527588,9.38015747070312,9.38029384613037,9.38043022155762,9.38056659698486,9.38070297241211,9.38083934783936,9.38097667694092,9.38111305236816,9.38124942779541,9.38138580322266,9.3815221786499,9.38165855407715,9.38179588317871,9.38193225860596,9.3820686340332,9.38220500946045,9.40706825256348,9.48958110809326,9.57355403900146,9.65902709960938,9.74603939056396,9.83463478088379,9.92485427856445,10.0167455673218,10.1103534698486,10.2057275772095,10.3029193878174,10.4019784927368,10.5029621124268,10.6059246063232,10.7109270095825,10.8180341720581,10.9273080825806,11.0388126373291,11.1526050567627,11.2687368392944,11.3320341110229,11.3321990966797,11.3323640823364,11.3325290679932,11.3326940536499,11.3328590393066,11.3330240249634,11.3331890106201,11.3333539962769,11.3335189819336,11.3336839675903,11.3338489532471,11.3340139389038,11.3341789245605,11.3343439102173,11.334508895874,11.3346738815308,11.3348388671875,11.3350038528442,11.335168838501,11.3353338241577,11.3354988098145,11.3356647491455,11.3358297348022,11.335994720459,11.3361597061157,11.3363246917725,11.3364896774292,11.3366546630859,11.3368196487427,11.3369846343994,11.3371505737305,11.3373155593872,11.3374805450439,11.3376455307007,11.3378105163574,11.3379755020142,11.3381414413452,11.338306427002,11.3384714126587,11.3386363983154,11.3388013839722,11.3389673233032
9.36618137359619,9.36631774902344,9.36645317077637,9.36658954620361,9.36672592163086,9.36686134338379,9.36699771881104,9.36713409423828,9.36727046966553,9.36740589141846,9.3675422668457,9.36767864227295,9.3678150177002,9.36795043945312,9.36808681488037,9.36822319030762,9.36835861206055,9.36849498748779,9.36863136291504,9.36876773834229,9.36890316009521,9.36903953552246,9.36917591094971,9.36931228637695,9.3694486618042,9.36958408355713,9.36972045898438,9.36985683441162,9.36999320983887,9.37012958526611,9.37026500701904,9.37040138244629,9.37053775787354,9.37067413330078,9.37081050872803,9.37094593048096,9.3710823059082,9.37121868133545,9.3713550567627,9.37149143218994,9.37162780761719,9.37176322937012,9.37189960479736,9.37203598022461,9.37217235565186,9.3723087310791,9.37244510650635,9.37258148193359,9.37271785736084,9.37285327911377,9.37298965454102,9.37312602996826,9.37326240539551,9.37339878082275,9.37353515625,9.37367153167725,9.37380790710449,9.37394428253174,9.37408065795898,9.37421703338623,9.37435340881348,9.37448883056641,9.37462520599365,9.3747615814209,9.37489795684814,9.37503433227539,9.37517070770264,9.37530708312988,9.37544345855713,9.37557983398438,9.37571620941162,9.37585258483887,9.37598896026611,9.37612533569336,9.37626171112061,9.37639808654785,9.3765344619751,9.37667083740234,9.37680721282959,9.37694358825684,9.37707996368408,9.37721633911133,9.37735271453857,9.37748908996582,9.37762546539307,9.37776184082031,9.37789821624756,9.3780345916748,9.37817096710205,9.37830829620361,9.37844467163086,9.37858104705811,9.37871742248535,9.3788537979126,9.37899017333984,9.37912654876709,9.37926292419434,9.37939929962158,9.37953567504883,9.37967205047607,9.37980842590332,9.37994575500488,9.38008213043213,9.38021850585938,9.38035488128662,9.38049125671387,9.38062763214111,9.38076400756836,9.38090038299561,9.38103771209717,9.38117408752441,9.38131046295166,9.38144683837891,9.38158321380615,9.3817195892334,9.38185691833496,9.38199329376221,9.38212966918945,9.3822660446167,9.38240242004395,9.40732002258301,9.48983764648438,9.57381534576416,9.65929222106934,9.74631023406982,9.83490943908691,9.92513465881348,10.0170307159424,10.1106443405151,10.2060241699219,10.3032207489014,10.402286529541,10.5032758712769,10.6062450408936,10.7112531661987,10.8183670043945,10.9276475906372,11.039158821106,11.152961730957,11.2691011428833,11.3322725296021,11.3324375152588,11.3326025009155,11.3327674865723,11.332932472229,11.3330974578857,11.3332624435425,11.3334274291992,11.333592414856,11.3337574005127,11.3339223861694,11.3340873718262,11.3342523574829,11.3344173431396,11.3345823287964,11.3347473144531,11.3349123001099,11.3350782394409,11.3352432250977,11.3354082107544,11.3355731964111,11.3357381820679,11.3359031677246,11.3360681533813,11.3362331390381,11.3363981246948,11.3365640640259,11.3367290496826,11.3368940353394,11.3370590209961,11.3372240066528,11.3373889923096,11.3375539779663,11.3377199172974,11.3378849029541,11.3380498886108,11.3382148742676,11.3383798599243,11.3385448455811,11.3387107849121,11.3388757705688,11.3390407562256,11.3392057418823
9.36637783050537,9.36651420593262,9.36665058135986,9.36678695678711,9.36692237854004,9.36705875396729,9.36719512939453,9.36733055114746,9.36746692657471,9.36760330200195,9.3677396774292,9.36787509918213,9.36801147460938,9.36814785003662,9.36828422546387,9.3684196472168,9.36855602264404,9.36869239807129,9.36882877349854,9.36896419525146,9.36910057067871,9.36923694610596,9.3693733215332,9.36950874328613,9.36964511871338,9.36978149414062,9.36991786956787,9.37005424499512,9.37018966674805,9.37032604217529,9.37046241760254,9.37059879302979,9.37073516845703,9.37087059020996,9.37100696563721,9.37114334106445,9.3712797164917,9.37141609191895,9.37155246734619,9.37168788909912,9.37182426452637,9.37196063995361,9.37209701538086,9.37223339080811,9.37236976623535,9.3725061416626,9.37264251708984,9.37277793884277,9.37291431427002,9.37305068969727,9.37318706512451,9.37332344055176,9.373459815979,9.37359619140625,9.3737325668335,9.37386894226074,9.37400531768799,9.37414169311523,9.37427711486816,9.37441349029541,9.37454986572266,9.3746862411499,9.37482261657715,9.37495899200439,9.37509536743164,9.37523174285889,9.37536811828613,9.37550449371338,9.37564086914062,9.37577724456787,9.37591361999512,9.37604999542236,9.37618637084961,9.37632274627686,9.3764591217041,9.37659549713135,9.37673187255859,9.37686824798584,9.37700462341309,9.37714099884033,9.37727737426758,9.37741374969482,9.37755012512207,9.37768650054932,9.37782287597656,9.37795925140381,9.37809562683105,9.3782320022583,9.37836837768555,9.37850570678711,9.37864208221436,9.3787784576416,9.37891483306885,9.37905120849609,9.37918758392334,9.37932395935059,9.37946033477783,9.37959671020508,9.37973308563232,9.37986946105957,9.38000679016113,9.38014316558838,9.38027954101562,9.38041591644287,9.38055229187012,9.38068866729736,9.38082504272461,9.38096141815186,9.38109874725342,9.38123512268066,9.38137149810791,9.38150787353516,9.3816442489624,9.38178062438965,9.38191795349121,9.38205432891846,9.3821907043457,9.38232707977295,9.3824634552002,9.38259983062744,9.40757179260254,9.49009323120117,9.57407569885254,9.65955829620361,9.74658012390137,9.83518505096436,9.9254150390625,10.0173168182373,10.1109352111816,10.2063207626343,10.3035230636597,10.4025945663452,10.503589630127,10.6065654754639,10.7115793228149,10.8186988830566,10.9279870986938,11.0395050048828,11.1533184051514,11.2694654464722,11.3325119018555,11.3326768875122,11.3328418731689,11.3330068588257,11.3331708908081,11.3333358764648,11.3335008621216,11.3336658477783,11.3338308334351,11.3339958190918,11.3341617584229,11.3343267440796,11.3344917297363,11.3346567153931,11.3348217010498,11.3349866867065,11.3351516723633,11.33531665802,11.3354816436768,11.3356466293335,11.3358116149902,11.335976600647,11.336142539978,11.3363075256348,11.3364725112915,11.3366374969482,11.336802482605,11.3369674682617,11.3371324539185,11.3372974395752,11.3374633789062,11.337628364563,11.3377933502197,11.3379583358765,11.3381233215332,11.3382883071899,11.338454246521,11.3386192321777,11.3387842178345,11.3389492034912,11.3391141891479,11.339280128479,11.3394451141357
9.36657524108887,9.36671161651611,9.36684703826904,9.36698341369629,9.36711978912354,9.36725521087646,9.36739158630371,9.36752796173096,9.3676643371582,9.36779975891113,9.36793613433838,9.36807250976562,9.36820888519287,9.3683443069458,9.36848068237305,9.36861705780029,9.36875343322754,9.36888885498047,9.36902523040771,9.36916160583496,9.36929798126221,9.36943340301514,9.36956977844238,9.36970615386963,9.36984252929688,9.36997890472412,9.37011432647705,9.3702507019043,9.37038707733154,9.37052345275879,9.37065982818604,9.37079524993896,9.37093162536621,9.37106800079346,9.3712043762207,9.37134075164795,9.3714771270752,9.37161254882812,9.37174892425537,9.37188529968262,9.37202167510986,9.37215805053711,9.37229442596436,9.3724308013916,9.37256622314453,9.37270259857178,9.37283897399902,9.37297534942627,9.37311172485352,9.37324810028076,9.37338447570801,9.37352085113525,9.3736572265625,9.37379360198975,9.37392997741699,9.37406539916992,9.37420177459717,9.37433815002441,9.37447452545166,9.37461090087891,9.37474727630615,9.3748836517334,9.37502002716064,9.37515640258789,9.37529277801514,9.37542915344238,9.37556552886963,9.37570190429688,9.37583827972412,9.37597465515137,9.37611103057861,9.37624740600586,9.37638378143311,9.37652015686035,9.3766565322876,9.37679290771484,9.37692928314209,9.37706565856934,9.37720203399658,9.37733840942383,9.37747478485107,9.37761116027832,9.37774753570557,9.37788391113281,9.37802028656006,9.3781566619873,9.37829303741455,9.3784294128418,9.37856578826904,9.37870311737061,9.37883949279785,9.3789758682251,9.37911224365234,9.37924861907959,9.37938499450684,9.37952136993408,9.37965774536133,9.37979412078857,9.37993049621582,9.38006782531738,9.38020420074463,9.38034057617188,9.38047695159912,9.38061332702637,9.38074970245361,9.38088607788086,9.38102245330811,9.38115978240967,9.38129615783691,9.38143253326416,9.38156890869141,9.38170528411865,9.3818416595459,9.38197898864746,9.38211536407471,9.38225173950195,9.3823881149292,9.38252449035645,9.38266086578369,9.38279819488525,9.40782356262207,9.49034976959229,9.57433700561523,9.65982341766357,9.74685096740723,9.8354606628418,9.92569541931152,10.0176019668579,10.1112260818481,10.2066173553467,10.303825378418,10.4029026031494,10.5039033889771,10.6068849563599,10.7119064331055,10.8190317153931,10.9283266067505,11.039852142334,11.1536750793457,11.269829750061,11.3327503204346,11.3329153060913,11.333080291748,11.3332452774048,11.3334102630615,11.3335752487183,11.333740234375,11.3339052200317,11.3340702056885,11.3342351913452,11.334400177002,11.3345651626587,11.3347301483154,11.3348951339722,11.3350601196289,11.3352251052856,11.3353900909424,11.3355560302734,11.3357210159302,11.3358860015869,11.3360509872437,11.3362159729004,11.3363809585571,11.3365459442139,11.3367109298706,11.3368759155273,11.3370418548584,11.3372068405151,11.3373718261719,11.3375368118286,11.3377017974854,11.3378667831421,11.3380327224731,11.3381977081299,11.3383626937866,11.3385276794434,11.3386926651001,11.3388576507568,11.3390235900879,11.3391885757446,11.3393535614014,11.3395185470581,11.3396844863892
