9.37504482269287,9.37515163421631,9.37525749206543,9.37536430358887,9.3754711151123,9.37557792663574,9.37568378448486,9.3757905960083,9.37589740753174,9.37600421905518,9.3761100769043,9.37621688842773,9.37632369995117,9.37643051147461,9.37653636932373,9.37664318084717,9.37674999237061,9.37685680389404,9.37696361541748,9.3770694732666,9.37717628479004,9.37728309631348,9.37738990783691,9.37749576568604,9.37760257720947,9.37770938873291,9.37781620025635,9.37792301177979,9.37802886962891,9.37813568115234,9.37824249267578,9.37834930419922,9.37845611572266,9.37856292724609,9.37866878509521,9.37877559661865,9.37888240814209,9.37898921966553,9.37909603118896,9.37920188903809,9.37930870056152,9.37941551208496,9.3795223236084,9.37962913513184,9.37973594665527,9.37984180450439,9.37994861602783,9.38005542755127,9.38016223907471,9.38026905059814,9.38037586212158,9.38048267364502,9.38058853149414,9.38069534301758,9.38080215454102,9.38090896606445,9.38101577758789,9.38112258911133,9.38122940063477,9.38133525848389,9.38144207000732,9.38154888153076,9.3816556930542,9.38176250457764,9.38186931610107,9.38197612762451,9.38208293914795,9.38218975067139,9.38229560852051,9.38240242004395,9.38250923156738,9.38261604309082,9.38272285461426,9.3828296661377,9.38293647766113,9.38304328918457,9.38315010070801,9.38325691223145,9.38336277008057,9.383469581604,9.38357639312744,9.38368320465088,9.38379001617432,9.38389682769775,9.38400363922119,9.38411045074463,9.38421726226807,9.3843240737915,9.38443088531494,9.38453769683838,9.38464450836182,9.38475131988525,9.38485813140869,9.38496494293213,9.38507175445557,9.385178565979,9.38528442382812,9.38539123535156,9.385498046875,9.38560485839844,9.38571166992188,9.38581848144531,9.38592529296875,9.38603210449219,9.38613891601562,9.38624572753906,9.3863525390625,9.38645935058594,9.38656616210938,9.38667297363281,9.38677978515625,9.38688659667969,9.38699340820312,9.38710021972656,9.40125179290771,9.48389339447021,9.56799983978271,9.65361213684082,9.74078845977783,9.82956409454346,9.91997337341309,10.0120611190796,10.1058712005615,10.201452255249,10.2988586425781,9.47763252258301,9.47774028778076,9.47784805297852,9.48930740356445,10.8151922225952,10.9247341156006,11.0365190505981,11.15061378479,11.2670927047729,11.3433179855347,11.3434467315674,11.3435764312744,11.3437051773071,11.3438348770142,11.3439636230469,11.3440923690796,11.3442220687866,11.3443508148193,11.3444805145264,11.3446092605591,11.3447389602661,11.3448677062988,11.3449974060059,11.3451261520386,9.48022174835205,9.48033046722412,9.48043823242188,9.48054599761963,11.4231176376343,11.4290237426758,11.4291543960571,11.4292840957642,11.4294147491455,11.4295444488525,11.4296751022339,11.4298048019409,11.4299354553223,11.4300651550293,11.4301958084106,11.4303255081177,11.430456161499,11.4305858612061,11.4307155609131,11.4308462142944,11.4309759140015,11.4311065673828,11.4312362670898,11.4313669204712,9.48281288146973,9.4829216003418,9.48302936553955,9.4831371307373,11.432017326355,11.4321479797363,11.4322776794434,11.4324083328247,11.4325389862061,11.4326686859131,11.4327993392944,11.4329290390015,11.4330596923828
9.37504291534424,9.37514972686768,9.37525653839111,9.37536239624023,9.37546920776367,9.37557601928711,9.37568283081055,9.37578868865967,9.37589550018311,9.37600231170654,9.37610912322998,9.3762149810791,9.37632179260254,9.37642860412598,9.37653541564941,9.37664127349854,9.37674808502197,9.37685489654541,9.37696170806885,9.37706851959229,9.37717437744141,9.37728118896484,9.37738800048828,9.37749481201172,9.37760066986084,9.37770748138428,9.37781429290771,9.37792110443115,9.37802791595459,9.37813377380371,9.37824058532715,9.37834739685059,9.37845420837402,9.37856101989746,9.3786678314209,9.37877368927002,9.37888050079346,9.37898731231689,9.37909412384033,9.37920093536377,9.37930679321289,9.37941360473633,9.37952041625977,9.3796272277832,9.37973403930664,9.37984085083008,9.3799467086792,9.38005352020264,9.38016033172607,9.38026714324951,9.38037395477295,9.38048076629639,9.38058757781982,9.38069343566895,9.38080024719238,9.38090705871582,9.38101387023926,9.3811206817627,9.38122749328613,9.38133430480957,9.38144111633301,9.38154697418213,9.38165378570557,9.381760597229,9.38186740875244,9.38197422027588,9.38208103179932,9.38218784332275,9.38229465484619,9.38240051269531,9.38250732421875,9.38261413574219,9.38272094726562,9.38282775878906,9.3829345703125,9.38304138183594,9.38314819335938,9.38325500488281,9.38336181640625,9.38346862792969,9.38357543945312,9.38368129730225,9.38378810882568,9.38389492034912,9.38400173187256,9.384108543396,9.38421535491943,9.38432216644287,9.38442897796631,9.38453578948975,9.38464260101318,9.38474941253662,9.38485622406006,9.3849630355835,9.38506984710693,9.38517665863037,9.38528347015381,9.38539028167725,9.38549709320068,9.38560390472412,9.38571071624756,9.385817527771,9.38592433929443,9.38603115081787,9.38613700866699,9.38624382019043,9.38635063171387,9.3864574432373,9.38656425476074,9.38667106628418,9.38677787780762,9.38688468933105,9.38699150085449,9.38709831237793,9.40144634246826,9.48409080505371,9.56820106506348,9.65381622314453,9.74099445343018,9.82977390289307,9.92018699645996,10.0122785568237,10.1060934066772,10.2016792297363,10.299090385437,9.47763061523438,9.47773838043213,9.47784614562988,9.48953437805176,10.8154468536377,10.924994468689,11.0367841720581,11.1508846282959,11.2673692703247,11.343316078186,11.3434448242188,11.3435745239258,11.3437032699585,11.3438320159912,11.3439617156982,11.344090461731,11.344220161438,11.3443489074707,11.3444786071777,11.3446073532104,11.3447360992432,11.3448657989502,11.3449945449829,11.3451242446899,9.48022079467773,9.48032855987549,9.48043632507324,9.480544090271,11.4234704971313,11.4290218353271,11.4291524887085,11.4292821884155,11.4294128417969,11.4295425415039,11.4296722412109,11.4298028945923,11.4299325942993,11.4300632476807,11.4301929473877,11.430323600769,11.4304533004761,11.4305839538574,11.4307136535645,11.4308443069458,11.4309740066528,11.4311046600342,11.4312343597412,11.4313650131226,9.48281097412109,9.48291969299316,9.48302745819092,9.48313522338867,11.4320154190063,11.4321460723877,11.4322757720947,11.4324064254761,11.4325361251831,11.4326667785645,11.4327964782715,11.4329271316528,11.4330568313599
9.37504100799561,9.37514781951904,9.37525463104248,9.37536144256592,9.37546730041504,9.37557411193848,9.37568092346191,9.37578773498535,9.37589359283447,9.37600040435791,9.37610721588135,9.37621402740479,9.37631988525391,9.37642669677734,9.37653350830078,9.37664031982422,9.37674617767334,9.37685298919678,9.37695980072021,9.37706661224365,9.37717342376709,9.37727928161621,9.37738609313965,9.37749290466309,9.37759971618652,9.37770557403564,9.37781238555908,9.37791919708252,9.37802600860596,9.37813282012939,9.37823867797852,9.37834548950195,9.37845230102539,9.37855911254883,9.37866592407227,9.3787727355957,9.37887859344482,9.37898540496826,9.3790922164917,9.37919902801514,9.37930583953857,9.37941265106201,9.37951850891113,9.37962532043457,9.37973213195801,9.37983894348145,9.37994575500488,9.38005256652832,9.38015842437744,9.38026523590088,9.38037204742432,9.38047885894775,9.38058567047119,9.38069248199463,9.38079833984375,9.38090515136719,9.38101196289062,9.38111877441406,9.3812255859375,9.38133239746094,9.38143920898438,9.38154602050781,9.38165187835693,9.38175868988037,9.38186550140381,9.38197231292725,9.38207912445068,9.38218593597412,9.38229274749756,9.382399559021,9.38250637054443,9.38261222839355,9.38271903991699,9.38282585144043,9.38293266296387,9.3830394744873,9.38314628601074,9.38325309753418,9.38335990905762,9.38346672058105,9.38357353210449,9.38368034362793,9.38378715515137,9.3838939666748,9.38399982452393,9.38410663604736,9.3842134475708,9.38432025909424,9.38442707061768,9.38453388214111,9.38464069366455,9.38474750518799,9.38485431671143,9.38496112823486,9.3850679397583,9.38517475128174,9.38528156280518,9.38538837432861,9.38549518585205,9.38560199737549,9.38570880889893,9.38581562042236,9.3859224319458,9.38602924346924,9.38613605499268,9.38624286651611,9.38634967803955,9.38645648956299,9.38656330108643,9.38667011260986,9.3867769241333,9.38688373565674,9.38699054718018,9.38709735870361,9.40163993835449,9.48428726196289,9.56840133666992,9.65402030944824,9.7411994934082,9.82998371124268,9.92040061950684,10.0124959945679,10.1063165664673,10.2019062042236,10.2993211746216,9.47762870788574,9.4777364730835,9.47784519195557,9.48976039886475,10.8157024383545,10.9252548217773,11.0370492935181,11.1511554718018,11.2676458358765,11.3433132171631,11.3434429168701,11.3435716629028,11.3437013626099,11.3438301086426,11.3439598083496,11.3440885543823,11.344217300415,11.3443470001221,11.3444757461548,11.3446054458618,11.3447341918945,11.3448638916016,11.3449926376343,11.3451223373413,9.4802188873291,9.48032665252686,9.48043441772461,9.48054218292236,11.4238243103027,11.4290199279785,11.4291496276855,11.4292802810669,11.4294099807739,11.4295406341553,11.4296703338623,11.4298009872437,11.4299306869507,11.430061340332,11.4301910400391,11.4303216934204,11.4304513931274,11.4305820465088,11.4307117462158,11.4308423995972,11.4309720993042,11.4311027526855,11.4312324523926,11.4313621520996,9.48281002044678,9.48291778564453,9.48302555084229,9.48313426971436,11.4320135116577,11.4321441650391,11.4322738647461,11.4324045181274,11.4325342178345,11.4326648712158,11.4327945709229,11.4329252243042,11.4330549240112
9.37504005432129,9.37514591217041,9.37525272369385,9.37535953521729,9.37546634674072,9.37557220458984,9.37567901611328,9.37578582763672,9.37589263916016,9.37599849700928,9.37610530853271,9.37621212005615,9.37631893157959,9.37642478942871,9.37653160095215,9.37663841247559,9.37674522399902,9.37685108184814,9.37695789337158,9.37706470489502,9.37717151641846,9.37727737426758,9.37738418579102,9.37749099731445,9.37759780883789,9.37770462036133,9.37781047821045,9.37791728973389,9.37802410125732,9.37813091278076,9.3782377243042,9.37834358215332,9.37845039367676,9.3785572052002,9.37866401672363,9.37877082824707,9.37887763977051,9.37898349761963,9.37909030914307,9.3791971206665,9.37930393218994,9.37941074371338,9.37951755523682,9.37962341308594,9.37973022460938,9.37983703613281,9.37994384765625,9.38005065917969,9.38015747070312,9.38026332855225,9.38037014007568,9.38047695159912,9.38058376312256,9.380690574646,9.38079738616943,9.38090419769287,9.38101005554199,9.38111686706543,9.38122367858887,9.3813304901123,9.38143730163574,9.38154411315918,9.38165092468262,9.38175773620605,9.38186359405518,9.38197040557861,9.38207721710205,9.38218402862549,9.38229084014893,9.38239765167236,9.3825044631958,9.38261127471924,9.38271808624268,9.3828239440918,9.38293075561523,9.38303756713867,9.38314437866211,9.38325119018555,9.38335800170898,9.38346481323242,9.38357162475586,9.3836784362793,9.38378524780273,9.38389205932617,9.38399887084961,9.38410568237305,9.38421249389648,9.38431835174561,9.38442516326904,9.38453197479248,9.38463878631592,9.38474559783936,9.38485240936279,9.38495922088623,9.38506603240967,9.38517284393311,9.38527965545654,9.38538646697998,9.38549327850342,9.38560009002686,9.38570690155029,9.38581371307373,9.38592052459717,9.38602733612061,9.38613414764404,9.38624095916748,9.38634777069092,9.38645458221436,9.38656139373779,9.38666820526123,9.38677501678467,9.38688182830811,9.38698863983154,9.38709545135498,9.40183353424072,9.48448467254639,9.56860160827637,9.65422534942627,9.74140453338623,9.83019256591797,9.92061328887939,10.012713432312,10.106538772583,10.2021331787109,10.2995519638062,9.47762680053711,9.47773551940918,9.47784328460693,9.48998737335205,10.815957069397,10.9255142211914,11.037314414978,11.1514263153076,11.2679224014282,11.3433113098145,11.3434410095215,11.3435697555542,11.3436994552612,11.3438282012939,11.3439569473267,11.3440866470337,11.3442153930664,11.3443450927734,11.3444738388062,11.3446035385132,11.3447322845459,11.3448619842529,11.3449907302856,11.3451194763184,9.48021697998047,9.48032474517822,9.48043251037598,9.48054027557373,11.4241781234741,11.4290180206299,11.4291477203369,11.4292783737183,11.4294080734253,11.4295387268066,11.4296684265137,11.429799079895,11.4299287796021,11.4300584793091,11.4301891326904,11.4303188323975,11.4304494857788,11.4305791854858,11.4307098388672,11.4308395385742,11.4309701919556,11.4310998916626,11.4312305450439,11.431360244751,9.48280811309814,9.4829158782959,9.48302364349365,9.48313236236572,11.4320116043091,11.4321413040161,11.4322719573975,11.4324016571045,11.4325323104858,11.4326620101929,11.4327926635742,11.4329223632812,11.4330530166626
9.37503814697266,9.37514400482178,9.37525081634521,9.37535762786865,9.37546443939209,9.37557029724121,9.37567710876465,9.37578392028809,9.37589073181152,9.37599658966064,9.37610340118408,9.37621021270752,9.37631702423096,9.37642288208008,9.37652969360352,9.37663650512695,9.37674331665039,9.37685012817383,9.37695598602295,9.37706279754639,9.37716960906982,9.37727642059326,9.37738227844238,9.37748908996582,9.37759590148926,9.3777027130127,9.37780952453613,9.37791538238525,9.37802219390869,9.37812900543213,9.37823581695557,9.378342628479,9.37844848632812,9.37855529785156,9.378662109375,9.37876892089844,9.37887573242188,9.37898254394531,9.37908840179443,9.37919521331787,9.37930202484131,9.37940883636475,9.37951564788818,9.37962245941162,9.37972831726074,9.37983512878418,9.37994194030762,9.38004875183105,9.38015556335449,9.38026237487793,9.38036823272705,9.38047504425049,9.38058185577393,9.38068866729736,9.3807954788208,9.38090229034424,9.38100910186768,9.3811149597168,9.38122177124023,9.38132858276367,9.38143539428711,9.38154220581055,9.38164901733398,9.38175582885742,9.38186264038086,9.38196849822998,9.38207530975342,9.38218212127686,9.38228893280029,9.38239574432373,9.38250255584717,9.38260936737061,9.38271617889404,9.38282299041748,9.38292980194092,9.38303565979004,9.38314247131348,9.38324928283691,9.38335609436035,9.38346290588379,9.38356971740723,9.38367652893066,9.3837833404541,9.38389015197754,9.38399696350098,9.38410377502441,9.38421058654785,9.38431739807129,9.38442420959473,9.38453102111816,9.38463687896729,9.38474369049072,9.38485050201416,9.3849573135376,9.38506412506104,9.38517093658447,9.38527774810791,9.38538455963135,9.38549137115479,9.38559818267822,9.38570499420166,9.3858118057251,9.38591861724854,9.38602542877197,9.38613224029541,9.38623905181885,9.38634586334229,9.38645267486572,9.38655948638916,9.3866662979126,9.38677310943604,9.38687992095947,9.38698673248291,9.38709354400635,9.40202713012695,9.48468208312988,9.56880283355713,9.65442943572998,9.74160957336426,9.83040237426758,9.92082691192627,10.0129308700562,10.1067600250244,10.2023591995239,10.299783706665,9.47762489318848,9.47773361206055,9.4778413772583,9.49021339416504,10.8162117004395,10.9257745742798,11.0375804901123,11.1516971588135,11.26819896698,11.3433094024658,11.3434381484985,11.3435678482056,11.3436965942383,11.3438262939453,11.343955039978,11.3440847396851,11.3442134857178,11.3443431854248,11.3444719314575,11.3446006774902,11.3447303771973,11.34485912323,11.344988822937,11.3451175689697,9.48021507263184,9.48032283782959,9.48043060302734,9.4805383682251,11.4245319366455,11.4290161132812,11.4291458129883,11.4292764663696,11.4294061660767,11.4295358657837,11.429666519165,11.4297962188721,11.4299268722534,11.4300565719604,11.4301872253418,11.4303169250488,11.4304475784302,11.4305772781372,11.4307079315186,11.4308376312256,11.4309682846069,11.431097984314,11.4312286376953,11.4313583374023,9.48280620574951,9.48291397094727,9.48302268981934,9.48313045501709,11.4320096969604,11.4321393966675,11.4322700500488,11.4323997497559,11.4325304031372,11.4326601028442,11.4327907562256,11.4329204559326,11.433051109314
9.37503623962402,9.37514305114746,9.37524890899658,9.37535572052002,9.37546253204346,9.37556934356689,9.37567520141602,9.37578201293945,9.37588882446289,9.37599563598633,9.37610149383545,9.37620830535889,9.37631511688232,9.37642192840576,9.37652778625488,9.37663459777832,9.37674140930176,9.3768482208252,9.37695503234863,9.37706089019775,9.37716770172119,9.37727451324463,9.37738132476807,9.37748718261719,9.37759399414062,9.37770080566406,9.3778076171875,9.37791442871094,9.37802028656006,9.3781270980835,9.37823390960693,9.37834072113037,9.37844753265381,9.37855339050293,9.37866020202637,9.3787670135498,9.37887382507324,9.37898063659668,9.37908744812012,9.37919330596924,9.37930011749268,9.37940692901611,9.37951374053955,9.37962055206299,9.37972736358643,9.37983322143555,9.37994003295898,9.38004684448242,9.38015365600586,9.3802604675293,9.38036727905273,9.38047313690186,9.38057994842529,9.38068675994873,9.38079357147217,9.38090038299561,9.38100719451904,9.38111400604248,9.38122081756592,9.38132667541504,9.38143348693848,9.38154029846191,9.38164710998535,9.38175392150879,9.38186073303223,9.38196754455566,9.3820743560791,9.38218021392822,9.38228702545166,9.3823938369751,9.38250064849854,9.38260746002197,9.38271427154541,9.38282108306885,9.38292789459229,9.38303470611572,9.38314151763916,9.3832483291626,9.38335418701172,9.38346099853516,9.38356781005859,9.38367462158203,9.38378143310547,9.38388824462891,9.38399505615234,9.38410186767578,9.38420867919922,9.38431549072266,9.38442230224609,9.38452911376953,9.38463592529297,9.38474273681641,9.38484954833984,9.38495635986328,9.3850622177124,9.38516902923584,9.38527584075928,9.38538265228271,9.38548946380615,9.38559627532959,9.38570308685303,9.38580989837646,9.3859167098999,9.38602352142334,9.38613033294678,9.38623714447021,9.38634395599365,9.38645076751709,9.38655757904053,9.38666439056396,9.3867712020874,9.38687801361084,9.38698482513428,9.38709163665771,9.40222072601318,9.48487854003906,9.56900310516357,9.65463352203369,9.74181461334229,9.83061122894287,9.92104053497314,10.013147354126,10.1069812774658,10.2025861740112,10.3000144958496,9.47762393951416,9.47773170471191,9.47783946990967,9.49044036865234,10.8164663314819,10.9260349273682,11.0378456115723,11.1519680023193,11.2684755325317,11.3433074951172,11.3434362411499,11.3435659408569,11.3436946868896,11.3438243865967,11.3439531326294,11.3440818786621,11.3442115783691,11.3443403244019,11.3444700241089,11.3445987701416,11.3447284698486,11.3448572158813,11.3449869155884,11.3451156616211,9.4802131652832,9.48032093048096,9.48042869567871,9.48053741455078,11.4248847961426,11.4290132522583,11.4291439056396,11.4292736053467,11.429404258728,11.4295339584351,11.4296646118164,11.4297943115234,11.4299249649048,11.4300546646118,11.4301853179932,11.4303150177002,11.4304447174072,11.4305753707886,11.4307050704956,11.430835723877,11.430965423584,11.4310960769653,11.4312257766724,11.4313564300537,9.48280429840088,9.48291206359863,9.4830207824707,9.48312854766846,11.4320068359375,11.4321374893188,11.4322671890259,11.4323978424072,11.4325275421143,11.4326581954956,11.432788848877,11.432918548584,11.4330492019653
9.37503433227539,9.37514114379883,9.37524795532227,9.37535381317139,9.37546062469482,9.37556743621826,9.3756742477417,9.37578010559082,9.37588691711426,9.3759937286377,9.37610054016113,9.37620639801025,9.37631320953369,9.37642002105713,9.37652683258057,9.37663269042969,9.37673950195312,9.37684631347656,9.376953125,9.37705898284912,9.37716579437256,9.377272605896,9.37737941741943,9.37748622894287,9.37759208679199,9.37769889831543,9.37780570983887,9.3779125213623,9.37801933288574,9.37812519073486,9.3782320022583,9.37833881378174,9.37844562530518,9.37855243682861,9.37865829467773,9.37876510620117,9.37887191772461,9.37897872924805,9.37908554077148,9.37919235229492,9.37929821014404,9.37940502166748,9.37951183319092,9.37961864471436,9.37972545623779,9.37983226776123,9.37993812561035,9.38004493713379,9.38015174865723,9.38025856018066,9.3803653717041,9.38047218322754,9.38057899475098,9.3806848526001,9.38079166412354,9.38089847564697,9.38100528717041,9.38111209869385,9.38121891021729,9.38132572174072,9.38143157958984,9.38153839111328,9.38164520263672,9.38175201416016,9.38185882568359,9.38196563720703,9.38207244873047,9.38217926025391,9.38228607177734,9.38239192962646,9.3824987411499,9.38260555267334,9.38271236419678,9.38281917572021,9.38292598724365,9.38303279876709,9.38313961029053,9.38324642181396,9.3833532333374,9.38346004486084,9.38356590270996,9.3836727142334,9.38377952575684,9.38388633728027,9.38399314880371,9.38409996032715,9.38420677185059,9.38431358337402,9.38442039489746,9.3845272064209,9.38463401794434,9.38474082946777,9.38484764099121,9.38495445251465,9.38506126403809,9.38516807556152,9.38527488708496,9.3853816986084,9.38548851013184,9.38559532165527,9.38570213317871,9.38580799102783,9.38591480255127,9.38602161407471,9.38612842559814,9.38623523712158,9.38634204864502,9.38644886016846,9.38655567169189,9.38666248321533,9.38676929473877,9.38687610626221,9.38698291778564,9.38708972930908,9.40241432189941,9.48507595062256,9.56920433044434,9.6548376083374,9.74201965332031,9.83082103729248,9.9212532043457,10.0133647918701,10.1072025299072,10.2028131484985,10.3002452850342,9.47762203216553,9.47772979736328,9.47783756256104,9.49066734313965,10.8167209625244,10.9262943267822,11.0381107330322,11.1522388458252,11.2687520980835,11.3433055877686,11.3434343338013,11.3435640335083,11.343692779541,11.3438215255737,11.3439512252808,11.3440799713135,11.3442096710205,11.3443384170532,11.3444681167603,11.344596862793,11.3447256088257,11.3448553085327,11.3449840545654,11.3451137542725,9.48021125793457,9.48031997680664,9.48042774200439,9.48053550720215,11.425238609314,11.4290113449097,11.429141998291,11.429271697998,11.4294023513794,11.4295320510864,11.4296617507935,11.4297924041748,11.4299221038818,11.4300527572632,11.4301824569702,11.4303131103516,11.4304428100586,11.4305734634399,11.430703163147,11.4308338165283,11.4309635162354,11.4310941696167,11.4312238693237,11.4313545227051,9.48280239105225,9.48291110992432,9.48301887512207,9.48312664031982,11.4320049285889,11.4321355819702,11.4322652816772,11.4323959350586,11.4325256347656,11.432656288147,11.432785987854,11.4329166412354,11.4330463409424
9.37503242492676,9.3751392364502,9.37524604797363,9.37535285949707,9.37545871734619,9.37556552886963,9.37567234039307,9.3757791519165,9.37588500976562,9.37599182128906,9.3760986328125,9.37620544433594,9.37631130218506,9.3764181137085,9.37652492523193,9.37663173675537,9.37673759460449,9.37684440612793,9.37695121765137,9.3770580291748,9.37716388702393,9.37727069854736,9.3773775100708,9.37748432159424,9.37759113311768,9.3776969909668,9.37780380249023,9.37791061401367,9.37801742553711,9.37812423706055,9.37823009490967,9.37833690643311,9.37844371795654,9.37855052947998,9.37865734100342,9.37876415252686,9.37887001037598,9.37897682189941,9.37908363342285,9.37919044494629,9.37929725646973,9.37940311431885,9.37950992584229,9.37961673736572,9.37972354888916,9.3798303604126,9.37993717193604,9.38004302978516,9.38014984130859,9.38025665283203,9.38036346435547,9.38047027587891,9.38057708740234,9.38068389892578,9.3807897567749,9.38089656829834,9.38100337982178,9.38111019134521,9.38121700286865,9.38132381439209,9.38143062591553,9.38153743743896,9.38164329528809,9.38175010681152,9.38185691833496,9.3819637298584,9.38207054138184,9.38217735290527,9.38228416442871,9.38239097595215,9.38249778747559,9.38260364532471,9.38271045684814,9.38281726837158,9.38292407989502,9.38303089141846,9.38313770294189,9.38324451446533,9.38335132598877,9.38345813751221,9.38356494903564,9.38367176055908,9.38377857208252,9.38388442993164,9.38399124145508,9.38409805297852,9.38420486450195,9.38431167602539,9.38441848754883,9.38452529907227,9.3846321105957,9.38473892211914,9.38484573364258,9.38495254516602,9.38505935668945,9.38516616821289,9.38527297973633,9.38537979125977,9.3854866027832,9.38559341430664,9.38570022583008,9.38580703735352,9.38591384887695,9.38602066040039,9.38612747192383,9.38623428344727,9.3863410949707,9.38644790649414,9.38655471801758,9.38666152954102,9.38676834106445,9.38687515258789,9.38698196411133,9.38708877563477,9.40260791778564,9.48527336120605,9.56940460205078,9.65504169464111,9.74222469329834,9.83103084564209,9.92146682739258,10.0135822296143,10.1074247360229,10.2030401229858,10.3004770278931,9.47762012481689,9.47772789001465,9.47783660888672,9.49089336395264,10.8169765472412,10.9265546798706,11.0383768081665,11.1525106430054,11.2690286636353,11.3433027267456,11.3434324264526,11.3435611724854,11.3436908721924,11.3438196182251,11.3439493179321,11.3440780639648,11.3442068099976,11.3443365097046,11.3444652557373,11.3445949554443,11.3447237014771,11.3448534011841,11.3449821472168,11.3451118469238,9.48021030426025,9.48031806945801,9.48042583465576,9.48053359985352,11.4255924224854,11.429009437561,11.4291391372681,11.4292697906494,11.4293994903564,11.4295301437378,11.4296598434448,11.4297904968262,11.4299201965332,11.4300508499146,11.4301805496216,11.4303112030029,11.43044090271,11.4305715560913,11.4307012557983,11.4308309555054,11.4309616088867,11.4310913085938,11.4312219619751,11.4313516616821,9.48280048370361,9.48290920257568,9.48301696777344,9.48312473297119,11.4320030212402,11.4321327209473,11.4322633743286,11.43239402771,11.432523727417,11.4326543807983,11.4327840805054,11.4329147338867,11.4330444335938
9.37503147125244,9.37513732910156,9.375244140625,9.37535095214844,9.37545680999756,9.375563621521,9.37567043304443,9.37577724456787,9.37588310241699,9.37598991394043,9.37609672546387,9.3762035369873,9.37630939483643,9.37641620635986,9.3765230178833,9.37662982940674,9.37673664093018,9.3768424987793,9.37694931030273,9.37705612182617,9.37716293334961,9.37726879119873,9.37737560272217,9.37748241424561,9.37758922576904,9.37769603729248,9.3778018951416,9.37790870666504,9.37801551818848,9.37812232971191,9.37822914123535,9.37833499908447,9.37844181060791,9.37854862213135,9.37865543365479,9.37876224517822,9.37886905670166,9.37897491455078,9.37908172607422,9.37918853759766,9.37929534912109,9.37940216064453,9.37950801849365,9.37961483001709,9.37972164154053,9.37982845306396,9.3799352645874,9.38004207611084,9.38014888763428,9.3802547454834,9.38036155700684,9.38046836853027,9.38057518005371,9.38068199157715,9.38078880310059,9.38089466094971,9.38100147247314,9.38110828399658,9.38121509552002,9.38132190704346,9.38142871856689,9.38153553009033,9.38164234161377,9.38174819946289,9.38185501098633,9.38196182250977,9.3820686340332,9.38217544555664,9.38228225708008,9.38238906860352,9.38249588012695,9.38260269165039,9.38270950317383,9.38281536102295,9.38292217254639,9.38302898406982,9.38313579559326,9.3832426071167,9.38334941864014,9.38345623016357,9.38356304168701,9.38366985321045,9.38377666473389,9.38388347625732,9.38399028778076,9.3840970993042,9.38420295715332,9.38430976867676,9.3844165802002,9.38452339172363,9.38463020324707,9.38473701477051,9.38484382629395,9.38495063781738,9.38505744934082,9.38516426086426,9.3852710723877,9.38537788391113,9.38548469543457,9.38559150695801,9.38569831848145,9.38580513000488,9.38591194152832,9.38601875305176,9.3861255645752,9.38623237609863,9.38633918762207,9.38644599914551,9.38655281066895,9.38665962219238,9.38676643371582,9.38687324523926,9.3869800567627,9.38708686828613,9.40280151367188,9.48546981811523,9.56960487365723,9.65524578094482,9.74243259429932,9.83123970031738,9.92168045043945,10.0137996673584,10.1076459884644,10.2032661437988,10.3007078170776,9.47761821746826,9.47772598266602,9.47783470153809,9.49112033843994,10.8172311782837,10.926815032959,11.0386419296265,11.1527814865112,11.269305229187,11.343300819397,11.343430519104,11.3435592651367,11.3436889648438,11.3438177108765,11.3439464569092,11.3440761566162,11.3442049026489,11.344334602356,11.3444633483887,11.3445930480957,11.3447217941284,11.3448505401611,11.3449802398682,11.3451089859009,9.48020839691162,9.48031616210938,9.48042392730713,9.48053169250488,11.4259462356567,11.4290075302124,11.4291372299194,11.4292678833008,11.4293975830078,11.4295282363892,11.4296579360962,11.4297876358032,11.4299182891846,11.4300479888916,11.4301786422729,11.43030834198,11.4304389953613,11.4305686950684,11.4306993484497,11.4308290481567,11.4309597015381,11.4310894012451,11.4312200546265,11.4313497543335,9.4827995300293,9.48290729522705,9.4830150604248,9.48312377929688,11.4320011138916,11.4321308135986,11.43226146698,11.432391166687,11.4325218200684,11.4326515197754,11.4327821731567,11.4329118728638,11.4330425262451
9.37502956390381,9.37513542175293,9.37524223327637,9.3753490447998,9.37545585632324,9.37556171417236,9.3756685256958,9.37577533721924,9.37588214874268,9.3759880065918,9.37609481811523,9.37620162963867,9.37630844116211,9.37641429901123,9.37652111053467,9.37662792205811,9.37673473358154,9.37684154510498,9.3769474029541,9.37705421447754,9.37716102600098,9.37726783752441,9.37737369537354,9.37748050689697,9.37758731842041,9.37769412994385,9.37780094146729,9.37790679931641,9.37801361083984,9.37812042236328,9.37822723388672,9.37833404541016,9.37843990325928,9.37854671478271,9.37865352630615,9.37876033782959,9.37886714935303,9.37897396087646,9.37907981872559,9.37918663024902,9.37929344177246,9.3794002532959,9.37950706481934,9.37961292266846,9.37971973419189,9.37982654571533,9.37993335723877,9.38004016876221,9.38014698028564,9.38025379180908,9.3803596496582,9.38046646118164,9.38057327270508,9.38068008422852,9.38078689575195,9.38089370727539,9.38100051879883,9.38110637664795,9.38121318817139,9.38131999969482,9.38142681121826,9.3815336227417,9.38164043426514,9.38174724578857,9.38185405731201,9.38195991516113,9.38206672668457,9.38217353820801,9.38228034973145,9.38238716125488,9.38249397277832,9.38260078430176,9.3827075958252,9.38281440734863,9.38292121887207,9.38302707672119,9.38313388824463,9.38324069976807,9.3833475112915,9.38345432281494,9.38356113433838,9.38366794586182,9.38377475738525,9.38388156890869,9.38398838043213,9.38409519195557,9.384202003479,9.38430881500244,9.38441562652588,9.384521484375,9.38462829589844,9.38473510742188,9.38484191894531,9.38494873046875,9.38505554199219,9.38516235351562,9.38526916503906,9.3853759765625,9.38548278808594,9.38558959960938,9.38569641113281,9.38580322265625,9.38591003417969,9.38601684570312,9.38612365722656,9.38623046875,9.38633728027344,9.38644409179688,9.38655090332031,9.38665771484375,9.38676452636719,9.38687133789062,9.38697814941406,9.3870849609375,9.40299510955811,9.48566722869873,9.56980609893799,9.65545082092285,9.74264144897461,9.83144950866699,9.92189311981201,10.0140171051025,10.1078672409058,10.2034931182861,10.3009386062622,9.47761631011963,9.4777250289917,9.47783279418945,9.49134731292725,10.8174858093262,10.9270753860474,11.0389070510864,11.1530523300171,11.2695817947388,11.3432989120483,11.3434276580811,11.3435573577881,11.3436861038208,11.3438158035278,11.3439445495605,11.3440742492676,11.3442029953003,11.344331741333,11.34446144104,11.3445901870728,11.3447198867798,11.3448486328125,11.3449783325195,11.3451070785522,9.48020648956299,9.48031425476074,9.4804220199585,9.48052978515625,11.4263000488281,11.4290056228638,11.4291353225708,11.4292650222778,11.4293956756592,11.4295253753662,11.4296560287476,11.4297857284546,11.4299163818359,11.430046081543,11.4301767349243,11.4303064346313,11.4304370880127,11.4305667877197,11.4306974411011,11.4308271408081,11.4309577941895,11.4310874938965,11.4312181472778,11.4313478469849,9.48279762268066,9.48290538787842,9.48301315307617,9.48312187194824,11.431999206543,11.43212890625,11.4322595596313,11.4323892593384,11.4325199127197,11.4326496124268,11.4327802658081,11.4329099655151,11.4330406188965
9.37502765655518,9.37513446807861,9.37524032592773,9.37534713745117,9.37545394897461,9.37556076049805,9.37566661834717,9.37577342987061,9.37588024139404,9.37598705291748,9.3760929107666,9.37619972229004,9.37630653381348,9.37641334533691,9.37651920318604,9.37662601470947,9.37673282623291,9.37683963775635,9.37694549560547,9.37705230712891,9.37715911865234,9.37726593017578,9.37737274169922,9.37747859954834,9.37758541107178,9.37769222259521,9.37779903411865,9.37790584564209,9.37801170349121,9.37811851501465,9.37822532653809,9.37833213806152,9.37843894958496,9.37854480743408,9.37865161895752,9.37875843048096,9.37886524200439,9.37897205352783,9.37907886505127,9.37918472290039,9.37929153442383,9.37939834594727,9.3795051574707,9.37961196899414,9.37971878051758,9.3798246383667,9.37993144989014,9.38003826141357,9.38014507293701,9.38025188446045,9.38035869598389,9.38046455383301,9.38057136535645,9.38067817687988,9.38078498840332,9.38089179992676,9.3809986114502,9.38110542297363,9.38121128082275,9.38131809234619,9.38142490386963,9.38153171539307,9.3816385269165,9.38174533843994,9.38185214996338,9.38195896148682,9.38206577301025,9.38217163085938,9.38227844238281,9.38238525390625,9.38249206542969,9.38259887695312,9.38270568847656,9.3828125,9.38291931152344,9.38302612304688,9.38313293457031,9.38323879241943,9.38334560394287,9.38345241546631,9.38355922698975,9.38366603851318,9.38377285003662,9.38387966156006,9.3839864730835,9.38409328460693,9.38420009613037,9.38430690765381,9.38441371917725,9.38452053070068,9.38462734222412,9.38473415374756,9.384840965271,9.38494682312012,9.38505363464355,9.38516044616699,9.38526725769043,9.38537406921387,9.3854808807373,9.38558769226074,9.38569450378418,9.38580131530762,9.38590812683105,9.38601493835449,9.38612174987793,9.38622856140137,9.3863353729248,9.38644218444824,9.38654899597168,9.38665580749512,9.38676261901855,9.38686943054199,9.38697624206543,9.38708305358887,9.40318870544434,9.48586463928223,9.57000637054443,9.65565490722656,9.74284934997559,9.8316593170166,9.92210674285889,10.0142345428467,10.1080884933472,10.2037191390991,10.3011703491211,9.47761535644531,9.47772312164307,9.47783088684082,9.49157333374023,10.817741394043,10.9273347854614,11.0391731262207,11.1533231735229,11.2698593139648,11.3432970046997,11.3434257507324,11.3435554504395,11.3436841964722,11.3438138961792,11.3439426422119,11.3440713882446,11.3442010879517,11.3443298339844,11.3444595336914,11.3445882797241,11.3447179794312,11.3448467254639,11.3449764251709,11.3451051712036,9.48020458221436,9.48031234741211,9.48042011260986,9.48077774047852,11.4266538619995,11.4290027618408,11.4291334152222,11.4292631149292,11.4293937683105,11.4295234680176,11.4296541213989,11.429783821106,11.4299144744873,11.4300441741943,11.4301738739014,11.4303045272827,11.4304342269897,11.4305648803711,11.4306945800781,11.4308252334595,11.4309549331665,11.4310855865479,11.4312152862549,11.4313459396362,9.48279571533203,9.48290348052979,9.48301219940186,9.48311996459961,11.43199634552,11.4321269989014,11.4322566986084,11.4323873519897,11.4325170516968,11.4326477050781,11.4327774047852,11.4329080581665,11.4330387115479
9.37502574920654,9.37513256072998,9.37523937225342,9.37534523010254,9.37545204162598,9.37555885314941,9.37566566467285,9.37577152252197,9.37587833404541,9.37598514556885,9.37609195709229,9.37619781494141,9.37630462646484,9.37641143798828,9.37651824951172,9.37662410736084,9.37673091888428,9.37683773040771,9.37694454193115,9.37705039978027,9.37715721130371,9.37726402282715,9.37737083435059,9.37747764587402,9.37758350372314,9.37769031524658,9.37779712677002,9.37790393829346,9.37801074981689,9.37811660766602,9.37822341918945,9.37833023071289,9.37843704223633,9.37854385375977,9.37864971160889,9.37875652313232,9.37886333465576,9.3789701461792,9.37907695770264,9.37918376922607,9.3792896270752,9.37939643859863,9.37950325012207,9.37961006164551,9.37971687316895,9.37982368469238,9.3799295425415,9.38003635406494,9.38014316558838,9.38024997711182,9.38035678863525,9.38046360015869,9.38056945800781,9.38067626953125,9.38078308105469,9.38088989257812,9.38099670410156,9.381103515625,9.38121032714844,9.38131713867188,9.381422996521,9.38152980804443,9.38163661956787,9.38174343109131,9.38185024261475,9.38195705413818,9.38206386566162,9.38217067718506,9.38227653503418,9.38238334655762,9.38249015808105,9.38259696960449,9.38270378112793,9.38281059265137,9.3829174041748,9.38302421569824,9.38313102722168,9.38323783874512,9.38334465026855,9.38345050811768,9.38355731964111,9.38366413116455,9.38377094268799,9.38387775421143,9.38398456573486,9.3840913772583,9.38419818878174,9.38430500030518,9.38441181182861,9.38451862335205,9.38462543487549,9.38473224639893,9.38483905792236,9.3849458694458,9.38505268096924,9.38515949249268,9.38526630401611,9.38537311553955,9.38547897338867,9.38558578491211,9.38569259643555,9.38579940795898,9.38590621948242,9.38601303100586,9.3861198425293,9.38622665405273,9.38633346557617,9.38644027709961,9.38654708862305,9.38665390014648,9.38676071166992,9.38686752319336,9.3869743347168,9.38708114624023,9.40338325500488,9.48606204986572,9.5702075958252,9.65585899353027,9.74305725097656,9.83186817169189,9.92232036590576,10.0144519805908,10.1083097457886,10.2039442062378,10.3014011383057,9.47761344909668,9.47772121429443,9.47782897949219,9.49180030822754,10.8179960250854,10.9275951385498,11.0394382476807,11.1535940170288,11.2701358795166,11.3432950973511,11.3434238433838,11.3435525894165,11.3436822891235,11.3438110351562,11.3439407348633,11.344069480896,11.344199180603,11.3443279266357,11.3444576263428,11.3445863723755,11.3447151184082,11.3448448181152,11.3449735641479,11.345103263855,9.48020267486572,9.48031044006348,9.48041915893555,9.4810676574707,11.4270076751709,11.4290008544922,11.4291315078735,11.4292612075806,11.4293909072876,11.4295215606689,11.429651260376,11.4297819137573,11.4299116134644,11.4300422668457,11.4301719665527,11.4303026199341,11.4304323196411,11.4305629730225,11.4306926727295,11.4308233261108,11.4309530258179,11.4310836791992,11.4312133789062,11.4313440322876,9.4827938079834,9.48290157318115,9.48301029205322,9.48311805725098,11.4319944381714,11.4321250915527,11.4322547912598,11.4323854446411,11.4325151443481,11.4326457977295,11.4327754974365,11.4329061508179,11.4330358505249
9.37502384185791,9.37513065338135,9.37523746490479,9.37534332275391,9.37545013427734,9.37555694580078,9.37566375732422,9.37576961517334,9.37587642669678,9.37598323822021,9.37609004974365,9.37619590759277,9.37630271911621,9.37640953063965,9.37651634216309,9.37662315368652,9.37672901153564,9.37683582305908,9.37694263458252,9.37704944610596,9.37715530395508,9.37726211547852,9.37736892700195,9.37747573852539,9.37758255004883,9.37768840789795,9.37779521942139,9.37790203094482,9.37800884246826,9.3781156539917,9.37822151184082,9.37832832336426,9.3784351348877,9.37854194641113,9.37864875793457,9.37875461578369,9.37886142730713,9.37896823883057,9.379075050354,9.37918186187744,9.37928867340088,9.37939453125,9.37950134277344,9.37960815429688,9.37971496582031,9.37982177734375,9.37992858886719,9.38003444671631,9.38014125823975,9.38024806976318,9.38035488128662,9.38046169281006,9.3805685043335,9.38067531585693,9.38078117370605,9.38088798522949,9.38099479675293,9.38110160827637,9.3812084197998,9.38131523132324,9.38142204284668,9.3815279006958,9.38163471221924,9.38174152374268,9.38184833526611,9.38195514678955,9.38206195831299,9.38216876983643,9.38227558135986,9.3823823928833,9.38248825073242,9.38259506225586,9.3827018737793,9.38280868530273,9.38291549682617,9.38302230834961,9.38312911987305,9.38323593139648,9.38334274291992,9.38344955444336,9.3835563659668,9.38366317749023,9.38376903533936,9.38387584686279,9.38398265838623,9.38408946990967,9.38419628143311,9.38430309295654,9.38440990447998,9.38451671600342,9.38462352752686,9.38473033905029,9.38483715057373,9.38494396209717,9.38505077362061,9.38515758514404,9.38526439666748,9.38537120819092,9.38547801971436,9.38558483123779,9.38569164276123,9.38579845428467,9.38590526580811,9.38601207733154,9.38611888885498,9.38622570037842,9.38633251190186,9.38643932342529,9.38654613494873,9.38665294647217,9.38675975799561,9.38686656951904,9.38697338104248,9.38708019256592,9.40357685089111,9.4862585067749,9.57040786743164,9.65606307983398,9.74326610565186,9.8320779800415,9.92253303527832,10.0146684646606,10.1085319519043,10.2041702270508,10.3016328811646,9.47761154174805,9.4777193069458,9.47782707214355,9.49202728271484,10.8182506561279,10.9278554916382,11.0397033691406,11.1538648605347,11.2704124450684,11.3432922363281,11.3434219360352,11.3435506820679,11.3436803817749,11.3438091278076,11.3439388275146,11.3440675735474,11.3441963195801,11.3443260192871,11.3444547653198,11.3445844650269,11.3447132110596,11.3448429107666,11.3449716567993,11.3451013565063,9.48020172119141,9.48030948638916,9.48041725158691,9.48135757446289,11.4273614883423,11.4289989471436,11.4291286468506,11.4292593002319,11.429388999939,11.4295196533203,11.4296493530273,11.4297800064087,11.4299097061157,11.4300403594971,11.4301700592041,11.4303007125854,11.4304304122925,11.4305601119995,11.4306907653809,11.4308204650879,11.4309511184692,11.4310808181763,11.4312114715576,11.4313411712646,9.48279190063477,9.48290061950684,9.48300838470459,9.48311614990234,11.4319925308228,11.4321222305298,11.4322528839111,11.4323825836182,11.4325132369995,11.4326438903809,11.4327735900879,11.4329042434692,11.4330339431763
9.37502193450928,9.37512874603271,9.37523555755615,9.37534236907959,9.37544822692871,9.37555503845215,9.37566184997559,9.37576866149902,9.37587451934814,9.37598133087158,9.37608814239502,9.37619495391846,9.37630081176758,9.37640762329102,9.37651443481445,9.37662124633789,9.37672710418701,9.37683391571045,9.37694072723389,9.37704753875732,9.37715435028076,9.37726020812988,9.37736701965332,9.37747383117676,9.3775806427002,9.37768745422363,9.37779331207275,9.37790012359619,9.37800693511963,9.37811374664307,9.3782205581665,9.37832641601562,9.37843322753906,9.3785400390625,9.37864685058594,9.37875366210938,9.3788595199585,9.37896633148193,9.37907314300537,9.37917995452881,9.37928676605225,9.37939357757568,9.3794994354248,9.37960624694824,9.37971305847168,9.37981986999512,9.37992668151855,9.38003349304199,9.38013935089111,9.38024616241455,9.38035297393799,9.38045978546143,9.38056659698486,9.3806734085083,9.38078022003174,9.38088607788086,9.3809928894043,9.38109970092773,9.38120651245117,9.38131332397461,9.38142013549805,9.38152694702148,9.38163375854492,9.38173961639404,9.38184642791748,9.38195323944092,9.38206005096436,9.38216686248779,9.38227367401123,9.38238048553467,9.38248729705811,9.38259410858154,9.38269996643066,9.3828067779541,9.38291358947754,9.38302040100098,9.38312721252441,9.38323402404785,9.38334083557129,9.38344764709473,9.38355445861816,9.3836612701416,9.38376808166504,9.38387489318848,9.38398170471191,9.38408756256104,9.38419437408447,9.38430118560791,9.38440799713135,9.38451480865479,9.38462162017822,9.38472843170166,9.3848352432251,9.38494205474854,9.38504886627197,9.38515567779541,9.38526248931885,9.38536930084229,9.38547611236572,9.38558292388916,9.3856897354126,9.38579654693604,9.38590335845947,9.38601016998291,9.38611698150635,9.38622379302979,9.38633060455322,9.38643741607666,9.3865442276001,9.38665103912354,9.38675785064697,9.38686466217041,9.38697147369385,9.38707828521729,9.40377044677734,9.4864559173584,9.57060813903809,9.6562671661377,9.74347400665283,9.83228778839111,9.9227466583252,10.0148859024048,10.1087532043457,10.2043952941895,10.3018636703491,9.47760963439941,9.47771739959717,9.47782611846924,9.49225330352783,10.8185062408447,10.9281158447266,11.0399694442749,11.1541357040405,11.2706890106201,11.3432903289795,11.3434200286865,11.3435487747192,11.3436784744263,11.343807220459,11.3439359664917,11.3440656661987,11.3441944122314,11.3443241119385,11.3444528579712,11.3445825576782,11.3447113037109,11.3448400497437,11.3449697494507,11.3450984954834,9.48019981384277,9.48030757904053,9.48041534423828,9.48164844512939,11.4277153015137,11.4289970397949,11.429126739502,11.4292573928833,11.4293870925903,11.4295177459717,11.4296474456787,11.4297771453857,11.4299077987671,11.4300374984741,11.4301681518555,11.4302978515625,11.4304285049438,11.4305582046509,11.4306888580322,11.4308185577393,11.4309492111206,11.4310789108276,11.431209564209,11.431339263916,9.48278999328613,9.4828987121582,9.48300647735596,9.48311424255371,11.4319906234741,11.4321203231812,11.4322509765625,11.4323806762695,11.4325113296509,11.4326410293579,11.4327716827393,11.4329013824463,11.4330320358276
9.37502098083496,9.37512683868408,9.37523365020752,9.37534046173096,9.37544727325439,9.37555313110352,9.37565994262695,9.37576675415039,9.37587356567383,9.37597942352295,9.37608623504639,9.37619304656982,9.37629985809326,9.37640571594238,9.37651252746582,9.37661933898926,9.3767261505127,9.37683200836182,9.37693881988525,9.37704563140869,9.37715244293213,9.37725925445557,9.37736511230469,9.37747192382812,9.37757873535156,9.377685546875,9.37779235839844,9.37789821624756,9.378005027771,9.37811183929443,9.37821865081787,9.37832546234131,9.37843132019043,9.37853813171387,9.3786449432373,9.37875175476074,9.37885856628418,9.3789644241333,9.37907123565674,9.37917804718018,9.37928485870361,9.37939167022705,9.37949848175049,9.37960433959961,9.37971115112305,9.37981796264648,9.37992477416992,9.38003158569336,9.3801383972168,9.38024425506592,9.38035106658936,9.38045787811279,9.38056468963623,9.38067150115967,9.38077831268311,9.38088512420654,9.38099098205566,9.3810977935791,9.38120460510254,9.38131141662598,9.38141822814941,9.38152503967285,9.38163185119629,9.38173866271973,9.38184452056885,9.38195133209229,9.38205814361572,9.38216495513916,9.3822717666626,9.38237857818604,9.38248538970947,9.38259220123291,9.38269901275635,9.38280582427979,9.38291168212891,9.38301849365234,9.38312530517578,9.38323211669922,9.38333892822266,9.38344573974609,9.38355255126953,9.38365936279297,9.38376617431641,9.38387298583984,9.38397979736328,9.38408660888672,9.38419342041016,9.38430023193359,9.38440608978271,9.38451290130615,9.38461971282959,9.38472652435303,9.38483333587646,9.3849401473999,9.38504695892334,9.38515377044678,9.38526058197021,9.38536739349365,9.38547420501709,9.38558101654053,9.38568782806396,9.3857946395874,9.38590145111084,9.38600826263428,9.38611507415771,9.38622188568115,9.38632869720459,9.38643550872803,9.38654232025146,9.3866491317749,9.38675594329834,9.38686275482178,9.38696956634521,9.38707637786865,9.40396404266357,9.48665332794189,9.57080936431885,9.65647220611572,9.74368190765381,9.83249664306641,9.92296028137207,10.0151033401489,10.1089744567871,10.2046213150024,10.3020944595337,9.47760772705078,9.47771549224854,9.47782421112061,9.49248027801514,10.8187608718872,10.9283752441406,11.0402345657349,11.1544075012207,11.2709655761719,11.3432884216309,11.3434171676636,11.3435468673706,11.3436756134033,11.3438053131104,11.3439340591431,11.3440637588501,11.3441925048828,11.3443212509155,11.3444509506226,11.3445796966553,11.3447093963623,11.344838142395,11.3449678421021,11.3450965881348,9.48019790649414,9.48030567169189,9.48041343688965,9.48193836212158,11.4280691146851,11.4289951324463,11.4291248321533,11.4292545318604,11.4293851852417,11.4295148849487,11.4296455383301,11.4297752380371,11.4299058914185,11.4300355911255,11.4301662445068,11.4302959442139,11.4304265975952,11.4305562973022,11.4306869506836,11.4308166503906,11.4309463500977,11.431077003479,11.431206703186,11.4313373565674,9.48278903961182,9.48289680480957,9.48300457000732,9.48311328887939,11.4319877624512,11.4321184158325,11.4322490692139,11.4323787689209,11.4325094223022,11.4326391220093,11.4327697753906,11.4328994750977,11.433030128479
9.37501907348633,9.37512588500977,9.37523174285889,9.37533855438232,9.37544536590576,9.3755521774292,9.37565803527832,9.37576484680176,9.3758716583252,9.37597846984863,9.37608432769775,9.37619113922119,9.37629795074463,9.37640476226807,9.37651062011719,9.37661743164062,9.37672424316406,9.3768310546875,9.37693691253662,9.37704372406006,9.3771505355835,9.37725734710693,9.37736415863037,9.37747001647949,9.37757682800293,9.37768363952637,9.3777904510498,9.37789726257324,9.37800312042236,9.3781099319458,9.37821674346924,9.37832355499268,9.37843036651611,9.37853622436523,9.37864303588867,9.37874984741211,9.37885665893555,9.37896347045898,9.37906932830811,9.37917613983154,9.37928295135498,9.37938976287842,9.37949657440186,9.37960338592529,9.37970924377441,9.37981605529785,9.37992286682129,9.38002967834473,9.38013648986816,9.3802433013916,9.38035011291504,9.38045597076416,9.3805627822876,9.38066959381104,9.38077640533447,9.38088321685791,9.38099002838135,9.38109683990479,9.38120269775391,9.38130950927734,9.38141632080078,9.38152313232422,9.38162994384766,9.38173675537109,9.38184356689453,9.38195037841797,9.38205623626709,9.38216304779053,9.38226985931396,9.3823766708374,9.38248348236084,9.38259029388428,9.38269710540771,9.38280391693115,9.38291072845459,9.38301753997803,9.38312339782715,9.38323020935059,9.38333702087402,9.38344383239746,9.3835506439209,9.38365745544434,9.38376426696777,9.38387107849121,9.38397789001465,9.38408470153809,9.38419151306152,9.38429832458496,9.3844051361084,9.38451194763184,9.38461875915527,9.38472461700439,9.38483142852783,9.38493824005127,9.38504505157471,9.38515186309814,9.38525867462158,9.38536548614502,9.38547229766846,9.38557910919189,9.38568592071533,9.38579273223877,9.38589954376221,9.38600635528564,9.38611316680908,9.38621997833252,9.38632678985596,9.38643360137939,9.38654041290283,9.38664722442627,9.38675403594971,9.38686084747314,9.38696765899658,9.38707447052002,9.4041576385498,9.48685073852539,9.57100963592529,9.65667629241943,9.74388980865479,9.83270454406738,9.92317390441895,10.0153207778931,10.1091957092285,10.2048473358154,10.3023252487183,9.47760581970215,9.47771453857422,9.47782230377197,9.49270725250244,10.8190155029297,10.928635597229,11.0405006408691,11.1546783447266,11.2712421417236,11.3432865142822,11.3434152603149,11.343544960022,11.3436737060547,11.3438034057617,11.3439321517944,11.3440608978271,11.3441905975342,11.3443193435669,11.3444490432739,11.3445777893066,11.3447074890137,11.3448362350464,11.3449659347534,11.3450946807861,9.48019599914551,9.48030376434326,9.48041152954102,9.48222923278809,11.4284229278564,11.4289922714233,11.4291229248047,11.4292526245117,11.4293832778931,11.4295129776001,11.4296436309814,11.4297733306885,11.4299030303955,11.4300336837769,11.4301633834839,11.4302940368652,11.4304237365723,11.4305543899536,11.4306840896606,11.430814743042,11.430944442749,11.4310750961304,11.4312047958374,11.4313354492188,9.48278713226318,9.48289489746094,9.48300266265869,9.48311138153076,11.4319858551025,11.4321165084839,11.4322462081909,11.4323768615723,11.4325065612793,11.4326372146606,11.4327669143677,11.432897567749,11.4330272674561
9.3750171661377,9.37512397766113,9.37523078918457,9.37533664703369,9.37544345855713,9.37555027008057,9.37565612792969,9.37576293945312,9.37586975097656,9.3759765625,9.37608242034912,9.37618923187256,9.376296043396,9.37640285491943,9.37650966644287,9.37661552429199,9.37672233581543,9.37682914733887,9.3769359588623,9.37704181671143,9.37714862823486,9.3772554397583,9.37736225128174,9.37746906280518,9.3775749206543,9.37768173217773,9.37778854370117,9.37789535522461,9.37800216674805,9.37810802459717,9.37821483612061,9.37832164764404,9.37842845916748,9.37853527069092,9.37864112854004,9.37874794006348,9.37885475158691,9.37896156311035,9.37906837463379,9.37917518615723,9.37928104400635,9.37938785552979,9.37949466705322,9.37960147857666,9.3797082901001,9.37981414794922,9.37992095947266,9.38002777099609,9.38013458251953,9.38024139404297,9.38034820556641,9.38045501708984,9.38056087493896,9.3806676864624,9.38077449798584,9.38088130950928,9.38098812103271,9.38109493255615,9.38120174407959,9.38130760192871,9.38141441345215,9.38152122497559,9.38162803649902,9.38173484802246,9.3818416595459,9.38194847106934,9.38205528259277,9.38216209411621,9.38226795196533,9.38237476348877,9.38248157501221,9.38258838653564,9.38269519805908,9.38280200958252,9.38290882110596,9.38301563262939,9.38312244415283,9.38322925567627,9.38333606719971,9.38344192504883,9.38354873657227,9.3836555480957,9.38376235961914,9.38386917114258,9.38397598266602,9.38408279418945,9.38418960571289,9.38429641723633,9.38440322875977,9.3845100402832,9.38461685180664,9.38472366333008,9.38483047485352,9.38493728637695,9.38504409790039,9.38515090942383,9.38525676727295,9.38536357879639,9.38547039031982,9.38557720184326,9.3856840133667,9.38579082489014,9.38589763641357,9.38600444793701,9.38611125946045,9.38621807098389,9.38632488250732,9.38643169403076,9.3865385055542,9.38664531707764,9.38675212860107,9.38685894012451,9.38696575164795,9.38707256317139,9.40435123443604,9.48704719543457,9.57121086120605,9.65688037872314,9.74409770965576,9.83291339874268,9.9233865737915,10.0155382156372,10.1094169616699,10.2050724029541,10.3025560379028,9.47760486602783,9.47771263122559,9.47782039642334,9.49293422698975,10.8192710876465,10.9288959503174,11.0407657623291,11.1549491882324,11.2715196609497,11.3432846069336,11.3434133529663,11.343542098999,11.3436717987061,11.3438005447388,11.3439302444458,11.3440589904785,11.3441886901855,11.3443174362183,11.3444471359253,11.344575881958,11.3447046279907,11.3448343276978,11.3449630737305,11.3450927734375,9.48019409179688,9.48030185699463,9.48040962219238,9.48251914978027,11.4287767410278,11.4289903640747,11.4291210174561,11.4292507171631,11.4293804168701,11.4295110702515,11.4296407699585,11.4297714233398,11.4299011230469,11.4300317764282,11.4301614761353,11.4302921295166,11.4304218292236,11.430552482605,11.430682182312,11.4308128356934,11.4309425354004,11.4310731887817,11.4312028884888,11.4313335418701,9.48278522491455,9.4828929901123,9.48300170898438,9.48310947418213,11.4319839477539,11.4321146011353,11.4322443008423,11.4323749542236,11.4325046539307,11.432635307312,11.432765007019,11.4328956604004,11.4330253601074
9.37501525878906,9.3751220703125,9.37522888183594,9.37533473968506,9.3754415512085,9.37554836273193,9.37565517425537,9.37576103210449,9.37586784362793,9.37597465515137,9.3760814666748,9.37618732452393,9.37629413604736,9.3764009475708,9.37650775909424,9.37661361694336,9.3767204284668,9.37682723999023,9.37693405151367,9.37704086303711,9.37714672088623,9.37725353240967,9.37736034393311,9.37746715545654,9.37757396697998,9.3776798248291,9.37778663635254,9.37789344787598,9.37800025939941,9.37810707092285,9.37821292877197,9.37831974029541,9.37842655181885,9.37853336334229,9.37864017486572,9.37874603271484,9.37885284423828,9.37895965576172,9.37906646728516,9.37917327880859,9.37928009033203,9.37938594818115,9.37949275970459,9.37959957122803,9.37970638275146,9.3798131942749,9.37992000579834,9.38002586364746,9.3801326751709,9.38023948669434,9.38034629821777,9.38045310974121,9.38055992126465,9.38066577911377,9.38077259063721,9.38087940216064,9.38098621368408,9.38109302520752,9.38119983673096,9.38130664825439,9.38141345977783,9.38151931762695,9.38162612915039,9.38173294067383,9.38183975219727,9.3819465637207,9.38205337524414,9.38216018676758,9.38226699829102,9.38237380981445,9.38247966766357,9.38258647918701,9.38269329071045,9.38280010223389,9.38290691375732,9.38301372528076,9.3831205368042,9.38322734832764,9.38333415985107,9.38344097137451,9.38354778289795,9.38365364074707,9.38376045227051,9.38386726379395,9.38397407531738,9.38408088684082,9.38418769836426,9.3842945098877,9.38440132141113,9.38450813293457,9.38461494445801,9.38472175598145,9.38482856750488,9.38493537902832,9.38504219055176,9.3851490020752,9.38525581359863,9.38536262512207,9.38546943664551,9.38557624816895,9.38568305969238,9.38578987121582,9.38589668273926,9.3860034942627,9.38610935211182,9.38621616363525,9.38632297515869,9.38642978668213,9.38653659820557,9.386643409729,9.38675022125244,9.38685703277588,9.38696384429932,9.38707065582275,9.40454578399658,9.48724460601807,9.5714111328125,9.65708446502686,9.74430561065674,9.83312225341797,9.92360019683838,10.0157556533813,10.1096391677856,10.2052984237671,10.3027858734131,9.4776029586792,9.47771072387695,9.47781848907471,9.49316024780273,10.819525718689,10.9291563034058,11.0410308837891,11.1552200317383,11.2717962265015,11.3432817459106,11.3434114456177,11.3435401916504,11.3436698913574,11.3437986373901,11.3439283370972,11.3440570831299,11.3441858291626,11.3443155288696,11.3444442749023,11.3445739746094,11.3447027206421,11.3448324203491,11.3449611663818,11.3450908660889,9.48019218444824,9.480299949646,9.48040866851807,9.48281002044678,11.4288578033447,11.4289884567261,11.4291181564331,11.4292488098145,11.4293785095215,11.4295091629028,11.4296388626099,11.4297695159912,11.4298992156982,11.4300298690796,11.4301595687866,11.4302892684937,11.430419921875,11.430549621582,11.4306802749634,11.4308099746704,11.4309406280518,11.4310703277588,11.4312009811401,11.4313306808472,9.48278331756592,9.48289108276367,9.48299980163574,9.4831075668335,11.4319820404053,11.4321117401123,11.4322423934937,11.4323720932007,11.432502746582,11.4326324462891,11.4327630996704,11.4328937530518,11.4330234527588
9.37501335144043,9.37512016296387,9.3752269744873,9.37533378601074,9.37543964385986,9.3755464553833,9.37565326690674,9.37576007843018,9.3758659362793,9.37597274780273,9.37607955932617,9.37618637084961,9.37629222869873,9.37639904022217,9.37650585174561,9.37661266326904,9.37671852111816,9.3768253326416,9.37693214416504,9.37703895568848,9.37714576721191,9.37725162506104,9.37735843658447,9.37746524810791,9.37757205963135,9.37767791748047,9.37778472900391,9.37789154052734,9.37799835205078,9.37810516357422,9.37821197509766,9.37831783294678,9.37842464447021,9.37853145599365,9.37863826751709,9.37874507904053,9.37885093688965,9.37895774841309,9.37906455993652,9.37917137145996,9.3792781829834,9.37938499450684,9.37949085235596,9.37959766387939,9.37970447540283,9.37981128692627,9.37991809844971,9.38002490997314,9.38013076782227,9.3802375793457,9.38034439086914,9.38045120239258,9.38055801391602,9.38066482543945,9.38077163696289,9.38087749481201,9.38098430633545,9.38109111785889,9.38119792938232,9.38130474090576,9.3814115524292,9.38151836395264,9.38162422180176,9.3817310333252,9.38183784484863,9.38194465637207,9.38205146789551,9.38215827941895,9.38226509094238,9.38237190246582,9.38247871398926,9.38258457183838,9.38269138336182,9.38279819488525,9.38290500640869,9.38301181793213,9.38311862945557,9.383225440979,9.38333225250244,9.38343906402588,9.38354587554932,9.38365268707275,9.38375949859619,9.38386631011963,9.38397216796875,9.38407897949219,9.38418579101562,9.38429260253906,9.3843994140625,9.38450622558594,9.38461303710938,9.38471984863281,9.38482666015625,9.38493347167969,9.38504028320312,9.38514709472656,9.38525390625,9.38536071777344,9.38546752929688,9.38557434082031,9.38568115234375,9.38578796386719,9.38589477539062,9.38600158691406,9.3861083984375,9.38621520996094,9.38632202148438,9.38642883300781,9.38653564453125,9.38664245605469,9.38674926757812,9.38685607910156,9.386962890625,9.38706970214844,9.40473937988281,9.48744201660156,9.57161235809326,9.65728950500488,9.74451351165771,9.83333110809326,9.92381381988525,10.0159730911255,10.1098604202271,10.2055244445801,10.3030157089233,9.47760105133057,9.47770881652832,9.47781753540039,9.49338722229004,10.8197803497314,10.9294166564941,11.0412969589233,11.1554908752441,11.2720727920532,11.343279838562,11.343409538269,11.3435382843018,11.3436670303345,11.3437967300415,11.3439254760742,11.3440551757812,11.344183921814,11.344313621521,11.3444423675537,11.3445720672607,11.3447008132935,11.3448295593262,11.3449592590332,11.3450880050659,9.48019123077393,9.48029899597168,9.48040676116943,9.48309993743896,11.4288558959961,11.4289865493774,11.4291162490845,11.4292469024658,11.4293766021729,11.4295063018799,11.4296369552612,11.4297666549683,11.4298973083496,11.4300270080566,11.430157661438,11.430287361145,11.4304180145264,11.4305477142334,11.4306783676147,11.4308080673218,11.4309387207031,11.4310684204102,11.4311990737915,11.4313287734985,9.48278141021729,9.48289012908936,9.48299789428711,9.48310565948486,11.4319801330566,11.4321098327637,11.432240486145,11.4323701858521,11.4325008392334,11.4326305389404,11.4327611923218,11.4328908920288,11.4330215454102
9.37501239776611,9.37511825561523,9.37522506713867,9.37533187866211,9.37543869018555,9.37554454803467,9.37565135955811,9.37575817108154,9.37586498260498,9.3759708404541,9.37607765197754,9.37618446350098,9.37629127502441,9.37639713287354,9.37650394439697,9.37661075592041,9.37671756744385,9.37682342529297,9.37693023681641,9.37703704833984,9.37714385986328,9.37725067138672,9.37735652923584,9.37746334075928,9.37757015228271,9.37767696380615,9.37778282165527,9.37788963317871,9.37799644470215,9.37810325622559,9.37821006774902,9.37831687927246,9.37842273712158,9.37852954864502,9.37863636016846,9.37874317169189,9.37884998321533,9.37895584106445,9.37906265258789,9.37916946411133,9.37927627563477,9.3793830871582,9.37948989868164,9.37959575653076,9.3797025680542,9.37980937957764,9.37991619110107,9.38002300262451,9.38012981414795,9.38023567199707,9.38034248352051,9.38044929504395,9.38055610656738,9.38066291809082,9.38076972961426,9.3808765411377,9.38098239898682,9.38108921051025,9.38119602203369,9.38130283355713,9.38140964508057,9.381516456604,9.38162326812744,9.38173007965088,9.3818359375,9.38194274902344,9.38204956054688,9.38215637207031,9.38226318359375,9.38236999511719,9.38247680664062,9.38258361816406,9.3826904296875,9.38279628753662,9.38290309906006,9.3830099105835,9.38311672210693,9.38322353363037,9.38333034515381,9.38343715667725,9.38354396820068,9.38365077972412,9.38375759124756,9.383864402771,9.38397121429443,9.38407802581787,9.38418483734131,9.38429069519043,9.38439750671387,9.3845043182373,9.38461112976074,9.38471794128418,9.38482475280762,9.38493156433105,9.38503837585449,9.38514518737793,9.38525199890137,9.3853588104248,9.38546562194824,9.38557243347168,9.38567924499512,9.38578605651855,9.38589286804199,9.38599967956543,9.38610649108887,9.3862133026123,9.38632011413574,9.38642692565918,9.38653373718262,9.38664054870605,9.38674736022949,9.38685417175293,9.38696098327637,9.3870677947998,9.40493297576904,9.48763942718506,9.57181262969971,9.65749359130859,9.74472141265869,9.83353996276855,9.92402744293213,10.0161905288696,10.1100816726685,10.2057495117188,10.3032455444336,9.47759914398193,9.47770690917969,9.47781562805176,9.49361419677734,10.8200359344482,10.9296770095825,11.0415620803833,11.1557626724243,11.272349357605,11.3432779312134,11.3434066772461,11.3435363769531,11.3436651229858,11.3437948226929,11.3439235687256,11.3440532684326,11.3441820144653,11.344310760498,11.3444404602051,11.3445692062378,11.3446989059448,11.3448276519775,11.3449573516846,11.3450860977173,9.48018932342529,9.48029708862305,9.4804048538208,9.48339080810547,11.4288539886475,11.4289836883545,11.4291143417358,11.4292440414429,11.4293746948242,11.4295043945312,11.4296350479126,11.4297647476196,11.429895401001,11.430025100708,11.4301557540894,11.4302854537964,11.4304161071777,11.4305458068848,11.4306755065918,11.4308061599731,11.4309358596802,11.4310665130615,11.4311962127686,11.4313268661499,9.48277950286865,9.48288822174072,9.48299598693848,9.48310375213623,11.4319772720337,11.432107925415,11.4322376251221,11.4323682785034,11.4324989318848,11.4326286315918,11.4327592849731,11.4328889846802,11.4330196380615
9.37501049041748,9.37511730194092,9.37522315979004,9.37532997131348,9.37543678283691,9.37554264068604,9.37564945220947,9.37575626373291,9.37586307525635,9.37596893310547,9.37607574462891,9.37618255615234,9.37628936767578,9.37639617919922,9.37650203704834,9.37660884857178,9.37671566009521,9.37682247161865,9.37692832946777,9.37703514099121,9.37714195251465,9.37724876403809,9.37735557556152,9.37746143341064,9.37756824493408,9.37767505645752,9.37778186798096,9.37788772583008,9.37799453735352,9.37810134887695,9.37820816040039,9.37831497192383,9.37842178344727,9.37852764129639,9.37863445281982,9.37874126434326,9.3788480758667,9.37895488739014,9.37906074523926,9.3791675567627,9.37927436828613,9.37938117980957,9.37948799133301,9.37959480285645,9.37970066070557,9.379807472229,9.37991428375244,9.38002109527588,9.38012790679932,9.38023471832275,9.38034057617188,9.38044738769531,9.38055419921875,9.38066101074219,9.38076782226562,9.38087463378906,9.3809814453125,9.38108730316162,9.38119411468506,9.3813009262085,9.38140773773193,9.38151454925537,9.38162136077881,9.38172817230225,9.38183498382568,9.38194179534912,9.38204765319824,9.38215446472168,9.38226127624512,9.38236808776855,9.38247489929199,9.38258171081543,9.38268852233887,9.3827953338623,9.38290214538574,9.38300895690918,9.3831148147583,9.38322162628174,9.38332843780518,9.38343524932861,9.38354206085205,9.38364887237549,9.38375568389893,9.38386249542236,9.3839693069458,9.38407611846924,9.38418292999268,9.38428974151611,9.38439655303955,9.38450336456299,9.38460922241211,9.38471603393555,9.38482284545898,9.38492965698242,9.38503646850586,9.3851432800293,9.38525009155273,9.38535690307617,9.38546371459961,9.38557052612305,9.38567733764648,9.38578414916992,9.38589096069336,9.3859977722168,9.38610458374023,9.38621139526367,9.38631820678711,9.38642501831055,9.38653182983398,9.38663864135742,9.38674545288086,9.3868522644043,9.38695907592773,9.38706588745117,9.40512657165527,9.48783683776855,9.57201385498047,9.6576976776123,9.74493026733398,9.8337516784668,9.924241065979,10.0164079666138,10.1103029251099,10.2059755325317,10.3034763336182,9.4775972366333,9.47770595550537,9.47781372070312,9.49384117126465,10.8202905654907,10.9299373626709,11.0418281555176,11.1560335159302,11.2726259231567,11.3432760238647,11.3434047698975,11.3435344696045,11.3436632156372,11.3437929153442,11.343921661377,11.3440504074097,11.3441801071167,11.3443088531494,11.3444385528564,11.3445672988892,11.3446969985962,11.3448257446289,11.3449554443359,11.3450841903687,9.48018741607666,9.48029518127441,9.48040294647217,9.48368072509766,11.4288520812988,11.4289817810059,11.4291124343872,11.4292421340942,11.4293727874756,11.4295024871826,11.429633140564,11.429762840271,11.429892539978,11.4300231933594,11.4301528930664,11.4302835464478,11.4304132461548,11.4305438995361,11.4306735992432,11.4308042526245,11.4309339523315,11.4310646057129,11.4311943054199,11.4313249588013,9.48277854919434,9.48288631439209,9.48299407958984,9.48310279846191,11.4319753646851,11.4321060180664,11.4322357177734,11.4323663711548,11.4324960708618,11.4326267242432,11.4327564239502,11.4328870773315,11.4330167770386
9.37500858306885,9.37511539459229,9.37522125244141,9.37532806396484,9.37543487548828,9.37554168701172,9.37564754486084,9.37575435638428,9.37586116790771,9.37596797943115,9.37607383728027,9.37618064880371,9.37628746032715,9.37639427185059,9.37650012969971,9.37660694122314,9.37671375274658,9.37682056427002,9.37692737579346,9.37703323364258,9.37714004516602,9.37724685668945,9.37735366821289,9.37745952606201,9.37756633758545,9.37767314910889,9.37777996063232,9.37788677215576,9.37799263000488,9.37809944152832,9.37820625305176,9.3783130645752,9.37841987609863,9.37852668762207,9.37863254547119,9.37873935699463,9.37884616851807,9.3789529800415,9.37905979156494,9.37916564941406,9.3792724609375,9.37937927246094,9.37948608398438,9.37959289550781,9.37969970703125,9.37980556488037,9.37991237640381,9.38001918792725,9.38012599945068,9.38023281097412,9.38033962249756,9.380446434021,9.38055229187012,9.38065910339355,9.38076591491699,9.38087272644043,9.38097953796387,9.3810863494873,9.38119316101074,9.38129901885986,9.3814058303833,9.38151264190674,9.38161945343018,9.38172626495361,9.38183307647705,9.38193988800049,9.38204669952393,9.38215255737305,9.38225936889648,9.38236618041992,9.38247299194336,9.3825798034668,9.38268661499023,9.38279342651367,9.38290023803711,9.38300704956055,9.38311386108398,9.38322067260742,9.38332653045654,9.38343334197998,9.38354015350342,9.38364696502686,9.38375377655029,9.38386058807373,9.38396739959717,9.38407421112061,9.38418102264404,9.38428783416748,9.38439464569092,9.38450145721436,9.38460826873779,9.38471508026123,9.38482189178467,9.38492870330811,9.38503456115723,9.38514137268066,9.3852481842041,9.38535499572754,9.38546180725098,9.38556861877441,9.38567543029785,9.38578224182129,9.38588905334473,9.38599586486816,9.3861026763916,9.38620948791504,9.38631629943848,9.38642311096191,9.38652992248535,9.38663673400879,9.38674354553223,9.38685035705566,9.3869571685791,9.38706398010254,9.40532112121582,9.48803329467773,9.57221412658691,9.65790176391602,9.74513816833496,9.83396434783936,9.92445373535156,10.0166254043579,10.1105251312256,10.2062015533447,10.3037061691284,9.47759532928467,9.47770404815674,9.47781181335449,9.49406719207764,10.8205461502075,10.930196762085,11.0420932769775,11.156304359436,11.2729034423828,11.3432741165161,11.3434028625488,11.3435316085815,11.3436613082886,11.3437900543213,11.3439197540283,11.344048500061,11.3441781997681,11.3443069458008,11.3444356918335,11.3445653915405,11.3446941375732,11.3448238372803,11.344952583313,11.34508228302,9.48018550872803,9.48029327392578,9.48040103912354,9.48397159576416,11.4288501739502,11.4289798736572,11.4291105270386,11.4292402267456,11.4293699264526,11.429500579834,11.429630279541,11.4297609329224,11.4298906326294,11.4300212860107,11.4301509857178,11.4302816390991,11.4304113388062,11.4305419921875,11.4306716918945,11.4308023452759,11.4309320449829,11.4310626983643,11.4311923980713,11.4313230514526,9.4827766418457,9.48288440704346,9.48299217224121,9.48310089111328,11.4319734573364,11.4321041107178,11.4322338104248,11.4323644638062,11.4324941635132,11.4326248168945,11.4327545166016,11.4328851699829,11.4330148696899
9.37500667572021,9.37511348724365,9.37522029876709,9.37532615661621,9.37543296813965,9.37553977966309,9.37564659118652,9.37575244903564,9.37585926055908,9.37596607208252,9.37607288360596,9.37617874145508,9.37628555297852,9.37639236450195,9.37649917602539,9.37660503387451,9.37671184539795,9.37681865692139,9.37692546844482,9.37703227996826,9.37713813781738,9.37724494934082,9.37735176086426,9.3774585723877,9.37756443023682,9.37767124176025,9.37777805328369,9.37788486480713,9.37799167633057,9.37809753417969,9.37820434570312,9.37831115722656,9.37841796875,9.37852478027344,9.37863159179688,9.378737449646,9.37884426116943,9.37895107269287,9.37905788421631,9.37916469573975,9.37927055358887,9.3793773651123,9.37948417663574,9.37959098815918,9.37969779968262,9.37980461120605,9.37991046905518,9.38001728057861,9.38012409210205,9.38023090362549,9.38033771514893,9.38044452667236,9.3805513381958,9.38065719604492,9.38076400756836,9.3808708190918,9.38097763061523,9.38108444213867,9.38119125366211,9.38129806518555,9.38140392303467,9.38151073455811,9.38161754608154,9.38172435760498,9.38183116912842,9.38193798065186,9.38204479217529,9.38215160369873,9.38225841522217,9.38236427307129,9.38247108459473,9.38257789611816,9.3826847076416,9.38279151916504,9.38289833068848,9.38300514221191,9.38311195373535,9.38321876525879,9.38332557678223,9.38343238830566,9.38353824615479,9.38364505767822,9.38375186920166,9.3838586807251,9.38396549224854,9.38407230377197,9.38417911529541,9.38428592681885,9.38439273834229,9.38449954986572,9.38460636138916,9.3847131729126,9.38481998443604,9.38492679595947,9.38503360748291,9.38514041900635,9.38524723052979,9.38535404205322,9.38546085357666,9.3855676651001,9.38567352294922,9.38578033447266,9.38588714599609,9.38599395751953,9.38610076904297,9.38620758056641,9.38631439208984,9.38642120361328,9.38652801513672,9.38663482666016,9.38674163818359,9.38684844970703,9.38695526123047,9.38706207275391,9.40551471710205,9.48823070526123,9.57241535186768,9.65810680389404,9.74534606933594,9.8341760635376,9.92466735839844,10.0168428421021,10.110746383667,10.2064275741577,10.3039360046387,9.47759437561035,9.47770214080811,9.47780990600586,9.49429416656494,10.82080078125,10.9304571151733,11.0423593521118,11.1565761566162,11.2731800079346,11.3432712554932,11.3434009552002,11.3435297012329,11.3436594009399,11.3437881469727,11.3439178466797,11.3440465927124,11.3441753387451,11.3443050384521,11.3444337844849,11.3445634841919,11.3446922302246,11.3448219299316,11.3449506759644,11.3450803756714,9.48018360137939,9.48029136657715,9.4803991317749,9.48426151275635,11.4288473129272,11.4289779663086,11.4291076660156,11.429238319397,11.429368019104,11.4294986724854,11.4296283721924,11.4297590255737,11.4298887252808,11.4300184249878,11.4301490783691,11.4302787780762,11.4304094314575,11.4305391311646,11.4306697845459,11.4307994842529,11.4309301376343,11.4310598373413,11.4311904907227,11.4313201904297,9.48277473449707,9.48288249969482,9.48299121856689,9.48309898376465,11.4319715499878,11.4321012496948,11.4322319030762,11.4323616027832,11.4324922561646,11.4326219558716,11.4327526092529,11.43288230896,11.4330129623413
9.37500476837158,9.37511157989502,9.37521839141846,9.37532520294189,9.37543106079102,9.37553787231445,9.37564468383789,9.37575149536133,9.37585735321045,9.37596416473389,9.37607097625732,9.37617778778076,9.37628364562988,9.37639045715332,9.37649726867676,9.3766040802002,9.37670993804932,9.37681674957275,9.37692356109619,9.37703037261963,9.37713718414307,9.37724304199219,9.37734985351562,9.37745666503906,9.3775634765625,9.37766933441162,9.37777614593506,9.3778829574585,9.37798976898193,9.37809658050537,9.37820243835449,9.37830924987793,9.37841606140137,9.3785228729248,9.37862968444824,9.37873649597168,9.3788423538208,9.37894916534424,9.37905597686768,9.37916278839111,9.37926959991455,9.37937545776367,9.37948226928711,9.37958908081055,9.37969589233398,9.37980270385742,9.37990951538086,9.38001537322998,9.38012218475342,9.38022899627686,9.38033580780029,9.38044261932373,9.38054943084717,9.38065624237061,9.38076210021973,9.38086891174316,9.3809757232666,9.38108253479004,9.38118934631348,9.38129615783691,9.38140296936035,9.38150978088379,9.38161563873291,9.38172245025635,9.38182926177979,9.38193607330322,9.38204288482666,9.3821496963501,9.38225650787354,9.38236331939697,9.38247013092041,9.38257598876953,9.38268280029297,9.38278961181641,9.38289642333984,9.38300323486328,9.38311004638672,9.38321685791016,9.38332366943359,9.38343048095703,9.38353729248047,9.38364410400391,9.38375091552734,9.38385677337646,9.3839635848999,9.38407039642334,9.38417720794678,9.38428401947021,9.38439083099365,9.38449764251709,9.38460445404053,9.38471126556396,9.3848180770874,9.38492488861084,9.38503170013428,9.38513851165771,9.38524532318115,9.38535213470459,9.38545894622803,9.38556575775146,9.3856725692749,9.38577938079834,9.38588619232178,9.38599300384521,9.38609981536865,9.38620662689209,9.38631343841553,9.38642024993896,9.3865270614624,9.38663387298584,9.38674068450928,9.38684749603271,9.38695430755615,9.38706111907959,9.40570831298828,9.48842811584473,9.57261562347412,9.65831089019775,9.74555397033691,9.83438777923584,9.92488098144531,10.0170602798462,10.1109676361084,10.2066526412964,10.3041658401489,9.47759246826172,9.47770023345947,9.47780799865723,9.49452114105225,10.8210563659668,10.9307174682617,11.0426244735718,11.1568470001221,11.2734565734863,11.3432693481445,11.3433990478516,11.3435277938843,11.343656539917,11.343786239624,11.3439149856567,11.3440446853638,11.3441734313965,11.3443031311035,11.3444318771362,11.3445615768433,11.344690322876,11.3448190689087,11.3449487686157,11.3450775146484,9.48018169403076,9.48028945922852,9.48039817810059,9.48455238342285,11.4288454055786,11.42897605896,11.429105758667,11.4292364120483,11.4293661117554,11.4294958114624,11.4296264648438,11.4297561645508,11.4298868179321,11.4300165176392,11.4301471710205,11.4302768707275,11.4304075241089,11.4305372238159,11.4306678771973,11.4307975769043,11.4309282302856,11.4310579299927,11.431188583374,11.4313182830811,9.48277282714844,9.48288059234619,9.48298931121826,9.48309707641602,11.4319696426392,11.4320993423462,11.4322299957275,11.4323596954346,11.4324903488159,11.4326200485229,11.4327507019043,11.4328804016113,11.4330110549927
9.37500381469727,9.37510967254639,9.37521648406982,9.37532329559326,9.3754301071167,9.37553596496582,9.37564277648926,9.3757495880127,9.37585544586182,9.37596225738525,9.37606906890869,9.37617588043213,9.37628269195557,9.37638854980469,9.37649536132812,9.37660217285156,9.376708984375,9.37681484222412,9.37692165374756,9.377028465271,9.37713527679443,9.37724113464355,9.37734794616699,9.37745475769043,9.37756156921387,9.3776683807373,9.37777423858643,9.37788105010986,9.3779878616333,9.37809467315674,9.37820148468018,9.3783073425293,9.37841415405273,9.37852096557617,9.37862777709961,9.37873458862305,9.37884140014648,9.37894725799561,9.37905406951904,9.37916088104248,9.37926769256592,9.37937450408936,9.37948036193848,9.37958717346191,9.37969398498535,9.37980079650879,9.37990760803223,9.38001441955566,9.3801212310791,9.38022708892822,9.38033390045166,9.3804407119751,9.38054752349854,9.38065433502197,9.38076114654541,9.38086795806885,9.38097381591797,9.38108062744141,9.38118743896484,9.38129425048828,9.38140106201172,9.38150787353516,9.38161468505859,9.38172054290771,9.38182735443115,9.38193416595459,9.38204097747803,9.38214778900146,9.3822546005249,9.38236141204834,9.38246822357178,9.38257503509521,9.38268184661865,9.38278770446777,9.38289451599121,9.38300132751465,9.38310813903809,9.38321495056152,9.38332176208496,9.3834285736084,9.38353538513184,9.38364219665527,9.38374900817871,9.38385581970215,9.38396263122559,9.38406944274902,9.38417530059814,9.38428211212158,9.38438892364502,9.38449573516846,9.38460254669189,9.38470935821533,9.38481616973877,9.38492298126221,9.38502979278564,9.38513660430908,9.38524341583252,9.38535022735596,9.38545703887939,9.38556385040283,9.38567066192627,9.38577747344971,9.38588428497314,9.38599109649658,9.38609790802002,9.38620471954346,9.38631153106689,9.38641834259033,9.38652515411377,9.38663196563721,9.38673877716064,9.38684558868408,9.38695240020752,9.38705921173096,9.40590190887451,9.48862552642822,9.57281684875488,9.65851497650146,9.74576187133789,9.83459949493408,9.92509460449219,10.0172777175903,10.1111898422241,10.2068786621094,10.3043966293335,9.47759056091309,9.47769832611084,9.47780704498291,9.49474811553955,10.8213109970093,10.9309778213501,11.0428905487061,11.1571178436279,11.2737340927124,11.3432674407959,11.3433961868286,11.3435258865356,11.3436546325684,11.3437843322754,11.3439130783081,11.3440427780151,11.3441715240479,11.3443002700806,11.3444299697876,11.3445587158203,11.3446884155273,11.3448171615601,11.3449468612671,11.3450756072998,9.48018074035645,9.4802885055542,9.48039627075195,9.48484230041504,11.42884349823,11.428973197937,11.4291038513184,11.4292335510254,11.4293642044067,11.4294939041138,11.4296245574951,11.4297542572021,11.4298849105835,11.4300146102905,11.4301452636719,11.4302749633789,11.4304046630859,11.4305353164673,11.4306650161743,11.4307956695557,11.4309253692627,11.431056022644,11.4311857223511,11.4313163757324,9.4827709197998,9.48287963867188,9.48298740386963,9.48309516906738,11.4319667816162,11.4320974349976,11.4322271347046,11.4323577880859,11.432487487793,11.4326181411743,11.4327487945557,11.4328784942627,11.433009147644
9.37500190734863,9.37510776519775,9.37521457672119,9.37532138824463,9.37542819976807,9.37553405761719,9.37564086914062,9.37574768066406,9.3758544921875,9.37596035003662,9.37606716156006,9.3761739730835,9.37628078460693,9.37638664245605,9.37649345397949,9.37660026550293,9.37670707702637,9.3768138885498,9.37691974639893,9.37702655792236,9.3771333694458,9.37724018096924,9.37734603881836,9.3774528503418,9.37755966186523,9.37766647338867,9.37777328491211,9.37787914276123,9.37798595428467,9.37809276580811,9.37819957733154,9.37830638885498,9.3784122467041,9.37851905822754,9.37862586975098,9.37873268127441,9.37883949279785,9.37894630432129,9.37905216217041,9.37915897369385,9.37926578521729,9.37937259674072,9.37947940826416,9.3795862197876,9.37969207763672,9.37979888916016,9.37990570068359,9.38001251220703,9.38011932373047,9.38022613525391,9.38033199310303,9.38043880462646,9.3805456161499,9.38065242767334,9.38075923919678,9.38086605072021,9.38097286224365,9.38107872009277,9.38118553161621,9.38129234313965,9.38139915466309,9.38150596618652,9.38161277770996,9.3817195892334,9.38182640075684,9.38193225860596,9.38203907012939,9.38214588165283,9.38225269317627,9.38235950469971,9.38246631622314,9.38257312774658,9.38267993927002,9.38278675079346,9.38289356231689,9.38299942016602,9.38310623168945,9.38321304321289,9.38331985473633,9.38342666625977,9.3835334777832,9.38364028930664,9.38374710083008,9.38385391235352,9.38396072387695,9.38406753540039,9.38417434692383,9.38428115844727,9.3843879699707,9.38449382781982,9.38460063934326,9.3847074508667,9.38481426239014,9.38492107391357,9.38502788543701,9.38513469696045,9.38524150848389,9.38534832000732,9.38545513153076,9.3855619430542,9.38566875457764,9.38577556610107,9.38588237762451,9.38598918914795,9.38609600067139,9.38620281219482,9.38630962371826,9.3864164352417,9.38652324676514,9.38663005828857,9.38673686981201,9.38684368133545,9.38695049285889,9.38705730438232,9.40609645843506,9.48882293701172,9.57301712036133,9.65872001647949,9.74597072601318,9.83481216430664,9.92530727386475,10.0174951553345,10.1114110946655,10.2071046829224,10.3046264648438,9.47758865356445,9.47769641876221,9.47780513763428,9.49497032165527,10.8215656280518,10.9312381744385,11.0431566238403,11.1573896408081,11.2740106582642,11.3432655334473,11.34339427948,11.343523979187,11.3436527252197,11.3437824249268,11.3439111709595,11.3440399169922,11.3441696166992,11.3442983627319,11.344428062439,11.3445568084717,11.3446865081787,11.3448152542114,11.3449440002441,11.3450736999512,9.48017883300781,9.48028659820557,9.48039436340332,9.48513317108154,11.4288415908813,11.4289712905884,11.4291019439697,11.4292316436768,11.4293622970581,11.4294919967651,11.4296216964722,11.4297523498535,11.4298820495605,11.4300127029419,11.4301424026489,11.4302730560303,11.4304027557373,11.4305334091187,11.4306631088257,11.430793762207,11.4309234619141,11.4310541152954,11.4311838150024,11.4313144683838,9.48276901245117,9.48287773132324,9.482985496521,9.48309421539307,11.4319648742676,11.4320955276489,11.432225227356,11.4323558807373,11.4324855804443,11.4326162338257,11.4327459335327,11.4328765869141,11.4330062866211
9.375,9.37510681152344,9.37521266937256,9.375319480896,9.37542629241943,9.37553310394287,9.37563896179199,9.37574577331543,9.37585258483887,9.3759593963623,9.37606525421143,9.37617206573486,9.3762788772583,9.37638568878174,9.37649154663086,9.3765983581543,9.37670516967773,9.37681198120117,9.37691879272461,9.37702465057373,9.37713146209717,9.37723827362061,9.37734508514404,9.37745094299316,9.3775577545166,9.37766456604004,9.37777137756348,9.37787818908691,9.37798404693604,9.37809085845947,9.37819766998291,9.37830448150635,9.37841129302979,9.37851715087891,9.37862396240234,9.37873077392578,9.37883758544922,9.37894439697266,9.37905120849609,9.37915706634521,9.37926387786865,9.37937068939209,9.37947750091553,9.37958431243896,9.3796911239624,9.37979698181152,9.37990379333496,9.3800106048584,9.38011741638184,9.38022422790527,9.38033103942871,9.38043689727783,9.38054370880127,9.38065052032471,9.38075733184814,9.38086414337158,9.38097095489502,9.38107776641846,9.38118362426758,9.38129043579102,9.38139724731445,9.38150405883789,9.38161087036133,9.38171768188477,9.3818244934082,9.38193130493164,9.38203811645508,9.3821439743042,9.38225078582764,9.38235759735107,9.38246440887451,9.38257122039795,9.38267803192139,9.38278484344482,9.38289165496826,9.3829984664917,9.38310527801514,9.38321113586426,9.3833179473877,9.38342475891113,9.38353157043457,9.38363838195801,9.38374519348145,9.38385200500488,9.38395881652832,9.38406562805176,9.3841724395752,9.38427925109863,9.38438606262207,9.38449287414551,9.38459968566895,9.38470649719238,9.38481330871582,9.38491916656494,9.38502597808838,9.38513278961182,9.38523960113525,9.38534641265869,9.38545322418213,9.38556003570557,9.385666847229,9.38577365875244,9.38588047027588,9.38598728179932,9.38609409332275,9.38620090484619,9.38630771636963,9.38641452789307,9.3865213394165,9.38662815093994,9.38673496246338,9.38684177398682,9.38694858551025,9.38705539703369,9.40629005432129,9.48902034759521,9.57321834564209,9.6589241027832,9.74617862701416,9.83502388000488,9.9255199432373,10.0177125930786,10.1116323471069,10.2073307037354,10.304856300354,9.47758674621582,9.47769546508789,9.47780323028564,9.49519157409668,10.8218212127686,10.9314985275269,11.0434217453003,11.157660484314,11.2742872238159,11.3432636260986,11.3433923721313,11.3435211181641,11.3436508178711,11.3437795639038,11.3439092636108,11.3440380096436,11.3441677093506,11.3442964553833,11.344425201416,11.344554901123,11.3446836471558,11.3448133468628,11.3449420928955,11.3450717926025,9.48017692565918,9.48028469085693,9.48039245605469,9.48542404174805,11.4288396835327,11.4289693832397,11.4290990829468,11.4292297363281,11.4293594360352,11.4294900894165,11.4296197891235,11.4297504425049,11.4298801422119,11.4300107955933,11.4301404953003,11.4302711486816,11.4304008483887,11.43053150177,11.4306612014771,11.4307909011841,11.4309215545654,11.4310512542725,11.4311819076538,11.4313116073608,9.48276805877686,9.48287582397461,9.48298358917236,9.48309230804443,11.4319629669189,11.432092666626,11.4322233200073,11.4323539733887,11.4324836730957,11.4326143264771,11.4327440261841,11.4328746795654,11.4330043792725
9.37499809265137,9.3751049041748,9.37521171569824,9.37531757354736,9.3754243850708,9.37553119659424,9.37563800811768,9.3757438659668,9.37585067749023,9.37595748901367,9.37606430053711,9.37617015838623,9.37627696990967,9.37638378143311,9.37649059295654,9.37659645080566,9.3767032623291,9.37681007385254,9.37691688537598,9.3770227432251,9.37712955474854,9.37723636627197,9.37734317779541,9.37744998931885,9.37755584716797,9.37766265869141,9.37776947021484,9.37787628173828,9.37798309326172,9.37808895111084,9.37819576263428,9.37830257415771,9.37840938568115,9.37851619720459,9.37862205505371,9.37872886657715,9.37883567810059,9.37894248962402,9.37904930114746,9.3791561126709,9.37926197052002,9.37936878204346,9.37947559356689,9.37958240509033,9.37968921661377,9.37979602813721,9.37990188598633,9.38000869750977,9.3801155090332,9.38022232055664,9.38032913208008,9.38043594360352,9.38054180145264,9.38064861297607,9.38075542449951,9.38086223602295,9.38096904754639,9.38107585906982,9.38118267059326,9.3812894821167,9.38139533996582,9.38150215148926,9.3816089630127,9.38171577453613,9.38182258605957,9.38192939758301,9.38203620910645,9.38214302062988,9.382248878479,9.38235569000244,9.38246250152588,9.38256931304932,9.38267612457275,9.38278293609619,9.38288974761963,9.38299655914307,9.3831033706665,9.38321018218994,9.38331699371338,9.3834228515625,9.38352966308594,9.38363647460938,9.38374328613281,9.38385009765625,9.38395690917969,9.38406372070312,9.38417053222656,9.38427734375,9.38438415527344,9.38449096679688,9.38459777832031,9.38470458984375,9.38481140136719,9.38491821289062,9.38502502441406,9.3851318359375,9.38523864746094,9.38534545898438,9.3854513168335,9.38555812835693,9.38566493988037,9.38577175140381,9.38587856292725,9.38598537445068,9.38609218597412,9.38619899749756,9.386305809021,9.38641262054443,9.38651943206787,9.38662624359131,9.38673305511475,9.38683986663818,9.38694667816162,9.38705348968506,9.40648365020752,9.48921775817871,9.57341957092285,9.65912818908691,9.74638652801514,9.83523559570312,9.92573261260986,10.0179300308228,10.1118545532227,10.207555770874,10.3050870895386,9.47758483886719,9.47769355773926,9.47780132293701,9.49541282653809,10.8220767974854,10.9317588806152,11.0436878204346,11.1579322814941,11.274564743042,11.3432607650757,11.3433904647827,11.3435192108154,11.3436489105225,11.3437776565552,11.3439073562622,11.3440361022949,11.3441648483276,11.3442945480347,11.3444232940674,11.3445529937744,11.3446817398071,11.3448114395142,11.3449401855469,11.3450698852539,9.48017501831055,9.4802827835083,9.48039054870605,9.48571395874023,11.4288368225098,11.4289674758911,11.4290971755981,11.4292278289795,11.4293575286865,11.4294881820679,11.4296178817749,11.4297485351562,11.4298782348633,11.4300079345703,11.4301385879517,11.4302682876587,11.43039894104,11.4305286407471,11.4306592941284,11.4307889938354,11.4309196472168,11.4310493469238,11.4311800003052,11.4313097000122,9.48276615142822,9.48287391662598,9.48298263549805,9.4830904006958,11.4319610595703,11.4320907592773,11.4322214126587,11.4323511123657,11.4324817657471,11.4326114654541,11.4327421188354,11.4328718185425,11.4330024719238
9.37499618530273,9.37510299682617,9.37520980834961,9.37531661987305,9.37542247772217,9.37552928924561,9.37563610076904,9.37574291229248,9.3758487701416,9.37595558166504,9.37606239318848,9.37616920471191,9.37627506256104,9.37638187408447,9.37648868560791,9.37659549713135,9.37670135498047,9.37680816650391,9.37691497802734,9.37702178955078,9.3771276473999,9.37723445892334,9.37734127044678,9.37744808197021,9.37755489349365,9.37766075134277,9.37776756286621,9.37787437438965,9.37798118591309,9.37808799743652,9.37819385528564,9.37830066680908,9.37840747833252,9.37851428985596,9.37862110137939,9.37872695922852,9.37883377075195,9.37894058227539,9.37904739379883,9.37915420532227,9.3792610168457,9.37936687469482,9.37947368621826,9.3795804977417,9.37968730926514,9.37979412078857,9.37990093231201,9.38000679016113,9.38011360168457,9.38022041320801,9.38032722473145,9.38043403625488,9.38054084777832,9.38064765930176,9.38075351715088,9.38086032867432,9.38096714019775,9.38107395172119,9.38118076324463,9.38128757476807,9.3813943862915,9.38150024414062,9.38160705566406,9.3817138671875,9.38182067871094,9.38192749023438,9.38203430175781,9.38214111328125,9.38224792480469,9.38235473632812,9.38246059417725,9.38256740570068,9.38267421722412,9.38278102874756,9.382887840271,9.38299465179443,9.38310146331787,9.38320827484131,9.38331508636475,9.38342189788818,9.38352870941162,9.38363552093506,9.38374137878418,9.38384819030762,9.38395500183105,9.38406181335449,9.38416862487793,9.38427543640137,9.3843822479248,9.38448905944824,9.38459587097168,9.38470268249512,9.38480949401855,9.38491630554199,9.38502311706543,9.38512992858887,9.3852367401123,9.38534355163574,9.38545036315918,9.38555717468262,9.38566398620605,9.38577079772949,9.38587760925293,9.38598442077637,9.3860912322998,9.38619804382324,9.38630485534668,9.38641166687012,9.38651847839355,9.38662528991699,9.38673210144043,9.38683891296387,9.3869457244873,9.38705253601074,9.40667724609375,9.48941421508789,9.5736198425293,9.65933322906494,9.74659442901611,9.83544731140137,9.92594623565674,10.0181474685669,10.1120758056641,10.207781791687,10.3053169250488,9.47758388519287,9.47769165039062,9.47779941558838,9.49563407897949,10.8223314285278,10.9320192337036,11.0439529418945,11.158203125,11.2748413085938,11.3432588577271,11.3433885574341,11.3435173034668,11.3436460494995,11.3437757492065,11.3439044952393,11.3440341949463,11.344162940979,11.344292640686,11.3444213867188,11.3445510864258,11.3446798324585,11.3448085784912,11.3449382781982,11.345067024231,9.48017311096191,9.48028087615967,9.48038864135742,9.48600482940674,11.4288349151611,11.4289655685425,11.4290952682495,11.4292249679565,11.4293556213379,11.4294853210449,11.4296159744263,11.4297456741333,11.4298763275146,11.4300060272217,11.430136680603,11.4302663803101,11.4303970336914,11.4305267333984,11.4306573867798,11.4307870864868,11.4309177398682,11.4310474395752,11.4311780929565,11.4313077926636,9.48276424407959,9.48287200927734,9.48298072814941,9.48308849334717,11.4319591522217,11.4320888519287,11.4322195053101,11.4323492050171,11.4324798583984,11.4326095581055,11.4327402114868,11.4328699111938,11.4330005645752
9.37499523162842,9.37510108947754,9.37520790100098,9.37531471252441,9.37542057037354,9.37552738189697,9.37563419342041,9.37574100494385,9.37584686279297,9.37595367431641,9.37606048583984,9.37616729736328,9.3762731552124,9.37637996673584,9.37648677825928,9.37659358978271,9.37670040130615,9.37680625915527,9.37691307067871,9.37701988220215,9.37712669372559,9.37723255157471,9.37733936309814,9.37744617462158,9.37755298614502,9.37765979766846,9.37776565551758,9.37787246704102,9.37797927856445,9.37808609008789,9.37819290161133,9.37829875946045,9.37840557098389,9.37851238250732,9.37861919403076,9.3787260055542,9.37883186340332,9.37893867492676,9.3790454864502,9.37915229797363,9.37925910949707,9.37936592102051,9.37947177886963,9.37957859039307,9.3796854019165,9.37979221343994,9.37989902496338,9.38000583648682,9.38011169433594,9.38021850585938,9.38032531738281,9.38043212890625,9.38053894042969,9.38064575195312,9.38075256347656,9.38085842132568,9.38096523284912,9.38107204437256,9.381178855896,9.38128566741943,9.38139247894287,9.38149929046631,9.38160610198975,9.38171195983887,9.3818187713623,9.38192558288574,9.38203239440918,9.38213920593262,9.38224601745605,9.38235282897949,9.38245964050293,9.38256645202637,9.38267230987549,9.38277912139893,9.38288593292236,9.3829927444458,9.38309955596924,9.38320636749268,9.38331317901611,9.38341999053955,9.38352680206299,9.38363361358643,9.38374042510986,9.3838472366333,9.38395404815674,9.38405990600586,9.3841667175293,9.38427352905273,9.38438034057617,9.38448715209961,9.38459396362305,9.38470077514648,9.38480758666992,9.38491439819336,9.3850212097168,9.38512802124023,9.38523483276367,9.38534164428711,9.38544845581055,9.38555526733398,9.38566207885742,9.38576889038086,9.3858757019043,9.38598251342773,9.38608932495117,9.38619613647461,9.38630294799805,9.38640975952148,9.38651657104492,9.38662338256836,9.3867301940918,9.38683700561523,9.38694381713867,9.38705062866211,9.4068717956543,9.48961162567139,9.57382106781006,9.65953731536865,9.74680328369141,9.83565998077393,9.9261589050293,10.018364906311,10.1122970581055,10.2080078125,10.3055467605591,9.47758197784424,9.47768974304199,9.47779846191406,9.4958553314209,10.8225870132446,10.932279586792,11.0442190170288,11.1584739685059,11.2751178741455,11.3432569503784,11.3433856964111,11.3435153961182,11.3436441421509,11.3437738418579,11.3439025878906,11.3440322875977,11.3441610336304,11.3442897796631,11.3444194793701,11.3445482254028,11.3446779251099,11.3448066711426,11.3449363708496,11.3450651168823,9.48017120361328,9.48027992248535,9.48038768768311,9.48629570007324,11.4288330078125,11.4289627075195,11.4290933609009,11.4292230606079,11.4293537139893,11.4294834136963,11.4296140670776,11.4297437667847,11.429874420166,11.430004119873,11.4301338195801,11.4302644729614,11.4303941726685,11.4305248260498,11.4306545257568,11.4307851791382,11.4309148788452,11.4310455322266,11.4311752319336,11.4313058853149,9.48276233673096,9.48287105560303,9.48297882080078,9.48308658599854,11.4319562911987,11.4320869445801,11.4322166442871,11.4323472976685,11.4324769973755,11.4326076507568,11.4327373504639,11.4328680038452,11.4329986572266
