0,0,0,0,0,0,0,0,0,0,0,0,0,0,0,0,0,0,0,0,0,0,0,0,0,0,0,0,0,0,0,0,0,0,0,0,0,0,0,0,0,0,0,0,0,0,0,0,0,0,0,0,0,0,0,0,0,0,0,0,0,0,0,0,0,0,0,0,0,0,0,0,0,0,0,0,0,0,0,0,0,0,0,0,0,0,0,0,0,0,0,0,0,0,0,0,0,0,0,0,0,0,0,0,0,0,0,0,0,0,0,0,0,0,0,0,0,0,0,0,0,0,0,0,0,0,0,0,0,0,0,0,0,0,0,0,0,0,0,0,0,0,0,0,0,0,0,0,0,0,0,0,0,0,0,0,0,0,0,0,0,0,0,0,0,0,0,0,0,0,0,0,0,0,0,0,0,0,0,0,0,0,0,17.5963153839111,17.5656394958496,17.5350723266602,17.5046081542969,17.474250793457,17.4440002441406,17.4731559753418,17.4652118682861,17.4351234436035,17.4051399230957,17.3752574920654,17.3454780578613,17.3157997131348,17.2862243652344,17.2567481994629,17.2273731231689,17.1980991363525,17.1689224243164,17.1398468017578,17.1108665466309,17.0819873809814,17.0532035827637,17.0245170593262,16.9959259033203,16.9674320220947,16.9390335083008,16.9107284545898,16.8825187683105,16.8544025421143,16.8263816833496,16.7984523773193,16.7706146240234,16.7428703308105,16.715217590332,16.6876564025879,16.6601848602295,16.6328048706055,16.6055126190186,16.578311920166,16.5511989593506,16.5241756439209,16.4972400665283,16.4703922271729,16.4436302185059,16.416955947876,16.3903694152832,16.3638668060303,16.3374519348145,16.3111209869385,16.2848739624023,16.2587127685547,16.2326335906982,16.2066402435303
0,0,0,0,0,0,0,0,0,0,0,0,0,0,0,0,0,0,0,0,0,0,0,0,0,0,0,0,0,0,0,0,0,0,0,0,0,0,0,0,0,0,0,0,0,0,0,0,0,0,0,0,0,0,0,0,0,0,0,0,0,0,0,0,0,0,0,0,0,0,0,0,0,0,0,0,0,0,0,0,0,0,0,0,0,0,0,0,0,0,0,0,0,0,0,0,0,0,0,0,0,0,0,0,0,0,0,0,0,0,0,0,0,0,0,0,0,0,0,0,0,0,0,0,0,0,0,0,0,0,0,0,0,0,0,0,0,0,0,0,0,0,0,0,0,0,0,0,0,0,0,0,0,0,0,0,0,0,0,0,0,0,0,0,0,0,0,0,0,0,0,0,0,0,0,0,0,0,0,0,0,0,0,17.596134185791,17.5654602050781,17.53489112854,17.5044288635254,17.4740734100342,17.4441814422607,17.4733486175537,17.4650344848633,17.4349479675293,17.4049625396729,17.3750820159912,17.3453025817871,17.3156261444092,17.2860507965088,17.2565765380859,17.227201461792,17.1979274749756,17.1687526702881,17.1396751403809,17.1106967926025,17.0818176269531,17.0530338287354,17.0243473052979,16.9957580566406,16.967264175415,16.9388656616211,16.9105625152588,16.8823528289795,16.8542385101318,16.8262157440186,16.7982883453369,16.7704524993896,16.7427082061768,16.7150554656982,16.6874942779541,16.6600246429443,16.6326427459717,16.6053524017334,16.5781517028809,16.5510406494141,16.5240173339844,16.4970817565918,16.4702339172363,16.443473815918,16.4167995452881,16.3902130126953,16.363712310791,16.3372955322266,16.3109664916992,16.2847194671631,16.2585582733154,16.2324810028076,16.2064876556396
0,0,0,0,0,0,0,0,0,0,0,0,0,0,0,0,0,0,0,0,0,0,0,0,0,0,0,0,0,0,0,0,0,0,0,0,0,0,0,0,0,0,0,0,0,0,0,0,0,0,0,0,0,0,0,0,0,0,0,0,0,0,0,0,0,0,0,0,0,0,0,0,0,0,0,0,0,0,0,0,0,0,0,0,0,0,0,0,0,0,0,0,0,0,0,0,0,0,0,0,0,0,0,0,0,0,0,0,0,0,0,0,0,0,0,0,0,0,0,0,0,0,0,0,0,0,0,0,0,0,0,0,0,0,0,0,0,0,0,0,0,0,0,0,0,0,0,0,0,0,0,0,0,0,0,0,0,0,0,0,0,0,0,0,0,0,0,0,0,0,0,0,0,0,0,0,0,0,0,0,0,0,17.6267433166504,17.5959529876709,17.565279006958,17.5347118377686,17.5042495727539,17.4738941192627,17.444372177124,17.473539352417,17.4648590087891,17.4347705841064,17.4047870635986,17.374906539917,17.3451271057129,17.3154525756836,17.2858772277832,17.2564029693604,17.227029800415,17.1977558135986,17.1685810089111,17.1395053863525,17.1105270385742,17.0816478729248,17.0528659820557,17.0241794586182,16.9955902099609,16.9670963287354,16.93869972229,16.9103965759277,16.8821868896484,16.8540725708008,16.8260517120361,16.7981243133545,16.7702884674072,16.7425441741943,16.7148933410645,16.6873321533203,16.6598625183105,16.6324825286865,16.6051921844482,16.5779933929443,16.5508804321289,16.5238590240479,16.4969234466553,16.4700756072998,16.4433174133301,16.4166431427002,16.3900566101074,16.3635559082031,16.3371410369873,16.31081199646,16.2845668792725,16.2584056854248,16.232328414917,16.206335067749
0,0,0,0,0,0,0,0,0,0,0,0,0,0,0,0,0,0,0,0,0,0,0,0,0,0,0,0,0,0,0,0,0,0,0,0,0,0,0,0,0,0,0,0,0,0,0,0,0,0,0,0,0,0,0,0,0,0,0,0,0,0,0,0,0,0,0,0,0,0,0,0,0,0,0,0,0,0,0,0,0,0,0,0,0,0,0,0,0,0,0,0,0,0,0,0,0,0,0,0,0,0,0,0,0,0,0,0,0,0,0,0,0,0,0,0,0,0,0,0,0,0,0,0,0,0,0,0,0,0,0,0,0,0,0,0,0,0,0,0,0,0,0,0,0,0,0,0,0,0,0,0,0,0,0,0,0,0,0,0,0,0,0,0,0,0,0,0,0,0,0,0,0,0,0,0,0,0,0,0,0,0,17.6265621185303,17.5957717895508,17.5650978088379,17.5345306396484,17.5040702819824,17.4737148284912,17.4445648193359,17.4737300872803,17.4646854400635,17.4345970153809,17.404613494873,17.3747310638428,17.3449516296387,17.3152770996094,17.285701751709,17.2562294006348,17.2268562316895,17.197582244873,17.1684093475342,17.1393337249756,17.1103572845459,17.0814781188965,17.0526962280273,17.0240116119385,16.9954223632812,16.9669303894043,16.9385318756104,16.9102306365967,16.882022857666,16.8539085388184,16.8258876800537,16.7979602813721,16.7701244354248,16.7423820495605,16.7147312164307,16.6871700286865,16.6597003936768,16.6323223114014,16.6050319671631,16.5778331756592,16.5507221221924,16.5236988067627,16.4967651367188,16.4699192047119,16.4431591033936,16.4164867401123,16.3899002075195,16.3634014129639,16.336986541748,16.3106575012207,16.2844123840332,16.2582511901855,16.2321758270264,16.2061824798584
0,0,0,0,0,0,0,0,0,0,0,0,0,0,0,0,0,0,0,0,0,0,0,0,0,0,0,0,0,0,0,0,0,0,0,0,0,0,0,0,0,0,0,0,0,0,0,0,0,0,0,0,0,0,0,0,0,0,0,0,0,0,0,0,0,0,0,0,0,0,0,0,0,0,0,0,0,0,0,0,0,0,0,0,0,0,0,0,0,0,0,0,0,0,0,0,0,0,0,0,0,0,0,0,0,0,0,0,0,0,0,0,0,0,0,0,0,0,0,0,0,0,0,0,0,0,0,0,0,0,0,0,0,0,0,0,0,0,0,0,0,0,0,0,0,0,0,0,0,0,0,0,0,0,0,0,0,0,0,0,0,0,0,0,0,0,0,0,0,0,0,0,0,0,0,0,0,0,0,0,0,0,17.6263790130615,17.5955905914307,17.5649185180664,17.534351348877,17.5038909912109,17.4735374450684,17.4447555541992,17.4739227294922,17.4645099639893,17.4344234466553,17.4044399261475,17.3745594024658,17.3447799682617,17.3151035308838,17.2855281829834,17.2560558319092,17.2266826629639,17.1974105834961,17.1682376861572,17.1391620635986,17.1101856231689,17.0813083648682,17.052526473999,17.0238418579102,16.9952545166016,16.9667625427246,16.9383659362793,16.9100646972656,16.881856918335,16.8537425994873,16.8257236480713,16.7977962493896,16.769962310791,16.7422199249268,16.7145690917969,16.6870079040527,16.6595401763916,16.6321620941162,16.6048717498779,16.577672958374,16.5505638122559,16.5235404968262,16.4966068267822,16.4697608947754,16.4430027008057,16.4163303375244,16.3897457122803,16.363245010376,16.3368320465088,16.3105010986328,16.2842578887939,16.2580986022949,16.2320213317871,16.2060298919678
0,0,0,0,0,0,0,0,0,0,0,0,0,0,0,0,0,0,0,0,0,0,0,0,0,0,0,0,0,0,0,0,0,0,0,0,0,0,0,0,0,0,0,0,0,0,0,0,0,0,0,0,0,0,0,0,0,0,0,0,0,0,0,0,0,0,0,0,0,0,0,0,0,0,0,0,0,0,0,0,0,0,0,0,0,0,0,0,0,0,0,0,0,0,0,0,0,0,0,0,0,0,0,0,0,0,0,0,0,0,0,0,0,0,0,0,0,0,0,0,0,0,0,0,0,0,0,0,0,0,0,0,0,0,0,0,0,0,0,0,0,0,0,0,0,0,0,0,0,0,0,0,0,0,0,0,0,0,0,0,0,0,0,0,0,0,0,0,0,0,0,0,0,0,0,0,0,0,0,0,0,0,17.6261978149414,17.5954093933105,17.5647373199463,17.5341720581055,17.5037117004395,17.4733581542969,17.4449462890625,17.4741134643555,17.464334487915,17.4342479705811,17.4042663574219,17.3743858337402,17.3446083068848,17.3149318695068,17.2853584289551,17.2558841705322,17.2265110015869,17.1972370147705,17.1680660247803,17.1389904022217,17.1100158691406,17.0811386108398,17.0523567199707,17.0236740112305,16.9950866699219,16.9665946960449,16.9381980895996,16.9098968505859,16.8816909790039,16.8535785675049,16.8255577087402,16.7976322174072,16.7697982788086,16.7420558929443,16.7144050598145,16.6868476867676,16.6593780517578,16.6319999694824,16.6047115325928,16.5775127410889,16.5504035949707,16.5233821868896,16.4964485168457,16.4696044921875,16.4428443908691,16.4161739349365,16.3895893096924,16.3630886077881,16.3366756439209,16.3103466033936,16.2841033935547,16.2579441070557,16.2318687438965,16.2058773040771
19.9976997375488,19.9990539550781,0,0,0,0,0,0,0,0,0,0,0,0,0,0,0,0,0,0,0,0,0,0,0,0,0,0,0,0,0,0,0,0,0,0,0,0,0,0,0,0,0,0,0,0,0,0,0,0,0,0,0,0,0,0,0,0,0,0,0,0,0,0,0,0,0,0,0,0,0,0,0,0,0,0,0,0,0,0,0,0,0,0,0,0,0,0,0,0,0,0,0,0,0,0,0,0,0,0,0,0,0,0,0,0,0,0,0,0,0,0,0,0,0,0,0,0,0,0,0,0,0,0,0,0,0,0,0,0,0,0,0,0,0,0,0,0,0,0,0,0,0,0,0,0,0,0,0,0,0,0,0,0,0,0,0,0,0,0,0,0,0,0,0,0,0,0,0,0,0,0,0,0,0,0,0,0,0,0,0,0,17.6260147094727,17.5952281951904,17.5645561218262,17.5339908599854,17.503532409668,17.4731788635254,17.4451370239258,17.4743041992188,17.4641609191895,17.4340744018555,17.4040927886963,17.3742122650146,17.3444366455078,17.3147602081299,17.2851867675781,17.2557144165039,17.2263412475586,17.1970691680908,17.1678943634033,17.1388206481934,17.1098442077637,17.0809669494629,17.0521869659424,17.0235042572021,16.9949169158936,16.9664268493652,16.9380321502686,16.9097309112549,16.8815250396729,16.8534126281738,16.8253936767578,16.7974681854248,16.7696342468262,16.7418918609619,16.7142429351807,16.6866855621338,16.6592178344727,16.6318397521973,16.6045513153076,16.5773544311523,16.5502452850342,16.5232238769531,16.4962902069092,16.469446182251,16.4426879882812,16.4160175323486,16.3894329071045,16.3629341125488,16.3365211486816,16.3101921081543,16.2839488983154,16.257791519165,16.2317161560059,16.2057247161865
19.7837905883789,19.7851257324219,19.7864551544189,19.7877807617188,19.7891139984131,19.7904434204102,19.7917747497559,19.7931079864502,19.7944412231445,19.795768737793,19.7971000671387,19.7984352111816,19.7997665405273,19.801097869873,19.8024311065674,19.8037624359131,19.8050956726074,19.8064250946045,19.8077621459961,19.8090934753418,19.8104286193848,19.8117599487305,19.8130950927734,19.8144302368164,19.8157596588135,19.8170967102051,19.818431854248,19.8197689056396,19.821102142334,19.822437286377,19.8237724304199,19.8251037597656,19.8264408111572,19.8277778625488,19.8291149139404,19.830451965332,19.8317909240723,19.8331241607666,19.8344573974609,19.8357944488525,19.8371391296387,19.8384742736816,19.8398113250732,19.8411483764648,19.8424854278564,19.8438186645508,19.845157623291,19.8464984893799,19.8478374481201,19.8491802215576,19.8505172729492,19.8518524169922,19.8531932830811,19.8545341491699,19.8558750152588,19.8572120666504,19.8585510253906,19.8598937988281,19.8612327575684,19.8625717163086,19.8639125823975,19.8652591705322,19.8666000366211,19.86794090271,19.8692817687988,19.8706226348877,19.8719577789307,19.8733005523682,19.8746471405029,19.8759899139404,19.8773307800293,19.8786754608154,19.8800163269043,19.8813552856445,19.8826999664307,19.8840503692627,19.8853893280029,19.8867359161377,19.8880786895752,19.8894233703613,19.8907623291016,19.892110824585,19.8934516906738,19.8948001861572,19.8961429595947,19.8974914550781,19.8988399505615,19.9001770019531,19.9015254974365,19.9028720855713,19.9042205810547,19.9055652618408,19.906909942627,19.9082584381104,19.9096012115479,19.9109477996826,19.9122982025146,19.913646697998,19.9149971008301,19.9163398742676,19.9176921844482,19.9190368652344,19.9203872680664,19.9217357635498,19.9230823516846,19.9244327545166,19.9257793426514,19.9271335601807,19.9284744262695,19.9298305511475,19.9311790466309,19.9325313568115,19.9338779449463,19.935230255127,19.9365825653076,19.9379291534424,19.9392757415771,19.9406299591064,19.9419860839844,19.9433345794678,19.9446887969971,19.9460411071777,19.9473876953125,19.9487419128418,19.9500923156738,19.9514465332031,19.9528007507324,19.9541549682617,19.9555072784424,19.956859588623,19.9582099914551,19.959566116333,19.9609203338623,19.9622764587402,19.9636287689209,19.9649829864502,19.9663391113281,19.9676914215088,19.9690475463867,19.9704036712646,19.9717559814453,19.9731159210205,19.9744720458984,19.9758262634277,19.9771785736084,19.978536605835,19.9798946380615,19.9812507629395,19.9826049804688,19.9839611053467,19.9853210449219,19.9866752624512,19.9880352020264,19.9893951416016,19.9907512664795,19.9921092987061,19.9934673309326,19.9948291778564,19.9961795806885,19.9975395202637,19.9989051818848,0,0,0,0,0,0,0,0,0,0,0,0,0,0,0,0,0,0,0,0,0,17.6258316040039,17.5950469970703,17.5643768310547,17.5338115692139,17.5033531188965,17.4730014801025,17.4453296661377,17.4744930267334,17.4639854431152,17.4339008331299,17.4039192199707,17.3740406036377,17.3442630767822,17.3145885467529,17.2850151062012,17.255542755127,17.2261714935303,17.1968994140625,17.1677265167236,17.1386528015137,17.109676361084,17.0807991027832,17.0520172119141,17.0233364105225,16.9947490692139,16.9662590026855,16.9378643035889,16.9095630645752,16.8813571929932,16.8532466888428,16.8252277374268,16.7973022460938,16.7694702148438,16.7417297363281,16.7140808105469,16.6865215301514,16.6590557098389,16.6316776275635,16.6043910980225,16.5771942138672,16.550085067749,16.5230655670166,16.4961318969727,16.4692878723145,16.4425315856934,16.4158611297607,16.3892765045166,16.3627777099609,16.3363647460938,16.310037612915,16.2837963104248,16.2576370239258,16.2315616607666,16.2055721282959
19.5744113922119,19.5757141113281,19.5770206451416,19.5783233642578,19.579626083374,19.5809288024902,19.5822296142578,19.583532333374,19.5848369598389,19.5861396789551,19.5874443054199,19.5887489318848,19.5900535583496,19.5913524627686,19.592658996582,19.5939636230469,19.5952663421631,19.5965728759766,19.5978775024414,19.5991897583008,19.6004886627197,19.6017932891846,19.6031017303467,19.6044044494629,19.6057109832764,19.6070194244385,19.608325958252,19.6096286773682,19.6109371185303,19.6122417449951,19.6135501861572,19.614860534668,19.6161689758301,19.6174716949463,19.6187801361084,19.6200885772705,19.6213970184326,19.6227054595947,19.6240158081055,19.6253242492676,19.6266326904297,19.6279411315918,19.6292495727539,19.6305599212646,19.6318683624268,19.6331825256348,19.6344890594482,19.635799407959,19.6371097564697,19.6384181976318,19.6397285461426,19.641040802002,19.6423530578613,19.6436634063721,19.6449756622314,19.6462841033936,19.6475982666016,19.6489086151123,19.6502208709717,19.6515331268311,19.6528453826904,19.6541576385498,19.6554679870605,19.6567840576172,19.6580963134766,19.6594104766846,19.6607265472412,19.662036895752,19.6633491516113,19.664665222168,19.6659755706787,19.6672916412354,19.6686058044434,19.669921875,19.6712379455566,19.672550201416,19.6738700866699,19.6751842498779,19.6764965057373,19.6778125762939,19.6791305541992,19.6804485321045,19.6817626953125,19.6830806732178,19.6843910217285,19.6857109069824,19.6870269775391,19.6883449554443,19.689661026001,19.6909847259521,19.6923007965088,19.6936168670654,19.6949329376221,19.6962547302246,19.6975727081299,19.6988887786865,19.7002048492432,19.701530456543,19.7028465270996,19.7041606903076,19.7054862976074,19.7068042755127,19.708122253418,19.7094421386719,19.7107677459717,19.7120800018311,19.7134037017822,19.7147254943848,19.7160453796387,19.7173633575439,19.7186870574951,19.7200088500977,19.7213268280029,19.7226505279541,19.7239723205566,19.7252960205078,19.726619720459,19.7279415130615,19.7292652130127,19.7305850982666,19.7319068908691,19.7332324981689,19.7345542907715,19.7358779907227,19.7372035980225,19.7385311126709,19.7398490905762,19.741174697876,19.7424983978271,19.7438201904297,19.7451477050781,19.7464714050293,19.747802734375,19.7491188049316,19.7504444122314,19.7517738342285,19.7530994415283,19.7544231414795,19.7557525634766,19.757080078125,19.7584018707275,19.7597312927246,19.7610569000244,19.7623825073242,19.7637119293213,19.7650413513184,19.7663669586182,19.767692565918,19.7690200805664,19.7703495025635,19.7716770172119,19.773006439209,19.7743358612061,19.7756633758545,19.7769889831543,19.7783203125,19.7796516418457,19.7809791564941,19.7823104858398,19.7836418151855,19.784969329834,19.7862987518311,19.7876319885254,19.7889595031738,19.7902927398682,19.7916202545166,19.7929515838623,19.7942848205566,19.7956142425537,19.7969493865967,19.7982807159424,19.7996120452881,19.8009433746338,19.8022766113281,19.8036117553711,19.8049411773682,19.8062763214111,19.8076076507568,19.8089427947998,19.8102760314941,19.8116092681885,19.8129444122314,17.6256504058838,17.5948657989502,17.5641956329346,17.5336322784424,17.503173828125,17.4728221893311,17.445520401001,17.474681854248,17.4638118743896,17.4337272644043,17.4037456512451,17.3738670349121,17.3440914154053,17.314416885376,17.2848453521729,17.2553730010986,17.226001739502,17.1967296600342,17.1675586700439,17.138484954834,17.1095085144043,17.0806312561035,17.051851272583,17.0231685638428,16.9945812225342,16.9660911560059,16.9376964569092,16.9093971252441,16.8811912536621,16.8530807495117,16.8250637054443,16.7971382141113,16.7693061828613,16.7415657043457,16.7139167785645,16.6863594055176,16.6588935852051,16.6315174102783,16.6042308807373,16.577033996582,16.5499248504639,16.5229053497314,16.4959735870361,16.4691295623779,16.4423732757568,16.4157028198242,16.3891201019287,16.3626232147217,16.3362102508545,16.3098831176758,16.2836418151855,16.2574844360352,16.231409072876,16.2054195404053
19.369421005249,19.3707008361816,19.3719692230225,19.3732471466064,19.3745212554932,19.3757991790771,19.3770751953125,19.3783493041992,19.3796253204346,19.3809013366699,19.3821754455566,19.3834571838379,19.3847312927246,19.3860111236572,19.3872852325439,19.3885669708252,19.3898410797119,19.3911151885986,19.3923931121826,19.3936729431152,19.3949527740479,19.3962326049805,19.3975105285645,19.3987865447998,19.4000663757324,19.401346206665,19.402624130249,19.4039039611816,19.4051856994629,19.4064617156982,19.4077453613281,19.4090194702148,19.4103031158447,19.4115810394287,19.41286277771,19.4141483306885,19.4154262542725,19.4167098999023,19.4179821014404,19.4192657470703,19.4205513000488,19.4218330383301,19.4231147766113,19.4244003295898,19.4256782531738,19.4269599914551,19.428243637085,19.4295215606689,19.4308090209961,19.4320907592773,19.4333763122559,19.4346599578857,19.4359378814697,19.4372234344482,19.4385070800781,19.439790725708,19.4410762786865,19.4423656463623,19.4436492919922,19.4449272155762,19.4462146759033,19.4475002288818,19.4487857818604,19.4500751495361,19.4513607025146,19.4526481628418,19.4539260864258,19.4552135467529,19.4565010070801,19.4577884674072,19.4590759277344,19.4603614807129,19.4616527557373,19.4629344940186,19.4642181396484,19.4655094146729,19.4667949676514,19.4680881500244,19.4693737030029,19.4706611633301,19.4719467163086,19.4732360839844,19.4745273590088,19.4758110046387,19.4771060943604,19.4783954620361,19.4796848297119,19.4809703826904,19.4822597503662,19.4835529327393,19.484842300415,19.4861335754395,19.4874248504639,19.4887161254883,19.4899997711182,19.4912910461426,19.4925861358643,19.49387550354,19.4951667785645,19.4964618682861,19.4977531433105,19.499044418335,19.5003337860107,19.5016250610352,19.5029182434082,19.5042133331299,19.5055046081543,19.5067977905273,19.5080890655518,19.5093822479248,19.5106735229492,19.5119667053223,19.5132675170898,19.5145587921143,19.5158557891846,19.5171432495117,19.518440246582,19.5197315216064,19.5210304260254,19.5223255157471,19.5236263275146,19.5249195098877,19.5262107849121,19.5275039672852,19.5288009643555,19.5300979614258,19.5313949584961,19.5326919555664,19.5339889526367,19.5352840423584,19.5365829467773,19.5378761291504,19.5391712188721,19.5404720306396,19.5417728424072,19.5430736541748,19.544361114502,19.5456638336182,19.5469608306885,19.5482597351074,19.5495624542236,19.5508632659912,19.5521602630615,19.5534534454346,19.5547523498535,19.5560531616211,19.5573577880859,19.5586566925049,19.5599555969238,19.56125831604,19.5625514984131,19.5638561248779,19.5651569366455,19.5664577484131,19.5677604675293,19.5690631866455,19.5703639984131,19.5716609954834,19.572961807251,19.5742664337158,19.5755634307861,19.5768718719482,19.5781726837158,19.579475402832,19.580774307251,19.5820789337158,19.583381652832,19.5846862792969,19.5859889984131,19.5872974395752,19.5885982513428,19.589900970459,19.5912036895752,19.5925102233887,19.5938148498535,19.5951194763184,19.5964241027832,19.5977306365967,19.5990333557129,19.6003379821777,19.6016426086426,19.6029510498047,17.625467300415,17.5946846008301,17.5640144348145,17.5334510803223,17.5029945373535,17.4726428985596,17.4457111358643,17.4748706817627,17.4636363983154,17.4335536956787,17.4035720825195,17.3736953735352,17.3439197540283,17.314245223999,17.2846736907959,17.2552032470703,17.2258319854736,17.1965599060059,17.1673889160156,17.1383152008057,17.1093406677246,17.0804653167725,17.051685333252,17.0230026245117,16.9944152832031,16.9659252166748,16.9375305175781,16.9092311859131,16.8810253143311,16.8529148101807,16.8248977661133,16.7969741821289,16.7691421508789,16.7414016723633,16.7137546539307,16.6861972808838,16.6587314605713,16.6313552856445,16.6040706634521,16.5768737792969,16.5497646331787,16.5227470397949,16.4958152770996,16.4689712524414,16.4422149658203,16.4155464172363,16.3889636993408,16.3624668121338,16.3360557556152,16.3097286224365,16.2834873199463,16.2573299407959,16.2312564849854,16.205265045166
19.1686782836914,19.1699275970459,19.1711769104004,19.1724262237549,19.173677444458,19.1749286651611,19.1761722564697,19.1774234771729,19.1786727905273,19.1799221038818,19.1811714172363,19.1824245452881,19.1836776733398,19.1849174499512,19.1861724853516,19.187427520752,19.1886749267578,19.1899280548096,19.1911792755127,19.1924324035645,19.1936798095703,19.1949348449707,19.1961898803711,19.1974391937256,19.1986923217773,19.1999435424805,19.2011966705322,19.2024478912354,19.2037010192871,19.2049541473389,19.2062072753906,19.2074661254883,19.2087173461914,19.2099704742432,19.211217880249,19.212474822998,19.2137336730957,19.2149887084961,19.2162399291992,19.2174987792969,19.2187557220459,19.2200050354004,19.2212600708008,19.2225170135498,19.2237758636475,19.2250270843506,19.2262859344482,19.2275428771973,19.228796005249,19.2300510406494,19.2313117980957,19.2325687408447,19.2338275909424,19.2350826263428,19.2363414764404,19.2375926971436,19.2388496398926,19.2401123046875,19.2413730621338,19.2426280975342,19.2438888549805,19.2451457977295,19.2464008331299,19.2476596832275,19.2489223480225,19.2501831054688,19.2514419555664,19.2527008056641,19.2539596557617,19.2552165985107,19.2564735412598,19.2577381134033,19.258996963501,19.2602596282959,19.2615203857422,19.2627830505371,19.2640399932861,19.2653026580811,19.2665672302246,19.2678279876709,19.2690868377686,19.2703514099121,19.2716121673584,19.2728691101074,19.2741298675537,19.2753982543945,19.2766628265381,19.277925491333,19.2791862487793,19.2804489135742,19.2817077636719,19.2829704284668,19.284236907959,19.2855052947998,19.2867641448975,19.2880325317383,19.2892951965332,19.2905559539795,19.291820526123,19.2930850982666,19.2943534851074,19.2956161499023,19.2968845367432,19.298152923584,19.299409866333,19.3006782531738,19.3019466400146,19.3032150268555,19.3044815063477,19.3057422637939,19.3070125579834,19.3082752227783,19.3095417022705,19.31081199646,19.3120784759521,19.3133449554443,19.3146152496338,19.315881729126,19.3171463012695,19.3184146881104,19.3196868896484,19.320951461792,19.3222236633301,19.3234939575195,19.3247604370117,19.3260269165039,19.3272953033447,19.3285636901855,19.3298358917236,19.3311100006104,19.3323745727539,19.3336448669434,19.3349151611328,19.3361854553223,19.3374557495117,19.3387317657471,19.3400020599365,19.3412704467773,19.3425445556641,19.3438110351562,19.3450813293457,19.3463516235352,19.3476276397705,19.3489017486572,19.3501739501953,19.3514499664307,19.3527145385742,19.3539867401123,19.355260848999,19.3565368652344,19.3578109741211,19.3590831756592,19.3603572845459,19.3616275787354,19.3628997802734,19.3641738891602,19.3654537200928,19.3667278289795,19.3680000305176,19.3692760467529,19.3705539703369,19.3718223571777,19.3730983734131,19.3743801116943,19.3756542205811,19.3769264221191,19.3782062530518,19.3794803619385,19.3807525634766,19.3820304870605,19.3833103179932,19.3845844268799,19.3858661651611,19.3871402740479,19.3884181976318,19.3896923065186,19.3909702301025,19.3922538757324,19.3935317993164,19.3948097229004,19.396089553833,19.397367477417,17.6252841949463,17.59450340271,17.563835144043,17.5332717895508,17.502815246582,17.4724636077881,17.4459018707275,17.4750595092773,17.4634628295898,17.4333782196045,17.4033985137939,17.3735218048096,17.3437461853027,17.3140735626221,17.2845020294189,17.2550315856934,17.2256622314453,17.1963920593262,17.1672210693359,17.138147354126,17.1091747283936,17.0802974700928,17.0515193939209,17.0228366851807,16.9942512512207,16.9657611846924,16.9373664855957,16.9090671539307,16.8808612823486,16.8527507781982,16.8247318267822,16.7968082427979,16.7689781188965,16.7412395477295,16.7135906219482,16.68603515625,16.6585693359375,16.6311950683594,16.6039085388184,16.5767135620117,16.5496063232422,16.5225868225098,16.4956569671631,16.4688129425049,16.4420585632324,16.4153900146484,16.3888072967529,16.3623104095459,16.3358993530273,16.3095741271973,16.283332824707,16.2571754455566,16.2311019897461,16.2051124572754
18.972053527832,18.9732780456543,18.9744968414307,18.9757194519043,18.9769477844238,18.9781703948975,18.9793949127197,18.9806213378906,18.9818420410156,18.9830646514893,18.9842910766602,18.9855175018311,18.9867401123047,18.987964630127,18.9891910552979,18.9904174804688,18.9916400909424,18.9928646087646,18.9940910339355,18.9953193664551,18.9965476989746,18.9977741241455,18.9989967346191,19.0002269744873,19.0014495849609,19.0026760101318,19.0039081573486,19.0051345825195,19.0063591003418,19.0075912475586,19.0088157653809,19.0100421905518,19.0112686157227,19.0125007629395,19.0137271881104,19.0149593353271,19.016185760498,19.0174140930176,19.0186405181885,19.0198726654053,19.0210990905762,19.0223331451416,19.0235614776611,19.0247898101807,19.0260181427002,19.0272483825684,19.0284805297852,19.0297107696533,19.0309410095215,19.0321712493896,19.0334072113037,19.0346355438232,19.0358638763428,19.0370998382568,19.0383262634277,19.0395622253418,19.0407962799072,19.0420265197754,19.0432567596436,19.0444889068604,19.0457210540771,19.0469532012939,19.0481872558594,19.0494194030762,19.050651550293,19.0518894195557,19.0531177520752,19.0543537139893,19.0555896759033,19.0568256378174,19.0580577850342,19.0592937469482,19.0605239868164,19.0617599487305,19.0629940032959,19.06422996521,19.0654678344727,19.0667018890381,19.0679359436035,19.0691699981689,19.0704040527344,19.0716419219971,19.0728797912598,19.0741176605225,19.0753536224365,19.076587677002,19.0778255462646,19.0790596008301,19.0802974700928,19.0815334320068,19.0827751159668,19.0840110778809,19.0852489471436,19.0864849090576,19.0877227783203,19.0889587402344,19.0901985168457,19.0914363861084,19.0926761627197,19.0939159393311,19.0951538085938,19.0963916778564,19.0976314544678,19.0988750457764,19.1001110076904,19.1013507843018,19.1025924682617,19.1038360595703,19.1050682067871,19.1063098907471,19.1075553894043,19.1087913513184,19.1100311279297,19.1112766265869,19.1125183105469,19.1137561798096,19.1149997711182,19.1162414550781,19.1174850463867,19.1187229156494,19.1199684143066,19.121208190918,19.1224479675293,19.1236934661865,19.1249370574951,19.1261806488037,19.1274223327637,19.1286678314209,19.1299095153809,19.1311492919922,19.1323928833008,19.133638381958,19.1348857879639,19.1361312866211,19.1373748779297,19.1386165618896,19.1398601531982,19.1411037445068,19.1423530578613,19.1436004638672,19.1448440551758,19.1460933685303,19.1473388671875,19.1485786437988,19.1498241424561,19.1510734558105,19.1523170471191,19.1535625457764,19.1548137664795,19.156063079834,19.1573066711426,19.1585521697998,19.1598014831543,19.1610507965088,19.162296295166,19.1635437011719,19.1647930145264,19.1660404205322,19.1672859191895,19.1685371398926,19.1697845458984,19.1710319519043,19.1722831726074,19.1735324859619,19.1747798919678,19.1760292053223,19.1772804260254,19.1785278320312,19.1797790527344,19.1810302734375,19.182279586792,19.1835308074951,19.1847801208496,19.1860313415527,19.1872806549072,19.188533782959,19.1897888183594,19.1910362243652,19.1922874450684,19.1935405731201,19.1947917938232,19.1960430145264,17.6251029968262,17.5943222045898,17.5636539459229,17.5330924987793,17.5026359558105,17.4722862243652,17.4460945129395,17.475248336792,17.4632873535156,17.4332046508789,17.4032249450684,17.373348236084,17.3435745239258,17.3139019012451,17.2843322753906,17.254861831665,17.225492477417,17.1962223052979,17.1670513153076,17.1379795074463,17.1090068817139,17.0801315307617,17.0513515472412,17.0226707458496,16.9940853118896,16.9655952453613,16.9372024536133,16.9089031219482,16.8806991577148,16.8525867462158,16.8245697021484,16.7966461181641,16.7688140869141,16.7410755157471,16.7134284973145,16.6858730316162,16.6584072113037,16.6310329437256,16.6037483215332,16.5765533447266,16.549446105957,16.5224285125732,16.4954986572266,16.468656539917,16.4419002532959,16.4152317047119,16.388650894165,16.362154006958,16.3357429504395,16.3094177246094,16.2831783294678,16.2570209503174,16.2309494018555,16.2049598693848
18.7794189453125,18.7806205749512,18.7818183898926,18.7830181121826,18.784215927124,18.7854137420654,18.7866134643555,18.7878093719482,18.7890110015869,18.7902126312256,18.7914142608643,18.7926120758057,18.7938060760498,18.7950134277344,18.7962112426758,18.7974109649658,18.7986125946045,18.7998161315918,18.8010177612305,18.8022155761719,18.8034172058105,18.8046169281006,18.8058204650879,18.8070220947266,18.8082275390625,18.8094291687012,18.8106288909912,18.8118305206299,18.8130340576172,18.8142375946045,18.8154411315918,18.8166446685791,18.817850112915,18.8190479278564,18.8202533721924,18.8214530944824,18.822660446167,18.8238639831543,18.8250713348389,18.8262767791748,18.8274745941162,18.8286819458008,18.8298835754395,18.831090927124,18.83229637146,18.8335056304932,18.8347110748291,18.8359127044678,18.8371181488037,18.8383235931396,18.839527130127,18.8407325744629,18.8419437408447,18.8431529998779,18.8443565368652,18.8455619812012,18.8467693328857,18.8479747772217,18.8491821289062,18.8503952026367,18.8516044616699,18.8528118133545,18.8540115356445,18.8552188873291,18.8564338684082,18.8576412200928,18.858850479126,18.8600616455078,18.8612689971924,18.8624725341797,18.8636817932129,18.8648910522461,18.8661022186279,18.8673095703125,18.868522644043,18.8697338104248,18.8709373474121,18.8721485137939,18.8733596801758,18.874568939209,18.8757839202881,18.8769950866699,18.8782081604004,18.8794136047363,18.8806247711182,18.8818378448486,18.8830471038818,18.8842620849609,18.8854751586914,18.8866844177246,18.8878974914551,18.8891067504883,18.8903198242188,18.8915348052979,18.892749786377,18.8939628601074,18.8951778411865,18.8963871002197,18.8975982666016,18.898811340332,18.9000244140625,18.9012413024902,18.9024562835693,18.9036712646484,18.9048824310303,18.9060935974121,18.9073104858398,18.9085254669189,18.9097423553467,18.9109573364258,18.9121780395508,18.9133853912354,18.9146041870117,18.9158172607422,18.9170341491699,18.9182510375977,18.919469833374,18.9206867218018,18.9218997955322,18.9231147766113,18.9243297576904,18.9255466461182,18.9267673492432,18.9279880523682,18.9292049407959,18.9304180145264,18.9316349029541,18.9328575134277,18.9340744018555,18.9352931976318,18.9365139007568,18.9377346038818,18.9389476776123,18.9401664733887,18.941385269165,18.94260597229,18.9438247680664,18.9450492858887,18.946268081665,18.9474830627441,18.9486999511719,18.9499244689941,18.9511432647705,18.9523620605469,18.9535903930664,18.9548072814941,18.9560241699219,18.9572467803955,18.9584674835205,18.9596862792969,18.9609127044678,18.9621353149414,18.963357925415,18.9645767211914,18.965799331665,18.9670181274414,18.968240737915,18.9694671630859,18.9706916809082,18.9719161987305,18.9731330871582,18.9743576049805,18.9755821228027,18.9768028259277,18.9780311584473,18.9792575836182,18.9804821014404,18.9817008972168,18.9829254150391,18.9841480255127,18.9853744506836,18.9866027832031,18.9878273010254,18.9890518188477,18.9902763366699,18.9915008544922,18.9927234649658,18.993953704834,18.9951801300049,18.9964084625244,18.9976367950439,18.9988574981689,17.6249198913574,17.5941410064697,17.5634727478027,17.5329113006592,17.5024566650391,17.4721069335938,17.4462852478027,17.4754371643066,17.46311378479,17.4330310821533,17.4030513763428,17.373176574707,17.3434028625488,17.3137302398682,17.2841606140137,17.2546920776367,17.2253227233887,17.1960525512695,17.1668834686279,17.1378116607666,17.1088390350342,17.079963684082,17.0511856079102,17.0225048065186,16.9939193725586,16.9654312133789,16.9370384216309,16.9087390899658,16.8805351257324,16.852424621582,16.8244075775146,16.7964839935303,16.7686538696289,16.7409133911133,16.7132663726807,16.6857109069824,16.6582450866699,16.6308708190918,16.603588104248,16.5763931274414,16.5492858886719,16.5222682952881,16.4953384399414,16.4684982299805,16.4417419433594,16.415075302124,16.3884925842285,16.3619976043701,16.3355884552002,16.3092632293701,16.2830219268799,16.2568664550781,16.2307949066162,16.2048072814941
18.5906658172607,18.5918388366699,18.5930061340332,18.5941848754883,18.5953636169434,18.5965366363525,18.5977115631104,18.5988864898682,18.6000633239746,18.6012344360352,18.602409362793,18.603588104248,18.6047649383545,18.6059436798096,18.607120513916,18.6082954406738,18.609468460083,18.6106433868408,18.6118240356445,18.6130027770996,18.6141796112061,18.6153564453125,18.6165351867676,18.6177101135254,18.6188907623291,18.6200714111328,18.621244430542,18.6224250793457,18.623607635498,18.6247844696045,18.625955581665,18.6271362304688,18.6283168792725,18.6294975280762,18.6306800842285,18.6318588256836,18.6330375671387,18.6342144012451,18.6353950500488,18.6365795135498,18.6377544403076,18.63893699646,18.6401195526123,18.6412982940674,18.6424770355225,18.6436557769775,18.6448402404785,18.6460227966309,18.6472034454346,18.6483860015869,18.6495666503906,18.6507453918457,18.651927947998,18.653112411499,18.654296875,18.655481338501,18.6566619873047,18.6578464508057,18.6590232849121,18.6602077484131,18.6613941192627,18.662576675415,18.6637630462646,18.6649436950684,18.666130065918,18.6673069000244,18.668493270874,18.6696815490723,18.6708679199219,18.6720523834229,18.6732368469238,18.6744213104248,18.6756000518799,18.6767864227295,18.6779747009277,18.6791591644287,18.6803436279297,18.6815338134766,18.6827220916748,18.6839008331299,18.6850852966309,18.6862773895264,18.6874618530273,18.6886501312256,18.6898345947266,18.6910247802734,18.6922073364258,18.693395614624,18.6945838928223,18.6957740783691,18.696964263916,18.698148727417,18.6993389129639,18.7005233764648,18.7017135620117,18.70290184021,18.7040901184082,18.7052803039551,18.706470489502,18.7076568603516,18.7088432312012,18.710033416748,18.7112236022949,18.7124156951904,18.7136039733887,18.7147979736328,18.7159900665283,18.7171764373779,18.7183647155762,18.7195529937744,18.7207489013672,18.7219371795654,18.7231330871582,18.7243232727051,18.725513458252,18.7267017364502,18.7278938293457,18.7290916442871,18.730281829834,18.7314739227295,18.7326641082764,18.7338562011719,18.735050201416,18.7362422943115,18.7374362945557,18.7386322021484,18.7398223876953,18.7410202026367,18.7422027587891,18.7434005737305,18.7445945739746,18.7457885742188,18.7469844818115,18.7481784820557,18.7493762969971,18.7505683898926,18.7517604827881,18.7529582977295,18.7541542053223,18.755350112915,18.7565460205078,18.757740020752,18.7589302062988,18.7601261138916,18.7613220214844,18.7625255584717,18.7637195587158,18.7649154663086,18.76611328125,18.7673053741455,18.7685050964355,18.7697010040283,18.7708988189697,18.7720966339111,18.7732944488525,18.7744922637939,18.7756881713867,18.7768859863281,18.7780838012695,18.7792854309082,18.780481338501,18.781681060791,18.7828826904297,18.7840747833252,18.7852745056152,18.7864742279053,18.7876796722412,18.7888736724854,18.790075302124,18.7912750244141,18.7924728393555,18.7936725616455,18.7948703765869,18.7960739135742,18.7972755432129,18.7984752655029,18.799674987793,18.8008766174316,18.8020782470703,18.8032760620117,18.8044834136963,18.8056831359863,17.6247386932373,17.5939598083496,17.5632934570312,17.5327320098877,17.5022773742676,17.4719276428223,17.4464778900146,17.4756259918213,17.4629383087158,17.4328575134277,17.4028778076172,17.3730030059814,17.3432312011719,17.3135585784912,17.2839889526367,17.2545204162598,17.2251529693604,17.1958827972412,17.1667137145996,17.1376438140869,17.1086711883545,17.0797958374023,17.0510196685791,17.0223388671875,16.9937553405762,16.9652671813965,16.9368743896484,16.9085750579834,16.88037109375,16.8522624969482,16.8242454528809,16.7963218688965,16.7684917449951,16.7407531738281,16.7131061553955,16.6855506896973,16.6580848693848,16.6307106018066,16.6034259796143,16.5762329101562,16.5491256713867,16.5221099853516,16.4951801300049,16.4683399200439,16.4415855407715,16.4149169921875,16.3883361816406,16.3618412017822,16.3354320526123,16.3091087341309,16.2828674316406,16.2567119598389,16.230640411377,16.2046527862549
18.4056549072266,18.406810760498,18.407958984375,18.4091148376465,18.4102668762207,18.4114151000977,18.4125671386719,18.4137191772461,18.4148750305176,18.4160232543945,18.417179107666,18.4183292388916,18.4194793701172,18.4206352233887,18.4217872619629,18.422945022583,18.42409324646,18.4252510070801,18.4264068603516,18.4275569915771,18.4287090301514,18.4298610687256,18.4310169219971,18.4321727752686,18.4333248138428,18.4344825744629,18.4356384277344,18.4367923736572,18.4379482269287,18.4391002655029,18.4402599334717,18.4414138793945,18.442569732666,18.4437255859375,18.4448776245117,18.4460372924805,18.447193145752,18.4483489990234,18.4495105743408,18.4506645202637,18.4518184661865,18.452974319458,18.4541339874268,18.455286026001,18.4564476013184,18.4576072692871,18.4587650299072,18.4599170684814,18.4610748291016,18.4622364044189,18.4633941650391,18.4645519256592,18.4657096862793,18.4668731689453,18.4680271148682,18.4691925048828,18.4703464508057,18.471508026123,18.4726696014404,18.4738292694092,18.4749870300293,18.4761447906494,18.4773044586182,18.4784679412842,18.4796276092529,18.4807891845703,18.4819507598877,18.4831085205078,18.4842681884766,18.4854297637939,18.4865913391113,18.4877510070801,18.4889144897461,18.4900760650635,18.4912395477295,18.4924011230469,18.4935607910156,18.494722366333,18.495885848999,18.497049331665,18.4982128143311,18.4993743896484,18.5005359649658,18.5016975402832,18.5028629302979,18.5040302276611,18.5051898956299,18.5063571929932,18.5075187683105,18.5086765289307,18.5098457336426,18.5110092163086,18.5121784210205,18.5133380889893,18.5145072937012,18.5156669616699,18.5168285369873,18.5179996490479,18.5191612243652,18.5203304290771,18.5214958190918,18.5226612091064,18.5238304138184,18.5249900817871,18.5261611938477,18.5273246765137,18.528491973877,18.5296573638916,18.5308265686035,18.5319976806641,18.5331554412842,18.5343284606934,18.5354957580566,18.5366611480713,18.5378322601318,18.5389976501465,18.5401668548584,18.5413303375244,18.542501449585,18.5436687469482,18.5448398590088,18.5460071563721,18.5471744537354,18.5483455657959,18.5495128631592,18.5506801605225,18.5518531799316,18.5530223846436,18.5541954040527,18.555362701416,18.5565319061279,18.5576992034912,18.5588722229004,18.5600433349609,18.5612125396729,18.5623836517334,18.5635566711426,18.5647258758545,18.5658950805664,18.567066192627,18.5682411193848,18.5694103240967,18.5705871582031,18.571756362915,18.5729274749756,18.5741024017334,18.5752696990967,18.5764465332031,18.5776176452637,18.5787906646729,18.5799617767334,18.5811405181885,18.582311630249,18.5834846496582,18.5846557617188,18.5858306884766,18.5870056152344,18.5881786346436,18.58935546875,18.5905265808105,18.5916976928711,18.5928764343262,18.5940494537354,18.5952281951904,18.596399307251,18.5975761413574,18.5987529754639,18.5999279022217,18.6011009216309,18.6022758483887,18.6034526824951,18.6046295166016,18.6058082580566,18.6069869995117,18.6081562042236,18.6093368530273,18.6105155944824,18.6116905212402,18.612865447998,18.6140480041504,18.6152210235596,18.616397857666,17.6245555877686,17.5937786102295,17.5631122589111,17.5325527191162,17.5020980834961,17.4717502593994,17.4466705322266,17.4758148193359,17.4627647399902,17.4326820373535,17.4027061462402,17.3728313446045,17.3430576324463,17.3133869171143,17.2838191986084,17.2543506622314,17.224983215332,17.1957149505615,17.1665458679199,17.1374759674072,17.1085033416748,17.0796298980713,17.050853729248,17.0221729278564,16.9935894012451,16.9651012420654,16.936710357666,16.908411026001,16.8802089691162,16.8521003723145,16.8240833282471,16.7961616516113,16.76833152771,16.740592956543,16.7129459381104,16.6853904724121,16.6579265594482,16.6305522918701,16.6032676696777,16.5760726928711,16.5489673614502,16.5219497680664,16.4950218200684,16.4681816101074,16.441427230835,16.4147605895996,16.3881797790527,16.3616847991943,16.335277557373,16.308952331543,16.2827129364014,16.2565593719482,16.2304878234863,16.2045001983643
18.2243041992188,18.2254257202148,18.2265567779541,18.2276840209961,18.2288188934326,18.2299461364746,18.2310752868652,18.2322063446045,18.2333354949951,18.2344627380371,18.2355937957764,18.2367210388184,18.2378540039062,18.2389850616455,18.2401180267334,18.2412433624268,18.2423725128174,18.2435073852539,18.2446365356445,18.2457695007324,18.246898651123,18.2480373382568,18.2491645812988,18.2502918243408,18.2514266967773,18.2525577545166,18.2536926269531,18.2548236846924,18.2559566497803,18.2570877075195,18.2582187652588,18.259349822998,18.2604846954346,18.2616176605225,18.2627544403076,18.2638912200928,18.2650165557861,18.266149520874,18.2672863006592,18.2684192657471,18.2695579528809,18.2706928253174,18.2718276977539,18.2729568481445,18.2740898132324,18.2752265930176,18.2763614654541,18.2774982452393,18.2786350250244,18.2797718048096,18.2809028625488,18.2820358276367,18.2831745147705,18.2843112945557,18.2854499816895,18.286584854126,18.2877235412598,18.2888565063477,18.2899913787842,18.2911281585693,18.2922649383545,18.2934017181396,18.2945423126221,18.2956809997559,18.2968139648438,18.2979526519775,18.2990875244141,18.3002281188965,18.301362991333,18.3025074005127,18.3036441802979,18.304780960083,18.3059196472168,18.3070583343506,18.3081970214844,18.3093338012695,18.310474395752,18.3116188049316,18.3127555847168,18.313892364502,18.3150329589844,18.3161735534668,18.3173179626465,18.3184547424316,18.3195991516113,18.3207397460938,18.3218727111816,18.3230152130127,18.3241577148438,18.3253002166748,18.3264408111572,18.3275871276855,18.328727722168,18.3298645019531,18.3310070037842,18.3321475982666,18.333288192749,18.3344306945801,18.335578918457,18.3367176055908,18.3378582000732,18.3390007019043,18.340145111084,18.341287612915,18.3424320220947,18.3435802459717,18.3447208404541,18.3458595275879,18.3470058441162,18.3481483459473,18.349292755127,18.3504409790039,18.3515853881836,18.3527278900146,18.3538703918457,18.3550128936768,18.3561592102051,18.3573093414307,18.3584518432617,18.35959815979,18.3607444763184,18.361888885498,18.3630313873291,18.3641777038574,18.3653240203857,18.3664722442627,18.367618560791,18.3687686920166,18.3699111938477,18.3710594177246,18.3722057342529,18.3733520507812,18.3744983673096,18.3756484985352,18.3767967224121,18.3779411315918,18.3790893554688,18.3802356719971,18.3813877105713,18.3825359344482,18.3836822509766,18.3848323822021,18.3859748840332,18.3871250152588,18.3882751464844,18.38942527771,18.3905735015869,18.3917293548584,18.3928756713867,18.394021987915,18.395170211792,18.3963203430176,18.3974723815918,18.3986225128174,18.3997764587402,18.4009265899658,18.4020709991455,18.4032211303711,18.4043750762939,18.4055271148682,18.4066772460938,18.4078311920166,18.4089832305908,18.4101333618164,18.411283493042,18.4124336242676,18.4135856628418,18.414737701416,18.4158935546875,18.417049407959,18.4181938171387,18.4193496704102,18.420503616333,18.4216537475586,18.4228115081787,18.4239673614502,18.4251194000244,18.4262714385986,18.4274215698242,18.4285736083984,18.4297313690186,18.4308834075928,17.6243724822998,17.5935974121094,17.562931060791,17.5323715209961,17.5019187927246,17.4715709686279,17.4468631744385,17.4760036468506,17.462589263916,17.4325084686279,17.4025325775146,17.3726577758789,17.3428859710693,17.3132171630859,17.2836475372314,17.2541809082031,17.2248134613037,17.1955451965332,17.1663761138916,17.1373081207275,17.1083354949951,17.0794620513916,17.0506858825684,17.0220069885254,16.9934234619141,16.964937210083,16.936544418335,16.9082489013672,16.8800449371338,16.851936340332,16.8239212036133,16.7959995269775,16.7681694030762,16.7404327392578,16.7127857208252,16.6852321624756,16.6577682495117,16.6303939819336,16.6031093597412,16.5759143829346,16.5488090515137,16.5217914581299,16.4948635101318,16.4680233001709,16.4412689208984,16.4146041870117,16.3880233764648,16.3615283966064,16.3351211547852,16.3087978363037,16.2825584411621,16.256404876709,16.2303333282471,16.2043476104736
18.0464839935303,18.0475883483887,18.0486965179443,18.0498027801514,18.0509090423584,18.0520133972168,18.0531253814697,18.0542335510254,18.0553379058838,18.0564460754395,18.0575580596924,18.0586624145508,18.0597686767578,18.0608787536621,18.0619888305664,18.0630970001221,18.064208984375,18.065315246582,18.0664215087891,18.0675296783447,18.0686416625977,18.0697536468506,18.0708599090576,18.0719718933105,18.0730838775635,18.0741882324219,18.0752983093262,18.0764122009277,18.0775203704834,18.078634262085,18.0797462463379,18.0808544158936,18.0819664001465,18.0830745697021,18.0841827392578,18.0853004455566,18.0864086151123,18.0875244140625,18.0886344909668,18.0897483825684,18.0908584594727,18.0919666290283,18.0930824279785,18.0941944122314,18.095308303833,18.0964221954346,18.0975322723389,18.0986442565918,18.0997562408447,18.1008739471436,18.1019859313965,18.1031017303467,18.1042156219482,18.1053295135498,18.1064357757568,18.1075496673584,18.1086711883545,18.1097831726074,18.1109008789062,18.1120128631592,18.1131286621094,18.1142406463623,18.1153564453125,18.1164722442627,18.1175899505615,18.1187057495117,18.1198196411133,18.1209335327148,18.1220474243164,18.1231651306152,18.1242790222168,18.1253986358643,18.1265163421631,18.1276340484619,18.1287479400635,18.1298637390137,18.1309795379639,18.1320991516113,18.1332168579102,18.1343383789062,18.1354560852051,18.136568069458,18.1376838684082,18.1387996673584,18.1399192810059,18.141040802002,18.1421566009521,18.1432800292969,18.1443958282471,18.1455116271973,18.1466312408447,18.1477508544922,18.1488723754883,18.1499938964844,18.1511116027832,18.1522312164307,18.1533451080322,18.154468536377,18.155590057373,18.1567077636719,18.1578330993652,18.1589488983154,18.1600723266602,18.161190032959,18.1623077392578,18.1634330749512,18.1645545959473,18.1656761169434,18.1667976379395,18.1679191589355,18.1690368652344,18.1701583862305,18.1712818145752,18.1724052429199,18.1735286712646,18.1746520996094,18.1757755279541,18.1768932342529,18.178014755249,18.1791400909424,18.1802673339844,18.1813926696777,18.1825141906738,18.1836395263672,18.1847553253174,18.1858787536621,18.1870059967041,18.1881313323975,18.1892547607422,18.1903800964355,18.1915054321289,18.1926231384277,18.1937503814697,18.1948719024658,18.1960029602051,18.1971282958984,18.1982517242432,18.1993770599365,18.2005004882812,18.2016258239746,18.202751159668,18.20387840271,18.2050094604492,18.2061347961426,18.2072601318359,18.2083835601807,18.2095108032227,18.210636138916,18.2117671966553,18.2128963470459,18.2140197753906,18.215145111084,18.216272354126,18.2174034118652,18.2185306549072,18.2196598052979,18.2207870483398,18.2219181060791,18.2230453491211,18.2241706848145,18.2252960205078,18.2264251708984,18.2275581359863,18.228687286377,18.2298145294189,18.2309455871582,18.2320728302002,18.2332000732422,18.2343349456787,18.235466003418,18.2365970611572,18.2377243041992,18.2388553619385,18.2399826049805,18.2411155700684,18.242244720459,18.2433776855469,18.2445087432861,18.2456398010254,18.2467708587646,18.2479000091553,18.2490310668945,17.6241912841797,17.5934162139893,17.5627517700195,17.5321922302246,17.5017395019531,17.4713916778564,17.4470539093018,17.4761924743652,17.4624042510986,17.4323272705078,17.4023532867432,17.3724822998047,17.3427143096924,17.313045501709,17.2834758758545,17.2540092468262,17.2246437072754,17.1953754425049,17.1662082672119,17.1371383666992,17.1081676483154,17.0792961120605,17.0505199432373,17.0218410491943,16.9932594299316,16.9647731781006,16.9363803863525,16.9080848693848,16.8798828125,16.8517742156982,16.8237590789795,16.7958374023438,16.768009185791,16.7402725219727,16.7126274108887,16.6850719451904,16.6576080322266,16.6302356719971,16.6029510498047,16.5757579803467,16.5486526489258,16.521635055542,16.4947071075439,16.467866897583,16.4411125183105,16.4144458770752,16.387866973877,16.3613739013672,16.3349647521973,16.3086433410645,16.2824039459229,16.2562503814697,16.2301807403564,16.2041931152344
17.8720989227295,17.8731861114502,17.8742733001709,17.8753566741943,17.876443862915,17.8775272369385,17.8786182403564,17.8797016143799,17.8807849884033,17.8818740844727,17.8829593658447,17.8840484619141,17.8851356506348,17.8862209320068,17.8873138427734,17.8883953094482,17.8894824981689,17.890567779541,17.8916625976562,17.892749786377,17.8938369750977,17.8949222564697,17.8960094451904,17.8970966339111,17.8981876373291,17.8992786407471,17.9003658294678,17.9014568328857,17.9025440216064,17.9036331176758,17.9047203063965,17.9058094024658,17.9068984985352,17.9079914093018,17.9090824127197,17.9101715087891,17.9112567901611,17.9123497009277,17.9134387969971,17.9145317077637,17.9156227111816,17.9167098999023,17.9178047180176,17.9188957214355,17.9199867248535,17.9210777282715,17.9221668243408,17.9232597351074,17.9243507385254,17.9254455566406,17.9265327453613,17.9276275634766,17.9287204742432,17.9298133850098,17.9309062957764,17.9319972991943,17.9330883026123,17.9341793060303,17.9352741241455,17.9363670349121,17.9374599456787,17.9385547637939,17.9396495819092,17.9407424926758,17.9418334960938,17.942928314209,17.9440250396729,17.9451160430908,17.9462127685547,17.9473037719727,17.9484004974365,17.9494915008545,17.9505920410156,17.9516868591309,17.9527835845947,17.95387840271,17.9549713134766,17.9560661315918,17.9571628570557,17.9582595825195,17.9593524932861,17.9604511260986,17.9615440368652,17.9626426696777,17.9637413024902,17.9648323059082,17.9659328460693,17.9670276641846,17.9681243896484,17.9692211151123,17.9703178405762,17.9714202880859,17.9725131988525,17.9736137390137,17.9747123718262,17.97580909729,17.9769077301025,17.978006362915,17.9791030883789,17.9801998138428,17.9812984466553,17.9823970794678,17.9834976196289,17.98459815979,17.9856986999512,17.9867973327637,17.9878921508789,17.98899269104,17.9900932312012,17.9911918640137,17.9922943115234,17.9933948516846,17.9944953918457,17.9955883026123,17.9966945648193,17.9977970123291,17.9988956451416,17.9999980926514,18.0010967254639,18.0021991729736,18.0032958984375,18.0044002532959,18.0055027008057,18.0066051483154,18.0077075958252,18.0088081359863,18.0099124908447,18.0110092163086,18.0121116638184,18.0132179260254,18.0143203735352,18.0154228210449,18.016529083252,18.0176296234131,18.0187301635742,18.0198345184326,18.0209407806396,18.0220413208008,18.0231494903564,18.0242500305176,18.0253524780273,18.0264530181885,18.0275611877441,18.0286655426025,18.0297698974609,18.0308742523193,18.0319805145264,18.033088684082,18.0341892242432,18.0352973937988,18.0363998413086,18.0375080108643,18.0386123657227,18.0397205352783,18.0408267974854,18.0419254302979,18.0430335998535,18.0441436767578,18.0452499389648,18.0463542938232,18.0474624633789,18.0485668182373,18.0496692657471,18.0507793426514,18.0518894195557,18.0529975891113,18.0541038513184,18.055212020874,18.0563201904297,18.0574283599854,18.0585384368896,18.0596485137939,18.060754776001,18.0618629455566,18.0629692077637,18.064079284668,18.0651893615723,18.0662937164307,18.0674076080322,18.0685138702393,18.0696277618408,18.0707340240479,17.6240081787109,17.5932350158691,17.5625705718994,17.5320129394531,17.5015602111816,17.4712142944336,17.447244644165,17.4763927459717,17.462215423584,17.4321384429932,17.4021663665771,17.3722953796387,17.3425273895264,17.3128623962402,17.283296585083,17.253833770752,17.2244701385498,17.1952056884766,17.1660385131836,17.1369705200195,17.1080017089844,17.0791282653809,17.0503540039062,17.0216751098633,16.9930934906006,16.9646072387695,16.9362163543701,16.9079208374023,16.8797187805176,16.8516120910645,16.8235969543457,16.7956771850586,16.7678489685059,16.7401123046875,16.7124671936035,16.6849136352539,16.65744972229,16.6300773620605,16.6027946472168,16.5755996704102,16.5484962463379,16.5214786529541,16.4945507049561,16.4677104949951,16.4409580230713,16.4142913818359,16.3877105712891,16.3612174987793,16.334810256958,16.3084869384766,16.2822494506836,16.2560958862305,16.2300262451172,16.2040405273438
17.701057434082,17.7021217346191,17.7031879425049,17.704252243042,17.7053165435791,17.7063827514648,17.7074508666992,17.7085132598877,17.7095813751221,17.7106456756592,17.7117137908936,17.712776184082,17.7138404846191,17.7149047851562,17.7159729003906,17.717041015625,17.7181091308594,17.719181060791,17.7202415466309,17.721305847168,17.722375869751,17.7234420776367,17.7245121002197,17.7255802154541,17.7266502380371,17.7277126312256,17.7287826538086,17.7298488616943,17.7309150695801,17.7319869995117,17.7330570220947,17.7341251373291,17.7351913452148,17.7362613677979,17.7373313903809,17.7383995056152,17.7394695281982,17.7405395507812,17.7416133880615,17.7426795959473,17.743745803833,17.744815826416,17.7458896636963,17.746955871582,17.7480278015137,17.7491016387939,17.7501659393311,17.7512378692627,17.7523097991943,17.7533798217773,17.7544536590576,17.755521774292,17.7565975189209,17.7576675415039,17.7587356567383,17.7598094940186,17.7608814239502,17.7619552612305,17.7630252838135,17.764102935791,17.7651710510254,17.7662391662598,17.7673110961914,17.7683868408203,17.769458770752,17.7705326080322,17.7716102600098,17.7726764678955,17.773754119873,17.7748260498047,17.7758979797363,17.7769737243652,17.7780475616455,17.7791233062744,17.7801933288574,17.781270980835,17.782341003418,17.7834205627441,17.7844944000244,17.7855663299561,17.7866439819336,17.7877159118652,17.7887935638428,17.7898693084717,17.790943145752,17.7920207977295,17.7930946350098,17.7941741943359,17.7952442169189,17.7963218688965,17.797399520874,17.7984752655029,17.7995510101318,17.800630569458,17.8017101287842,17.8027820587158,17.803861618042,17.8049373626709,17.8060131072998,17.8070907592773,17.8081722259521,17.809253692627,17.8103256225586,17.8114032745361,17.8124847412109,17.8135585784912,17.8146381378174,17.8157196044922,17.8167991638184,17.8178730010986,17.8189525604248,17.820032119751,17.8211097717285,17.8221912384033,17.8232688903809,17.8243522644043,17.8254318237305,17.826509475708,17.8275890350342,17.8286685943604,17.8297481536865,17.8308296203613,17.8319091796875,17.8329925537109,17.8340682983398,17.8351497650146,17.8362312316895,17.8373126983643,17.8383960723877,17.8394794464111,17.8405570983887,17.8416347503662,17.8427181243896,17.8438053131104,17.8448829650879,17.84596824646,17.8470497131348,17.8481330871582,17.8492107391357,17.8502922058105,17.8513774871826,17.8524608612061,17.8535442352295,17.8546314239502,17.8557167053223,17.8567962646484,17.8578777313232,17.8589611053467,17.8600463867188,17.8611316680908,17.8622169494629,17.8633003234863,17.8643817901611,17.8654651641846,17.8665523529053,17.8676338195801,17.8687229156494,17.8698043823242,17.8708934783936,17.8719730377197,17.8730621337891,17.8741455078125,17.8752307891846,17.8763198852539,17.877405166626,17.8784961700439,17.8795776367188,17.8806629180908,17.8817481994629,17.8828372955322,17.8839244842529,17.885009765625,17.886100769043,17.8871841430664,17.8882713317871,17.8893585205078,17.8904457092285,17.8915367126465,17.8926219940186,17.8937149047852,17.89479637146,17.8958854675293,17.6238269805908,17.593053817749,17.5623912811279,17.531831741333,17.5013809204102,17.4710350036621,17.447437286377,17.4765949249268,17.4620265960693,17.4319496154785,17.4019775390625,17.3721084594727,17.3423404693604,17.3126754760742,17.2831115722656,17.2536487579346,17.2242851257324,17.1950225830078,17.1658573150635,17.1367931365967,17.1078262329102,17.0789566040039,17.0501842498779,17.0215091705322,16.9929275512695,16.9644432067871,16.9360523223877,16.9077568054199,16.8795566558838,16.8514499664307,16.8234367370605,16.7955150604248,16.7676868438721,16.7399520874023,16.7123069763184,16.6847534179688,16.6572914123535,16.629919052124,16.6026363372803,16.5754432678223,16.54833984375,16.5213241577148,16.4943962097168,16.4675559997559,16.440803527832,16.4141368865967,16.3875579833984,16.36106300354,16.3346557617188,16.3083324432373,16.2820949554443,16.2559413909912,16.2298736572266,16.2038879394531
17.5332546234131,17.5342998504639,17.535343170166,17.5363922119141,17.5374317169189,17.5384826660156,17.5395259857178,17.5405673980713,17.5416126251221,17.5426597595215,17.5437088012695,17.5447540283203,17.5458030700684,17.5468482971191,17.5478897094727,17.5489349365234,17.5499839782715,17.5510311126709,17.5520801544189,17.553129196167,17.5541706085205,17.5552139282227,17.5562629699707,17.5573101043701,17.5583591461182,17.5594100952148,17.5604610443115,17.5615081787109,17.5625495910645,17.5635986328125,17.5646476745605,17.5656967163086,17.5667495727539,17.567798614502,17.5688419342041,17.5698871612549,17.5709400177002,17.5719890594482,17.5730400085449,17.5740909576416,17.5751399993896,17.5761871337891,17.5772380828857,17.5782871246338,17.5793342590332,17.5803852081299,17.5814399719238,17.5824909210205,17.5835437774658,17.5845890045166,17.5856380462646,17.5866889953613,17.5877437591553,17.5887966156006,17.5898475646973,17.5908985137939,17.591947555542,17.5929985046387,17.594051361084,17.5951023101807,17.5961570739746,17.5972118377686,17.5982608795166,17.5993137359619,17.6003646850586,17.6014194488525,17.6024703979492,17.6035251617432,17.6045799255371,17.6056289672852,17.6066856384277,17.607738494873,17.6087894439697,17.609842300415,17.6109008789062,17.6119518280029,17.6130084991455,17.6140632629395,17.6151142120361,17.6161670684814,17.6172218322754,17.6182804107666,17.6193313598633,17.6203880310059,17.6214485168457,17.6224994659424,17.6235542297363,17.6246089935303,17.6256656646729,17.6267242431641,17.6277770996094,17.6288356781006,17.6298866271973,17.6309432983398,17.6319999694824,17.6330585479736,17.6341152191162,17.6351737976074,17.63623046875,17.6372833251953,17.6383399963379,17.6393985748291,17.6404571533203,17.6415157318115,17.6425743103027,17.6436290740967,17.6446876525879,17.6457405090332,17.6467990875244,17.6478614807129,17.6489200592041,17.6499805450439,17.6510391235352,17.6520919799805,17.6531505584717,17.6542110443115,17.6552734375,17.6563339233398,17.6573944091797,17.6584510803223,17.6595058441162,17.6605701446533,17.6616306304932,17.662691116333,17.6637516021729,17.6648120880127,17.6658725738525,17.6669292449951,17.667989730835,17.6690483093262,17.6701126098633,17.6711769104004,17.6722373962402,17.6732997894287,17.6743564605713,17.6754188537598,17.6764793395996,17.6775417327881,17.6786060333252,17.6796684265137,17.6807308197021,17.6817874908447,17.6828498840332,17.6839122772217,17.6849803924561,17.6860408782959,17.687105178833,17.6881694793701,17.68922996521,17.6902904510498,17.6913585662842,17.692419052124,17.693489074707,17.6945514678955,17.695613861084,17.6966743469238,17.6977405548096,17.6988048553467,17.6998710632324,17.7009372711182,17.7020015716553,17.7030658721924,17.7041301727295,17.7051944732666,17.7062587738037,17.7073230743408,17.7083930969238,17.7094573974609,17.7105255126953,17.7115859985352,17.7126522064209,17.7137184143066,17.7147846221924,17.7158546447754,17.7169246673584,17.7179870605469,17.7190494537354,17.7201156616211,17.7211875915527,17.7222518920898,17.7233238220215,17.7243900299072,17.6236438751221,17.5928745269775,17.5622100830078,17.5316524505615,17.5012016296387,17.4708557128906,17.4476280212402,17.4767990112305,17.4618377685547,17.4317626953125,17.4017906188965,17.3719215393066,17.342155456543,17.3124904632568,17.2829265594482,17.2534637451172,17.2241020202637,17.1948394775391,17.1656761169434,17.1366100311279,17.10764503479,17.0787754058838,17.0500049591064,17.0213298797607,16.9927520751953,16.9642696380615,16.9358825683594,16.9075889587402,16.8793926239014,16.8512859344482,16.8232746124268,16.795352935791,16.7675266265869,16.7397899627686,16.7121467590332,16.6845951080322,16.657133102417,16.6297607421875,16.6024780273438,16.5752868652344,16.5481815338135,16.521167755127,16.4942398071289,16.4674015045166,16.4406490325928,16.4139823913574,16.3874034881592,16.3609104156494,16.3345031738281,16.3081798553467,16.2819423675537,16.2557888031006,16.2297191619873,16.2037353515625
17.3686065673828,17.3696327209473,17.3706569671631,17.3716793060303,17.372709274292,17.3737354278564,17.3747577667236,17.3757858276367,17.3768138885498,17.3778400421143,17.3788642883301,17.3798866271973,17.380916595459,17.3819427490234,17.3829689025879,17.3839950561523,17.3850231170654,17.3860511779785,17.3870754241943,17.3881053924561,17.3891315460205,17.3901557922363,17.3911876678467,17.3922157287598,17.3932456970215,17.3942699432373,17.3952980041504,17.3963260650635,17.3973560333252,17.3983840942383,17.3994159698486,17.4004440307617,17.4014663696289,17.4025001525879,17.403528213501,17.4045543670654,17.4055881500244,17.4066200256348,17.4076461791992,17.4086723327637,17.4097061157227,17.4107398986816,17.4117660522461,17.4127998352051,17.4138278961182,17.4148597717285,17.4158840179443,17.416919708252,17.4179496765137,17.418981552124,17.4200115203857,17.4210433959961,17.4220771789551,17.4231014251709,17.4241371154785,17.4251651763916,17.4261989593506,17.4272346496582,17.4282627105713,17.4292964935303,17.430326461792,17.431360244751,17.4323959350586,17.4334259033203,17.4344577789307,17.4354953765869,17.4365272521973,17.437557220459,17.438591003418,17.439624786377,17.4406604766846,17.4416942596436,17.4427280426025,17.4437599182129,17.4447917938232,17.4458255767822,17.4468612670898,17.4478969573975,17.4489345550537,17.4499664306641,17.4510021209717,17.4520359039307,17.4530715942383,17.4541053771973,17.4551410675049,17.4561748504639,17.4572105407715,17.4582500457764,17.4592819213867,17.4603157043457,17.4613552093506,17.4623928070068,17.4634284973145,17.4644622802734,17.4654998779297,17.4665355682373,17.4675750732422,17.4686088562012,17.4696464538574,17.4706878662109,17.4717216491699,17.4727592468262,17.4737930297852,17.4748344421387,17.4758720397949,17.4769077301025,17.4779491424561,17.4789886474609,17.4800262451172,17.4810581207275,17.4820976257324,17.4831409454346,17.4841785430908,17.4852180480957,17.4862537384033,17.4872970581055,17.4883327484131,17.4893703460693,17.4904117584229,17.4914531707764,17.4924926757812,17.4935302734375,17.494571685791,17.4956092834473,17.4966506958008,17.497688293457,17.4987316131592,17.4997730255127,17.5008144378662,17.5018539428711,17.5028915405273,17.5039348602295,17.5049800872803,17.5060176849365,17.50705909729,17.5081024169922,17.5091457366943,17.510181427002,17.5112266540527,17.5122699737549,17.513313293457,17.5143527984619,17.5153961181641,17.5164413452148,17.5174827575684,17.5185222625732,17.5195655822754,17.5206089019775,17.5216522216797,17.5226974487305,17.5237426757812,17.5247802734375,17.5258235931396,17.5268726348877,17.5279178619385,17.528959274292,17.5300045013428,17.5310478210449,17.5320873260498,17.5331344604492,17.5341815948486,17.5352268218994,17.5362720489502,17.5373134613037,17.5383605957031,17.5394039154053,17.5404453277588,17.5414981842041,17.5425434112549,17.543586730957,17.5446338653564,17.5456809997559,17.5467224121094,17.5477733612061,17.5488224029541,17.5498657226562,17.5509147644043,17.5519599914551,17.5530071258545,17.554048538208,17.5550975799561,17.5561466217041,17.5571956634521,17.5582408905029,17.559289932251,17.53147315979,17.5010223388672,17.4706783294678,17.4478149414062,17.4770011901855,17.46164894104,17.4315738677979,17.4016017913818,17.3717346191406,17.341968536377,17.3123035430908,17.2827415466309,17.2532787322998,17.2239170074463,17.1946544647217,17.1654930114746,17.1364288330078,17.1074638366699,17.0785942077637,17.0498237609863,17.0211505889893,16.9925727844238,16.96409034729,16.9357032775879,16.9074115753174,16.8792152404785,16.8511123657227,16.8231010437012,16.7951850891113,16.7673606872559,16.7396278381348,16.711986541748,16.6844348907471,16.6569728851318,16.629602432251,16.6023216247559,16.5751285552979,16.5480251312256,16.5210113525391,16.4940853118896,16.4672451019287,16.4404945373535,16.4138278961182,16.3872509002686,16.3607578277588,16.3343505859375,16.3080291748047,16.2817916870117,16.2556381225586,16.2295684814453,16.2035827636719
17.2070178985596,17.2080230712891,17.2090339660645,17.2100353240967,17.2110462188721,17.2120552062988,17.2130603790283,17.2140636444092,17.2150745391846,17.2160816192627,17.2170906066895,17.2180976867676,17.2191028594971,17.2201099395752,17.2211170196533,17.2221240997314,17.2231330871582,17.224142074585,17.2251491546631,17.2261581420898,17.2271709442139,17.2281742095947,17.2291831970215,17.2301902770996,17.231201171875,17.2322101593018,17.2332191467285,17.2342281341553,17.235237121582,17.2362480163574,17.2372570037842,17.2382659912109,17.2392768859863,17.2402839660645,17.2412967681885,17.2423057556152,17.243314743042,17.2443237304688,17.24534034729,17.2463474273682,17.2473583221436,17.2483730316162,17.2493801116943,17.2503929138184,17.2514038085938,17.2524127960205,17.2534236907959,17.2544345855713,17.2554492950439,17.2564601898193,17.2574691772461,17.2584838867188,17.2594947814941,17.2605075836182,17.2615242004395,17.2625350952148,17.2635478973389,17.2645606994629,17.2655735015869,17.2665882110596,17.267599105835,17.268611907959,17.2696304321289,17.2706356048584,17.2716503143311,17.2726669311523,17.2736778259277,17.274694442749,17.2757091522217,17.276725769043,17.2777328491211,17.2787475585938,17.2797660827637,17.2807807922363,17.2817974090576,17.2828121185303,17.2838249206543,17.2848358154297,17.2858543395996,17.2868690490723,17.2878856658936,17.2889022827148,17.2899188995361,17.2909355163574,17.2919502258301,17.2929630279541,17.2939777374268,17.2949981689453,17.2960166931152,17.2970333099365,17.2980499267578,17.2990627288818,17.3000793457031,17.3010959625244,17.302116394043,17.3031330108643,17.3041496276855,17.3051681518555,17.3061828613281,17.3072032928467,17.3082218170166,17.3092365264893,17.3102569580078,17.3112754821777,17.3122940063477,17.3133106231689,17.3143291473389,17.3153476715088,17.3163661956787,17.3173866271973,17.3184089660645,17.319429397583,17.3204441070557,17.3214626312256,17.3224849700928,17.3235015869141,17.3245220184326,17.3255443572998,17.326566696167,17.3275852203369,17.3286018371582,17.3296222686768,17.3306407928467,17.3316631317139,17.3326835632324,17.3337097167969,17.3347263336182,17.335750579834,17.3367710113525,17.3377952575684,17.3388137817383,17.3398361206055,17.3408584594727,17.3418750762939,17.3429012298584,17.343921661377,17.3449478149414,17.3459663391113,17.3469924926758,17.3480129241943,17.3490371704102,17.3500576019287,17.3510818481445,17.3521022796631,17.3531265258789,17.3541526794434,17.3551731109619,17.3562030792236,17.3572196960449,17.3582458496094,17.3592700958252,17.3602905273438,17.3613147735596,17.362340927124,17.3633708953857,17.364387512207,17.3654155731201,17.3664398193359,17.3674621582031,17.3684902191162,17.369514465332,17.3705406188965,17.3715629577637,17.3725910186768,17.3736171722412,17.3746395111084,17.3756656646729,17.3766937255859,17.377721786499,17.3787460327148,17.3797702789307,17.3807964324951,17.3818244934082,17.3828544616699,17.3838787078857,17.3849086761475,17.3859329223633,17.386962890625,17.3879852294922,17.3890151977539,17.390043258667,17.3910713195801,17.3920974731445,17.393123626709,17.3941535949707,17.3951816558838,17.3962097167969,17.3972358703613,17.3982677459717,17.3992977142334,17.4003238677979,17.4013519287109,17.4014148712158,17.3715476989746,17.3417816162109,17.3121185302734,17.2825565338135,17.2530937194824,17.2237339019775,17.1944713592529,17.1653099060059,17.1362457275391,17.1072807312012,17.0784149169922,17.0496444702148,17.0209712982178,16.9923934936523,16.9639129638672,16.935525894165,16.9072360992432,16.8790378570557,16.8509349822998,16.822925567627,16.7950096130371,16.7671852111816,16.7394542694092,16.7118129730225,16.6842651367188,16.6568050384521,16.6294364929199,16.6021595001221,16.5749702453613,16.5478687286377,16.5208549499512,16.4939289093018,16.4670906066895,16.4403381347656,16.4136753082275,16.3870964050293,16.3606033325195,16.3341979980469,16.3078765869141,16.2816390991211,16.2554874420166,16.2294178009033,16.2034320831299
17.0484142303467,17.0494022369385,17.0503921508789,17.0513763427734,17.0523643493652,17.053352355957,17.0543422698975,17.0553302764893,17.0563220977783,17.0573101043701,17.0582942962646,17.0592803955078,17.0602722167969,17.0612602233887,17.0622520446777,17.0632438659668,17.0642356872559,17.0652179718018,17.0662078857422,17.0671977996826,17.068187713623,17.0691795349121,17.0701694488525,17.0711612701416,17.0721492767334,17.0731410980225,17.0741310119629,17.0751171112061,17.0761127471924,17.0771083831787,17.0780963897705,17.0790863037109,17.0800743103027,17.0810661315918,17.0820579528809,17.0830497741699,17.0840454101562,17.0850372314453,17.0860233306885,17.0870170593262,17.0880107879639,17.0890026092529,17.0899982452393,17.0909900665283,17.0919799804688,17.0929698944092,17.0939617156982,17.0949573516846,17.0959491729736,17.0969486236572,17.0979385375977,17.098934173584,17.0999221801758,17.1009178161621,17.1019134521484,17.1029052734375,17.1038990020752,17.1048965454102,17.1058940887451,17.1068801879883,17.107873916626,17.1088733673096,17.1098670959473,17.1108646392822,17.1118602752686,17.1128520965576,17.1138439178467,17.1148414611816,17.1158332824707,17.1168308258057,17.1178321838379,17.1188259124756,17.1198234558105,17.1208171844482,17.1218109130859,17.1228084564209,17.1238021850586,17.1247997283936,17.1258010864258,17.1267967224121,17.1277904510498,17.1287860870361,17.1297855377197,17.1307830810547,17.131778717041,17.1327800750732,17.1337757110596,17.1347694396973,17.1357688903809,17.1367664337158,17.1377639770508,17.138765335083,17.139762878418,17.1407604217529,17.1417617797852,17.1427536010742,17.1437549591064,17.14475440979,17.1457557678223,17.1467533111572,17.1477546691895,17.1487522125244,17.1497459411621,17.1507472991943,17.1517467498779,17.1527481079102,17.153751373291,17.154748916626,17.1557483673096,17.1567497253418,17.1577472686768,17.1587448120117,17.1597499847412,17.1607513427734,17.1617546081543,17.1627521514893,17.1637535095215,17.1647529602051,17.1657562255859,17.1667537689209,17.1677589416504,17.1687622070312,17.1697616577148,17.1707611083984,17.171760559082,17.1727657318115,17.1737689971924,17.1747741699219,17.1757736206055,17.1767768859863,17.1777782440186,17.1787815093994,17.1797828674316,17.1807861328125,17.1817932128906,17.1827945709229,17.1837997436523,17.1848011016846,17.1858005523682,17.1868076324463,17.1878089904785,17.188814163208,17.1898193359375,17.190824508667,17.1918239593506,17.1928291320801,17.1938343048096,17.1948432922363,17.1958446502686,17.1968536376953,17.1978607177734,17.1988582611084,17.1998634338379,17.2008686065674,17.2018737792969,17.2028846740723,17.2038898468018,17.2048969268799,17.2058982849121,17.206901550293,17.2079105377197,17.2089157104492,17.209924697876,17.2109336853027,17.2119388580322,17.2129402160645,17.2139472961426,17.2149562835693,17.2159633636475,17.2169723510742,17.2179794311523,17.2189884185791,17.2199935913086,17.2209987640381,17.2220096588135,17.2230129241943,17.2240257263184,17.2250366210938,17.2260437011719,17.2270469665527,17.2280597686768,17.2290668487549,17.2300758361816,17.2310886383057,17.2320957183838,17.2331066131592,17.23410987854,17.2351207733154,17.2361316680908,17.2371406555176,17.238151550293,17.2391605377197,17.2401752471924,17.2411766052246,17.2421894073486,17.2431983947754,17.2442092895508,17.2452239990234,17.2235507965088,17.1942901611328,17.1651268005371,17.1360645294189,16.9788570404053,16.9798545837402,16.9808406829834,16.981840133667,16.9828395843506,16.9637336730957,16.9353485107422,16.9070587158203,16.8788623809814,16.8507595062256,16.8227500915527,16.7948341369629,16.7670116424561,16.7392807006836,16.7116394042969,16.6840915679932,16.6566333770752,16.6292667388916,16.6019878387451,16.5747985839844,16.5476989746094,16.5206890106201,16.4937648773193,16.4669303894043,16.4401817321777,16.4135189056396,16.38694190979,16.3604507446289,16.3340454101562,16.3077239990234,16.2814865112305,16.255334854126,16.2292671203613,16.2032814025879
16.8927021026611,16.8936729431152,16.8946437835693,16.8956127166748,16.8965835571289,16.8975563049316,16.8985233306885,16.8994903564453,16.9004611968994,16.9014339447021,16.9024047851562,16.9033794403076,16.9043483734131,16.9053173065186,16.9062881469727,16.907262802124,16.9082317352295,16.9092025756836,16.9101791381836,16.9111499786377,16.9121150970459,16.9130878448486,16.9140644073486,16.9150371551514,16.9160041809082,16.9169826507568,16.9179515838623,16.918924331665,16.9198989868164,16.9208698272705,16.9218444824219,16.922815322876,16.9237899780273,16.9247665405273,16.9257354736328,16.9267082214355,16.9276828765869,16.9286594390869,16.9296321868896,16.9306087493896,16.9315795898438,16.9325561523438,16.9335269927979,16.9345035552979,16.9354763031006,16.9364528656006,16.9374256134033,16.9384021759033,16.9393787384033,16.9403495788574,16.9413242340088,16.9423027038574,16.9432773590088,16.9442539215088,16.9452285766602,16.9462051391602,16.9471778869629,16.9481544494629,16.9491310119629,16.9501075744629,16.9510860443115,16.9520606994629,16.9530391693115,16.9540100097656,16.9549903869629,16.9559688568115,16.9569454193115,16.9579200744629,16.9589023590088,16.9598770141602,16.9608478546143,16.9618282318115,16.9628105163574,16.9637851715088,16.9647674560547,16.9657459259033,16.9667205810547,16.9676971435547,16.9686813354492,16.9696598052979,16.9706363677979,16.9716148376465,16.9725952148438,16.9735736846924,16.9745464324951,16.9755306243896,16.9765071868896,16.9774913787842,16.9784660339355,16.9794502258301,16.9804248809814,16.9814052581787,16.9823875427246,16.9833660125732,16.9843482971191,16.9853267669678,16.9863090515137,16.9872875213623,16.9882640838623,16.9892482757568,16.9902286529541,16.9912109375,16.9921932220459,16.9931755065918,16.9941558837891,16.9951343536377,16.996114730835,16.9971008300781,16.9980792999268,16.9990634918213,17.0000476837158,17.0010242462158,17.0020046234131,17.0029888153076,17.0039749145508,17.0049591064453,17.0059375762939,17.0069198608398,17.0079040527344,17.0088844299316,17.0098686218262,17.0108528137207,17.0118389129639,17.0128192901611,17.0138053894043,17.0147857666016,17.0157680511475,17.0167560577393,17.0177402496338,17.0187225341797,17.0197086334229,17.020694732666,17.0216789245605,17.0226573944092,17.0236415863037,17.0246295928955,17.02561378479,17.0266017913818,17.0275859832764,17.0285739898682,17.0295524597168,17.0305404663086,17.0315265655518,17.0325145721436,17.0334987640381,17.0344867706299,17.035472869873,17.0364551544189,17.0374393463135,17.0384311676025,17.0394191741943,17.0404033660889,17.0413913726807,17.0423774719238,17.0433616638184,17.0443496704102,17.0453395843506,17.0463256835938,17.0473136901855,17.048303604126,17.0492897033691,17.0502738952637,17.0512619018555,17.0522518157959,17.0532417297363,17.0542278289795,17.0552177429199,17.0562076568604,17.0571918487549,17.058177947998,17.0591697692871,17.0601615905762,17.061149597168,17.0621395111084,17.0631294250488,17.064115524292,17.0651035308838,17.0660972595215,17.0670852661133,17.0680770874023,17.0690670013428,17.0700588226318,17.071044921875,17.0720348358154,17.0730266571045,17.0740165710449,17.0750102996826,17.0759963989258,17.0769920349121,17.0779781341553,17.0789680480957,17.0799617767334,17.0809555053711,17.0819454193115,17.082935333252,17.0839309692383,16.8161029815674,16.8170776367188,16.8180561065674,16.8190326690674,16.820011138916,16.8209838867188,16.8219604492188,16.8229370117188,16.823917388916,16.824893951416,16.8258686065674,16.8268508911133,16.8278274536133,16.8288021087646,16.8297863006592,16.8307666778564,16.8225765228271,16.7946605682373,16.7668380737305,16.739107131958,16.7114677429199,16.6839199066162,16.6564617156982,16.6290950775146,16.6018161773682,16.5746288299561,16.5475292205811,16.5205192565918,16.4935970306396,16.466760635376,16.440013885498,16.4133529663086,16.3867778778076,16.3602886199951,16.3338851928711,16.3075675964355,16.2813339233398,16.255184173584,16.2291164398193,16.2031326293945
16.7398109436035,16.7407646179199,16.7417221069336,16.7426662445068,16.7436218261719,16.7445735931396,16.7455310821533,16.7464809417725,16.7474327087402,16.7483921051025,16.7493362426758,16.7502937316895,16.7512435913086,16.7522010803223,16.7531566619873,16.7541084289551,16.7550621032715,16.7560138702393,16.7569713592529,16.757926940918,16.7588787078857,16.7598285675049,16.7607898712158,16.7617454528809,16.7626953125,16.763650894165,16.7646026611328,16.7655601501465,16.7665176391602,16.7674713134766,16.7684307098389,16.7693824768066,16.7703399658203,16.7712955474854,16.772253036499,16.7732067108154,16.7741622924805,16.7751235961914,16.7760753631592,16.7770290374756,16.7779865264893,16.7789440155029,16.7799015045166,16.7808589935303,16.7818164825439,16.782772064209,16.783727645874,16.7846870422363,16.7856407165527,16.7865982055664,16.7875576019287,16.7885189056396,16.7894706726074,16.7904319763184,16.7913875579834,16.792350769043,16.7933044433594,16.794261932373,16.795223236084,16.7961826324463,16.79714012146,16.7980976104736,16.7990550994873,16.8000164031982,16.8009757995605,16.8019351959229,16.8028926849365,16.8038501739502,16.8048133850098,16.8057708740234,16.8067321777344,16.8076953887939,16.8086547851562,16.8096122741699,16.8105735778809,16.8115291595459,16.8124923706055,16.8134517669678,16.8144149780273,16.8153762817383,16.8163356781006,16.8172969818115,16.8182563781738,16.8192176818848,16.8201789855957,16.8211441040039,16.8221073150635,16.8230628967285,16.8240261077881,16.8249893188477,16.82594871521,16.8269157409668,16.8278751373291,16.8288402557373,16.8297996520996,16.8307609558105,16.8317241668701,16.8326892852783,16.8336505889893,16.8346157073975,16.8355770111084,16.8365364074707,16.8375015258789,16.8384647369385,16.8394298553467,16.8403949737549,16.8413600921631,16.8423233032227,16.8432846069336,16.8442478179932,16.84521484375,16.8461799621582,16.8471450805664,16.8481063842773,16.8490715026855,16.8500366210938,16.8509998321533,16.8519687652588,16.8529319763184,16.8538990020752,16.8548641204834,16.8558292388916,16.8567905426025,16.8577556610107,16.8587226867676,16.8596878051758,16.8606548309326,16.8616237640381,16.862585067749,16.8635540008545,16.8645191192627,16.8654842376709,16.8664512634277,16.8674182891846,16.86838722229,16.8693504333496,16.8703174591064,16.8712882995605,16.8722553253174,16.8732204437256,16.8741874694824,16.8751602172852,16.876127243042,16.8770904541016,16.8780612945557,16.8790283203125,16.8799953460693,16.8809661865234,16.8819313049316,16.8829021453857,16.8838691711426,16.8848400115967,16.8858070373535,16.8867778778076,16.8877487182617,16.8887176513672,16.889684677124,16.8906536102295,16.8916244506836,16.8925914764404,16.8935623168945,16.8945331573486,16.8955039978027,16.8964748382568,16.8974418640137,16.8984127044678,16.8993816375732,16.9003562927246,16.9013271331787,16.9022960662842,16.9032649993896,16.9042415618896,16.9052085876465,16.906177520752,16.9071464538574,16.9081192016602,16.9090919494629,16.9100646972656,16.9110412597656,16.9120044708252,16.9129810333252,16.913948059082,16.914924621582,16.9158973693848,16.9168663024902,16.9178466796875,16.918815612793,16.9197845458984,16.9207592010498,16.9217319488525,16.6564426422119,16.6573944091797,16.6583576202393,16.6593112945557,16.6602725982666,16.6612300872803,16.6621875762939,16.6631469726562,16.6641063690186,16.6650619506836,16.6660232543945,16.6669807434082,16.6679420471191,16.6688995361328,16.6698532104492,16.6708221435547,16.671781539917,16.6727428436279,16.673698425293,16.674654006958,16.6756191253662,16.6765785217285,16.6775379180908,16.6784992218018,16.6794586181641,16.680419921875,16.6813812255859,16.6823406219482,16.6562900543213,16.6289234161377,16.6016464233398,16.5744590759277,16.5473594665527,16.5203495025635,16.49342918396,16.4665927886963,16.4398460388184,16.4131851196289,16.3866119384766,16.3601226806641,16.33371925354,16.3074016571045,16.2811698913574,16.2550201416016,16.2289562225342,16.202974319458
16.5896606445312,16.59059715271,16.59153175354,16.5924701690674,16.5934066772461,16.5943412780762,16.5952739715576,16.5962085723877,16.597146987915,16.5980854034424,16.5990200042725,16.5999622344971,16.6008949279785,16.60182762146,16.6027660369873,16.6037044525146,16.6046371459961,16.6055793762207,16.6065158843994,16.6074542999268,16.6083869934082,16.6093235015869,16.6102638244629,16.6112003326416,16.6121425628662,16.6130790710449,16.6140174865723,16.6149520874023,16.6158847808838,16.616828918457,16.6177654266357,16.618709564209,16.6196460723877,16.6205883026123,16.6215190887451,16.6224594116211,16.6233997344971,16.6243362426758,16.6252765655518,16.626220703125,16.6271572113037,16.6280937194824,16.6290340423584,16.6299743652344,16.6309127807617,16.6318531036377,16.6327972412109,16.6337375640869,16.634672164917,16.6356163024902,16.6365547180176,16.6374950408936,16.6384391784668,16.63938331604,16.640323638916,16.6412582397461,16.6421985626221,16.6431407928467,16.644079208374,16.6450252532959,16.6459674835205,16.6469078063965,16.6478462219238,16.6487903594971,16.6497287750244,16.650671005249,16.6516170501709,16.6525592803955,16.6535034179688,16.6544418334961,16.6553821563721,16.6563301086426,16.6572704315186,16.6582164764404,16.6591606140137,16.6601009368896,16.6610431671143,16.6619873046875,16.6629314422607,16.6638698577881,16.6648139953613,16.6657619476318,16.6667079925537,16.6676464080811,16.6685943603516,16.6695384979248,16.6704807281494,16.6714248657227,16.6723728179932,16.673318862915,16.6742572784424,16.6752052307129,16.6761455535889,16.677095413208,16.678035736084,16.6789855957031,16.6799335479736,16.6808700561523,16.6818180084229,16.6827659606934,16.6837120056152,16.6846580505371,16.6856060028076,16.6865539550781,16.6874942779541,16.6884422302246,16.6893863677979,16.6903324127197,16.6912822723389,16.6922302246094,16.6931781768799,16.6941223144531,16.6950664520264,16.6960182189941,16.6969604492188,16.6979122161865,16.6988620758057,16.6998081207275,16.700756072998,16.7017040252686,16.7026519775391,16.7035942077637,16.7045421600342,16.7054958343506,16.7064418792725,16.7073917388916,16.7083415985107,16.709285736084,16.7102355957031,16.7111873626709,16.71213722229,16.7130832672119,16.7140350341797,16.7149791717529,16.7159309387207,16.7168807983398,16.7178325653076,16.7187824249268,16.7197322845459,16.7206859588623,16.7216281890869,16.7225799560547,16.7235298156738,16.7244853973389,16.7254333496094,16.7263889312744,16.7273368835449,16.7282867431641,16.7292366027832,16.730188369751,16.7311382293701,16.7320899963379,16.733039855957,16.7339973449707,16.7349433898926,16.7358951568604,16.7368450164795,16.7377986907959,16.7387542724609,16.7397041320801,16.7406578063965,16.7416076660156,16.7425594329834,16.7435131072998,16.7444686889648,16.7454204559326,16.7463722229004,16.7473278045654,16.7482757568359,16.749231338501,16.7501850128174,16.7511367797852,16.7520923614502,16.7530479431152,16.753999710083,16.7549514770508,16.7559070587158,16.7568588256836,16.7578125,16.7587718963623,16.7597236633301,16.7606830596924,16.7616310119629,16.7625904083252,16.7635402679443,16.5007171630859,16.5016574859619,16.5025997161865,16.5035381317139,16.5044803619385,16.5054187774658,16.5063648223877,16.5073051452637,16.5082416534424,16.5091819763184,16.5101261138916,16.5110664367676,16.5120029449463,16.5129489898682,16.5138912200928,16.5148334503174,16.5157718658447,16.516716003418,16.5176601409912,16.5186004638672,16.5195446014404,16.5204887390137,16.5214309692383,16.522367477417,16.5233116149902,16.5242538452148,16.5251960754395,16.5261383056641,16.5270824432373,16.5280246734619,16.5289688110352,16.5299110412598,16.530855178833,16.5317974090576,16.5327415466309,16.5336856842041,16.5346298217773,16.5355739593506,16.5201816558838,16.4932594299316,16.4664268493652,16.4396800994873,16.4130191802979,16.3864459991455,16.359956741333,16.3335552215576,16.3072376251221,16.281005859375,16.2548561096191,16.2287921905518,16.2028121948242
16.4421863555908,16.4431095123291,16.4440212249756,16.444938659668,16.4458599090576,16.4467830657959,16.4477005004883,16.4486198425293,16.4495429992676,16.4504547119141,16.4513702392578,16.4522972106934,16.4532146453857,16.4541358947754,16.4550590515137,16.4559764862061,16.4568920135498,16.4578151702881,16.4587383270264,16.4596576690674,16.460578918457,16.4615001678467,16.4624195098877,16.4633369445801,16.4642601013184,16.465181350708,16.466100692749,16.4670257568359,16.467945098877,16.4688682556152,16.4697895050049,16.4707107543945,16.4716339111328,16.4725570678711,16.4734783172607,16.4744033813477,16.4753227233887,16.4762439727783,16.4771633148193,16.4780883789062,16.4790134429932,16.4799365997314,16.4808597564697,16.4817848205566,16.4827003479004,16.4836235046387,16.4845542907715,16.4854755401611,16.4863986968994,16.4873199462891,16.4882488250732,16.4891662597656,16.4900894165039,16.4910163879395,16.4919452667236,16.4928646087646,16.4937915802002,16.4947147369385,16.4956359863281,16.4965648651123,16.4974880218506,16.4984169006348,16.4993381500244,16.5002670288086,16.5011920928955,16.5021171569824,16.5030384063721,16.503963470459,16.5048923492432,16.5058193206787,16.506742477417,16.5076694488525,16.5085945129395,16.5095157623291,16.5104465484619,16.5113735198975,16.512300491333,16.5132236480713,16.5141525268555,16.5150833129883,16.5160026550293,16.5169334411621,16.5178623199463,16.5187892913818,16.5197162628174,16.5206451416016,16.5215721130371,16.5224952697754,16.5234203338623,16.5243511199951,16.5252838134766,16.5262069702148,16.5271396636963,16.5280647277832,16.5289936065674,16.5299186706543,16.5308513641357,16.5317783355713,16.5327072143555,16.5336360931396,16.5345649719238,16.5354919433594,16.5364208221436,16.5373554229736,16.5382843017578,16.5392093658447,16.5401420593262,16.5410747528076,16.5419979095459,16.5429286956787,16.5438632965088,16.5447902679443,16.5457210540771,16.5466480255127,16.5475807189941,16.5485076904297,16.5494384765625,16.5503730773926,16.5513038635254,16.5522327423096,16.5531635284424,16.5540981292725,16.5550231933594,16.5559577941895,16.5568885803223,16.5578231811523,16.5587520599365,16.5596828460693,16.560619354248,16.5615463256836,16.5624771118164,16.5634136199951,16.5643444061279,16.5652809143066,16.5662155151367,16.5671443939209,16.5680732727051,16.5690040588379,16.5699405670166,16.5708751678467,16.5718078613281,16.5727405548096,16.5736770629883,16.5746059417725,16.5755386352539,16.576473236084,16.5774078369141,16.5783405303955,16.5792770385742,16.5802135467529,16.5811424255371,16.5820770263672,16.5830135345459,16.583948135376,16.5848827362061,16.5858173370361,16.5867519378662,16.5876846313477,16.5886192321777,16.5895576477051,16.5904922485352,16.5914306640625,16.5923652648926,16.5932960510254,16.5942325592041,16.5951671600342,16.5961036682129,16.5970401763916,16.5979785919189,16.5989151000977,16.5998516082764,16.6007823944092,16.6017208099365,16.6026592254639,16.6035976409912,16.6045322418213,16.6054706573486,16.606409072876,16.6073398590088,16.346960067749,16.3478870391846,16.3488101959229,16.3497333526611,16.3506507873535,16.3515739440918,16.3524990081787,16.3534278869629,16.3543434143066,16.3552722930908,16.3561973571777,16.3571147918701,16.3580360412598,16.3589668273926,16.359884262085,16.3608131408691,16.3617362976074,16.3626651763916,16.3635883331299,16.3645076751709,16.3654365539551,16.3663635253906,16.3672847747803,16.3682041168213,16.3691310882568,16.370059967041,16.3709850311279,16.3719100952148,16.3728351593018,16.3737602233887,16.3746852874756,16.3756122589111,16.376537322998,16.3774642944336,16.3783893585205,16.3793163299561,16.380241394043,16.3811683654785,16.3820953369141,16.3830223083496,16.3839473724365,16.3848743438721,16.3858013153076,16.3867282867432,16.3876552581787,16.3885822296143,16.3895111083984,16.390438079834,16.3913650512695,16.3862800598145,16.3597927093506,16.3333911895752,16.3070735931396,16.2808418273926,16.2546939849854,16.228630065918,16.2026500701904
16.297306060791,16.2982063293457,16.299108505249,16.3000144958496,16.3009185791016,16.3018188476562,16.3027229309082,16.3036270141602,16.3045291900635,16.3054313659668,16.3063335418701,16.3072414398193,16.3081436157227,16.309045791626,16.3099498748779,16.3108558654785,16.3117618560791,16.3126602172852,16.313570022583,16.3144721984863,16.3153743743896,16.3162784576416,16.3171844482422,16.3180923461914,16.3189964294434,16.3199005126953,16.3208103179932,16.3217067718506,16.3226165771484,16.3235168457031,16.324426651001,16.3253345489502,16.3262348175049,16.3271484375,16.3280448913574,16.328950881958,16.3298587799072,16.3307666778564,16.331672668457,16.3325805664062,16.3334865570068,16.3343925476074,16.335298538208,16.3362045288086,16.3371162414551,16.3380184173584,16.3389263153076,16.3398380279541,16.3407402038574,16.3416481018066,16.3425579071045,16.3434619903564,16.3443717956543,16.3452777862549,16.34619140625,16.3470916748047,16.3479995727539,16.3489112854004,16.3498229980469,16.3507270812988,16.3516368865967,16.3525466918945,16.3534507751465,16.3543643951416,16.3552703857422,16.3561840057373,16.3570880889893,16.3579998016357,16.3589096069336,16.3598194122314,16.3607273101807,16.3616352081299,16.3625469207764,16.3634548187256,16.3643684387207,16.3652782440186,16.3661861419678,16.367094039917,16.3680076599121,16.3689155578613,16.3698291778564,16.3707389831543,16.3716487884521,16.37255859375,16.3734722137451,16.3743801116943,16.3752937316895,16.3762035369873,16.3771133422852,16.3780250549316,16.3789386749268,16.3798484802246,16.3807582855225,16.3816738128662,16.3825836181641,16.3835010528564,16.384407043457,16.3853206634521,16.3862323760986,16.3871459960938,16.3880577087402,16.388973236084,16.3898849487305,16.3908004760742,16.3917102813721,16.3926219940186,16.3935375213623,16.3944530487061,16.3953647613525,16.396276473999,16.3971920013428,16.3981037139893,16.3990173339844,16.3999309539795,16.4008445739746,16.4017601013184,16.4026737213135,16.4035911560059,16.4045009613037,16.4054183959961,16.4063320159912,16.407247543335,16.4081592559814,16.4090766906738,16.4099941253662,16.4109058380127,16.4118213653564,16.4127349853516,16.4136524200439,16.4145660400391,16.4154834747314,16.4164009094238,16.4173145294189,16.4182300567627,16.4191474914551,16.4200611114502,16.4209823608398,16.4218978881836,16.4228115081787,16.4237270355225,16.4246463775635,16.4255619049072,16.426477432251,16.4273986816406,16.4283103942871,16.4292316436768,16.4301452636719,16.4310626983643,16.4319801330566,16.4328994750977,16.4338150024414,16.4347362518311,16.4356517791748,16.4365692138672,16.4374847412109,16.4384059906006,16.4393253326416,16.4402446746826,16.4411640167236,16.4420833587646,16.443000793457,16.4439182281494,16.4448375701904,16.4457569122314,16.4466743469238,16.4475955963135,16.4485149383545,16.4494342803955,16.4503517150879,16.4512672424316,16.4521923065186,16.4531116485596,16.4540309906006,16.1960411071777,16.196949005127,16.1978549957275,16.1987609863281,16.1996688842773,16.2005767822266,16.2014789581299,16.2023849487305,16.2032928466797,16.2041969299316,16.2051048278809,16.2060089111328,16.206916809082,16.2078227996826,16.2087326049805,16.2096385955811,16.2105484008789,16.2114505767822,16.2123584747314,16.2132701873779,16.2141742706299,16.2150859832764,16.2159938812256,16.2168960571289,16.2178077697754,16.218713760376,16.2196216583252,16.220531463623,16.221435546875,16.2223491668701,16.2232570648193,16.2241668701172,16.2250747680664,16.2259826660156,16.2268924713135,16.2278022766113,16.2287101745605,16.2296199798584,16.2305297851562,16.2314395904541,16.232349395752,16.2332592010498,16.2341690063477,16.2350788116455,16.2359886169434,16.2368984222412,16.2378082275391,16.2387199401855,16.2396297454834,16.2405395507812,16.2414512634277,16.2423610687256,16.2432727813721,16.2441825866699,16.2450942993164,16.2460041046143,16.2469158172607,16.2478275299072,16.2487392425537,16.2496509552002,16.2505626678467,16.2284679412842,16.2024879455566
