11.5403413772583,11.5506725311279,11.5610218048096,11.5713911056519,11.5817775726318,11.5921831130981,11.6026077270508,11.6130504608154,11.6235122680664,11.6339931488037,11.6444931030273,11.6550121307373,11.6655492782593,11.6761064529419,11.6866827011108,11.6972770690918,11.7078914642334,11.7185249328613,11.7291784286499,11.7398509979248,11.750542640686,11.7612533569336,11.7719841003418,11.7827348709106,11.7935047149658,11.8042945861816,11.8151044845581,11.8259334564209,11.8367824554443,11.8476524353027,11.8585414886475,11.8694505691528,11.8803796768188,11.8913288116455,11.9022989273071,11.9132881164551,11.924298286438,11.9353294372559,11.9463796615601,11.9574518203735,11.9685430526733,11.9796562194824,11.9907894134521,12.0019435882568,12.0131177902222,12.0243139266968,12.035530090332,12.0467672348022,12.052619934082,12.0477437973022,12.0428705215454,12.0380020141602,12.0331373214722,12.0282764434814,12.023419380188,12.0185661315918,12.0137176513672,12.0088720321655,12.0040311813354,11.9991931915283,11.9943599700928,11.9895305633545,11.9847049713135,11.9798831939697,11.9750652313232,11.970251083374,11.9654407501221,11.9606342315674,11.9558324813843,11.9510335922241,8.41852855682373,8.40176868438721,8.38507461547852,8.36844730377197,8.35188579559326,8.33538913726807,8.3189582824707,8.30259132385254,8.28628921508789,8.27005100250244,8.25387573242188,8.23776435852051,8.22171592712402,8.20572948455811,8.18980407714844,8.17394161224365,8.15814018249512,8.14239978790283,8.13236808776855,8.12772655487061,8.12308979034424,8.11845874786377,8.1138334274292,8.10921192169189,8.1045970916748,8.0999870300293,8.09538173675537,8.09078216552734,8.08931636810303,8.1119909286499,8.13479232788086,8.15772247314453,8.18078231811523,8.20397281646729,8.22729587554932,8.25075149536133,8.27434062957764,8.29806518554688,8.32192707061768,8.34592628479004,8.37006378173828,8.39434146881104,8.41876029968262,8.44332218170166,8.46802711486816,8.49287700653076,8.51787376403809,8.54301834106445,8.56831073760986,8.59375381469727,8.61934852600098,8.64509677886963,8.67099857330322,8.69705677032471,8.72327136993408,8.7496452331543,8.77617835998535,8.8028736114502,8.82973098754883,8.8567533493042,8.88394165039062,8.91129684448242,8.93882179260254,8.96651649475098,8.99438381195068,9.02242469787598,9.05064105987549,9.07903480529785,9.10760688781738,9.13635921478271,9.16529369354248,9.19441223144531,9.22371673583984,9.25320816040039,9.28288841247559,9.31276035308838,9.34282493591309,9.37308406829834,9.40353965759277,9.43419456481934,9.46504974365234,9.49610710144043,9.52736949920654,9.558837890625,9.59051513671875,9.62240219116211,9.65450286865234,9.68681812286377,9.71935081481934,9.75210285186768,9.78507614135742,9.81827259063721,9.8516960144043,9.88534736633301,9.91922855377197,9.95334434509277,9.98769474029541,10.0222826004028,10.0571117401123,10.0921831130981,10.1275005340576,10.1630659103394,10.1988821029663,10.2349519729614,10.2712774276733,10.3078622817993,10.3447074890137,10.381817817688,10.4191961288452,10.4568433761597,10.4947643280029,10.5329608917236,10.571436882019,10.6101942062378,10.6492376327515,10.6885690689087,10.7281923294067,10.7681102752686,10.8083267211914,10.8488445281982,10.8896675109863,10.9307985305786,10.9722414016724,11.0139932632446,11.0560607910156,11.0984516143799,11.1411685943604,11.18421459198,11.2275953292847,11.2713146209717,11.3153743743896,11.3597822189331,11.4045457839966,11.4496631622314,11.4951400756836,11.5409784317017,11.5871849060059,11.6337623596191,11.6807155609131,11.7280492782593,11.7757692337036,11.823878288269,11.8723821640015,11.9212837219238,11.9705972671509,12.020320892334,12.0704593658447,12.1210174560547,12.1720008850098,12.2234153747559,12.2752656936646,12.3275585174561,12.380298614502,12.4334917068481,12.4871435165405,12.5412607192993,12.5958480834961,12.6509141921997,12.7064628601074,12.7625017166138,12.819037437439,12.8760766983032,12.9336242675781,12.9916896820068,13.0502786636353,13.1093988418579,13.1690578460693,13.2292633056641,13.2900104522705,13.3513174057007,13.4131937026978,13.4756450653076,13.5386810302734,13.6023092269897,13.6665372848511,13.7313661575317,13.7968330383301,13.8629274368286,13.9296569824219,13.9970331192017,14.0650634765625,14.1337585449219,14.2031288146973,14.2731819152832,14.3439302444458,14.4153833389282,14.4875526428223,14.5604476928711,14.6340789794922
11.5080585479736,11.5183324813843,11.5286245346069,11.5389347076416,11.5492639541626,11.5596113204956,11.5699768066406,11.580361366272,11.5907640457153,11.601185798645,11.611626625061,11.6220855712891,11.6325645446777,11.6430616378784,11.6535778045654,11.6641130447388,11.6746673583984,11.6852407455444,11.6958332061768,11.7064447402954,11.7170753479004,11.727725982666,11.738395690918,11.7490844726562,11.7597932815552,11.7705211639404,11.7812690734863,11.7920360565186,11.8028240203857,11.8136301040649,11.8244571685791,11.8353033065796,11.846170425415,11.8570566177368,11.8679628372192,11.8788890838623,11.8898363113403,11.9008026123047,11.911789894104,11.922797203064,11.9338245391846,11.9448728561401,11.9559421539307,11.9670305252075,11.9781408309937,11.9892711639404,11.9961957931519,11.9913644790649,11.9865369796753,11.9817142486572,11.9768943786621,11.9720792770386,11.967267036438,11.962459564209,11.9576559066772,11.9528560638428,11.9480590820312,11.9432668685913,11.9384784698486,11.9336938858032,11.9289131164551,11.9241361618042,11.9193630218506,11.9145936965942,11.9098281860352,11.9050664901733,11.9003086090088,11.8955545425415,11.8908033370972,11.8860569000244,8.40911102294922,8.39238834381104,8.375732421875,8.35914134979248,8.34261703491211,8.32615661621094,8.3097620010376,8.29343223571777,8.27716541290283,8.26096248626709,8.24482345581055,8.22874736785889,8.21273326873779,8.19678115844727,8.18089199066162,8.16506385803223,8.14929580688477,8.13710021972656,8.13245296478271,8.12781143188477,8.1231746673584,8.11854362487793,8.11391735076904,8.10929679870605,8.10468101501465,8.10007095336914,8.09546566009521,8.09086608886719,8.08927154541016,8.11194610595703,8.13474750518799,8.15767765045166,8.18073654174805,8.2039270401001,8.22724914550781,8.25070476531982,8.27429389953613,8.29801845550537,8.32187938690186,8.34587860107422,8.37001609802246,8.3942928314209,8.41871166229248,8.44327354431152,8.46797847747803,8.49282836914062,8.51782417297363,8.54296779632568,8.56826114654541,8.5937032699585,8.61929798126221,8.64504528045654,8.67094707489014,8.6970043182373,8.72321891784668,8.74959182739258,8.77612495422363,8.80282020568848,8.82967758178711,8.85669898986816,8.88388729095459,8.91124248504639,8.93876647949219,8.96646118164062,8.99432754516602,9.02236843109131,9.05058479309082,9.07897758483887,9.1075496673584,9.13630199432373,9.16523551940918,9.19435405731201,9.22365760803223,9.25314903259277,9.28282928466797,9.31270027160645,9.34276485443115,9.37302303314209,9.40347862243652,9.43413352966309,9.46498775482178,9.49604511260986,9.52730655670166,9.55877494812012,9.59045124053955,9.62233829498291,9.65443897247314,9.68675422668457,9.71928596496582,9.75203704833984,9.78500938415527,9.81820583343506,9.85162830352783,9.88527965545654,9.91916084289551,9.95327568054199,9.98762512207031,10.0222139358521,10.0570411682129,10.0921125411987,10.1274299621582,10.1629943847656,10.1988105773926,10.2348794937134,10.271203994751,10.3077878952026,10.3446340560913,10.3817434310913,10.4191207885742,10.4567680358887,10.4946880340576,10.532883644104,10.5713586807251,10.6101169586182,10.6491594314575,10.6884899139404,10.7281122207642,10.768030166626,10.8082456588745,10.848762512207,10.8895845413208,10.9307155609131,10.9721584320068,11.013916015625,11.0559911727905,11.0983810424805,11.1410970687866,11.1841430664062,11.2275238037109,11.2712411880493,11.3153009414673,11.3597068786621,11.4044618606567,11.4495792388916,11.4950532913208,11.5408916473389,11.5870962142944,11.6336717605591,11.6806240081787,11.7279567718506,11.775673866272,11.8237829208374,11.8722858428955,11.9211883544922,11.9705018997192,12.020224571228,12.0703620910645,12.1209192276001,12.1719017028809,12.2233152389526,12.2751655578613,12.3274564743042,12.3801956176758,12.4333877563477,12.4870386123657,12.5411548614502,12.595742225647,12.6508073806763,12.7063550949097,12.7623929977417,12.8189277648926,12.8759651184082,12.9335126876831,12.9915771484375,13.0501651763916,13.1092834472656,13.1689405441284,13.2291460037231,13.289891242981,13.3511981964111,13.4130716323853,13.4755229949951,13.5385570526123,13.6021842956543,13.6664123535156,13.7312421798706,13.7967081069946,13.8628005981445,13.9295291900635,13.9969034194946,14.0649328231812,14.1336269378662,14.202995300293,14.2730484008789,14.3437948226929,14.415246963501,14.4874143600464,14.5603075027466,14.6339378356934
11.4759569168091,11.4861736297607,11.4964084625244,11.5066604614258,11.5169315338135,11.5272207260132,11.5375289916992,11.5478553771973,11.5581998825073,11.5685634613037,11.5789451599121,11.5893459320068,11.5997648239136,11.6102027893066,11.620659828186,11.6311359405518,11.6416301727295,11.6521434783936,11.6626768112183,11.673228263855,11.683798789978,11.6943883895874,11.7049970626831,11.7156257629395,11.7262735366821,11.7369403839111,11.7476272583008,11.7583332061768,11.7690582275391,11.7798042297363,11.7905683517456,11.8013525009155,11.8121566772461,11.8229808807373,11.8338241577148,11.8446884155273,11.8555717468262,11.86647605896,11.8773994445801,11.8883438110352,11.8993072509766,11.9102916717529,11.9212961196899,11.9323215484619,11.94029712677,11.935510635376,11.9307289123535,11.925950050354,11.9211750030518,11.9164047241211,11.9116373062134,11.9068746566772,11.9021148681641,11.8973598480225,11.8926076889038,11.8878593444824,11.8831157684326,11.8783750534058,11.8736381530762,11.8689050674438,11.8641767501831,11.8594512939453,11.8547296524048,11.8500118255615,11.8452978134155,11.8405876159668,11.835880279541,11.8311777114868,11.8264789581299,11.8217830657959,8.39971542358398,8.38302993774414,8.36641025543213,8.34985637664795,8.3333683013916,8.31694507598877,8.30058670043945,8.28429222106934,8.26806163787842,8.25189399719238,8.23579025268555,8.21974945068359,8.20377063751221,8.18785381317139,8.17199802398682,8.15620422363281,8.14183807373047,8.13718509674072,8.13253784179688,8.12789630889893,8.12325954437256,8.11862850189209,8.1140022277832,8.10938167572021,8.10476589202881,8.10015487670898,8.09555053710938,8.09095001220703,8.08922672271729,8.11190032958984,8.1347017288208,8.15763187408447,8.18069076538086,8.20388126373291,8.22720336914062,8.25065803527832,8.27424716949463,8.29797172546387,8.32183265686035,8.3458309173584,8.36996746063232,8.39424514770508,8.41866302490234,8.44322395324707,8.46792888641357,8.49277877807617,8.51777458190918,8.54291820526123,8.56821060180664,8.59365272521973,8.61924743652344,8.64499378204346,8.67089557647705,8.69695281982422,8.72316646575928,8.74953937530518,8.77607154846191,8.80276584625244,8.82962322235107,8.85664463043213,8.88383197784424,8.91118717193604,8.93871116638184,8.96640586853027,8.99427223205566,9.02231216430664,9.05052757263184,9.07892036437988,9.10749244689941,9.13624382019043,9.16517734527588,9.19429588317871,9.22359848022461,9.25308990478516,9.28276920318604,9.31264019012451,9.3427038192749,9.37296295166016,9.40341758728027,9.43407154083252,9.46492576599121,9.49598217010498,9.52724361419678,9.55871105194092,9.59038829803467,9.62227439880371,9.65437412261963,9.68668937683105,9.71922016143799,9.75197124481201,9.78494358062744,9.81813907623291,9.85156154632568,9.88521194458008,9.91909313201904,9.95320701599121,9.98755645751953,10.022144317627,10.0569715499878,10.0920419692993,10.1273584365845,10.1629228591919,10.1987380981445,10.2348070144653,10.2711315155029,10.3077144622803,10.3445596694946,10.3816690444946,10.4190454483032,10.4566917419434,10.4946117401123,10.5328073501587,10.5712814331055,10.6100387573242,10.6490802764893,10.6884107589722,10.7280330657959,10.7679500579834,10.8081645965576,10.8486814498901,10.8895025253296,10.9306325912476,10.972074508667,11.0138320922852,11.055908203125,11.0983076095581,11.1410255432129,11.1840715408325,11.2274513244629,11.2711687088013,11.3152275085449,11.3596324920654,11.4043874740601,11.4494962692261,11.494969367981,11.5408058166504,11.587010383606,11.6335859298706,11.6805372238159,11.7278680801392,11.7755851745605,11.8236923217773,11.8721942901611,11.9210948944092,11.970404624939,12.0201263427734,12.0702638626099,12.1208209991455,12.1718034744263,12.2232160568237,12.2750644683838,12.3273553848267,12.3800935745239,12.4332847595215,12.4869346618652,12.5410499572754,12.5956363677979,12.6506996154785,12.7062473297119,12.7622842788696,12.8188180923462,12.8758544921875,12.9334011077881,12.9914646148682,13.0500507354736,13.1091690063477,13.1688241958618,13.2290277481079,13.2897729873657,13.3510780334473,13.4129505157471,13.4753999710083,13.5384340286255,13.6020603179932,13.6662864685059,13.7311182022095,13.7965822219849,13.8626737594604,13.9294013977051,13.9967746734619,14.0648031234741,14.1334953308105,14.202862739563,14.2729139328003,14.3436594009399,14.4151096343994,14.4872751235962,14.5601673126221,14.6337966918945
11.4440336227417,11.4541931152344,11.4643707275391,11.4745664596558,11.4847803115845,11.4950122833252,11.5052633285522,11.515531539917,11.5258188247681,11.5361232757568,11.5464477539062,11.5567893981934,11.5671501159668,11.5775299072266,11.5879278182983,11.5983448028564,11.6087799072266,11.619234085083,11.6297073364258,11.6401996612549,11.650710105896,11.6612405776978,11.6717891693115,11.6823577880859,11.6929445266724,11.7035512924194,11.7141771316528,11.7248220443726,11.7354860305786,11.7461700439453,11.7568731307983,11.767596244812,11.778338432312,11.7891006469727,11.7998828887939,11.8106842041016,11.8215045928955,11.8323459625244,11.843207359314,11.8540878295898,11.8649892807007,11.8759098052979,11.8849172592163,11.8801746368408,11.8754367828369,11.8707027435303,11.8659725189209,11.8612451553345,11.8565225601196,11.8518028259277,11.8470878601074,11.8423757553101,11.8376684188843,11.8329639434814,11.8282632827759,11.8235664367676,11.8188734054565,11.8141841888428,11.8094987869263,11.804817199707,11.8001384735107,11.795464515686,11.7907934188843,11.7861261367798,11.7814626693726,11.7768030166626,11.7721471786499,11.7674951553345,11.762845993042,8.40705490112305,8.39033985137939,8.37369155883789,8.35710906982422,8.34059238433838,8.32414054870605,8.30775356292725,8.29143142700195,8.27517223358154,8.25897789001465,8.24284648895264,8.22677707672119,8.21077156066895,8.19482707977295,8.17894458770752,8.16312408447266,8.14736461639404,8.14192295074463,8.1372709274292,8.13262271881104,8.12798118591309,8.12334442138672,8.11871242523193,8.11408615112305,8.10946559906006,8.10484981536865,8.10023975372314,8.09563446044922,8.09103488922119,8.08918190002441,8.11185550689697,8.13465690612793,8.15758609771729,8.18064498901367,8.20383548736572,8.22715663909912,8.25061130523682,8.27420043945312,8.29792404174805,8.32178497314453,8.34578323364258,8.3699197769165,8.39419651031494,8.41861534118652,8.44317531585693,8.46788024902344,8.49272918701172,8.51772499084473,8.54286861419678,8.56816005706787,8.59360218048096,8.61919689178467,8.64494323730469,8.67084407806396,8.69690132141113,8.72311496734619,8.74948692321777,8.77601909637451,8.80271244049072,8.82956981658936,8.85659122467041,8.8837776184082,8.9111328125,8.93865585327148,8.96634960174561,8.994215965271,9.02225589752197,9.05047130584717,9.07886409759521,9.10743427276611,9.13618659973145,9.16512012481689,9.19423675537109,9.22354030609131,9.25303077697754,9.28271007537842,9.31258010864258,9.34264373779297,9.37290191650391,9.40335655212402,9.43401050567627,9.46486377716064,9.49592018127441,9.52718067169189,9.55864810943604,9.59032440185547,9.62221050262451,9.65431022644043,9.68662452697754,9.71915531158447,9.75190544128418,9.78487777709961,9.81807327270508,9.85149478912354,9.88514423370361,9.91902446746826,9.95313835144043,9.98748779296875,10.0220746994019,10.0569019317627,10.0919723510742,10.1272878646851,10.1628513336182,10.1986656188965,10.234733581543,10.2710580825806,10.3076410293579,10.3444852828979,10.3815937042236,10.4189701080322,10.4566164016724,10.494535446167,10.5327301025391,10.5712041854858,10.6099605560303,10.6490020751953,10.6883316040039,10.7279529571533,10.7678689956665,10.8080835342407,10.8485994338989,10.8894205093384,10.930549621582,10.9719915390015,11.0137481689453,11.0558242797852,11.0982227325439,11.1409473419189,11.1839990615845,11.2273788452148,11.2710952758789,11.3151540756226,11.3595581054688,11.4043130874634,11.4494209289551,11.4948873519897,11.5407209396362,11.5869245529175,11.6334991455078,11.6804494857788,11.7277803421021,11.7754964828491,11.8236026763916,11.8721036911011,11.9210042953491,11.9703092575073,12.0200281143188,12.0701637268066,12.120719909668,12.1717014312744,12.2231140136719,12.2749624252319,12.3272523880005,12.3799896240234,12.4331798553467,12.4868297576904,12.5409440994263,12.5955305099487,12.6505928039551,12.7061395645142,12.7621755599976,12.8187074661255,12.8757438659668,12.9332895278931,12.9913511276245,13.04993724823,13.1090536117554,13.1687088012695,13.2289094924927,13.2896537780762,13.3509578704834,13.4128293991089,13.4752779006958,13.5383100509644,13.6019353866577,13.6661615371704,13.730993270874,13.7964563369751,13.8625469207764,13.9292736053467,13.9966449737549,14.0646724700928,14.1333637237549,14.2027292251587,14.2727794647217,14.3435230255127,14.4149723052979,14.4871368408203,14.5600280761719,14.6336555480957
11.4122877120972,11.4223909378052,11.4325122833252,11.4426507949829,11.452808380127,11.4629831314087,11.4731769561768,11.4833879470825,11.4936180114746,11.5038652420044,11.5141315460205,11.5244159698486,11.5347185134888,11.5450391769409,11.5553789138794,11.5657377243042,11.576114654541,11.5865097045898,11.596923828125,11.6073570251465,11.61780834198,11.6282787322998,11.6387691497803,11.6492776870728,11.6598043441772,11.6703510284424,11.6809167861938,11.6915006637573,11.7021055221558,11.7127275466919,11.723370552063,11.7340316772461,11.7447137832642,11.7554140090942,11.766134262085,11.776873588562,11.7876329421997,11.798412322998,11.8092107772827,11.820029258728,11.8300476074219,11.8253498077393,11.8206558227539,11.8159646987915,11.8112783432007,11.8065948486328,11.8019151687622,11.7972393035889,11.7925672531128,11.7878980636597,11.7832336425781,11.7785730361938,11.7739152908325,11.7692613601685,11.7646112442017,11.7599649429321,11.7553224563599,11.7506837844849,11.7460479736328,11.741415977478,11.7367877960205,11.7321634292603,11.7275428771973,11.7229261398315,11.7183122634888,11.7137022018433,11.709095954895,11.704493522644,11.6998949050903,8.39766311645508,8.38098526000977,8.3643741607666,8.34782886505127,8.33134841918945,8.31493282318115,8.29858207702637,8.2822961807251,8.26607322692871,8.24991416931152,8.2338171005249,8.21778392791748,8.20181274414062,8.18590354919434,8.1700553894043,8.15426921844482,8.14666652679443,8.14200878143311,8.13735580444336,8.13270854949951,8.12806606292725,8.12342929840088,8.11879730224609,8.11417102813721,8.10955047607422,8.10493469238281,8.10032367706299,8.09571838378906,8.09111881256104,8.08913707733154,8.1118106842041,8.13461112976074,8.1575403213501,8.18059921264648,8.20378875732422,8.22711086273193,8.25056457519531,8.27415370941162,8.29787731170654,8.32173728942871,8.34573554992676,8.36987209320068,8.39414882659912,8.41856670379639,8.4431266784668,8.46783065795898,8.49267959594727,8.51767539978027,8.54281806945801,8.56811046600342,8.5935525894165,8.61914539337158,8.6448917388916,8.67079257965088,8.69684886932373,8.72306251525879,8.74943447113037,8.77596664428711,8.80265998840332,8.82951641082764,8.85653686523438,8.88372325897217,8.91107749938965,8.93860054016113,8.96629428863525,8.99416065216064,9.0221996307373,9.0504150390625,9.07880687713623,9.10737705230713,9.13612842559814,9.16506195068359,9.19417858123779,9.22348117828369,9.25297164916992,9.28264999389648,9.31252098083496,9.34258365631104,9.37284088134766,9.40329551696777,9.4339485168457,9.46480178833008,9.49585819244385,9.52711868286133,9.55858516693115,9.59026050567627,9.62214660644531,9.65424537658691,9.68655872344971,9.71908950805664,9.75183963775635,9.78481101989746,9.81800651550293,9.85142707824707,9.88507652282715,9.9189567565918,9.95306968688965,9.98741912841797,10.0220050811768,10.0568323135376,10.0919017791748,10.1272172927856,10.1627798080444,10.1985940933228,10.2346611022949,10.2709846496582,10.3075675964355,10.3444108963013,10.381519317627,10.4188947677612,10.4565401077271,10.4944591522217,10.5326528549194,10.5711269378662,10.6098823547363,10.6489229202271,10.6882524490356,10.7278728485107,10.7677888870239,10.8080024719238,10.848518371582,10.8893384933472,10.9304666519165,10.9719076156616,11.0136642456055,11.055739402771,11.0981369018555,11.1408615112305,11.1839160919189,11.2273044586182,11.2710227966309,11.3150806427002,11.3594846725464,11.4042377471924,11.4493455886841,11.4948120117188,11.5406408309937,11.586838722229,11.633412361145,11.6803617477417,11.7276926040649,11.7754077911377,11.8235139846802,11.8720140457153,11.9209127426147,11.9702177047729,12.0199308395386,12.0700645446777,12.1206197738647,12.1716003417969,12.2230110168457,12.2748584747314,12.3271484375,12.3798847198486,12.4330739974976,12.486722946167,12.5408363342285,12.5954217910767,12.650484085083,12.7060289382935,12.7620649337769,12.8185968399048,12.8756313323975,12.9331760406494,12.9912376403809,13.049822807312,13.1089391708374,13.1685924530029,13.2287921905518,13.2895345687866,13.3508377075195,13.4127082824707,13.4751558303833,13.5381870269775,13.6018104553223,13.6660356521606,13.7308692932129,13.7963314056396,13.8624200820923,13.929144859314,13.9965162277222,14.0645418167114,14.1332321166992,14.2025966644287,14.2726449966431,14.3433876037598,14.4148349761963,14.4869985580444,14.5598878860474,14.6335144042969
11.3807172775269,11.3907642364502,11.4008302688599,11.4109125137329,11.4210138320923,11.4311323165894,11.4412689208984,11.4514236450195,11.4615955352783,11.4717864990234,11.4819955825806,11.4922227859497,11.5024681091309,11.512731552124,11.5230131149292,11.5333137512207,11.5436325073242,11.5539693832397,11.5643253326416,11.5746994018555,11.5850925445557,11.5955038070679,11.6059341430664,11.6163835525513,11.6268520355225,11.6373386383057,11.6478443145752,11.6583690643311,11.6689128875732,11.6794757843018,11.6900577545166,11.7006587982178,11.7112798690796,11.7219190597534,11.7325782775879,11.7432565689087,11.7539548873901,11.7646722793579,11.7754096984863,11.7710285186768,11.7663774490356,11.7617292404175,11.7570858001709,11.7524452209473,11.7478084564209,11.7431755065918,11.7385454177856,11.7339200973511,11.7292976379395,11.7246789932251,11.720064163208,11.7154531478882,11.7108449935913,11.706241607666,11.7016410827637,11.6970443725586,11.6924514770508,11.6878614425659,11.6832761764526,11.678692817688,11.6741142272949,11.6695394515991,11.6649675369263,11.6603994369507,11.6558351516724,11.6512746810913,11.6467170715332,11.6421632766724,8.40499877929688,8.38829231262207,8.3716516494751,8.35507774353027,8.33856868743896,8.32212448120117,8.30574607849121,8.28943157196045,8.27318096160889,8.25699329376221,8.24086952209473,8.22480869293213,8.2088098526001,8.19287395477295,8.17699909210205,8.1611852645874,8.15141487121582,8.14675140380859,8.14209365844727,8.13744068145752,8.13279342651367,8.12815093994141,8.12351417541504,8.11888217926025,8.11425590515137,8.10963439941406,8.10501861572266,8.10040855407715,8.09580230712891,8.09120273590088,8.08909320831299,8.11176586151123,8.13456630706787,8.15749549865723,8.1805534362793,8.20374298095703,8.22706413269043,8.25051879882812,8.27410697937012,8.29783058166504,8.32169055938721,8.34568786621094,8.36982440948486,8.39410018920898,8.41851806640625,8.44307804107666,8.46778202056885,8.49263095855713,8.51762580871582,8.54276847839355,8.56805992126465,8.59350204467773,8.61909484863281,8.64484119415283,8.67074108123779,8.69679737091064,8.7230110168457,8.74938201904297,8.77591419219971,8.8026065826416,8.82946300506592,8.85648250579834,8.88366889953613,8.9110221862793,8.93854522705078,8.9662389755249,8.99410438537598,9.02214336395264,9.05035781860352,9.07874965667725,9.10731983184814,9.13607120513916,9.16500377655029,9.19412040710449,9.22342205047607,9.25291156768799,9.28259086608887,9.31246089935303,9.3425235748291,9.37278079986572,9.40323448181152,9.43388748168945,9.46473979949951,9.49579524993896,9.52705574035645,9.55852222442627,9.59019660949707,9.62208271026611,9.65418148040771,9.68649387359619,9.71902465820312,9.75177383422852,9.78474521636963,9.81793975830078,9.85136032104492,9.88500881195068,9.91888904571533,9.95300102233887,9.98734951019287,10.0219354629517,10.0567617416382,10.0918312072754,10.1271457672119,10.1627082824707,10.198522567749,10.2345886230469,10.2709121704102,10.3074932098389,10.3443365097046,10.3814449310303,10.4188194274902,10.4564647674561,10.4943828582764,10.5325765609741,10.5710496902466,10.6098041534424,10.6488447189331,10.6881732940674,10.7277936935425,10.7677087783813,10.8079214096069,10.8484363555908,10.889256477356,10.9303846359253,10.9718246459961,11.0135803222656,11.0556545257568,11.0980520248413,11.140775680542,11.1838293075562,11.2272176742554,11.2709436416626,11.3150072097778,11.3594102859497,11.4041633605957,11.4492702484131,11.4947357177734,11.540563583374,11.5867586135864,11.6333255767822,11.6802749633789,11.7276048660278,11.7753190994263,11.8234243392944,11.8719234466553,11.9208221435547,11.9701251983643,12.0198383331299,12.0699663162231,12.1205186843872,12.171498298645,12.2229089736938,12.2747554779053,12.3270444869995,12.3797798156738,12.4329681396484,12.4866161346436,12.5407295227051,12.5953130722046,12.6503744125366,12.7059183120728,12.7619533538818,12.8184843063354,12.8755178451538,12.9330615997314,12.9911222457886,13.0497064590454,13.1088218688965,13.1684741973877,13.2286729812622,13.2894163131714,13.3507175445557,13.4125871658325,13.4750337600708,13.5380640029907,13.6016864776611,13.6659097671509,13.7307443618774,13.7962055206299,13.8622932434082,13.9290170669556,13.9963865280151,14.0644111633301,14.1331005096436,14.2024631500244,14.2725105285645,14.3432521820068,14.414698600769,14.4868602752686,14.5597476959229,14.633373260498
11.3493213653564,11.3593130111694,11.3693227767944,11.3793497085571,11.3893947601318,11.3994569778442,11.409538269043,11.4196357727051,11.4297523498535,11.439887046814,11.4500389099121,11.4602088928223,11.4703969955444,11.4806041717529,11.4908285140991,11.5010709762573,11.5113325119019,11.5216112136841,11.5319089889526,11.5422248840332,11.5525598526001,11.562912940979,11.5732851028442,11.5836753845215,11.5940847396851,11.6045122146606,11.6149587631226,11.6254243850708,11.6359090805054,11.646411895752,11.6569337844849,11.6674747467041,11.678035736084,11.6886148452759,11.6992130279541,11.709831237793,11.7204685211182,11.7172040939331,11.7125949859619,11.707989692688,11.7033882141113,11.6987895965576,11.6941957473755,11.6896047592163,11.6850175857544,11.6804332733154,11.675853729248,11.6712770462036,11.6667041778564,11.6621341705322,11.6575689315796,11.6530065536499,11.6484479904175,11.643892288208,11.6393413543701,11.6347932815552,11.6302490234375,11.6257076263428,11.6211709976196,11.6166372299194,11.6121063232422,11.6075801849365,11.6030569076538,11.5985374450684,11.5940208435059,11.5895080566406,11.5849990844727,11.580493927002,8.39561176300049,8.37894248962402,8.36233901977539,8.34580135345459,8.32932949066162,8.31292152404785,8.29657936096191,8.28030014038086,8.26408576965332,8.24793434143066,8.23184585571289,8.21581935882568,8.19985580444336,8.1839542388916,8.16811370849609,8.15616989135742,8.1515007019043,8.14683723449707,8.14217853546143,8.13752555847168,8.13287830352783,8.12823581695557,8.12359809875488,8.11896705627441,8.11433982849121,8.10971927642822,8.10510349273682,8.10049247741699,8.09588718414307,8.09128665924072,8.08904838562012,8.11172103881836,8.13452053070068,8.15744972229004,8.18050765991211,8.20369720458984,8.22701835632324,8.25047206878662,8.27406024932861,8.29778289794922,8.32164287567139,8.34564018249512,8.36977577209473,8.39405250549316,8.41846942901611,8.44302940368652,8.46773338317871,8.49258136749268,8.51757621765137,8.5427188873291,8.56800937652588,8.59345149993896,8.61904430389404,8.64478969573975,8.67068958282471,8.69674587249756,8.7229585647583,8.74932956695557,8.77586078643799,8.8025541305542,8.8294095993042,8.85642910003662,8.88361549377441,8.91096878051758,8.93849086761475,8.96618366241455,8.99404811859131,9.02208709716797,9.05030155181885,9.07869243621826,9.10726261138916,9.13601303100586,9.16494560241699,9.19406223297119,9.22336387634277,9.25285243988037,9.28253173828125,9.31240081787109,9.34246253967285,9.37271976470947,9.40317344665527,9.43382549285889,9.46467781066895,9.4957332611084,9.52699279785156,9.55845928192139,9.59013366699219,9.62201881408691,9.6541166305542,9.68642997741699,9.71895885467529,9.75170803070068,9.78467845916748,9.81787300109863,9.85129356384277,9.88494205474854,9.91882133483887,9.9529333114624,9.98728084564209,10.0218658447266,10.0566921234131,10.091760635376,10.1270751953125,10.1626377105713,10.198450088501,10.2345161437988,10.2708387374878,10.3074197769165,10.3442630767822,10.3813695907593,10.4187440872192,10.4563884735107,10.4943056106567,10.5324993133545,10.5709714889526,10.6097259521484,10.6487665176392,10.6880941390991,10.7277135848999,10.7676286697388,10.8078413009644,10.8483552932739,10.8891735076904,10.9303016662598,10.9717407226562,11.0134954452515,11.0555696487427,11.0979661941528,11.1406888961792,11.1837425231934,11.2271299362183,11.2708549499512,11.3149223327637,11.359335899353,11.404088973999,11.4491949081421,11.4946603775024,11.5404872894287,11.5866813659668,11.6332473754883,11.6801881790161,11.7275171279907,11.7752304077148,11.8233346939087,11.8718338012695,11.9207315444946,11.9700336456299,12.0197458267212,12.0698728561401,12.1204195022583,12.1713972091675,12.222806930542,12.2746524810791,12.3269395828247,12.379674911499,12.4328622817993,12.4865093231201,12.5406217575073,12.5952043533325,12.6502647399902,12.7058076858521,12.7618417739868,12.8183717727661,12.8754043579102,12.9329471588135,12.9910068511963,13.0495901107788,13.1087036132812,13.1683559417725,13.2285528182983,13.2892980575562,13.3505983352661,13.4124670028687,13.4749116897583,13.5379409790039,13.6015625,13.6657838821411,13.7306175231934,13.7960748672485,13.8621625900269,13.9288864135742,13.9962558746338,14.0642805099487,14.1329679489136,14.2023296356201,14.2723760604858,14.3431158065796,14.4145612716675,14.4867219924927,14.5596084594727,14.6332321166992
11.318097114563,11.3280344009399,11.3379888534546,11.3479604721069,11.3579502105713,11.3679580688477,11.3779821395874,11.3880252838135,11.3980855941772,11.408164024353,11.4182596206665,11.428373336792,11.4385051727295,11.4486541748047,11.4588222503662,11.4690084457397,11.479211807251,11.4894342422485,11.4996747970581,11.5099325180054,11.5202102661133,11.5305051803589,11.5408191680908,11.5511512756348,11.5615015029907,11.571870803833,11.5822591781616,11.5926656723022,11.6030902862549,11.6135349273682,11.6239976882935,11.6344795227051,11.6449794769287,11.655499458313,11.6660375595093,11.6638698577881,11.6593027114868,11.6547384262085,11.6501789093018,11.645622253418,11.6410694122314,11.6365203857422,11.6319742202759,11.6274318695068,11.6228933334351,11.6183586120605,11.613826751709,11.6092987060547,11.6047744750977,11.6002540588379,11.5957365036011,11.5912218093872,11.5867118835449,11.5822048187256,11.5777015686035,11.5732011795044,11.5687046051025,11.5642118453979,11.5597229003906,11.5552368164062,11.5507545471191,11.546275138855,11.5417995452881,11.5373268127441,11.5328588485718,11.5283937454224,11.5239315032959,11.519474029541,8.38624572753906,8.36961269378662,8.35304641723633,8.33654594421387,8.32011032104492,8.30373954772949,8.28743267059326,8.27118968963623,8.2550106048584,8.23889446258545,8.22284126281738,8.20685005187988,8.19092082977295,8.17505359649658,8.16092967987061,8.15625476837158,8.15158557891846,8.14692211151123,8.14226341247559,8.13761043548584,8.13296318054199,8.12832069396973,8.12368297576904,8.11905097961426,8.11442470550537,8.10980319976807,8.10518741607666,8.10057640075684,8.09597110748291,8.09137058258057,8.08900356292725,8.11167621612549,8.13447570800781,8.15740394592285,8.18046188354492,8.20365142822266,8.22697162628174,8.25042533874512,8.27401351928711,8.29773616790771,8.32159519195557,8.3455924987793,8.36972808837891,8.39400386810303,8.41842079162598,8.44298076629639,8.46768379211426,8.49253177642822,8.51752662658691,8.54266834259033,8.56795978546143,8.5934009552002,8.61899280548096,8.64473915100098,8.67063903808594,8.69669437408447,8.72290706634521,8.74927806854248,8.77580833435059,8.80250072479248,8.82935619354248,8.8563756942749,8.88356113433838,8.91091442108154,8.93843555450439,8.9661283493042,8.99399280548096,9.0220308303833,9.05024528503418,9.07863616943359,9.10720539093018,9.13595485687256,9.16488742828369,9.19400310516357,9.22330474853516,9.25279331207275,9.28247165679932,9.31234073638916,9.34240245819092,9.37265872955322,9.40311241149902,9.43376445770264,9.4646167755127,9.49567127227783,9.52692985534668,9.55839538574219,9.59006977081299,9.62195491790771,9.654052734375,9.68636512756348,9.71889400482178,9.75164222717285,9.78461265563965,9.81780624389648,9.85122585296631,9.88487434387207,9.91875267028809,9.95286464691162,9.98721218109131,10.0217971801758,10.056622505188,10.0916900634766,10.1270046234131,10.1625661849976,10.1983785629272,10.2344436645508,10.2707653045654,10.3073463439941,10.3441886901855,10.3812952041626,10.4186687469482,10.4563131332397,10.4942293167114,10.5324230194092,10.570894241333,10.6096487045288,10.6486873626709,10.6880149841309,10.7276344299316,10.7675476074219,10.8077602386475,10.8482732772827,10.8890914916992,10.9302186965942,10.9716577529907,11.0134115219116,11.0554847717285,11.0978813171387,11.1406030654907,11.1836557388306,11.2270421981812,11.2707672119141,11.3148336410522,11.3592462539673,11.4040088653564,11.4491195678711,11.4945840835571,11.5404109954834,11.5866041183472,11.6331691741943,11.6801099777222,11.7274312973022,11.7751417160034,11.8232450485229,11.8717432022095,11.9206409454346,11.9699420928955,12.0196533203125,12.0697793960571,12.120325088501,12.1712961196899,12.2227048873901,12.2745494842529,12.3268356323242,12.3795700073242,12.4327564239502,12.4864025115967,12.5405139923096,12.5950956344604,12.6501550674438,12.7056980133057,12.7617301940918,12.8182592391968,12.8752908706665,12.9328327178955,12.990891456604,13.0494737625122,13.1085863113403,13.1682367324829,13.2284326553345,13.2891788482666,13.3504791259766,13.4123458862305,13.4747896194458,13.5378179550171,13.6014375686646,13.6656589508057,13.7304906845093,13.7959451675415,13.8620281219482,13.928750038147,13.9961185455322,14.0641412734985,14.1328287124634,14.2021894454956,14.2722358703613,14.3429756164551,14.4144201278687,14.4865798950195,14.5594663619995,14.6330900192261
11.2870454788208,11.2969274520874,11.306827545166,11.3167448043823,11.3266792297363,11.3366317749023,11.3466014862061,11.3565883636475,11.3665933609009,11.376615524292,11.3866558074951,11.3967132568359,11.4067897796631,11.4168825149536,11.4269943237305,11.437123298645,11.4472703933716,11.4574356079102,11.4676198959351,11.4778203964233,11.4880399703979,11.4982786178589,11.5085344314575,11.5188083648682,11.5291013717651,11.5394124984741,11.5497417449951,11.5600900650024,11.5704574584961,11.5808429718018,11.5912466049194,11.6016693115234,11.6121101379395,11.6110181808472,11.6064920425415,11.6019697189331,11.597451210022,11.5929365158081,11.5884246826172,11.5839157104492,11.5794115066528,11.5749101638794,11.5704126358032,11.56591796875,11.561427116394,11.5569400787354,11.5524559020996,11.5479755401611,11.5434989929199,11.5390253067017,11.5345554351807,11.5300893783569,11.5256261825562,11.5211668014526,11.5167102813721,11.5122575759888,11.5078086853027,11.5033626556396,11.4989204406738,11.4944820404053,11.4900465011597,11.485613822937,11.4811859130859,11.4767599105835,11.4723386764526,11.4679203033447,11.4635047912598,8.39356136322021,8.37689971923828,8.3603048324585,8.34377574920654,8.32731151580811,8.31091213226318,8.29457664489746,8.27830600738525,8.26209926605225,8.24595546722412,8.22987461090088,8.2138557434082,8.19789981842041,8.18200588226318,8.16617298126221,8.16101455688477,8.15634059906006,8.15167140960693,8.14700698852539,8.14234924316406,8.1376953125,8.13304805755615,8.12840557098389,8.1237678527832,8.11913585662842,8.11450958251953,8.10988807678223,8.1052713394165,8.100661277771,8.09605503082275,8.09145450592041,8.08895874023438,8.1116304397583,8.13443088531494,8.15735912322998,8.18041610717773,8.20360469818115,8.22692584991455,8.25037860870361,8.27396583557129,8.29768943786621,8.32154846191406,8.34554481506348,8.36968040466309,8.39395618438721,8.41837310791016,8.44293212890625,8.46763515472412,8.49248313903809,8.51747703552246,8.54261875152588,8.56790924072266,8.59335041046143,8.61894226074219,8.64468765258789,8.67058753967285,8.69664192199707,8.72285461425781,8.74922561645508,8.77575588226318,8.80244827270508,8.82930278778076,8.85632228851318,8.88350677490234,8.91086006164551,8.93838119506836,8.96607303619385,8.99393749237061,9.02197551727295,9.0501880645752,9.07857894897461,9.10714817047119,9.13589763641357,9.16482925415039,9.19394493103027,9.22324562072754,9.25273418426514,9.2824125289917,9.31228065490723,9.34234237670898,9.37259864807129,9.40305137634277,9.43370246887207,9.46455478668213,9.49560832977295,9.52686786651611,9.5583324432373,9.59000682830811,9.62189102172852,9.65398788452148,9.68629932403564,9.71882915496826,9.75157642364502,9.78454685211182,9.81773948669434,9.85115909576416,9.88480663299561,9.91868495941162,9.95279598236084,9.98714256286621,10.0217275619507,10.0565519332886,10.0916204452515,10.1269330978394,10.1624946594238,10.1983060836792,10.2343711853027,10.2706928253174,10.3072729110718,10.3441143035889,10.3812208175659,10.4185934066772,10.4562368392944,10.4941530227661,10.5323457717896,10.5708169937134,10.6095705032349,10.648609161377,10.6879358291626,10.7275543212891,10.7674674987793,10.8076791763306,10.8481922149658,10.889009475708,10.9301357269287,10.9715738296509,11.0133275985718,11.0553998947144,11.0977954864502,11.1405172348022,11.1835689544678,11.2269554138184,11.270679473877,11.3147449493408,11.3591566085815,11.4039182662964,11.4490337371826,11.4945077896118,11.5403347015381,11.5865268707275,11.6330919265747,11.6800317764282,11.727352142334,11.7750577926636,11.8231563568115,11.8716526031494,11.9205493927002,11.9698505401611,12.0195608139038,12.0696868896484,12.120231628418,12.1712017059326,12.222601890564,12.2744464874268,12.3267316818237,12.3794651031494,12.4326505661011,12.4862957000732,12.5404062271118,12.5949869155884,12.6500453948975,12.705587387085,12.7616186141968,12.8181467056274,12.8751773834229,12.9327182769775,12.9907760620117,13.0493564605713,13.1084680557251,13.1681184768677,13.2283134460449,13.2890605926514,13.3503589630127,13.4122257232666,13.4746685028076,13.5376949310303,13.6013135910034,13.6655340194702,13.7303647994995,13.7958173751831,13.8618974685669,13.928614616394,13.9959812164307,14.0640020370483,14.1326885223389,14.2020483016968,14.2720928192139,14.342830657959,14.4142742156982,14.4864330291748,14.5593175888062,14.6329393386841
11.2561626434326,11.2659912109375,11.2758369445801,11.2856998443604,11.2955799102783,11.3054780960083,11.3153924942017,11.325325012207,11.3352746963501,11.3452415466309,11.3552265167236,11.3652296066284,11.3752489089966,11.3852872848511,11.3953428268433,11.4054155349731,11.415506362915,11.4256153106689,11.4357423782349,11.4458875656128,11.4560499191284,11.4662303924561,11.47642993927,11.4866466522217,11.4968824386597,11.5071353912354,11.5174074172974,11.5276975631714,11.5380067825317,11.5483341217041,11.5586795806885,11.5586442947388,11.5541582107544,11.5496768951416,11.5451993942261,11.5407247543335,11.5362529754639,11.5317850112915,11.5273208618164,11.5228595733643,11.5184030532837,11.5139484405518,11.5094985961914,11.505051612854,11.5006074905396,11.4961671829224,11.4917306900024,11.4872970581055,11.4828672409058,11.4784412384033,11.4740171432495,11.4695978164673,11.465181350708,11.460768699646,11.4563589096069,11.4519529342651,11.4475498199463,11.443151473999,11.4387550354004,11.434362411499,11.4299736022949,11.4255876541138,11.4212055206299,11.4168252944946,11.412449836731,11.4080772399902,11.4037084579468,8.38419914245605,8.36757564544678,8.35101699829102,8.33452415466309,8.31809711456299,8.30173397064209,8.28543472290039,8.26919937133789,8.25302791595459,8.23691940307617,8.22087383270264,8.20489120483398,8.18896961212158,8.17311000823975,8.16578006744385,8.16110038757324,8.15642547607422,8.15175628662109,8.14709281921387,8.14243412017822,8.13778114318848,8.13313293457031,8.12849044799805,8.12385272979736,8.11922073364258,8.11459350585938,8.10997200012207,8.10535621643066,8.10074520111084,8.0961389541626,8.09153842926025,8.0889139175415,8.11158561706543,8.13438510894775,8.15731334686279,8.18037033081055,8.20355892181396,8.22687911987305,8.25033187866211,8.27391910552979,8.29764175415039,8.32150077819824,8.34549713134766,8.36963272094727,8.39390754699707,8.41832447052002,8.44288349151611,8.46758556365967,8.49243354797363,8.51742744445801,8.54256916046143,8.56785869598389,8.59329986572266,8.61889171600342,8.64463710784912,8.67053604125977,8.69659042358398,8.72280216217041,8.74917316436768,8.77570343017578,8.80239486694336,8.82924938201904,8.85626888275146,8.88345336914062,8.91080570220947,8.93832683563232,8.96601867675781,8.99388217926025,9.02191925048828,9.05013275146484,9.07852268218994,9.10709095001221,9.13584041595459,9.16477108001709,9.19388675689697,9.22318744659424,9.25267505645752,9.28235244750977,9.31222057342529,9.34228229522705,9.37253761291504,9.40299034118652,9.43364143371582,9.46449279785156,9.49554634094238,9.52680492401123,9.55826950073242,9.58994293212891,9.62182712554932,9.65392303466797,9.68623447418213,9.71876335144043,9.7515115737915,9.78448009490967,9.8176736831665,9.85109233856201,9.88473892211914,9.91861724853516,9.95272731781006,9.98707389831543,10.0216579437256,10.0564823150635,10.0915498733521,10.1268625259399,10.1624231338501,10.1982345581055,10.234299659729,10.270619392395,10.3071994781494,10.3440399169922,10.3811454772949,10.4185190200806,10.4561614990234,10.4940767288208,10.5322685241699,10.5707397460938,10.6094923019409,10.6485300064087,10.6878566741943,10.7274742126465,10.7673873901367,10.8075981140137,10.8481101989746,10.8889274597168,10.9300527572632,10.9714908599854,11.0132436752319,11.0553159713745,11.097710609436,11.1404314041138,11.183482170105,11.2268676757812,11.2705907821655,11.3146562576294,11.3590669631958,11.4038276672363,11.4489431381226,11.4944171905518,11.5402526855469,11.5864505767822,11.6330137252808,11.6799535751343,11.7272729873657,11.774977684021,11.8230724334717,11.8715629577637,11.9204587936401,11.9697589874268,12.0194692611694,12.0695934295654,12.1201372146606,12.1711072921753,12.2225065231323,12.2743434906006,12.3266277313232,12.3793601989746,12.432544708252,12.4861888885498,12.5402984619141,12.5948781967163,12.6499357223511,12.7054767608643,12.7615070343018,12.8180341720581,12.8750638961792,12.9326038360596,12.9906606674194,13.0492401123047,13.1083507537842,13.1679992675781,13.2281932830811,13.2889404296875,13.3502397537231,13.4121046066284,13.4745464324951,13.5375719070435,13.6011896133423,13.6654081344604,13.7302379608154,13.7956895828247,13.8617687225342,13.9284839630127,13.9958438873291,14.0638637542725,14.13254737854,14.2019062042236,14.2719497680664,14.3426866531372,14.4141283035278,14.4862852096558,14.5591688156128,14.6327886581421
11.2254486083984,11.2352237701416,11.2450160980225,11.254825592041,11.2646512985229,11.2744941711426,11.2843551635742,11.2942333221436,11.3041286468506,11.3140411376953,11.3239707946777,11.3339185714722,11.3438835144043,11.3538656234741,11.363865852356,11.3738832473755,11.383918762207,11.3939714431763,11.4040422439575,11.4141302108765,11.4242372512817,11.4343614578247,11.4445037841797,11.4546642303467,11.4648427963257,11.4750394821167,11.4852542877197,11.4954872131348,11.5057373046875,11.506739616394,11.5022954940796,11.4978532791138,11.4934148788452,11.4889802932739,11.4845495223999,11.4801216125488,11.475697517395,11.4712762832642,11.4668588638306,11.4624443054199,11.4580335617065,11.4536266326904,11.4492225646973,11.4448213577271,11.4404239654541,11.4360303878784,11.4316396713257,11.4272527694702,11.422869682312,11.4184885025024,11.4141120910645,11.4097385406494,11.4053678512573,11.4010009765625,11.3966369628906,11.392276763916,11.3879194259644,11.38356590271,11.3792161941528,11.3748693466187,11.3705253601074,11.3661851882935,11.3618478775024,11.3575134277344,11.3531837463379,11.3488569259644,11.3445329666138,8.37485885620117,8.35827159881592,8.3417501449585,8.32529449462891,8.30890274047852,8.29257583618164,8.27631282806396,8.26011276245117,8.24397754669189,8.22790431976318,8.21189308166504,8.19594478607178,8.18005847930908,8.17055130004883,8.16586589813232,8.16118621826172,8.1565113067627,8.15184211730957,8.14717769622803,8.14251899719238,8.13786602020264,8.13321781158447,8.12857532501221,8.12393760681152,8.11930561065674,8.11467838287354,8.11005687713623,8.10544013977051,8.10082912445068,8.09622383117676,8.09162330627441,8.08886909484863,8.11154079437256,8.13434028625488,8.15726757049561,8.18032455444336,8.20351314544678,8.22683334350586,8.25028610229492,8.27387237548828,8.29759502410889,8.32145309448242,8.34544944763184,8.36958408355713,8.39385986328125,8.41827583312988,8.44283485412598,8.46753692626953,8.49238395690918,8.51737785339355,8.54251861572266,8.56780910491943,8.59324932098389,8.61884117126465,8.64458560943604,8.67048454284668,8.6965389251709,8.72275066375732,8.74912071228027,8.77565097808838,8.80234241485596,8.82919597625732,8.85621452331543,8.88339900970459,8.91075134277344,8.93827152252197,8.96596336364746,8.9938268661499,9.02186393737793,9.05007648468018,9.07846546173096,9.10703372955322,9.13578224182129,9.16471290588379,9.19382858276367,9.22312831878662,9.2526159286499,9.28229331970215,9.31216144561768,9.3422212600708,9.37247657775879,9.40292930603027,9.43357944488525,9.464430809021,9.49548435211182,9.52674198150635,9.55820655822754,9.58987903594971,9.6217622756958,9.65385913848877,9.68617057800293,9.7186975479126,9.75144577026367,9.78441429138184,9.81760692596436,9.85102462768555,9.88467121124268,9.91854858398438,9.95265960693359,9.98700523376465,10.0215883255005,10.0564126968384,10.0914793014526,10.1267919540405,10.1623516082764,10.1981630325317,10.234227180481,10.270546913147,10.3071250915527,10.3439664840698,10.3810710906982,10.4184436798096,10.4560852050781,10.4940004348755,10.5321922302246,10.5706624984741,10.609414100647,10.6484518051147,10.6877775192261,10.7273950576782,10.7673063278198,10.8075170516968,10.8480281829834,10.8888454437256,10.9299697875977,10.9714069366455,11.0131597518921,11.0552310943604,11.0976247787476,11.1403455734253,11.1833953857422,11.2267799377441,11.2705030441284,11.314567565918,11.3589773178101,11.4037380218506,11.4488525390625,11.4943256378174,11.5401611328125,11.5863628387451,11.6329364776611,11.6798753738403,11.7271938323975,11.7748985290527,11.8229923248291,11.8714799880981,11.9203681945801,11.9696674346924,12.0193767547607,12.0694999694824,12.1200437545776,12.1710119247437,12.2224111557007,12.2742462158203,12.3265237808228,12.3792552947998,12.4324388504028,12.4860830307007,12.5401906967163,12.5947694778442,12.6498260498047,12.7053661346436,12.7613954544067,12.8179216384888,12.8749504089355,12.9324893951416,12.9905443191528,13.0491237640381,13.1082334518433,13.1678810119629,13.2280740737915,13.2888193130493,13.3501195907593,13.4119844436646,13.4744243621826,13.5374488830566,13.6010656356812,13.665283203125,13.7301111221313,13.7955627441406,13.8616399765015,13.9283533096313,13.9957122802734,14.0637264251709,14.1324071884155,14.2017650604248,14.2718067169189,14.3425416946411,14.4139823913574,14.486138343811,14.5590200424194,14.6326389312744
11.1949024200439,11.2046241760254,11.2143630981445,11.2241191864014,11.2338914871216,11.2436809539795,11.2534875869751,11.2633113861084,11.2731523513794,11.2830104827881,11.2928867340088,11.3027791976929,11.312689781189,11.3226165771484,11.3325614929199,11.3425245285034,11.3525047302246,11.3625020980835,11.3725175857544,11.382550239563,11.3926010131836,11.4026689529419,11.4127550125122,11.4228591918945,11.4329805374146,11.4431209564209,11.4532785415649,11.4553003311157,11.4508943557739,11.4464931488037,11.4420938491821,11.4376993179321,11.4333076477051,11.428918838501,11.4245338439941,11.4201517105103,11.4157743453979,11.4113988876343,11.4070272445679,11.4026594161987,11.3982944488525,11.3939323425293,11.3895740509033,11.3852195739746,11.3808679580688,11.376519203186,11.3721752166748,11.3678331375122,11.3634948730469,11.3591594696045,11.3548278808594,11.3505001068115,11.3461742401123,11.3418531417847,11.3375339508057,11.3332195281982,11.3289070129395,11.3245983123779,11.3202934265137,11.3159914016724,11.311692237854,11.3073968887329,11.3031044006348,11.2988157272339,11.294529914856,11.290246963501,8.38215446472168,8.36553859710693,8.34898853302002,8.33250427246094,8.31608390808105,8.29972839355469,8.28343772888184,8.26721096038818,8.25104713439941,8.23494625091553,8.21890830993652,8.20293235778809,8.18701934814453,8.17532825469971,8.1706371307373,8.1659517288208,8.16127109527588,8.15659713745117,8.15192699432373,8.1472635269165,8.14260387420654,8.1379508972168,8.13330268859863,8.12866020202637,8.12402248382568,8.1193904876709,8.1147632598877,8.11014175415039,8.10552501678467,8.10091400146484,8.0963077545166,8.09170722961426,8.08882427215576,8.11149597167969,8.1342945098877,8.15722179412842,8.18027973175049,8.20346736907959,8.22678661346436,8.25023937225342,8.27382564544678,8.29754734039307,8.32140636444092,8.34540176391602,8.36953639984131,8.39381122589111,8.41822719573975,8.44278526306152,8.46748828887939,8.49233531951904,8.5173282623291,8.5424690246582,8.56775856018066,8.59319877624512,8.61878967285156,8.64453411102295,8.67043304443359,8.69648742675781,8.72269821166992,8.74906826019287,8.77559757232666,8.80228900909424,8.82914257049561,8.85616111755371,8.88334560394287,8.9106969833374,8.93821716308594,8.96590805053711,8.99377155303955,9.02180862426758,9.05002021789551,9.07840919494629,9.10697746276855,9.13572597503662,9.1646556854248,9.19377040863037,9.22307014465332,9.25255680084229,9.28223323822021,9.31210136413574,9.34216117858887,9.37241649627686,9.40286827087402,9.433518409729,9.46436882019043,9.49542140960693,9.52667903900146,9.55814361572266,9.58981609344482,9.6216983795166,9.65379428863525,9.6861047744751,9.71863269805908,9.75137996673584,9.784348487854,9.81754016876221,9.8509578704834,9.88460445404053,9.91848087310791,9.95259094238281,9.98693656921387,10.0215196609497,10.0563430786133,10.0914087295532,10.1267204284668,10.1622800827026,10.1980905532837,10.2341547012329,10.2704744338989,10.3070526123047,10.3438920974731,10.3809967041016,10.4183683395386,10.4560098648071,10.4939241409302,10.532114982605,10.5705842971802,10.609335899353,10.6483726501465,10.6876983642578,10.7273149490356,10.7672262191772,10.8074359893799,10.8479471206665,10.8887624740601,10.9298877716064,10.97132396698,11.0130758285522,11.0551462173462,11.0975399017334,11.1402587890625,11.1833095550537,11.2266931533813,11.2704153060913,11.3144788742065,11.3588886260986,11.4036474227905,11.4487619400024,11.494234085083,11.5400686264038,11.5862703323364,11.6328430175781,11.6797924041748,11.7271146774292,11.7748184204102,11.8229112625122,11.8713989257812,11.9202861785889,11.9695777893066,12.0192842483521,12.0694065093994,12.1199493408203,12.1709175109863,12.222315788269,12.2741498947144,12.3264255523682,12.379150390625,12.432333946228,12.4859762191772,12.5400829315186,12.5946617126465,12.6497163772583,12.7052555084229,12.7612838745117,12.8178091049194,12.8748369216919,12.9323749542236,12.9904289245605,13.0490074157715,13.1081161499023,13.1677618026733,13.2279539108276,13.2886981964111,13.3500003814697,13.4118633270264,13.4743022918701,13.5373258590698,13.60094165802,13.6651582717896,13.7299852371216,13.7954349517822,13.8615112304688,13.9282236099243,13.9955816268921,14.0635938644409,14.1322708129883,14.2016229629517,14.2716627120972,14.3423976898193,14.413836479187,14.485990524292,14.5588703155518,14.6324882507324
11.1645212173462,11.1741905212402,11.183876991272,11.1935796737671,11.2032985687256,11.2130355834961,11.22278881073,11.2325582504272,11.2423467636108,11.2521505355835,11.2619724273682,11.2718105316162,11.2816667556763,11.291540145874,11.3014307022095,11.3113384246826,11.3212633132935,11.3312063217163,11.3411655426025,11.3511438369751,11.361138343811,11.3711519241333,11.3811817169189,11.3912305831909,11.4012956619263,11.404317855835,11.3999519348145,11.3955888748169,11.3912296295166,11.3868732452393,11.3825206756592,11.3781709671021,11.3738250732422,11.3694820404053,11.3651418685913,11.3608055114746,11.3564729690552,11.3521432876587,11.3478174209595,11.3434944152832,11.3391742706299,11.3348579406738,11.3305444717407,11.3262348175049,11.321928024292,11.3176250457764,11.3133249282837,11.309027671814,11.3047342300415,11.3004446029663,11.2961568832397,11.2918729782104,11.2875928878784,11.2833156585693,11.2790412902832,11.2747707366943,11.2705030441284,11.2662391662598,11.2619781494141,11.2577199935913,11.2534656524658,11.2492141723633,11.2449655532837,11.2407207489014,11.2364778518677,11.2322397232056,8.37281894683838,8.35623931884766,8.33972644805908,8.32327747344971,8.30689430236816,8.29057502746582,8.27431964874268,8.25812816619873,8.24200057983398,8.2259349822998,8.20993232727051,8.19399070739746,8.18011093139648,8.17541408538818,8.17072296142578,8.16603755950928,8.16135692596436,8.15668201446533,8.15201282501221,8.14734840393066,8.14268970489502,8.13803577423096,8.13338756561279,8.12874507904053,8.12410736083984,8.11947441101074,8.11484718322754,8.11022567749023,8.10560894012451,8.10099792480469,8.09639167785645,8.0917911529541,8.08877944946289,8.11145114898682,8.13424968719482,8.15717697143555,8.1802339553833,8.20342063903809,8.22673988342285,8.25019264221191,8.27377891540527,8.29750061035156,8.3213586807251,8.3453540802002,8.36948871612549,8.39376354217529,8.41817855834961,8.44273662567139,8.46743869781494,8.49228572845459,8.51727867126465,8.54241943359375,8.56770896911621,8.59314823150635,8.61873912811279,8.64448356628418,8.67038154602051,8.69643592834473,8.72264671325684,8.74901580810547,8.77554512023926,8.80223560333252,8.82908916473389,8.85610771179199,8.88329124450684,8.91064262390137,8.9381628036499,8.96585369110107,8.9937162399292,9.02175235748291,9.04996490478516,9.07835292816162,9.10692119598389,9.13566875457764,9.16459846496582,9.19371223449707,9.2230110168457,9.25249767303467,9.2821741104126,9.31204128265381,9.34210109710693,9.37235546112061,9.40280723571777,9.43345642089844,9.46430683135986,9.49535942077637,9.52661609649658,9.55807971954346,9.58975219726562,9.6216344833374,9.65373039245605,9.68603992462158,9.71856784820557,9.75131416320801,9.78428173065186,9.81747341156006,9.85089111328125,9.88453674316406,9.91841316223145,9.95252227783203,9.98686695098877,10.0214500427246,10.0562725067139,10.0913391113281,10.1266498565674,10.1622095108032,10.19801902771,10.2340822219849,10.2704010009766,10.3069791793823,10.3438177108765,10.3809213638306,10.4182929992676,10.4559335708618,10.4938478469849,10.5320377349854,10.5705070495605,10.6092586517334,10.6482944488525,10.6876192092896,10.7272348403931,10.7671461105347,10.807354927063,10.8478651046753,10.8886804580688,10.9298048019409,10.9712400436401,11.0129909515381,11.055061340332,11.0974540710449,11.140172958374,11.1832227706909,11.2266054153442,11.2703266143799,11.3143901824951,11.3587989807129,11.4035577774048,11.4486703872681,11.4941425323486,11.5399761199951,11.5861768722534,11.6327495574951,11.6796979904175,11.7270269393921,11.7747392654419,11.8228311538696,11.8713178634644,11.9202041625977,11.9694948196411,12.0191955566406,12.0693140029907,12.1198558807373,12.1708221435547,12.2222204208374,12.2740535736084,12.3263282775879,12.3790502548218,12.4322280883789,12.4858694076538,12.5399751663208,12.5945529937744,12.6496067047119,12.7051448822021,12.7611722946167,12.8176965713501,12.8747234344482,12.9322605133057,12.9903135299683,13.0488901138306,13.1079978942871,13.1676435470581,13.2278337478638,13.2885770797729,13.3498811721802,13.4117431640625,13.4741811752319,13.537202835083,13.6008176803589,13.6650323867798,13.7298583984375,13.7953071594238,13.861382484436,13.928092956543,13.9954500198364,14.0634613037109,14.1321363449097,14.2014856338501,14.271520614624,14.3422527313232,14.4136905670166,14.4858436584473,14.5587215423584,14.6323375701904
11.1343050003052,11.1439218521118,11.1535558700562,11.1632051467896,11.172872543335,11.1825561523438,11.1922559738159,11.2019739151001,11.2117080688477,11.2214584350586,11.2312259674072,11.2410116195679,11.2508134841919,11.2606334686279,11.2704696655273,11.2803230285645,11.2901935577393,11.3000822067261,11.3099870681763,11.3199100494385,11.3298501968384,11.339807510376,11.3497829437256,11.3537874221802,11.3494606018066,11.3451356887817,11.3408145904541,11.3364973068237,11.3321828842163,11.3278713226318,11.3235635757446,11.3192586898804,11.3149576187134,11.3106594085693,11.3063650131226,11.3020734786987,11.2977848052979,11.2934999465942,11.2892179489136,11.2849397659302,11.2806644439697,11.2763919830322,11.2721242904663,11.267858505249,11.2635955810547,11.2593364715576,11.2550811767578,11.2508277893066,11.2465791702271,11.2423324584961,11.2380895614624,11.2338495254517,11.2296123504639,11.2253789901733,11.2211494445801,11.2169218063354,11.2126979827881,11.2084770202637,11.2042598724365,11.2000455856323,11.1958341598511,11.1916265487671,11.1874217987061,11.183219909668,11.1790208816528,11.174825668335,8.36350345611572,8.34696102142334,8.33048439025879,8.31407260894775,8.29772472381592,8.2814416885376,8.26522254943848,8.24906635284424,8.23297309875488,8.21694278717041,8.20097541809082,8.18506908416748,8.18019676208496,8.17549991607666,8.17080879211426,8.16612339019775,8.16144275665283,8.15676784515381,8.15209770202637,8.14743328094482,8.14277458190918,8.13812065124512,8.13347244262695,8.12882995605469,8.124192237854,8.1195592880249,8.1149320602417,8.11031055450439,8.10569381713867,8.10108184814453,8.09647655487061,8.09187507629395,8.08873462677002,8.11140632629395,8.13420391082764,8.15713119506836,8.18018817901611,8.2033748626709,8.22669410705566,8.25014591217041,8.27373218536377,8.29745388031006,8.32131099700928,8.34530639648438,8.36944103240967,8.39371490478516,8.41813087463379,8.44268798828125,8.4673900604248,8.49223613739014,8.5172290802002,8.54236888885498,8.56765842437744,8.59309768676758,8.61868858337402,8.64443206787109,8.67033004760742,8.69638347625732,8.72259426116943,8.74896335601807,8.77549266815186,8.80218315124512,8.82903575897217,8.85605335235596,8.8832368850708,8.91058826446533,8.93810844421387,8.96579837799072,8.99366092681885,9.02169704437256,9.04990863800049,9.07829666137695,9.1068639755249,9.13561153411865,9.16454124450684,9.19365406036377,9.22295379638672,9.25243949890137,9.28211498260498,9.31198120117188,9.342041015625,9.37229442596436,9.40274524688721,9.43339538574219,9.4642448425293,9.4952974319458,9.52655410766602,9.55801677703857,9.58968830108643,9.6215705871582,9.65366554260254,9.68597602844238,9.71850204467773,9.75124835968018,9.78421592712402,9.81740665435791,9.85082340240479,9.8844690322876,9.91834545135498,9.95245361328125,9.98679828643799,10.0213804244995,10.0562028884888,10.0912685394287,10.126579284668,10.1621379852295,10.1979475021362,10.2340097427368,10.2703285217285,10.30690574646,10.3437442779541,10.3808469772339,10.4182176589966,10.4558582305908,10.4937715530396,10.53196144104,10.5704298019409,10.6091804504395,10.6482162475586,10.6875400543213,10.7271556854248,10.7670660018921,10.8072738647461,10.8477840423584,10.8885984420776,10.9297218322754,10.9711570739746,11.0129070281982,11.0549764633179,11.0973682403564,11.1400871276855,11.1831359863281,11.2265186309814,11.2702388763428,11.3143014907837,11.3587093353271,11.4034671783447,11.448579788208,11.4940509796143,11.5398836135864,11.5860843658447,11.6326560974121,11.6796035766602,11.7269315719604,11.7746448516846,11.8227481842041,11.8712368011475,11.9201231002808,11.9694128036499,12.0191125869751,12.0692253112793,12.11976146698,12.1707277297974,12.2221240997314,12.2739572525024,12.3262310028076,12.3789520263672,12.4321260452271,12.4857625961304,12.539867401123,12.5944442749023,12.6494979858398,12.7050342559814,12.761061668396,12.8175840377808,12.8746099472046,12.9321460723877,12.990198135376,13.048773765564,13.1078805923462,13.1675243377686,13.2277145385742,13.2884569168091,13.3497591018677,13.4116220474243,13.4740591049194,13.5370798110962,13.6006937026978,13.6649074554443,13.7297325134277,13.7951793670654,13.861252784729,13.9279632568359,13.9953184127808,14.063328742981,14.1320028305054,14.2013502120972,14.2713823318481,14.3421087265015,14.4135446548462,14.4856958389282,14.558572769165,14.6321868896484
11.1042518615723,11.1138172149658,11.1233987808228,11.1329965591431,11.1426105499268,11.1522417068481,11.1618900299072,11.1715545654297,11.1812353134155,11.1909341812134,11.2006483078003,11.2103805541992,11.2201290130615,11.2298946380615,11.2396774291992,11.2494773864746,11.2592945098877,11.2691287994385,11.2789793014526,11.2888479232788,11.2987337112427,11.3037033081055,11.2994136810303,11.2951278686523,11.290843963623,11.2865648269653,11.2822875976562,11.2780151367188,11.2737445831299,11.2694778442383,11.2652149200439,11.2609539031982,11.2566967010498,11.2524433135986,11.2481927871704,11.2439451217651,11.2397003173828,11.2354593276978,11.2312211990356,11.2269868850708,11.2227554321289,11.2185277938843,11.2143020629883,11.2100801467896,11.2058610916138,11.2016458511353,11.1974334716797,11.1932239532471,11.1890182495117,11.1848154067993,11.1806154251099,11.1764192581177,11.1722259521484,11.1680345535278,11.1638479232788,11.1596641540527,11.1554832458496,11.1513051986694,11.1471309661865,11.1429586410522,11.1387910842896,11.1346254348755,11.1304636001587,11.1263046264648,11.1221485137939,8.37077903747559,8.35420894622803,8.33770275115967,8.32126235961914,8.30488681793213,8.28857612609863,8.27232837677002,8.25614452362061,8.24002456665039,8.22396659851074,8.20797157287598,8.19203853607178,8.18498420715332,8.18028259277344,8.17558574676514,8.17089462280273,8.16620826721191,8.16152858734131,8.15685272216797,8.15218353271484,8.1475191116333,8.14285945892334,8.13820648193359,8.13355731964111,8.12891483306885,8.12427616119385,8.11964416503906,8.11501693725586,8.11039447784424,8.10577774047852,8.10116672515869,8.09656047821045,8.09195899963379,8.08868980407715,8.11136054992676,8.13415908813477,8.15708541870117,8.18014240264893,8.20332908630371,8.22664737701416,8.25009918212891,8.27368545532227,8.29740619659424,8.32126426696777,8.34525871276855,8.36939334869385,8.39366722106934,8.41808223724365,8.44263935089111,8.46734046936035,8.49218654632568,8.51717948913574,8.54231929779053,8.56760787963867,8.59304714202881,8.61863803863525,8.64438152313232,8.67027854919434,8.69633197784424,8.72254276275635,8.74891090393066,8.77544021606445,8.8021297454834,8.82898330688477,8.85599994659424,8.88318347930908,8.9105339050293,8.93805313110352,8.96574306488037,8.9936056137085,9.02164077758789,9.04985237121582,9.07824039459229,9.10680675506592,9.13555431365967,9.16448307037354,9.19359683990479,9.2228946685791,9.25238132476807,9.28205585479736,9.31192207336426,9.34198093414307,9.37223434448242,9.40268421173096,9.43333339691162,9.46418285369873,9.49523448944092,9.52649116516113,9.55795383453369,9.58962535858154,9.621506690979,9.65360164642334,9.68591117858887,9.71843719482422,9.75118255615234,9.78414916992188,9.81733989715576,9.85075664520264,9.88440132141113,9.9182767868042,9.95238590240479,9.98672962188721,10.0213108062744,10.0561332702637,10.0911979675293,10.1265087127686,10.1620664596558,10.1978750228882,10.2339372634888,10.2702550888062,10.3068323135376,10.3436698913574,10.3807725906372,10.4181423187256,10.4557819366455,10.4936952590942,10.5318841934204,10.5703525543213,10.6091022491455,10.6481370925903,10.687460899353,10.7270755767822,10.7669849395752,10.8071928024292,10.8477020263672,10.8885164260864,10.9296388626099,10.9710731506348,11.0128231048584,11.0548915863037,11.0972833633423,11.1400012969971,11.1830492019653,11.2264308929443,11.2701511383057,11.3142127990723,11.3586196899414,11.403377532959,11.4484891891479,11.4939594268799,11.5397911071777,11.5859909057617,11.6325616836548,11.6795091629028,11.7268362045288,11.7745485305786,11.8226509094238,11.871148109436,11.9200410842896,11.9693307876587,12.0190286636353,12.0691423416138,12.1196746826172,12.17063331604,12.2220287322998,12.2738609313965,12.3261337280273,12.3788537979126,12.4320278167725,12.4856595993042,12.5397596359253,12.5943355560303,12.6493883132935,12.7049236297607,12.760950088501,12.8174715042114,12.8744964599609,12.9320316314697,12.9900827407837,13.0486574172974,13.107762336731,13.1674060821533,13.2275943756104,13.2883358001709,13.3496370315552,13.4115018844604,13.4739370346069,13.5369567871094,13.6005697250366,13.6647815704346,13.7296056747437,13.795051574707,13.8611240386963,13.9278326034546,13.9951868057251,14.0631952285767,14.1318683624268,14.2012147903442,14.2712459564209,14.3419704437256,14.4133996963501,14.4855480194092,14.5584239959717,14.6320371627808
11.0743608474731,11.0838737487793,11.0934038162231,11.1029500961304,11.112512588501,11.1220922470093,11.1316871643066,11.141300201416,11.1509284973145,11.1605739593506,11.1702365875244,11.1799154281616,11.1896114349365,11.1993236541748,11.2090539932251,11.2187995910645,11.2285633087158,11.2383441925049,11.2481412887573,11.2540588378906,11.2498064041138,11.2455577850342,11.2413120269775,11.2370700836182,11.2328310012817,11.2285947799683,11.2243623733521,11.2201328277588,11.2159061431885,11.2116832733154,11.2074632644653,11.2032470703125,11.1990327835083,11.1948232650757,11.1906156539917,11.186411857605,11.1822099685669,11.1780128479004,11.1738176345825,11.1696262359619,11.1654376983643,11.1612529754639,11.1570711135864,11.1528921127319,11.1487159729004,11.1445436477661,11.1403732299805,11.1362075805664,11.132043838501,11.1278839111328,11.1237258911133,11.1195726394653,11.115421295166,11.111273765564,11.1071290969849,11.1029872894287,11.0988483428955,11.0947132110596,11.0905809402466,11.0864515304565,11.0823249816895,11.0782022476196,11.0740823745728,11.0699653625488,11.0658512115479,8.36146831512451,8.34493446350098,8.32846546173096,8.31206130981445,8.29572200775146,8.27944660186768,8.26323509216309,8.2470874786377,8.23100185394287,8.21497917175293,8.19901847839355,8.18977832794189,8.1850700378418,8.18036842346191,8.17567157745361,8.17098045349121,8.16629409790039,8.16161346435547,8.15693855285645,8.152268409729,8.14760398864746,8.14294528961182,8.13829135894775,8.13364219665527,8.12899971008301,8.12436103820801,8.11972904205322,8.11510181427002,8.1104793548584,8.10586261749268,8.10125064849854,8.09664440155029,8.09204292297363,8.08864498138428,8.11131572723389,8.13411426544189,8.1570405960083,8.18009662628174,8.20328330993652,8.22660160064697,8.25005340576172,8.27363872528076,8.29735946655273,8.32121658325195,8.34521102905273,8.36934471130371,8.3936185836792,8.41803359985352,8.44259071350098,8.46729183197021,8.49213790893555,8.51712989807129,8.54226970672607,8.56755828857422,8.59299659729004,8.61858654022217,8.64433002471924,8.67022705078125,8.69628047943115,8.72249031066895,8.74885940551758,8.77538776397705,8.802077293396,8.82892990112305,8.85594654083252,8.88312911987305,8.91047954559326,8.93799877166748,8.96568870544434,8.99355030059814,9.02158546447754,9.04979610443115,9.07818412780762,9.10675048828125,9.13549709320068,9.16442584991455,9.19353866577148,9.22283744812012,9.25232219696045,9.28199672698975,9.31186294555664,9.34192085266113,9.37217426300049,9.40262413024902,9.43327236175537,9.46412086486816,9.49517250061035,9.52642822265625,9.55789089202881,9.58956146240234,9.6214427947998,9.65353679656982,9.68584632873535,9.71837139129639,9.75111675262451,9.78408336639404,9.81727313995361,9.85068988800049,9.88433456420898,9.91820907592773,9.952317237854,9.98666000366211,10.0212411880493,10.0560636520386,10.0911273956299,10.1264371871948,10.161994934082,10.1978034973145,10.2338647842407,10.2701826095581,10.3067588806152,10.3435964584351,10.3806982040405,10.4180669784546,10.4557065963745,10.4936189651489,10.5318069458008,10.5702743530273,10.6090240478516,10.6480588912964,10.6873817443848,10.7269954681396,10.7669048309326,10.8071117401123,10.8476209640503,10.8884344100952,10.9295558929443,10.9709901809692,11.0127391815186,11.0548076629639,11.0971975326538,11.1399154663086,11.1829624176025,11.2263431549072,11.2700624465942,11.3141241073608,11.3585300445557,11.4032869338989,11.4483985900879,11.4938669204712,11.5396995544434,11.585898399353,11.6324682235718,11.6794147491455,11.7267408370972,11.7744522094727,11.8225536346436,11.8710498809814,11.9199457168579,11.9692459106445,12.0189456939697,12.0690584182739,12.1195907592773,12.1705474853516,12.2219343185425,12.2737646102905,12.3260364532471,12.3787565231323,12.4319286346436,12.4855604171753,12.5396556854248,12.5942268371582,12.6492786407471,12.7048139572144,12.760838508606,12.8173589706421,12.8743829727173,12.9319171905518,12.9899673461914,13.0485410690308,13.10764503479,13.1672868728638,13.2274742126465,13.2882146835327,13.349515914917,13.4113807678223,13.4738159179688,13.5368347167969,13.6004447937012,13.6646566390991,13.7294788360596,13.7949237823486,13.8609952926636,13.9277029037476,13.9950551986694,14.0630626678467,14.1317338943481,14.2010793685913,14.2711095809937,14.3418321609497,14.4132604598999,14.4854030609131,14.5582752227783,14.6318864822388
11.0446300506592,11.0540924072266,11.0635709762573,11.0730657577515,11.082576751709,11.0921049118042,11.1016483306885,11.1112089157104,11.1207857131958,11.1303796768188,11.1399898529053,11.1496162414551,11.1592588424683,11.1689195632935,11.1785955429077,11.188289642334,11.1979999542236,11.2048482894897,11.2006330490112,11.19642162323,11.1922130584717,11.1880083084106,11.1838054656982,11.1796064376831,11.1754102706909,11.171217918396,11.167028427124,11.162841796875,11.1586589813232,11.1544790267944,11.1503009796143,11.1461277008057,11.14195728302,11.1377897262573,11.1336250305176,11.1294631958008,11.1253051757812,11.1211500167847,11.116997718811,11.1128492355347,11.1087036132812,11.1045598983765,11.1004209518433,11.0962839126587,11.0921497344971,11.088020324707,11.0838928222656,11.0797681808472,11.0756464004517,11.0715284347534,11.0674133300781,11.0633010864258,11.0591926574707,11.0550861358643,11.0509834289551,11.0468835830688,11.0427865982056,11.0386934280396,11.0346021652222,11.0305147171021,11.0264301300049,11.0223484039307,11.0182695388794,11.0141935348511,11.01012134552,8.3521785736084,8.33568096160889,8.31924819946289,8.30288124084473,8.28657722473145,8.27033805847168,8.2541618347168,8.23804950714111,8.221999168396,8.20601177215576,8.19457721710205,8.18986415863037,8.18515682220459,8.18045425415039,8.17575740814209,8.17106628417969,8.16637992858887,8.16169929504395,8.15702438354492,8.15235424041748,8.14768981933594,8.14303016662598,8.13837623596191,8.13372707366943,8.12908458709717,8.12444591522217,8.11981296539307,8.11518573760986,8.11056327819824,8.10594654083252,8.1013355255127,8.09672832489014,8.09212779998779,8.08860111236572,8.11127090454102,8.13406848907471,8.15699481964111,8.18005084991455,8.20323657989502,8.22655487060547,8.25000667572021,8.27359199523926,8.29731273651123,8.32116889953613,8.34516429901123,8.36929702758789,8.39357089996338,8.41798496246338,8.44254207611084,8.46724319458008,8.49208831787109,8.51708030700684,8.5422191619873,8.56750774383545,8.59294605255127,8.6185359954834,8.64427852630615,8.67017555236816,8.69622898101807,8.72243881225586,8.74880695343018,8.77533435821533,8.80202388763428,8.82887649536133,8.8558931350708,8.88307571411133,8.91042518615723,8.93794441223145,8.96563339233398,8.99349498748779,9.02153015136719,9.0497407913208,9.07812786102295,9.10669422149658,9.13544082641602,9.16436862945557,9.1934814453125,9.22277927398682,9.25226402282715,9.28193855285645,9.31180381774902,9.34186172485352,9.37211418151855,9.40256309509277,9.43321132659912,9.46405982971191,9.49511051177979,9.52636528015137,9.55782794952393,9.58949756622314,9.62137889862061,9.65347290039062,9.68578147888184,9.71830654144287,9.75105094909668,9.78401756286621,9.81720733642578,9.85062217712402,9.88426685333252,9.91814041137695,9.95224857330322,9.98659133911133,10.0211725234985,10.0559930801392,10.0910568237305,10.1263666152954,10.1619234085083,10.1977310180664,10.2337923049927,10.2701091766357,10.3066854476929,10.3435220718384,10.3806238174438,10.4179925918579,10.4556303024292,10.4935426712036,10.5317306518555,10.5701971054077,10.6089458465576,10.6479797363281,10.6873025894165,10.7269163131714,10.76682472229,10.8070316314697,10.8475389480591,10.888352394104,10.9294729232788,10.9709062576294,11.0126552581787,11.0547227859497,11.0971126556396,11.1398286819458,11.1828756332397,11.2262563705444,11.2699747085571,11.3140344619751,11.3584413528442,11.4031972885132,11.4483070373535,11.4937753677368,11.5396070480347,11.58580493927,11.6323747634888,11.6793193817139,11.7266454696655,11.774356842041,11.8224573135376,11.8709526062012,11.9198474884033,11.9691467285156,12.0188550949097,12.0689744949341,12.1195058822632,12.1704616546631,12.221848487854,12.2736701965332,12.3259391784668,12.3786582946777,12.4318294525146,12.4854602813721,12.5395555496216,12.5941209793091,12.6491689682007,12.7047033309937,12.7607269287109,12.8172464370728,12.8742694854736,12.9318027496338,12.9898509979248,13.0484237670898,13.1075277328491,13.1671686172485,13.2273550033569,13.2880935668945,13.3493938446045,13.4112606048584,13.4736938476562,13.5367116928101,13.60032081604,13.6645317077637,13.7293529510498,13.7947959899902,13.8608665466309,13.9275732040405,13.9949245452881,14.0629301071167,14.1316003799438,14.2009449005127,14.2709722518921,14.3416948318481,14.4131212234497,14.4852628707886,14.5581302642822,14.6317358016968
11.0150575637817,11.0244703292847,11.0338973999023,11.0433416366577,11.0528020858765,11.0622787475586,11.0717706680298,11.0812797546387,11.0908060073853,11.1003475189209,11.1099052429199,11.1194801330566,11.1290712356567,11.1386795043945,11.1483030319214,11.1560659408569,11.1518878936768,11.1477127075195,11.1435403823853,11.1393718719482,11.1352062225342,11.1310434341431,11.1268844604492,11.122727394104,11.1185750961304,11.1144247055054,11.1102771759033,11.1061334609985,11.1019926071167,11.0978546142578,11.0937194824219,11.0895881652832,11.0854597091675,11.0813341140747,11.0772113800049,11.0730924606323,11.0689764022827,11.0648632049561,11.0607528686523,11.0566453933716,11.0525417327881,11.0484399795532,11.0443429946899,11.0402479171753,11.0361557006836,11.0320672988892,11.0279808044434,11.0238981246948,11.0198183059692,11.0157413482666,11.0116682052612,11.0075969696045,11.003529548645,10.9994640350342,10.9954023361206,10.9913444519043,10.9872884750366,10.9832353591919,10.9791860580444,10.9751396179199,10.971095085144,10.9670543670654,10.9630165100098,10.9589815139771,8.35943508148193,8.34290885925293,8.32644748687744,8.31005191802979,8.29372024536133,8.27745246887207,8.26124954223633,8.24510860443115,8.22903156280518,8.21301651000977,8.19938182830811,8.19466304779053,8.18994998931885,8.18524265289307,8.18054008483887,8.17584323883057,8.17115211486816,8.16646575927734,8.16178512573242,8.15710926055908,8.15243911743164,8.1477746963501,8.14311504364014,8.13846111297607,8.13381290435791,8.12916946411133,8.12453079223633,8.11989784240723,8.11527061462402,8.1106481552124,8.10603141784668,8.10141944885254,8.0968132019043,8.09221172332764,8.08855628967285,8.11122608184814,8.13402366638184,8.15694904327393,8.18000507354736,8.20319080352783,8.22650909423828,8.24995994567871,8.27354526519775,8.29726505279541,8.32112216949463,8.34511661529541,8.36924934387207,8.39352226257324,8.41793632507324,8.4424934387207,8.46719360351562,8.49203872680664,8.51703071594238,8.54216957092285,8.56745719909668,8.5928955078125,8.61848545074463,8.64422798156738,8.67012500762939,8.69617652893066,8.72238636016846,8.74875450134277,8.77528190612793,8.80197143554688,8.82882308959961,8.85583972930908,8.88302135467529,8.91037082672119,8.93788909912109,8.96557807922363,8.99343967437744,9.02147388458252,9.04968452453613,9.07807159423828,9.1066370010376,9.13538360595703,9.16431140899658,9.1934232711792,9.22272109985352,9.25220584869385,9.28187942504883,9.31174373626709,9.34180164337158,9.37205410003662,9.40250301361084,9.43315029144287,9.46399784088135,9.49504852294922,9.5263032913208,9.55776405334473,9.58943462371826,9.62131500244141,9.65340805053711,9.685715675354,9.71824169158936,9.75098514556885,9.78395080566406,9.81714057922363,9.85055541992188,9.88419914245605,9.91807270050049,9.95217990875244,9.98652267456055,10.0211029052734,10.0559234619141,10.0909872055054,10.1262950897217,10.1618518829346,10.1976594924927,10.2337198257446,10.2700366973877,10.3066120147705,10.343448638916,10.3805494308472,10.4179172515869,10.4555549621582,10.4934663772583,10.5316534042358,10.5701198577881,10.608868598938,10.6479015350342,10.6872234344482,10.7268362045288,10.7667446136475,10.8069505691528,10.8474578857422,10.8882694244385,10.9293909072876,10.9708232879639,11.0125713348389,11.0546379089355,11.0970268249512,11.1397428512573,11.182788848877,11.2261686325073,11.26988697052,11.3139457702637,11.3583517074585,11.4031066894531,11.4482164382935,11.4936838150024,11.539514541626,11.585711479187,11.6322803497314,11.6792249679565,11.7265501022339,11.7742605209351,11.8223600387573,11.8708553314209,11.9197492599487,11.9690475463867,12.0187549591064,12.0688781738281,12.1194200515747,12.1703767776489,12.2217626571655,12.2735843658447,12.3258466720581,12.3785600662231,12.4317312240601,12.4853601455688,12.539454460144,12.5940198898315,12.6490612030029,12.7045927047729,12.7606153488159,12.8171339035034,12.87415599823,12.9316883087158,12.9897356033325,13.0483074188232,13.1074094772339,13.167049407959,13.2272348403931,13.2879734039307,13.349271774292,13.4111375808716,13.4735717773438,13.5365886688232,13.6001968383789,13.6644058227539,13.7292261123657,13.7946681976318,13.8607378005981,13.9274425506592,13.9947929382324,14.0627975463867,14.1314668655396,14.2008094787598,14.2708358764648,14.3415565490723,14.4129819869995,14.4851217269897,14.5579881668091,14.6315908432007
10.9856443405151,10.995005607605,11.0043830871582,11.0137767791748,11.0231866836548,11.0326118469238,11.0420541763306,11.0515117645264,11.0609865188599,11.0704765319824,11.0799837112427,11.0895071029663,11.0990467071533,11.1077070236206,11.1035652160645,11.0994262695312,11.095290184021,11.0911569595337,11.0870275497437,11.0829010009766,11.0787773132324,11.0746564865112,11.0705394744873,11.066424369812,11.0623140335083,11.0582056045532,11.0541000366211,11.0499982833862,11.0458984375,11.0418033599854,11.037709236145,11.0336198806763,11.0295324325562,11.0254487991333,11.0213680267334,11.0172901153564,11.0132150650024,11.0091428756714,11.0050735473633,11.0010080337524,10.9969453811646,10.9928855895996,10.9888286590576,10.9847745895386,10.9807233810425,10.9766759872437,10.9726305007935,10.9685888290405,10.9645500183105,10.9605140686035,10.9564809799194,10.9524507522583,10.9484233856201,10.9443998336792,10.9403781890869,10.9363603591919,10.9323453903198,10.9283323287964,10.9243230819702,10.920316696167,10.9163131713867,10.9123125076294,10.908314704895,10.9043197631836,8.35014915466309,8.33366012573242,8.31723499298096,8.30087566375732,8.28458023071289,8.26834869384766,8.2521800994873,8.23607540130615,8.22003269195557,8.20419216156006,8.1994686126709,8.19474983215332,8.19003677368164,8.18532848358154,8.18062591552734,8.17592906951904,8.17123699188232,8.16655158996582,8.16187000274658,8.15719509124756,8.15252494812012,8.14785957336426,8.1431999206543,8.13854598999023,8.13389778137207,8.12925434112549,8.12461566925049,8.11998271942139,8.11535549163818,8.11073303222656,8.10611534118652,8.10150337219238,8.09689712524414,8.09229564666748,8.08851146697998,8.11118125915527,8.13397789001465,8.15690422058105,8.17995929718018,8.20314502716064,8.22646236419678,8.24991321563721,8.27349853515625,8.29721832275391,8.32107448577881,8.34506893157959,8.36920166015625,8.39347457885742,8.41788864135742,8.44244480133057,8.46714496612549,8.4919900894165,8.51698112487793,8.5421199798584,8.56740760803223,8.59284496307373,8.61843490600586,8.6441764831543,8.67007350921631,8.69612503051758,8.72233390808105,8.74870204925537,8.77522945404053,8.80191802978516,8.82876968383789,8.85578536987305,8.88296794891357,8.91031646728516,8.93783473968506,8.9655237197876,8.99338436126709,9.02141857147217,9.04962825775146,9.07801532745361,9.10658073425293,9.13532638549805,9.1642541885376,9.1933650970459,9.22266292572021,9.25214672088623,9.28182029724121,9.31168460845947,9.34174251556396,9.37199401855469,9.40244293212891,9.43308925628662,9.4639368057251,9.49498653411865,9.52624130249023,9.55770206451416,9.58937072753906,9.62125110626221,9.65334320068359,9.6856517791748,9.71817588806152,9.75091934204102,9.78388500213623,9.81707382202148,9.85048866271973,9.88413143157959,9.91800498962402,9.95211124420166,9.98645401000977,10.0210332870483,10.055853843689,10.090916633606,10.1262245178223,10.1617813110352,10.1975879669189,10.2336473464966,10.2699632644653,10.3065385818481,10.3433742523193,10.3804750442505,10.4178419113159,10.4554796218872,10.493390083313,10.5315771102905,10.5700426101685,10.608790397644,10.6478233337402,10.68714427948,10.7267560958862,10.7666635513306,10.8068695068359,10.847375869751,10.8881874084473,10.9293079376221,10.970739364624,11.0124864578247,11.0545530319214,11.096941947937,11.1396570205688,11.1827020645142,11.2260818481445,11.2697982788086,11.3138570785522,11.3582620620728,11.4030170440674,11.4481258392334,11.4935922622681,11.5394220352173,11.5856189727783,11.6321868896484,11.6791305541992,11.7264547348022,11.7741641998291,11.8222637176514,11.8707571029663,11.9196500778198,11.9689483642578,12.0186548233032,12.0687770843506,12.1193180084229,12.1702852249146,12.2216768264771,12.2734975814819,12.3257598876953,12.3784685134888,12.4316320419312,12.4852609634399,12.5393543243408,12.5939178466797,12.6489591598511,12.7044839859009,12.7605037689209,12.8170223236084,12.8740425109863,12.9315738677979,12.9896202087402,13.0481910705566,13.107292175293,13.1669311523438,13.2271156311035,13.2878522872925,13.3491497039795,13.4110145568848,13.4734506607056,13.5364656448364,13.6000728607178,13.6642808914185,13.729100227356,13.7945404052734,13.8606090545654,13.9273128509521,13.9946613311768,14.0626649856567,14.1313323974609,14.2006740570068,14.2706995010376,14.3414182662964,14.412841796875,14.4849805831909,14.5578451156616,14.6314468383789
10.9563865661621,10.9656982421875,10.9750261306763,10.9843692779541,10.9937295913696,11.0031042098999,11.0124959945679,11.0219030380249,11.0313272476196,11.0407667160034,11.0502223968506,11.0596942901611,11.0556592941284,11.0515556335449,11.0474557876587,11.0433588027954,11.0392637252808,11.0351734161377,11.0310850143433,11.0269994735718,11.0229167938232,11.0188388824463,11.0147619247437,11.0106887817383,11.0066194534302,11.0025520324707,10.9984884262085,10.9944267272949,10.9903688430786,10.9863138198853,10.9822616577148,10.9782133102417,10.9741668701172,10.9701242446899,10.9660835266113,10.96204662323,10.9580125808716,10.9539813995361,10.9499530792236,10.9459276199341,10.9419050216675,10.9378862380981,10.9338693618774,10.929856300354,10.9258460998535,10.9218378067017,10.9178333282471,10.9138317108154,10.9098329544067,10.905837059021,10.9018440246582,10.8978538513184,10.8938674926758,10.8898830413818,10.8859014511108,10.8819236755371,10.877947807312,10.8739757537842,10.8700065612793,10.866039276123,10.8620758056641,10.8581142425537,10.8541564941406,10.8502016067505,8.3408842086792,8.32443141937256,8.30804347991943,8.29171943664551,8.2754602432251,8.25926399230957,8.24313163757324,8.22706127166748,8.2110538482666,8.20427894592285,8.19955444335938,8.1948356628418,8.19012260437012,8.18541431427002,8.18071174621582,8.17601490020752,8.1713228225708,8.16663646697998,8.16195583343506,8.15727996826172,8.15260982513428,8.14794540405273,8.14328575134277,8.13863086700439,8.13398265838623,8.12933921813965,8.12470054626465,8.12006759643555,8.11543941497803,8.11081695556641,8.10620021820068,8.10158824920654,8.09698104858398,8.09237957000732,8.08846664428711,8.1111364364624,8.13393306732178,8.15685844421387,8.17991352081299,8.20309925079346,8.22641658782959,8.2498664855957,8.27345180511475,8.2971715927124,8.3210277557373,8.34502124786377,8.36915397644043,8.39342594146729,8.41784000396729,8.44239616394043,8.46709537506104,8.49194049835205,8.51693153381348,8.54207038879395,8.56735706329346,8.59279441833496,8.61838340759277,8.64412593841553,8.67002201080322,8.69607353210449,8.72228240966797,8.74864959716797,8.77517700195312,8.80186557769775,8.82871627807617,8.85573196411133,8.88291358947754,8.91026210784912,8.93778038024902,8.96546840667725,8.99332904815674,9.02136325836182,9.0495719909668,9.07795906066895,9.10652351379395,9.13526916503906,9.1641960144043,9.19330787658691,9.22260475158691,9.25208854675293,9.28176116943359,9.31162548065186,9.34168243408203,9.37193393707275,9.40238189697266,9.43302917480469,9.46387577056885,9.4949254989624,9.52617931365967,9.55763912200928,9.58930778503418,9.62118721008301,9.65327930450439,9.68558692932129,9.71811103820801,9.75085353851318,9.78381824493408,9.81700706481934,9.85042190551758,9.88406372070312,9.91793727874756,9.9520435333252,9.98638439178467,10.0209636688232,10.0557832717896,10.0908460617065,10.1261539459229,10.1617097854614,10.1975154876709,10.2335758209229,10.2698907852173,10.3064651489258,10.343300819397,10.3804006576538,10.4177675247192,10.4554042816162,10.4933137893677,10.5314998626709,10.5699653625488,10.6087121963501,10.647744178772,10.6870651245117,10.726676940918,10.766583442688,10.806788444519,10.8472948074341,10.8881053924561,10.9292249679565,10.9706563949585,11.0124025344849,11.0544681549072,11.0968561172485,11.1395711898804,11.1826152801514,11.2259941101074,11.2697105407715,11.3137683868408,11.358172416687,11.4029264450073,11.448034286499,11.4935007095337,11.5393295288086,11.5855255126953,11.6320934295654,11.6790361404419,11.7263593673706,11.7740678787231,11.8221664428711,11.870659828186,11.9195518493652,11.9688482284546,12.0185546875,12.068675994873,12.1192169189453,12.1701822280884,12.2215785980225,12.2734107971191,12.3256721496582,12.3783807754517,12.4315414428711,12.4851608276367,12.5392532348633,12.5938167572021,12.6488571166992,12.7043809890747,12.7603931427002,12.8169097900391,12.8739290237427,12.9314584732056,12.9895048141479,13.04807472229,13.1071748733521,13.1668119430542,13.2269954681396,13.2877311706543,13.349027633667,13.4108915328979,13.4733285903931,13.5363426208496,13.5999488830566,13.664155960083,13.7289733886719,13.7944135665894,13.8604793548584,13.9271821975708,13.9945297241211,14.0625324249268,14.1311988830566,14.2005386352539,14.270562171936,14.3412809371948,14.4127025604248,14.4848403930664,14.5577030181885,14.6313028335571
10.927285194397,10.9365472793579,10.9458255767822,10.9551191329956,10.9644289016724,10.9737548828125,10.9830961227417,10.9924535751343,11.0018262863159,11.0112152099609,11.0081644058228,11.0040969848633,11.0000314712524,10.9959697723389,10.9919099807739,10.9878540039062,10.9838008880615,10.9797506332397,10.9757032394409,10.9716596603394,10.9676179885864,10.9635791778564,10.959545135498,10.955512046814,10.9514827728271,10.9474563598633,10.9434328079224,10.9394130706787,10.9353952407837,10.9313802719116,10.9273681640625,10.9233598709106,10.9193544387817,10.9153518676758,10.9113512039185,10.9073543548584,10.9033603668213,10.8993692398071,10.8953819274902,10.891396522522,10.8874139785767,10.8834342956543,10.8794574737549,10.8754844665527,10.8715133666992,10.867546081543,10.8635807037354,10.859619140625,10.8556594848633,10.8517036437988,10.847749710083,10.8437995910645,10.8398523330688,10.8359069824219,10.8319654464722,10.8280258178711,10.8240900039673,10.8201570510864,10.8162269592285,10.8122987747192,10.8083744049072,10.8044519424438,10.8005332946777,8.34812068939209,8.33163928985596,8.31522274017334,8.29887104034424,8.28258323669434,8.26635932922363,8.25019931793213,8.23410224914551,8.21806716918945,8.2090950012207,8.20436573028564,8.19964122772217,8.19492244720459,8.19020843505859,8.1855001449585,8.1807975769043,8.176100730896,8.17140865325928,8.16672229766846,8.16204166412354,8.1573657989502,8.15269565582275,8.14803028106689,8.14337062835693,8.13871669769287,8.13406753540039,8.12942314147949,8.12478542327881,8.12015247344971,8.11552429199219,8.11090183258057,8.10628414154053,8.10167217254639,8.09706497192383,8.09246349334717,8.08842182159424,8.11109066009521,8.13388729095459,8.15681266784668,8.1798677444458,8.20305252075195,8.22636985778809,8.24982070922852,8.27340412139893,8.29712390899658,8.32098007202148,8.34497356414795,8.36910533905029,8.39337825775146,8.41779136657715,8.44234752655029,8.4670467376709,8.4918909072876,8.51688194274902,8.54201984405518,8.567307472229,8.59274387359619,8.618332862854,8.64407444000244,8.66997051239014,8.69602203369141,8.72222995758057,8.74859714508057,8.77512359619141,8.80181217193604,8.82866287231445,8.85567855834961,8.88286018371582,8.9102087020874,8.93772602081299,8.96541404724121,8.99327373504639,9.02130699157715,9.04951667785645,9.07790279388428,9.10646724700928,9.13521194458008,9.16413879394531,9.19324970245361,9.22254657745361,9.25203037261963,9.28170299530029,9.31156635284424,9.34162330627441,9.37187385559082,9.40232181549072,9.43296813964844,9.4638147354126,9.49486351013184,9.5261173248291,9.55757713317871,9.58924579620361,9.62112426757812,9.65321636199951,9.68552207946777,9.71804523468018,9.75078868865967,9.78375244140625,9.81694030761719,9.85035419464111,9.88399696350098,9.91786861419678,9.95197486877441,9.98631572723389,10.0208950042725,10.0557136535645,10.0907754898071,10.1260824203491,10.1616382598877,10.1974439620972,10.2335033416748,10.2698173522949,10.3063917160034,10.3432264328003,10.3803262710571,10.4176921844482,10.4553279876709,10.4932374954224,10.5314226150513,10.5698871612549,10.6086339950562,10.647665977478,10.6869859695435,10.7265968322754,10.7665033340454,10.8067073822021,10.8472127914429,10.8880233764648,10.929141998291,10.9705724716187,11.012318611145,11.0543832778931,11.0967712402344,11.1394853591919,11.1825284957886,11.2259063720703,11.2696228027344,11.3136796951294,11.3580837249756,11.4028367996216,11.447943687439,11.4934091567993,11.5392379760742,11.5854330062866,11.6319990158081,11.6789417266846,11.726263999939,11.7739725112915,11.8220701217651,11.8705615997314,11.9194536209106,11.9687490463257,12.0184545516968,12.0685749053955,12.1191148757935,12.1700792312622,12.221474647522,12.2733058929443,12.3255786895752,12.3782930374146,12.4314527511597,12.485071182251,12.5391550064087,12.5937156677246,12.6487550735474,12.7042770385742,12.7602891921997,12.8167972564697,12.873815536499,12.9313440322876,12.9893894195557,13.0479583740234,13.1070566177368,13.166693687439,13.2268753051758,13.2876100540161,13.3489055633545,13.4107685089111,13.4732065200806,13.5362195968628,13.5998249053955,13.6640300750732,13.7288465499878,13.794285774231,13.8603506088257,13.9270524978638,13.9943981170654,14.0623998641968,14.131064414978,14.200403213501,14.2704257965088,14.3411426544189,14.4125633239746,14.4846992492676,14.5575609207153,14.6311597824097
