12.2732782363892,12.3208265304565,12.3687438964844,12.4170370101929,12.4657077789307,12.5147619247437,12.5642032623291,12.6140365600586,12.664267539978,12.7149000167847,12.7659387588501,12.8173885345459,12.869255065918,12.9215431213379,12.9742584228516,13.0274047851562,13.0809879302979,13.1350145339966,13.189489364624,13.2444171905518,13.2998046875,13.3556575775146,13.4119815826416,13.4687814712524,13.5260639190674,13.5838356018066,13.6421012878418,13.7008686065674,13.7601442337036,13.8199348449707,13.8802471160889,13.9410886764526,14.0024662017822,14.0643863677979,14.1268558502197,14.1898832321167,14.2283048629761,14.228235244751,14.2281656265259,14.2280960083008,14.2280263900757,14.2279567718506,14.2278871536255,14.2278718948364,14.227858543396,14.2572860717773,14.3241767883301,14.3916988372803,14.4598569869995,14.5286626815796,14.5981273651123,14.6682586669922,14.7390661239624,14.8105602264404,14.8827505111694,14.9556455612183,15.0262498855591,15.0262145996094,15.0261793136597,15.0261449813843,15.0261096954346,15.0260744094849,15.0260391235352,15.0260038375854,15.0259685516357,15.025933265686,15.0258979797363,15.0258626937866,15.0258283615112,15.0257930755615,15.0257577896118,15.0257225036621,15.0256872177124,15.0256519317627,15.025616645813,15.0255813598633,15.0255460739136,15.0255107879639,15.0254755020142,15.0254411697388,15.0254058837891,15.0253705978394,15.0253353118896,15.0253000259399,15.0252647399902,15.0252294540405,15.0251941680908,15.0251598358154,15.0251245498657,15.0250883102417,15.025053024292,15.0250177383423,15.0249824523926,15.0249471664429,15.0249118804932,15.0248765945435,15.0248413085938,15.0248050689697,15.02476978302,15.0247344970703,15.0246992111206,15.0246639251709,14.2256870269775,14.2257785797119,14.2257299423218,14.2256488800049,14.2255687713623,14.2254886627197,14.2254085540771,13.8630666732788,13.8516292572021,13.8402099609375,13.8288106918335,13.8174285888672,13.8060665130615,13.7947225570679,13.7833976745605,13.7720909118652,13.7608032226562,13.7495336532593,13.7382822036743,13.7270498275757,13.7158355712891,13.7046394348145,13.6934614181519,13.6823015213013,13.671160697937,13.6600370407104,13.6489324569702,13.6378450393677,13.6267757415771,13.6157245635986,13.6046915054321,13.5936756134033,13.5826787948608,13.5716981887817,13.560736656189,13.5497922897339,13.5388650894165,13.5279560089111,13.5170650482178,13.5061902999878,13.4953346252441,13.4844951629639,13.4736738204956,13.4628686904907,13.4520816802979,13.4413118362427,13.4305601119995,13.4198246002197,13.4091062545776,13.3984050750732,13.3877210617065,13.3770542144775,13.3664045333862,13.3557710647583,13.3451547622681,13.3345556259155,13.3239727020264,13.3134069442749,13.3028583526611,13.2923259735107,13.281810760498,13.2713117599487,13.2608289718628,13.2503633499146,13.2399139404297,13.2294807434082,13.2190647125244,13.208664894104,13.198281288147,13.1879138946533,13.177562713623,13.1672277450562,13.1569089889526,13.1466064453125,13.1363201141357,13.1260499954224,13.115795135498,13.1055574417114,13.0953350067139,13.0851287841797,13.0749378204346,13.0647630691528,13.2117147445679,13.3899784088135,13.5731191635132,13.7613382339478,13.9548492431641,14.1538677215576,14.3586444854736,16.8944206237793,16.8825778961182,16.8695411682129,16.8565254211426,16.8435287475586,16.8305511474609,16.8175945281982,16.8046588897705,16.7917423248291,16.787181854248,17.0759258270264,17.3747158050537,17.684118270874,18.0047397613525,0,0,0,0,0,0,0,0,0,0,0,0,0,0,0,0,0,0,0,0,0,0,0,0,0,0,0,0,0,0,0,0,0
12.273325920105,12.3208751678467,12.3687934875488,12.4170866012573,12.4657573699951,12.5148115158081,12.5642538070679,12.6140880584717,12.6643190383911,12.7149515151978,12.7659912109375,12.8174419403076,12.8693084716797,12.9215974807739,12.9743118286133,13.0274591445923,13.0810432434082,13.1350698471069,13.1895446777344,13.2444734573364,13.299861907959,13.3557157516479,13.4120397567749,13.4688405990601,13.5261240005493,13.5838966369629,13.642162322998,13.7009296417236,13.7602062225342,13.8199968338013,13.8803100585938,13.9411525726318,14.0025300979614,14.0644502639771,14.0767612457275,14.0766935348511,14.0766248703003,14.0765571594238,14.0764894485474,14.0764217376709,14.0763530731201,14.0763282775879,14.0763149261475,14.1254177093506,14.1910743713379,14.2573442459106,14.3242359161377,14.3917541503906,14.4599123001099,14.5287189483643,14.598183631897,14.6683149337769,14.7391233444214,14.8106164932251,14.8661813735962,14.8661470413208,14.8661127090454,14.8660774230957,14.8660430908203,14.8660087585449,14.8659744262695,14.8659400939941,14.8659057617188,14.8658714294434,14.865837097168,14.8658018112183,14.8657674789429,14.8657331466675,14.8656988143921,14.8656644821167,14.8656301498413,14.8655958175659,14.8655614852905,14.8655261993408,14.8654918670654,14.86545753479,14.8654222488403,14.8653879165649,14.8653526306152,14.8653182983398,14.8652839660645,14.8652486801147,14.8652143478394,14.865180015564,14.8651447296143,14.8651103973389,14.8650760650635,14.8650407791138,14.8650064468384,14.864972114563,14.8649368286133,14.8649024963379,14.8648681640625,14.8648328781128,14.8647985458374,14.864764213562,14.8647289276123,14.8646945953369,14.8646602630615,14.8646249771118,14.8645906448364,14.0742273330688,14.0742635726929,14.0741844177246,14.0741062164307,14.0740270614624,14.0739488601685,14.0738697052002,14.0737915039062,13.8631153106689,13.8516778945923,13.8402585983276,13.8288583755493,13.8174772262573,13.8061151504517,13.794771194458,13.7834463119507,13.7721395492554,13.7608509063721,13.7495813369751,13.7383298873901,13.7270975112915,13.7158832550049,13.7046871185303,13.6935091018677,13.6823492050171,13.6712083816528,13.6600847244263,13.6489791870117,13.6378917694092,13.626823425293,13.6157712936401,13.6047382354736,13.5937232971191,13.5827255249023,13.5717449188232,13.5607833862305,13.5498390197754,13.538911819458,13.5280027389526,13.517110824585,13.5062370300293,13.4953804016113,13.4845409393311,13.4737195968628,13.4629154205322,13.4521284103394,13.4413585662842,13.4306058883667,13.4198703765869,13.4091520309448,13.3984508514404,13.3877668380737,13.3770999908447,13.3664493560791,13.3558168411255,13.3452005386353,13.3346004486084,13.3240184783936,13.3134527206421,13.302903175354,13.2923707962036,13.2818555831909,13.2713565826416,13.2608737945557,13.2504081726074,13.2399587631226,13.2295255661011,13.2191095352173,13.2087087631226,13.1983251571655,13.1879577636719,13.1776065826416,13.1672716140747,13.1569528579712,13.1466503143311,13.1363639831543,13.1260938644409,13.1158390045166,13.1056003570557,13.0953788757324,13.0851716995239,13.0749816894531,13.0648069381714,13.2118978500366,13.3901672363281,13.5733127593994,13.7615375518799,13.9550523757935,14.1540765762329,14.3588600158691,16.8956909179688,16.8826332092285,16.8695964813232,16.8565807342529,16.8435840606689,16.8306064605713,16.8176498413086,16.8047142028809,16.7917976379395,16.7874813079834,17.0762348175049,17.3750305175781,17.6844444274902,18.0050773620605,19.8273181915283,19.827278137207,19.8272247314453,19.8271732330322,19.8271217346191,19.8270664215088,19.8270149230957,19.8269634246826,19.8269176483154,19.8268623352051,19.826810836792,19.8267650604248,19.8267154693604,19.8266582489014,19.8266086578369,19.8265571594238,19.8265075683594,19.8264465332031,19.8264026641846,19.8263511657715,19.826301574707,19.8262577056885,19.8262004852295,19.8261470794678,19.8260955810547,19.8260459899902,19.8259906768799,19.8259353637695,19.8258934020996,19.8258438110352,19.8257942199707,19.8257389068604,19.8256912231445
12.2733745574951,12.3209238052368,12.3688430786133,12.4171361923218,12.4658079147339,12.5148620605469,12.5643043518066,12.6141395568848,12.6643705368042,12.7150039672852,12.7660436630249,12.817494392395,12.8693618774414,12.9216508865356,12.9743661880493,13.0275135040283,13.0810985565186,13.1351261138916,13.189600944519,13.2445306777954,13.299919128418,13.3557729721069,13.4120969772339,13.4688997268677,13.5261840820312,13.5839567184448,13.64222240448,13.7009906768799,13.7602672576904,13.8200597763062,13.8803730010986,13.9284791946411,13.928412437439,13.9283456802368,13.9282789230347,13.9282121658325,13.9281463623047,13.9280796051025,13.9280128479004,13.927978515625,13.9320993423462,13.9959669113159,14.0604228973389,14.1254758834839,14.1911325454712,14.2574014663696,14.3242893218994,14.3918085098267,14.4599666595459,14.5287742614746,14.5982389450073,14.6683721542358,14.7094860076904,14.7094526290894,14.7094192504883,14.7093849182129,14.7093515396118,14.7093172073364,14.7092838287354,14.70924949646,14.7092151641846,14.7091817855835,14.7091474533081,14.709114074707,14.7090797424316,14.7090463638306,14.7090120315552,14.7089776992798,14.7089443206787,14.7089099884033,14.7088766098022,14.7088422775269,14.7088088989258,14.7087745666504,14.708740234375,14.7087068557739,14.7086725234985,14.7086391448975,14.7086048126221,14.7085704803467,14.7085371017456,14.7085027694702,14.7084693908691,14.7084350585938,14.7084016799927,14.7083673477173,14.7083330154419,14.7082996368408,14.7082653045654,14.7082319259644,14.708197593689,14.7081642150879,14.7081298828125,14.7080955505371,14.708062171936,14.7080278396606,14.7079944610596,14.7079601287842,14.7079257965088,13.9258699417114,13.9259586334229,13.925910949707,13.9258346557617,13.9257574081421,13.9256801605225,13.9256029129028,13.9255266189575,13.9254493713379,13.9526395797729,13.8631639480591,13.8517265319824,13.8403072357178,13.8289070129395,13.8175258636475,13.8061637878418,13.7948198318481,13.7834939956665,13.7721872329712,13.7608995437622,13.7496299743652,13.7383785247803,13.7271451950073,13.7159309387207,13.7047348022461,13.6935567855835,13.6823968887329,13.6712551116943,13.6601324081421,13.6490268707275,13.637939453125,13.6268701553345,13.615818977356,13.6047849655151,13.5937700271606,13.5827722549438,13.5717926025391,13.560830116272,13.5498857498169,13.5389585494995,13.5280494689941,13.5171575546265,13.5062837600708,13.4954271316528,13.4845876693726,13.47376537323,13.4629611968994,13.4521741867065,13.4414043426514,13.4306516647339,13.4199161529541,13.409197807312,13.3984966278076,13.3878126144409,13.3771448135376,13.3664951324463,13.3558616638184,13.3452453613281,13.3346462249756,13.3240633010864,13.313497543335,13.3029479980469,13.2924156188965,13.2819004058838,13.2714014053345,13.2609186172485,13.250452041626,13.2400026321411,13.2295703887939,13.2191534042358,13.2087535858154,13.1983690261841,13.1880016326904,13.1776504516602,13.1673154830933,13.1569967269897,13.1466941833496,13.1364078521729,13.1261367797852,13.1158828735352,13.1056442260742,13.0954217910767,13.0852155685425,13.0750246047974,13.0648498535156,13.2120819091797,13.3903560638428,13.5735063552856,13.761736869812,13.9552564620972,14.1542863845825,14.3590755462646,16.8957462310791,16.8826885223389,16.8696517944336,16.8566360473633,16.8436393737793,16.8306617736816,16.8177051544189,16.8047695159912,16.7918529510498,16.7877807617188,17.0765438079834,17.3753433227539,17.6847686767578,18.0054130554199,19.6183624267578,19.6183090209961,19.6182651519775,19.6182174682617,19.6181697845459,19.6181163787842,19.6180686950684,19.6180191040039,19.6179714202881,19.6179180145264,19.617862701416,19.6178150177002,19.617769241333,19.6177101135254,19.6176681518555,19.6176204681396,19.6175670623779,19.6175136566162,19.6174659729004,19.6174144744873,19.6173667907715,19.6173191070557,19.6172561645508,19.617208480835,19.6171741485596,19.6171169281006,19.6170635223389,19.6170177459717,19.61696434021,19.6169185638428,19.6168613433838,19.6168098449707,19.6167640686035
12.2734231948853,12.320972442627,12.3688917160034,12.4171857833862,12.4658575057983,12.5149126052856,12.5643558502197,12.6141910552979,12.6644220352173,12.7150554656982,12.7660961151123,12.8175468444824,12.8694152832031,12.9217042922974,12.9744205474854,13.0275688171387,13.0811538696289,13.135181427002,13.1896572113037,13.2445869445801,13.2999753952026,13.3558301925659,13.4121551513672,13.468957901001,13.5262432098389,13.5840167999268,13.6422834396362,13.7010517120361,13.760329246521,13.7832221984863,13.7831573486328,13.7830924987793,13.7830266952515,13.7829618453979,13.7828960418701,13.7828311920166,13.7827663421631,13.7827234268188,13.8061513900757,13.8688669204712,13.9321556091309,13.9960231781006,14.0604801177979,14.1255331039429,14.1911878585815,14.2574548721313,14.3243436813354,14.3918628692627,14.4600219726562,14.528829574585,14.5560922622681,14.556056022644,14.5560188293457,14.5559825897217,14.5559463500977,14.5559091567993,14.5558729171753,14.5558366775513,14.5557994842529,14.5557632446289,14.5557270050049,14.5556926727295,14.5556592941284,14.5556259155273,14.5555925369263,14.5555601119995,14.5555267333984,14.5554933547974,14.5554599761963,14.5554265975952,14.5553932189941,14.5553607940674,14.5553274154663,14.5552940368652,14.5552606582642,14.5552272796631,14.555193901062,14.5551614761353,14.5551280975342,14.5550947189331,14.555061340332,14.555027961731,14.5549945831299,14.5549621582031,14.5549287796021,14.554895401001,14.5548620223999,14.5548286437988,14.5547952651978,14.5547618865967,14.5547294616699,14.5546960830688,14.5546627044678,14.5546293258667,14.5545959472656,14.5545625686646,14.5545301437378,13.7806777954102,13.7806949615479,13.7807292938232,13.7806539535522,13.7805786132812,13.7805032730103,13.7804279327393,13.7803525924683,13.7802772521973,13.7802019119263,13.8610181808472,13.9527387619019,13.8632125854492,13.8517751693726,13.8403558731079,13.8289556503296,13.8175745010376,13.8062114715576,13.794867515564,13.7835426330566,13.7722358703613,13.760947227478,13.7496776580811,13.7384262084961,13.7271928787231,13.7159786224365,13.7047824859619,13.6936044692993,13.6824445724487,13.6713027954102,13.6601791381836,13.649073600769,13.6379871368408,13.626916885376,13.6158657073975,13.604832649231,13.5938167572021,13.5828189849854,13.5718393325806,13.5608768463135,13.5499324798584,13.539005279541,13.5280961990356,13.517204284668,13.506329536438,13.49547290802,13.4846334457397,13.4738121032715,13.4630069732666,13.4522199630737,13.4414501190186,13.4306974411011,13.4199619293213,13.4092435836792,13.3985424041748,13.3878574371338,13.3771905899048,13.3665399551392,13.3559064865112,13.345290184021,13.3346910476685,13.3241081237793,13.3135423660278,13.3029928207397,13.2924604415894,13.2819452285767,13.2714462280273,13.2609634399414,13.2504968643188,13.240047454834,13.2296142578125,13.2191982269287,13.208797454834,13.198413848877,13.1880464553833,13.1776943206787,13.1673593521118,13.1570405960083,13.1467380523682,13.1364517211914,13.1261806488037,13.1159267425537,13.1056880950928,13.0954656600952,13.085259437561,13.0750684738159,13.0648937225342,13.2122659683228,13.3905448913574,13.5737009048462,13.7619361877441,13.9554595947266,14.1544961929321,14.3592910766602,16.8958015441895,16.8827438354492,16.8697071075439,16.8566913604736,16.8436946868896,16.830717086792,16.8177604675293,16.8048229217529,16.7919063568115,16.7880802154541,17.0768547058105,17.3756580352783,17.6850929260254,18.0057506561279,19.4137687683105,19.4137191772461,19.4136695861816,19.4136257171631,19.4135665893555,19.4135189056396,19.4134693145752,19.4134254455566,19.4133777618408,19.4133243560791,19.4132823944092,19.4132270812988,19.413179397583,19.4131317138672,19.4130840301514,19.413028717041,19.4129810333252,19.412935256958,19.4128799438477,19.4128322601318,19.4127902984619,19.4127388000488,19.412691116333,19.4126434326172,19.4125919342041,19.4125442504883,19.4124927520752,19.4124450683594,19.4123973846436,19.4123439788818,19.4122982025146,19.4122447967529,19.4121990203857
12.2734718322754,12.3210220336914,12.3689413070679,12.4172353744507,12.4659080505371,12.5149631500244,12.5644063949585,12.6142416000366,12.6644744873047,12.7151079177856,12.7661485671997,12.8176002502441,12.8694686889648,12.9217586517334,12.9744749069214,13.0276231765747,13.0812091827393,13.1352367401123,13.1897134780884,13.2446432113647,13.3000326156616,13.3558874130249,13.4122133255005,13.4690160751343,13.5263023376465,13.5840768814087,13.6410284042358,13.6409645080566,13.6409006118774,13.6408367156982,13.640772819519,13.6407089233398,13.6406450271606,13.6405811309814,13.6405181884766,13.6404666900635,13.6824607849121,13.7440547943115,13.806206703186,13.8689222335815,13.9322109222412,13.9960803985596,14.0605363845825,14.1255855560303,14.1912403106689,14.2575082778931,14.3243970870972,14.3919172286987,14.4058742523193,14.4058389663696,14.4058027267456,14.4057664871216,14.4057312011719,14.4056949615479,14.4056596755981,14.4056234359741,14.4055881500244,14.4055519104004,14.4055166244507,14.4054803848267,14.405445098877,14.4054088592529,14.4053735733032,14.4053373336792,14.4053020477295,14.4052658081055,14.4052295684814,14.4051942825317,14.4051580429077,14.405122756958,14.405086517334,14.4050512313843,14.4050159454346,14.4049835205078,14.4049510955811,14.4049186706543,14.4048852920532,14.4048528671265,14.4048204421997,14.4047880172729,14.4047555923462,14.4047231674194,14.4046907424927,14.4046583175659,14.4046249389648,14.4045925140381,14.4045600891113,14.4045276641846,14.4044952392578,14.4044628143311,14.4044303894043,14.4043979644775,14.4043645858765,14.4043321609497,14.4042997360229,14.4042673110962,13.6384296417236,13.6385145187378,13.6384696960449,13.6383962631226,13.6383218765259,13.6382484436035,13.6381750106812,13.6381006240845,13.6380271911621,13.6812438964844,13.7705926895142,13.8611164093018,13.9528341293335,13.8632621765137,13.8518238067627,13.840404510498,13.8290042877197,13.8176231384277,13.8062601089478,13.7949161529541,13.7835903167725,13.7722835540771,13.7609958648682,13.7497253417969,13.7384738922119,13.7272415161133,13.7160263061523,13.7048301696777,13.6936521530151,13.6824922561646,13.671350479126,13.6602268218994,13.6491212844849,13.6380338668823,13.6269645690918,13.6159133911133,13.6048793792725,13.5938634872437,13.5828657150269,13.5718860626221,13.560923576355,13.5499782562256,13.5390520095825,13.5281419754028,13.5172500610352,13.5063762664795,13.4955196380615,13.4846801757812,13.4738578796387,13.4630527496338,13.4522657394409,13.4414958953857,13.4307432174683,13.4200077056885,13.4092893600464,13.3985872268677,13.387903213501,13.377236366272,13.3665857315063,13.3559522628784,13.3453359603882,13.3347358703613,13.3241529464722,13.3135871887207,13.3030385971069,13.2925052642822,13.2819900512695,13.2714900970459,13.26100730896,13.2505416870117,13.2400922775269,13.2296590805054,13.2192420959473,13.2088422775269,13.1984577178955,13.1880903244019,13.1777391433716,13.1674032211304,13.1570844650269,13.1467819213867,13.13649559021,13.1262245178223,13.1159706115723,13.1057319641113,13.0955095291138,13.0853023529053,13.0751113891602,13.0649366378784,13.2124490737915,13.3907337188721,13.5738945007324,13.7621355056763,13.9556636810303,14.1547050476074,14.3595066070557,16.8958568572998,16.8827991485596,16.8697624206543,16.856746673584,16.84375,16.8307723999023,16.8178157806396,16.8048782348633,16.7919616699219,16.7883796691895,17.0771636962891,17.3759708404541,17.6854190826416,18.0060882568359,19.2133922576904,19.2133388519287,19.2132911682129,19.213249206543,19.2131977081299,19.2131443023682,19.2131042480469,19.2130565643311,19.2130088806152,19.2129573822021,19.212911605835,19.2128658294678,19.2128124237061,19.212760925293,19.2127151489258,19.2126693725586,19.2126235961914,19.2125720977783,19.2125263214111,19.2124805450439,19.2124290466309,19.2123775482178,19.2123317718506,19.2122859954834,19.2122344970703,19.2121906280518,19.2121448516846,19.2120933532715,19.2120494842529,19.2120037078857,19.2119483947754,19.2118968963623,19.2118530273438
12.2735204696655,12.3210706710815,12.3689908981323,12.4172849655151,12.4659576416016,12.5150136947632,12.5644569396973,12.6142930984497,12.6645259857178,12.715160369873,12.7662010192871,12.8176536560059,12.8695220947266,12.9218120574951,12.9745292663574,13.0276775360107,13.0812635421753,13.1352920532227,13.1897687911987,13.2446994781494,13.3000898361206,13.3559446334839,13.4122714996338,13.4690752029419,13.5016717910767,13.5016078948975,13.5015459060669,13.5014848709106,13.5014228820801,13.5013608932495,13.5012998580933,13.5012378692627,13.5011749267578,13.5011167526245,13.5609664916992,13.6214694976807,13.6825141906738,13.7441091537476,13.8062620162964,13.8689785003662,13.9322671890259,13.9961347579956,14.0605878829956,14.1256380081177,14.1912937164307,14.2575616836548,14.2587251663208,14.2586898803711,14.2586545944214,14.258620262146,14.2585849761963,14.2585496902466,14.2585144042969,14.2584800720215,14.2584447860718,14.2584095001221,14.2583742141724,14.2583389282227,14.2583045959473,14.2582693099976,14.2582340240479,14.2581987380981,14.2581644058228,14.258129119873,14.2580938339233,14.2580585479736,14.2580242156982,14.2579889297485,14.2579536437988,14.2579183578491,14.2578840255737,14.257848739624,14.2578134536743,14.2577781677246,14.2577428817749,14.2577085494995,14.2576732635498,14.2576379776001,14.2576026916504,14.257568359375,14.2575330734253,14.2574977874756,14.2574625015259,14.2574281692505,14.2573947906494,14.257363319397,14.2573308944702,14.2572994232178,14.257266998291,14.2572355270386,14.2572031021118,14.2571716308594,14.2571401596069,14.2571077346802,13.4991502761841,13.49915599823,13.4991903305054,13.4991178512573,13.4990453720093,13.4989728927612,13.4989004135132,13.4988279342651,13.4987554550171,13.5060720443726,13.5931406021118,13.6813383102417,13.7706890106201,13.8612079620361,13.9529256820679,13.8633108139038,13.8518724441528,13.8404531478882,13.8290529251099,13.8176717758179,13.8063087463379,13.7949647903442,13.7836389541626,13.7723321914673,13.761043548584,13.749773979187,13.7385225296021,13.7272891998291,13.7160739898682,13.7048778533936,13.693699836731,13.6825399398804,13.6713981628418,13.6602745056152,13.6491689682007,13.6380815505981,13.6270112991333,13.6159601211548,13.604926109314,13.5939102172852,13.5829124450684,13.5719327926636,13.5609703063965,13.5500249862671,13.5390977859497,13.5281887054443,13.5172967910767,13.5064220428467,13.4955654144287,13.4847259521484,13.4739036560059,13.4630994796753,13.4523115158081,13.4415416717529,13.4307889938354,13.4200534820557,13.4093341827393,13.3986330032349,13.3879489898682,13.3772811889648,13.3666305541992,13.3559970855713,13.3453807830811,13.3347816467285,13.3241987228394,13.3136320114136,13.3030834197998,13.2925500869751,13.2820348739624,13.2715349197388,13.2610521316528,13.2505865097046,13.2401361465454,13.2297029495239,13.2192869186401,13.2088861465454,13.1985025405884,13.1881341934204,13.1777830123901,13.1674480438232,13.1571283340454,13.1468257904053,13.1365394592285,13.1262683868408,13.1160135269165,13.1057748794556,13.095552444458,13.0853462219238,13.0751552581787,13.064980506897,13.2126331329346,13.3909215927124,13.5740880966187,13.7623348236084,13.9558668136597,14.154914855957,14.3597221374512,16.8959121704102,16.8828544616699,16.8698177337646,16.8568019866943,16.8438034057617,16.8308277130127,16.81787109375,16.8049335479736,16.7920169830322,16.7886791229248,17.0774707794189,17.3762855529785,17.6857433319092,18.0064239501953,19.0170993804932,19.0170555114746,19.0170192718506,19.0169715881348,19.0169162750244,19.0168743133545,19.0168266296387,19.0167770385742,19.0167293548584,19.0166816711426,19.0166339874268,19.0165863037109,19.016544342041,19.0164909362793,19.0164489746094,19.0163993835449,19.0163516998291,19.0163059234619,19.0162582397461,19.0162105560303,19.0161628723145,19.0161170959473,19.0160751342773,19.0160274505615,19.0159797668457,19.0159358978271,19.0158824920654,19.0158348083496,19.0157890319824,19.0157470703125,19.0156898498535,19.0156440734863,19.015604019165
12.2735691070557,12.3211193084717,12.3690395355225,12.4173345565796,12.4660081863403,12.515064239502,12.5645084381104,12.6143436431885,12.6645774841309,12.7152118682861,12.7662534713745,12.8177061080933,12.8695755004883,12.9218654632568,12.9745826721191,13.0277318954468,13.0813188552856,13.135347366333,13.1898250579834,13.2447566986084,13.3001470565796,13.3560028076172,13.3651466369629,13.3650617599487,13.3650016784668,13.3649415969849,13.3648805618286,13.3648204803467,13.3647603988647,13.3646993637085,13.3646392822266,13.3826961517334,13.4416131973267,13.5010509490967,13.5610198974609,13.6215229034424,13.6825685501099,13.7441644668579,13.8063163757324,13.8690338134766,13.9323196411133,13.9961862564087,14.060640335083,14.1145858764648,14.1145515441895,14.1145172119141,14.1144828796387,14.1144485473633,14.1144142150879,14.1143798828125,14.1143455505371,14.1143112182617,14.1142768859863,14.1142425537109,14.1142082214355,14.1141738891602,14.1141395568848,14.1141052246094,14.114070892334,14.1140365600586,14.1140022277832,14.1139678955078,14.1139335632324,14.113899230957,14.1138648986816,14.1138305664062,14.1137952804565,14.1137609481812,14.1137266159058,14.1136922836304,14.113657951355,14.1136236190796,14.1135892868042,14.1135549545288,14.1135206222534,14.113486289978,14.1134519577026,14.1134176254272,14.1133832931519,14.1133489608765,14.1133146286011,14.1132802963257,14.1132459640503,14.1132116317749,14.1131772994995,14.1131429672241,14.1131086349487,14.1130743026733,14.1130399703979,14.1130056381226,14.1129713058472,14.1129369735718,13.3627433776855,13.3626165390015,13.3626976013184,13.3626546859741,13.3625841140747,13.362512588501,13.3624420166016,13.3623714447021,13.3622999191284,13.362229347229,13.4202041625977,13.5061655044556,13.5932340621948,13.6814317703247,13.7707786560059,13.8612995147705,13.9530181884766,13.8633594512939,13.851921081543,13.8405017852783,13.8291015625,13.817720413208,13.806357383728,13.7950124740601,13.7836875915527,13.7723798751831,13.7610912322998,13.7498216629028,13.7385702133179,13.7273368835449,13.716121673584,13.7049255371094,13.6937475204468,13.6825876235962,13.6714458465576,13.6603212356567,13.6492156982422,13.6381282806396,13.6270589828491,13.6160068511963,13.6049737930298,13.593957901001,13.5829591751099,13.5719795227051,13.561017036438,13.5500717163086,13.5391445159912,13.5282354354858,13.5173435211182,13.5064687728882,13.4956121444702,13.4847726821899,13.4739503860474,13.4631452560425,13.4523582458496,13.4415874481201,13.4308347702026,13.4200992584229,13.4093799591064,13.3986787796021,13.387993812561,13.377326965332,13.3666763305664,13.3560428619385,13.3454265594482,13.3348264694214,13.3242435455322,13.3136777877808,13.3031282424927,13.292594909668,13.2820796966553,13.2715797424316,13.2610969543457,13.2506303787231,13.2401809692383,13.2297477722168,13.2193307876587,13.208930015564,13.1985464096069,13.188178062439,13.1778268814087,13.1674919128418,13.157172203064,13.1468696594238,13.1365833282471,13.1263122558594,13.1160573959351,13.1058187484741,13.0955963134766,13.0853891372681,13.0751981735229,13.0650234222412,13.2128162384033,13.3911104202271,13.5742826461792,13.7625341415405,13.9560708999634,14.1551246643066,14.359938621521,16.8959674835205,16.8829097747803,16.869873046875,16.8568572998047,16.8438587188721,16.830883026123,16.8179264068604,16.804988861084,16.7920722961426,16.7889785766602,17.0777740478516,17.3765983581543,17.6860694885254,18.0067615509033,18.8247947692871,18.8247451782227,18.8246994018555,18.8246574401855,18.8246097564697,18.824556350708,18.8245143890381,18.8244686126709,18.8244323730469,18.8243732452393,18.824333190918,18.824291229248,18.8242454528809,18.8241882324219,18.824146270752,18.824104309082,18.8240585327148,18.8240070343018,18.8239669799805,18.8239212036133,18.8238792419434,18.8238220214844,18.8237762451172,18.8237361907959,18.8236904144287,18.8236389160156,18.8235931396484,18.8235473632812,18.8235015869141,18.8234615325928,18.8234119415283,18.8233661651611,18.8233261108398
12.2736177444458,12.3211688995361,12.3690891265869,12.417384147644,12.4660577774048,12.5151147842407,12.5645589828491,12.6143951416016,12.6646289825439,12.7152643203735,12.7663059234619,12.8177585601807,12.86962890625,12.9219198226929,12.9746370315552,13.0277872085571,13.081374168396,13.1354036331177,13.1898813247681,13.2313632965088,13.2313537597656,13.2312564849854,13.2311906814575,13.2311315536499,13.2310724258423,13.2310132980347,13.2309541702271,13.2308950424194,13.2308359146118,13.2664499282837,13.3243474960327,13.3827495574951,13.4416656494141,13.5011034011841,13.5610723495483,13.6215763092041,13.6826229095459,13.7442188262939,13.8063707351685,13.8690843582153,13.9323711395264,13.9732980728149,13.9732646942139,13.9732303619385,13.9731969833374,13.9731636047363,13.9731302261353,13.9730958938599,13.9730625152588,13.9730291366577,13.9729948043823,13.9729614257812,13.9729280471802,13.9728937149048,13.9728603363037,13.9728269577026,13.9727926254272,13.9727592468262,13.9727258682251,13.972692489624,13.9726581573486,13.9726247787476,13.9725914001465,13.9725570678711,13.97252368927,13.9724903106689,13.9724559783936,13.9724225997925,13.9723892211914,13.972354888916,13.9723215103149,13.9722881317139,13.9722547531128,13.9722204208374,13.9721870422363,13.9721536636353,13.9721193313599,13.9720859527588,13.9720525741577,13.9720182418823,13.9719848632812,13.9719514846802,13.9719171524048,13.9718837738037,13.9718503952026,13.9718170166016,13.9717826843262,13.9717493057251,13.971715927124,13.9716815948486,13.9716482162476,13.2288942337036,13.2288904190063,13.2289237976074,13.2288541793823,13.2287845611572,13.2287149429321,13.228645324707,13.2285757064819,13.2285060882568,13.251612663269,13.3354206085205,13.420295715332,13.5062580108643,13.5933246612549,13.6815204620361,13.7708683013916,13.8613901138306,13.9531097412109,13.8634080886841,13.8519697189331,13.8405504226685,13.8291501998901,13.8177680969238,13.8064050674438,13.7950611114502,13.7837352752686,13.7724285125732,13.7611398696899,13.7498693466187,13.7386178970337,13.7273845672607,13.7161703109741,13.7049732208252,13.6937952041626,13.6826343536377,13.6714925765991,13.6603689193726,13.649263381958,13.6381759643555,13.6271057128906,13.6160545349121,13.6050205230713,13.5940046310425,13.5830068588257,13.5720262527466,13.5610637664795,13.5501184463501,13.5391912460327,13.5282821655273,13.5173892974854,13.5065155029297,13.4956579208374,13.4848184585571,13.4739961624146,13.4631910324097,13.4524040222168,13.4416332244873,13.4308805465698,13.42014503479,13.4094257354736,13.3987245559692,13.3880395889282,13.3773717880249,13.3667221069336,13.3560876846313,13.3454713821411,13.3348712921143,13.3242883682251,13.3137226104736,13.3031730651855,13.2926397323608,13.2821245193481,13.2716245651245,13.2611417770386,13.250675201416,13.2402257919312,13.2297925949097,13.2193756103516,13.2089748382568,13.1985902786255,13.1882228851318,13.1778707504272,13.1675357818604,13.1572170257568,13.1469135284424,13.1366262435913,13.1263561248779,13.1161012649536,13.1058626174927,13.0956392288208,13.0854330062866,13.0752420425415,13.0650672912598,13.2130002975464,13.3912992477417,13.5744762420654,13.7627334594727,13.9562740325928,14.1553335189819,14.3601541519165,16.8960227966309,16.8829669952393,16.8699283599854,16.856912612915,16.8439140319824,16.8309383392334,16.8179798126221,16.8050441741943,16.7921257019043,16.7892761230469,17.0780754089355,17.3769130706787,17.686393737793,18.0070972442627,18.6363296508789,18.6362838745117,18.6362400054932,18.6361980438232,18.6361541748047,18.6361045837402,18.6360607147217,18.6360168457031,18.6359691619873,18.6359252929688,18.6358757019043,18.6358375549316,18.6357936859131,18.6357402801514,18.6357021331787,18.6356544494629,18.6356182098389,18.6355628967285,18.6355209350586,18.6354732513428,18.6354351043701,18.6353816986084,18.6353340148926,18.6352920532227,18.6352481842041,18.6352119445801,18.6351585388184,18.6351108551025,18.6350688934326,18.6350288391113,18.6349754333496,18.6349277496338,18.6348857879639
12.2736654281616,12.3212175369263,12.3691387176514,12.4174337387085,12.4661073684692,12.5151643753052,12.5646095275879,12.6144466400146,12.664680480957,12.7153158187866,12.7663583755493,12.8178119659424,12.8696823120117,12.9219732284546,12.9746913909912,13.0278415679932,13.0814294815063,13.1002149581909,13.1002054214478,13.1001176834106,13.1000337600708,13.0999755859375,13.0999174118042,13.0998592376709,13.0998020172119,13.0997438430786,13.0996856689453,13.1522054672241,13.2091083526611,13.2665042877197,13.3243989944458,13.3828010559082,13.4417171478271,13.5011568069458,13.5611257553101,13.6216306686401,13.6826772689819,13.744270324707,13.8064203262329,13.8348112106323,13.8347778320312,13.8347454071045,13.8347120285034,13.8346786499023,13.8346462249756,13.8346128463745,13.8345804214478,13.8345470428467,13.8345136642456,13.8344812393188,13.8344478607178,13.834415435791,13.8343820571899,13.8343486785889,13.8343162536621,13.834282875061,13.83424949646,13.8342170715332,13.8341836929321,13.8341512680054,13.8341178894043,13.8340845108032,13.8340520858765,13.8340187072754,13.8339853286743,13.8339529037476,13.8339195251465,13.8338871002197,13.8338537216187,13.8338203430176,13.8337879180908,13.8337545394897,13.833722114563,13.8336887359619,13.8336553573608,13.8336229324341,13.833592414856,13.8335618972778,13.8335304260254,13.8334999084473,13.8334693908691,13.833438873291,13.8334083557129,13.8333778381348,13.8333473205566,13.8333168029785,13.8332862854004,13.8332557678223,13.8332252502441,13.0978679656982,13.0977373123169,13.0978155136108,13.0977745056152,13.0977058410645,13.097638130188,13.0975694656372,13.0975017547607,13.0974340438843,13.0973653793335,13.1689395904541,13.2517013549805,13.3355112075806,13.4203872680664,13.5063457489014,13.593412399292,13.6816091537476,13.7709579467773,13.8614807128906,13.9532022476196,13.8634567260742,13.8520183563232,13.8405990600586,13.8291988372803,13.817816734314,13.806453704834,13.7951097488403,13.7837839126587,13.7724761962891,13.7611875534058,13.7499179840088,13.7386655807495,13.7274322509766,13.7162179946899,13.705020904541,13.6938428878784,13.6826820373535,13.6715402603149,13.6604166030884,13.6493110656738,13.638222694397,13.6271533966064,13.6161012649536,13.6050672531128,13.594051361084,13.5830535888672,13.5720729827881,13.561110496521,13.5501651763916,13.5392379760742,13.5283279418945,13.5174360275269,13.5065612792969,13.4957046508789,13.4848642349243,13.4740419387817,13.4632377624512,13.452449798584,13.4416790008545,13.430926322937,13.4201908111572,13.4094715118408,13.3987703323364,13.3880853652954,13.3774175643921,13.3667669296265,13.3561334609985,13.345516204834,13.3349170684814,13.3243341445923,13.3137674331665,13.3032178878784,13.292685508728,13.2821683883667,13.2716693878174,13.2611865997314,13.2507200241089,13.2402696609497,13.2298364639282,13.2194194793701,13.2090187072754,13.1986351013184,13.1882667541504,13.1779155731201,13.1675796508789,13.1572608947754,13.1469573974609,13.1366701126099,13.1263999938965,13.1161451339722,13.1059064865112,13.0956830978394,13.0854759216309,13.0752849578857,13.065110206604,13.2131843566895,13.3914880752563,13.5746698379517,13.7629327774048,13.9564781188965,14.1555433273315,14.360369682312,16.8960781097412,16.8830223083496,16.8699836730957,16.8569679260254,16.8439693450928,16.8309936523438,16.8180351257324,16.8050975799561,16.7921810150146,16.7895755767822,17.0783786773682,17.3772258758545,17.6867179870605,18.0074348449707,18.4516086578369,18.4515590667725,18.4515151977539,18.4514789581299,18.4514236450195,18.451379776001,18.4513378143311,18.4512996673584,18.4512405395508,18.4512100219727,18.4511661529541,18.4511184692383,18.4510765075684,18.4510288238525,18.4509792327881,18.4509410858154,18.4508991241455,18.4508533477783,18.4508037567139,18.4507617950439,18.450719833374,18.4506740570068,18.4506320953369,18.450590133667,18.4505424499512,18.4505004882812,18.4504528045654,18.4504127502441,18.4503707885742,18.4503288269043,18.4502830505371,18.4502410888672,18.4501895904541
12.2737140655518,12.3212661743164,12.3691873550415,12.4174833297729,12.466157913208,12.5152158737183,12.564661026001,12.6144981384277,12.6647319793701,12.715368270874,12.7664108276367,12.8178644180298,12.8697347640991,12.9220275878906,12.9716501235962,12.9716415405273,12.9716320037842,12.9715538024902,12.9714603424072,12.9713935852051,12.9713373184204,12.9712800979614,12.9712228775024,12.9711666107178,12.9844551086426,13.0399122238159,13.0958452224731,13.1522607803345,13.2091608047485,13.2665548324585,13.3244504928589,13.3828525543213,13.4417695999146,13.5012092590332,13.5611791610718,13.6216831207275,13.6827268600464,13.6990423202515,13.6990098953247,13.6989774703979,13.6989450454712,13.6989126205444,13.6988801956177,13.6988477706909,13.6988153457642,13.6987829208374,13.6987504959106,13.6987180709839,13.6986856460571,13.6986532211304,13.6986207962036,13.6985883712769,13.6985569000244,13.6985244750977,13.6984920501709,13.6984596252441,13.6984272003174,13.6983947753906,13.6983623504639,13.6983299255371,13.698299407959,13.6982698440552,13.6982402801514,13.6982097625732,13.6981801986694,13.6981496810913,13.6981201171875,13.6980895996094,13.6980600357056,13.6980295181274,13.6979999542236,13.6979703903198,13.6979398727417,13.6979103088379,13.6978797912598,13.697850227356,13.6978197097778,13.697790145874,13.6977596282959,13.6977300643921,13.6977005004883,13.6976699829102,13.6976404190063,13.6976099014282,13.6975803375244,13.6975498199463,13.6975202560425,12.9694118499756,12.9692478179932,12.9692354202271,12.9692668914795,12.9692001342773,12.9691333770752,12.969066619873,12.9689998626709,12.9689331054688,12.9688663482666,13.0065631866455,13.087290763855,13.1690273284912,13.2517910003662,13.3355989456177,13.4204721450806,13.5064315795898,13.5934991836548,13.681697845459,13.7710475921631,13.861572265625,13.9532947540283,13.8635063171387,13.8520679473877,13.8406476974487,13.8292474746704,13.8178653717041,13.8065023422241,13.7951574325562,13.7838315963745,13.7725248336792,13.7612361907959,13.7499656677246,13.7387142181396,13.7274808883667,13.7162656784058,13.7050685882568,13.6938905715942,13.6827297210693,13.6715879440308,13.6604642868042,13.6493577957153,13.6382703781128,13.6272001266479,13.6161489486694,13.6051149368286,13.5940980911255,13.5831003189087,13.5721197128296,13.5611572265625,13.5502119064331,13.5392847061157,13.528374671936,13.5174827575684,13.5066080093384,13.4957504272461,13.4849109649658,13.4740886688232,13.4632835388184,13.4524955749512,13.441725730896,13.4309720993042,13.4202356338501,13.409517288208,13.3988151550293,13.3881311416626,13.3774633407593,13.3668127059937,13.3561782836914,13.3455619812012,13.3349618911743,13.3243789672852,13.3138122558594,13.3032627105713,13.2927303314209,13.2822132110596,13.2717142105103,13.2612314224243,13.2507648468018,13.2403144836426,13.2298812866211,13.219464302063,13.2090635299683,13.1986789703369,13.1883106231689,13.1779594421387,13.1676235198975,13.1573047637939,13.1470012664795,13.1367139816284,13.126443862915,13.1161890029907,13.1059494018555,13.0957269668579,13.0855197906494,13.0753288269043,13.0651531219482,13.2133674621582,13.391676902771,13.5748643875122,13.7631320953369,13.9566812515259,14.1557531356812,14.3605852127075,16.8961353302002,16.88307762146,16.8700389862061,16.8570232391357,16.8440246582031,16.8310470581055,16.8180904388428,16.8051528930664,16.792236328125,16.7898750305176,17.0786819458008,17.3775405883789,17.6870441436768,18.0077724456787,18.2705039978027,18.2704582214355,18.2704257965088,18.2703800201416,18.2703285217285,18.2702941894531,18.2702503204346,18.2702045440674,18.2701549530029,18.270112991333,18.2700748443604,18.2700309753418,18.2699909210205,18.2699394226074,18.2698955535889,18.2698574066162,18.269811630249,18.2697734832764,18.2697296142578,18.2696857452393,18.2696399688721,18.2695903778076,18.2695465087891,18.2695083618164,18.2694644927979,18.2694149017334,18.2693824768066,18.2693386077881,18.2692947387695,18.269250869751,18.2692070007324,18.2691631317139,18.2691192626953
12.2737627029419,12.3213148117065,12.369236946106,12.4175329208374,12.4662075042725,12.5152654647827,12.5647115707397,12.6145486831665,12.6647834777832,12.7154207229614,12.7664632797241,12.8179178237915,12.8455753326416,12.8455667495728,12.8455581665039,12.8454885482788,12.8453960418701,12.8453121185303,12.8452558517456,12.8452005386353,12.8451442718506,12.8450889587402,12.8749961853027,12.9295206069946,12.9845085144043,13.039966583252,13.0958995819092,13.1523113250732,13.2092113494873,13.2666063308716,13.324501991272,13.3829050064087,13.441822052002,13.5012617111206,13.5612306594849,13.5659112930298,13.5658798217773,13.5658483505249,13.5658168792725,13.5657844543457,13.5657529830933,13.5657215118408,13.5656890869141,13.5656576156616,13.5656280517578,13.565598487854,13.5655698776245,13.5655403137207,13.5655107498169,13.5654811859131,13.5654516220093,13.5654220581055,13.565393447876,13.5653638839722,13.5653343200684,13.5653047561646,13.5652751922607,13.5652456283569,13.5652170181274,13.5651874542236,13.5651578903198,13.565128326416,13.5650987625122,13.5650691986084,13.5650396347046,13.5650110244751,13.5649814605713,13.5649518966675,13.5649223327637,13.5648927688599,13.5648632049561,13.5648345947266,13.5648050308228,13.5647754669189,13.5647459030151,13.5647163391113,13.5646867752075,13.564658164978,13.5646286010742,13.5645990371704,13.5645694732666,13.5645399093628,13.564510345459,13.5644817352295,13.5644521713257,13.5644226074219,12.8432903289795,12.8431549072266,12.8432292938232,12.8431911468506,12.8431253433228,12.8430595397949,12.8429946899414,12.8429288864136,12.8428630828857,12.8481435775757,12.9269104003906,13.006649017334,13.0873785018921,13.1691150665283,13.2518768310547,13.3356838226318,13.4205570220947,13.5065183639526,13.5935869216919,13.6817865371704,13.7711372375488,13.8616628646851,13.9533863067627,13.8635549545288,13.8521165847778,13.8406963348389,13.8292961120605,13.8179140090942,13.8065509796143,13.7952060699463,13.7838802337646,13.772572517395,13.7612838745117,13.7500133514404,13.7387619018555,13.7275285720825,13.7163133621216,13.7051162719727,13.6939382553101,13.6827774047852,13.6716356277466,13.6605110168457,13.6494054794312,13.6383171081543,13.6272478103638,13.6161956787109,13.6051616668701,13.5941457748413,13.5831470489502,13.5721664428711,13.561203956604,13.5502586364746,13.5393314361572,13.5284214019775,13.5175285339355,13.5066537857056,13.4957971572876,13.484956741333,13.4741344451904,13.4633293151855,13.4525413513184,13.4417715072632,13.4310178756714,13.4202814102173,13.4095630645752,13.3988609313965,13.3881759643555,13.3775081634521,13.3668575286865,13.3562240600586,13.345606803894,13.3350067138672,13.324423789978,13.3138570785522,13.3033075332642,13.2927751541138,13.2822580337524,13.2717590332031,13.2612752914429,13.2508087158203,13.2403593063354,13.2299251556396,13.2195081710815,13.2091073989868,13.1987228393555,13.1883554458618,13.1780033111572,13.167667388916,13.1573486328125,13.147045135498,13.136757850647,13.1264867782593,13.116231918335,13.105993270874,13.0957698822021,13.085563659668,13.0753717422485,13.0651969909668,13.2135515213013,13.3918657302856,13.5750579833984,13.7633295059204,13.9568853378296,14.1559619903564,14.360800743103,16.7625617980957,16.7625007629395,16.7624416351318,16.7623805999756,16.7623195648193,16.7622585296631,16.7621974945068,16.7621364593506,16.7922916412354,16.7901744842529,17.0789852142334,17.3778533935547,17.6873683929443,18.0081081390381,18.0929222106934,18.0928840637207,18.0928440093994,18.0928058624268,18.0927543640137,18.092716217041,18.0926704406738,18.0926322937012,18.0925827026367,18.0925369262695,18.0924987792969,18.0924606323242,18.0924205780029,18.0923709869385,18.0923328399658,18.0922889709473,18.0922451019287,18.0922012329102,18.0921630859375,18.092113494873,18.0920753479004,18.0920333862305,18.0919952392578,18.0919456481934,18.0919075012207,18.0918636322021,18.0918159484863,18.0917778015137,18.0917339324951,18.0916919708252,18.0916481018066,18.0916004180908,18.0915699005127
12.273811340332,12.321364402771,12.3692865371704,12.4175825119019,12.4662580490112,12.5153160095215,12.5647621154785,12.6146001815796,12.6648359298706,12.7154722213745,12.7219285964966,12.7219200134277,12.7219104766846,12.7218494415283,12.7217597961426,12.7216691970825,12.7216024398804,12.7215480804443,12.721492767334,12.7214384078979,12.7673673629761,12.8209819793701,12.8750486373901,12.9295740127563,12.9845628738403,13.040018081665,13.0959491729736,13.1523609161377,13.2092618942261,13.2666568756104,13.3245525360107,13.3829565048218,13.4353799819946,13.4353532791138,13.4353256225586,13.4352979660034,13.4352712631226,13.4352426528931,13.4352130889893,13.4351844787598,13.4351558685303,13.4351272583008,13.4350986480713,13.4350690841675,13.435040473938,13.4350118637085,13.434983253479,13.4349536895752,13.4349250793457,13.4348964691162,13.4348678588867,13.4348382949829,13.4348096847534,13.4347810745239,13.4347524642944,13.4347229003906,13.4346942901611,13.4346656799316,13.4346370697021,13.4346075057983,13.4345788955688,13.4345502853394,13.4345216751099,13.4344921112061,13.4344635009766,13.4344348907471,13.4344062805176,13.4343767166138,13.4343481063843,13.4343194961548,13.4342908859253,13.4342613220215,13.434232711792,13.4342041015625,13.434175491333,13.4341459274292,13.4341173171997,13.4340887069702,13.4340600967407,13.4340305328369,13.4340019226074,13.4339733123779,13.4339447021484,13.4339151382446,12.7197551727295,12.719596862793,12.719575881958,12.7196063995361,12.7195425033569,12.7194786071777,12.7194137573242,12.719349861145,12.7192859649658,12.7192211151123,12.7704124450684,12.8482265472412,12.9269952774048,13.0067348480225,13.0874652862549,13.1691989898682,13.2519598007202,13.3357677459717,13.4206418991089,13.5066041946411,13.593674659729,13.6818742752075,13.7712268829346,13.8617534637451,13.9534788131714,13.8636035919189,13.852165222168,13.840744972229,13.8293447494507,13.8179626464844,13.8065996170044,13.7952547073364,13.7839288711548,13.7726211547852,13.7613325119019,13.7500619888306,13.7388095855713,13.7275762557983,13.7163610458374,13.7051639556885,13.6939859390259,13.682825088501,13.6716823577881,13.6605587005615,13.6494522094727,13.6383647918701,13.6272945404053,13.6162424087524,13.6052083969116,13.5941925048828,13.5831937789917,13.5722131729126,13.5612506866455,13.5503053665161,13.5393772125244,13.5284671783447,13.5175752639771,13.5067005157471,13.4958429336548,13.4850034713745,13.4741802215576,13.4633750915527,13.4525880813599,13.4418172836304,13.4310636520386,13.4203271865845,13.4096088409424,13.3989067077637,13.3882217407227,13.3775539398193,13.3669033050537,13.3562688827515,13.3456525802612,13.3350524902344,13.3244686126709,13.3139028549194,13.303352355957,13.2928199768066,13.2823028564453,13.271803855896,13.2613201141357,13.2508535385132,13.240403175354,13.2299699783325,13.2195529937744,13.2091522216797,13.1987676620483,13.1883993148804,13.1780471801758,13.1677122116089,13.1573925018311,13.1470890045166,13.1368017196655,13.1265306472778,13.1162757873535,13.1060371398926,13.0958137512207,13.0856065750122,13.0754156112671,13.065239906311,13.2137355804443,13.3920545578003,13.5752515792847,13.7635278701782,13.957088470459,14.1561717987061,14.3610162734985,16.6011867523193,16.6011257171631,16.6010665893555,16.6010074615479,16.6009483337402,16.600887298584,16.6008281707764,16.6465854644775,16.7923450469971,16.7904739379883,17.079288482666,17.3781681060791,17.6876945495605,17.9188137054443,17.9187660217285,17.9187240600586,17.9186820983887,17.9186420440674,17.9185943603516,17.9185543060303,17.9185123443604,17.918478012085,17.9184303283691,17.9183902740479,17.9183483123779,17.9183082580566,17.9182624816895,17.9182205200195,17.9181861877441,17.9181442260742,17.9181041717529,17.9180526733398,17.9180126190186,17.9179725646973,17.917932510376,17.9178924560547,17.9178524017334,17.9178123474121,17.9177665710449,17.9177207946777,17.9176807403564,17.9176406860352,17.9176063537598,17.9175624847412,17.917516708374,17.9174766540527,17.9174327850342
12.2738599777222,12.3214130401611,12.3693351745605,12.4176321029663,12.4663076400757,12.5153665542603,12.5648126602173,12.6006469726562,12.6006383895874,12.6006298065186,12.6006212234497,12.600567817688,12.6004800796509,12.6003913879395,12.6003065109253,12.6002531051636,12.6001996994019,12.6092309951782,12.6615228652954,12.7142505645752,12.7674188613892,12.8210344314575,12.8751020431519,12.9296264648438,12.9846115112305,13.0400676727295,13.0959987640381,13.1524114608765,13.2093124389648,13.2667074203491,13.3073148727417,13.3072881698608,13.30726146698,13.3072347640991,13.3072080612183,13.3071813583374,13.3071537017822,13.3071269989014,13.3071002960205,13.3070735931396,13.3070468902588,13.3070201873779,13.3069934844971,13.3069667816162,13.3069400787354,13.3069133758545,13.3068866729736,13.3068580627441,13.3068294525146,13.3068017959595,13.30677318573,13.3067445755005,13.3067169189453,13.3066883087158,13.3066596984863,13.3066310882568,13.3066034317017,13.3065748214722,13.3065462112427,13.3065185546875,13.306489944458,13.3064613342285,13.3064336776733,13.3064050674438,13.3063764572144,13.3063488006592,13.3063201904297,13.3062915802002,13.306263923645,13.3062353134155,13.306206703186,13.3061790466309,13.3061504364014,13.3061218261719,13.3060941696167,13.3060655593872,13.3060369491577,13.3060092926025,13.305980682373,13.3059520721436,13.3059244155884,13.3058958053589,12.5985651016235,12.5984191894531,12.5982799530029,12.598352432251,12.5983152389526,12.5982522964478,12.5981893539429,12.598126411438,12.5980634689331,12.5980005264282,12.6176595687866,12.6936178207397,12.7704954147339,12.8483104705811,12.9270801544189,13.0068197250366,13.0875463485718,13.1692810058594,13.2520427703857,13.3358516693115,13.4207277297974,13.5066909790039,13.5937623977661,13.6819629669189,13.7713165283203,13.8618440628052,13.9535703659058,13.8636522293091,13.8522138595581,13.8407936096191,13.8293933868408,13.8180112838745,13.8066473007202,13.7953033447266,13.7839765548706,13.772668838501,13.7613801956177,13.7501096725464,13.7388572692871,13.7276239395142,13.7164087295532,13.7052116394043,13.6940326690674,13.6828727722168,13.6717300415039,13.6606063842773,13.6494998931885,13.6384115219116,13.6273422241211,13.6162900924683,13.6052551269531,13.5942392349243,13.5832405090332,13.5722599029541,13.561297416687,13.5503520965576,13.5394239425659,13.5285139083862,13.5176219940186,13.5067472457886,13.4958896636963,13.4850492477417,13.4742269515991,13.4634218215942,13.4526338577271,13.4418630599976,13.4311094284058,13.4203729629517,13.4096546173096,13.3989524841309,13.3882675170898,13.3775997161865,13.3669481277466,13.3563146591187,13.3456974029541,13.3350973129272,13.3245143890381,13.3139476776123,13.3033971786499,13.2928647994995,13.2823476791382,13.2718477249146,13.2613649368286,13.2508983612061,13.2404479980469,13.2300148010254,13.219596862793,13.2091960906982,13.1988115310669,13.1884431838989,13.1780920028687,13.1677560806274,13.1574363708496,13.1471328735352,13.1368455886841,13.1265745162964,13.1163196563721,13.1060800552368,13.0958576202393,13.0856504440308,13.0754585266113,13.0652837753296,13.2139186859131,13.3922433853149,13.5754461288452,13.763726234436,13.9572925567627,14.1563816070557,14.361231803894,16.4428882598877,16.4428291320801,16.4427700042725,16.4427127838135,16.4426536560059,16.4425945281982,16.4425354003906,16.6468086242676,16.7924003601074,16.7907733917236,17.0795917510986,17.3784809112549,17.6880187988281,17.7479705810547,17.7479248046875,17.7478828430176,17.7478485107422,17.7478084564209,17.7477626800537,17.7477283477783,17.7476806640625,17.7476482391357,17.7475967407227,17.7475624084473,17.7475166320801,17.7474822998047,17.7474308013916,17.7473964691162,17.7473621368408,17.7473163604736,17.7472705841064,17.7472324371338,17.7471866607666,17.7471523284912,17.747106552124,17.7470626831055,17.7470226287842,17.7469844818115,17.7469520568848,17.7469005584717,17.746862411499,17.7468223571777,17.7467842102051,17.7467403411865,17.7467002868652,17.7466564178467,17.7466163635254
12.2739086151123,12.3214616775513,12.369384765625,12.4176816940308,12.4663581848145,12.4816484451294,12.4816398620605,12.4816312789917,12.4816226959229,12.48157787323,12.4814910888672,12.4814043045044,12.4813175201416,12.4812498092651,12.4811973571777,12.5059814453125,12.5574188232422,12.609281539917,12.6615734100342,12.7143020629883,12.7674713134766,12.8210868835449,12.8751525878906,12.9296741485596,12.9846611022949,13.0401163101196,13.0960483551025,13.1524610519409,13.1816673278809,13.1816415786743,13.1816148757935,13.1815891265869,13.1815624237061,13.1815366744995,13.1815099716187,13.1814842224121,13.1814575195312,13.1814308166504,13.1814050674438,13.181378364563,13.1813526153564,13.1813259124756,13.181300163269,13.1812734603882,13.1812467575073,13.1812210083008,13.1811943054199,13.1811685562134,13.1811418533325,13.181116104126,13.1810894012451,13.1810636520386,13.1810369491577,13.1810102462769,13.1809844970703,13.1809577941895,13.1809320449829,13.1809034347534,13.1808757781982,13.1808481216431,13.1808204650879,13.1807928085327,13.1807651519775,13.1807374954224,13.1807098388672,13.1806812286377,13.1806535720825,13.1806259155273,13.1805982589722,13.180570602417,13.1805429458618,13.1805152893066,13.1804876327515,13.1804599761963,13.1804323196411,13.1804037094116,13.1803760528564,13.1803483963013,13.1803207397461,13.1802930831909,12.4795999526978,12.479528427124,12.4793767929077,12.4793472290039,12.4793767929077,12.4793157577515,12.4792537689209,12.4791917800903,12.4791297912598,12.4790678024292,12.4790067672729,12.5426845550537,12.6177396774292,12.6936988830566,12.7705783843994,12.8483943939209,12.9271621704102,13.0068998336792,13.0876274108887,13.1693630218506,13.2521257400513,13.3359365463257,13.4208126068115,13.5067768096924,13.5938491821289,13.6820516586304,13.7714061737061,13.8619356155396,13.9536628723145,13.8637008666992,13.8522624969482,13.8408432006836,13.829442024231,13.8180599212646,13.8066959381104,13.7953510284424,13.7840251922607,13.7727174758911,13.7614288330078,13.7501573562622,13.7389059066772,13.72767162323,13.716456413269,13.7052593231201,13.6940803527832,13.6829204559326,13.6717777252197,13.6606531143188,13.6495475769043,13.6384592056274,13.6273889541626,13.6163368225098,13.6053028106689,13.5942859649658,13.5832872390747,13.5723066329956,13.5613441467285,13.5503988265991,13.5394706726074,13.5285606384277,13.5176677703857,13.5067930221558,13.4959354400635,13.4850959777832,13.4742727279663,13.4634675979614,13.4526796340942,13.4419088363647,13.4311552047729,13.4204187393188,13.4096994400024,13.3989973068237,13.3883123397827,13.3776445388794,13.3669939041138,13.3563594818115,13.3457431793213,13.3351421356201,13.324559211731,13.3139925003052,13.3034429550171,13.2929096221924,13.2823925018311,13.2718925476074,13.2614097595215,13.2509431838989,13.2404928207397,13.2300586700439,13.2196416854858,13.2092409133911,13.1988563537598,13.1884880065918,13.1781358718872,13.167799949646,13.1574802398682,13.1471767425537,13.1368894577026,13.1266183853149,13.1163635253906,13.1061239242554,13.0959005355835,13.085693359375,13.0755023956299,13.0653266906738,13.2141027450562,13.3924322128296,13.5756397247314,13.7639236450195,13.9574956893921,14.156590461731,14.3614473342896,16.2875785827637,16.2875213623047,16.2874641418457,16.2874069213867,16.2873497009277,16.2872924804688,16.37912940979,16.6470031738281,16.7924556732178,16.791072845459,17.0798950195312,17.3787956237793,17.5803909301758,17.5803546905518,17.5803127288818,17.5802707672119,17.5802326202393,17.5801963806152,17.5801486968994,17.5801124572754,17.5800762176514,17.5800342559814,17.5799865722656,17.5799503326416,17.5799140930176,17.5798778533936,17.5798320770264,17.5797882080078,17.5797481536865,17.5797119140625,17.5796699523926,17.5796298980713,17.5795879364014,17.5795516967773,17.5795116424561,17.5794696807861,17.5794296264648,17.5793933868408,17.579345703125,17.5793018341064,17.5792655944824,17.5792255401611,17.5791854858398,17.5791435241699,17.5791034698486,17.5790691375732,17.579029083252
12.2739572525024,12.3215103149414,12.3648834228516,12.364875793457,12.3648672103882,12.3648595809937,12.3648509979248,12.3648128509521,12.364727973938,12.3646430969238,12.3645582199097,12.3644733428955,12.3644218444824,12.4044094085693,12.4550132751465,12.506031036377,12.557469367981,12.6093320846558,12.6616249084473,12.7143535614014,12.7675228118896,12.8211355209351,12.8752002716064,12.9297227859497,12.9847097396851,13.0401659011841,13.0583715438843,13.0583457946777,13.0583200454712,13.0582942962646,13.0582675933838,13.0582418441772,13.0582160949707,13.0581903457642,13.0581645965576,13.0581388473511,13.0581130981445,13.058087348938,13.0580615997314,13.0580358505249,13.0580101013184,13.0579843521118,13.0579586029053,13.0579328536987,13.0579071044922,13.0578813552856,13.0578556060791,13.0578298568726,13.057804107666,13.0577783584595,13.0577526092529,13.0577259063721,13.0577001571655,13.057674407959,13.0576486587524,13.0576229095459,13.0575971603394,13.0575714111328,13.0575456619263,13.0575199127197,13.0574941635132,13.0574684143066,13.0574426651001,13.0574169158936,13.057391166687,13.0573654174805,13.0573387145996,13.0573120117188,13.0572843551636,13.0572576522827,13.0572299957275,13.0572023391724,13.0571756362915,13.0571479797363,13.0571212768555,13.0570936203003,13.0570669174194,13.0570392608643,13.0570116043091,12.3628396987915,12.3627109527588,12.36256980896,12.3626384735107,12.362603187561,12.3625421524048,12.3624820709229,12.3624210357666,12.3623600006104,12.3622999191284,12.3952989578247,12.4685955047607,12.5427646636963,12.6178207397461,12.6937808990479,12.7706613540649,12.8484745025635,12.9272413253784,13.0069799423218,13.0877075195312,13.1694450378418,13.2522087097168,13.3360204696655,13.4208974838257,13.5068635940552,13.593936920166,13.6821403503418,13.7714958190918,13.8620262145996,13.9537553787231,13.8637504577637,13.8523111343384,13.8408918380737,13.8294906616211,13.8181076049805,13.8067445755005,13.7953996658325,13.7840728759766,13.7727661132812,13.7614765167236,13.7502059936523,13.7389535903931,13.7277202606201,13.7165040969849,13.7053070068359,13.694128036499,13.6829681396484,13.6718254089355,13.6607007980347,13.6495943069458,13.6385068893433,13.6274366378784,13.6163835525513,13.6053495407104,13.5943326950073,13.5833349227905,13.5723533630371,13.56139087677,13.5504446029663,13.5395174026489,13.5286073684692,13.5177145004272,13.5068397521973,13.495982170105,13.4851417541504,13.4743185043335,13.4635133743286,13.4527254104614,13.4419546127319,13.4312009811401,13.420464515686,13.4097452163696,13.3990430831909,13.3883581161499,13.3776903152466,13.367039680481,13.3564052581787,13.3457880020142,13.3351879119873,13.3246040344238,13.314037322998,13.30348777771,13.2929544448853,13.2824373245239,13.2719373703003,13.2614545822144,13.2509870529175,13.2405366897583,13.2301034927368,13.2196855545044,13.2092847824097,13.1989002227783,13.1885318756104,13.1781797409058,13.1678438186646,13.1575241088867,13.1472206115723,13.1369333267212,13.1266622543335,13.1164073944092,13.1061677932739,13.0959444046021,13.0857372283936,13.0755462646484,13.0653705596924,13.2142868041992,13.3926210403442,13.5758333206177,13.7641220092773,13.9576997756958,14.1568002700806,14.3616628646851,16.1351776123047,16.1351203918457,16.1350650787354,16.1350078582764,16.134952545166,16.134895324707,16.379415512085,16.6471977233887,16.7925109863281,16.7913722991943,17.0801982879639,17.3791084289551,17.4159202575684,17.4158744812012,17.4158325195312,17.4157905578613,17.4157619476318,17.4157199859619,17.4156742095947,17.4156398773193,17.415599822998,17.4155693054199,17.4155235290527,17.4154834747314,17.4154434204102,17.4154090881348,17.4153633117676,17.4153213500977,17.4152812957764,17.415246963501,17.4152126312256,17.4151668548584,17.4151268005371,17.4150867462158,17.4150524139404,17.4150085449219,17.4149684906006,17.4149227142334,17.4148941040039,17.4148559570312,17.4148120880127,17.4147720336914,17.4147319793701,17.4146938323975,17.4146537780762,17.4146156311035,17.4145698547363
12.2502756118774,12.2502679824829,12.2502593994141,12.2502517700195,12.250244140625,12.2502126693726,12.250129699707,12.2500457763672,12.2499628067017,12.2498788833618,12.2550830841064,12.3044738769531,12.3542633056641,12.4044580459595,12.4550628662109,12.5060815811157,12.5575199127197,12.6093826293945,12.6616764068604,12.7144031524658,12.7675695419312,12.8211832046509,12.8752479553223,12.9297714233398,12.9373598098755,12.9373340606689,12.9373092651367,12.9372835159302,12.9372587203979,12.9372329711914,12.9372081756592,12.9371824264526,12.9371576309204,12.9371318817139,12.9371070861816,12.9370813369751,12.9370555877686,12.9370307922363,12.9370050430298,12.9369802474976,12.936954498291,12.9369297027588,12.9369039535522,12.93687915802,12.9368534088135,12.9368276596069,12.9368028640747,12.9367771148682,12.9367523193359,12.9367265701294,12.9367017745972,12.9366760253906,12.9366512298584,12.9366254806519,12.9366006851196,12.9365749359131,12.9365491867065,12.9365243911743,12.9364986419678,12.9364738464355,12.936448097229,12.9364233016968,12.9363975524902,12.936372756958,12.9363470077515,12.9363222122192,12.9362964630127,12.9362707138062,12.9362459182739,12.9362201690674,12.9361953735352,12.9361696243286,12.9361448287964,12.9361190795898,12.9360942840576,12.9360685348511,12.9360427856445,12.2482643127441,12.2482070922852,12.2480611801147,12.2480249404907,12.2480535507202,12.2479944229126,12.2479343414307,12.247875213623,12.2478151321411,12.2477560043335,12.2513370513916,12.3229351043701,12.3953762054443,12.468674659729,12.5428438186646,12.617901802063,12.6938610076904,12.7707386016846,12.8485517501831,12.9273204803467,13.0070600509644,13.0877895355225,13.169527053833,13.2522916793823,13.3361043930054,13.4209833145142,13.5069494247437,13.5940237045288,13.6822290420532,13.7715854644775,13.862117767334,13.9538478851318,13.8637990951538,13.8523597717285,13.8409404754639,13.8295392990112,13.8181562423706,13.8067932128906,13.7954483032227,13.7841215133667,13.7728137969971,13.7615242004395,13.7502536773682,13.7390012741089,13.7277679443359,13.7165517807007,13.7053546905518,13.6941757202148,13.6830148696899,13.6718730926514,13.6607484817505,13.6496419906616,13.6385536193848,13.6274833679199,13.6164312362671,13.605396270752,13.5943803787231,13.583381652832,13.5724000930786,13.5614376068115,13.5504913330078,13.5395641326904,13.5286540985107,13.5177612304688,13.5068855285645,13.4960279464722,13.4851875305176,13.474365234375,13.4635601043701,13.4527711868286,13.4420003890991,13.4312467575073,13.4205102920532,13.4097909927368,13.3990888595581,13.3884038925171,13.3777360916138,13.3670845031738,13.3564500808716,13.345832824707,13.3352327346802,13.3246488571167,13.3140821456909,13.3035326004028,13.2929992675781,13.2824821472168,13.2719821929932,13.2614984512329,13.2510318756104,13.2405815124512,13.2301473617554,13.2197303771973,13.2093286514282,13.1989440917969,13.1885757446289,13.1782236099243,13.1678876876831,13.1575679779053,13.1472644805908,13.1369771957397,13.1267061233521,13.1164503097534,13.1062116622925,13.0959882736206,13.0857810974121,13.0755891799927,13.0654134750366,13.2144708633423,13.3928089141846,13.5760278701782,13.7643203735352,13.9579038619995,14.1570100784302,14.3618783950806,15.9856014251709,15.9855461120605,15.9854907989502,15.9854354858398,15.9853801727295,16.1201324462891,16.3796043395996,16.6473922729492,16.7925643920898,16.7916717529297,17.0805015563965,17.2545299530029,17.254487991333,17.2544460296631,17.2544021606445,17.2543773651123,17.2543296813965,17.2542991638184,17.2542591094971,17.2542152404785,17.2541809082031,17.2541446685791,17.2540969848633,17.2540626525879,17.2540264129639,17.2539901733398,17.253942489624,17.2539081573486,17.2538719177246,17.2538318634033,17.2537899017334,17.253755569458,17.2537078857422,17.2536735534668,17.2536373138428,17.2535972595215,17.2535572052002,17.2535209655762,17.2534866333008,17.2534351348877,17.2534008026123,17.2533664703369,17.253324508667,17.2532844543457,17.2532501220703,17.253210067749,17.2531757354736
12.1377573013306,12.137749671936,12.1377420425415,12.1377172470093,12.1376352310181,12.1375532150269,12.13747215271,12.1373901367188,12.157525062561,12.2061357498169,12.2551317214966,12.3045225143433,12.3543128967285,12.4045076370239,12.4551124572754,12.5061311721802,12.5575695037842,12.6094331741333,12.6617240905762,12.7144498825073,12.767617225647,12.8185958862305,12.8185710906982,12.8185453414917,12.8185205459595,12.8184957504272,12.818470954895,12.8184461593628,12.8184213638306,12.8183965682983,12.8183717727661,12.8183469772339,12.8183221817017,12.8182973861694,12.8182725906372,12.818247795105,12.8182229995728,12.8181982040405,12.8181734085083,12.8181476593018,12.8181228637695,12.8180980682373,12.8180732727051,12.8180484771729,12.8180236816406,12.8179988861084,12.8179740905762,12.8179492950439,12.8179244995117,12.8178997039795,12.8178749084473,12.817850112915,12.8178253173828,12.8178005218506,12.8177757263184,12.8177499771118,12.8177251815796,12.8177003860474,12.8176755905151,12.8176507949829,12.8176259994507,12.8176012039185,12.8175764083862,12.817551612854,12.8175268173218,12.8175020217896,12.8174772262573,12.8174524307251,12.8174276351929,12.8174028396606,12.8173780441284,12.8173532485962,12.8173274993896,12.8173027038574,12.8172779083252,12.1357936859131,12.1357736587524,12.1356611251831,12.1355180740356,12.1355829238892,12.1355495452881,12.1354904174805,12.1354322433472,12.1353731155396,12.1353149414062,12.1352567672729,12.1806392669678,12.2514133453369,12.3230133056641,12.3954544067383,12.4687538146973,12.5429248809814,12.6179800033569,12.6939373016357,12.7708148956299,12.8486299514771,12.9273986816406,13.0071401596069,13.087869644165,13.1696090698242,13.2523756027222,13.3361883163452,13.4210681915283,13.5070362091064,13.5941114425659,13.6823177337646,13.7716760635376,13.862208366394,13.9539394378662,13.8638477325439,13.8524084091187,13.840989112854,13.8295879364014,13.8182048797607,13.8068408966064,13.7954959869385,13.7841701507568,13.7728624343872,13.7615728378296,13.7503023147583,13.739049911499,13.7278156280518,13.7166004180908,13.7054023742676,13.6942234039307,13.6830625534058,13.6719198226929,13.6607961654663,13.6496896743774,13.6386013031006,13.6275310516357,13.6164779663086,13.6054439544678,13.5944271087646,13.5834283828735,13.5724468231201,13.561484336853,13.5505380630493,13.5396108627319,13.5286998748779,13.5178070068359,13.506932258606,13.4960746765137,13.4852342605591,13.4744110107422,13.4636058807373,13.4528169631958,13.4420461654663,13.4312925338745,13.4205560684204,13.409836769104,13.3991346359253,13.3884496688843,13.3777809143066,13.367130279541,13.3564958572388,13.3458786010742,13.335277557373,13.3246946334839,13.3141269683838,13.3035774230957,13.293044090271,13.2825269699097,13.272027015686,13.2615432739258,13.2510766983032,13.240626335144,13.2301921844482,13.2197742462158,13.2093734741211,13.1989889144897,13.1886205673218,13.1782674789429,13.1679315567017,13.1576118469238,13.1473083496094,13.1370210647583,13.1267499923706,13.116494178772,13.1062545776367,13.0960311889648,13.0858240127563,13.0756330490112,13.0654573440552,13.214653968811,13.3929977416992,13.5762214660645,13.7645177841187,13.9581069946289,14.1572198867798,14.3620948791504,15.8387727737427,15.8387184143066,15.8386640548706,15.8386096954346,15.8689241409302,16.1204128265381,16.3797931671143,16.6475868225098,16.7926197052002,16.791971206665,17.0808048248291,17.0960636138916,17.0960292816162,17.095983505249,17.0959491729736,17.0959091186523,17.095874786377,17.0958347320557,17.0957908630371,17.0957565307617,17.0957164764404,17.0956840515137,17.0956382751465,17.0956001281738,17.0955657958984,17.0955257415771,17.0954818725586,17.0954494476318,17.0954170227051,17.0953826904297,17.0953388214111,17.0952987670898,17.0952606201172,17.0952281951904,17.0951881408691,17.0951461791992,17.0951061248779,17.0950679779053,17.0950355529785,17.09499168396,17.0949535369873,17.0949211120605,17.0948886871338,17.0948448181152,17.0948066711426,17.0947704315186,17.0947303771973
12.027286529541,12.0272693634033,12.0271892547607,12.0271081924438,12.0270280838013,12.0269479751587,12.0615015029907,12.1093473434448,12.1575727462769,12.2061834335327,12.2551794052124,12.3045701980591,12.3543615341187,12.4045562744141,12.4551620483398,12.5061807632446,12.5576181411743,12.6094789505005,12.6617698669434,12.7019672393799,12.701943397522,12.7019186019897,12.7018938064575,12.7018699645996,12.7018451690674,12.7018213272095,12.7017965316772,12.7017726898193,12.7017478942871,12.7017230987549,12.701699256897,12.7016744613647,12.7016496658325,12.7016258239746,12.7016010284424,12.7015771865845,12.7015523910522,12.7015285491943,12.7015037536621,12.7014789581299,12.701455116272,12.7014303207397,12.7014064788818,12.7013816833496,12.7013578414917,12.7013330459595,12.7013082504272,12.7012844085693,12.7012596130371,12.7012357711792,12.701210975647,12.7011861801147,12.7011623382568,12.7011375427246,12.7011137008667,12.7010889053345,12.7010641098022,12.7010402679443,12.7010154724121,12.7009916305542,12.700966835022,12.7009420394897,12.7009181976318,12.7008934020996,12.7008695602417,12.7008447647095,12.7008209228516,12.7007961273193,12.7007713317871,12.7007474899292,12.700722694397,12.7006969451904,12.7006711959839,12.700644493103,12.0253496170044,12.0253057479858,12.025164604187,12.0251216888428,12.0251502990723,12.025092124939,12.02503490448,12.024977684021,12.024920463562,12.0248622894287,12.0415925979614,12.1107549667358,12.1807155609131,12.2514886856079,12.3230905532837,12.3955326080322,12.4688320159912,12.5429992675781,12.6180553436279,12.6940135955811,12.7708921432495,12.848708152771,12.9274778366089,13.0072202682495,13.0879516601562,13.1696910858154,13.2524576187134,13.3362722396851,13.4211540222168,13.5071220397949,13.594199180603,13.6824064254761,13.7717657089233,13.8622999191284,13.9540309906006,13.8638963699341,13.8524570465088,13.8410377502441,13.8296365737915,13.8182535171509,13.8068895339966,13.7955446243286,13.7842178344727,13.772910118103,13.7616205215454,13.7503499984741,13.7390975952148,13.7278633117676,13.7166481018066,13.7054500579834,13.6942710876465,13.6831102371216,13.6719675064087,13.6608428955078,13.6497364044189,13.6386480331421,13.6275777816772,13.6165256500244,13.6054906845093,13.5944738388062,13.583475112915,13.5724935531616,13.5615310668945,13.5505847930908,13.5396566390991,13.5287466049194,13.5178537368774,13.5069780349731,13.4961204528809,13.4852800369263,13.4744577407837,13.4636516571045,13.4528636932373,13.4420919418335,13.4313383102417,13.4206018447876,13.4098825454712,13.3991804122925,13.3884944915771,13.3778266906738,13.3671751022339,13.3565406799316,13.3459234237671,13.3353233337402,13.3247394561768,13.314172744751,13.3036222457886,13.2930889129639,13.2825717926025,13.2720718383789,13.2615880966187,13.2511215209961,13.2406702041626,13.2302370071411,13.2198190689087,13.2094173431396,13.1990327835083,13.1886644363403,13.1783123016357,13.1679763793945,13.1576557159424,13.1473522186279,13.1370649337769,13.1267938613892,13.1165380477905,13.1062984466553,13.0960750579834,13.0858678817749,13.0756759643555,13.0655002593994,13.2148380279541,13.3931865692139,13.576416015625,13.7647161483765,13.9583110809326,14.1574287414551,14.3623104095459,15.6946172714233,15.6945638656616,15.6945104598999,15.6944570541382,15.8691968917847,16.1206607818604,16.3799800872803,16.6477813720703,16.7926750183105,16.7922706604004,16.9405155181885,16.9404754638672,16.9404468536377,16.9404010772705,16.9403667449951,16.9403266906738,16.9402942657471,16.9402542114258,16.9402198791504,16.9401817321777,16.9401416778564,16.940113067627,16.9400691986084,16.940034866333,16.9399948120117,16.9399547576904,16.9399166107178,16.939884185791,16.9398441314697,16.9398040771484,16.9397716522217,16.939733505249,16.9397010803223,16.939661026001,16.9396228790283,16.9395847320557,16.939546585083,16.9395122528076,16.939474105835,16.9394359588623,16.9393978118896,16.9393653869629,16.9393272399902,16.9392776489258,16.9392471313477,16.9392070770264,16.9391765594482
11.9187345504761,11.9186553955078,11.9185762405396,11.9202508926392,11.9669818878174,12.0140819549561,12.0615501403809,12.1093940734863,12.1576204299927,12.2062311172485,12.2552270889282,12.3046188354492,12.3544101715088,12.4046058654785,12.4552116394043,12.5062274932861,12.5576639175415,12.5874423980713,12.5874185562134,12.5873947143555,12.5873708724976,12.5873470306396,12.5873222351074,12.5872983932495,12.5872745513916,12.5872507095337,12.5872268676758,12.5872030258179,12.58717918396,12.5871553421021,12.5871305465698,12.5871067047119,12.587082862854,12.5870590209961,12.5870351791382,12.5870113372803,12.5869874954224,12.5869626998901,12.5869388580322,12.5869150161743,12.5868911743164,12.5868673324585,12.5868434906006,12.5868196487427,12.5867958068848,12.5867710113525,12.5867471694946,12.5867233276367,12.5866994857788,12.5866756439209,12.586651802063,12.5866279602051,12.5866031646729,12.5865793228149,12.586555480957,12.5865316390991,12.5865077972412,12.586483001709,12.5864572525024,12.5864315032959,12.5864057540894,12.5863800048828,12.5863542556763,12.586329460144,12.5863037109375,12.586277961731,12.5862522125244,12.5862264633179,12.5862007141113,12.5861749649048,12.5861492156982,12.5861234664917,11.9169178009033,11.9168977737427,11.9168004989624,11.9166622161865,11.9167175292969,11.9166851043701,11.9166288375854,11.9165716171265,11.9165163040161,11.9164590835571,11.9164028167725,11.9732894897461,12.0416660308838,12.1108293533325,12.1807899475098,12.2515649795532,12.323166847229,12.3956089019775,12.4689054489136,12.5430736541748,12.6181297302246,12.6940898895264,12.7709693908691,12.8487863540649,12.9275569915771,13.0072994232178,13.0880317687988,13.1697731018066,13.2525415420532,13.3363571166992,13.421238899231,13.5072088241577,13.5942869186401,13.6824951171875,13.7718553543091,13.8623895645142,13.9541206359863,13.8639450073242,13.8525066375732,13.8410863876343,13.8296842575073,13.818302154541,13.8069381713867,13.7955932617188,13.7842664718628,13.7729587554932,13.7616691589355,13.7503976821899,13.7391452789307,13.7279109954834,13.7166957855225,13.7054977416992,13.6943187713623,13.6831579208374,13.6720151901245,13.6608905792236,13.6497840881348,13.6386957168579,13.6276245117188,13.6165723800659,13.6055374145508,13.5945205688477,13.5835218429565,13.5725412368774,13.561577796936,13.5506315231323,13.5397033691406,13.5287933349609,13.5179004669189,13.5070247650146,13.4961671829224,13.4853267669678,13.4745035171509,13.4636974334717,13.4529094696045,13.4421377182007,13.4313840866089,13.4206476211548,13.4099283218384,13.3992252349854,13.3885402679443,13.377872467041,13.3672208786011,13.3565864562988,13.3459692001343,13.3353681564331,13.3247842788696,13.3142175674438,13.3036670684814,13.2931337356567,13.2826166152954,13.2721166610718,13.2616329193115,13.2511653900146,13.2407150268555,13.2302808761597,13.2198629379272,13.2094621658325,13.1990766525269,13.1887083053589,13.1783561706543,13.1680202484131,13.1576995849609,13.1473960876465,13.1371088027954,13.1268367767334,13.1165819168091,13.1063423156738,13.096118927002,13.0859107971191,13.075719833374,13.0655431747437,13.2150220870972,13.3933753967285,13.5766096115112,13.7649145126343,13.9585151672363,14.1576385498047,14.3625259399414,15.5530614852905,15.5530090332031,15.5529565811157,15.6256904602051,15.8694705963135,16.1208419799805,16.3801689147949,16.6479759216309,16.7878170013428,16.7877750396729,16.7877445220947,16.7877025604248,16.7876644134521,16.7876300811768,16.7875919342041,16.787561416626,16.7875270843506,16.7874794006348,16.787446975708,16.787410736084,16.7873802185059,16.7873382568359,16.7872982025146,16.7872619628906,16.7872314453125,16.7871971130371,16.7871608734131,16.7871189117432,16.7870826721191,16.7870483398438,16.7870082855225,16.7869701385498,16.7869358062744,16.786901473999,16.786865234375,16.7868309020996,16.7867946624756,16.7867546081543,16.7867202758789,16.786678314209,16.7866382598877,16.7866020202637,16.7865676879883,16.7865333557129,16.7864990234375,16.7864646911621,16.7864227294922
11.8120632171631,11.8279237747192,11.8739328384399,11.9203014373779,11.9670314788818,12.0141277313232,12.061595916748,12.1094408035278,12.1576671600342,12.2062788009644,12.255274772644,12.3046674728394,12.3544588088989,12.4046535491943,12.4552555084229,12.4749641418457,12.4749402999878,12.4749174118042,12.4748935699463,12.4748697280884,12.4748468399048,12.4748229980469,12.474799156189,12.4747762680054,12.4747524261475,12.4747285842896,12.474705696106,12.474681854248,12.4746580123901,12.4746351242065,12.4746112823486,12.4745874404907,12.4745645523071,12.4745407104492,12.4745168685913,12.4744939804077,12.4744701385498,12.4744462966919,12.4744234085083,12.4743995666504,12.4743757247925,12.4743518829346,12.474328994751,12.4743051528931,12.4742794036865,12.4742546081543,12.4742298126221,12.4742040634155,12.4741792678833,12.4741535186768,12.4741287231445,12.474102973938,12.4740781784058,12.4740533828735,12.474027633667,12.4740028381348,12.4739770889282,12.473952293396,12.4739265441895,12.4739017486572,12.4738759994507,12.4738512039185,12.4738264083862,12.4738006591797,12.4737758636475,12.4737501144409,12.4737253189087,12.4736995697021,12.4736747741699,12.4736499786377,11.8104238510132,11.8104038238525,11.8103723526001,11.8102359771729,11.8101863861084,11.8102140426636,11.8101587295532,11.8101043701172,11.8100481033325,11.8099927902222,11.8099374771118,11.8389101028442,11.9057559967041,11.9733619689941,12.0417404174805,12.1109027862549,12.1808662414551,12.2516412734985,12.3232412338257,12.3956813812256,12.4689788818359,12.5431489944458,12.6182050704956,12.6941661834717,12.7710466384888,12.8488645553589,12.9276361465454,13.0073795318604,13.0881128311157,13.1698551177979,13.2526245117188,13.3364410400391,13.4213237762451,13.5072946548462,13.5943746566772,13.6825838088989,13.7719440460205,13.8624782562256,13.9542102813721,13.8639945983887,13.8525552749634,13.8411350250244,13.8297328948975,13.8183507919312,13.8069868087769,13.7956409454346,13.7843151092529,13.773006439209,13.7617168426514,13.7504463195801,13.7391929626465,13.7279596328735,13.7167434692383,13.705545425415,13.6943664550781,13.6832056045532,13.6720628738403,13.6609382629395,13.6498308181763,13.6387424468994,13.6276721954346,13.6166191101074,13.6055850982666,13.5945682525635,13.583568572998,13.5725879669189,13.5616235733032,13.5506782531738,13.5397500991821,13.5288391113281,13.5179462432861,13.5070714950562,13.4962129592896,13.485372543335,13.4745492935181,13.4637432098389,13.4529552459717,13.4421844482422,13.4314298629761,13.420693397522,13.4099740982056,13.3992710113525,13.3885860443115,13.3779172897339,13.3672657012939,13.3566312789917,13.3460140228271,13.335412979126,13.3248291015625,13.3142623901367,13.3037118911743,13.2931785583496,13.2826614379883,13.2721614837646,13.2616777420044,13.2512102127075,13.2407598495483,13.2303256988525,13.2199077606201,13.2095060348511,13.1991214752197,13.1887521743774,13.1784000396729,13.1680641174316,13.1577444076538,13.147439956665,13.137152671814,13.126880645752,13.1166257858276,13.1063861846924,13.0961618423462,13.0859546661377,13.0757627487183,13.0655870437622,13.2152051925659,13.3935642242432,13.5768032073975,13.7651119232178,13.9587182998657,14.1578483581543,14.3627414703369,15.4140367507935,15.4139852523804,15.4139337539673,15.625955581665,15.869743347168,16.1210250854492,16.3803577423096,16.6378040313721,16.637767791748,16.6377372741699,16.6377029418945,16.6376667022705,16.6376304626465,16.6375904083252,16.6375503540039,16.6375141143799,16.6374797821045,16.6374378204346,16.6374111175537,16.6373748779297,16.6373405456543,16.6373043060303,16.637264251709,16.6372299194336,16.6372013092041,16.6371650695801,16.6371212005615,16.6370868682861,16.6370506286621,16.6370162963867,16.63698387146,16.6369495391846,16.6369094848633,16.6368751525879,16.6368350982666,16.6368007659912,16.6367607116699,16.6367263793945,16.6366939544678,16.6366596221924,16.6366195678711,16.6365871429443,16.6365528106689,16.6365089416504,16.636474609375,16.6364345550537,16.636402130127
11.7823190689087,11.8279733657837,11.8739833831787,11.9203481674194,11.967077255249,12.0141735076904,12.0616426467896,12.1094875335693,12.15771484375,12.2063255310059,12.2553234100342,12.3047151565552,12.3545045852661,12.3644781112671,12.3644552230835,12.3644323348999,12.3644094467163,12.3643856048584,12.3643627166748,12.3643398284912,12.3643169403076,12.3642930984497,12.3642702102661,12.3642473220825,12.3642244338989,12.364200592041,12.3641777038574,12.3641548156738,12.3641319274902,12.3641080856323,12.3640842437744,12.3640594482422,12.36403465271,12.3640098571777,12.3639850616455,12.3639602661133,12.3639354705811,12.3639106750488,12.3638858795166,12.3638610839844,12.3638362884521,12.3638114929199,12.3637866973877,12.3637619018555,12.3637371063232,12.363712310791,12.3636875152588,12.3636627197266,12.3636388778687,12.3636140823364,12.3635892868042,12.363564491272,12.3635396957397,12.3635149002075,12.3634901046753,12.3634653091431,12.3634405136108,12.3634157180786,12.3633909225464,12.3633661270142,12.3633413314819,12.3633165359497,12.3632917404175,12.3632669448853,12.363242149353,12.3632173538208,12.3631925582886,12.3631677627563,12.3631429672241,11.7057962417603,11.7057771682739,11.7056941986084,11.7055606842041,11.7056064605713,11.7055749893188,11.7055206298828,11.7054662704468,11.7054119110107,11.7053575515747,11.7075128555298,11.7728805541992,11.8389806747437,11.9058284759521,11.9734354019165,12.0418138504028,12.1109781265259,12.1809406280518,12.2517137527466,12.3233137130737,12.3957548141479,12.4690523147583,12.5432233810425,12.6182804107666,12.694242477417,12.7711238861084,12.8489427566528,12.9277153015137,13.0074596405029,13.0881938934326,13.1699371337891,13.2527074813843,13.3365249633789,13.4214096069336,13.507381439209,13.5944623947144,13.682671546936,13.7720317840576,13.862566947937,13.9542999267578,13.8640432357788,13.8526039123535,13.8411836624146,13.8297815322876,13.8183994293213,13.807035446167,13.7956895828247,13.7843627929688,13.7730550765991,13.7617654800415,13.7504940032959,13.7392416000366,13.7280073165894,13.7167911529541,13.7055931091309,13.6944141387939,13.683253288269,13.6721105575562,13.660984992981,13.6498785018921,13.6387901306152,13.6277189254761,13.6166667938232,13.6056318283081,13.594614982605,13.5836153030396,13.5726346969604,13.561671257019,13.5507249832153,13.5397968292236,13.5288858413696,13.5179929733276,13.5071172714233,13.4962596893311,13.4854183197021,13.4745960235596,13.4637899398804,13.4530010223389,13.4422302246094,13.4314756393433,13.4207391738892,13.4100198745728,13.3993167877197,13.3886318206787,13.3779630661011,13.3673114776611,13.3566770553589,13.34605884552,13.3354587554932,13.3248748779297,13.3143072128296,13.3037567138672,13.2932233810425,13.2827062606812,13.2722063064575,13.2617225646973,13.2512550354004,13.2408037185669,13.2303695678711,13.2199516296387,13.2095508575439,13.1991653442383,13.1887969970703,13.1784439086914,13.1681079864502,13.1577882766724,13.1474838256836,13.1371965408325,13.1269245147705,13.1166687011719,13.1064291000366,13.0962057113647,13.0859975814819,13.0758066177368,13.0656299591064,13.215389251709,13.3937530517578,13.5769968032837,13.7653102874756,13.9589223861694,14.1580572128296,14.3629570007324,15.2774753570557,15.2774248123169,15.3898010253906,15.6262197494507,15.8699522018433,16.121208190918,16.3805465698242,16.4904232025146,16.4903869628906,16.4903507232666,16.4903144836426,16.4902763366699,16.4902477264404,16.4902000427246,16.4901695251465,16.4901447296143,16.4901027679443,16.4900608062744,16.4900302886963,16.4899940490723,16.4899654388428,16.4899291992188,16.4898815155029,16.4898509979248,16.4898147583008,16.4897861480713,16.4897499084473,16.489709854126,16.489673614502,16.4896430969238,16.4896030426025,16.4895687103271,16.4895324707031,16.4894962310791,16.4894618988037,16.4894275665283,16.4893932342529,16.4893646240234,16.4893226623535,16.4892826080322,16.4892539978027,16.4892139434814,16.489185333252,16.4891395568848,16.4891090393066,16.4890747070312,16.4890422821045
11.7823686599731,11.8280220031738,11.8740282058716,11.9203939437866,11.9671230316162,12.0142202377319,12.0616893768311,12.1095352172852,12.1577615737915,12.2063732147217,12.2553701400757,12.2559328079224,12.2559099197388,12.2558870315552,12.2558641433716,12.255841255188,12.2558183670044,12.2557935714722,12.2557697296143,12.255744934082,12.2557210922241,12.2556962966919,12.255672454834,12.2556476593018,12.2556238174438,12.2555990219116,12.2555751800537,12.2555503845215,12.2555265426636,12.2555017471313,12.2554779052734,12.2554531097412,12.2554292678833,12.2554044723511,12.2553806304932,12.2553558349609,12.255331993103,12.2553071975708,12.2552833557129,12.2552585601807,12.2552347183228,12.2552099227905,12.2551860809326,12.2551612854004,12.2551374435425,12.2551126480103,12.2550888061523,12.2550640106201,12.2550401687622,12.25501537323,12.2549915313721,12.2549667358398,12.2549419403076,12.2549180984497,12.2548933029175,12.2548694610596,12.2548446655273,12.2548208236694,12.2547960281372,12.2547721862793,12.2547473907471,12.2547235488892,12.2546987533569,12.254674911499,12.2546501159668,12.2546262741089,12.2546014785767,11.6030263900757,11.6030073165894,11.6029872894287,11.602855682373,11.6028003692627,11.6028270721436,11.6027736663818,11.6027202606201,11.6026668548584,11.6026134490967,11.602560043335,11.642936706543,11.7075834274292,11.7729501724243,11.8390522003174,11.9059009552002,11.9735078811646,12.0418872833252,12.1110506057739,12.1810111999512,12.251784324646,12.3233842849731,12.395827293396,12.469126701355,12.5432977676392,12.6183557510376,12.6943187713623,12.771201133728,12.8490200042725,12.9277944564819,13.0075397491455,13.0882749557495,13.1700191497803,13.2527904510498,13.3366098403931,13.4214954376221,13.5074682235718,13.5945491790771,13.6827583312988,13.7721195220947,13.8626556396484,13.9543905258179,13.8640918731689,13.8526525497437,13.8412322998047,13.8298301696777,13.8184480667114,13.8070831298828,13.7957382202148,13.7844114303589,13.7731027603149,13.7618131637573,13.7505416870117,13.7392892837524,13.7280550003052,13.7168388366699,13.7056407928467,13.6944618225098,13.6833009719849,13.6721572875977,13.6610326766968,13.6499261856079,13.6388368606567,13.6277666091919,13.6167135238647,13.6056785583496,13.5946617126465,13.5836629867554,13.572681427002,13.5617170333862,13.5507717132568,13.5398435592651,13.5289325714111,13.5180397033691,13.5071640014648,13.4963054656982,13.4854650497437,13.4746417999268,13.4638357162476,13.4530467987061,13.4422760009766,13.4315214157104,13.4207849502563,13.4100646972656,13.3993625640869,13.3886766433716,13.3780078887939,13.3673572540283,13.3567218780518,13.3461046218872,13.335503578186,13.3249197006226,13.3143520355225,13.3038024902344,13.2932682037354,13.282751083374,13.2722511291504,13.2617664337158,13.2512998580933,13.2408485412598,13.230414390564,13.2199964523315,13.2095947265625,13.1992101669312,13.1888408660889,13.1784887313843,13.1681518554688,13.1578321456909,13.1475276947021,13.1372404098511,13.1269683837891,13.1167125701904,13.1064729690552,13.0962495803833,13.0860414505005,13.0758495330811,13.065673828125,13.2155733108521,13.3939418792725,13.5771894454956,13.7655086517334,13.9591255187988,14.1582670211792,14.3631725311279,15.1433124542236,15.1606788635254,15.3900575637817,15.6264848709106,15.8701295852661,16.1213893890381,16.3456535339355,16.3456192016602,16.3455867767334,16.3455410003662,16.3455123901367,16.34547996521,16.3454456329346,16.3454113006592,16.3453788757324,16.3453388214111,16.3453063964844,16.3452663421631,16.3452396392822,16.3451995849609,16.3451671600342,16.3451347351074,16.3450965881348,16.3450679779053,16.3450355529785,16.3449954986572,16.3449573516846,16.3449249267578,16.3448867797852,16.3448543548584,16.3448162078857,16.344783782959,16.3447513580322,16.3447189331055,16.3446750640869,16.3446426391602,16.3446102142334,16.3445777893066,16.344539642334,16.34450340271,16.3444709777832,16.3444385528564,16.3444061279297,16.344367980957,16.344331741333,16.3442993164062,16.3442668914795
11.7824153900146,11.8280668258667,11.8740730285645,11.9204397201538,11.9671688079834,12.0142660140991,12.0617351531982,12.1095819473267,12.149284362793,12.1492586135864,12.1492328643799,12.1492109298706,12.1491889953613,12.1491680145264,12.1491451263428,12.1491212844849,12.149097442627,12.149073600769,12.1490497589111,12.1490259170532,12.1490020751953,12.1489782333374,12.1489543914795,12.1489295959473,12.1489057540894,12.1488819122314,12.1488580703735,12.1488342285156,12.1488103866577,12.1487865447998,12.1487627029419,12.148738861084,12.1487150192261,12.1486911773682,12.1486673355103,12.1486434936523,12.1486196517944,12.1485948562622,12.1485710144043,12.1485471725464,12.1485233306885,12.1484994888306,12.1484756469727,12.1484518051147,12.1484279632568,12.1484041213989,12.148380279541,12.1483564376831,12.1483325958252,12.1483087539673,12.1482849121094,12.1482601165771,12.1482362747192,12.1482124328613,12.1481885910034,12.1481647491455,12.1481409072876,12.1481170654297,12.1480932235718,12.1480693817139,12.148045539856,12.148021697998,12.1479978561401,12.1479740142822,12.1479501724243,11.5020437240601,11.502025604248,11.502007484436,11.5019378662109,11.5018081665039,11.5018453598022,11.5018157958984,11.5017623901367,11.5017099380493,11.5016574859619,11.5016050338745,11.5158309936523,11.5790691375732,11.6430053710938,11.70765209198,11.7730207443237,11.8391237258911,11.9059724807739,11.9735803604126,12.0419578552246,12.111120223999,12.1810817718506,12.2518558502197,12.3234567642212,12.395899772644,12.469199180603,12.5433721542358,12.6184310913086,12.6943941116333,12.7712783813477,12.8490991592407,12.9278736114502,13.0076198577881,13.0883569717407,13.1701011657715,13.2528743743896,13.3366937637329,13.4215803146362,13.5075540542603,13.5946340560913,13.6828451156616,13.7722072601318,13.8627443313599,13.9544801712036,13.8641405105591,13.8527011871338,13.8412809371948,13.8298788070679,13.8184957504272,13.8071317672729,13.7957859039307,13.7844591140747,13.7731513977051,13.7618618011475,13.7505903244019,13.7393369674683,13.728102684021,13.7168865203857,13.7056894302368,13.6945095062256,13.6833486557007,13.6722049713135,13.6610803604126,13.6499729156494,13.6388845443726,13.6278133392334,13.6167612075806,13.6057262420654,13.594708442688,13.5837097167969,13.5727281570435,13.5617637634277,13.5508184432983,13.5398893356323,13.5289793014526,13.5180854797363,13.507209777832,13.4963521957397,13.4855108261108,13.4746875762939,13.4638814926147,13.4530935287476,13.4423217773438,13.4315671920776,13.4208307266235,13.4101104736328,13.3994083404541,13.3887224197388,13.3780536651611,13.3674020767212,13.3567676544189,13.3461494445801,13.3355484008789,13.3249645233154,13.3143978118896,13.3038473129272,13.2933130264282,13.2827959060669,13.2722949981689,13.2618112564087,13.2513437271118,13.2408933639526,13.2304592132568,13.2200412750244,13.2096395492554,13.1992540359497,13.1888847351074,13.1785326004028,13.1681957244873,13.1578760147095,13.1475715637207,13.1372842788696,13.1270122528076,13.116756439209,13.1065168380737,13.0962924957275,13.086085319519,13.0758934020996,13.0657167434692,13.2157573699951,13.3941307067871,13.5773820877075,13.7657070159912,13.9593296051025,14.1584768295288,14.3633880615234,15.0114850997925,15.160927772522,15.3903150558472,15.6267490386963,15.8703060150146,16.1215724945068,16.2033729553223,16.2033405303955,16.2033061981201,16.2032680511475,16.2032337188721,16.2032070159912,16.2031745910645,16.2031364440918,16.203104019165,16.2030696868896,16.203031539917,16.2029933929443,16.2029609680176,16.2029285430908,16.20290184021,16.2028636932373,16.2028312683105,16.2027931213379,16.2027606964111,16.2027282714844,16.2026901245117,16.202657699585,16.2026195526123,16.2025947570801,16.2025566101074,16.2025241851807,16.2024879455566,16.2024555206299,16.2024173736572,16.2023811340332,16.2023487091064,16.2023162841797,16.2022914886475,16.2022495269775,16.2022171020508,16.2021865844727,16.2021484375,16.202112197876,16.202075958252,16.2020435333252,16.2020130157471
