18.0671844482422,18.0962429046631,18.1253967285156,18.1546440124512,18.1839847564697,18.2134208679199,18.2429523468018,18.2725811004639,18.3023052215576,18.3321266174316,18.3453273773193,18.3299865722656,18.3146724700928,18.2993831634521,18.2841186523438,18.2688808441162,18.2536678314209,18.2384815216064,18.2233180999756,18.2081813812256,18.1930694580078,18.1713638305664,18.1452522277832,18.1192150115967,18.0932521820068,18.0673637390137,18.0415496826172,18.0158081054688,17.990140914917,17.9645481109619,17.9390258789062,17.9135761260986,17.8881988525391,17.8628940582275,17.8376617431641,17.8124980926514,17.7874069213867,17.7716293334961,17.7704772949219,17.7693252563477,17.7681732177734,17.7670211791992,17.7658710479736,17.7647190093994,17.7635669708252,17.7624168395996,17.761266708374,17.7601146697998,17.7589645385742,17.7578144073486,17.756664276123,17.7555141448975,17.7543640136719,17.7532138824463,17.7520637512207,17.7509155273438,17.7497653961182,17.7486152648926,17.7474670410156,17.7463188171387,17.7451686859131,17.7440204620361,17.7428722381592,17.7417240142822,17.7495727539062,15.0771389007568,15.0102233886719,14.9438982009888,14.8781576156616,14.8129920959473,14.7483949661255,14.6843595504761,14.6208772659302,14.5579414367676,14.4955444335938,14.4336814880371,14.3723440170288,14.3115243911743,14.2512187957764,14.1982088088989,14.1976842880249,14.1971597671509,14.1966352462769,14.1961107254028,14.1955862045288,14.1950616836548,14.1945371627808,14.1940126419067,14.193489074707,14.192964553833,14.192440032959,14.1919164657593,14.1913919448853,14.1908683776855,14.1903438568115,14.1898202896118,14.1892967224121,14.1887722015381,14.1882486343384,14.1877250671387,14.187201499939,14.1866769790649,14.1861534118652,14.1856298446655,14.1851062774658,14.1845827102661,14.1840591430664,14.1835355758667,14.183012008667,14.1824884414673,14.1819658279419,14.1814422607422,14.1809186935425,14.1803951263428,14.1798725128174,14.1793489456177,14.1788263320923,14.1783027648926,14.1777791976929,14.1772565841675,14.1767339706421,14.1762104034424,14.175687789917,14.1751651763916,14.1746425628662,14.1741189956665,14.1735963821411,14.1730737686157,14.1725511550903,14.1720285415649,14.1715059280396,14.1709833145142,14.1704607009888,14.1699380874634,14.169415473938,14.1688928604126,14.1683712005615,14.1678485870361,14.1673259735107,14.1668043136597,14.1662817001343,14.1657590866089,14.1652374267578,14.1647148132324,14.1641931533813,14.1636714935303,14.1631488800049,14.1626272201538,14.1621055603027,14.1615829467773,14.1610612869263,14.1605396270752,14.1600179672241,14.159496307373,14.158974647522,14.1584529876709,14.1579313278198,14.1574096679688,14.1568880081177,14.1563663482666,14.1558456420898,14.1553239822388,14.1548023223877,14.1542806625366,14.1537599563599,14.1532382965088,12.3425140380859,12.3434352874756,12.3443574905396,12.3452787399292,12.3462009429932,12.3471231460571,12.3480453491211,12.3489675521851,12.349889755249,12.350811958313,12.3517351150513,12.3526582717896,12.3535814285278,12.3545045852661,12.3554277420044,12.3563508987427,12.357274055481,12.3581981658936,12.3591222763062,12.3600463867188,12.3609704971313,12.3618946075439,12.3628168106079,12.3637399673462,11.3893842697144,11.0588436126709,10.7836008071899,10.7800254821777,10.7764511108398,10.7728805541992,10.7693119049072,10.7657451629639,10.7621812820435,10.7586193084717,10.7550601959229,10.7515029907227,10.7479486465454,10.7443962097168,10.7408466339111,10.7372989654541,10.73375415802,10.7302112579346,10.7266702651978,10.7231321334839,10.7195959091187,10.7160625457764,10.712532043457,10.709002494812,8.98784923553467,8.96260166168213,8.93749523162842,8.91252994537354,8.88770294189453,8.86301422119141,8.83846282958984,8.81404685974121,8.78976440429688,8.76561641693115,8.74160003662109,8.71771621704102,8.69396114349365,8.67033576965332,8.65424633026123,8.64332580566406,8.63243293762207
18.0665493011475,18.0956058502197,18.1247577667236,18.1540031433105,18.1833419799805,18.212776184082,18.2423057556152,18.2719306945801,18.3016529083252,18.3314723968506,18.318675994873,18.3033790588379,18.2881088256836,18.2728652954102,18.2576446533203,18.2424507141113,18.2268257141113,18.200553894043,18.1743583679199,18.1482372283936,18.1221904754639,18.0962200164795,18.0703239440918,18.0445003509521,18.0187511444092,17.9930763244629,17.9674739837646,17.9419441223145,17.9164867401123,17.8911018371582,17.8657875061035,17.8405456542969,17.8153743743896,17.7902755737305,17.7652473449707,17.7436332702637,17.7424850463867,17.7413368225098,17.7401885986328,17.7390403747559,17.7378921508789,17.736743927002,17.7355976104736,17.7344493865967,17.7333030700684,17.7321548461914,17.7310085296631,17.7298622131348,17.7287139892578,17.7275676727295,17.7264213562012,17.7252750396729,17.7241287231445,17.7229843139648,17.7218379974365,17.7206916809082,17.7195472717285,17.7184009552002,17.7172565460205,17.7161121368408,17.7149658203125,15.016300201416,14.9499216079712,14.8841276168823,14.8189105987549,14.75426197052,14.6901750564575,14.6266431808472,14.5636577606201,14.5012121200562,14.4393005371094,14.3779144287109,14.3170490264893,14.2566967010498,14.196849822998,14.1375045776367,14.0986528396606,14.0981359481812,14.0976181030273,14.0971012115479,14.0965843200684,14.0960674285889,14.0955495834351,14.0950326919556,14.0945158004761,14.0939989089966,14.0934820175171,14.0929651260376,14.0924491882324,14.0919322967529,14.0914154052734,14.0908985137939,14.0903816223145,14.0898656845093,14.0893487930298,14.0888319015503,14.0883159637451,14.0877990722656,14.0872831344604,14.086766242981,14.0862503051758,14.0857334136963,14.0852174758911,14.0847015380859,14.0841846466064,14.0836687088013,14.0831527709961,14.0826368331909,14.0821208953857,14.0816049575806,14.0810880661011,14.0805721282959,14.080057144165,14.0795412063599,14.0790252685547,14.0785093307495,14.0779933929443,14.0774784088135,14.0769624710083,14.0764465332031,14.0759315490723,14.0754156112671,14.0748996734619,14.0743846893311,14.0738687515259,14.073353767395,14.0728378295898,14.072322845459,14.0718078613281,14.0712928771973,14.0707769393921,14.0702619552612,14.0697469711304,14.0692319869995,14.0687170028687,14.0682020187378,14.0676870346069,14.0671720504761,14.0666570663452,14.0661420822144,14.0656270980835,14.0651121139526,14.0645971298218,14.0640830993652,14.0635681152344,14.0630531311035,14.062539100647,14.0620241165161,14.0615100860596,14.0609951019287,14.0604810714722,14.0599660873413,14.0594520568848,14.0589380264282,14.0584230422974,14.0579090118408,14.0573949813843,14.0568809509277,14.0563659667969,14.0558519363403,14.0553388595581,14.0548238754272,14.0543098449707,14.0537967681885,14.0532827377319,12.322193145752,12.3231115341187,12.3240299224854,12.3249483108521,12.3258676528931,12.3267869949341,12.3277053833008,12.3286247253418,12.3295450210571,12.3304643630981,12.3313837051392,12.3323040008545,12.3332233428955,12.3341436386108,12.3350639343262,12.3359842300415,12.3369045257568,12.3378257751465,12.3387460708618,12.3396673202515,12.3405885696411,12.3415098190308,12.3424310684204,12.3433523178101,12.3442735671997,12.3451929092407,11.4709758758545,11.1357526779175,10.8195648193359,10.8087244033813,10.8051319122314,10.8015413284302,10.7979536056519,10.7943687438965,10.7907857894897,10.7872047424316,10.7836265563965,10.7800512313843,10.7764778137207,10.7729063034058,10.7693376541138,10.7657709121704,10.76220703125,10.7586450576782,10.7550859451294,10.7515287399292,10.747974395752,10.7444219589233,9.00232410430908,8.97699546813965,8.95180892944336,8.9267635345459,8.90185737609863,8.87709045410156,8.85246086120605,8.82796669006348,8.80360889434814,8.77938461303711,8.75529289245605,8.73133373260498,8.70750427246094,8.68380546569824,8.66023540496826,8.639404296875,8.62852096557617,8.61766529083252
18.0659141540527,18.094970703125,18.1241188049316,18.1533603668213,18.1826992034912,18.2121315002441,18.2416591644287,18.2712821960449,18.3010025024414,18.3073787689209,18.2921009063721,18.2768497467041,18.2561931610107,18.2298374176025,18.2035579681396,18.1773529052734,18.1512222290039,18.1251697540283,18.0991897583008,18.0732841491699,18.0474529266357,18.0216960906982,17.9960117340088,17.9703998565674,17.9448623657227,17.919397354126,17.8940029144287,17.8686828613281,17.8434314727783,17.8182525634766,17.7931461334229,17.7681083679199,17.7431411743164,17.7182445526123,17.7145805358887,17.713436126709,17.7122917175293,17.7111473083496,17.7100028991699,17.7088584899902,17.7077140808105,17.7065696716309,17.7054271697998,17.7042827606201,17.7031402587891,17.7019958496094,17.7008533477783,17.6997108459473,17.6985683441162,17.6974258422852,17.6962833404541,17.695140838623,17.693998336792,17.6928558349609,17.6917152404785,17.6905727386475,17.6894302368164,14.9559497833252,14.8901033401489,14.8248338699341,14.7601337432861,14.6959953308105,14.6324129104614,14.5693778991699,14.5068836212158,14.4449234008789,14.383490562439,14.3225774765015,14.2621784210205,14.2022867202759,14.1428956985474,14.0839986801147,14.0255908966064,14.0004835128784,13.9999732971191,13.9994640350342,13.9989538192749,13.9984436035156,13.9979343414307,13.9974241256714,13.9969139099121,13.9964046478271,13.9958944320679,13.9953851699829,13.9948749542236,13.9943656921387,13.9938564300537,13.9933462142944,13.9928369522095,13.9923276901245,13.9918184280396,13.9913082122803,13.9907989501953,13.9902896881104,13.9897804260254,13.9892711639404,13.9887619018555,13.9882526397705,13.9877443313599,13.9872341156006,13.9867258071899,13.986216545105,13.98570728302,13.9851980209351,13.9846897125244,13.9841804504395,13.9836721420288,13.9831628799438,13.9826545715332,13.9821453094482,13.9816370010376,13.9811277389526,13.980619430542,13.9801111221313,13.9796028137207,13.9790935516357,13.9785852432251,13.9780769348145,13.9775686264038,13.9770603179932,13.9765520095825,13.9760437011719,13.9755353927612,13.9750270843506,13.9745187759399,13.9740104675293,13.9735021591187,13.9729948043823,13.9724864959717,13.971978187561,13.9714698791504,13.9709625244141,13.9704551696777,13.9699468612671,13.9694385528564,13.9689311981201,13.9684238433838,13.9679155349731,13.9674081802368,13.9669008255005,13.9663925170898,13.9658851623535,13.9653778076172,13.9648704528809,13.9643630981445,13.9638557434082,13.9633483886719,13.9628410339355,13.9623336791992,13.9618263244629,13.9613189697266,13.9608116149902,13.9603042602539,13.9597978591919,13.9592905044556,13.9587831497192,13.9582767486572,13.9577693939209,13.9572620391846,13.9567556381226,13.9562482833862,13.9557418823242,13.9552345275879,13.9547281265259,12.3019390106201,12.3028545379639,12.3037700653076,12.3046855926514,12.3056011199951,12.3065176010132,12.3074331283569,12.308349609375,12.3092660903931,12.3101825714111,12.3110990524292,12.3120164871216,12.3129329681396,12.313850402832,12.3147678375244,12.3156852722168,12.3166027069092,12.3175201416016,12.3184375762939,12.3193559646606,12.320273399353,12.3211917877197,12.3221101760864,12.3230285644531,12.3239469528198,12.3248662948608,12.3257846832275,12.3267011642456,11.5537452697754,11.213737487793,10.8931703567505,10.8375768661499,10.8339653015137,10.8303556442261,10.8267488479614,10.8231449127197,10.8195428848267,10.8159427642822,10.8123455047607,10.8087501525879,10.805157661438,10.801568031311,10.7979803085327,10.794394493103,10.7908115386963,10.7872304916382,10.783652305603,10.7800769805908,10.7765035629272,8.99143600463867,8.96616840362549,8.94104194641113,8.91605663299561,8.89121055603027,8.86650276184082,8.84193134307861,8.81749629974365,8.79319477081299,8.76902770996094,8.74499320983887,8.72109031677246,8.69731712341309,8.67367362976074,8.6501579284668,8.62677001953125,8.61376762390137,8.60294914245605
18.065279006958,18.0943336486816,18.1234798431396,18.1527194976807,18.182056427002,18.2114849090576,18.2410106658936,18.2706317901611,18.2856559753418,18.2592163085938,18.2328510284424,18.2065620422363,18.1803493499756,18.1542110443115,18.1281471252441,18.1021595001221,18.0762462615967,18.0504055023193,18.0246410369873,17.9989471435547,17.9733295440674,17.9477825164795,17.9223079681396,17.8969058990479,17.8715763092041,17.8463191986084,17.8211326599121,17.7960166931152,17.7709712982178,17.7459964752197,17.7210903167725,17.6962566375732,17.6867637634277,17.6856231689453,17.6844806671143,17.6833400726318,17.6821994781494,17.681058883667,17.6799182891846,17.6787796020508,17.6776390075684,17.6764984130859,17.6753597259521,17.6742191314697,17.6730804443359,17.6719398498535,17.6708011627197,17.6696624755859,17.6685237884521,17.6673851013184,17.6662464141846,17.6651077270508,17.663969039917,14.8960828781128,14.8307609558105,14.7660093307495,14.7018213272095,14.6381874084473,14.5751037597656,14.5125598907471,14.45055103302,14.3890705108643,14.3281106948853,14.2676649093628,14.2077264785767,14.1482906341553,14.0893487930298,14.0308971405029,13.9729280471802,13.9154357910156,13.9036722183228,13.903169631958,13.9026660919189,13.9021635055542,13.9016599655151,13.9011573791504,13.9006547927856,13.9001522064209,13.8996486663818,13.8991460800171,13.8986434936523,13.8981409072876,13.8976383209229,13.8971357345581,13.8966331481934,13.8961305618286,13.8956279754639,13.8951263427734,13.8946237564087,13.8941211700439,13.8936185836792,13.8931169509888,13.892614364624,13.8921117782593,13.8916101455688,13.8911075592041,13.8906059265137,13.8901033401489,13.8896017074585,13.8891000747681,13.8885974884033,13.8880958557129,13.8875942230225,13.8870916366577,13.8865900039673,13.8860883712769,13.8855867385864,13.885085105896,13.8845834732056,13.8840818405151,13.8835802078247,13.8830785751343,13.8825769424438,13.8820753097534,13.881573677063,13.8810729980469,13.8805713653564,13.880069732666,13.8795680999756,13.8790674209595,13.878565788269,13.8780641555786,13.8775634765625,13.8770627975464,13.876561164856,13.8760604858398,13.8755598068237,13.8750581741333,13.8745574951172,13.8740568161011,13.873556137085,13.8730545043945,13.8725538253784,13.8720531463623,13.8715524673462,13.8710517883301,13.870551109314,13.8700504302979,13.8695497512817,13.8690490722656,13.8685483932495,13.8680486679077,13.8675479888916,13.8670473098755,13.8665475845337,13.8660469055176,13.8655462265015,13.8650465011597,13.8645458221436,13.8640460968018,13.8635454177856,13.8630456924438,13.8625459671021,13.8620452880859,13.8615455627441,13.8610458374023,13.8605451583862,13.8600454330444,13.8595457077026,13.8590459823608,13.858546257019,13.8580465316772,13.8575468063354,12.2817506790161,12.2826633453369,12.2835760116577,12.2844886779785,12.2854013442993,12.2863149642944,12.2872276306152,12.2881412506104,12.2890548706055,12.2899684906006,12.2908821105957,12.2917957305908,12.2927093505859,12.2936239242554,12.2945375442505,12.2954521179199,12.2963666915894,12.2972812652588,12.2981958389282,12.299111366272,12.3000259399414,12.3009414672852,12.3018560409546,12.3027715682983,12.3036870956421,12.3046035766602,12.3055191040039,12.3064346313477,12.3073511123657,12.3082656860352,11.6377172470093,11.2928237915039,10.9677839279175,10.8665838241577,10.8629531860352,10.8593244552612,10.8556985855103,10.8520746231079,10.8484525680542,10.8448343276978,10.8412170410156,10.8376035690308,10.8339910507202,10.8303823471069,10.8267755508423,10.8231706619263,10.8195686340332,10.8159685134888,10.8123712539673,10.8087768554688,8.9805736541748,8.95536708831787,8.93030166625977,8.90537643432617,8.88058948516846,8.8559398651123,8.83142757415771,8.80704975128174,8.78280639648438,8.75869655609131,8.73471832275391,8.71087074279785,8.68715381622314,8.66356563568115,8.64010429382324,8.61677074432373,8.59906387329102,8.58828258514404
18.0646457672119,18.0936965942383,18.1228408813477,18.15207862854,18.1814117431641,18.2108402252197,18.240364074707,18.2358646392822,18.2095680236816,18.1833457946777,18.1571979522705,18.1311283111572,18.105131149292,18.0792083740234,18.0533599853516,18.0275859832764,18.0018863677979,17.9762573242188,17.9507026672363,17.925220489502,17.8998107910156,17.8744735717773,17.8492069244385,17.824010848999,17.7988872528076,17.7738342285156,17.748851776123,17.7239379882812,17.6990966796875,17.6743221282959,17.6590347290039,17.6578960418701,17.656759262085,17.6556224822998,17.654483795166,17.6533470153809,17.6522102355957,17.6510734558105,17.649938583374,17.6488018035889,17.6476650238037,17.6465282440186,17.645393371582,17.6442565917969,17.6431217193604,17.6419868469238,17.6408500671387,17.6397151947021,17.6385803222656,14.8366937637329,14.7718906402588,14.7076501846313,14.643967628479,14.5808324813843,14.5182409286499,14.4561834335327,14.3946542739868,14.3336477279663,14.2731552124023,14.213171005249,14.1536893844604,14.0947027206421,14.0362062454224,13.9781932830811,13.9206581115723,13.8635950088501,13.8086862564087,13.8081903457642,13.8076944351196,13.8071985244751,13.8067016601562,13.8062057495117,13.8057098388672,13.8052139282227,13.8047180175781,13.8042221069336,13.8037261962891,13.8032302856445,13.802734375,13.8022394180298,13.8017435073853,13.8012475967407,13.8007516860962,13.800256729126,13.7997608184814,13.7992649078369,13.7987699508667,13.7982749938965,13.797779083252,13.7972831726074,13.7967882156372,13.796293258667,13.7957973480225,13.7953023910522,13.794807434082,13.7943124771118,13.7938175201416,13.7933225631714,13.7928266525269,13.7923316955566,13.7918367385864,13.7913417816162,13.790846824646,13.7903518676758,13.7898578643799,13.7893619537354,13.7888679504395,13.7883729934692,13.787878036499,13.7873830795288,13.7868890762329,13.7863941192627,13.7859001159668,13.7854051589966,13.7849111557007,13.7844161987305,13.7839221954346,13.7834272384644,13.7829332351685,13.7824392318726,13.7819442749023,13.7814502716064,13.7809562683105,13.7804622650146,13.7799682617188,13.7794733047485,13.7789793014526,13.7784852981567,13.7779912948608,13.7774972915649,13.7770042419434,13.7765102386475,13.7760162353516,13.7755222320557,13.7750282287598,13.7745342254639,13.7740411758423,13.7735471725464,13.7730541229248,13.7725601196289,13.772066116333,13.7715730667114,13.7710790634155,13.7705860137939,13.770092010498,13.7695989608765,13.7691059112549,13.7686128616333,13.7681188583374,13.7676258087158,13.7671327590942,13.7666397094727,13.7661466598511,13.7656536102295,13.7651605606079,13.764666557312,13.7641735076904,13.7636814117432,13.7631883621216,13.7626953125,13.7622022628784,13.7617092132568,13.7612171173096,12.2625389099121,12.26344871521,12.2643585205078,12.2652683258057,12.2661781311035,12.2670879364014,12.2679986953735,12.2689094543457,12.2698192596436,12.2707300186157,12.2716407775879,12.2725524902344,12.2734632492065,12.2743740081787,12.2752857208252,12.2761974334717,12.2771091461182,12.2780208587646,12.2789325714111,12.2798442840576,12.2807569503784,12.2816686630249,12.2825813293457,12.2834939956665,12.2844066619873,12.2853193283081,12.2862329483032,12.287145614624,12.2880592346191,12.2889728546143,12.2898845672607,12.2907962799072,11.3730325698853,11.0434265136719,10.8957471847534,10.8920965194702,10.8884477615356,10.8848028182983,10.8811588287354,10.8775186538696,10.8738803863525,10.8702440261841,10.8666105270386,10.8629789352417,10.8593502044678,10.8557243347168,10.8521003723145,10.8484792709351,10.8448600769043,8.99502563476562,8.9697380065918,8.9445915222168,8.91958618164062,8.89472103118896,8.86999320983887,8.84540271759033,8.82094764709473,8.79662799835205,8.77244281768799,8.74838924407959,8.72446727752686,8.70067596435547,8.67701435089111,8.65348052978516,8.6300745010376,8.6067943572998,8.58441066741943,8.57366561889648
18.0640106201172,18.0930595397949,18.1222019195557,18.1514377593994,18.1807689666748,18.2101955413818,18.1863441467285,18.1601886749268,18.1341075897217,18.1081027984619,18.0821723937988,18.0563163757324,18.0305328369141,18.0048236846924,17.9791870117188,17.9536247253418,17.9281349182129,17.9027156829834,17.8773708343506,17.8520946502686,17.8268928527832,17.8017597198486,17.7766990661621,17.7517070770264,17.7267875671387,17.7019367218018,17.6771545410156,17.6524429321289,17.6313915252686,17.630256652832,17.6291236877441,17.6279888153076,17.6268558502197,17.6257228851318,17.6245899200439,17.6234569549561,17.6223239898682,17.6211910247803,17.6200580596924,17.6189250946045,17.6177940368652,17.6166610717773,17.6155281066895,17.6143970489502,17.6132659912109,14.7777757644653,14.7134847640991,14.649751663208,14.5865669250488,14.52392578125,14.461820602417,14.4002437591553,14.3391885757446,14.2786493301392,14.2186193466187,14.1590919494629,14.100061416626,14.0415201187134,13.9834632873535,13.9258852005005,13.8687782287598,13.8121385574341,13.7559595108032,13.7145004272461,13.7140111923218,13.7135219573975,13.7130327224731,13.7125425338745,13.7120532989502,13.7115640640259,13.7110748291016,13.7105855941772,13.7100963592529,13.7096080780029,13.7091188430786,13.7086296081543,13.70814037323,13.70765209198,13.7071628570557,13.7066736221313,13.7061853408813,13.705696105957,13.7052068710327,13.7047185897827,13.7042303085327,13.7037410736084,13.7032527923584,13.7027635574341,13.7022752761841,13.7017869949341,13.7012987136841,13.7008094787598,13.7003211975098,13.6998329162598,13.6993446350098,13.6988563537598,13.6983680725098,13.6978797912598,13.6973915100098,13.6969032287598,13.6964149475098,13.6959266662598,13.6954383850098,13.6949510574341,13.6944627761841,13.6939744949341,13.6934871673584,13.6929988861084,13.6925106048584,13.6920232772827,13.6915349960327,13.691047668457,13.6905603408813,13.6900720596313,13.6895847320557,13.6890964508057,13.68860912323,13.6881217956543,13.6876344680786,13.6871471405029,13.6866588592529,13.6861715316772,13.6856842041016,13.6851968765259,13.6847095489502,13.6842222213745,13.6837348937988,13.6832475662231,13.6827602386475,13.6822738647461,13.6817865371704,13.6812992095947,13.680811882019,13.6803255081177,13.679838180542,13.6793508529663,13.6788644790649,13.6783771514893,13.6778907775879,13.6774034500122,13.6769170761108,13.6764297485352,13.6759433746338,13.6754570007324,13.6749706268311,13.6744832992554,13.673996925354,13.6735105514526,13.6730241775513,13.6725378036499,13.6720514297485,13.6715650558472,13.6710786819458,13.6705923080444,13.6701059341431,13.6696195602417,13.6691331863403,13.668646812439,13.6681604385376,13.6676750183105,13.6671886444092,13.6667022705078,12.2424802780151,12.24338722229,12.2442932128906,12.2452001571655,12.2461080551147,12.2470149993896,12.2479219436646,12.2488298416138,12.2497367858887,12.2506446838379,12.2515525817871,12.2524604797363,12.2533683776855,12.2542772293091,12.2551851272583,12.2560939788818,12.2570028305054,12.2579116821289,12.2588205337524,12.259729385376,12.2606382369995,12.2615480422974,12.2624568939209,12.2633666992188,12.2642765045166,12.2651863098145,12.2660961151123,12.2670068740845,12.2679166793823,12.2688274383545,12.2697381973267,12.2706480026245,12.2715587615967,12.2724676132202,11.4543886184692,11.1201200485229,10.925066947937,10.9213962554932,10.9177284240723,10.9140634536743,10.910400390625,10.9067401885986,10.9030818939209,10.8994264602661,10.89577293396,10.8921222686768,10.8884744644165,10.8848285675049,10.8811855316162,10.8775444030762,8.98415470123291,8.95892810821533,8.93384265899658,8.90889739990234,8.8840913772583,8.85942268371582,8.83489036560059,8.81049346923828,8.78623199462891,8.76210308074951,8.73810577392578,8.71424007415771,8.69050407409668,8.66689777374268,8.64341926574707,8.62006759643555,8.59684085845947,8.57374000549316,8.5590991973877
18.0633754730225,18.0924224853516,18.1215629577637,18.1507968902588,18.163179397583,18.1370906829834,18.1110763549805,18.0851364135742,18.0592727661133,18.0334815979004,18.0077629089355,17.9821186065674,17.9565467834473,17.9310493469238,17.9056224822998,17.8802680969238,17.8549842834473,17.8297729492188,17.8046340942383,17.7795639038086,17.7545642852783,17.7296371459961,17.704776763916,17.679988861084,17.6552677154541,17.6306171417236,17.6060352325439,17.6027050018311,17.6015739440918,17.6004447937012,17.5993137359619,17.5981845855713,17.597053527832,17.5959243774414,17.5947952270508,17.5936660766602,17.5925369262695,17.5914077758789,17.5902786254883,17.5891513824463,17.5880222320557,14.7193241119385,14.6555395126343,14.592306137085,14.5296154022217,14.4674606323242,14.4058361053467,14.3447341918945,14.2841482162476,14.2240724563599,14.1644992828369,14.1054229736328,14.0468378067017,13.9887371063232,13.931116104126,13.873966217041,13.8172836303711,13.7610626220703,13.7052974700928,13.6499824523926,13.6215906143188,13.6211071014404,13.6206245422363,13.6201419830322,13.6196594238281,13.619176864624,13.6186943054199,13.6182117462158,13.6177291870117,13.6172466278076,13.6167640686035,13.6162815093994,13.6157989501953,13.6153163909912,13.6148338317871,13.6143522262573,13.6138696670532,13.6133880615234,13.6129055023193,13.6124229431152,13.6119403839111,13.6114587783813,13.6109762191772,13.6104946136475,13.6100120544434,13.6095304489136,13.6090488433838,13.6085662841797,13.6080846786499,13.6076030731201,13.6071214675903,13.6066389083862,13.6061573028564,13.6056756973267,13.6051940917969,13.6047124862671,13.6042308807373,13.6037492752075,13.6032676696777,13.6027860641479,13.6023044586182,13.6018228530884,13.6013422012329,13.6008605957031,13.6003789901733,13.5998973846436,13.5994167327881,13.5989351272583,13.5984535217285,13.597972869873,13.5974922180176,13.5970106124878,13.5965299606323,13.5960483551025,13.5955677032471,13.5950870513916,13.5946054458618,13.5941247940063,13.5936441421509,13.5931625366211,13.5926818847656,13.5922012329102,13.5917205810547,13.5912399291992,13.5907592773438,13.5902786254883,13.5897979736328,13.5893173217773,13.5888366699219,13.5883569717407,13.5878763198853,13.5873956680298,13.5869150161743,13.5864353179932,13.5859546661377,13.5854740142822,13.5849943161011,13.5845136642456,13.5840339660645,13.583553314209,13.5830736160278,13.5825939178467,13.5821132659912,13.5816326141357,13.5811529159546,13.5806732177734,13.5801935195923,13.5797128677368,13.57923412323,13.5787534713745,13.5782737731934,13.5777940750122,13.5773143768311,13.5768346786499,13.5763549804688,13.5758752822876,13.5753955841064,13.5749168395996,13.5744371414185,13.5739574432373,13.5734777450562,12.222487449646,12.2233905792236,12.2242946624756,12.2251987457275,12.2261028289795,12.2270069122314,12.2279109954834,12.2288160324097,12.2297201156616,12.2306251525879,12.2315301895142,12.2324352264404,12.2333402633667,12.234245300293,12.2351503372192,12.2360563278198,12.2369623184204,12.2378673553467,12.2387733459473,12.2396793365479,12.2405862808228,12.2414922714233,12.2423992156982,12.2433052062988,12.2442121505737,12.2451190948486,12.2460260391235,12.2469329833984,12.2478408813477,12.2487478256226,12.2496557235718,12.250563621521,12.2514705657959,12.2523794174194,12.2532873153687,12.2541933059692,11.5369176864624,11.1978855133057,10.9545440673828,10.9508543014526,10.9471664428711,10.9434814453125,10.9397993087769,10.9361190795898,10.9324407577515,10.9287662506104,10.9250926971436,10.921422958374,10.9177551269531,10.9165229797363,10.9225702285767,8.97331047058105,8.94814395904541,8.92311954498291,8.89823341369629,8.87348651885986,8.848876953125,8.82440280914307,8.80006408691406,8.77585887908936,8.75178718566895,8.7278470993042,8.7040376663208,8.68035697937012,8.65680503845215,8.63338088989258,8.61008358001709,8.58691120147705,8.56386280059814,8.54458141326904
14.5261430740356,14.533802986145,18.1209239959717,18.114049911499,18.0881023406982,18.0622291564941,18.0364303588867,18.0107040405273,17.985050201416,17.9594707489014,17.9339637756348,17.9085292816162,17.8831672668457,17.8578758239746,17.8326568603516,17.8075084686279,17.7824306488037,17.7574234008789,17.7324867248535,17.7076206207275,17.6828231811523,17.6580944061279,17.6334362030029,17.6088466644287,17.5843238830566,17.5752372741699,17.5741100311279,17.5729846954346,17.5718574523926,17.5707321166992,17.5696048736572,17.5684795379639,17.5673522949219,17.5662269592285,17.5651016235352,17.5639762878418,17.5628509521484,14.6613330841064,14.5980491638184,14.5353088378906,14.4731063842773,14.4114332199097,14.350284576416,14.2896518707275,14.2295293807983,14.1699104309082,14.1107892990112,14.0521602630615,13.9940147399902,13.9363498687744,13.8791580200195,13.8224325180054,13.766170501709,13.7103633880615,13.6550073623657,13.6000967025757,13.5456256866455,13.5299301147461,13.5294542312622,13.5289783477783,13.5285024642944,13.5280256271362,13.5275497436523,13.5270738601685,13.5265970230103,13.5261211395264,13.5256452560425,13.5251693725586,13.5246925354004,13.5242166519165,13.5237417221069,13.5232648849487,13.5227890014648,13.522313117981,13.5218381881714,13.5213623046875,13.5208864212036,13.5204105377197,13.5199346542358,13.519458770752,13.5189838409424,13.5185079574585,13.5180330276489,13.517557144165,13.5170812606812,13.5166063308716,13.5161304473877,13.5156555175781,13.5151796340942,13.5147047042847,13.5142297744751,13.5137538909912,13.5132789611816,13.5128040313721,13.5123291015625,13.5118541717529,13.511378288269,13.5109033584595,13.5104284286499,13.5099534988403,13.5094785690308,13.5090036392212,13.5085287094116,13.5080537796021,13.5075788497925,13.5071048736572,13.5066299438477,13.5061550140381,13.5056800842285,13.5052061080933,13.5047311782837,13.5042572021484,13.5037822723389,13.5033073425293,13.502833366394,13.5023584365845,13.5018844604492,13.501410484314,13.5009355545044,13.5004615783691,13.4999866485596,13.4995126724243,13.4990386962891,13.4985647201538,13.4980897903442,13.497615814209,13.497142791748,13.4966678619385,13.4961938858032,13.495719909668,13.495246887207,13.4947719573975,13.4942989349365,13.4938249588013,13.493350982666,13.4928770065308,13.4924030303955,13.4919300079346,13.4914560317993,13.4909820556641,13.4905090332031,13.4900350570679,13.4895610809326,13.4890880584717,13.4886150360107,13.4881410598755,13.4876680374146,13.4871940612793,13.4867210388184,13.4862480163574,13.4857740402222,13.4853019714355,13.4848289489746,13.4843549728394,13.4838819503784,13.4834089279175,13.4829359054565,13.4824628829956,13.4819898605347,13.4815168380737,12.2025594711304,12.2034597396851,12.2043609619141,12.2052612304688,12.2061624526978,12.2070636749268,12.2079658508301,12.2088670730591,12.2097682952881,12.2106704711914,12.2115726470947,12.212474822998,12.2133769989014,12.2142791748047,12.215181350708,12.2160835266113,12.216986656189,12.2178897857666,12.2187929153442,12.2196960449219,12.2205991744995,12.2215023040771,12.2224054336548,12.2233095169067,12.2242136001587,12.2251176834106,12.2260217666626,12.2269258499146,12.2278299331665,12.2287340164185,12.2296390533447,12.230544090271,12.2314481735229,12.2323532104492,12.2332582473755,12.2341642379761,12.2350692749023,12.2359733581543,11.620644569397,11.2767467498779,11.0748376846313,11.0653877258301,11.0565061569214,11.0583581924438,11.062066078186,11.0682764053345,11.0744934082031,11.080717086792,11.0869483947754,11.093186378479,11.0994310379028,8.98773860931396,8.96249198913574,8.93738651275635,8.91242122650146,8.88759517669678,8.86290740966797,8.83835601806641,8.81394004821777,8.78965950012207,8.76551151275635,8.74149608612061,8.71761226654053,8.69385814666748,8.67023277282715,8.64673614501953,8.623366355896,8.60012245178223,8.57700347900391,8.55400848388672,8.53113651275635
14.5246047973633,14.532262802124,14.5399293899536,14.5476036071777,14.5552864074707,14.5629768371582,14.5706758499146,14.5783834457397,17.9114379882812,17.8860664367676,17.860767364502,17.8355388641357,17.8103828430176,17.7852973937988,17.7602825164795,17.7353382110596,17.7104625701904,17.6856575012207,17.6609210968018,17.6362552642822,17.6116580963135,17.5871276855469,17.5626678466797,17.5478553771973,17.5467338562012,17.5456104278564,17.5444869995117,17.543363571167,17.5422420501709,17.5411186218262,17.5399971008301,17.5388736724854,17.5377521514893,14.6037969589233,14.5410079956055,14.4787559509277,14.4170351028442,14.3558387756348,14.2951593399048,14.2349901199341,14.1753263473511,14.1161594390869,14.0574855804443,13.9992971420288,13.9415884017944,13.884352684021,13.8275861740112,13.7712812423706,13.7154331207275,13.6600360870361,13.6050853729248,13.5505743026733,13.4964990615845,13.442852973938,13.4394960403442,13.4390268325806,13.4385566711426,13.4380865097046,13.4376173019409,13.4371471405029,13.4366769790649,13.4362077713013,13.4357376098633,13.4352684020996,13.4347982406616,13.4343280792236,13.43385887146,13.4333896636963,13.4329195022583,13.4324502944946,13.4319801330566,13.431510925293,13.4310417175293,13.4305725097656,13.430103302002,13.4296340942383,13.4291648864746,13.4286947250366,13.4282255172729,13.4277563095093,13.4272880554199,13.4268178939819,13.4263486862183,13.4258804321289,13.4254112243652,13.4249420166016,13.4244728088379,13.4240045547485,13.4235353469849,13.4230661392212,13.4225978851318,13.4221286773682,13.4216594696045,13.4211912155151,13.4207220077515,13.4202537536621,13.4197854995728,13.4193162918091,13.4188480377197,13.4183797836304,13.417911529541,13.4174423217773,13.416974067688,13.4165058135986,13.4160375595093,13.4155683517456,13.4151010513306,13.4146327972412,13.4141635894775,13.4136962890625,13.4132280349731,13.4127597808838,13.4122915267944,13.4118232727051,13.4113550186157,13.4108877182007,13.4104194641113,13.409951210022,13.4094839096069,13.4090156555176,13.4085474014282,13.4080801010132,13.4076118469238,13.4071445465088,13.4066762924194,13.4062089920044,13.4057416915894,13.4052734375,13.404806137085,13.4043378829956,13.4038705825806,13.4034032821655,13.4029359817505,13.4024686813354,13.4020013809204,13.4015340805054,13.401065826416,13.400598526001,13.4001321792603,13.3996639251709,13.3991975784302,13.3987302780151,13.3982629776001,13.3977956771851,13.39732837677,13.3968620300293,13.3963947296143,13.3959283828735,13.3954610824585,13.3949937820435,13.3945274353027,13.3940601348877,13.393593788147,13.3931264877319,13.3926601409912,13.3921928405762,13.3917264938354,13.3912601470947,13.3907928466797,13.390326499939,12.18359375,12.1844921112061,12.1853895187378,12.1862878799438,12.1871862411499,12.188084602356,12.188982963562,12.1898822784424,12.1907806396484,12.1916799545288,12.1925792694092,12.1934785842896,12.1943778991699,12.1952772140503,12.1961765289307,12.1970767974854,12.19797706604,12.1988763809204,12.1997766494751,12.2006769180298,12.2015771865845,12.2024784088135,12.2033786773682,12.2042798995972,12.2051811218262,12.2060813903809,12.2069835662842,12.2078847885132,12.2087860107422,12.2096872329712,12.2105894088745,12.2114915847778,12.2123937606812,12.2132959365845,12.2141981124878,12.2151002883911,12.2160024642944,12.2169055938721,12.2178077697754,11.7055959701538,11.4088048934937,11.3987770080566,11.3887672424316,11.37877368927,11.3687992095947,11.3588409423828,11.3489007949829,11.3389778137207,11.3290719985962,11.3191833496094,11.3160610198975,8.97688579559326,8.95169925689697,8.92665481567383,8.90174961090088,8.87698268890381,8.8523530960083,8.82786083221436,8.80350303649902,8.77927875518799,8.75518798828125,8.73122882843018,8.70740127563477,8.68370246887207,8.66013240814209,8.63669013977051,8.61337471008301,8.59018516540527,8.56711959838867,8.54417705535889,8.52135753631592
14.5230674743652,14.5307235717773,14.5383882522583,14.5460615158081,14.5537424087524,14.5614309310913,14.569128036499,14.5768337249756,14.5845470428467,14.5922689437866,14.5999984741211,14.6077365875244,14.6154832839966,14.6232376098633,17.6884937286377,17.6637496948242,17.6390762329102,17.6144695281982,17.5899333953857,17.5654640197754,17.5410633087158,17.5205593109131,17.5194396972656,17.5183200836182,17.5172004699707,17.5160827636719,17.5149631500244,17.513843536377,17.5127239227295,14.5467109680176,14.4844102859497,14.4226417541504,14.3613967895508,14.3006706237793,14.2404556274414,14.1807460784912,14.1215343475342,14.0628156661987,14.0045824050903,13.9468307495117,13.889552116394,13.83274269104,13.7763967514038,13.7205066680908,13.6650686264038,13.6100778579712,13.5555267333984,13.5014114379883,13.4477262496948,13.3944664001465,13.3507270812988,13.3502635955811,13.349799156189,13.3493356704712,13.3488721847534,13.3484086990356,13.3479452133179,13.3474807739258,13.347017288208,13.3465538024902,13.3460903167725,13.3456268310547,13.3451633453369,13.3446998596191,13.3442363739014,13.3437738418579,13.3433103561401,13.3428468704224,13.3423833847046,13.3419198989868,13.3414573669434,13.3409938812256,13.3405303955078,13.3400678634644,13.3396043777466,13.3391418457031,13.3386783599854,13.3382158279419,13.3377523422241,13.3372898101807,13.3368272781372,13.3363637924194,13.335901260376,13.3354387283325,13.3349761962891,13.3345127105713,13.3340501785278,13.3335876464844,13.3331251144409,13.3326625823975,13.332200050354,13.3317375183105,13.3312749862671,13.3308124542236,13.3303499221802,13.3298873901367,13.3294258117676,13.3289632797241,13.3285007476807,13.3280382156372,13.3275766372681,13.3271141052246,13.3266515731812,13.326189994812,13.3257284164429,13.3252658843994,13.324803352356,13.3243417739868,13.3238801956177,13.3234176635742,13.3229560852051,13.3224945068359,13.3220319747925,13.3215703964233,13.3211088180542,13.3206472396851,13.3201856613159,13.3197231292725,13.3192615509033,13.3187999725342,13.318338394165,13.3178768157959,13.3174152374268,13.3169546127319,13.3164930343628,13.3160314559937,13.3155698776245,13.3151082992554,13.3146467208862,13.3141860961914,13.3137245178223,13.3132629394531,13.3128023147583,13.3123407363892,13.31187915802,13.3114185333252,13.3109569549561,13.3104963302612,13.3100357055664,13.3095750808716,13.3091135025024,13.3086528778076,13.3081922531128,13.3077306747437,13.3072700500488,13.306809425354,13.3063488006592,13.3058881759644,13.3054275512695,13.3049669265747,13.3045063018799,13.3040456771851,13.3035850524902,13.3036079406738,13.310399055481,13.3171968460083,13.3240013122559,13.3308134078979,13.3376331329346,12.1637926101685,12.1646871566772,12.1655826568604,12.1664781570435,12.1673727035522,12.1682691574097,12.1691646575928,12.1700601577759,12.170955657959,12.1718521118164,12.1727485656738,12.1736450195312,12.1745414733887,12.1754379272461,12.1763343811035,12.1772317886353,12.1781282424927,12.1790256500244,12.1799230575562,12.1808204650879,12.1817178726196,12.1826152801514,12.1835126876831,12.1844110488892,12.1853094100952,12.186206817627,12.187105178833,12.1880035400391,12.1889028549194,12.1898012161255,12.1907005310059,12.1915988922119,12.1924982070923,12.1933975219727,12.194296836853,12.1951961517334,12.1960964202881,12.1969957351685,12.1978960037231,12.1987953186035,12.1996955871582,11.7917976379395,11.7528800964355,11.7422380447388,11.7316160202026,11.7210130691528,11.710428237915,11.6998634338379,11.6893177032471,11.6787910461426,11.6682825088501,11.6577939987183,8.9660587310791,8.94093322753906,8.91594791412354,8.89110279083252,8.86639499664307,8.84182453155518,8.81738948822021,8.79308986663818,8.76892280578613,8.74488925933838,8.72098636627197,8.69721412658691,8.67357063293457,8.65005588531494,8.62666797637939,8.60340690612793,8.5802698135376,8.55725765228271,8.53436851501465,8.51160144805908
14.5215291976929,14.5291843414307,14.5368480682373,14.5445194244385,14.5521984100342,14.5598859786987,14.5675811767578,14.5752849578857,14.5829963684082,14.5907163619995,14.5984449386597,14.6061811447144,14.6139259338379,14.621678352356,14.6294393539429,14.6413431167603,14.6562080383301,14.6711025238037,14.6860275268555,17.4952373504639,17.4922332763672,17.4911155700684,17.4899997711182,17.488883972168,17.4877681732178,14.4900684356689,14.4282512664795,14.3669595718384,14.3061866760254,14.2459259033203,14.1861696243286,14.1269130706787,14.0681495666504,14.0098724365234,13.9520769119263,13.8947553634644,13.8379039764404,13.78151512146,13.7255840301514,13.6701049804688,13.6150732040405,13.5604829788208,13.5063276290894,13.4526042938232,13.3993053436279,13.3464279174805,13.293966293335,13.2626647949219,13.26220703125,13.2617492675781,13.2612915039062,13.2608337402344,13.2603759765625,13.2599191665649,13.2594614028931,13.2590036392212,13.2585458755493,13.2580890655518,13.2576313018799,13.2571744918823,13.2567167282104,13.2562599182129,13.255802154541,13.2553453445435,13.2548875808716,13.254430770874,13.2539739608765,13.2535161972046,13.253059387207,13.2526025772095,13.2521457672119,13.25168800354,13.2512311935425,13.2507743835449,13.2503175735474,13.2498607635498,13.2494039535522,13.2489471435547,13.2484903335571,13.2480335235596,13.247576713562,13.2471208572388,13.2466640472412,13.2462072372437,13.2457504272461,13.2452945709229,13.2448377609253,13.2443809509277,13.2439250946045,13.2434682846069,13.2430114746094,13.2425556182861,13.2420988082886,13.2416429519653,13.2411870956421,13.2407302856445,13.2402744293213,13.239818572998,13.2393617630005,13.2389059066772,13.238450050354,13.2379941940308,13.2375383377075,13.23708152771,13.2366256713867,13.2361698150635,13.2357139587402,13.235258102417,13.2348022460938,13.2343463897705,13.2338914871216,13.2334356307983,13.2329797744751,13.2325239181519,13.2320680618286,13.2316122055054,13.2311573028564,13.2307014465332,13.23024559021,13.229790687561,13.2293348312378,13.2288799285889,13.2284240722656,13.2279691696167,13.2275142669678,13.2270584106445,13.2266035079956,13.2261476516724,13.2256927490234,13.2252378463745,13.2247819900513,13.2243270874023,13.2238721847534,13.2234172821045,13.2229623794556,13.2225074768066,13.2220525741577,13.2215976715088,13.2211427688599,13.2206878662109,13.220232963562,13.2197780609131,13.2193231582642,13.2188692092896,13.2184143066406,13.2179594039917,13.2175045013428,13.2203207015991,13.2270269393921,13.2337398529053,13.240460395813,13.2471866607666,13.2539205551147,13.2606611251831,13.2674083709717,13.2741622924805,13.2809238433838,13.287691116333,12.1440553665161,12.144947052002,12.1458396911621,12.1467323303223,12.1476240158081,12.1485166549683,12.1494102478027,12.1503028869629,12.151195526123,12.1520891189575,12.1529817581177,12.1538753509521,12.1547689437866,12.1556625366211,12.1565570831299,12.1574506759644,12.1583442687988,12.1592388153076,12.1601333618164,12.1610279083252,12.161922454834,12.1628170013428,12.1637115478516,12.1646070480347,12.1655015945435,12.1663970947266,12.1672925949097,12.1681880950928,12.1690835952759,12.1699800491333,12.1708755493164,12.1717720031738,12.1726675033569,12.1735639572144,12.1744604110718,12.1753568649292,12.1762542724609,12.1771507263184,12.1780481338501,12.1789445877075,12.1798419952393,12.180739402771,12.1816368103027,12.1296882629395,12.118353843689,12.1070404052734,12.0957479476929,12.0844764709473,12.0732259750366,12.0619974136353,12.0507879257202,12.0396003723145,8.98046398162842,8.95525741577148,8.9301929473877,8.9052677154541,8.8804817199707,8.85583305358887,8.83132076263428,8.80694389343262,8.78270149230957,8.7585916519165,8.73461437225342,8.71076774597168,8.68705081939697,8.66346263885498,8.64000225067139,8.61666870117188,8.59346103668213,8.57037830352783,8.54741859436035,8.52458190917969,8.50186634063721
14.5199928283691,14.5276460647583,14.535306930542,14.5429773330688,14.5506544113159,14.5583400726318,14.5660343170166,14.5737361907959,14.581446647644,14.5891647338867,14.5968914031982,14.6046257019043,14.6123685836792,14.6201200485229,14.6278791427612,14.6409120559692,14.6557760238647,14.6706695556641,14.6855936050415,14.7005481719971,14.7155332565308,14.4338665008545,14.3725271224976,14.3117065429688,14.2513990402222,14.1915979385376,14.1322956085205,14.0734872817993,14.0151662826538,13.9573268890381,13.8999624252319,13.8430681228638,13.7866373062134,13.7306652069092,13.6751461029053,13.6200733184814,13.5654420852661,13.5112476348877,13.4574851989746,13.4041481018066,13.3512325286865,13.2987327575684,13.2466440200806,13.1949625015259,13.1757564544678,13.1753044128418,13.1748533248901,13.1744012832642,13.1739492416382,13.1734981536865,13.1730470657349,13.1725950241089,13.1721429824829,13.1716918945312,13.1712408065796,13.1707897186279,13.170337677002,13.1698865890503,13.1694355010986,13.168984413147,13.168532371521,13.1680812835693,13.1676301956177,13.167179107666,13.1667280197144,13.1662769317627,13.165825843811,13.1653747558594,13.1649236679077,13.1644725799561,13.1640214920044,13.1635704040527,13.1631193161011,13.1626691818237,13.1622180938721,13.1617670059204,13.1613168716431,13.1608657836914,13.1604156494141,13.1599645614624,13.1595134735107,13.1590633392334,13.1586122512817,13.1581621170044,13.1577110290527,13.1572608947754,13.156810760498,13.1563606262207,13.155909538269,13.1554594039917,13.1550092697144,13.154559135437,13.1541080474854,13.1536588668823,13.153208732605,13.1527576446533,13.152307510376,13.1518573760986,13.1514072418213,13.1509571075439,13.1505069732666,13.1500577926636,13.1496076583862,13.1491575241089,13.1487073898315,13.1482582092285,13.1478080749512,13.1473579406738,13.1469087600708,13.1464586257935,13.1460084915161,13.1455593109131,13.1451091766357,13.1446599960327,13.1442098617554,13.1437606811523,13.1433115005493,13.1428623199463,13.1424121856689,13.1419630050659,13.1415128707886,13.1410636901855,13.1406145095825,13.1401653289795,13.1397161483765,13.1392669677734,13.1388177871704,13.1383676528931,13.1379194259644,13.1374702453613,13.1370210647583,13.1365718841553,13.1361227035522,13.1356735229492,13.1352252960205,13.1347761154175,13.1343269348145,13.1338777542114,13.1334295272827,13.1329803466797,13.1325311660767,13.1380701065063,13.1446933746338,13.1513233184814,13.1579599380493,13.1646032333374,13.1712522506714,13.1779088973999,13.1845731735229,13.1912431716919,13.1979198455811,13.2046031951904,13.21129322052,13.2179908752441,13.2246942520142,13.2314052581787,13.2381229400635,13.2448472976685,13.251579284668,13.2583169937134,13.265061378479,13.2718133926392,13.2785720825195,13.2853374481201,13.2921104431152,13.2988891601562,13.3056755065918,13.3124694824219,12.4035816192627,12.4044332504272,12.4053077697754,12.4061822891235,12.407057762146,12.4079322814941,12.4088068008423,12.4096822738647,12.4105577468872,12.4114332199097,12.4123086929321,12.4131841659546,12.4140596389771,12.4149351119995,12.4158115386963,12.4166879653931,12.4175634384155,12.4184398651123,12.4193162918091,12.4201927185059,12.421070098877,12.4219465255737,12.4228239059448,12.4237003326416,12.4245777130127,12.4254550933838,12.4263324737549,12.427209854126,12.4280881881714,12.4289655685425,12.4298439025879,12.4307222366333,12.4315996170044,12.4324779510498,12.4333572387695,12.4342355728149,12.4351139068604,12.4359931945801,12.4368715286255,12.4377508163452,12.4386301040649,12.4353275299072,8.96962833404541,8.94448280334473,8.91947841644287,8.89461231231689,8.86988544464111,8.84529590606689,8.82084178924561,8.79652309417725,8.77233695983887,8.74828433990479,8.72436332702637,8.7005729675293,8.67691135406494,8.6533784866333,8.62997245788574,8.60669326782227,8.58353900909424,8.56050872802734,8.53760242462158,8.51481819152832,8.49215507507324
14.5184555053711,14.5261077880859,14.5337677001953,14.5414352416992,14.549111366272,14.5567951202393,14.5644874572754,14.5721883773804,14.5798969268799,14.5876131057739,14.5953378677368,14.6030712127686,14.6108121871948,14.6185617446899,14.6263198852539,14.6404809951782,14.6553440093994,14.378098487854,14.3172311782837,14.2568769454956,14.1970291137695,14.1376829147339,14.0788288116455,14.0204639434814,13.9625806808472,13.9051742553711,13.8482370376587,13.7917642593384,13.7357501983643,13.6801891326904,13.6250762939453,13.5704050064087,13.5161714553833,13.4623689651489,13.4089937210083,13.3560400009155,13.303503036499,13.2513771057129,13.1996583938599,13.1483421325684,13.0974225997925,13.0899801254272,13.0895338058472,13.0890884399414,13.0886421203613,13.0881967544556,13.0877504348755,13.0873050689697,13.086859703064,13.0864133834839,13.0859680175781,13.0855226516724,13.0850772857666,13.0846309661865,13.0841856002808,13.083740234375,13.0832948684692,13.0828495025635,13.0824041366577,13.081958770752,13.0815134048462,13.0810680389404,13.0806226730347,13.0801782608032,13.0797319412231,13.0792875289917,13.0788421630859,13.0783967971802,13.0779514312744,13.077507019043,13.0770616531372,13.0766172409058,13.076171875,13.0757274627686,13.0752820968628,13.0748376846313,13.0743923187256,13.0739479064941,13.0735025405884,13.0730581283569,13.0726137161255,13.072169303894,13.0717248916626,13.0712795257568,13.0708351135254,13.0703907012939,13.0699462890625,13.0695018768311,13.0690574645996,13.0686130523682,13.0681686401367,13.0677242279053,13.0672798156738,13.0668354034424,13.0663909912109,13.0659465789795,13.065502166748,13.0650577545166,13.0646142959595,13.064169883728,13.0637254714966,13.0632820129395,13.062837600708,13.0623941421509,13.0619497299194,13.061505317688,13.0610618591309,13.0606184005737,13.0601739883423,13.0597305297852,13.0592861175537,13.0588426589966,13.0583992004395,13.057954788208,13.0575113296509,13.0570678710938,13.0566244125366,13.0561800003052,13.0557374954224,13.0552930831909,13.0548496246338,13.0544061660767,13.0539627075195,13.0535192489624,13.0530757904053,13.0526332855225,13.0521898269653,13.0517463684082,13.0513029098511,13.0508594512939,13.0504169464111,13.049973487854,13.0495300292969,13.0490875244141,13.0503015518188,13.0568370819092,13.0633783340454,13.0699262619019,13.0764808654785,13.0830421447754,13.0896100997925,13.0961837768555,13.102765083313,13.1093521118164,13.1159467697144,13.1225471496582,13.1291551589966,13.1357688903809,13.1423902511597,13.1490173339844,13.1556520462036,13.1622924804688,13.1689395904541,13.175594329834,13.1822557449341,13.1889228820801,13.1955976486206,13.2022790908813,13.2089672088623,13.2156620025635,13.2223634719849,13.2290716171265,13.2357864379883,13.2425088882446,13.2492380142212,13.255973815918,13.262716293335,13.2694654464722,13.2762222290039,13.2829847335815,13.2897548675537,13.2965316772461,13.303316116333,13.3101062774658,13.3169040679932,13.323709487915,13.3305206298828,13.3373394012451,13.3441648483276,12.708046913147,12.7089414596558,12.7098350524902,12.7107400894165,12.7116584777832,12.7125768661499,12.7134952545166,12.7144136428833,12.71533203125,12.716251373291,12.717170715332,12.7180891036987,12.7190084457397,12.7199277877808,12.7208480834961,12.7217674255371,12.7226867675781,12.7236070632935,12.7245273590088,12.7254476547241,12.7263679504395,12.7272882461548,12.7282085418701,12.7291297912598,12.7300500869751,12.7309713363647,12.7318925857544,12.732813835144,12.7337350845337,12.7346563339233,12.7355785369873,8.95881843566895,8.93373394012451,8.90878868103027,8.88398361206055,8.85931491851807,8.83478355407715,8.81038761138916,8.78612613677979,8.76199817657471,8.73800182342529,8.71413612365723,8.69040107727051,8.66679573059082,8.64331722259521,8.61996555328369,8.59673976898193,8.57363986968994,8.55066299438477,8.52780818939209,8.50507640838623,8.49127101898193
14.5169191360474,14.5245695114136,14.5322275161743,14.5398941040039,14.547568321228,14.555251121521,14.5629415512085,14.5706405639648,14.5783472061157,14.5860624313354,14.5937852859497,14.6015167236328,14.6092567443848,14.3227596282959,14.2623586654663,14.2024660110474,14.1430730819702,14.0841751098633,14.0257663726807,13.9678392410278,13.9103889465332,13.8534088134766,13.7968940734863,13.7408390045166,13.6852369308472,13.6300830841064,13.5753717422485,13.5210990905762,13.4672574996948,13.4138431549072,13.3608512878418,13.3082761764526,13.2561130523682,13.2043571472168,13.1530046463013,13.1020488739014,13.0514869689941,13.0057525634766,13.0053129196167,13.0048723220825,13.0044326782227,13.0039920806885,13.0035524368286,13.0031127929688,13.0026721954346,13.0022325515747,13.0017929077148,13.0013523101807,13.0009126663208,13.0004730224609,13.0000333786011,12.9995937347412,12.9991540908813,12.9987144470215,12.9982748031616,12.9978351593018,12.9973955154419,12.996955871582,12.9965162277222,12.9960765838623,12.9956369400024,12.9951972961426,12.9947576522827,12.9943189620972,12.9938793182373,12.9934396743774,12.9930009841919,12.992561340332,12.9921226501465,12.9916830062866,12.9912433624268,12.9908046722412,12.9903659820557,12.9899263381958,12.9894876480103,12.9890489578247,12.9886093139648,12.9881706237793,12.9877309799194,12.9872922897339,12.9868535995483,12.9864149093628,12.9859762191772,12.9855375289917,12.9850988388062,12.9846601486206,12.9842205047607,12.9837818145752,12.9833431243896,12.9829044342041,12.9824666976929,12.9820280075073,12.9815893173218,12.9811506271362,12.9807119369507,12.9802742004395,12.9798355102539,12.9793968200684,12.9789581298828,12.9785203933716,12.978081703186,12.9776439666748,12.9772052764893,12.976767539978,12.9763288497925,12.9758911132812,12.9754524230957,12.9750146865845,12.9745769500732,12.9741382598877,12.9737005233765,12.9732627868652,12.9728240966797,12.9723863601685,12.9719486236572,12.971510887146,12.9710731506348,12.9706354141235,12.9701976776123,12.9697599411011,12.9693222045898,12.9688844680786,12.9684467315674,12.9680089950562,12.9675712585449,12.9671335220337,12.9666967391968,12.9662590026855,12.9701471328735,12.976601600647,12.9830627441406,12.9895305633545,12.9960050582886,13.0024852752686,13.0089731216431,13.0154666900635,13.0219659805298,13.0284729003906,13.0349855422974,13.0415058135986,13.0480318069458,13.0545644760132,13.0611028671265,13.0676488876343,13.0742015838623,13.0807600021362,13.0873260498047,13.093897819519,13.1004762649536,13.1070613861084,13.1136531829834,13.1202516555786,13.126856803894,13.1334686279297,13.1400871276855,13.1467123031616,13.1533441543579,13.1599826812744,13.1666278839111,13.1732797622681,13.1799383163452,13.1866044998169,13.1932764053345,13.1999549865723,13.2066411972046,13.2133331298828,13.2200326919556,13.2267389297485,13.2334518432617,13.2401714324951,13.2468976974487,13.2536306381226,13.2603712081909,13.2671184539795,13.2738723754883,13.2806329727173,13.2874002456665,13.2941751480103,13.3009567260742,13.3077449798584,13.3145399093628,13.3213424682617,13.3281517028809,13.3349676132202,13.3417911529541,13.3486213684082,13.3554582595825,13.3623027801514,13.3691539764404,13.3760118484497,13.0278358459473,13.0287752151489,13.0297155380249,13.0306549072266,13.0315952301025,13.0325574874878,13.033522605896,13.0344877243042,13.0354537963867,13.0364189147949,13.0373849868774,13.03835105896,13.0393171310425,13.040283203125,13.0412502288818,13.0422163009644,13.0431833267212,13.044150352478,13.0451173782349,8.97319984436035,8.94803524017334,8.92301082611084,8.89812564849854,8.87337875366211,8.84877014160156,8.82429695129395,8.79995822906494,8.77575397491455,8.75168228149414,8.72774314880371,8.70393371582031,8.68025398254395,8.65670299530029,8.63327980041504,8.60998249053955,8.58681011199951,8.56376266479492,8.54083919525146,8.51803684234619,8.50111865997314,8.49131488800049
14.5153827667236,14.5230312347412,14.5306882858276,14.5383529663086,14.5460252761841,14.5537061691284,14.5613956451416,14.5690927505493,14.5767974853516,14.2678451538086,14.2079057693481,14.1484680175781,14.0895252227783,14.0310716629028,13.9731016159058,13.9156074523926,13.858585357666,13.8020286560059,13.7459306716919,13.6902885437012,13.6350936889648,13.5803422927856,13.526029586792,13.4721488952637,13.4186964035034,13.365665435791,13.3130531311035,13.2608528137207,13.209059715271,13.1576700210571,13.1066789627075,13.0560817718506,13.0058727264404,12.9560489654541,12.9221687316895,12.9217338562012,12.9212989807129,12.9208650588989,12.920431137085,12.9199962615967,12.9195613861084,12.9191274642944,12.9186935424805,12.9182586669922,12.9178247451782,12.9173908233643,12.9169569015503,12.916522026062,12.916088104248,12.9156541824341,12.9152202606201,12.9147853851318,12.9143514633179,12.9139175415039,12.9134836196899,12.913049697876,12.912615776062,12.912181854248,12.9117479324341,12.9113149642944,12.9108810424805,12.9104471206665,12.9100131988525,12.9095792770386,12.9091463088989,12.908712387085,12.908278465271,12.907844543457,12.9074115753174,12.9069786071777,12.9065446853638,12.9061107635498,12.9056777954102,12.9052448272705,12.9048109054565,12.9043779373169,12.9039449691772,12.9035110473633,12.9030780792236,12.902645111084,12.90221118927,12.9017782211304,12.9013452529907,12.9009122848511,12.9004793167114,12.9000463485718,12.8996124267578,12.8991804122925,12.8987474441528,12.8983144760132,12.8978815078735,12.8974485397339,12.8970155715942,12.8965826034546,12.8961496353149,12.8957166671753,12.89528465271,12.8948516845703,12.8944187164307,12.8939867019653,12.8935537338257,12.893120765686,12.8926887512207,12.8922557830811,12.8918237686157,12.8913908004761,12.8909587860107,12.8905258178711,12.8900938034058,12.8896617889404,12.8892288208008,12.8887968063354,12.8883647918701,12.8879318237305,12.8874998092651,12.8870677947998,12.8866357803345,12.8862037658691,12.8857717514038,12.8853397369385,12.8849077224731,12.8846006393433,12.8909702301025,12.897346496582,12.9037294387817,12.9101181030273,12.9165134429932,12.9229145050049,12.9293231964111,12.9357376098633,12.9421577453613,12.9485845565796,12.9550180435181,12.9614582061768,12.9679040908813,12.9743566513062,12.9808158874512,12.9872817993164,12.9937534332275,13.0002317428589,13.0067167282104,13.0132083892822,13.0197057723999,13.0262098312378,13.0327205657959,13.0392379760742,13.0457620620728,13.0522918701172,13.0588293075562,13.065372467041,13.0719223022461,13.0784788131714,13.0850419998169,13.0916118621826,13.0981884002686,13.1047716140747,13.1113605499268,13.1179571151733,13.1245603561401,13.1311693191528,13.1377859115601,13.1444082260132,13.1510381698608,13.1576738357544,13.1643171310425,13.1709671020508,13.177622795105,13.1842861175537,13.1909561157227,13.1976327896118,13.2043161392212,13.2110061645508,13.2177028656006,13.2244062423706,13.2311172485352,13.2378339767456,13.2445583343506,13.2512893676758,13.2580270767212,13.2647714614868,13.271523475647,13.278281211853,13.2850465774536,13.2918186187744,13.2985982894897,13.305383682251,13.3121767044067,13.318977355957,13.3257837295532,13.3325977325439,13.3394184112549,13.346245765686,13.3530807495117,13.3599224090576,13.3667707443237,13.3736267089844,13.3804893493652,13.3873596191406,13.3942365646362,13.4011201858521,13.4080114364624,13.3641338348389,13.365122795105,13.3661117553711,13.3671007156372,13.3680906295776,13.3603048324585,13.3453092575073,13.3303470611572,8.96238231658936,8.93727779388428,8.91231346130371,8.88748741149902,8.86280059814453,8.83824920654297,8.81383419036865,8.78955364227295,8.76540660858154,8.74139213562012,8.71750831604004,8.69375514984131,8.67013072967529,8.64663410186768,8.62326526641846,8.60002136230469,8.57690334320068,8.55390930175781,8.53103733062744,8.51098823547363,8.5011625289917,8.49135875701904
14.5138473510742,14.5214939117432,14.529149055481,14.5368118286133,14.5444831848145,14.2133502960205,14.1538667678833,14.0948801040649,14.0363817214966,13.978367805481,13.9208307266235,13.8637657165527,13.8071660995483,13.7510271072388,13.6953430175781,13.6401081085205,13.58531665802,13.5309638977051,13.4770441055298,13.4235525131226,13.3704833984375,13.3178329467773,13.2655954360962,13.2137660980225,13.1623392105103,13.1113119125366,13.06067943573,13.0104351043701,12.9605770111084,12.9110984802246,12.8619976043701,12.8396511077881,12.8392219543457,12.8387937545776,12.8383646011353,12.8379364013672,12.8375062942505,12.8370780944824,12.83664894104,12.8362197875977,12.8357915878296,12.8353633880615,12.8349342346191,12.8345060348511,12.8340768814087,12.8336486816406,12.8332195281982,12.8327913284302,12.8323631286621,12.8319339752197,12.8315057754517,12.8310775756836,12.8306484222412,12.8302202224731,12.8297920227051,12.829363822937,12.8289356231689,12.8285074234009,12.8280792236328,12.8276510238647,12.8272228240967,12.8267946243286,12.8263664245605,12.8259391784668,12.8255100250244,12.8250827789307,12.8246545791626,12.8242263793945,12.8237991333008,12.8233709335327,12.8229427337646,12.8225145339966,12.8220872879028,12.8216590881348,12.821231842041,12.8208036422729,12.8203763961792,12.8199481964111,12.8195209503174,12.8190927505493,12.8186655044556,12.8182382583618,12.8178110122681,12.8173828125,12.8169555664062,12.8165283203125,12.8161001205444,12.8156728744507,12.8152456283569,12.8148183822632,12.8143911361694,12.8139638900757,12.8135366439819,12.8131093978882,12.8126821517944,12.8122549057007,12.8118276596069,12.8114004135132,12.8109731674194,12.810546875,12.8101186752319,12.8096923828125,12.8092651367188,12.808837890625,12.8084115982056,12.8079853057861,12.8075580596924,12.8071308135986,12.8067045211792,12.8062772750854,12.805850982666,12.8054237365723,12.8049974441528,12.8045701980591,12.8041439056396,12.8064622879028,12.8127546310425,12.8190546035767,12.8253593444824,12.8316707611084,12.8379888534546,12.8443126678467,12.850643157959,12.8569793701172,12.8633222579956,12.8696708679199,12.8760261535645,12.8823871612549,12.8887548446655,12.8951292037964,12.9015092849731,12.9078960418701,12.9142894744873,12.9206886291504,12.9270944595337,12.9335069656372,12.9399251937866,12.9463500976562,12.9527807235718,12.9592180252075,12.9656620025635,12.9721126556396,12.978569984436,12.9850330352783,12.9915027618408,12.9979791641235,13.0044612884521,13.010950088501,13.01744556427,13.0239477157593,13.0304565429688,13.0369710922241,13.043493270874,13.0500211715698,13.0565557479858,13.0630970001221,13.0696449279785,13.0761985778809,13.0827598571777,13.0893268585205,13.0959014892578,13.102481842041,13.1090688705444,13.1156635284424,13.1222639083862,13.1288709640503,13.1354846954346,13.1421051025391,13.1487321853638,13.1553659439087,13.1620063781738,13.1686544418335,13.1753082275391,13.1819686889648,13.1886367797852,13.1953105926514,13.2019910812378,13.2086791992188,13.2153739929199,13.2220754623413,13.2287836074829,13.2354984283447,13.2422199249268,13.248948097229,13.2556838989258,13.2624263763428,13.2691745758057,13.2759313583374,13.282693862915,13.2894639968872,13.2962408065796,13.3030242919922,13.309814453125,13.3166122436523,13.3234167098999,13.3302278518677,13.3370456695557,13.3438711166382,13.3507032394409,13.3575429916382,13.3643894195557,13.3533639907837,13.3383836746216,13.3234376907349,13.3085241317749,13.2936449050903,13.2787981033325,13.2639846801758,13.2492046356201,8.9515905380249,8.92654609680176,8.90164089202881,8.87687492370605,8.85224628448486,8.82775402069092,8.8033971786499,8.77917385101318,8.75508308410645,8.73112487792969,8.70729732513428,8.6835994720459,8.66003036499023,8.63658905029297,8.61327362060547,8.59008407592773,8.56701946258545,8.54407787322998,8.52125835418701,8.51103210449219,8.50120544433594,8.49140167236328
14.5123109817505,14.1592702865601,14.1002378463745,14.0416955947876,13.9836368560791,13.9260568618774,13.8689498901367,13.8123083114624,13.7561273574829,13.7004022598267,13.6451263427734,13.5902948379517,13.5359020233154,13.4819431304932,13.428412437439,13.3753051757812,13.3226165771484,13.2703418731689,13.2184753417969,13.1670122146606,13.115948677063,13.0652799606323,13.0150003433228,12.9651069641113,12.9155941009521,12.8664588928223,12.8176956176758,12.7693004608154,12.7581815719604,12.757758140564,12.7573347091675,12.756911277771,12.7564878463745,12.756064414978,12.7556409835815,12.7552175521851,12.7547941207886,12.7543706893921,12.7539472579956,12.7535247802734,12.7531003952026,12.7526779174805,12.752254486084,12.7518310546875,12.7514085769653,12.7509851455688,12.7505617141724,12.7501392364502,12.7497158050537,12.7492933273315,12.7488698959351,12.7484474182129,12.7480239868164,12.7476015090942,12.7471790313721,12.7467555999756,12.7463331222534,12.7459096908569,12.7454881668091,12.7450647354126,12.7446422576904,12.7442197799683,12.7437973022461,12.7433748245239,12.7429523468018,12.7425289154053,12.7421064376831,12.7416839599609,12.7412624359131,12.7408390045166,12.7404174804688,12.7399950027466,12.7395725250244,12.7391500473022,12.7387275695801,12.7383060455322,12.7378826141357,12.7374610900879,12.7370386123657,12.7366170883179,12.7361946105957,12.7357721328735,12.7353506088257,12.7349281311035,12.7345066070557,12.7340841293335,12.7336626052856,12.7332401275635,12.7328186035156,12.7323970794678,12.7319746017456,12.7315530776978,12.7311315536499,12.7307090759277,12.7302875518799,12.729866027832,12.7294445037842,12.7290229797363,12.7286014556885,12.7281799316406,12.7277584075928,12.7273368835449,12.7269144058228,12.7264938354492,12.7260723114014,12.7256507873535,12.7252292633057,12.7248077392578,12.72438621521,12.7292652130127,12.7354831695557,12.7417058944702,12.747935295105,12.75417137146,12.7604131698608,12.7666606903076,12.7729139328003,12.7791748046875,12.7854404449463,12.7917127609253,12.7979917526245,12.8042755126953,12.8105659484863,12.8168630599976,12.823166847229,12.8294763565063,12.8357915878296,12.842113494873,12.8484411239624,12.854775428772,12.8611164093018,12.8674631118774,12.873815536499,12.8801755905151,12.8865404129028,12.8929128646851,12.8992910385132,12.9056749343872,12.9120664596558,12.9184637069702,12.9248666763306,12.9312763214111,12.9376926422119,12.9441156387329,12.9505443572998,12.9569797515869,12.9634218215942,12.9698696136475,12.9763240814209,12.9827852249146,12.9892530441284,12.9957265853882,13.0022068023682,13.0086936950684,13.0151872634888,13.0216865539551,13.0281925201416,13.0347061157227,13.0412244796753,13.0477504730225,13.0542831420898,13.0608224868774,13.0673675537109,13.0739192962646,13.0804777145386,13.0870428085327,13.0936145782471,13.1001930236816,13.1067781448364,13.1133699417114,13.1199684143066,13.1265726089478,13.1331844329834,13.1398029327393,13.1464281082153,13.1530590057373,13.1596975326538,13.1663427352905,13.1729936599731,13.1796522140503,13.1863174438477,13.1929893493652,13.199667930603,13.206353187561,13.2130451202393,13.219744682312,13.2264499664307,13.2331628799438,13.2398824691772,13.2466087341309,13.2533416748047,13.2600812911987,13.266827583313,13.2735815048218,13.2803421020508,13.287109375,13.2938833236694,13.3006649017334,13.3074531555176,13.3016366958618,13.2867727279663,13.2719411849976,13.2571430206299,13.2423782348633,13.2276458740234,13.2129468917847,13.1982793807983,13.1836452484131,8.96594905853271,8.94082450866699,8.91584014892578,8.89099502563477,8.86628818511963,8.84171772003174,8.81728363037109,8.79298400878906,8.76881790161133,8.74478435516357,8.72088241577148,8.69711112976074,8.67346858978271,8.64995384216309,8.62656688690186,8.60330581665039,8.58016967773438,8.55715751647949,8.53426933288574,8.52092552185059,8.51107597351074,8.50124931335449,8.49144554138184
13.9312877655029,13.8741369247437,13.8174533843994,13.7612314224243,13.7054643630981,13.6501474380493,13.5952758789062,13.5408430099487,13.4868450164795,13.4332761764526,13.3801298141479,13.3274040222168,13.2750911712646,13.2231874465942,13.171688079834,13.1205883026123,13.0698833465576,13.0195693969727,12.9696407318115,12.920093536377,12.8709230422974,12.8221263885498,12.7736978530884,12.7256336212158,12.6781578063965,12.6777391433716,12.677321434021,12.6769027709961,12.6764850616455,12.6760663986206,12.67564868927,12.6752300262451,12.6748123168945,12.6743946075439,12.673975944519,12.6735582351685,12.6731405258179,12.6727228164673,12.6723041534424,12.6718864440918,12.6714687347412,12.6710510253906,12.67063331604,12.6702156066895,12.6697978973389,12.6693801879883,12.6689624786377,12.6685447692871,12.6681270599365,12.6677093505859,12.6672916412354,12.6668748855591,12.6664571762085,12.6660394668579,12.6656227111816,12.6652050018311,12.6647872924805,12.6643695831299,12.6639528274536,12.663535118103,12.6631183624268,12.6627006530762,12.6622838973999,12.6618661880493,12.661449432373,12.6610317230225,12.6606149673462,12.6601982116699,12.6597805023193,12.6593637466431,12.6589460372925,12.6585292816162,12.6581125259399,12.6576957702637,12.6572790145874,12.6568622589111,12.6564455032349,12.6560277938843,12.655611038208,12.6551942825317,12.6547784805298,12.6543607711792,12.6539440155029,12.653528213501,12.6531114578247,12.6526947021484,12.6522779464722,12.6518621444702,12.6514444351196,12.6510286331177,12.6506118774414,12.6501960754395,12.6497793197632,12.6493625640869,12.648946762085,12.6485300064087,12.6481142044067,12.6476974487305,12.6472816467285,12.6468648910522,12.6464490890503,12.6460332870483,12.6468572616577,12.6529941558838,12.6591377258301,12.6652860641479,12.671441078186,12.67760181427,12.6837682723999,12.68994140625,12.696120262146,12.7023057937622,12.70849609375,12.7146940231323,12.7208967208862,12.727105140686,12.7333202362061,12.7395420074463,12.7457695007324,12.7520027160645,12.7582426071167,12.7644872665405,12.7707395553589,12.7769975662231,12.7832612991333,12.7895317077637,12.7958078384399,12.8020896911621,12.8083791732788,12.8146734237671,12.8209743499756,12.8272819519043,12.8335952758789,12.8399143218994,12.8462409973145,12.8525724411011,12.8589105606079,12.865255355835,12.8716058731079,12.8779640197754,12.8843269348145,12.8906965255737,12.8970727920532,12.9034547805786,12.9098434448242,12.91623878479,12.9226398468018,12.9290475845337,12.9354610443115,12.9418821334839,12.9483079910278,12.9547414779663,12.9611806869507,12.9676275253296,12.9740791320801,12.9805383682251,12.987003326416,12.9934749603271,12.9999532699585,13.0064373016357,13.0129289627075,13.0194263458252,13.0259304046631,13.0324411392212,13.0389575958252,13.0454816818237,13.0520114898682,13.0585479736328,13.0650911331177,13.0716409683228,13.078197479248,13.0847597122192,13.091329574585,13.0979051589966,13.1044883728027,13.1110773086548,13.1176738739014,13.1242761611938,13.1308851242065,13.1375007629395,13.1441240310669,13.1507530212402,13.1573886871338,13.1640310287476,13.1706809997559,13.1773366928101,13.1840000152588,13.1906690597534,13.1973447799683,13.2040281295776,13.2107181549072,13.217414855957,13.2241182327271,13.2308282852173,13.2375450134277,13.2442693710327,13.2509994506836,13.2503089904785,13.235559463501,13.2208423614502,13.2061576843262,13.1915063858032,13.1768865585327,13.1623001098633,13.1477451324463,13.1332225799561,13.1187324523926,13.1042737960815,8.9551477432251,8.93008422851562,8.90515995025635,8.88037395477295,8.85572624206543,8.83121395111084,8.8068380355835,8.78259563446045,8.7584867477417,8.73451042175293,8.71066379547119,8.6869478225708,8.66336059570312,8.63990020751953,8.61656761169434,8.59336090087891,8.57027816772461,8.54731845855713,8.53084182739258,8.52096939086914,8.5111198425293,8.50129318237305,8.49148941040039
13.6551733016968,13.6002607345581,13.5457887649536,13.4917507171631,13.4381427764893,13.3849592208862,13.3321943283081,13.2798442840576,13.2279033660889,13.1763668060303,13.1252307891846,13.0744905471802,13.0241403579712,12.9741773605347,12.9245958328247,12.875391960144,12.8265600204468,12.7780990600586,12.730001449585,12.6822652816772,12.6348848342896,12.5987176895142,12.5983047485352,12.5978918075562,12.5974788665771,12.5970659255981,12.5966529846191,12.5962400436401,12.5958271026611,12.5954141616821,12.5950012207031,12.5945892333984,12.5941762924194,12.5937633514404,12.5933504104614,12.5929384231567,12.5925245285034,12.5921125411987,12.591700553894,12.591287612915,12.590874671936,12.5904626846313,12.5900506973267,12.5896377563477,12.589225769043,12.588812828064,12.5884008407593,12.5879878997803,12.5875759124756,12.5871639251709,12.5867519378662,12.5863389968872,12.5859270095825,12.5855150222778,12.5851020812988,12.5846900939941,12.5842781066895,12.5838661193848,12.5834541320801,12.5830421447754,12.5826301574707,12.582218170166,12.5818061828613,12.5813941955566,12.580982208252,12.5805702209473,12.5801582336426,12.5797462463379,12.5793352127075,12.5789232254028,12.5785112380981,12.5781002044678,12.5776882171631,12.5772762298584,12.576865196228,12.5764532089233,12.576042175293,12.5756301879883,12.5752182006836,12.5748071670532,12.5743951797485,12.5739841461182,12.5735731124878,12.5731611251831,12.5727500915527,12.5723390579224,12.5719270706177,12.5715160369873,12.5711050033569,12.5706939697266,12.5702819824219,12.5698719024658,12.5694599151611,12.5690488815308,12.5686378479004,12.5682277679443,12.5715675354004,12.5776309967041,12.583701133728,12.5897769927979,12.5958585739136,12.6019468307495,12.608039855957,12.6141395568848,12.6202449798584,12.6263561248779,12.6324729919434,12.6385955810547,12.6447248458862,12.6508598327637,12.657000541687,12.6631479263306,12.6693000793457,12.6754598617554,12.6816244125366,12.6877946853638,12.6939716339111,12.7001543045044,12.7063436508179,12.7125377655029,12.7187395095825,12.7249460220337,12.7311592102051,12.7373781204224,12.7436037063599,12.7498350143433,12.7560720443726,12.7623157501221,12.7685651779175,12.7748212814331,12.7810831069946,12.7873506546021,12.7936248779297,12.7999048233032,12.806191444397,12.8124847412109,12.8187828063965,12.8250885009766,12.8313989639282,12.8377170562744,12.8440408706665,12.8503704071045,12.8567066192627,12.8630495071411,12.8693981170654,12.8757524490356,12.8821134567261,12.8884811401367,12.8948554992676,12.9012355804443,12.907621383667,12.9140148162842,12.9204139709473,12.9268188476562,12.9332304000854,12.9396486282349,12.9460735321045,12.95250415802,12.9589414596558,12.9653854370117,12.9718351364136,12.9782915115356,12.9847545623779,12.9912242889404,12.9976997375488,13.0041828155518,13.0106716156006,13.0171661376953,13.0236682891846,13.0301761627197,13.0366916656494,13.043212890625,13.0497407913208,13.0562744140625,13.0628156661987,13.0693626403809,13.0759172439575,13.0824775695801,13.0890445709229,13.0956182479858,13.102198600769,13.1087856292725,13.1153793334961,13.1219797134399,13.128586769104,13.1352005004883,13.1418199539185,13.1484470367432,13.1550807952881,13.1617212295532,13.1683683395386,13.1750221252441,13.1816825866699,13.1883497238159,13.1950235366821,13.1993761062622,13.184739112854,13.1701354980469,13.1555633544922,13.1410236358643,13.1265153884888,13.11203956604,13.0975961685181,13.0831842422485,13.0688037872314,13.0544548034668,13.0401372909546,13.0258522033691,8.94437313079834,8.9193696975708,8.89450454711914,8.86977863311768,8.84518909454346,8.82073593139648,8.79641723632812,8.77223205566406,8.7481803894043,8.72425937652588,8.70046901702881,8.67680835723877,8.65327548980713,8.62987041473389,8.60659217834473,8.5834379196167,8.56040859222412,8.54078102111816,8.53088569641113,8.5210132598877,8.51116371154785,8.5013370513916,8.49153327941895
13.3897905349731,13.3369884490967,13.2846002578735,13.2326231002808,13.1810503005981,13.1298770904541,13.0791006088257,13.0287160873413,12.9787178039551,12.9291009902954,12.8798627853394,12.830997467041,12.7825021743774,12.7343721389771,12.6866035461426,12.6391916275024,12.5921316146851,12.5454216003418,12.5202674865723,12.5198593139648,12.5194520950317,12.5190439224243,12.5186357498169,12.5182285308838,12.5178203582764,12.5174131393433,12.5170049667358,12.5165977478027,12.5161895751953,12.5157823562622,12.5153741836548,12.5149669647217,12.5145597457886,12.5141515731812,12.513744354248,12.5133371353149,12.5129299163818,12.5125226974487,12.5121145248413,12.5117073059082,12.5113000869751,12.510892868042,12.5104856491089,12.5100784301758,12.5096712112427,12.5092639923096,12.5088567733765,12.5084495544434,12.5080423355103,12.5076360702515,12.507227897644,12.5068216323853,12.5064144134521,12.506007194519,12.5055999755859,12.5051927566528,12.504786491394,12.5043792724609,12.5039730072021,12.503565788269,12.5031585693359,12.5027523040771,12.502345085144,12.5019388198853,12.5015316009521,12.5011253356934,12.5007190704346,12.5003118515015,12.4999055862427,12.4994993209839,12.4990921020508,12.498685836792,12.4982795715332,12.4978733062744,12.4974660873413,12.4970598220825,12.4966535568237,12.4962472915649,12.4958410263062,12.4954347610474,12.4950284957886,12.4946222305298,12.494215965271,12.4938097000122,12.4934034347534,12.4929971694946,12.4925909042358,12.4921855926514,12.4917793273926,12.4913730621338,12.4971685409546,12.5031604766846,12.5091590881348,12.5151634216309,12.5211734771729,12.5271892547607,12.5332098007202,12.5392370223999,12.5452699661255,12.5513095855713,12.5573539733887,12.563404083252,12.5694599151611,12.5755224227905,12.5815906524658,12.587664604187,12.5937442779541,12.5998296737671,12.605920791626,12.6120176315308,12.6181211471558,12.6242303848267,12.6303453445435,12.6364669799805,12.6425933837891,12.6487264633179,12.6548652648926,12.6610097885132,12.667160987854,12.6733169555664,12.6794805526733,12.6856489181519,12.6918239593506,12.6980037689209,12.7041912078857,12.7103834152222,12.7165832519531,12.7227878570557,12.7289981842041,12.7352151870728,12.7414388656616,12.7476673126221,12.7539024353027,12.7601442337036,12.7663917541504,12.7726459503174,12.778904914856,12.7851705551147,12.7914428710938,12.7977209091187,12.8040056228638,12.8102960586548,12.8165922164917,12.8228950500488,12.8292045593262,12.8355197906494,12.8418416976929,12.8481693267822,12.8545026779175,12.8608436584473,12.8671894073486,12.8735427856445,12.8799018859863,12.886266708374,12.8926382064819,12.8990163803101,12.9054012298584,12.9117908477783,12.9181880950928,12.9245910644531,12.9310007095337,12.9374170303345,12.9438390731812,12.950267791748,12.9567031860352,12.9631443023682,12.9695920944214,12.9760465621948,12.9825077056885,12.988974571228,12.9954481124878,13.0019283294678,13.0084142684937,13.0149078369141,13.0214071273804,13.0279130935669,13.0344257354736,13.0409450531006,13.0474700927734,13.0540018081665,13.0605401992798,13.0670862197876,13.0736379623413,13.0801963806152,13.0867605209351,13.0933322906494,13.099910736084,13.1064949035645,13.1130867004395,13.1196842193604,13.1262893676758,13.1329002380371,13.1395177841187,13.1461429595947,13.1343078613281,13.119815826416,13.105354309082,13.0909252166748,13.0765285491943,13.062162399292,13.0478286743164,13.0335254669189,13.0192537307739,13.0050134658813,12.9908046722412,12.9766263961792,12.9624795913696,8.95870876312256,8.93362522125244,8.90868091583252,8.88387584686279,8.85920810699463,8.83467674255371,8.81028175354004,8.78602123260498,8.7618932723999,8.7378978729248,8.71403312683105,8.69029808044434,8.66669273376465,8.64321517944336,8.61986446380615,8.59663963317871,8.5735387802124,8.55074310302734,8.54082489013672,8.53092956542969,8.52105712890625,8.51120758056641,8.50138092041016,8.49157619476318
13.1345272064209,13.0837144851685,13.0332937240601,12.9832601547241,12.9336090087891,12.8843364715576,12.8354377746582,12.7869091033936,12.7387456893921,12.6909437179565,12.6434993743896,12.5964088439941,12.5496673583984,12.5032711029053,12.4572172164917,12.4427881240845,12.4423856735229,12.4419822692871,12.4415798187256,12.4411773681641,12.4407739639282,12.4403715133667,12.4399690628052,12.4395656585693,12.4391632080078,12.4387607574463,12.4383583068848,12.4379558563232,12.4375534057617,12.4371500015259,12.4367485046387,12.4363460540771,12.4359436035156,12.4355411529541,12.4351387023926,12.4347362518311,12.4343338012695,12.433931350708,12.4335298538208,12.4331274032593,12.4327249526978,12.4323225021362,12.431921005249,12.4315176010132,12.431116104126,12.4307136535645,12.4303121566772,12.4299097061157,12.4295082092285,12.429105758667,12.4287042617798,12.4283018112183,12.4279003143311,12.4274978637695,12.4270963668823,12.4266939163208,12.4262924194336,12.4258899688721,12.4254884719849,12.4250869750977,12.4246854782104,12.4242830276489,12.4238815307617,12.4234800338745,12.4230785369873,12.4226770401001,12.4222755432129,12.4218740463257,12.4214725494385,12.4210710525513,12.4206695556641,12.4202680587769,12.4198665618896,12.4194650650024,12.4190635681152,12.4186630249023,12.4182605743408,12.4178600311279,12.4174585342407,12.4170570373535,12.4166564941406,12.4162549972534,12.4158544540405,12.4177284240723,12.4236450195312,12.4295673370361,12.4354953765869,12.4414281845093,12.4473676681519,12.4533128738403,12.4592628479004,12.4652194976807,12.4711818695068,12.4771490097046,12.4831228256226,12.4891014099121,12.4950866699219,12.5010766983032,12.5070734024048,12.5130748748779,12.5190830230713,12.5250968933105,12.5311155319214,12.5371408462524,12.5431718826294,12.5492086410522,12.555251121521,12.56130027771,12.5673542022705,12.573413848877,12.5794801712036,12.5855522155762,12.5916299819946,12.5977125167847,12.6038026809692,12.6098976135254,12.6159992218018,12.6221055984497,12.6282186508179,12.6343374252319,12.6404628753662,12.6465940475464,12.6527299880981,12.6588726043701,12.6650218963623,12.6711759567261,12.6773366928101,12.6835031509399,12.68967628479,12.695855140686,12.7020397186279,12.7082300186157,12.7144269943237,12.7206296920776,12.7268381118774,12.7330532073975,12.7392740249634,12.7455015182495,12.7517347335815,12.7579736709595,12.7642192840576,12.7704706192017,12.7767276763916,12.7829914093018,12.7892618179321,12.7955379486084,12.8018198013306,12.8081083297729,12.8144025802612,12.8207035064697,12.8270101547241,12.8333234786987,12.8396425247192,12.84596824646,12.8523006439209,12.8586387634277,12.8649826049805,12.8713331222534,12.8776903152466,12.8840532302856,12.8904228210449,12.8967981338501,12.9031801223755,12.9095687866211,12.9159631729126,12.9223642349243,12.9287719726562,12.9351854324341,12.9416055679321,12.9480323791504,12.9544649124146,12.9609041213989,12.9673500061035,12.973801612854,12.9802598953247,12.9867258071899,12.9931964874268,12.9996747970581,13.0061588287354,13.0126495361328,13.0191469192505,13.0256509780884,13.0321607589722,13.0386772155762,13.0452003479004,13.0517301559448,13.0582666397095,13.0648097991943,13.0713586807251,13.0779151916504,13.0844774246216,13.0910472869873,13.0842618942261,13.069878578186,13.0555276870728,13.0412082672119,13.0269193649292,13.0126628875732,12.9984369277954,12.98424243927,12.9700784683228,12.9559459686279,12.9418430328369,12.9277715682983,12.9137306213379,12.8997201919556,12.8857402801514,8.94792556762695,8.92290210723877,8.89801788330078,8.87327194213867,8.84866333007812,8.82419013977051,8.79985237121582,8.77564907073975,8.75157833099365,8.72763919830322,8.70383071899414,8.68015098571777,8.65660095214844,8.63317775726318,8.6098804473877,8.58670997619629,8.5636625289917,8.55078792572021,8.54086875915527,8.53097343444824,8.5211009979248,8.51125144958496,8.50142383575439,8.49162006378174
12.8888139724731,12.8398809432983,12.7913188934326,12.7431221008301,12.6952877044678,12.6478109359741,12.6006879806519,12.5539150238037,12.5074872970581,12.4614019393921,12.4156551361084,12.3702430725098,12.3662624359131,12.3658638000488,12.3654661178589,12.3650684356689,12.364670753479,12.3642730712891,12.3638744354248,12.3634767532349,12.3630790710449,12.362681388855,12.362283706665,12.3618860244751,12.3614892959595,12.3610916137695,12.3606929779053,12.3602962493896,12.3598985671997,12.3595008850098,12.3591032028198,12.3587064743042,12.3583087921143,12.3579111099243,12.3575134277344,12.3571166992188,12.3567190170288,12.3563222885132,12.3559236526489,12.3555269241333,12.3551301956177,12.3547325134277,12.3543348312378,12.3539381027222,12.3535413742065,12.3531436920166,12.352746963501,12.3523502349854,12.3519525527954,12.3515558242798,12.3511590957642,12.3507623672485,12.3503646850586,12.349967956543,12.3495712280273,12.3491744995117,12.3487777709961,12.3483800888062,12.3479843139648,12.3475875854492,12.3471908569336,12.346794128418,12.3463973999023,12.3460006713867,12.3456039428711,12.3452072143555,12.3448104858398,12.3444147109985,12.3440179824829,12.3436212539673,12.3432245254517,12.3428287506104,12.3424320220947,12.3420352935791,12.3416395187378,12.3412427902222,12.3408460617065,12.3451337814331,12.3509817123413,12.3568353652954,12.3626937866211,12.3685579299927,12.3744277954102,12.3803024291992,12.3861837387085,12.3920707702637,12.3979625701904,12.4038600921631,12.4097633361816,12.4156732559204,12.4215869903564,12.4275074005127,12.4334335327148,12.4393653869629,12.4453020095825,12.4512453079224,12.4571943283081,12.4631481170654,12.469108581543,12.4750738143921,12.4810447692871,12.4870223999023,12.4930047988892,12.4989938735962,12.5049877166748,12.5109882354736,12.516993522644,12.5230054855347,12.5290231704712,12.5350456237793,12.5410747528076,12.5471096038818,12.553150177002,12.559196472168,12.5652484893799,12.5713062286377,12.5773706436157,12.5834407806396,12.5895156860352,12.5955972671509,12.6016845703125,12.60777759552,12.6138772964478,12.6199817657471,12.6260929107666,12.632209777832,12.6383323669434,12.6444616317749,12.650595664978,12.6567363739014,12.6628828048706,12.6690359115601,12.6751947402954,12.6813592910767,12.6875295639038,12.6937055587769,12.6998882293701,12.7060775756836,12.7122716903687,12.7184724807739,12.7246789932251,12.7308921813965,12.7371110916138,12.743335723877,12.7495670318604,12.7558040618896,12.7620468139648,12.7682962417603,12.7745513916016,12.7808132171631,12.7870807647705,12.7933549880981,12.7996349334717,12.8059215545654,12.8122138977051,12.8185119628906,12.8248167037964,12.8311281204224,12.8374452590942,12.8437690734863,12.8500986099243,12.8564338684082,12.8627758026123,12.8691244125366,12.8754796981812,12.8818407058716,12.8882074356079,12.8945808410645,12.9009609222412,12.9073467254639,12.9137392044067,12.9201383590698,12.9265432357788,12.932954788208,12.9393730163574,12.9457969665527,12.9522275924683,12.958664894104,12.9651079177856,12.9715576171875,12.9780139923096,12.9844770431519,12.99094581604,12.9974212646484,13.0039033889771,13.0103921890259,13.0168867111206,13.0233888626099,13.029896736145,13.0364112854004,13.0345945358276,13.020320892334,13.0060787200928,12.9918670654297,12.977686882019,12.9635372161865,12.9494180679321,12.9353303909302,12.9212732315063,12.9072465896606,12.8932495117188,12.8792839050293,12.8653478622437,12.8514423370361,12.8375663757324,12.8237209320068,12.8099050521851,8.93716812133789,8.91220474243164,8.88737964630127,8.86269283294678,8.83814239501953,8.81372833251953,8.78944873809814,8.76530170440674,8.74128723144531,8.71740436553955,8.69365119934082,8.67002773284912,8.64653205871582,8.6231632232666,8.59992027282715,8.57680320739746,8.56077289581299,8.55083179473877,8.54091358184814,8.5310173034668,8.52114486694336,8.51129531860352,8.50146770477295,8.49166393280029
12.6521253585815,12.6049699783325,12.5581655502319,12.5117073059082,12.4655904769897,12.4198131561279,12.3743705749512,12.3292589187622,12.2910642623901,12.2906713485718,12.2902784347534,12.2898845672607,12.2894916534424,12.289098739624,12.2887058258057,12.2883129119873,12.2879199981689,12.2875270843506,12.2871341705322,12.2867412567139,12.2863492965698,12.2859563827515,12.2855634689331,12.2851705551147,12.2847776412964,12.2843856811523,12.283992767334,12.2835998535156,12.2832078933716,12.2828149795532,12.2824220657349,12.2820291519165,12.2816371917725,12.2812442779541,12.2808523178101,12.2804594039917,12.2800674438477,12.2796745300293,12.2792825698853,12.2788896560669,12.2784976959229,12.2781057357788,12.2777128219604,12.2773208618164,12.2769289016724,12.2765369415283,12.27614402771,12.2757520675659,12.2753601074219,12.2749671936035,12.2745752334595,12.2741832733154,12.2737922668457,12.2734003067017,12.2730073928833,12.2726154327393,12.2722244262695,12.2718315124512,12.2714395523071,12.2710485458374,12.2706565856934,12.2702646255493,12.2698726654053,12.2694816589355,12.2690896987915,12.2686977386475,12.2683057785034,12.2679147720337,12.2675228118896,12.2671308517456,12.2676086425781,12.273383140564,12.2791633605957,12.284948348999,12.2907390594482,12.2965354919434,12.3023366928101,12.308144569397,12.3139572143555,12.3197746276855,12.3255987167358,12.3314275741577,12.3372621536255,12.3431024551392,12.3489484786987,12.3547992706299,12.3606557846069,12.3665180206299,12.3723859786987,12.3782596588135,12.3841381072998,12.3900232315063,12.3959131240845,12.4018096923828,12.4077110290527,12.4136180877686,12.4195308685303,12.4254484176636,12.4313726425171,12.4373025894165,12.4432373046875,12.4491786956787,12.4551248550415,12.4610776901245,12.4670352935791,12.4729986190796,12.4789686203003,12.4849433898926,12.4909248352051,12.4969110488892,12.5029029846191,12.5089015960693,12.5149049758911,12.5209140777588,12.5269298553467,12.5329513549805,12.5389776229858,12.5450105667114,12.5510492324829,12.5570936203003,12.5631437301636,12.5691995620728,12.5752620697021,12.5813293457031,12.5874032974243,12.5934820175171,12.5995674133301,12.605658531189,12.6117563247681,12.6178588867188,12.6239681243896,12.6300830841064,12.6362028121948,12.6423301696777,12.6484622955322,12.6546010971069,12.6607456207275,12.666895866394,12.6730527877808,12.6792154312134,12.6853837966919,12.6915578842163,12.6977386474609,12.7039251327515,12.7101173400879,12.7163162231445,12.7225208282471,12.7287311553955,12.7349481582642,12.7411708831787,12.7474002838135,12.7536344528198,12.7598762512207,12.7661228179932,12.7723760604858,12.7786359786987,12.7849016189575,12.7911729812622,12.7974510192871,12.8037347793579,12.8100252151489,12.8163213729858,12.822624206543,12.828932762146,12.8352479934692,12.8415699005127,12.8478975296021,12.8542308807373,12.8605709075928,12.8669166564941,12.8732690811157,12.8796281814575,12.8859930038452,12.8923645019531,12.8987417221069,12.905125617981,12.9115161895752,12.9179124832153,12.9243154525757,12.9307250976562,12.9371404647827,12.9435625076294,12.9499912261963,12.9564266204834,12.9628677368164,12.9693145751953,12.9757690429688,12.9822292327881,12.9853038787842,12.971137046814,12.9570016860962,12.9428977966309,12.9288234710693,12.9147806167603,12.9007682800293,12.8867855072021,12.8728332519531,12.8589115142822,12.8450202941895,12.8311576843262,12.817325592041,12.803524017334,12.7897510528564,12.776008605957,12.7622957229614,12.7486114501953,8.95148086547852,8.92643737792969,8.90153312683105,8.8767671585083,8.85213947296143,8.8276481628418,8.80329132080078,8.77906894683838,8.75497913360596,8.7310209274292,8.70719432830811,8.68349647521973,8.65992832183838,8.63648700714111,8.61317253112793,8.5899829864502,8.57078266143799,8.56081771850586,8.55087566375732,8.5409574508667,8.53106117248535,8.52118873596191,8.51133918762207,8.5015115737915,8.49170684814453
12.4239730834961,12.3784999847412,12.3333587646484,12.2885456085205,12.2440567016602,12.2163867950439,12.2159986495972,12.2156105041504,12.2152223587036,12.2148342132568,12.2144460678101,12.2140579223633,12.2136697769165,12.2132816314697,12.2128934860229,12.2125053405762,12.2121171951294,12.2117290496826,12.2113409042358,12.2109527587891,12.2105646133423,12.2101774215698,12.209789276123,12.2094011306763,12.2090129852295,12.208625793457,12.2082376480103,12.2078495025635,12.207462310791,12.2070741653442,12.2066860198975,12.206298828125,12.2059106826782,12.2055234909058,12.2051362991333,12.2047481536865,12.2043600082397,12.2039728164673,12.2035856246948,12.203197479248,12.2028102874756,12.2024230957031,12.2020349502563,12.2016477584839,12.2012605667114,12.200873374939,12.2004852294922,12.2000980377197,12.1997108459473,12.1993236541748,12.1989364624023,12.1985492706299,12.1981620788574,12.197774887085,12.1973876953125,12.19700050354,12.1966133117676,12.1962261199951,12.1958389282227,12.1954517364502,12.1950654983521,12.1946783065796,12.1942911148071,12.193904876709,12.1967544555664,12.2024621963501,12.2081756591797,12.2138938903809,12.2196178436279,12.2253475189209,12.2310819625854,12.2368211746216,12.2425670623779,12.2483177185059,12.2540740966797,12.2598352432251,12.2656030654907,12.2713756561279,12.2771530151367,12.2829360961914,12.2887258529663,12.2945194244385,12.3003196716309,12.3061246871948,12.3119354248047,12.3177518844604,12.3235731124878,12.329400062561,12.3352327346802,12.3410711288452,12.3469152450562,12.3527641296387,12.3586196899414,12.3644790649414,12.3703460693359,12.3762168884277,12.3820943832397,12.3879766464233,12.3938646316528,12.3997583389282,12.4056587219238,12.411563873291,12.4174737930298,12.4233903884888,12.4293127059937,12.4352397918701,12.4411735534668,12.4471120834351,12.4530572891235,12.4590072631836,12.4649629592896,12.4709253311157,12.4768924713135,12.4828653335571,12.4888439178467,12.4948291778564,12.5008192062378,12.506814956665,12.5128173828125,12.5188245773315,12.5248384475708,12.5308570861816,12.5368824005127,12.5429124832153,12.5489492416382,12.5549917221069,12.5610399246216,12.5670938491821,12.5731534957886,12.5792188644409,12.5852909088135,12.5913677215576,12.597451210022,12.6035404205322,12.6096353530884,12.6157360076904,12.6218433380127,12.6279563903809,12.6340742111206,12.6401996612549,12.6463298797607,12.6524667739868,12.6586084365845,12.6647567749023,12.6709117889404,12.6770715713501,12.68323802948,12.6894102096558,12.6955890655518,12.7017736434937,12.7079639434814,12.7141599655151,12.720362663269,12.7265710830688,12.7327861785889,12.7390069961548,12.7452335357666,12.7514667510986,12.7577047348022,12.7639503479004,12.7702016830444,12.7764587402344,12.7827224731445,12.7889919281006,12.7952680587769,12.801549911499,12.8078374862671,12.8141317367554,12.8204326629639,12.8267393112183,12.8330516815186,12.8393707275391,12.8456964492798,12.8520278930664,12.8583660125732,12.864709854126,12.8710603713989,12.8774166107178,12.8837795257568,12.8901481628418,12.8965244293213,12.9029064178467,12.909294128418,12.9156885147095,12.9220886230469,12.9284963607788,12.9349098205566,12.922324180603,12.9082946777344,12.8942966461182,12.8803281784058,12.8663902282715,12.852481842041,12.8386039733887,12.8247556686401,12.8109378814697,12.7971496582031,12.7833909988403,12.769660949707,12.7559614181519,12.7422914505005,12.7286500930786,12.7150382995605,12.701455116272,12.6879014968872,12.6743764877319,8.94071483612061,8.91573143005371,8.89088726043701,8.86618041992188,8.8416109085083,8.81717777252197,8.79287815093994,8.76871299743652,8.74468040466309,8.720778465271,8.69700717926025,8.67336559295654,8.64985179901123,8.62646484375,8.60320472717285,8.58081531524658,8.57082653045654,8.56086158752441,8.5509204864502,8.54100131988525,8.53110599517822,8.52123260498047,8.51138305664062,8.50155544281006,8.49175071716309
