8.78709506988525,8.77537822723389,8.76369190216064,8.75203704833984,8.74041271209717,8.72881889343262,8.71725654602051,8.70572471618652,8.69422340393066,8.68275165557861,8.671311378479,8.6599006652832,8.64851951599121,8.63716888427734,8.62584781646729,8.61455631256104,8.60329341888428,8.59206104278564,8.58085823059082,8.56968402862549,8.55853843688965,8.54742240905762,8.53633594512939,8.52527713775635,8.51424789428711,8.50324726104736,8.49227428436279,8.48132991790771,8.47041416168213,8.48612785339355,8.50654411315918,8.52705955505371,8.54767322540283,8.56838703155518,8.58920192718506,8.61011791229248,8.63113594055176,8.65225601196289,8.67348098754883,8.69480991363525,8.71624374389648,8.73778438568115,8.75943088531494,8.78118515014648,8.80304718017578,8.82501888275146,8.84710121154785,8.86929321289062,8.89159774780273,8.91401386260986,8.93654346466064,8.95918750762939,8.98194694519043,9.00482177734375,9.02781391143799,9.05092334747314,9.07415103912354,9.09749889373779,9.12096691131592,9.14455699920654,9.16826820373535,9.19210338592529,9.21606349945068,9.24014759063721,9.26435852050781,9.2886962890625,9.3131628036499,9.33775806427002,9.36248397827148,9.3873405456543,9.41233062744141,9.4374532699585,9.4627103805542,9.48810291290283,9.51363277435303,9.53929996490479,9.56510543823242,9.59105205535889,9.61713886260986,9.6433687210083,9.6697416305542,9.69625854492188,9.72292232513428,9.74973297119141,9.77669143676758,9.80379962921143,9.83105945587158,9.85846996307373,9.88603401184082,9.91375350952148,9.94162750244141,9.96965980529785,9.99785041809082,10.0262002944946,10.0547122955322,10.0833864212036,10.1122245788574,10.1412286758423,10.1703987121582,10.1997375488281,10.2041511535645,10.2043867111206,10.2046213150024,10.2048587799072,10.2051019668579,10.2053442001343,10.2055854797363,10.2058200836182,10.2060546875,10.2062892913818,10.2065238952637,10.2067575454712,10.206992149353,10.2072267532349,10.2337913513184,10.264744758606,10.2958869934082,10.3272180557251,10.3587408065796,10.3904485702515,10.4223508834839,10.4544486999512,10.4867448806763,10.5192422866821,10.5519409179688,10.5848436355591,10.6179513931274,10.6512680053711,10.6847944259644,10.7185335159302,10.7524862289429,10.7854661941528,10.7857065200806,10.785945892334,10.7861862182617,10.7864265441895,10.7866668701172,10.7869062423706,10.7871465682983,10.7873868942261,10.7876272201538,10.7878675460815,10.7881078720093,10.7883472442627,10.7885875701904,10.7888278961182,10.7890682220459,10.7893085479736,10.7895488739014,10.7897891998291,10.7900295257568,10.7902698516846,10.7905101776123,10.79075050354,10.7909908294678,10.7912311553955,10.7914714813232,10.791711807251,10.7919521331787,10.7921924591064,10.7924327850342,10.7926731109619,10.7929134368896,10.7931537628174,10.7933940887451,10.7936344146729,10.7938756942749,10.7941160202026,10.7943563461304,10.7945966720581,10.7948369979858,10.7950773239136,10.7953176498413,10.7955589294434,10.7957992553711,10.7960395812988,10.7962799072266,10.7965202331543,10.7967586517334,10.7969961166382,10.7972345352173,10.7974720001221,10.7977104187012,10.797947883606,10.7981863021851,10.7984247207642,10.7986621856689,10.798900604248,10.7991390228271,10.7993764877319,10.799614906311,10.7998523712158,10.8000907897949,10.800329208374,10.8005666732788,10.8008050918579,10.801043510437,10.8012819290161,10.8015193939209,10.8017578125,10.8019962310791,10.8022346496582,10.802472114563,10.2276086807251,10.2278089523315,10.2280082702637,10.2282056808472,10.2283935546875,10.2285814285278,10.2287654876709,10.2289552688599,10.2292013168335,10.2294406890869,10.2296810150146,10.2299203872681,10.2301597595215,10.2304000854492,10.2530736923218,10.2981119155884,10.3435468673706,10.389386177063,10.4356317520142,10.482292175293,10.5293712615967,10.5768756866455,10.6248092651367,10.6731815338135,10.7219944000244,10.7712564468384,10.820972442627,10.8711490631104
8.78714084625244,8.77542304992676,8.76373672485352,8.75208187103271,8.74045753479004,8.72886371612549,8.71730136871338,8.70576953887939,8.69426727294922,8.68279647827148,8.67135524749756,8.65994453430176,8.64856338500977,8.6372127532959,8.62589073181152,8.61459922790527,8.60333728790283,8.5921049118042,8.58090114593506,8.56972694396973,8.55858135223389,8.54746532440186,8.53637790679932,8.52532005310059,8.51429080963135,8.50328922271729,8.49231719970703,8.48137187957764,8.47045612335205,8.48627185821533,8.50668907165527,8.5272045135498,8.54781913757324,8.5685338973999,8.58934879302979,8.61026573181152,8.63128471374512,8.65240573883057,8.6736307144165,8.69496059417725,8.71639537811279,8.73793601989746,8.75958347320557,8.78133869171143,8.80320262908936,8.82517433166504,8.84725761413574,8.86945056915283,8.89175510406494,8.9141731262207,8.9367036819458,8.95934772491455,8.9821081161499,9.00498390197754,9.02797603607178,9.05108642578125,9.07431602478027,9.09766387939453,9.12113285064697,9.14472389221191,9.16843605041504,9.1922721862793,9.21623229980469,9.24031829833984,9.26453018188477,9.28886890411377,9.31333541870117,9.33793258666992,9.36265850067139,9.38751697540283,9.41250705718994,9.43763065338135,9.46288871765137,9.48828315734863,9.51381301879883,9.5394811630249,9.56528854370117,9.59123516082764,9.61732387542725,9.64355373382568,9.6699275970459,9.69644641876221,9.72311115264893,9.74992275238037,9.77688217163086,9.80399227142334,9.8312520980835,9.85866355895996,9.88622951507568,9.91394901275635,9.9418249130249,9.96985816955566,9.99804973602295,10.0264015197754,10.0549144744873,10.083589553833,10.1124286651611,10.1251411437988,10.1253719329834,10.1256036758423,10.1258344650269,10.126070022583,10.1263093948364,10.1265487670898,10.1267881393433,10.1270189285278,10.1272497177124,10.127480506897,10.1277112960815,10.1279420852661,10.1281728744507,10.1422605514526,10.1726627349854,10.2032470703125,10.234016418457,10.2649717330933,10.2961139678955,10.3274421691895,10.3589582443237,10.3906660079956,10.4225692749023,10.4546689987183,10.486967086792,10.5194644927979,10.5521650314331,10.5850687026978,10.6181793212891,10.651496887207,10.6850242614746,10.7021389007568,10.7023754119873,10.7026109695435,10.7028474807739,10.7030839920044,10.7033205032349,10.7035570144653,10.7037935256958,10.7040300369263,10.7042665481567,10.7045030593872,10.7047395706177,10.7049760818481,10.7052125930786,10.7054491043091,10.7056856155396,10.70592212677,10.7061586380005,10.706395149231,10.7066316604614,10.7068681716919,10.7071046829224,10.7073411941528,10.7075777053833,10.7078151702881,10.7080516815186,10.708288192749,10.7085247039795,10.70876121521,10.7089977264404,10.7092342376709,10.7094717025757,10.7097082138062,10.7099447250366,10.7101812362671,10.7104187011719,10.7106552124023,10.7108917236328,10.7111282348633,10.7113656997681,10.7116022109985,10.711838722229,10.7120761871338,10.7123126983643,10.7125492095947,10.7127866744995,10.71302318573,10.7132596969604,10.7134971618652,10.7137336730957,10.7139692306519,10.7142038345337,10.7144384384155,10.7146730422974,10.7149066925049,10.7151412963867,10.7153759002686,10.7156105041504,10.7158441543579,10.7160787582397,10.7163133621216,10.7165479660034,10.7167825698853,10.7170162200928,10.7172508239746,10.7174854278564,10.7177200317383,10.7179546356201,10.718189239502,10.7184238433838,10.7186584472656,10.7188920974731,10.148473739624,10.1486701965332,10.1488676071167,10.1490640640259,10.1492519378662,10.1494369506836,10.1496200561523,10.1497993469238,10.1500263214111,10.1502647399902,10.1505012512207,10.1507377624512,10.1509733200073,10.1512098312378,10.1644830703735,10.2087450027466,10.2533941268921,10.2984352111816,10.3438730239868,10.3897151947021,10.4359636306763,10.482626914978,10.529709815979,10.5772161483765,10.6251544952393,10.6735286712646,10.7223443984985,10.7716083526611,10.821328163147,10.8715085983276
8.78718566894531,8.77546787261963,8.76378154754639,8.75212669372559,8.74050235748291,8.72890853881836,8.71734619140625,8.70581340789795,8.69431209564209,8.68284034729004,8.67139911651611,8.65998840332031,8.64860725402832,8.63725566864014,8.62593460083008,8.61464309692383,8.60338020324707,8.59214782714844,8.5809440612793,8.56976985931396,8.55862426757812,8.54750823974609,8.53642082214355,8.52536201477051,8.51433277130127,8.50333118438721,8.49235916137695,8.48141479492188,8.47049808502197,8.48641586303711,8.50683307647705,8.5273494720459,8.54796504974365,8.56867980957031,8.58949565887451,8.61041355133057,8.63143253326416,8.65255546569824,8.6737813949585,8.69511127471924,8.7165470123291,8.73808860778809,8.75973701477051,8.78149318695068,8.80335712432861,8.82532978057861,8.84741306304932,8.86960792541504,8.89191341400146,8.91433143615723,8.93686294555664,8.95950794219971,8.98226928710938,9.00514602661133,9.02813911437988,9.05125045776367,9.0744800567627,9.09782981872559,9.12129878997803,9.14489078521729,9.16860389709473,9.1924409866333,9.21640205383301,9.24048805236816,9.2647008895874,9.28904056549072,9.31350898742676,9.33810615539551,9.36283397674561,9.38769245147705,9.41268348693848,9.43780899047852,9.46306800842285,9.48846244812012,9.51399421691895,9.53966331481934,9.56547069549561,9.5914192199707,9.61750793457031,9.64373970031738,9.67011451721191,9.69663429260254,9.72329998016357,9.75011253356934,9.77707290649414,9.80418395996094,9.83144474029541,9.85885810852051,9.88642406463623,9.91414546966553,9.9420223236084,9.97005653381348,9.99824905395508,10.0266017913818,10.047345161438,10.0475721359253,10.0478000640869,10.0480279922485,10.0482549667358,10.0484886169434,10.0487241744995,10.0489597320557,10.0491952896118,10.0494251251221,10.0496530532837,10.049880027771,10.0501070022583,10.0503349304199,10.0523529052734,10.0822172164917,10.1122598648071,10.142481803894,10.1728849411011,10.2034702301025,10.2342405319214,10.2651958465576,10.296332359314,10.327657699585,10.3591737747192,10.3908834457397,10.4227886199951,10.4548892974854,10.4871883392334,10.5196876525879,10.5523891448975,10.5852947235107,10.6184062957764,10.6200847625732,10.6203184127808,10.6205530166626,10.6207866668701,10.6210203170776,10.6212530136108,10.621485710144,10.6217184066772,10.6219511032104,10.6221837997437,10.6224174499512,10.6226501464844,10.6228828430176,10.6231155395508,10.623348236084,10.6235818862915,10.6238145828247,10.6240472793579,10.6242799758911,10.6245136260986,10.6247463226318,10.624979019165,10.6252126693726,10.6254453659058,10.625678062439,10.6259117126465,10.6261444091797,10.6263771057129,10.6266107559204,10.6268434524536,10.6270761489868,10.6273097991943,10.6275424957275,10.6277761459351,10.6280088424683,10.6282424926758,10.628475189209,10.6287078857422,10.6289415359497,10.6291742324829,10.6294078826904,10.6296405792236,10.6298742294312,10.6301078796387,10.6303405761719,10.6305742263794,10.6308069229126,10.6310405731201,10.6312732696533,10.6315069198608,10.6317405700684,10.6319732666016,10.6322069168091,10.6324396133423,10.6326713562012,10.6329021453857,10.6331329345703,10.6333637237549,10.6335945129395,10.633825302124,10.6340560913086,10.6342868804932,10.6345176696777,10.6347484588623,10.6349802017212,10.6352109909058,10.6354417800903,10.6356725692749,10.6359033584595,10.636134147644,10.6363649368286,10.6365957260132,10.0705537796021,10.0707473754883,10.0709409713745,10.0711345672607,10.0713243484497,10.0715074539185,10.0716896057129,10.0718660354614,10.0720682144165,10.072304725647,10.0725374221802,10.0727701187134,10.0730028152466,10.0732355117798,10.077410697937,10.1209163665771,10.1647977828979,10.2090625762939,10.2537145614624,10.2987585067749,10.344199180603,10.3900442123413,10.4362955093384,10.4829626083374,10.530047416687,10.5775575637817,10.6254978179932,10.6738748550415,10.7226934432983,10.7719612121582,10.8216829299927,10.8718671798706
8.78723049163818,8.77551364898682,8.76382637023926,8.75217151641846,8.74054718017578,8.72895336151123,8.7173900604248,8.70585823059082,8.69435596466064,8.68288421630859,8.67144298553467,8.66003227233887,8.64865112304688,8.63729953765869,8.62597846984863,8.61468601226807,8.60342407226562,8.59219074249268,8.58098697662354,8.5698127746582,8.55866718292236,8.54755115509033,8.53646373748779,8.52540493011475,8.51437473297119,8.50337409973145,8.49240112304688,8.4814567565918,8.47054004669189,8.48655891418457,8.50697708129883,8.52749443054199,8.54811096191406,8.56882667541504,8.58964347839355,8.61056137084961,8.63158130645752,8.65270519256592,8.67393112182617,8.69526290893555,8.71669864654541,8.73824119567871,8.75989055633545,8.78164672851562,8.80351161956787,8.82548522949219,8.84756946563721,8.86976432800293,8.89207077026367,8.91448974609375,8.93702220916748,8.95966815948486,8.98243045806885,9.0053071975708,9.02830219268799,9.05141353607178,9.07464408874512,9.09799480438232,9.1214656829834,9.14505767822266,9.16877174377441,9.1926097869873,9.21657180786133,9.2406587600708,9.26487255096436,9.28921318054199,9.31368160247803,9.33828067779541,9.36300849914551,9.38786888122559,9.41286087036133,9.43798637390137,9.46324634552002,9.4886417388916,9.51417446136475,9.53984451293945,9.56565380096436,9.59160232543945,9.6176929473877,9.64392566680908,9.67030143737793,9.69682216644287,9.72348880767822,9.7503023147583,9.77726459503174,9.80437564849854,9.83163738250732,9.85905170440674,9.88661956787109,9.91434192657471,9.94221973419189,9.97025489807129,9.9709587097168,9.97118282318115,9.97140693664551,9.97163200378418,9.97185611724854,9.97208690643311,9.97231864929199,9.9725513458252,9.97278308868408,9.97301197052002,9.97323513031006,9.97345924377441,9.97368335723877,9.97390747070312,9.99336624145508,10.0228805541992,10.0525693893433,10.0824356079102,10.1124792098999,10.1427021026611,10.1731061935425,10.2036943435669,10.2344589233398,10.2654085159302,10.2965459823608,10.3278722763062,10.3593902587891,10.3911018371582,10.4230070114136,10.4551095962524,10.4874105453491,10.5199108123779,10.5390405654907,10.5392713546753,10.5395011901855,10.5397319793701,10.5399627685547,10.5401926040649,10.5404233932495,10.5406541824341,10.5408849716187,10.5411157608032,10.5413465499878,10.5415773391724,10.5418081283569,10.5420389175415,10.5422687530518,10.5424976348877,10.5427274703979,10.5429563522339,10.5431861877441,10.5434160232544,10.5436449050903,10.5438747406006,10.5441036224365,10.5443334579468,10.5445623397827,10.544792175293,10.5450220108032,10.5452508926392,10.5454807281494,10.5457105636597,10.5459394454956,10.5461692810059,10.5463991165161,10.5466289520264,10.5468578338623,10.5470876693726,10.5473175048828,10.5475463867188,10.547776222229,10.5480060577393,10.5482358932495,10.5484657287598,10.5486946105957,10.548924446106,10.5491542816162,10.5493841171265,10.5496139526367,10.549843788147,10.5500726699829,10.5503025054932,10.5505323410034,10.5507621765137,10.5509920120239,10.5512218475342,10.5514516830444,10.5516815185547,10.5519113540649,10.5521411895752,10.5523700714111,10.5525979995728,10.5528249740601,10.5530529022217,10.553279876709,10.5535068511963,10.5537347793579,10.5539617538452,10.5541896820068,10.5544166564941,10.5546436309814,10.5548715591431,10.5550985336304,10.555326461792,10.5555534362793,9.993821144104,9.99401187896729,9.99420261383057,9.99439334869385,9.99458503723145,9.99476528167725,9.99494457244873,9.99512100219727,9.99530029296875,9.99553394317627,9.99576282501221,9.99599170684814,9.9962215423584,9.99645042419434,9.99667930603027,10.0345849990845,10.0777206420898,10.1212282180786,10.1651134490967,10.2093811035156,10.2540349960327,10.2990818023682,10.3445253372192,10.3903732299805,10.4366283416748,10.4832963943481,10.530385017395,10.5778980255127,10.6258411407471,10.6742210388184,10.7230434417725,10.7723140716553,10.822039604187,10.8722267150879
8.78727626800537,8.77555847167969,8.76387214660645,8.75221633911133,8.74059200286865,8.7289981842041,8.71743488311768,8.70590209960938,8.69440078735352,8.68292903900146,8.67148780822754,8.66007614135742,8.64869499206543,8.63734340667725,8.62602138519287,8.61472988128662,8.60346698760986,8.59223461151123,8.58103084564209,8.56985569000244,8.5587100982666,8.54759407043457,8.53650569915771,8.52544689178467,8.51441764831543,8.50341606140137,8.4924430847168,8.48149871826172,8.47058200836182,8.48670291900635,8.50712203979492,8.52763938903809,8.54825687408447,8.56897354125977,8.58979034423828,8.61070919036865,8.63173007965088,8.65285396575928,8.67408180236816,8.69541358947754,8.71685028076172,8.73839378356934,8.76004314422607,8.78180027008057,8.80366611480713,8.82564067840576,8.8477258682251,8.86992168426514,8.8922290802002,8.91464805603027,8.93718147277832,8.95982837677002,8.982590675354,9.00546932220459,9.02846431732178,9.0515775680542,9.07480907440186,9.09815979003906,9.12163162231445,9.14522457122803,9.1689395904541,9.19277858734131,9.21674060821533,9.24082946777344,9.26504325866699,9.28938484191895,9.31385517120361,9.338454246521,9.36318397521973,9.3880443572998,9.41303730010986,9.43816375732422,9.4634256362915,9.4888219833374,9.51435470581055,9.54002571105957,9.56583595275879,9.59178638458252,9.61787700653076,9.64411067962646,9.67048740386963,9.6970100402832,9.72367763519287,9.75049209594727,9.77745532989502,9.80456733703613,9.83183097839355,9.85924625396729,9.88681411743164,9.89550495147705,9.89572620391846,9.89594650268555,9.89616775512695,9.89638805389404,9.89661026000977,9.89683818817139,9.89706707000732,9.89729595184326,9.89752388000488,9.8977518081665,9.89797210693359,9.89819240570068,9.89841270446777,9.90606689453125,9.93506717681885,9.96423816680908,9.99358081817627,10.0230960845947,10.0527868270874,10.0826530456543,10.1126985549927,10.1429233551025,10.1733245849609,10.2039051055908,10.2346696853638,10.2656202316284,10.2967596054077,10.3280878067017,10.3596067428589,10.3913192749023,10.4232263565063,10.4553298950195,10.4594507217407,10.459677696228,10.4599046707153,10.4601316452026,10.4603586196899,10.4605855941772,10.4608135223389,10.4610404968262,10.4612674713135,10.4614944458008,10.4617214202881,10.4619493484497,10.462176322937,10.4624032974243,10.4626312255859,10.4628582000732,10.4630851745605,10.4633131027222,10.4635400772095,10.4637680053711,10.4639949798584,10.46422290802,10.4644498825073,10.4646768569946,10.4649028778076,10.4651288986206,10.4653549194336,10.4655809402466,10.4658069610596,10.4660329818726,10.4662590026855,10.4664850234985,10.4667110443115,10.4669370651245,10.4671630859375,10.4673891067505,10.4676151275635,10.4678411483765,10.4680681228638,10.4682941436768,10.4685201644897,10.4687461853027,10.4689722061157,10.4691982269287,10.469425201416,10.469651222229,10.469877243042,10.470103263855,10.470329284668,10.4705562591553,10.4707822799683,10.4710083007812,10.4712352752686,10.4714612960815,10.4716873168945,10.4719133377075,10.4721403121948,10.4723663330078,10.4725923538208,10.4728193283081,10.4730453491211,10.4732713699341,10.4734973907471,10.4737215042114,10.4739446640015,10.4741687774658,10.4743928909302,10.4746170043945,10.4748411178589,10.4750652313232,10.4752893447876,10.4755125045776,10.475736618042,9.91824436187744,9.91843700408936,9.91862487792969,9.91881275177002,9.91900062561035,9.9191837310791,9.91936016082764,9.91953659057617,9.91970729827881,9.919921875,9.92014980316162,9.92037582397461,9.92060089111328,9.92082691192627,9.92105197906494,9.94971561431885,9.99212169647217,10.0348930358887,10.0780305862427,10.1215410232544,10.1654281616211,10.209698677063,10.254355430603,10.2994050979614,10.3448514938354,10.3907022476196,10.4369602203369,10.4836320877075,10.530722618103,10.5782375335693,10.626184463501,10.6745672225952,10.7233924865723,10.772665977478,10.822395324707,10.8725852966309
8.78732109069824,8.77560329437256,8.76391696929932,8.7522611618042,8.74063587188721,8.72904205322266,8.71747970581055,8.70594692230225,8.69444465637207,8.68297290802002,8.67153167724609,8.66012001037598,8.64873886108398,8.6373872756958,8.62606525421143,8.61477375030518,8.60351085662842,8.59227752685547,8.58107376098633,8.56989860534668,8.55875301361084,8.54763698577881,8.53654861450195,8.52548980712891,8.51445960998535,8.50345802307129,8.49248504638672,8.48154067993164,8.47062397003174,8.48684692382812,8.5072660446167,8.52778434753418,8.54840183258057,8.56911945343018,8.58993816375732,8.6108570098877,8.63187885284424,8.65300369262695,8.67423152923584,8.69556427001953,8.71700191497803,8.73854637145996,8.76019668579102,8.78195476531982,8.80382061004639,8.82579612731934,8.84788227081299,8.87007808685303,8.8923864364624,8.91480731964111,8.93734073638916,8.95998859405518,8.98275184631348,9.00563144683838,9.02862739562988,9.0517406463623,9.07497310638428,9.0983247756958,9.12179756164551,9.1453914642334,9.16910743713379,9.192946434021,9.21691036224365,9.24100017547607,9.26521492004395,9.28955745697021,9.3140287399292,9.3386287689209,9.36335849761963,9.38822078704834,9.41321468353271,9.43834209442139,9.46360397338867,9.48900127410889,9.51453590393066,9.540207862854,9.56601905822754,9.59196949005127,9.61806201934814,9.64429664611816,9.67067432403564,9.69719696044922,9.7238655090332,9.75068187713623,9.7776460647583,9.80475902557373,9.82118511199951,9.82140254974365,9.82161998748779,9.82183742523193,9.82205486297607,9.82227230072021,9.8224925994873,9.82271671295166,9.82294178009033,9.823166847229,9.82339191436768,9.82361698150635,9.8238353729248,9.82405281066895,9.82427024841309,9.84877967834473,9.87744522094727,9.90627765655518,9.93527889251709,9.96445083618164,9.99379444122314,10.0233116149902,10.0530033111572,10.0828714370728,10.1129159927368,10.1431341171265,10.1735334396362,10.2041149139404,10.2348804473877,10.265832901001,10.2969732284546,10.3283023834229,10.3598232269287,10.3808307647705,10.3810548782349,10.3812780380249,10.3815021514893,10.3817253112793,10.3819494247437,10.3821725845337,10.382396697998,10.3826198577881,10.3828439712524,10.3830671310425,10.3832912445068,10.3835144042969,10.3837385177612,10.3839626312256,10.3841867446899,10.38440990448,10.3846340179443,10.3848581314087,10.385082244873,10.3853063583374,10.3855304718018,10.3857536315918,10.3859777450562,10.3862018585205,10.3864259719849,10.3866500854492,10.3868741989136,10.3870983123779,10.3873224258423,10.3875465393066,10.387770652771,10.3879947662354,10.3882179260254,10.3884410858154,10.3886632919312,10.3888864517212,10.3891096115112,10.389331817627,10.389554977417,10.3897771835327,10.3900003433228,10.3902235031128,10.3904457092285,10.3906688690186,10.3908920288086,10.3911142349243,10.3913373947144,10.3915596008301,10.3917827606201,10.3920059204102,10.3922290802002,10.3924512863159,10.392674446106,10.392897605896,10.393120765686,10.3933429718018,10.3935661315918,10.3937892913818,10.3940124511719,10.3942346572876,10.3944578170776,10.3946809768677,10.3949041366577,10.3951272964478,10.3953504562378,10.3955726623535,10.3957939147949,10.3960151672363,10.3962354660034,10.3964567184448,10.3966770172119,10.396897315979,10.3971185684204,10.3973388671875,9.84399700164795,9.84418201446533,9.84436702728271,9.8445520401001,9.84473705291748,9.84491157531738,9.84508514404297,9.84525489807129,9.84544563293457,9.84567165374756,9.84589385986328,9.846116065979,9.84633827209473,9.84656047821045,9.8662691116333,9.90796566009521,9.95001697540283,9.99242687225342,10.0352001190186,10.0783395767212,10.1218528747559,10.1657438278198,10.2100162506104,10.2546758651733,10.2997283935547,10.345178604126,10.3910312652588,10.437292098999,10.4839658737183,10.531060218811,10.5785779953003,10.6265277862549,10.6749134063721,10.7237415313721,10.7730188369751,10.8227510452271,10.8729429244995
8.78736686706543,8.77564811706543,8.76396179199219,8.75230598449707,8.74068069458008,8.72908687591553,8.7175235748291,8.7059907913208,8.69448852539062,8.68301677703857,8.67157554626465,8.66016387939453,8.64878273010254,8.63743114471436,8.62610912322998,8.61481666564941,8.60355377197266,8.59232044219971,8.58111667633057,8.56994152069092,8.55879592895508,8.54767990112305,8.53659152984619,8.52553272247314,8.51450252532959,8.50350093841553,8.49252700805664,8.48158264160156,8.47066593170166,8.48698997497559,8.50741100311279,8.52793025970459,8.54854774475098,8.5692663192749,8.59008502960205,8.61100578308105,8.6320276260376,8.65315341949463,8.67438220977783,8.69571495056152,8.71715354919434,8.73869800567627,8.76034927368164,8.78210830688477,8.80397605895996,8.82595157623291,8.84803867340088,8.87023544311523,8.89254474639893,8.91496562957764,8.9375,8.96014881134033,8.98291301727295,9.00579261779785,9.02878952026367,9.05190467834473,9.0751371383667,9.09849071502686,9.12196350097656,9.14555835723877,9.16927528381348,9.193115234375,9.21708011627197,9.24116992950439,9.2653865814209,9.28973007202148,9.31420135498047,9.33880233764648,9.36353397369385,9.38839626312256,9.41339111328125,9.43851947784424,9.46378231048584,9.48918151855469,9.51471614837646,9.54038906097412,9.56620121002197,9.59215354919434,9.61824703216553,9.64448261260986,9.67086124420166,9.69738483428955,9.72405433654785,9.74797248840332,9.74818706512451,9.74840068817139,9.74861526489258,9.74882888793945,9.74904346466064,9.74925804138184,9.74947643280029,9.7496976852417,9.74991893768311,9.75014114379883,9.75036334991455,9.75058460235596,9.7508020401001,9.75101566314697,9.76397800445557,9.79215145111084,9.8204870223999,9.8489875793457,9.87765407562256,9.9064884185791,9.93549060821533,9.96466445922852,9.99400901794434,10.0235271453857,10.0532207489014,10.083083152771,10.1131219863892,10.1433420181274,10.1737413406372,10.20432472229,10.2350921630859,10.2660455703735,10.2971868515015,10.3036041259766,10.3038244247437,10.3040447235107,10.3042650222778,10.3044853210449,10.304705619812,10.3049259185791,10.3051462173462,10.3053665161133,10.3055868148804,10.3058071136475,10.3060283660889,10.306248664856,10.306468963623,10.3066892623901,10.3069095611572,10.3071298599243,10.3073501586914,10.3075714111328,10.3077917098999,10.308012008667,10.3082332611084,10.3084535598755,10.3086748123169,10.308895111084,10.3091163635254,10.3093366622925,10.3095569610596,10.309778213501,10.3099985122681,10.3102197647095,10.3104400634766,10.310661315918,10.3108816146851,10.3111028671265,10.3113231658936,10.311544418335,10.3117647171021,10.3119859695435,10.3122062683105,10.312427520752,10.3126487731934,10.3128690719604,10.3130884170532,10.313307762146,10.3135280609131,10.3137474060059,10.3139667510986,10.3141860961914,10.3144054412842,10.3146257400513,10.314845085144,10.3150644302368,10.3152837753296,10.3155040740967,10.3157234191895,10.3159427642822,10.3161630630493,10.3163824081421,10.3166017532349,10.316822052002,10.3170413970947,10.3172607421875,10.3174810409546,10.3177003860474,10.3179197311401,10.3181400299072,10.318359375,10.3185787200928,10.3187990188599,10.3190183639526,10.3192358016968,10.3194532394409,10.3196706771851,10.3198881149292,9.77065849304199,9.77084732055664,9.77103042602539,9.77121257781982,9.77139472961426,9.77157115936279,9.77174282073975,9.77191162109375,9.77207946777344,9.77230453491211,9.77252292633057,9.77274131774902,9.7729606628418,9.77317905426025,9.78421020507812,9.82521533966064,9.8665657043457,9.90826511383057,9.95031929016113,9.99273109436035,10.0355062484741,10.078649520874,10.1221647262573,10.1660585403442,10.2103338241577,10.2549962997437,10.3000516891479,10.3455047607422,10.3913593292236,10.4376230239868,10.484299659729,10.5313968658447,10.5789175033569,10.6268701553345,10.6752595901489,10.7240915298462,10.7733707427979,10.8231039047241,10.8732995986938
8.7874116897583,8.77569389343262,8.76400661468506,8.75235080718994,8.74072551727295,8.7291316986084,8.71756839752197,8.70603561401367,8.6945333480835,8.68306159973145,8.6716194152832,8.66020774841309,8.64882659912109,8.63747501373291,8.62615299224854,8.61486053466797,8.60359764099121,8.59236431121826,8.5811595916748,8.56998538970947,8.55883884429932,8.54772186279297,8.53663444519043,8.52557468414307,8.51454448699951,8.50354290008545,8.49256992340088,8.48162460327148,8.47070789337158,8.48713397979736,8.50755500793457,8.52807521820068,8.54869365692139,8.56941318511963,8.59023284912109,8.6111536026001,8.63217639923096,8.65330219268799,8.67453193664551,8.69586658477783,8.71730518341064,8.73885059356689,8.76050281524658,8.78226280212402,8.80413055419922,8.8261079788208,8.84819507598877,8.87039279937744,8.89270210266113,8.91512393951416,8.93765926361084,8.96030902862549,8.98307418823242,9.00595474243164,9.02895259857178,9.05206775665283,9.07530212402344,9.09865570068359,9.12212944030762,9.14572525024414,9.16944313049316,9.193284034729,9.21724987030029,9.24134063720703,9.26555728912354,9.28990173339844,9.31437492370605,9.33897686004639,9.36370849609375,9.38857269287109,9.4135684967041,9.43869781494141,9.46396160125732,9.48936080932617,9.51489734649658,9.54057121276855,9.56638431549072,9.59233665466309,9.61843109130859,9.64466762542725,9.67104816436768,9.67605400085449,9.67626571655273,9.67647647857666,9.6766881942749,9.67689895629883,9.67710971832275,9.677321434021,9.6775369644165,9.67775630950928,9.67797470092773,9.67819309234619,9.67841148376465,9.67862987518311,9.67884540557861,9.68062400817871,9.70831775665283,9.73616981506348,9.76418304443359,9.79235649108887,9.82069396972656,9.849196434021,9.87786388397217,9.90669918060303,9.93570327758789,9.96487712860107,9.99422359466553,10.023738861084,10.0534248352051,10.083288192749,10.1133289337158,10.1435489654541,10.1739501953125,10.2045345306396,10.2273015975952,10.227518081665,10.2277355194092,10.227952003479,10.2281694412231,10.2283868789673,10.2286033630371,10.2288208007812,10.2290372848511,10.2292547225952,10.2294721603394,10.2296886444092,10.2299060821533,10.2301235198975,10.2303409576416,10.2305574417114,10.2307748794556,10.2309923171997,10.2312088012695,10.2314262390137,10.2316436767578,10.231861114502,10.2320785522461,10.2322959899902,10.2325134277344,10.2327308654785,10.2329483032227,10.2331657409668,10.2333831787109,10.2336006164551,10.2338180541992,10.2340354919434,10.2342529296875,10.2344703674316,10.2346878051758,10.2349052429199,10.2351226806641,10.2353410720825,10.2355585098267,10.2357759475708,10.2359933853149,10.2362108230591,10.2364282608032,10.2366456985474,10.2368640899658,10.23708152771,10.2372989654541,10.2375164031982,10.2377338409424,10.2379522323608,10.238169670105,10.2383871078491,10.2386045455933,10.2388219833374,10.2390375137329,10.2392539978027,10.2394704818726,10.2396869659424,10.2399034500122,10.240119934082,10.2403364181519,10.2405529022217,10.2407693862915,10.2409858703613,10.2412023544312,10.241418838501,10.2416353225708,10.2418518066406,10.2420682907104,10.2422847747803,10.2425012588501,10.2427177429199,10.2429342269897,10.2431507110596,10.2433671951294,10.2435827255249,9.69839096069336,9.69859790802002,9.69877815246582,9.6989574432373,9.69913673400879,9.69931507110596,9.69948387145996,9.69965267181396,9.69981670379639,9.70001888275146,9.70023727416992,9.70045280456543,9.70066833496094,9.70088481903076,9.70350551605225,9.74383544921875,9.78450202941895,9.82551002502441,9.86686229705811,9.90856456756592,9.95062065124512,9.99303531646729,10.035813331604,10.0789594650269,10.1224775314331,10.1663732528687,10.2106513977051,10.255316734314,10.3003749847412,10.3458299636841,10.3916873931885,10.4379539489746,10.4846343994141,10.5317335128784,10.5792579650879,10.6272134780884,10.6756048202515,10.7244386672974,10.773720741272,10.8234577178955,10.8736562728882
8.78745746612549,8.77573871612549,8.76405143737793,8.75239562988281,8.74077033996582,8.72917652130127,8.71761322021484,8.70608043670654,8.69457721710205,8.68310546875,8.67166328430176,8.66025161743164,8.64887046813965,8.63751792907715,8.62619590759277,8.61490345001221,8.60364055633545,8.5924072265625,8.58120346069336,8.57002830505371,8.55888175964355,8.54776477813721,8.53667736053467,8.5256175994873,8.51458644866943,8.50358486175537,8.4926118850708,8.48166656494141,8.4707498550415,8.48727798461914,8.50769996643066,8.52822017669678,8.5488395690918,8.56955909729004,8.59037971496582,8.61130142211914,8.63232517242432,8.65345191955566,8.6746826171875,8.69601726531982,8.71745681762695,8.73900318145752,8.76065635681152,8.78241634368896,8.80428504943848,8.82626342773438,8.84835052490234,8.87054920196533,8.89286041259766,8.915283203125,8.937819480896,8.96046924591064,8.98323535919189,9.00611686706543,9.02911567687988,9.05223178863525,9.07546615600586,9.09882068634033,9.12229537963867,9.14589214324951,9.16961097717285,9.19345283508301,9.21741962432861,9.24151134490967,9.26572895050049,9.29007434844971,9.31454753875732,9.33915042877197,9.36388397216797,9.38874816894531,9.41374492645264,9.43887519836426,9.46413993835449,9.48954105377197,9.51507759094238,9.54075336456299,9.56656646728516,9.59252071380615,9.60498237609863,9.60519027709961,9.60539817810059,9.60560607910156,9.60581398010254,9.60602188110352,9.60622978210449,9.60643863677979,9.60665225982666,9.60686779022217,9.60708332061768,9.60729885101318,9.60751342773438,9.60772895812988,9.60794353485107,9.62590789794922,9.65328788757324,9.68082523345947,9.70851993560791,9.73637390136719,9.7643871307373,9.79256248474121,9.82090091705322,9.84940433502197,9.87807369232178,9.90690994262695,9.93591499328613,9.96508884429932,9.99442863464355,10.0239410400391,10.0536289215088,10.0834932327271,10.1135349273682,10.1437559127808,10.1523332595825,10.1525478363037,10.1527614593506,10.1529750823975,10.1531896591187,10.1534032821655,10.1536169052124,10.1538305282593,10.1540451049805,10.1542587280273,10.1544723510742,10.1546869277954,10.1549005508423,10.1551141738892,10.1553287506104,10.1555423736572,10.1557569503784,10.1559705734253,10.1561851501465,10.1563987731934,10.1566123962402,10.1568269729614,10.1570405960083,10.1572551727295,10.1574687957764,10.1576833724976,10.1578979492188,10.1581115722656,10.1583261489868,10.158540725708,10.1587543487549,10.1589689254761,10.1591835021973,10.1593980789185,10.1596117019653,10.1598262786865,10.1600408554077,10.1602554321289,10.1604690551758,10.160683631897,10.1608982086182,10.1611127853394,10.1613273620605,10.1615409851074,10.1617555618286,10.1619701385498,10.162184715271,10.1623992919922,10.1626138687134,10.1628284454346,10.1630430221558,10.163257598877,10.1634721755981,10.163685798645,10.1639003753662,10.1641149520874,10.1643295288086,10.1645441055298,10.164758682251,10.1649732589722,10.1651878356934,10.1654024124146,10.1656160354614,10.1658296585083,10.1660432815552,10.1662559509277,10.1664695739746,10.1666831970215,10.166895866394,10.1671094894409,10.1673231124878,10.1675357818604,10.1677494049072,10.1679630279541,10.168176651001,10.1683893203735,9.6271858215332,9.62739944458008,9.62758636474609,9.62776279449463,9.62794017791748,9.62811756134033,9.62828731536865,9.62845325469971,9.62861728668213,9.62879657745361,9.62901306152344,9.629225730896,9.62943744659424,9.62965106964111,9.62986278533936,9.66379165649414,9.70379257202148,9.74412441253662,9.78479385375977,9.82580375671387,9.86715888977051,9.90886402130127,9.9509220123291,9.99334049224854,10.0361204147339,10.0792694091797,10.1227893829346,10.1666889190674,10.2109699249268,10.2556371688843,10.3006973266602,10.3461542129517,10.3920154571533,10.4382848739624,10.4849681854248,10.5320701599121,10.5795984268188,10.6275548934937,10.6759490966797,10.7247858047485,10.7740707397461,10.8238105773926,10.8740119934082
8.78750228881836,8.77578353881836,8.7640962600708,8.75244045257568,8.74081516265869,8.72922134399414,8.7176570892334,8.7061243057251,8.69462203979492,8.68314933776855,8.67170810699463,8.6602954864502,8.6489143371582,8.6375617980957,8.62623977661133,8.61494731903076,8.603684425354,8.59245014190674,8.5812463760376,8.57007122039795,8.55892467498779,8.54780769348145,8.53671932220459,8.52566051483154,8.51462936401367,8.50362682342529,8.49265384674072,8.48170852661133,8.47079181671143,8.48742198944092,8.50784397125244,8.52836513519287,8.54898548126221,8.56970596313477,8.59052658081055,8.61144924163818,8.63247394561768,8.65360164642334,8.67483234405518,8.69616794586182,8.71760845184326,8.73915576934814,8.76080894470215,8.78256988525391,8.80443954467773,8.82641887664795,8.84850692749023,8.87070655822754,8.89301776885986,8.91544151306152,8.93797874450684,8.9606294631958,8.98339653015137,9.00627899169922,9.02927780151367,9.05239486694336,9.07563018798828,9.09898567199707,9.12246131896973,9.14605903625488,9.16977882385254,9.19362163543701,9.21758937835693,9.24168109893799,9.26590061187744,9.29024696350098,9.31472110748291,9.33932495117188,9.36405849456787,9.38892364501953,9.41392230987549,9.43905353546143,9.46431922912598,9.48972034454346,9.5152587890625,9.53494644165039,9.5351505279541,9.53535556793213,9.53556060791016,9.53576564788818,9.53597068786621,9.53617572784424,9.53638076782227,9.53658676147461,9.53679847717285,9.53701114654541,9.53722286224365,9.53743553161621,9.53764724731445,9.53785991668701,9.54488754272461,9.57180690765381,9.59887886047363,9.62610626220703,9.65348815917969,9.68102645874023,9.70872211456299,9.73657703399658,9.76459217071533,9.79276847839355,9.82110786437988,9.84961223602295,9.87828254699707,9.90711975097656,9.93612003326416,9.96528911590576,9.99462985992432,10.0241441726685,10.0538330078125,10.0782461166382,10.0784568786621,10.078667640686,10.07887840271,10.0790891647339,10.0792999267578,10.0795106887817,10.07972240448,10.0799331665039,10.0801439285278,10.0803546905518,10.0805654525757,10.0807762145996,10.0809869766235,10.0811977386475,10.0814085006714,10.0816192626953,10.0818309783936,10.0820417404175,10.0822525024414,10.0824632644653,10.0826740264893,10.0828847885132,10.0830965042114,10.0833072662354,10.0835180282593,10.0837287902832,10.0839395523071,10.0841512680054,10.0843620300293,10.0845737457275,10.0847845077515,10.0849962234497,10.0852069854736,10.0854177474976,10.0856294631958,10.0858402252197,10.086051940918,10.0862636566162,10.0864744186401,10.0866851806641,10.0868968963623,10.0871086120605,10.0873193740845,10.0875310897827,10.0877418518066,10.0879535675049,10.0881652832031,10.0883760452271,10.0885877609253,10.0887985229492,10.0890102386475,10.0892219543457,10.0894327163696,10.0896444320679,10.0898561477661,10.09006690979,10.0902786254883,10.0904903411865,10.0907020568848,10.0909128189087,10.0911245346069,10.0913362503052,10.0915479660034,10.0917587280273,10.0919704437256,10.0921821594238,10.0923938751221,10.092604637146,10.0928163528442,10.0930280685425,10.0932397842407,10.0934505462646,10.0936613082886,10.0938711166382,10.0940809249878,10.0942916870117,9.5570182800293,9.55722904205322,9.55743217468262,9.55760669708252,9.55778121948242,9.55795574188232,9.55812740325928,9.5582914352417,9.5584545135498,9.55861186981201,9.5588264465332,9.55903625488281,9.55924606323242,9.55945491790771,9.55966472625732,9.58505344390869,9.62440299987793,9.66407680511475,9.70407962799072,9.74441432952881,9.78508567810059,9.82609844207764,9.86745548248291,9.90916347503662,9.9512243270874,9.99364471435547,10.0364274978638,10.0795783996582,10.1231021881104,10.1670036315918,10.2112865447998,10.2559576034546,10.3010196685791,10.3464803695679,10.3923435211182,10.4386157989502,10.4853019714355,10.5324068069458,10.5799360275269,10.6278963088989,10.6762924194336,10.7251319885254,10.7744207382202,10.8241634368896,10.8743686676025
8.78754806518555,8.77582931518555,8.76414203643799,8.75248527526855,8.74085998535156,8.7292652130127,8.71770191192627,8.70616912841797,8.69466590881348,8.68319416046143,8.67175197601318,8.66033935546875,8.64895820617676,8.63760566711426,8.62628364562988,8.61499118804932,8.60372734069824,8.59249401092529,8.58128929138184,8.57011413574219,8.55896759033203,8.54785060882568,8.53676223754883,8.52570247650146,8.51467132568359,8.50366973876953,8.49269580841064,8.48175048828125,8.47083377838135,8.48756504058838,8.50798892974854,8.52851009368896,8.54913139343262,8.56985282897949,8.59067440032959,8.61159706115723,8.63262271881104,8.6537504196167,8.67498302459717,8.69631862640381,8.71776008605957,8.73930835723877,8.76096248626709,8.78272438049316,8.80459403991699,8.82657432556152,8.84866333007812,8.87086391448975,8.89317607879639,8.91559982299805,8.93813800811768,8.96079063415527,8.98355770111084,9.00644016265869,9.02944087982178,9.05255889892578,9.07579517364502,9.09915161132812,9.1226282119751,9.14622592926025,9.16994667053223,9.19379043579102,9.21775817871094,9.24185180664062,9.26607131958008,9.29041862487793,9.31489372253418,9.33949851989746,9.36423397064209,9.38910007476807,9.41409873962402,9.43923091888428,9.46449756622314,9.46612548828125,9.46632766723633,9.46652984619141,9.46673202514648,9.46693420410156,9.46713638305664,9.46733856201172,9.4675407409668,9.46774482727051,9.4679536819458,9.46816253662109,9.46837139129639,9.468581199646,9.46879005432129,9.46899890899658,9.49169540405273,9.51831436157227,9.54508304595947,9.57200336456299,9.59907722473145,9.62630462646484,9.65368843078613,9.681227684021,9.70892429351807,9.73678016662598,9.76479625701904,9.7929744720459,9.82131481170654,9.84982013702393,9.8784875869751,9.90731906890869,9.93631935119629,9.96548938751221,9.99483108520508,10.0054407119751,10.0056486129761,10.0058555603027,10.0060634613037,10.0062713623047,10.0064792633057,10.0066871643066,10.0068950653076,10.0071029663086,10.0073099136353,10.0075178146362,10.0077257156372,10.0079336166382,10.0081415176392,10.0083494186401,10.0085573196411,10.0087652206421,10.0089731216431,10.009181022644,10.009388923645,10.009596824646,10.009804725647,10.0100126266479,10.0102205276489,10.0104284286499,10.0106363296509,10.0108442306519,10.0110521316528,10.0112600326538,10.0114679336548,10.0116758346558,10.0118837356567,10.0120916366577,10.012300491333,10.012508392334,10.012716293335,10.0129241943359,10.0131330490112,10.0133409500122,10.0135498046875,10.0137577056885,10.0139656066895,10.0141744613647,10.0143823623657,10.0145902633667,10.014799118042,10.015007019043,10.0152149200439,10.0154237747192,10.0156316757202,10.0158405303955,10.0160484313965,10.0162572860718,10.0164651870728,10.016674041748,10.016881942749,10.0170907974243,10.0172986984253,10.0175075531006,10.0177154541016,10.0179243087769,10.0181322097778,10.0183410644531,10.0185489654541,10.0187578201294,10.0189657211304,10.0191745758057,10.019383430481,10.0195913314819,10.0198001861572,10.0200090408325,10.0202169418335,10.0204257965088,10.0206336975098,10.0208425521851,10.0210514068604,10.0212593078613,9.48786640167236,9.48807334899902,9.48828125,9.48846530914307,9.48863697052002,9.48880863189697,9.48898124694824,9.48914432525635,9.48930644989014,9.48946380615234,9.48965454101562,9.4898624420166,9.49007034301758,9.49027633666992,9.49048233032227,9.50758743286133,9.54630279541016,9.58533382415771,9.6246862411499,9.66436195373535,9.70436573028564,9.74470329284668,9.78537750244141,9.82639217376709,9.86775207519531,9.90946197509766,9.95152568817139,9.9939489364624,10.0367345809937,10.079888343811,10.1234140396118,10.1673173904419,10.2116031646729,10.2562761306763,10.301342010498,10.3468055725098,10.3926725387573,10.438946723938,10.485634803772,10.5327415466309,10.5802726745605,10.6282367706299,10.6766357421875,10.7254791259766,10.7747707366943,10.824517250061,10.8747253417969
8.78759288787842,8.77587413787842,8.76418685913086,8.75253009796143,8.74090480804443,8.72931003570557,8.71774673461914,8.70621299743652,8.69471073150635,8.68323802947998,8.67179584503174,8.66038417816162,8.64900207519531,8.63764953613281,8.62632656097412,8.61503410339355,8.6037712097168,8.59253692626953,8.58133220672607,8.57015705108643,8.55901050567627,8.54789352416992,8.53680515289307,8.5257453918457,8.51471424102783,8.50371170043945,8.49273777008057,8.48179244995117,8.47087574005127,8.48770904541016,8.50813293457031,8.52865600585938,8.54927730560303,8.5699987411499,8.59082126617432,8.61174488067627,8.63277149200439,8.65390014648438,8.67513275146484,8.69647026062012,8.71791172027588,8.73945999145508,8.76111507415771,8.78287792205811,8.80474948883057,8.8267297744751,8.84881973266602,8.87102031707764,8.89333343505859,8.91575908660889,8.93829727172852,8.96094989776611,8.98371887207031,9.00660228729248,9.02960300445557,9.05272197723389,9.07595920562744,9.09931659698486,9.12279415130615,9.14639282226562,9.17011451721191,9.19395923614502,9.21792793273926,9.24202251434326,9.26624298095703,9.2905912399292,9.31506729125977,9.33967304229736,9.36440849304199,9.38927555084229,9.39809322357178,9.39829254150391,9.39849185943604,9.39869022369385,9.39888954162598,9.39908885955811,9.39928817749023,9.39948749542236,9.39968681335449,9.39988899230957,9.40009498596191,9.40030097961426,9.4005069732666,9.40071296691895,9.40091896057129,9.41291427612305,9.4390926361084,9.46541690826416,9.49188804626465,9.51850891113281,9.54527854919434,9.57219982147217,9.59927463531494,9.62650394439697,9.65388870239258,9.68142890930176,9.70912647247314,9.73698425292969,9.76500129699707,9.79318046569824,9.82152080535889,9.85001945495605,9.87868499755859,9.9075174331665,9.93347454071045,9.93367862701416,9.93388366699219,9.93408870697021,9.93429279327393,9.93449783325195,9.93470287322998,9.93490791320801,9.93511199951172,9.93531703948975,9.93552207946777,9.9357271194458,9.93593120574951,9.93613624572754,9.93634128570557,9.93654632568359,9.93675136566162,9.93695640563965,9.93716049194336,9.93736553192139,9.93757057189941,9.93777561187744,9.93798065185547,9.9381856918335,9.93839073181152,9.93859577178955,9.93879985809326,9.93900489807129,9.93920993804932,9.93941497802734,9.93962001800537,9.9398250579834,9.94003009796143,9.94023513793945,9.94044017791748,9.94064521789551,9.94085025787354,9.94105529785156,9.94126033782959,9.94146633148193,9.94167137145996,9.94187641143799,9.94208145141602,9.94228744506836,9.94249248504639,9.94269752502441,9.94290256500244,9.94310855865479,9.94331359863281,9.94351863861084,9.94372367858887,9.94392967224121,9.94413471221924,9.94433975219727,9.94454574584961,9.94475078582764,9.94495582580566,9.94516181945801,9.94536685943604,9.94557285308838,9.94577789306641,9.94598293304443,9.94618892669678,9.9463939666748,9.94659996032715,9.94680500030518,9.94701099395752,9.94721603393555,9.94742107391357,9.94762706756592,9.94783210754395,9.94803810119629,9.94824314117432,9.94844913482666,9.94865417480469,9.94886016845703,9.94906616210938,9.9492712020874,9.41970729827881,9.41991233825684,9.42011642456055,9.42031669616699,9.42048645019531,9.42065525054932,9.42082500457764,9.42098999023438,9.42115020751953,9.42130661010742,9.42147636413574,9.42168426513672,9.42188739776611,9.42209053039551,9.42229461669922,9.43136405944824,9.46945953369141,9.50786304473877,9.54658126831055,9.58561420440674,9.62496757507324,9.66464614868164,9.7046537399292,9.74499320983887,9.78566932678223,9.82668685913086,9.86804962158203,9.90976142883301,9.95182800292969,9.99425315856934,10.0370416641235,10.0801973342896,10.1237258911133,10.167631149292,10.2119197845459,10.2565956115723,10.301664352417,10.3471307754517,10.3929986953735,10.4392747879028,10.4859657287598,10.5330753326416,10.5806102752686,10.6285762786865,10.6769790649414,10.7258262634277,10.7751197814941,10.8248701095581,10.8750820159912
8.78763771057129,8.77591896057129,8.76423168182373,8.7525749206543,8.7409496307373,8.72935485839844,8.7177906036377,8.70625782012939,8.6947546005249,8.68328189849854,8.67183971405029,8.66042804718018,8.64904594421387,8.63769340515137,8.62637042999268,8.61507797241211,8.60381412506104,8.59258079528809,8.58137607574463,8.57019996643066,8.55905342102051,8.54793643951416,8.5368480682373,8.52578735351562,8.51475620269775,8.50375366210938,8.49277973175049,8.48183441162109,8.47091770172119,8.48785305023193,8.50827789306641,8.52880096435547,8.54942321777344,8.57014560699463,8.59096908569336,8.61189365386963,8.63292026519775,8.65404987335205,8.67528343200684,8.69662094116211,8.7180643081665,8.7396125793457,8.76126861572266,8.78303241729736,8.80490398406982,8.82688522338867,8.84897613525391,8.87117767333984,8.89349174499512,8.91591739654541,8.93845653533936,8.96111106872559,8.98387908935547,9.00676441192627,9.02976608276367,9.05288600921631,9.07612419128418,9.0994815826416,9.12296009063721,9.146559715271,9.1702823638916,9.19412803649902,9.21809768676758,9.2421932220459,9.26641464233398,9.29076290130615,9.31524085998535,9.33103084564209,9.33122730255127,9.33142375946045,9.33162021636963,9.33181667327881,9.33201313018799,9.33220958709717,9.33240604400635,9.33260154724121,9.33279800415039,9.33299922943115,9.33320236206055,9.33340549468994,9.33360862731934,9.33381175994873,9.33543109893799,9.36117935180664,9.38706970214844,9.41310405731201,9.43928337097168,9.46560859680176,9.49208164215088,9.51870346069336,9.5454740524292,9.57239627838135,9.59947204589844,9.6267032623291,9.65408802032471,9.68163013458252,9.70932865142822,9.73718738555908,9.76520538330078,9.79337978363037,9.82171535491943,9.85021495819092,9.86273765563965,9.86293888092041,9.86314105987549,9.86334323883057,9.86354446411133,9.86374664306641,9.86394882202148,9.86415100097656,9.86435222625732,9.8645544052124,9.86475658416748,9.86495780944824,9.86515998840332,9.8653621673584,9.86556434631348,9.86576557159424,9.86596775054932,9.86616992950439,9.86637210845947,9.86657428741455,9.86677551269531,9.86697769165039,9.86717987060547,9.86738204956055,9.86758422851562,9.86778545379639,9.86798763275146,9.86818981170654,9.86839199066162,9.8685941696167,9.86879634857178,9.86899852752686,9.86920070648193,9.86940288543701,9.86960506439209,9.86980724334717,9.87000846862793,9.87021064758301,9.8704137802124,9.87061500549316,9.87081718444824,9.87102031707764,9.87122249603271,9.87142467498779,9.87162685394287,9.87182903289795,9.87203216552734,9.87223434448242,9.8724365234375,9.87263870239258,9.87284088134766,9.87304401397705,9.87324619293213,9.87344837188721,9.87365055084229,9.87385368347168,9.87405586242676,9.87425804138184,9.87446117401123,9.87466335296631,9.87486553192139,9.87506866455078,9.87527084350586,9.87547397613525,9.87567615509033,9.87587833404541,9.8760814666748,9.87628364562988,9.87648582458496,9.87668895721436,9.87689113616943,9.87709426879883,9.87729644775391,9.8774995803833,9.87770175933838,9.87790393829346,9.87810707092285,9.87830924987793,9.35252094268799,9.35272312164307,9.35292434692383,9.35312652587891,9.35330677032471,9.35347461700439,9.35364151000977,9.35380840301514,9.35396671295166,9.35412311553955,9.35427474975586,9.35447692871094,9.3546781539917,9.35487937927246,9.35507869720459,9.35635280609131,9.39384365081787,9.4316349029541,9.4697322845459,9.50813961029053,9.5468578338623,9.58589458465576,9.6252498626709,9.66493129730225,9.70493984222412,9.74528312683105,9.78596115112305,9.82698154449463,9.86834621429443,9.91006088256836,9.95213031768799,9.99455738067627,10.0373477935791,10.0805063247681,10.1240367889404,10.1679458618164,10.2122364044189,10.2569150924683,10.3019866943359,10.3474540710449,10.3933248519897,10.439603805542,10.4862976074219,10.5334100723267,10.5809478759766,10.6289176940918,10.6773233413696,10.7261724472046,10.7754697799683,10.8252239227295,10.8754386901855
8.78768348693848,8.77596473693848,8.7642765045166,8.75261974334717,8.74099445343018,8.72939968109131,8.71783542633057,8.70630168914795,8.69479942321777,8.68332672119141,8.67188358306885,8.66047191619873,8.64908885955811,8.63773727416992,8.62641429901123,8.61512088775635,8.60385799407959,8.59262371063232,8.58141899108887,8.5702428817749,8.55909633636475,8.5479793548584,8.53689002990723,8.52583026885986,8.51479911804199,8.50379657745361,8.49282264709473,8.48187637329102,8.4709587097168,8.48799705505371,8.50842189788818,8.52894592285156,8.54956912994385,8.57029247283936,8.59111595153809,8.61204147338867,8.63306903839111,8.65419960021973,8.67543315887451,8.6967716217041,8.71821594238281,8.73976516723633,8.7614221572876,8.7831859588623,8.80505847930908,8.82704067230225,8.8491325378418,8.87133502960205,8.89364910125732,8.91607570648193,8.93861675262451,8.96127128601074,8.98404026031494,9.00692653656006,9.02992916107178,9.05304908752441,9.0762882232666,9.09964656829834,9.12312602996826,9.14672660827637,9.17045021057129,9.19429683685303,9.2182674407959,9.24236297607422,9.26491928100586,9.26511287689209,9.26530647277832,9.26550006866455,9.26569366455078,9.26588726043701,9.26608085632324,9.26627445220947,9.2664680480957,9.26666164398193,9.26685523986816,9.26705455780029,9.26725482940674,9.26745510101318,9.26765537261963,9.26785564422607,9.28454113006592,9.31000900268555,9.33561706542969,9.36136627197266,9.38725757598877,9.41329383850098,9.43947410583496,9.46580123901367,9.49227523803711,9.51889705657959,9.54566955566406,9.57259273529053,9.59967041015625,9.62690162658691,9.65428829193115,9.68183135986328,9.70953178405762,9.73738670349121,9.76539897918701,9.79280185699463,9.79300117492676,9.79320049285889,9.7933988571167,9.79359817504883,9.79379749298096,9.79399585723877,9.7941951751709,9.79439449310303,9.79459285736084,9.79479217529297,9.7949914932251,9.79519081115723,9.79538917541504,9.79558849334717,9.7957878112793,9.79598712921143,9.79618644714355,9.79638481140137,9.7965841293335,9.79678344726562,9.79698276519775,9.79718208312988,9.79738140106201,9.79757976531982,9.79777908325195,9.79797840118408,9.79817771911621,9.79837703704834,9.79857635498047,9.7987756729126,9.79897499084473,9.79917335510254,9.79937267303467,9.7995719909668,9.79977130889893,9.79997062683105,9.80016994476318,9.80036926269531,9.80056858062744,9.80076789855957,9.8009672164917,9.80116653442383,9.80136585235596,9.80156517028809,9.80176448822021,9.80196380615234,9.80216407775879,9.80236339569092,9.80256271362305,9.80276203155518,9.80296230316162,9.80316162109375,9.80336093902588,9.80356025695801,9.80376052856445,9.80395984649658,9.80415916442871,9.80435943603516,9.80455875396729,9.80475807189941,9.80495834350586,9.80515766143799,9.80535697937012,9.80555725097656,9.80575656890869,9.80595588684082,9.80615615844727,9.80635547637939,9.80655574798584,9.80675506591797,9.80695533752441,9.80715465545654,9.80735397338867,9.80755424499512,9.80775356292725,9.80795383453369,9.80815315246582,9.80835342407227,9.28628635406494,9.28648471832275,9.28668403625488,9.28688335418701,9.28707981109619,9.28724479675293,9.28740882873535,9.28757381439209,9.28773307800293,9.2878885269165,9.28804016113281,9.28822040557861,9.28842067718506,9.28861808776855,9.28881645202637,9.28901386260986,9.31942558288574,9.3566198348999,9.3941125869751,9.43190670013428,9.47000598907471,9.50841522216797,9.5471363067627,9.58617401123047,9.62553215026855,9.66521644592285,9.70522785186768,9.74557209014893,9.78625297546387,9.82727527618408,9.86864280700684,9.91036033630371,9.95243167877197,9.99486064910889,10.0376539230347,10.0808143615723,10.1243476867676,10.1682596206665,10.212553024292,10.2572336196899,10.3023061752319,10.3477764129639,10.3936500549316,10.4399328231812,10.4866285324097,10.5337438583374,10.5812854766846,10.6292581558228,10.6776666641235,10.7265195846558,10.7758197784424,10.8255758285522,10.8757944107056
8.78772830963135,8.77600955963135,8.76432132720947,8.75266456604004,8.74103927612305,8.72944450378418,8.71788024902344,8.70634651184082,8.69484329223633,8.68337059020996,8.67192840576172,8.66051578521729,8.64913272857666,8.63778018951416,8.62645816802979,8.6151647567749,8.60390090942383,8.59266662597656,8.58146190643311,8.57028579711914,8.55913925170898,8.54802227020264,8.53693294525146,8.5258731842041,8.51484107971191,8.50383853912354,8.49286460876465,8.48191833496094,8.47100067138672,8.48814010620117,8.50856685638428,8.52909088134766,8.54971504211426,8.57043933868408,8.59126377105713,8.61218929290771,8.63321781158447,8.65434837341309,8.6755838394165,8.69692230224609,8.71836757659912,8.73991775512695,8.76157474517822,8.78334045410156,8.80521297454834,8.82719612121582,8.84928894042969,8.87149238586426,8.89380741119385,8.91623497009277,8.93877601623535,8.9614315032959,8.98420143127441,9.00708770751953,9.03009128570557,9.05321311950684,9.07645225524902,9.09981250762939,9.12329196929932,9.14689350128174,9.17061805725098,9.19446468353271,9.19992923736572,9.200119972229,9.20031070709229,9.20050144195557,9.20069217681885,9.20088291168213,9.20107364654541,9.20126533508301,9.20145606994629,9.20164680480957,9.20183753967285,9.20203495025635,9.20223331451416,9.20243072509766,9.20262813568115,9.20914840698242,9.23420333862305,9.25939559936523,9.28472518920898,9.31019401550293,9.33580303192139,9.36155414581299,9.38744735717773,9.41348361968994,9.43966579437256,9.46599292755127,9.49246883392334,9.51909160614014,9.54586505889893,9.57278919219971,9.59986782073975,9.62710094451904,9.6544885635376,9.68203067779541,9.70972442626953,9.72404766082764,9.72424411773682,9.724440574646,9.72463607788086,9.72483253479004,9.72502899169922,9.7252254486084,9.72542190551758,9.72561740875244,9.72581386566162,9.7260103225708,9.72620677947998,9.72640323638916,9.72659873962402,9.7267951965332,9.72699165344238,9.72718811035156,9.72738456726074,9.72758102416992,9.7277774810791,9.72797298431396,9.72816944122314,9.72836589813232,9.7285623550415,9.72875881195068,9.72895526885986,9.72915172576904,9.72934818267822,9.7295446395874,9.72974109649658,9.72993755340576,9.73013401031494,9.73033046722412,9.7305269241333,9.73072338104248,9.73091983795166,9.73111629486084,9.73131275177002,9.7315092086792,9.73170566558838,9.73190212249756,9.73209857940674,9.73229503631592,9.7324914932251,9.73268795013428,9.73288440704346,9.73308181762695,9.73327827453613,9.73347473144531,9.73367118835449,9.73386859893799,9.73406505584717,9.73426151275635,9.73445892333984,9.73465538024902,9.7348518371582,9.7350492477417,9.73524570465088,9.73544216156006,9.73563957214355,9.73583602905273,9.73603248596191,9.73622989654541,9.73642635345459,9.73662376403809,9.73682022094727,9.73701763153076,9.73721408843994,9.73741149902344,9.73760795593262,9.7378044128418,9.73800182342529,9.73819828033447,9.73839569091797,9.73859310150146,9.73878955841064,9.73898696899414,9.73918342590332,9.73938083648682,9.22098255157471,9.22117900848389,9.22137546539307,9.22157192230225,9.22176742553711,9.22194576263428,9.22210788726807,9.22227096557617,9.22243213653564,9.22258472442627,9.22273540496826,9.22289657592773,9.22309589385986,9.22328948974609,9.22348499298096,9.22368049621582,9.24617767333984,9.28278827667236,9.31968975067139,9.3568868637085,9.39438152313232,9.43217754364014,9.47027969360352,9.50869083404541,9.54741382598877,9.58645439147949,9.62581539154053,9.66550159454346,9.70551490783691,9.74586200714111,9.78654479980469,9.82756996154785,9.86893939971924,9.91065883636475,9.95273208618164,9.99516487121582,10.0379590988159,10.0811233520508,10.124659538269,10.1685724258423,10.2128677368164,10.2575511932373,10.3026266098022,10.3480997085571,10.3939762115479,10.440260887146,10.4869604110718,10.5340795516968,10.5816230773926,10.6295986175537,10.6780109405518,10.7268657684326,10.7761707305908,10.8259296417236,10.8761510848999
8.78777408599854,8.77605438232422,8.76436710357666,8.75271034240723,8.74108409881592,8.72948932647705,8.71792507171631,8.70639133453369,8.69488716125488,8.68341445922852,8.67197227478027,8.66055965423584,8.64917659759521,8.63782405853271,8.62650108337402,8.61520862579346,8.60394477844238,8.59271049499512,8.58150482177734,8.5703296661377,8.55918216705322,8.54806518554688,8.5369758605957,8.52591514587402,8.51488399505615,8.50388050079346,8.49290657043457,8.48196029663086,8.47104263305664,8.48828411102295,8.50871086120605,8.52923679351807,8.54986095428467,8.57058525085449,8.59141063690186,8.61233711242676,8.63336658477783,8.65449810028076,8.67573356628418,8.6970739364624,8.71851921081543,8.74007034301758,8.76172828674316,8.7834939956665,8.80536842346191,8.82735157012939,8.84944438934326,8.87164878845215,8.89396476745605,8.9163932800293,8.93893527984619,8.96159172058105,8.98436260223389,9.00724983215332,9.03025436401367,9.05337619781494,9.07661724090576,9.09997749328613,9.12345790863037,9.13565540313721,9.13584423065186,9.13603210449219,9.13621997833252,9.13640880584717,9.1365966796875,9.13678455352783,9.13697338104248,9.13716125488281,9.13734912872314,9.13753795623779,9.13772773742676,9.1379222869873,9.13811683654785,9.1383113861084,9.13850688934326,9.15962219238281,9.18440818786621,9.20932865142822,9.23438549041748,9.25957775115967,9.28490924835205,9.31037902832031,9.3359899520874,9.36174201965332,9.38763618469238,9.41367435455322,9.43985652923584,9.46618556976318,9.49266147613525,9.51928615570068,9.54606056213379,9.5729866027832,9.60006523132324,9.62729930877686,9.65468215942383,9.65625190734863,9.65644550323486,9.65663909912109,9.65683269500732,9.65702629089355,9.65721988677979,9.65741348266602,9.65760707855225,9.65780067443848,9.65799427032471,9.65818691253662,9.65838050842285,9.65857410430908,9.65876770019531,9.65896129608154,9.65915489196777,9.659348487854,9.65954208374023,9.65973567962646,9.6599292755127,9.66012287139893,9.66031742095947,9.6605110168457,9.66070461273193,9.66089820861816,9.66109180450439,9.66128540039062,9.66147899627686,9.66167259216309,9.66186618804932,9.66205978393555,9.66225337982178,9.66244697570801,9.66264152526855,9.66283512115479,9.66302871704102,9.66322231292725,9.66341590881348,9.66360950469971,9.66380405426025,9.66399765014648,9.66419124603271,9.66438484191895,9.66457843780518,9.66477203369141,9.66496658325195,9.66516017913818,9.66535377502441,9.66554832458496,9.66574192047119,9.66593551635742,9.66612911224365,9.6663236618042,9.66651725769043,9.66671180725098,9.66690540313721,9.66709995269775,9.66729354858398,9.66748809814453,9.66768169403076,9.66787624359131,9.66806983947754,9.66826438903809,9.66845798492432,9.66865253448486,9.66884708404541,9.66904067993164,9.66923522949219,9.66942882537842,9.66962337493896,9.6698169708252,9.67001152038574,9.67020606994629,9.67039966583252,9.67059421539307,9.67078876495361,9.67098236083984,9.67117691040039,9.67137145996094,9.67156505584717,9.1567850112915,9.15697860717773,9.15717220306396,9.1573657989502,9.15755939483643,9.15771961212158,9.15787982940674,9.15804004669189,9.15819358825684,9.15834522247314,9.15849018096924,9.15868186950684,9.15887451171875,9.15906620025635,9.15925884246826,9.17407131195068,9.21011257171631,9.24643802642822,9.28305149078369,9.31995487213135,9.35715389251709,9.39465045928955,9.43244934082031,9.47055244445801,9.50896644592285,9.54769229888916,9.58673477172852,9.62609767913818,9.66578578948975,9.70580196380615,9.74615097045898,9.78683757781982,9.8278636932373,9.86923503875732,9.91095733642578,9.95303344726562,9.99546813964844,10.0382661819458,10.0814323425293,10.1249694824219,10.1688842773438,10.2131824493408,10.2578678131104,10.3029460906982,10.3484220504761,10.3943014144897,10.4405899047852,10.4872913360596,10.5344133377075,10.5819606781006,10.6299390792847,10.6783542633057,10.7272129058838,10.7765207290649,10.826283454895,10.8765077590942
8.78781890869141,8.77610015869141,8.76441192626953,8.7527551651001,8.74112892150879,8.72953319549561,8.71796894073486,8.70643520355225,8.69493198394775,8.68345928192139,8.67201614379883,8.66060352325439,8.64922046661377,8.63786792755127,8.62654495239258,8.6152515411377,8.60398769378662,8.59275341033936,8.5815486907959,8.57037258148193,8.55922508239746,8.5481071472168,8.53701877593994,8.52595806121826,8.51492691040039,8.5039234161377,8.49294853210449,8.48200225830078,8.47108459472656,8.48842811584473,8.50885581970215,8.52938175201416,8.55000686645508,8.57073211669922,8.5915584564209,8.61248588562012,8.63351535797119,8.65464782714844,8.67588424682617,8.69722461700439,8.71867084503174,8.7402229309082,8.76188182830811,8.78364753723145,8.80552291870117,8.82750701904297,8.84960079193115,8.87180614471436,8.89412307739258,8.91655254364014,8.93909454345703,8.96175193786621,8.98452377319336,9.00741195678711,9.03041744232178,9.05354022979736,9.07227420806885,9.07246017456055,9.07264518737793,9.07283115386963,9.07301712036133,9.07320213317871,9.07338809967041,9.07357311248779,9.07375907897949,9.07394504547119,9.07413005828857,9.07431602478027,9.07450389862061,9.07469654083252,9.07488822937012,9.07508087158203,9.08623600006104,9.11062622070312,9.13514709472656,9.1598014831543,9.18458843231201,9.20950984954834,9.2345666885376,9.25976181030273,9.28509426116943,9.31056499481201,9.33617687225342,9.36192989349365,9.38782501220703,9.41386413574219,9.44004821777344,9.4663782119751,9.49285507202148,9.51948070526123,9.54625606536865,9.57318305969238,9.58920478820801,9.58939552307129,9.58958625793457,9.58977699279785,9.58996772766113,9.59015846252441,9.5903491973877,9.59053993225098,9.59073066711426,9.59092235565186,9.59111309051514,9.59130382537842,9.5914945602417,9.59168529510498,9.59187602996826,9.59206771850586,9.59225845336914,9.59244918823242,9.5926399230957,9.59283065795898,9.59302234649658,9.59321308135986,9.59340381622314,9.59359455108643,9.59378623962402,9.5939769744873,9.59416770935059,9.59435844421387,9.59455013275146,9.59474086761475,9.59493160247803,9.59512329101562,9.59531402587891,9.59550476074219,9.59569644927979,9.59588718414307,9.59607791900635,9.59626960754395,9.59646034240723,9.59665107727051,9.59684276580811,9.59703350067139,9.59722423553467,9.59741592407227,9.59760665893555,9.59779834747314,9.59798908233643,9.59818077087402,9.5983715057373,9.5985631942749,9.59875392913818,9.59894561767578,9.59913635253906,9.59932708740234,9.59951877593994,9.59970951080322,9.59990119934082,9.60009288787842,9.6002836227417,9.6004753112793,9.60066699981689,9.60085773468018,9.60104942321777,9.60124111175537,9.60143280029297,9.60162353515625,9.60181522369385,9.60200691223145,9.60219860076904,9.60239028930664,9.60258102416992,9.60277271270752,9.60296440124512,9.60315608978271,9.603346824646,9.60353851318359,9.60373020172119,9.60392189025879,9.60411357879639,9.60430526733398,9.60449600219727,9.09328460693359,9.09347534179688,9.09366607666016,9.09385681152344,9.09404754638672,9.09422302246094,9.09438133239746,9.09453964233398,9.09469509124756,9.09484386444092,9.09498977661133,9.09516048431396,9.09535217285156,9.09554195404053,9.09573173522949,9.10308170318604,9.13856601715088,9.1743278503418,9.21037101745605,9.2466983795166,9.2833137512207,9.32021999359131,9.35742092132568,9.39491939544678,9.43272018432617,9.47082614898682,9.50924205780029,9.54796981811523,9.58701515197754,9.62637996673584,9.66606998443604,9.70608901977539,9.74643993377686,9.78712749481201,9.82815742492676,9.86953163146973,9.9112548828125,9.95333385467529,9.99577140808105,10.0385713577271,10.0817384719849,10.1252784729004,10.1691961288452,10.2134962081909,10.2581853866577,10.3032665252686,10.348744392395,10.394627571106,10.44091796875,10.4876232147217,10.5347480773926,10.5822982788086,10.6302795410156,10.6786975860596,10.727560043335,10.7768707275391,10.8266363143921,10.8768644332886
8.78786468505859,8.77614498138428,8.7644567489624,8.75279998779297,8.74117374420166,8.72957801818848,8.71801376342773,8.70648002624512,8.69497585296631,8.68350315093994,8.67206001281738,8.66064739227295,8.64926433563232,8.63791179656982,8.62658882141113,8.61529541015625,8.60403156280518,8.59279632568359,8.58159160614014,8.57041549682617,8.5592679977417,8.54815006256104,8.53706169128418,8.5260009765625,8.51496887207031,8.50396537780762,8.49299049377441,8.48204517364502,8.47112655639648,8.4885721206665,8.50899982452393,8.52952671051025,8.55015277862549,8.57087898254395,8.59170532226562,8.61263370513916,8.63366413116455,8.65479755401611,8.67603397369385,8.69737529754639,8.71882247924805,8.74037551879883,8.76203441619873,8.7838020324707,8.80567741394043,8.82766246795654,8.84975719451904,8.87196350097656,8.89428043365479,8.91671085357666,8.93925476074219,8.96191215515137,8.98468494415283,9.0075740814209,9.00994873046875,9.0101318359375,9.01031494140625,9.010498046875,9.01068115234375,9.0108642578125,9.01104736328125,9.01123046875,9.01141357421875,9.0115966796875,9.01177978515625,9.011962890625,9.01214981079102,9.01233959197998,9.01252841949463,9.01401710510254,9.03802013397217,9.06215190887451,9.08641242980957,9.11080360412598,9.13532543182373,9.15997982025146,9.1847677230835,9.20969104766846,9.23474979400635,9.2599458694458,9.28527927398682,9.31075191497803,9.33636379241943,9.36211776733398,9.388014793396,9.41405391693115,9.44023895263672,9.4665699005127,9.49304866790771,9.51967525482178,9.52328300476074,9.52346992492676,9.52365589141846,9.52384185791016,9.52402782440186,9.52421379089355,9.52439975738525,9.52458763122559,9.52477550506592,9.52496337890625,9.5251522064209,9.52534008026123,9.52552890777588,9.52571678161621,9.52590465545654,9.52609348297119,9.52628135681152,9.52647018432617,9.5266580581665,9.52684688568115,9.52703475952148,9.52722358703613,9.52741146087646,9.52760028839111,9.52778816223145,9.52797698974609,9.52816486358643,9.52835369110107,9.52854156494141,9.52873039245605,9.52891826629639,9.52910709381104,9.52929496765137,9.52948379516602,9.52967262268066,9.529860496521,9.53004932403564,9.53023815155029,9.53042602539062,9.53061485290527,9.53080272674561,9.53099155426025,9.5311803817749,9.53136825561523,9.53155708312988,9.53174591064453,9.53193378448486,9.53212261199951,9.53231143951416,9.53249931335449,9.53268814086914,9.53287696838379,9.53306484222412,9.53325366973877,9.53344249725342,9.53363132476807,9.5338191986084,9.53400802612305,9.5341968536377,9.53438568115234,9.53457450866699,9.53476333618164,9.53495216369629,9.53514099121094,9.53532981872559,9.53551864624023,9.53570747375488,9.53589630126953,9.53608512878418,9.53627395629883,9.53646278381348,9.53665161132812,9.53684043884277,9.53702926635742,9.53721809387207,9.53740692138672,9.53759574890137,9.53778457641602,9.53797340393066,9.53816223144531,9.53835105895996,9.03065872192383,9.03084659576416,9.03103446960449,9.03122329711914,9.03141117095947,9.0315990447998,9.03175735473633,9.0319128036499,9.03206920623779,9.03221797943115,9.03236293792725,9.03251457214355,9.03270530700684,9.03289222717285,9.03307914733887,9.03326606750488,9.06812286376953,9.10333442687988,9.13882064819336,9.17458438873291,9.2106294631958,9.24695873260498,9.28357601165771,9.32048511505127,9.35768795013428,9.395188331604,9.43299198150635,9.47109985351562,9.50951766967773,9.54824733734131,9.58729457855225,9.62666320800781,9.66635513305664,9.70637512207031,9.74672889709473,9.78741931915283,9.82845020294189,9.86982727050781,9.91155433654785,9.95363426208496,9.99607276916504,10.0388746261597,10.0820446014404,10.1255874633789,10.1695079803467,10.2138109207153,10.2585020065308,10.3035860061646,10.3490676879883,10.3949527740479,10.4412469863892,10.4879550933838,10.5350828170776,10.5826358795166,10.6306200027466,10.6790418624878,10.7279062271118,10.7772207260132,10.8269901275635,10.8772211074829
8.78790950775146,8.77618980407715,8.76450157165527,8.75284481048584,8.74121856689453,8.72962284088135,8.71805858612061,8.70652389526367,8.69502067565918,8.6835470199585,8.67210388183594,8.6606912612915,8.64930820465088,8.63795566558838,8.62663173675537,8.61533832550049,8.60407447814941,8.59284019470215,8.58163452148438,8.57045841217041,8.55931091308594,8.54819297790527,8.5371036529541,8.52604293823242,8.51501178741455,8.50400829315186,8.49303340911865,8.48208713531494,8.47116851806641,8.48871612548828,8.50914478302002,8.52967166900635,8.5502986907959,8.57102489471436,8.59185314178467,8.6127815246582,8.63381290435791,8.65494632720947,8.67618465423584,8.6975269317627,8.71897411346436,8.74052715301514,8.76218795776367,8.78395557403564,8.80583190917969,8.82781791687012,8.84991359710693,8.87211990356445,8.89443874359131,8.91686916351318,8.93941402435303,8.94829368591309,8.9484748840332,8.948655128479,8.9488353729248,8.94901657104492,8.94919681549072,8.94937705993652,8.94955825805664,8.94973850250244,8.94991874694824,8.95009994506836,8.95028018951416,8.95046138763428,8.95064640045166,8.95083332061768,8.95102024078369,8.96656227111816,8.99031352996826,9.01418972015381,9.03819465637207,9.06232643127441,9.08658885955811,9.11098003387451,9.1355037689209,9.16015911102295,9.18494892120361,9.20987319946289,9.2349328994751,9.26012992858887,9.2854642868042,9.31093788146973,9.33655071258545,9.36230564117432,9.38820362091064,9.41424465179443,9.44043064117432,9.45808219909668,9.45826530456543,9.4584493637085,9.45863342285156,9.45881748199463,9.45900058746338,9.45918464660645,9.4593677520752,9.45955181121826,9.45973491668701,9.45991802215576,9.46010208129883,9.46028518676758,9.46046829223633,9.46065235137939,9.46083545684814,9.46102046966553,9.46120643615723,9.46139240264893,9.46157836914062,9.46176338195801,9.46194934844971,9.46213531494141,9.46232128143311,9.4625072479248,9.46269226074219,9.46287822723389,9.46306419372559,9.46325016021729,9.46343612670898,9.46362209320068,9.46380710601807,9.46399307250977,9.46417903900146,9.46436500549316,9.46455097198486,9.46473693847656,9.46492290496826,9.46510887145996,9.46529388427734,9.46548080444336,9.46566581726074,9.46585178375244,9.46603775024414,9.46622371673584,9.46640968322754,9.46659564971924,9.46678161621094,9.46696758270264,9.46715354919434,9.46733951568604,9.46752548217773,9.46771144866943,9.46789741516113,9.46808338165283,9.46826934814453,9.46845531463623,9.46864128112793,9.46882724761963,9.46901416778564,9.46920013427734,9.46938610076904,9.46957206726074,9.46975803375244,9.46994400024414,9.47012996673584,9.47031688690186,9.47050285339355,9.47068881988525,9.47087574005127,9.47106170654297,9.47124862670898,9.47143459320068,9.47162055969238,9.47180652618408,9.4719934463501,9.4721794128418,9.4723653793335,9.47255229949951,9.47273826599121,9.47292518615723,9.47311115264893,8.9688892364502,8.96907424926758,8.96926021575928,8.96944618225098,8.96963119506836,8.96981716156006,8.96998977661133,8.97014331817627,8.97029685974121,8.9704475402832,8.9705924987793,8.97073364257812,8.97091579437256,8.97109985351562,8.97128486633301,8.97146797180176,8.99875736236572,9.03343105316162,9.06837272644043,9.10358715057373,9.13907527923584,9.17484092712402,9.21088886260986,9.24722003936768,9.28383922576904,9.32074928283691,9.35795497894287,9.39545822143555,9.43326282501221,9.47137355804443,9.50979232788086,9.5485258102417,9.58757591247559,9.62694454193115,9.66663932800293,9.70666217803955,9.74701690673828,9.78771018981934,9.82874393463135,9.8701229095459,9.91185092926025,9.95393371582031,9.99637413024902,10.0391788482666,10.082350730896,10.1258964538574,10.1698198318481,10.2141256332397,10.2588195800781,10.3039064407349,10.3493900299072,10.3952789306641,10.441575050354,10.4882860183716,10.5354166030884,10.5829734802246,10.6309614181519,10.6793851852417,10.728253364563,10.7775707244873,10.8273429870605,10.8775777816772
8.78795528411865,8.77623558044434,8.76454639434814,8.75288963317871,8.7412633895874,8.72966766357422,8.71810245513916,8.70656871795654,8.69506454467773,8.68359184265137,8.67214870452881,8.66073513031006,8.64935207366943,8.63799953460693,8.62667560577393,8.61538219451904,8.60411834716797,8.59288311004639,8.58167743682861,8.57050132751465,8.55935382843018,8.54823589324951,8.53714656829834,8.52608585357666,8.51505374908447,8.50405025482178,8.49307537078857,8.48212909698486,8.47121047973633,8.48885917663574,8.5092887878418,8.52981758117676,8.55044460296631,8.57117176055908,8.59200000762939,8.61292934417725,8.63396167755127,8.65509605407715,8.67633438110352,8.69767761230469,8.71912574768066,8.74067974090576,8.76234149932861,8.7841100692749,8.80598735809326,8.82797336578369,8.85006999969482,8.87227725982666,8.88747692108154,8.88765525817871,8.88783264160156,8.88801097869873,8.8881893157959,8.88836765289307,8.88854598999023,8.88872337341309,8.88890171051025,8.88908004760742,8.88925838470459,8.88943672180176,8.88961410522461,8.88979244232178,8.88997650146484,8.89016151428223,8.89622497558594,8.91960430145264,8.94310665130615,8.96673393249512,8.99048519134521,9.01436328887939,9.03836822509766,9.06250190734863,9.08676433563232,9.11115741729736,9.13568210601807,9.16033935546875,9.18513011932373,9.21005535125732,9.23511600494385,9.26031398773193,9.28564929962158,9.31112384796143,9.33673858642578,9.36249446868896,9.38839244842529,9.39394855499268,9.39412975311279,9.39431095123291,9.39449214935303,9.39467334747314,9.39485549926758,9.3950366973877,9.39521789550781,9.39539909362793,9.39558029174805,9.39576148986816,9.39594268798828,9.39612293243408,9.3963041305542,9.39648532867432,9.39666652679443,9.39684677124023,9.39702796936035,9.39720916748047,9.39739036560059,9.39757061004639,9.3977518081665,9.39793300628662,9.39811420440674,9.39829730987549,9.39848041534424,9.39866352081299,9.39884662628174,9.39902973175049,9.39921379089355,9.3993968963623,9.39958000183105,9.3997631072998,9.39994621276855,9.40013027191162,9.40031337738037,9.40049648284912,9.40068054199219,9.40086364746094,9.40104675292969,9.40123081207275,9.4014139175415,9.40159702301025,9.401780128479,9.40196418762207,9.40214729309082,9.40233039855957,9.40251445770264,9.40269756317139,9.40288066864014,9.4030647277832,9.40324783325195,9.40343189239502,9.40361499786377,9.40379810333252,9.40398216247559,9.40416526794434,9.4043493270874,9.40453243255615,9.40471649169922,9.40489959716797,9.40508270263672,9.40526676177979,9.40544986724854,9.4056339263916,9.40581703186035,9.40600109100342,9.40618419647217,9.40636825561523,9.4065523147583,9.40673542022705,9.40691947937012,9.40710353851318,9.40728664398193,9.407470703125,9.40765476226807,9.40783786773682,9.40802192687988,9.40820598602295,9.40839004516602,9.40857315063477,9.40875720977783,8.907958984375,8.90814208984375,8.9083251953125,8.90850830078125,8.90869140625,8.90887451171875,8.9090576171875,8.90921306610107,8.90936470031738,8.90951728820801,8.90966033935547,8.90980052947998,8.90996265411377,8.91014671325684,8.91032886505127,8.9105110168457,8.93044376373291,8.96459293365479,8.99900341033936,9.0336799621582,9.06862449645996,9.10383987426758,9.13932991027832,9.17509746551514,9.21114730834961,9.24748039245605,9.28410148620605,9.32101345062256,9.35822105407715,9.39572715759277,9.43353366851807,9.47164630889893,9.5100679397583,9.54880332946777,9.58785438537598,9.62722682952881,9.6669225692749,9.70694732666016,9.74730587005615,9.78800106048584,9.82903575897217,9.87041664123535,9.91214752197266,9.95423126220703,9.99667549133301,10.0394821166992,10.0826578140259,10.1262054443359,10.1701316833496,10.2144403457642,10.2591371536255,10.3042259216309,10.3497133255005,10.395604133606,10.4419040679932,10.4886178970337,10.5357522964478,10.5833110809326,10.6313009262085,10.6797294616699,10.7286005020142,10.7779207229614,10.8276968002319,10.8779344558716
8.78800010681152,8.77628040313721,8.76459217071533,8.75293445587158,8.74130821228027,8.72971248626709,8.71814727783203,8.7066125869751,8.69510936737061,8.68363571166992,8.67219257354736,8.66077899932861,8.64939594268799,8.63804340362549,8.62671947479248,8.6154260635376,8.60416126251221,8.59292602539062,8.58172130584717,8.57054424285889,8.55939674377441,8.54827880859375,8.53718948364258,8.5261287689209,8.51509666442871,8.50409317016602,8.4931173324585,8.48217105865479,8.47125244140625,8.48900318145752,8.50943374633789,8.52996253967285,8.55059051513672,8.57131862640381,8.59214687347412,8.61307811737061,8.63411045074463,8.65524578094482,8.67648506164551,8.69782829284668,8.71927738189697,8.74083232879639,8.76249408721924,8.78426361083984,8.80614185333252,8.82748126983643,8.82765674591064,8.82783222198486,8.8280086517334,8.82818412780762,8.82835960388184,8.82853507995605,8.82871150970459,8.82888698577881,8.82906246185303,8.82923793792725,8.82941436767578,8.82958984375,8.82976531982422,8.82994270324707,8.83012390136719,8.83030605316162,8.84999942779541,8.87313556671143,8.89639377593994,8.91977405548096,8.94327735900879,8.96690464019775,8.99065780639648,9.01453685760498,9.03854274749756,9.06267738342285,9.08694076538086,9.11133575439453,9.13586139678955,9.16051959991455,9.18531131744385,9.21023750305176,9.2352991104126,9.26049709320068,9.28583431243896,9.31130981445312,9.33050060272217,9.33067893981934,9.33085823059082,9.33103656768799,9.33121585845947,9.33139419555664,9.33157348632812,9.33175277709961,9.33193111419678,9.33211040496826,9.33228874206543,9.33246803283691,9.3326473236084,9.33282566070557,9.33300399780273,9.33318328857422,9.33336162567139,9.33353996276855,9.33371829986572,9.33389663696289,9.33407592773438,9.33425426483154,9.33443260192871,9.33461093902588,9.33479022979736,9.33496856689453,9.3351469039917,9.33532524108887,9.33550453186035,9.33568286895752,9.33586120605469,9.33604049682617,9.33621883392334,9.33639907836914,9.33658027648926,9.33676147460938,9.33694171905518,9.33712291717529,9.33730411529541,9.33748435974121,9.33766555786133,9.33784675598145,9.33802795410156,9.33820819854736,9.33838939666748,9.3385705947876,9.33875179290771,9.33893203735352,9.33911323547363,9.33929443359375,9.33947563171387,9.33965587615967,9.33983707427979,9.3400182723999,9.34019947052002,9.34037971496582,9.34056091308594,9.34074211120605,9.34092330932617,9.34110450744629,9.34128570556641,9.34146690368652,9.34164810180664,9.34182834625244,9.34200954437256,9.34219074249268,9.34237194061279,9.34255313873291,9.34273433685303,9.34291553497314,9.34309673309326,9.34327793121338,9.3434591293335,9.34364032745361,9.34382152557373,9.34400272369385,9.34418392181396,9.34436511993408,9.3445463180542,9.34472846984863,9.34490966796875,9.34509086608887,9.34527206420898,8.84785079956055,8.84803199768066,8.84821224212646,8.84839344024658,8.84857368469238,8.84875392913818,8.8489351272583,8.84910488128662,8.8492546081543,8.84940433502197,8.84954929351807,8.84969043731689,8.84983348846436,8.85001659393311,8.85019588470459,8.85037517547607,8.86316108703613,8.89679622650146,8.93068790435791,8.9648380279541,8.9992504119873,9.03392791748047,9.06887435913086,9.10409164428711,9.1395845413208,9.17535400390625,9.21140575408936,9.24774074554443,9.28436470031738,9.32127857208252,9.35848808288574,9.39599609375,9.43380546569824,9.47192001342773,9.51034355163574,9.54908084869385,9.58813381195068,9.62750816345215,9.66720676422119,9.70723438262939,9.74759483337402,9.78829002380371,9.82932758331299,9.8707103729248,9.91244316101074,9.95453071594238,9.99697685241699,10.0397863388062,10.0829639434814,10.1265144348145,10.1704435348511,10.2147541046143,10.2594537734985,10.3045463562012,10.3500366210938,10.3959302902222,10.4422330856323,10.4889497756958,10.5360860824585,10.5836486816406,10.6316423416138,10.6800727844238,10.7289476394653,10.7782707214355,10.828049659729,10.8782911300659
8.77184200286865,8.76732444763184,8.7628116607666,8.75297927856445,8.74135303497314,8.72975635528564,8.7181921005249,8.70665740966797,8.69515323638916,8.68367958068848,8.67223644256592,8.66082286834717,8.64943981170654,8.63808631896973,8.62676334381104,8.61546897888184,8.60420513153076,8.59296989440918,8.58176422119141,8.57058715820312,8.55944061279297,8.54832172393799,8.53723239898682,8.52617073059082,8.51513862609863,8.50413513183594,8.49316024780273,8.48221302032471,8.47129440307617,8.4891471862793,8.50957775115967,8.53010749816895,8.55073642730713,8.57146549224854,8.59229469299316,8.61322593688965,8.63425922393799,8.6553955078125,8.67663478851318,8.69797992706299,8.71942901611328,8.74098491668701,8.76264762878418,8.76846313476562,8.76863670349121,8.7688102722168,8.76898288726807,8.76915645599365,8.76933002471924,8.76950359344482,8.76967620849609,8.76984977722168,8.77002334594727,8.77019691467285,8.77037048339844,8.77054405212402,8.77071762084961,8.77089309692383,8.77107238769531,8.78147220611572,8.8042516708374,8.82714939117432,8.85016632080078,8.87330341339111,8.89656257629395,8.91994380950928,8.94344806671143,8.96707630157471,8.99083042144775,9.01470947265625,9.03871726989746,9.06285285949707,9.08711814880371,9.11151313781738,9.13604068756104,9.16069984436035,9.18549156188965,9.21041870117188,9.23548221588135,9.26068115234375,9.26807975769043,9.26825618743896,9.2684326171875,9.26860904693604,9.26878547668457,9.26896190643311,9.26913833618164,9.26931476593018,9.26949214935303,9.26966857910156,9.2698450088501,9.27002143859863,9.27019786834717,9.2703742980957,9.27055072784424,9.27072715759277,9.27090454101562,9.27108001708984,9.27125644683838,9.27143287658691,9.27160835266113,9.27178478240967,9.2719612121582,9.27213764190674,9.27231311798096,9.27248954772949,9.27266597747803,9.27284240722656,9.27301788330078,9.27319431304932,9.27337074279785,9.27354717254639,9.27372360229492,9.27389907836914,9.27407550811768,9.27425193786621,9.27442836761475,9.27460479736328,9.27478122711182,9.27495670318604,9.27513313293457,9.27531147003174,9.27549076080322,9.27566909790039,9.27584743499756,9.27602577209473,9.27620410919189,9.27638339996338,9.27656173706055,9.27674007415771,9.27691841125488,9.27709770202637,9.27727603912354,9.2774543762207,9.27763271331787,9.27781200408936,9.27799034118652,9.27816867828369,9.27834796905518,9.27852630615234,9.27870464324951,9.27888298034668,9.27906227111816,9.27924060821533,9.2794189453125,9.27959823608398,9.27977657318115,9.27995586395264,9.2801342010498,9.28031253814697,9.28049182891846,9.28067016601562,9.28084850311279,9.28102779388428,9.28120613098145,9.28138542175293,9.28156471252441,9.28174304962158,9.28192234039307,9.28210067749023,9.28227996826172,9.28245830535889,9.28263759613037,8.78855323791504,8.78872776031494,8.78890514373779,8.78908348083496,8.78926181793213,8.7894401550293,8.78961849212646,8.78979682922363,8.78995037078857,8.79009819030762,8.79024505615234,8.79038429260254,8.79051971435547,8.79069232940674,8.79086971282959,8.79104614257812,8.79688453674316,8.83001708984375,8.86340045928955,8.89703750610352,8.93093109130859,8.96508312225342,8.99949741363525,9.03417778015137,9.06912612915039,9.10434532165527,9.13983917236328,9.17561054229736,9.2116641998291,9.24800205230713,9.28462696075439,9.32154369354248,9.35875511169434,9.39626502990723,9.4340763092041,9.47219276428223,9.51061820983887,9.54935741424561,9.58841323852539,9.62778949737549,9.66749095916748,9.70751953125,9.74787998199463,9.7885799407959,9.82961845397949,9.87100410461426,9.91273880004883,9.95482921600342,9.99727821350098,10.0400896072388,10.083270072937,10.126823425293,10.1707553863525,10.2150688171387,10.2597713470459,10.3048667907715,10.3503589630127,10.3962564468384,10.4425611495972,10.4892816543579,10.5364208221436,10.5839862823486,10.6319828033447,10.6804170608521,10.7292947769165,10.7786207199097,10.8284034729004,10.8786478042603
8.73671436309814,8.7322359085083,8.72776126861572,8.72328853607178,8.71882057189941,8.71435737609863,8.70989799499512,8.7054443359375,8.69519805908203,8.68372440338135,8.67228031158447,8.66086673736572,8.6494836807251,8.63813018798828,8.62680625915527,8.61551284790039,8.604248046875,8.59301280975342,8.58180713653564,8.57063102722168,8.55948352813721,8.54836463928223,8.53727436065674,8.52621364593506,8.51518154144287,8.50417709350586,8.49320220947266,8.48225498199463,8.47133636474609,8.48929119110107,8.50972270965576,8.53025245666504,8.55088233947754,8.57161140441895,8.59244251251221,8.61337375640869,8.63440799713135,8.65554428100586,8.67678546905518,8.69813060760498,8.71005821228027,8.71022891998291,8.71040058135986,8.7105712890625,8.71074199676514,8.71091365814209,8.71108436584473,8.71125507354736,8.71142673492432,8.71159744262695,8.71176910400391,8.71193981170654,8.71211051940918,8.71228218078613,8.71245288848877,8.71262741088867,8.71399879455566,8.73642826080322,8.75897407531738,8.78163719177246,8.80441665649414,8.82731533050537,8.85033321380615,8.8734712600708,8.89673137664795,8.9201135635376,8.94361877441406,8.96724796295166,8.99100303649902,9.01488399505615,9.03889274597168,9.06302928924561,9.08729553222656,9.11169147491455,9.1362190246582,9.16087913513184,9.18567276000977,9.20631504058838,9.20648860931396,9.20666313171387,9.20683670043945,9.20701122283936,9.20718574523926,9.20735931396484,9.20753383636475,9.20770835876465,9.20788192749023,9.20805644989014,9.20823097229004,9.20840454101562,9.20857906341553,9.20875358581543,9.20892715454102,9.20910167694092,9.20927619934082,9.20944976806641,9.20962429046631,9.20979881286621,9.2099723815918,9.21014595031738,9.21032047271729,9.21049404144287,9.21066761016846,9.21084117889404,9.21101570129395,9.21118927001953,9.21136283874512,9.21153736114502,9.21171092987061,9.21188449859619,9.21205902099609,9.21223258972168,9.21240711212158,9.21258068084717,9.21275424957275,9.21292877197266,9.21310234069824,9.21327686309814,9.21345043182373,9.21362400054932,9.21379852294922,9.2139720916748,9.21414661407471,9.21432018280029,9.2144947052002,9.21466827392578,9.21484184265137,9.2150182723999,9.21519470214844,9.21537113189697,9.21554756164551,9.21572303771973,9.21589946746826,9.2160758972168,9.21625232696533,9.21642780303955,9.21660423278809,9.21678066253662,9.21695709228516,9.21713352203369,9.21730995178223,9.21748638153076,9.21766185760498,9.21783828735352,9.21801471710205,9.21819114685059,9.21836757659912,9.21854400634766,9.21872043609619,9.21889686584473,9.21907234191895,9.21924877166748,9.21942520141602,9.21960163116455,9.21977806091309,9.21995449066162,9.22013092041016,9.22030735015869,9.22048377990723,9.22066020965576,9.22083759307861,8.73005104064941,8.7302131652832,8.73038864135742,8.73056411743164,8.73073959350586,8.73091602325439,8.73109149932861,8.73126792907715,8.73143577575684,8.73158168792725,8.73172664642334,8.73186683654785,8.73200225830078,8.73215579986572,8.73233318328857,8.73250770568848,8.7326831817627,8.76423263549805,8.79712009429932,8.83025455474854,8.86363983154297,8.89727878570557,8.93117427825928,8.96532726287842,8.9997444152832,9.03442668914795,9.06937599182129,9.10459804534912,9.14009380340576,9.17586708068848,9.21192264556885,9.24826240539551,9.28489017486572,9.32180881500244,9.35902214050293,9.39653396606445,9.43434715270996,9.47246551513672,9.51089382171631,9.54963397979736,9.58869171142578,9.62806987762451,9.66777229309082,9.70780277252197,9.74816703796387,9.78886795043945,9.82991027832031,9.87129783630371,9.91303539276123,9.95512771606445,9.99757862091064,10.0403938293457,10.0835771560669,10.1271324157715,10.171067237854,10.2153835296631,10.2600879669189,10.3051862716675,10.350682258606,10.3965816497803,10.4428901672363,10.4896125793457,10.5367555618286,10.5843238830566,10.63232421875,10.6807613372803,10.7296409606934,10.7789707183838,10.8287572860718,10.8790044784546
8.70186233520508,8.69741916656494,8.69298076629639,8.68854713439941,8.68411731719971,8.67969226837158,8.67526912689209,8.67084980010986,8.66643619537354,8.66202545166016,8.65762042999268,8.65321922302246,8.64882278442383,8.63817405700684,8.62685012817383,8.61555576324463,8.60429191589355,8.59305667877197,8.58185005187988,8.57067394256592,8.55952644348145,8.54840755462646,8.53731727600098,8.5262565612793,8.51522350311279,8.5042200088501,8.49324417114258,8.48229694366455,8.47137832641602,8.48943519592285,8.50986671447754,8.53039836883545,8.55102825164795,8.57175827026367,8.59258937835693,8.61352157592773,8.63455677032471,8.65242576599121,8.65259456634521,8.65276336669922,8.65293216705322,8.65310096740723,8.65326976776123,8.65343856811523,8.65360736846924,8.65377616882324,8.65394496917725,8.65411376953125,8.65428256988525,8.65445137023926,8.65462112426758,8.65478897094727,8.65495872497559,8.65513134002686,8.66964244842529,8.69184398651123,8.71415996551514,8.73659133911133,8.7591381072998,8.78180122375488,8.8045825958252,8.82748126983643,8.85050010681152,8.8736400604248,8.89690017700195,8.92028331756592,8.9437894821167,8.96741962432861,8.99117565155029,9.01505851745605,9.0390682220459,9.06320571899414,9.08747291564941,9.11186981201172,9.13639831542969,9.14553928375244,9.14571094512939,9.14588260650635,9.14605522155762,9.14622688293457,9.14639854431152,9.14657020568848,9.14674186706543,9.1469144821167,9.14708614349365,9.14725780487061,9.14742946624756,9.14760208129883,9.14777374267578,9.14794540405273,9.148118019104,9.14828968048096,9.14846134185791,9.14863300323486,9.14880561828613,9.14897727966309,9.14914894104004,9.14932155609131,9.14949321746826,9.14966487884521,9.14983654022217,9.15000820159912,9.15017986297607,9.15035152435303,9.15052223205566,9.15069389343262,9.15086555480957,9.15103721618652,9.15120887756348,9.15138053894043,9.15155220031738,9.15172386169434,9.15189552307129,9.15206718444824,9.1522388458252,9.15241050720215,9.1525821685791,9.15275382995605,9.15292549133301,9.15309715270996,9.15326881408691,9.15344047546387,9.15361213684082,9.15378379821777,9.15395545959473,9.154128074646,9.15429973602295,9.1544713973999,9.15464305877686,9.15481472015381,9.15498638153076,9.15515804290771,9.15532970428467,9.15550422668457,9.15567779541016,9.15585231781006,9.15602588653564,9.15619945526123,9.15637397766113,9.15654754638672,9.15672206878662,9.15689563751221,9.15706920623779,9.1572437286377,9.15741729736328,9.15759181976318,9.15776538848877,9.15793991088867,9.15811347961426,9.15828800201416,9.15846157073975,9.15863609313965,9.15880966186523,9.15898418426514,9.15915775299072,9.15933227539062,9.15950584411621,9.15968036651611,9.1598539352417,8.67232322692871,8.67248344421387,8.67264556884766,8.67281913757324,8.67299270629883,8.6731653213501,8.67333889007568,8.67351341247559,8.67368602752686,8.67383766174316,8.67398166656494,8.6741247177124,8.67425918579102,8.67439556121826,8.67457103729248,8.67474460601807,8.67491626739502,8.69942188262939,8.73182392120361,8.76446723937988,8.79735660552979,8.83049201965332,8.86387920379639,8.89752006530762,8.93141651153564,8.96557235717773,8.99999141693115,9.03467464447021,9.0696268081665,9.10485076904297,9.14034843444824,9.17612457275391,9.21218109130859,9.2485237121582,9.28515338897705,9.3220739364624,9.35928821563721,9.39680194854736,9.4346170425415,9.47273826599121,9.51116752624512,9.54991149902344,9.58897018432617,9.62834930419922,9.66805458068848,9.70808696746826,9.74845409393311,9.78915691375732,9.83020114898682,9.87159156799316,9.91333198547363,9.95542621612549,9.99787998199463,10.0406980514526,10.0838832855225,10.1274423599243,10.1713790893555,10.2156982421875,10.2604055404663,10.3055067062378,10.3510055541992,10.3969078063965,10.4432191848755,10.4899444580078,10.5370903015137,10.5846614837646,10.632664680481,10.6811046600342,10.7299880981445,10.7793216705322,10.8291101455688,10.8793611526489
