8.81304836273193,8.79907512664795,8.7851448059082,8.77125930786133,8.75741672515869,8.74361801147461,8.72986221313477,8.71615028381348,8.70248126983643,8.6888542175293,8.67527008056641,8.66172885894775,8.64822959899902,8.63477230072021,8.62135696411133,8.60798358917236,8.594651222229,8.58135986328125,8.5681095123291,8.55490016937256,8.54173183441162,8.52860355377197,8.51551628112793,8.50246810913086,8.48945999145508,8.47649192810059,8.46356391906738,8.45067501068115,8.43782520294189,8.42501354217529,8.41224193572998,8.39950847625732,8.38681316375732,8.3741569519043,8.36153888702393,8.34895801544189,8.33641529083252,8.3239107131958,8.31144237518311,8.29901218414307,8.28661823272705,8.27426242828369,8.26194286346436,8.27780151367188,8.29459285736084,8.31145191192627,8.3283805847168,8.34537792205811,8.3624439239502,8.3795804977417,8.39678764343262,8.41406536102295,8.43141460418701,8.4488353729248,8.46632862091064,8.48389434814453,8.50153255462646,8.51924514770508,8.53703117370605,8.55489158630371,8.57282638549805,8.5908374786377,8.60892391204834,8.6270866394043,8.64532566070557,8.66364288330078,8.68203735351562,8.70051097869873,8.71906280517578,8.73769378662109,8.75640487670898,8.77519512176514,8.7940673828125,8.81302070617676,8.83205604553223,8.85117340087891,8.87037372589111,8.88965797424316,8.90902614593506,8.92847919464111,8.94801616668701,8.9676399230957,8.98734951019287,9.00714588165283,9.0270299911499,9.04700183868408,9.06706237792969,9.08721256256104,9.10745143890381,9.12778186798096,9.14820194244385,9.16871452331543,9.1893196105957,9.21001625061035,9.23080730438232,9.2516918182373,9.27267169952393,9.29374694824219,9.31491756439209,9.33618545532227,9.3575496673584,9.37901306152344,9.38944339752197,9.38951778411865,9.38959312438965,9.38966846466064,9.38974380493164,9.38981914520264,9.38989448547363,9.38996982574463,9.39005470275879,9.39014053344727,9.39022541046143,9.39031028747559,9.39039516448975,9.39048099517822,9.39056301116943,9.39064311981201,9.39072322845459,9.39080333709717,9.41301727294922,9.43564128875732,9.4583740234375,9.48121738433838,9.50417041778564,9.52723503112793,9.55041217803955,9.57370185852051,9.59710597991943,9.62062454223633,9.64425849914551,9.66801357269287,9.69188690185547,9.7158784866333,9.73998928070068,9.76422023773193,9.78857135772705,9.81304550170898,9.83764171600342,9.86236095428467,9.88720512390137,9.91217517852783,9.92034244537354,9.92042922973633,9.92051601409912,9.92060279846191,9.92068958282471,9.9207763671875,9.92086315155029,9.92094993591309,9.92103672027588,9.92112350463867,9.92121028900146,9.92129707336426,9.92138290405273,9.92146873474121,9.92155456542969,9.92164039611816,9.92172718048096,9.92181301116943,9.92189884185791,9.92198467254639,9.92207145690918,9.92215728759766,9.92224311828613,9.92232990264893,9.92241859436035,9.92250728607178,9.9225959777832,9.92268466949463,9.92277336120605,9.9228630065918,9.92295169830322,9.92304039001465,9.92312908172607,9.9232177734375,9.92330646514893,9.92339515686035,9.92348384857178,9.9235725402832,9.92366123199463,9.92374992370605,9.9238395690918,9.92392826080322,9.92401695251465,9.92410564422607,9.9241943359375,9.92428302764893,9.92437171936035,9.92446041107178,9.9245491027832,9.92463874816895,9.92472743988037,9.9248161315918,9.92490482330322,9.92499351501465,9.92508220672607,9.9251708984375,9.92526054382324,9.92534923553467,9.92543792724609,9.92552661895752,9.92561531066895,9.92570400238037,9.9257926940918,9.92588138580322,9.92597103118896,9.92605972290039,9.92614841461182,9.92623710632324,9.92632484436035,9.92641353607178,9.92650127410889,9.926589012146,9.92667675018311,9.92676448822021,9.92685222625732,9.92693996429443,9.92702865600586,9.92711639404297,9.92720413208008,9.92729187011719,9.9273796081543,9.92746829986572,9.92755603790283,9.92764377593994,9.92773151397705,9.92781925201416,9.92790794372559,9.9279956817627,9.9280834197998,9.92817115783691,9.40003967285156,9.40015602111816,9.40027236938477,9.40038871765137,9.40048408508301,9.40051651000977,9.40054893493652,9.40059375762939
8.81310558319092,8.79913139343262,8.78520107269287,8.771315574646,8.75747299194336,8.74367332458496,8.72991752624512,8.71620559692383,8.70253562927246,8.68890953063965,8.67532539367676,8.66178321838379,8.64828395843506,8.63482666015625,8.62141132354736,8.60803699493408,8.59470462799072,8.58141326904297,8.56816291809082,8.55495357513428,8.54178524017334,8.52865695953369,8.51556873321533,8.50252056121826,8.4895133972168,8.47654438018799,8.46361637115479,8.45072650909424,8.43787670135498,8.4250659942627,8.41229343414307,8.39955997467041,8.38686466217041,8.37420845031738,8.3615894317627,8.34900856018066,8.33646583557129,8.32396125793457,8.31149291992188,8.29906272888184,8.28666877746582,8.27431201934814,8.26199245452881,8.27792739868164,8.29471874237061,8.31157875061035,8.32850742340088,8.34550476074219,8.36257171630859,8.37970924377441,8.39691638946533,8.41419506072998,8.43154525756836,8.44896602630615,8.46645927429199,8.4840259552002,8.50166511535645,8.51937770843506,8.53716373443604,8.55502510070801,8.57296085357666,8.59097194671631,8.60905933380127,8.62722206115723,8.64546298980713,8.66378021240234,8.6821756362915,8.70064926147461,8.71920108795166,8.73783302307129,8.75654411315918,8.77533626556396,8.79420852661133,8.8131628036499,8.83219814300537,8.85131645202637,8.87051773071289,8.88980293273926,8.90917110443115,8.92862415313721,8.94816303253174,8.96778678894043,8.98749732971191,9.00729465484619,9.02717876434326,9.04715156555176,9.06721305847168,9.08736324310303,9.10760307312012,9.12793350219727,9.14835548400879,9.16886806488037,9.18947315216064,9.21017169952393,9.2309627532959,9.2518482208252,9.27282905578613,9.29390430450439,9.31507587432861,9.32288646697998,9.32296085357666,9.32303524017334,9.3231086730957,9.32318305969238,9.32325744628906,9.32333183288574,9.32340621948242,9.32348442077637,9.32356834411621,9.32365226745605,9.3237361907959,9.32382011413574,9.32390403747559,9.32398796081543,9.32406997680664,9.3241491317749,9.32422828674316,9.34595012664795,9.36825275421143,9.39066219329834,9.41317844390869,9.43580341339111,9.45853710174561,9.48138046264648,9.50433444976807,9.52740001678467,9.55057811737061,9.57386875152588,9.5972728729248,9.62079524993896,9.64443588256836,9.66819381713867,9.69206809997559,9.71606063842773,9.74017238616943,9.764404296875,9.78875637054443,9.81323051452637,9.83782768249512,9.85000801086426,9.85009384155273,9.85017967224121,9.85026454925537,9.85035037994385,9.85043621063232,9.85052108764648,9.85060691833496,9.85069274902344,9.85077857971191,9.85086345672607,9.85094928741455,9.85103511810303,9.85111999511719,9.85120582580566,9.85129165649414,9.8513765335083,9.85146141052246,9.85154628753662,9.85163116455078,9.85171604156494,9.8518009185791,9.85188579559326,9.85197067260742,9.85205554962158,9.85213947296143,9.85222434997559,9.85230922698975,9.85239410400391,9.85247898101807,9.85256385803223,9.85264873504639,9.85273456573486,9.85282230377197,9.85290908813477,9.85299682617188,9.85308456420898,9.85317230224609,9.8532600402832,9.853346824646,9.85343456268311,9.85352230072021,9.85361003875732,9.85369777679443,9.85378456115723,9.85387229919434,9.85396003723145,9.85404777526855,9.85413455963135,9.85422229766846,9.85431003570557,9.85439777374268,9.85448551177979,9.85457229614258,9.85466003417969,9.8547477722168,9.85483551025391,9.85492324829102,9.85501098632812,9.85509777069092,9.85518550872803,9.85527324676514,9.85536098480225,9.85544872283936,9.85553550720215,9.85562324523926,9.85571098327637,9.85579872131348,9.85588645935059,9.8559741973877,9.85606098175049,9.8561487197876,9.85623645782471,9.8563232421875,9.85641002655029,9.85649681091309,9.85658359527588,9.85666942596436,9.85675621032715,9.85684299468994,9.85692977905273,9.85701656341553,9.85710334777832,9.85719013214111,9.85727691650391,9.85736274719238,9.85744953155518,9.85753631591797,9.85762310028076,9.85770988464355,9.85779666900635,9.33340835571289,9.33352279663086,9.33363723754883,9.3337516784668,9.33386421203613,9.33389568328857,9.33392715454102,9.33396339416504,9.33404731750488,9.33413600921631
8.81316184997559,8.79918766021729,8.78525733947754,8.77137184143066,8.75752830505371,8.74372959136963,8.72997379302979,8.71626091003418,8.70259094238281,8.68896484375,8.67537975311279,8.66183853149414,8.64833831787109,8.63488101959229,8.6214656829834,8.60809135437012,8.59475803375244,8.58146667480469,8.56821632385254,8.555006980896,8.54183769226074,8.52870941162109,8.51562118530273,8.50257396697998,8.4895658493042,8.47659683227539,8.46366786956787,8.45077896118164,8.43792819976807,8.42511749267578,8.41234493255615,8.3996114730835,8.3869161605835,8.37425899505615,8.36164093017578,8.34906005859375,8.33651638031006,8.32401180267334,8.31154346466064,8.29911231994629,8.28671932220459,8.27436256408691,8.26204204559326,8.27805233001709,8.29484462738037,8.31170463562012,8.32863426208496,8.34563255310059,8.36269950866699,8.37983798980713,8.39704608917236,8.41432476043701,8.43167495727539,8.4490966796875,8.46659088134766,8.48415756225586,8.50179672241211,8.51951026916504,8.53729724884033,8.5551586151123,8.57309532165527,8.59110736846924,8.6091947555542,8.62735843658447,8.64559936523438,8.66391754150391,8.68231296539307,8.70078754425049,8.71934032440186,8.73797225952148,8.75668430328369,8.77547740936279,8.79435062408447,8.81330490112305,8.83234119415283,8.85145950317383,8.87066173553467,8.88994693756104,8.90931606292725,8.92877006530762,8.94830894470215,8.96793365478516,8.98764514923096,9.00744247436523,9.02732849121094,9.04730129241943,9.06736278533936,9.08751392364502,9.10775470733643,9.12808609008789,9.14850807189941,9.16902160644531,9.1896276473999,9.21032619476318,9.23111915588379,9.25200462341309,9.25726699829102,9.25734043121338,9.25741291046143,9.25748634338379,9.25755977630615,9.2576322555542,9.25770568847656,9.25777912139893,9.25785255432129,9.2579345703125,9.25801753997803,9.25809955596924,9.25818252563477,9.25826549530029,9.25834846496582,9.25843048095703,9.25851249694824,9.25858974456787,9.2798318862915,9.30181980133057,9.32391166687012,9.34610843658447,9.36841201782227,9.39082145690918,9.41333866119385,9.43596458435059,9.45869922637939,9.48154354095459,9.50449848175049,9.52756500244141,9.55074310302734,9.57403659820557,9.59744834899902,9.62097358703613,9.64461517333984,9.66837310791016,9.69224834442139,9.71624183654785,9.74035453796387,9.76458740234375,9.78066444396973,9.78074836730957,9.78083324432373,9.78091716766357,9.78100204467773,9.78108596801758,9.78117084503174,9.78125476837158,9.78133869171143,9.78142356872559,9.78150749206543,9.78159236907959,9.78167629241943,9.78176116943359,9.78184509277344,9.7819299697876,9.78201389312744,9.7820987701416,9.78218269348145,9.78226757049561,9.78235149383545,9.78243446350098,9.78251838684082,9.78260231018066,9.78268527984619,9.78276920318604,9.78285312652588,9.78293704986572,9.78302001953125,9.78310394287109,9.78318786621094,9.78327083587646,9.78335475921631,9.78343868255615,9.783522605896,9.78360557556152,9.78368949890137,9.78377342224121,9.78385734558105,9.78394031524658,9.78402423858643,9.78410816192627,9.78419494628906,9.78428077697754,9.78436756134033,9.78445339202881,9.7845401763916,9.78462600708008,9.78471279144287,9.78479862213135,9.78488540649414,9.78497123718262,9.78505802154541,9.78514385223389,9.78523063659668,9.78531646728516,9.78540325164795,9.78548908233643,9.78557586669922,9.7856616973877,9.78574848175049,9.78583526611328,9.78592109680176,9.78600788116455,9.78609371185303,9.78618049621582,9.7862663269043,9.78635311126709,9.78643894195557,9.78652572631836,9.78661155700684,9.78669834136963,9.78678512573242,9.7868709564209,9.78695774078369,9.78704357147217,9.78713035583496,9.78721618652344,9.7873010635376,9.78738689422607,9.78747272491455,9.78755760192871,9.78764343261719,9.78772830963135,9.78781414031982,9.7878999710083,9.78798484802246,9.78807067871094,9.78815650939941,9.78824138641357,9.78832721710205,9.26760101318359,9.26771354675293,9.26782703399658,9.26793956756592,9.26805305480957,9.26816558837891,9.26821231842041,9.26824378967285,9.26827526092529,9.26835441589355,9.26843643188477,9.26855945587158,9.26864624023438
8.81321907043457,8.79924392700195,8.78531360626221,8.77142715454102,8.75758457183838,8.74378490447998,8.73002910614014,8.71631622314453,8.70264625549316,8.68901920318604,8.67543506622314,8.66189289093018,8.64839363098145,8.63493537902832,8.62152004241943,8.60814476013184,8.59481239318848,8.58152103424072,8.56826972961426,8.55506038665771,8.54189109802246,8.52876281738281,8.51567459106445,8.50262641906738,8.4896183013916,8.47664928436279,8.46372032165527,8.45083045959473,8.43798065185547,8.42516899108887,8.41239643096924,8.39966297149658,8.38696765899658,8.37431049346924,8.36169147491455,8.34911060333252,8.33656787872314,8.32406234741211,8.31159400939941,8.29916286468506,8.28676891326904,8.27441215515137,8.26209163665771,8.27817726135254,8.29497051239014,8.3118314743042,8.32876110076904,8.34575939178467,8.36282730102539,8.37996578216553,8.39717483520508,8.41445446014404,8.43180465698242,8.44922733306885,8.466721534729,8.48428916931152,8.50192928314209,8.51964282989502,8.53743076324463,8.5552921295166,8.57322978973389,8.59124183654785,8.60933017730713,8.62749481201172,8.64573574066162,8.66405487060547,8.68245124816895,8.70092582702637,8.71947956085205,8.738112449646,8.7568244934082,8.7756175994873,8.7944917678833,8.81344699859619,8.83248329162598,8.85160350799561,8.87080574035645,8.89009189605713,8.90946102142334,8.92891597747803,8.94845581054688,8.9680814743042,8.98779296875,9.00759124755859,9.0274772644043,9.04745101928711,9.06751346588135,9.08766555786133,9.10790634155273,9.12823867797852,9.14866065979004,9.16917514801025,9.18978214263916,9.19256496429443,9.19263648986816,9.19270896911621,9.19278049468994,9.19285297393799,9.19292545318604,9.19299697875977,9.19306945800781,9.19314193725586,9.19321823120117,9.19329929351807,9.19338130950928,9.19346237182617,9.19354438781738,9.19362640380859,9.19370746612549,9.1937894821167,9.19386959075928,9.21464252471924,9.2363224029541,9.25810432434082,9.27998828887939,9.30197715759277,9.32406902313232,9.34626770019531,9.36857128143311,9.39098167419434,9.41349983215332,9.43612575531006,9.45886135101318,9.4817066192627,9.50466251373291,9.52773094177246,9.55091571807861,9.57421398162842,9.59762573242188,9.6211519241333,9.64479446411133,9.66855335235596,9.6924295425415,9.71228981018066,9.71237277984619,9.71245670318604,9.71253967285156,9.71262264251709,9.71270561218262,9.71278858184814,9.71287250518799,9.71295547485352,9.71303844451904,9.71312141418457,9.7132043838501,9.71328830718994,9.71337127685547,9.713454246521,9.71353721618652,9.71362113952637,9.71370410919189,9.71378707885742,9.71387004852295,9.71395397186279,9.71403694152832,9.71411991119385,9.71420288085938,9.7142858505249,9.71436882019043,9.71445083618164,9.71453380584717,9.71461582183838,9.71469879150391,9.71478080749512,9.71486377716064,9.71494579315186,9.71502876281738,9.71511077880859,9.71519374847412,9.71527576446533,9.71535873413086,9.71544075012207,9.7155237197876,9.71560668945312,9.71568870544434,9.71577167510986,9.71585369110107,9.7159366607666,9.71601867675781,9.71610164642334,9.71618366241455,9.71626663208008,9.71634864807129,9.71643161773682,9.71651649475098,9.71660232543945,9.71668720245361,9.71677207946777,9.71685695648193,9.71694278717041,9.71702766418457,9.71711254119873,9.71719741821289,9.71728324890137,9.71736812591553,9.71745300292969,9.71753883361816,9.71762371063232,9.71770858764648,9.71779346466064,9.71787929534912,9.71796417236328,9.71804904937744,9.71813488006592,9.71821975708008,9.71830463409424,9.7183895111084,9.71847534179688,9.71856021881104,9.7186450958252,9.71873092651367,9.71881580352783,9.71890068054199,9.71898651123047,9.71907138824463,9.71915531158447,9.71924018859863,9.71932411193848,9.71940803527832,9.71949291229248,9.71957683563232,9.71966075897217,9.71974563598633,9.71982955932617,9.71991348266602,9.20283126831055,9.20293807983398,9.203049659729,9.20316028594971,9.20327186584473,9.20338344573975,9.20344734191895,9.20347785949707,9.20350933074951,9.20357990264893,9.20365715026855,9.20377731323242,9.20386600494385,9.20394325256348,9.20402050018311
8.81327629089355,8.79930019378662,8.78536987304688,8.77148342132568,8.75764083862305,8.74384117126465,8.73008441925049,8.71637153625488,8.70270156860352,8.68907451629639,8.67548942565918,8.66194725036621,8.64844799041748,8.63498973846436,8.62157344818115,8.60819911956787,8.5948657989502,8.58157444000244,8.56832408905029,8.55511379241943,8.54194450378418,8.52881526947021,8.51572704315186,8.50267887115479,8.489670753479,8.4767017364502,8.46377277374268,8.45088291168213,8.43803215026855,8.42522048950195,8.41244792938232,8.39971446990967,8.38701820373535,8.37436103820801,8.36174201965332,8.34916114807129,8.33661842346191,8.32411289215088,8.31164455413818,8.29921340942383,8.28681945800781,8.27446174621582,8.26214218139648,8.2783031463623,8.29509544372559,8.31195735931396,8.32888793945312,8.34588718414307,8.36295509338379,8.38009452819824,8.39730358123779,8.41458320617676,8.43193435668945,8.4493579864502,8.46685314178467,8.48442077636719,8.50206089019775,8.519775390625,8.53756332397461,8.55542659759521,8.5733642578125,8.59137630462646,8.60946559906006,8.62763023376465,8.64587211608887,8.66419219970703,8.68258857727051,8.70106410980225,8.71961784362793,8.73825168609619,8.75696468353271,8.77575874328613,8.79463291168213,8.81358909606934,8.83262634277344,8.85174655914307,8.87094974517822,8.89023590087891,8.90960597991943,8.92906188964844,8.94860172271729,8.96822834014893,8.98793983459473,9.00773906707764,9.02762603759766,9.04760074615479,9.06766414642334,9.08781623840332,9.10805797576904,9.12839031219482,9.12876033782959,9.12883186340332,9.12890243530273,9.12897396087646,9.12904453277588,9.12911605834961,9.12918758392334,9.12925815582275,9.12932968139648,9.1294002532959,9.12948036193848,9.12956047058105,9.12964153289795,9.12972164154053,9.12980270385742,9.1298828125,9.12996292114258,9.13004398345947,9.15036201477051,9.17174053192139,9.19321823120117,9.2147970199585,9.23647689819336,9.25825977325439,9.28014469146729,9.30213356018066,9.32422733306885,9.34642601013184,9.36873054504395,9.39114189147949,9.41366004943848,9.43628787994385,9.45902347564697,9.4818696975708,9.50483226776123,9.52790546417236,9.55109119415283,9.57439041137695,9.59780311584473,9.62133026123047,9.64486503601074,9.64494705200195,9.64502906799316,9.64511108398438,9.64519309997559,9.6452751159668,9.64535713195801,9.64543914794922,9.64552116394043,9.64560317993164,9.64568519592285,9.64576721191406,9.64584922790527,9.64593124389648,9.6460132598877,9.64609527587891,9.64617729187012,9.64625930786133,9.64634132385254,9.64642333984375,9.64650535583496,9.64658737182617,9.64666938781738,9.64675140380859,9.6468334197998,9.64691543579102,9.64699745178223,9.64708042144775,9.64716148376465,9.64724349975586,9.64732456207275,9.64740562438965,9.64748764038086,9.64756870269775,9.64764976501465,9.64773178100586,9.64781284332275,9.64789390563965,9.64797592163086,9.64805698394775,9.64813804626465,9.64822006225586,9.64830112457275,9.64838218688965,9.64846420288086,9.64854526519775,9.64862632751465,9.64870834350586,9.64878940582275,9.64887046813965,9.64895248413086,9.64903354644775,9.64911460876465,9.64919662475586,9.64927768707275,9.64935874938965,9.64944076538086,9.64952182769775,9.64960289001465,9.64968490600586,9.6497688293457,9.64985275268555,9.64993667602539,9.65002059936523,9.65010452270508,9.65018844604492,9.65027236938477,9.65035629272461,9.65044021606445,9.6505241394043,9.65060806274414,9.6506929397583,9.65077590942383,9.65085983276367,9.65094470977783,9.65102863311768,9.65111255645752,9.65119647979736,9.65128040313721,9.65136432647705,9.65144824981689,9.65153217315674,9.65161609649658,9.65170001983643,9.65178394317627,9.65186786651611,9.65195178985596,9.65203475952148,9.65211868286133,9.65220165252686,9.65228462219238,9.65236759185791,9.65245056152344,9.1389741897583,9.13906097412109,9.1391716003418,9.13928127288818,9.13939094543457,9.13950061798096,9.13958072662354,9.13961124420166,9.13964176177979,9.13970375061035,9.13978385925293,9.13989448547363,9.13998603820801,9.140061378479,9.14013767242432,9.14021301269531,9.14028930664062
8.81333351135254,8.79935741424561,8.78542613983154,8.77153968811035,8.7576961517334,8.743896484375,8.73013973236084,8.71642684936523,8.70275688171387,8.68912982940674,8.67554473876953,8.66200256347656,8.64850234985352,8.63504409790039,8.62162780761719,8.60825347900391,8.59492015838623,8.58162784576416,8.56837749481201,8.55516719818115,8.5419979095459,8.52886867523193,8.51578044891357,8.50273132324219,8.48972320556641,8.4767541885376,8.46382522583008,8.45093536376953,8.43808460235596,8.42527294158936,8.41249942779541,8.39976596832275,8.38706970214844,8.37441253662109,8.36179351806641,8.34921169281006,8.33666896820068,8.32416343688965,8.31169414520264,8.2992639541626,8.28686904907227,8.27451229095459,8.26219177246094,8.27842807769775,8.29522132873535,8.31208324432373,8.32901382446289,8.34601402282715,8.3630838394165,8.38022232055664,8.39743232727051,8.41471290588379,8.4320650100708,8.44948768615723,8.46698379516602,8.48455238342285,8.50219345092773,8.51990795135498,8.53769683837891,8.55556011199951,8.5734977722168,8.59151172637939,8.60960102081299,8.62776660919189,8.64600944519043,8.66432952880859,8.68272686004639,8.70120239257812,8.71975708007812,8.73839092254639,8.75710487365723,8.77589893341064,8.79477405548096,8.81373023986816,8.83276844024658,8.85188961029053,8.87109279632568,8.890380859375,8.90975189208984,8.92920780181885,8.94874858856201,8.96837520599365,8.98808765411377,9.007887840271,9.02777481079102,9.04775047302246,9.06576538085938,9.06583595275879,9.06590557098389,9.0659761428833,9.06604671478271,9.06611633300781,9.06618690490723,9.06625652313232,9.06632709503174,9.06639766693115,9.06646728515625,9.06654071807861,9.06662082672119,9.06669998168945,9.06677913665771,9.06685829162598,9.06693840026855,9.06701755523682,9.06709671020508,9.08696842193604,9.10805320739746,9.12923431396484,9.15051364898682,9.17189311981201,9.19337177276611,9.21495151519775,9.23663234710693,9.25841522216797,9.28030109405518,9.30229091644287,9.32438468933105,9.34658432006836,9.36888980865479,9.39130210876465,9.41382122039795,9.43644905090332,9.45919132232666,9.48204326629639,9.50500583648682,9.52807998657227,9.55126667022705,9.57456684112549,9.57845020294189,9.57853126525879,9.57861232757568,9.57869338989258,9.57877349853516,9.57885456085205,9.57893562316895,9.57901668548584,9.57909774780273,9.57917881011963,9.57925987243652,9.5793399810791,9.579421043396,9.57950210571289,9.57958316802979,9.57966423034668,9.57974529266357,9.57982540130615,9.57990646362305,9.57998752593994,9.58006858825684,9.58014965057373,9.58023071289062,9.58031177520752,9.5803918838501,9.58047294616699,9.58055400848389,9.58063507080078,9.58071613311768,9.58079719543457,9.58087825775146,9.58095836639404,9.58103942871094,9.58111953735352,9.58119964599609,9.58127975463867,9.58136081695557,9.58144092559814,9.58152103424072,9.5816011428833,9.58168125152588,9.58176136016846,9.58184146881104,9.58192253112793,9.58200263977051,9.58208274841309,9.58216285705566,9.58224296569824,9.58232307434082,9.58240413665771,9.58248424530029,9.58256435394287,9.58264446258545,9.58272457122803,9.58280467987061,9.5828857421875,9.58296585083008,9.58304595947266,9.58312606811523,9.58320617675781,9.58328628540039,9.58336734771729,9.58344745635986,9.58352756500244,9.58360767364502,9.5836877822876,9.58376884460449,9.58384895324707,9.5839319229126,9.58401489257812,9.58409690856934,9.58417987823486,9.58426284790039,9.58434581756592,9.58442878723145,9.58451175689697,9.5845947265625,9.58467674255371,9.58475971221924,9.58484268188477,9.58492565155029,9.58500862121582,9.58509159088135,9.58517360687256,9.58525657653809,9.58533954620361,9.58542251586914,9.58550548553467,9.5855884552002,9.58567142486572,9.58575344085693,9.58583545684814,9.58591747283936,9.07599639892578,9.07606506347656,9.07617378234863,9.07628154754639,9.07639026641846,9.07649898529053,9.07659435272217,9.07662487030029,9.0766544342041,9.07670783996582,9.0767879486084,9.07689189910889,9.07698631286621,9.07706069946289,9.07713603973389,9.07721042633057,9.07728481292725,9.07736015319824,9.09553718566895
8.81339073181152,8.79941368103027,8.78548240661621,8.77159595489502,8.75775241851807,8.74395179748535,8.73019599914551,8.71648216247559,8.70281219482422,8.68918418884277,8.67559909820557,8.6620569229126,8.64855670928955,8.63509845733643,8.62168216705322,8.60830688476562,8.59497356414795,8.5816822052002,8.56843090057373,8.55522060394287,8.54205131530762,8.52892208099365,8.51583290100098,8.50278472900391,8.48977565765381,8.476806640625,8.46387672424316,8.45098686218262,8.43813610076904,8.42532444000244,8.4125509262085,8.39981746673584,8.38712120056152,8.37446403503418,8.36184406280518,8.34926319122314,8.33671951293945,8.3242130279541,8.31174468994141,8.29931354522705,8.28691959381104,8.27456188201904,8.26224136352539,8.2785530090332,8.29534721374512,8.31221008300781,8.32914066314697,8.34614181518555,8.3632116317749,8.38035106658936,8.39756107330322,8.41484260559082,8.43219470977783,8.44961833953857,8.46711444854736,8.4846830368042,8.5023250579834,8.52004051208496,8.5378303527832,8.55569362640381,8.57363224029541,8.59164619445801,8.60973644256592,8.62790298461914,8.64614582061768,8.66446590423584,8.68286418914795,8.701340675354,8.71989631652832,8.7385311126709,8.75724506378174,8.77604007720947,8.79491519927979,8.81387233734131,8.83291149139404,8.85203266143799,8.87123680114746,8.89052486419678,8.90989685058594,8.92935276031494,8.94889450073242,8.96852207183838,8.98823547363281,9.00370311737061,9.0037727355957,9.0038423538208,9.00391101837158,9.00398063659668,9.00404930114746,9.00411891937256,9.00418758392334,9.00425720214844,9.00432682037354,9.00439548492432,9.00446510314941,9.00454235076904,9.00462055206299,9.00469875335693,9.00477695465088,9.00485515594482,9.00493335723877,9.00501155853271,9.02444648742676,9.04524230957031,9.06613349914551,9.08712005615234,9.10820388793945,9.12938499450684,9.15066623687744,9.17204570770264,9.19352531433105,9.2151050567627,9.23678684234619,9.25857067108154,9.28045749664307,9.30244731903076,9.32454299926758,9.34674263000488,9.36904907226562,9.39146137237549,9.41398620605469,9.43662071228027,9.45936298370361,9.48221683502197,9.50518035888672,9.512864112854,9.51294422149658,9.51302433013916,9.51310443878174,9.51318359375,9.51326370239258,9.51334381103516,9.51342296600342,9.513503074646,9.51358318328857,9.51366233825684,9.51374244689941,9.51382255554199,9.51390171051025,9.51398181915283,9.51406192779541,9.51414108276367,9.51422119140625,9.51430130004883,9.51438045501709,9.51446056365967,9.51454067230225,9.51461982727051,9.51469993591309,9.51478004455566,9.51486015319824,9.5149393081665,9.51501941680908,9.51509952545166,9.51517868041992,9.5152587890625,9.51533889770508,9.51541900634766,9.51549816131592,9.5155782699585,9.51565837860107,9.51573753356934,9.5158166885376,9.51589584350586,9.51597499847412,9.51605415344238,9.51613330841064,9.51621246337891,9.51629161834717,9.51637077331543,9.51644992828369,9.51652908325195,9.51660823822021,9.51668739318848,9.51676654815674,9.516845703125,9.51692485809326,9.51700401306152,9.51708316802979,9.51716327667236,9.51724243164062,9.51732063293457,9.51740074157715,9.51747989654541,9.51755905151367,9.51763820648193,9.5177173614502,9.51779651641846,9.51787567138672,9.51795482635498,9.51803398132324,9.5181131362915,9.51819229125977,9.51827144622803,9.51835060119629,9.51842975616455,9.51850891113281,9.51858806610107,9.51866722106934,9.5187463760376,9.51882553100586,9.51890468597412,9.51898670196533,9.51906871795654,9.51914978027344,9.51923179626465,9.51931381225586,9.51939487457275,9.51947689056396,9.51955890655518,9.51963996887207,9.51972198486328,9.51980400085449,9.51988506317139,9.5199670791626,9.52004909515381,9.5201301574707,9.52021217346191,9.52029418945312,9.01388168334961,9.01393699645996,9.01403903961182,9.01414585113525,9.01425266265869,9.01435947418213,9.01446628570557,9.01450061798096,9.01453018188477,9.01457595825195,9.0146541595459,9.01475238800049,9.01484870910645,9.01492214202881,9.01499652862549,9.01506996154785,9.01514434814453,9.01521778106689,9.03511619567871,9.06533813476562,9.09576320648193
8.81344699859619,8.79947090148926,8.78553867340088,8.77165222167969,8.75780773162842,8.74400806427002,8.73025131225586,8.71653747558594,8.70286750793457,8.68923950195312,8.67565441131592,8.66211128234863,8.64861106872559,8.63515281677246,8.62173652648926,8.60836124420166,8.59502792358398,8.58173561096191,8.56848430633545,8.55527400970459,8.54210376739502,8.52897453308105,8.51588535308838,8.50283718109131,8.48982810974121,8.4768590927124,8.46392917633057,8.45103931427002,8.43818759918213,8.42537593841553,8.4126033782959,8.39986801147461,8.38717269897461,8.37451457977295,8.36189556121826,8.34931373596191,8.33677005767822,8.32426357269287,8.31179523468018,8.29936408996582,8.28696918487549,8.27461242675781,8.26229095458984,8.27867889404297,8.29547309875488,8.31233596801758,8.32926750183105,8.34626865386963,8.3633394241333,8.38047981262207,8.39768981933594,8.41497135162354,8.43232440948486,8.44974899291992,8.46724605560303,8.48481464385986,8.50245761871338,8.52017307281494,8.53796291351318,8.55582714080811,8.57376670837402,8.59178161621094,8.60987186431885,8.62803840637207,8.64628219604492,8.6646032333374,8.68300247192383,8.70147895812988,8.72003555297852,8.73867034912109,8.75738525390625,8.7761812210083,8.79505729675293,8.81401443481445,8.8330545425415,8.85217571258545,8.87138080596924,8.89066886901855,8.91004180908203,8.92949867248535,8.94248580932617,8.94255352020264,8.94262218475342,8.9426908493042,8.94275856018066,8.94282722473145,8.94289493560791,8.94296360015869,8.94303131103516,8.94309997558594,8.9431676864624,8.94323635101318,8.94330787658691,8.94338512420654,8.94346237182617,8.9435396194458,8.94361686706543,8.94369411468506,8.94377136230469,8.96277904510498,8.98329162597656,9.00389766693115,9.02459812164307,9.0453929901123,9.06628322601318,9.08726978302002,9.10835456848145,9.12953662872314,9.15081787109375,9.17219829559326,9.193678855896,9.21525955200195,9.23694133758545,9.25872611999512,9.28061294555664,9.30260467529297,9.32470035552979,9.34690093994141,9.36921215057373,9.39163017272949,9.41415691375732,9.43679237365723,9.44817066192627,9.44824981689453,9.44832801818848,9.44840717315674,9.44848537445068,9.44856452941895,9.44864273071289,9.44872188568115,9.4488000869751,9.44887924194336,9.44895839691162,9.44903659820557,9.44911575317383,9.44919395446777,9.44927310943604,9.44935131072998,9.44943046569824,9.44950866699219,9.44958782196045,9.44966602325439,9.44974517822266,9.44982433319092,9.44990253448486,9.44998168945312,9.45005989074707,9.45013904571533,9.45021724700928,9.45029640197754,9.4503755569458,9.45045375823975,9.45053291320801,9.45061111450195,9.45069026947021,9.45076942443848,9.45084762573242,9.45092678070068,9.45100498199463,9.45108413696289,9.45116233825684,9.4512414932251,9.45132064819336,9.4513988494873,9.45147609710693,9.45155429840088,9.45163249969482,9.45171070098877,9.45178890228271,9.45186710357666,9.45194530487061,9.45202350616455,9.4521017074585,9.45217895507812,9.45225715637207,9.45233535766602,9.45241355895996,9.45249176025391,9.45256996154785,9.4526481628418,9.45272636413574,9.45280456542969,9.45288181304932,9.45296001434326,9.45303821563721,9.45311641693115,9.4531946182251,9.45327281951904,9.45335102081299,9.45342922210693,9.45350742340088,9.45358562469482,9.45366382598877,9.45374202728271,9.45382022857666,9.45389747619629,9.45397567749023,9.45405387878418,9.45413208007812,9.45421028137207,9.45428848266602,9.45436668395996,9.45444488525391,9.45452308654785,9.4546012878418,9.45467948913574,9.45475769042969,9.45483589172363,9.45491600036621,9.45499610900879,9.45507717132568,9.45515727996826,9.45523834228516,9.45531940460205,9.45539951324463,9.45548057556152,8.95255470275879,8.95261096954346,8.95266628265381,8.95274829864502,8.95285415649414,8.95295906066895,8.95306491851807,8.95317077636719,8.95322036743164,8.95324993133545,8.95328807830811,8.95336437225342,8.95345783233643,8.95355606079102,8.95362949371338,8.95370197296143,8.95377445220947,8.95384788513184,8.95392036437988,8.97549152374268,9.00531578063965,9.03533935546875,9.06556224822998,9.09599018096924
8.81350421905518,8.79952812194824,8.78559589385986,8.77170753479004,8.75786399841309,8.74406337738037,8.73030662536621,8.71659278869629,8.70292282104492,8.68929481506348,8.67570972442627,8.66216659545898,8.64866542816162,8.6352071762085,8.62179088592529,8.6084156036377,8.5950813293457,8.58178901672363,8.56853771209717,8.55532741546631,8.54215717315674,8.52902793884277,8.5159387588501,8.50288963317871,8.48988056182861,8.4769115447998,8.46398162841797,8.45109081268311,8.43824005126953,8.42542743682861,8.41265487670898,8.3999195098877,8.3872241973877,8.37456607818604,8.36194610595703,8.34936428070068,8.33682060241699,8.32431411743164,8.31184577941895,8.29941463470459,8.28701972961426,8.27466201782227,8.2623405456543,8.27880382537842,8.29559898376465,8.31246280670166,8.32939434051514,8.34639644622803,8.3634672164917,8.38060760498047,8.39781856536865,8.41510105133057,8.43245410919189,8.44987964630127,8.46737670898438,8.48494625091553,8.50258922576904,8.52030563354492,8.53809642791748,8.55596160888672,8.57390117645264,8.59191608428955,8.61000728607178,8.62817478179932,8.64641952514648,8.66474056243896,8.68313980102539,8.70161724090576,8.72017383575439,8.73880958557129,8.75752544403076,8.77632141113281,8.79519844055176,8.8141565322876,8.83319664001465,8.85231876373291,8.87152481079102,8.88209438323975,8.88216209411621,8.88222885131836,8.88229656219482,8.88236331939697,8.88243103027344,8.88249778747559,8.88256549835205,8.88263320922852,8.88269996643066,8.88276767730713,8.88283538818359,8.88290214538574,8.88297748565674,8.88305377960205,8.88312911987305,8.88320541381836,8.88328170776367,8.88335800170898,8.90194892883301,8.92218399047852,8.94250965118408,8.96292877197266,8.98344135284424,9.00404739379883,9.02474594116211,9.04554080963135,9.06643199920654,9.0874195098877,9.10850429534912,9.12968826293945,9.15096950531006,9.17235088348389,9.19383144378662,9.21541309356689,9.23709678649902,9.25888156890869,9.28076934814453,9.30276203155518,9.32486057281494,9.34706783294678,9.36938095092773,9.38435077667236,9.38442897796631,9.38450622558594,9.38458347320557,9.38466167449951,9.38473892211914,9.38481712341309,9.38489437103271,9.38497257232666,9.38504981994629,9.38512802124023,9.38520526885986,9.38528251647949,9.38536071777344,9.38543796539307,9.38551616668701,9.38559341430664,9.38567161560059,9.38574886322021,9.38582611083984,9.38590431213379,9.38598155975342,9.38605976104736,9.38613700866699,9.38621520996094,9.38629245758057,9.38637065887451,9.38644790649414,9.38652610778809,9.38660335540771,9.38668155670166,9.38675880432129,9.38683605194092,9.38691425323486,9.38699150085449,9.38706970214844,9.38714694976807,9.38722515106201,9.38730239868164,9.38738059997559,9.38745784759521,9.38753604888916,9.38761329650879,9.38769149780273,9.38776874542236,9.38784599304199,9.38792324066162,9.38800048828125,9.38807773590088,9.38815498352051,9.38823127746582,9.38830852508545,9.38838577270508,9.38846302032471,9.38853931427002,9.38861656188965,9.38869380950928,9.38877105712891,9.38884830474854,9.38892459869385,9.38900184631348,9.38907909393311,9.38915634155273,9.38923358917236,9.38930988311768,9.3893871307373,9.38946437835693,9.38954162597656,9.38961887359619,9.3896951675415,9.38977241516113,9.38984966278076,9.38992691040039,9.39000415802002,9.39008140563965,9.39015769958496,9.39023494720459,9.39031219482422,9.39038944244385,9.39046669006348,9.39054393768311,9.39062023162842,9.39069747924805,9.39077472686768,9.3908519744873,9.39092922210693,9.39100551605225,9.39108276367188,9.3911600112915,9.39123725891113,9.39131450653076,9.39139175415039,9.39146900177002,9.39154529571533,9.39162254333496,8.89211273193359,8.89216709136963,8.89222145080566,8.89228630065918,8.89239025115967,8.89249420166016,8.89259815216064,8.89270305633545,8.89276885986328,8.89279747009277,8.8928279876709,8.89290332794189,8.89299201965332,8.89309120178223,8.89316368103027,8.893235206604,8.89330673217773,8.89337921142578,8.89345073699951,8.91664886474609,8.94608306884766,8.97571182250977,9.00553798675537,9.03556251525879,9.06578731536865,9.09621620178223
8.81356143951416,8.79958534240723,8.78565216064453,8.77176380157471,8.75792026519775,8.74411964416504,8.73036193847656,8.71664810180664,8.70297718048096,8.68934917449951,8.6757640838623,8.66222095489502,8.64872074127197,8.63526153564453,8.62184429168701,8.60846900939941,8.59513568878174,8.58184242248535,8.56859111785889,8.55538082122803,8.54221057891846,8.52908039093018,8.5159912109375,8.50294208526611,8.48993301391602,8.47696399688721,8.46403408050537,8.45114326477051,8.43829154968262,8.42547988891602,8.41270637512207,8.39997100830078,8.38727474212646,8.3746166229248,8.36199760437012,8.34941577911377,8.33687114715576,8.32436466217041,8.31189632415771,8.29946422576904,8.28706932067871,8.27471160888672,8.26239109039307,8.27892875671387,8.29572486877441,8.31258869171143,8.32952117919922,8.34652328491211,8.3635950088501,8.38073635101318,8.39794826507568,8.4152307510376,8.43258476257324,8.45001029968262,8.46750736236572,8.48507785797119,8.50272178649902,8.52043914794922,8.53822994232178,8.55609512329102,8.57403564453125,8.59205150604248,8.61014270782471,8.62831115722656,8.64655590057373,8.66487789154053,8.68327808380127,8.70175647735596,8.72031307220459,8.7389497756958,8.75766563415527,8.77646255493164,8.79533958435059,8.81429862976074,8.82251262664795,8.8225793838501,8.82264614105225,8.82271289825439,8.82277870178223,8.82284545898438,8.82291221618652,8.82297801971436,8.8230447769165,8.82311153411865,8.82317733764648,8.82324409484863,8.82331085205078,8.82337951660156,8.82345485687256,8.82353019714355,8.82360553741455,8.82367992401123,8.82375526428223,8.84193992614746,8.86190128326416,8.88195419311523,8.90209674835205,8.92233180999756,8.94265937805176,8.96307754516602,8.98358821868896,9.00419425964355,9.02489376068115,9.04568958282471,9.06658172607422,9.08756923675537,9.10865497589111,9.12983894348145,9.15112113952637,9.17250347137451,9.19398498535156,9.21556758880615,9.23725128173828,9.25903701782227,9.28092765808105,9.3029260635376,9.32138729095459,9.32146453857422,9.32154083251953,9.32161712646484,9.32169437408447,9.32177066802979,9.3218469619751,9.32192420959473,9.32200050354004,9.32207679748535,9.32215404510498,9.32223033905029,9.32230663299561,9.32238388061523,9.32246017456055,9.32253646850586,9.32261371612549,9.3226900100708,9.32276725769043,9.32284355163574,9.32291984558105,9.32299709320068,9.323073387146,9.32314968109131,9.32322692871094,9.32330322265625,9.32337951660156,9.32345676422119,9.3235330581665,9.32361030578613,9.32368659973145,9.32376289367676,9.32384014129639,9.3239164352417,9.32399272918701,9.32406997680664,9.32414627075195,9.32422256469727,9.32429981231689,9.32437610626221,9.32445335388184,9.32452964782715,9.32460594177246,9.32468318939209,9.3247594833374,9.32483673095703,9.32491302490234,9.32498931884766,9.32506656646729,9.3251428604126,9.32521915435791,9.32529544830322,9.32537078857422,9.32544708251953,9.32552337646484,9.32559871673584,9.32567501068115,9.32575130462646,9.32582759857178,9.32590293884277,9.32597923278809,9.3260555267334,9.32613182067871,9.32620716094971,9.32628345489502,9.32635974884033,9.32643508911133,9.32651138305664,9.32658767700195,9.32666397094727,9.32673931121826,9.32681560516357,9.32689189910889,9.32696723937988,9.3270435333252,9.32711982727051,9.32719612121582,9.32727241516113,9.32734775543213,9.32742404937744,9.32750034332275,9.32757568359375,9.32765197753906,9.32772827148438,9.32780456542969,9.327880859375,9.327956199646,9.32803249359131,9.32810878753662,9.32818412780762,9.32826042175293,9.32833671569824,9.32841300964355,9.32848930358887,9.32856464385986,9.32864093780518,8.83248043060303,8.83253383636475,8.83258819580078,8.83264255523682,8.83273792266846,8.83284091949463,8.83294296264648,8.83304595947266,8.83312702178955,8.83315563201904,8.83318424224854,8.83325386047363,8.83333587646484,8.8334379196167,8.83350944519043,8.83358001708984,8.83365154266357,8.83372211456299,8.8337926864624,8.85857200622559,8.88762378692627,8.91686630249023,8.94630146026611,8.97593212127686,9.00575923919678,9.03578567504883,9.06601238250732,9.09644222259521
8.78024291992188,8.77481079101562,8.76938533782959,8.76396656036377,8.75797557830811,8.74417495727539,8.73041820526123,8.71670341491699,8.70303249359131,8.68940448760986,8.67581939697266,8.66227626800537,8.64877510070801,8.63531589508057,8.62189865112305,8.60852336883545,8.59518909454346,8.58189678192139,8.56864452362061,8.55543422698975,8.54226398468018,8.52913379669189,8.51604461669922,8.50299549102783,8.48998546600342,8.47701644897461,8.46408557891846,8.45119571685791,8.43834400177002,8.4255313873291,8.41275787353516,8.40002250671387,8.38732624053955,8.37466812133789,8.36204814910889,8.34946632385254,8.33692169189453,8.32441520690918,8.31194591522217,8.29951477050781,8.28711986541748,8.27476215362549,8.26244068145752,8.27905464172363,8.29585075378418,8.31271457672119,8.3296480178833,8.34665107727051,8.3637228012085,8.38086414337158,8.3980770111084,8.41535949707031,8.43271446228027,8.45014095306396,8.46763896942139,8.48520946502686,8.502854347229,8.5205717086792,8.53836345672607,8.55622863769531,8.57417011260986,8.59218597412109,8.61027812957764,8.62844657897949,8.64669227600098,8.66501522064209,8.68341541290283,8.70189476013184,8.72045230865479,8.739089012146,8.75780582427979,8.76372623443604,8.76379203796387,8.76385688781738,8.76392269134521,8.76398849487305,8.76405429840088,8.76411914825439,8.76418495178223,8.76425075531006,8.76431655883789,8.76438140869141,8.76444721221924,8.76451301574707,8.7645788192749,8.76465129852295,8.76472473144531,8.76479911804199,8.76487350463867,8.76494789123535,8.78273296356201,8.80242824554443,8.82221221923828,8.84208488464355,8.86204814910889,8.88210105895996,8.90224456787109,8.92247867584229,8.94280433654785,8.96322345733643,8.98373508453369,9.00434112548828,9.0250415802002,9.04583835601807,9.06673049926758,9.08771896362305,9.10880565643311,9.12999057769775,9.15127372741699,9.17265605926514,9.1941385269165,9.21572113037109,9.23740673065186,9.25919914245605,9.25933933258057,9.25941467285156,9.25949001312256,9.25956535339355,9.25964164733887,9.25971698760986,9.25979232788086,9.25986862182617,9.25994396209717,9.26001930236816,9.26009464263916,9.26017093658447,9.26024627685547,9.26032161712646,9.26039695739746,9.26047325134277,9.26054859161377,9.26062393188477,9.26070022583008,9.26077556610107,9.26085090637207,9.26092720031738,9.26100254058838,9.26107788085938,9.26115322113037,9.26122951507568,9.26130485534668,9.26138019561768,9.26145648956299,9.26153182983398,9.26160717010498,9.26168346405029,9.26175880432129,9.26183414459229,9.26190948486328,9.26198577880859,9.26206111907959,9.26213645935059,9.2622127532959,9.26228809356689,9.26236343383789,9.2624397277832,9.2625150680542,9.2625904083252,9.26266670227051,9.2627420425415,9.2628173828125,9.26289367675781,9.26296901702881,9.2630443572998,9.26312065124512,9.26319599151611,9.26327133178711,9.26334667205811,9.2634220123291,9.2634973526001,9.26357173919678,9.26364707946777,9.26372241973877,9.26379680633545,9.26387214660645,9.26394748687744,9.26402187347412,9.26409721374512,9.26417255401611,9.26424694061279,9.26432228088379,9.26439762115479,9.26447200775146,9.26454734802246,9.26462268829346,9.26469707489014,9.26477241516113,9.26484775543213,9.26492214202881,9.2649974822998,9.2650728225708,9.26514720916748,9.26522254943848,9.26529788970947,9.26537227630615,9.26544761657715,9.26552295684814,9.26559734344482,9.26567268371582,9.26574802398682,9.26582336425781,9.26589775085449,9.26597309112549,9.26604843139648,9.26612281799316,9.26619815826416,9.26627349853516,9.26634788513184,9.26642322540283,9.26649856567383,8.77364253997803,8.77369594573975,8.77374935150146,8.77380275726318,8.77388095855713,8.77398204803467,8.77408313751221,8.77418422698975,8.7742805480957,8.7743091583252,8.77433681488037,8.77439785003662,8.77447605133057,8.77458000183105,8.77465057373047,8.77472019195557,8.77478981018066,8.77485942840576,8.77492904663086,8.80124855041504,8.82992458343506,8.85878753662109,8.88784027099609,8.91708374023438,8.94652080535889,8.97615242004395,9.00598049163818,9.03600883483887,9.066237449646,9.09666919708252
8.74504375457764,8.73965454101562,8.73427104949951,8.72889518737793,8.72352504730225,8.71816253662109,8.71280574798584,8.70745658874512,8.70211410522461,8.68945980072021,8.67587375640869,8.66233062744141,8.64882946014404,8.6353702545166,8.62195301055908,8.60857772827148,8.59524345397949,8.58195018768311,8.56869792938232,8.55548667907715,8.54231643676758,8.52918720245361,8.51609706878662,8.50304794311523,8.49003791809082,8.47706890106201,8.46413803100586,8.451247215271,8.43839550018311,8.42558288574219,8.41280937194824,8.40007400512695,8.38737773895264,8.37471961975098,8.36209869384766,8.34951686859131,8.33697319030762,8.32446575164795,8.31199645996094,8.29956436157227,8.28717041015625,8.27481174468994,8.26249027252197,8.27917957305908,8.29597663879395,8.31284141540527,8.32977485656738,8.34677791595459,8.36385059356689,8.3809928894043,8.39820575714111,8.41548919677734,8.4328441619873,8.450270652771,8.46776962280273,8.48534107208252,8.50298595428467,8.52070426940918,8.53849601745605,8.55636310577393,8.57430458068848,8.59232139587402,8.61041355133057,8.62858295440674,8.64682865142822,8.66515254974365,8.68355369567871,8.70203304290771,8.70571708679199,8.70578193664551,8.70584678649902,8.70591163635254,8.70597648620605,8.70604038238525,8.70610523223877,8.70617008209229,8.7062349319458,8.70629978179932,8.70636463165283,8.70642852783203,8.70649337768555,8.70655822753906,8.70662593841553,8.70669841766357,8.70677185058594,8.7068452835083,8.70691871643066,8.72431468963623,8.74374866485596,8.76326942443848,8.78287696838379,8.80257320404053,8.82235717773438,8.84223079681396,8.8621940612793,8.88224697113037,8.90238952636719,8.92262363433838,8.94294929504395,8.96336841583252,8.98388195037842,9.00448799133301,9.02518939971924,9.04598617553711,9.06687927246094,9.08786964416504,9.1089563369751,9.13014125823975,9.1514253616333,9.17280864715576,9.19429206848145,9.19803619384766,9.19811153411865,9.19818592071533,9.19826030731201,9.19833469390869,9.19840908050537,9.19848442077637,9.19855880737305,9.19863319396973,9.19870758056641,9.19878196716309,9.19885730743408,9.19893169403076,9.19900608062744,9.19908046722412,9.19915580749512,9.1992301940918,9.19930458068848,9.19937896728516,9.19945430755615,9.19952869415283,9.19960308074951,9.19967746734619,9.19975280761719,9.19982719421387,9.19990158081055,9.19997596740723,9.20005130767822,9.2001256942749,9.20020008087158,9.20027542114258,9.20034980773926,9.20042419433594,9.20049858093262,9.2005729675293,9.20064830780029,9.20072269439697,9.20079708099365,9.20087242126465,9.20094680786133,9.20102119445801,9.20109558105469,9.20117092132568,9.20124530792236,9.20131969451904,9.20139408111572,9.20146942138672,9.2015438079834,9.20161819458008,9.20169353485107,9.20176792144775,9.20184230804443,9.20191669464111,9.20199203491211,9.20206642150879,9.20214080810547,9.20221614837646,9.20229053497314,9.20236396789551,9.20243835449219,9.20251274108887,9.20258617401123,9.20266056060791,9.20273494720459,9.20280838012695,9.20288276672363,9.202956199646,9.20303058624268,9.20310497283936,9.20317840576172,9.2032527923584,9.20332717895508,9.20340061187744,9.20347499847412,9.20354843139648,9.20362281799316,9.20369720458984,9.20377063751221,9.20384502410889,9.20391941070557,9.20399284362793,9.20406723022461,9.20414161682129,9.20421504974365,9.20428943634033,9.20436382293701,9.20443725585938,9.20451164245605,9.20458602905273,9.2046594619751,9.20473384857178,9.20480823516846,9.20488166809082,9.2049560546875,9.20503044128418,9.20510387420654,9.20517826080322,8.71558380126953,8.71563625335693,8.71568870544434,8.71574115753174,8.71580219268799,8.71590232849121,8.71600246429443,8.71610260009766,8.71620273590088,8.71624088287354,8.71626758575439,8.71632194519043,8.71639442443848,8.7165002822876,8.7165699005127,8.71663856506348,8.71670818328857,8.71677684783936,8.71684551239014,8.74466133117676,8.77296924591064,8.80146026611328,8.83013725280762,8.85900211334229,8.8880558013916,8.91730117797852,8.94673919677734,8.97637271881104,9.00620365142822,9.03623199462891,9.06646251678467,9.09689521789551
8.71012306213379,8.70477676391602,8.69943618774414,8.6941032409668,8.68877601623535,8.68345546722412,8.67814159393311,8.6728343963623,8.66753387451172,8.66223907470703,8.65695190429688,8.65167140960693,8.64639759063721,8.63542461395264,8.62200736999512,8.6086311340332,8.59529685974121,8.58200359344482,8.56875133514404,8.55554008483887,8.5423698425293,8.52923965454102,8.51615047454834,8.50310039520264,8.49009037017822,8.4771203994751,8.46419048309326,8.4512996673584,8.43844795227051,8.42563438415527,8.41286087036133,8.40012550354004,8.38742923736572,8.37477016448975,8.36215019226074,8.34956741333008,8.33702373504639,8.32451629638672,8.31204700469971,8.29961490631104,8.2872200012207,8.27486228942871,8.26257514953613,8.27930450439453,8.29610252380371,8.31296730041504,8.32990169525146,8.34690570831299,8.36397838592529,8.38112163543701,8.39833450317383,8.41561889648438,8.43297386169434,8.45040130615234,8.4679012298584,8.48547267913818,8.50311851501465,8.52083683013916,8.53862953186035,8.55649662017822,8.57443904876709,8.59245586395264,8.6105489730835,8.62871932983398,8.64696598052979,8.64847183227539,8.64853477478027,8.64859867095947,8.64866352081299,8.64872646331787,8.64879035949707,8.64885425567627,8.64891815185547,8.64898204803467,8.64904594421387,8.64910984039307,8.64917373657227,8.64923763275146,8.64930152893066,8.64936542510986,8.64943504333496,8.64950752258301,8.64958000183105,8.6496524810791,8.66666793823242,8.68584537506104,8.70510768890381,8.72445678710938,8.7438907623291,8.76341247558594,8.78302097320557,8.8027172088623,8.82250213623047,8.84237575531006,8.86233711242676,8.88239002227783,8.90253257751465,8.92276763916016,8.94309520721436,8.96351432800293,8.98402786254883,9.00463581085205,9.02533721923828,9.04613494873047,9.06702899932861,9.08801937103271,9.10910701751709,9.13029289245605,9.13753890991211,9.13761234283447,9.13768577575684,9.13776016235352,9.1378345489502,9.13790798187256,9.13798236846924,9.1380558013916,9.13812923431396,9.13820266723633,9.13827610015869,9.13835048675537,9.13842391967773,9.1384973526001,9.13857078552246,9.13864517211914,9.1387186050415,9.13879203796387,9.13886547088623,9.13893890380859,9.13901329040527,9.13908672332764,9.13916015625,9.13923358917236,9.13930797576904,9.13938140869141,9.13945484161377,9.13952827453613,9.1396017074585,9.13967609405518,9.13974952697754,9.1398229598999,9.13989639282227,9.13997077941895,9.14004421234131,9.14011764526367,9.14019107818604,9.1402645111084,9.14033889770508,9.14041233062744,9.1404857635498,9.14056015014648,9.14063358306885,9.14070701599121,9.14078044891357,9.14085388183594,9.14092826843262,9.14100170135498,9.14107513427734,9.14114856719971,9.14122295379639,9.14129638671875,9.14136981964111,9.14144420623779,9.14151763916016,9.14159107208252,9.14166450500488,9.14173889160156,9.14181232452393,9.14188575744629,9.14195919036865,9.14203357696533,9.14210605621338,9.14217948913574,9.14225292205811,9.14232540130615,9.14239883422852,9.14247226715088,9.14254474639893,9.14261817932129,9.14269065856934,9.1427640914917,9.14283752441406,9.14291000366211,9.14298343658447,9.14305591583252,9.14312934875488,9.14320278167725,9.14327526092529,9.14334869384766,9.14342212677002,9.14349460601807,9.14356803894043,9.14364051818848,9.14371395111084,9.1437873840332,9.14385986328125,9.14393329620361,9.14400672912598,9.14407920837402,9.14415264129639,9.14422512054443,9.1442985534668,9.14437198638916,9.14444446563721,9.14451789855957,9.14459133148193,8.65823650360107,8.65828895568848,8.65834045410156,8.65839195251465,8.65844345092773,8.65849590301514,8.6585865020752,8.6586856842041,8.65878391265869,8.6588830947876,8.65893650054932,8.65896320343018,8.65900993347168,8.65907764434814,8.6591854095459,8.65925312042236,8.65932178497314,8.65938949584961,8.65945816040039,8.66102886199951,8.68879699707031,8.71674346923828,8.74487113952637,8.77318000793457,8.80167198181152,8.83035087585449,8.85921669006348,8.88827228546143,8.91751861572266,8.94695854187012,8.97659301757812,9.00642490386963,9.03645610809326,9.06668758392334,9.09712219238281
8.702392578125,8.68859100341797,8.67483425140381,8.66112041473389,8.6543025970459,8.64902400970459,8.6437520980835,8.63848686218262,8.63322830200195,8.62797546386719,8.62272930145264,8.61748886108398,8.61225605010986,8.60702896118164,8.60180950164795,8.59659576416016,8.59138965606689,8.58205699920654,8.56880569458008,8.55559349060059,8.54242324829102,8.52929306030273,8.51620292663574,8.50315284729004,8.49014282226562,8.4771728515625,8.46424293518066,8.45135116577148,8.43849945068359,8.42568683624268,8.41291236877441,8.40017700195312,8.38747978210449,8.37482166290283,8.36220073699951,8.34961891174316,8.33707427978516,8.32456684112549,8.31209754943848,8.2996654510498,8.28727054595947,8.27491188049316,8.26270008087158,8.2794303894043,8.29622745513916,8.31309413909912,8.33002853393555,8.34703254699707,8.36410617828369,8.38124942779541,8.39846324920654,8.41574859619141,8.43310451507568,8.45053195953369,8.46803188323975,8.48560428619385,8.50325012207031,8.52096939086914,8.53876304626465,8.55663013458252,8.57457256317139,8.59191036224365,8.59197330474854,8.59203624725342,8.5920991897583,8.59216213226318,8.59222602844238,8.59228801727295,8.59235191345215,8.59241485595703,8.59247779846191,8.5925407409668,8.59260368347168,8.59266662597656,8.59272956848145,8.59279251098633,8.59285640716553,8.59292125701904,8.59299182891846,8.59306335449219,8.59313488006592,8.60977840423584,8.62870407104492,8.64771461486816,8.66680812835693,8.68598651885986,8.70524883270264,8.7245979309082,8.74403285980225,8.7635555267334,8.78316402435303,8.80286121368408,8.82264423370361,8.8425178527832,8.86248016357422,8.88253307342529,8.90267658233643,8.92291259765625,8.94324016571045,8.96366024017334,8.98417472839355,9.00478267669678,9.02548503875732,9.04628372192383,9.06717777252197,9.07783317565918,9.07790565490723,9.07797718048096,9.078049659729,9.07812213897705,9.07819366455078,9.07826614379883,9.07833957672119,9.07841300964355,9.07848644256592,9.07855987548828,9.07863235473633,9.07870578765869,9.07877922058105,9.0788516998291,9.07892513275146,9.07899761199951,9.07907009124756,9.07914257049561,9.07921504974365,9.07928848266602,9.07936096191406,9.07943344116211,9.07950592041016,9.0795783996582,9.07965183258057,9.07972431182861,9.07979679107666,9.07986927032471,9.07994270324707,9.08001518249512,9.08008766174316,9.08016014099121,9.08023262023926,9.08030605316162,9.08037853240967,9.08045101165771,9.08052349090576,9.08059692382812,9.08066940307617,9.08074188232422,9.08081436157227,9.08088779449463,9.08096027374268,9.08103275299072,9.08110523223877,9.08117866516113,9.08125114440918,9.08132362365723,9.08139610290527,9.08146953582764,9.08154201507568,9.08161449432373,9.08168697357178,9.08176040649414,9.08183288574219,9.08190536499023,9.08197784423828,9.08205127716064,9.08212375640869,9.08219623565674,9.0822696685791,9.08234214782715,9.0824146270752,9.08248710632324,9.08256053924561,9.08263301849365,9.08270454406738,9.08277702331543,9.08284854888916,9.08292102813721,9.08299350738525,9.08306503295898,9.08313751220703,9.08320999145508,9.08328151702881,9.08335399627686,9.08342552185059,9.08349800109863,9.08357048034668,9.08364200592041,9.08371448516846,9.0837869644165,9.08385848999023,9.08393096923828,9.08400249481201,9.08407497406006,9.08414745330811,9.08421897888184,9.08429145812988,9.08436393737793,9.08443546295166,9.08450794219971,9.08458042144775,9.08465194702148,9.08472442626953,9.08479690551758,9.08486843109131,8.6016902923584,8.60174179077148,8.60179233551025,8.60184383392334,8.60189437866211,8.6019458770752,8.60202026367188,8.60211753845215,8.60221481323242,8.6023120880127,8.60237979888916,8.60240745544434,8.60244655609131,8.60251808166504,8.602614402771,8.60268592834473,8.60275363922119,8.60282039642334,8.60288715362549,8.60622501373291,8.63364124298096,8.66123390197754,8.68900394439697,8.71695137023926,8.74507999420166,8.77338981628418,8.80188465118408,8.83056354522705,8.85943222045898,8.88848781585693,8.9177360534668,8.94717788696289,8.97681427001953,9.00664710998535,9.0366792678833,9.06691265106201,9.0973482131958
8.70244693756104,8.688645362854,8.67488765716553,8.66117382049561,8.64750385284424,8.63387584686279,8.6202917098999,8.60674953460693,8.59919261932373,8.59398174285889,8.58877658843994,8.58357810974121,8.57838535308838,8.57319927215576,8.56801986694336,8.56284618377686,8.55767917633057,8.55251884460449,8.54736518859863,8.54221820831299,8.53707695007324,8.52934551239014,8.51625537872314,8.50320625305176,8.49019622802734,8.4772253036499,8.46429443359375,8.45140361785889,8.43855094909668,8.42573833465576,8.4129638671875,8.40022850036621,8.38753128051758,8.3748722076416,8.3622522354126,8.34966945648193,8.33712482452393,8.32461738586426,8.31214809417725,8.29971504211426,8.28732013702393,8.27496147155762,8.26282501220703,8.27955532073975,8.29635334014893,8.31322002410889,8.33015537261963,8.34716033935547,8.36423397064209,8.38137817382812,8.39859199523926,8.41587734222412,8.43323421478271,8.45066261291504,8.46816349029541,8.48573589324951,8.50338268280029,8.52110195159912,8.53614616394043,8.53620910644531,8.53627109527588,8.53633308410645,8.53639602661133,8.53645801544189,8.53652000427246,8.53658199310303,8.53664398193359,8.53670692443848,8.53676891326904,8.53683090209961,8.53689289093018,8.53695487976074,8.53701782226562,8.53707981109619,8.53714179992676,8.53721046447754,8.53728008270264,8.53735065460205,8.55362987518311,8.57231044769287,8.59107208251953,8.6099157333374,8.62884330749512,8.64785385131836,8.66694736480713,8.68612670898438,8.70539093017578,8.72474002838135,8.74417591094971,8.76369762420654,8.78330516815186,8.80300140380859,8.82278537750244,8.84265899658203,8.86262226104736,8.88267612457275,8.9028205871582,8.92305660247803,8.94338512420654,8.96380615234375,8.98432064056396,9.0049295425415,9.01890182495117,9.0189733505249,9.01904487609863,9.01911544799805,9.01918697357178,9.01925849914551,9.01933002471924,9.01940059661865,9.01947212219238,9.01954364776611,9.01961517333984,9.01968669891357,9.01975917816162,9.01983165740967,9.01990413665771,9.01997661590576,9.02004909515381,9.02012157440186,9.02019309997559,9.02026557922363,9.02033805847168,9.02041053771973,9.02048206329346,9.0205545425415,9.02062606811523,9.02069759368896,9.0207691192627,9.02084159851074,9.02091312408447,9.0209846496582,9.02105617523193,9.02112770080566,9.02120018005371,9.02127170562744,9.02134323120117,9.0214147567749,9.02148723602295,9.02155876159668,9.02163028717041,9.02170276641846,9.02177429199219,9.02184581756592,9.02191734313965,9.02198886871338,9.02206134796143,9.02213287353516,9.02220439910889,9.02227592468262,9.02234840393066,9.02241992950439,9.02249145507812,9.02256393432617,9.0226354598999,9.02270698547363,9.02277851104736,9.02285099029541,9.02292251586914,9.02299404144287,9.0230655670166,9.02313804626465,9.02320957183838,9.02328109741211,9.02335357666016,9.02342510223389,9.02349662780762,9.02356815338135,9.02364063262939,9.02371215820312,9.02378368377686,9.0238561630249,9.02392768859863,9.02399826049805,9.02406978607178,9.02414131164551,9.02421188354492,9.02428340911865,9.02435493469238,9.0244255065918,9.02449703216553,9.02456855773926,9.02463912963867,9.0247106552124,9.02478218078613,9.02485275268555,9.02492427825928,9.02499580383301,9.02506637573242,9.02513790130615,9.02520942687988,9.0252799987793,9.02535152435303,9.02542304992676,9.02549362182617,9.0255651473999,9.02563667297363,9.02570724487305,9.02577877044678,9.02585029602051,9.02592086791992,8.54587745666504,8.54592800140381,8.54597854614258,8.54602909088135,8.54607963562012,8.54613018035889,8.54618740081787,8.54628372192383,8.54638004302979,8.54647636413574,8.54655838012695,8.5465841293335,8.54661750793457,8.54668712615967,8.54677867889404,8.54685306549072,8.54691886901855,8.54698467254639,8.54705142974854,8.55210971832275,8.57918262481689,8.60642719268799,8.63384628295898,8.66143989562988,8.68920993804932,8.71715927124023,8.74528884887695,8.77360057830811,8.80209636688232,8.83077716827393,8.85964679718018,8.88870429992676,8.91795349121094,8.94739627838135,8.97703456878662,9.00686836242676,9.03690242767334,9.06713676452637,9.09757423400879
8.70250225067139,8.68870067596436,8.67494201660156,8.66122817993164,8.64755630493164,8.63392925262451,8.6203441619873,8.60680198669434,8.59330272674561,8.5798454284668,8.56643009185791,8.55305671691895,8.54478073120117,8.53963565826416,8.53449630737305,8.52936267852783,8.52423572540283,8.51911449432373,8.51399993896484,8.50889205932617,8.50379085540771,8.49869537353516,8.49360656738281,8.48852348327637,8.48344612121582,8.4772777557373,8.46434688568115,8.45145511627197,8.43860340118408,8.42578983306885,8.41301536560059,8.4002799987793,8.38758277893066,8.37492370605469,8.36230278015137,8.3497200012207,8.3371753692627,8.32466793060303,8.3121976852417,8.29976558685303,8.2873706817627,8.27501201629639,8.26294994354248,8.2796802520752,8.29647922515869,8.31334686279297,8.33028221130371,8.34728717803955,8.36436176300049,8.38150596618652,8.39872169494629,8.41600704193115,8.43336391448975,8.45079326629639,8.46829414367676,8.48110198974609,8.48116397857666,8.48122501373291,8.48128604888916,8.48134803771973,8.48140907287598,8.48147106170654,8.48153209686279,8.48159313201904,8.48165512084961,8.48171615600586,8.48177814483643,8.48183917999268,8.48190021514893,8.48196220397949,8.48202323913574,8.48208427429199,8.48214721679688,8.48221683502197,8.48228645324707,8.49820995330811,8.5166482925415,8.53516674041748,8.55376625061035,8.57244682312012,8.59120941162109,8.61005401611328,8.628981590271,8.64799308776855,8.66708755493164,8.68626689910889,8.70553207397461,8.72488117218018,8.74431610107422,8.76383686065674,8.78344535827637,8.80314159393311,8.82292652130127,8.84280109405518,8.86276531219482,8.88281917572021,8.90296459197998,8.92320156097412,8.94353008270264,8.96073055267334,8.96080112457275,8.96087169647217,8.96094226837158,8.961012840271,8.96108245849609,8.96115303039551,8.96122360229492,8.96129417419434,8.96136379241943,8.96143436431885,8.96150493621826,8.96157550811768,8.96164608001709,8.96171569824219,8.96178722381592,8.96185874938965,8.96193027496338,8.96200180053711,8.96207332611084,8.96214485168457,8.9622163772583,8.96228790283203,8.96235942840576,8.96243000030518,8.96250152587891,8.96257305145264,8.96264457702637,8.9627161026001,8.96278762817383,8.96285820007324,8.96292972564697,8.96300029754639,8.9630708694458,8.96314144134521,8.96321296691895,8.96328353881836,8.96335411071777,8.96342468261719,8.96349620819092,8.96356678009033,8.96363735198975,8.96370887756348,8.96377944946289,8.9638500213623,8.96392154693604,8.96399211883545,8.96406269073486,8.96413326263428,8.96420478820801,8.96427536010742,8.96434593200684,8.96441745758057,8.96448802947998,8.96455860137939,8.96462917327881,8.96470069885254,8.96477127075195,8.96484184265137,8.9649133682251,8.96498394012451,8.96505451202393,8.96512603759766,8.96519660949707,8.96526718139648,8.96533870697021,8.96540927886963,8.96547985076904,8.96555042266846,8.96562194824219,8.9656925201416,8.96576309204102,8.96583461761475,8.96590518951416,8.96597576141357,8.96604633331299,8.9661169052124,8.96618747711182,8.96625709533691,8.96632766723633,8.96639823913574,8.96646785736084,8.96653842926025,8.96660900115967,8.96667861938477,8.96674919128418,8.96681976318359,8.96689033508301,8.96695995330811,8.96703052520752,8.96710109710693,8.96717071533203,8.96724128723145,8.96731185913086,8.96738147735596,8.96745204925537,8.96752262115479,8.9675931930542,8.9676628112793,8.96773338317871,8.49078464508057,8.49083423614502,8.49088382720947,8.49093437194824,8.4909839630127,8.49103355407715,8.4910831451416,8.49116992950439,8.49126529693604,8.49135971069336,8.491455078125,8.49148178100586,8.49150848388672,8.49157619476318,8.49166393280029,8.49173927307129,8.49180507659912,8.49187088012695,8.49193572998047,8.49867057800293,8.52540588378906,8.5523099899292,8.57938385009766,8.60663032531738,8.6340503692627,8.66164493560791,8.68941688537598,8.71736717224121,8.74549865722656,8.77381134033203,8.80230808258057,8.8309907913208,8.85986042022705,8.88892078399658,8.91817092895508,8.94761562347412,8.97725486755371,9.00709056854248,9.03712558746338,9.06735992431641,9.09779453277588
8.70255756378174,8.68875598907471,8.67499732971191,8.66128253936768,8.64761066436768,8.63398265838623,8.62039756774902,8.60685539245605,8.59335517883301,8.5798978805542,8.56648254394531,8.55310916900635,8.53977680206299,8.52648735046387,8.51323795318604,8.50003051757812,8.49105262756348,8.48597145080566,8.48089694976807,8.47582817077637,8.47076511383057,8.46570777893066,8.46065807342529,8.45561408996582,8.45057678222656,8.4455451965332,8.44051933288574,8.43549919128418,8.43048572540283,8.42547798156738,8.41306686401367,8.40033149719238,8.38763427734375,8.37497520446777,8.36235427856445,8.34977149963379,8.33722591400146,8.3247184753418,8.31224822998047,8.2998161315918,8.28742027282715,8.27506160736084,8.26307487487793,8.27980613708496,8.29660511016846,8.31347274780273,8.33040904998779,8.34741497039795,8.36448955535889,8.38163471221924,8.398850440979,8.41613674163818,8.4267635345459,8.42682361602783,8.42688369750977,8.42694473266602,8.42700576782227,8.4270658493042,8.42712688446045,8.42718696594238,8.42724800109863,8.42730808258057,8.42736911773682,8.42743015289307,8.427490234375,8.42755126953125,8.42761135101318,8.42767238616943,8.42773246765137,8.42779350280762,8.42785930633545,8.42792797088623,8.44350337982178,8.46170520782471,8.47998523712158,8.49834442138672,8.51678371429443,8.53530311584473,8.5539026260376,8.57258415222168,8.59134674072266,8.61019229888916,8.62912082672119,8.64813232421875,8.66722774505615,8.6864070892334,8.70567035675049,8.72501945495605,8.7444543838501,8.76397609710693,8.78358554840088,8.80328273773193,8.82306861877441,8.84294319152832,8.86290740966797,8.88296222686768,8.90310859680176,8.90337467193604,8.90344429016113,8.90351390838623,8.90358352661133,8.90365314483643,8.90372276306152,8.9037914276123,8.9038610458374,8.9039306640625,8.9040002822876,8.9040699005127,8.90413951873779,8.90420913696289,8.90427780151367,8.90434741973877,8.90441703796387,8.90448665618896,8.90455627441406,8.90462684631348,8.90469741821289,8.9047679901123,8.90483856201172,8.90490913391113,8.90497875213623,8.90504932403564,8.90511989593506,8.90519046783447,8.90526103973389,8.9053316116333,8.90540218353271,8.90547275543213,8.90554332733154,8.90561389923096,8.90568447113037,8.90575504302979,8.9058256149292,8.90589618682861,8.90596580505371,8.90603637695312,8.90610599517822,8.90617561340332,8.90624618530273,8.90631580352783,8.90638542175293,8.90645599365234,8.90652561187744,8.90659523010254,8.90666580200195,8.90673542022705,8.90680503845215,8.90687561035156,8.90694522857666,8.90701484680176,8.90708541870117,8.90715503692627,8.90722465515137,8.90729522705078,8.90736484527588,8.90743446350098,8.90750503540039,8.90757465362549,8.90764427185059,8.90771484375,8.9077844619751,8.90785503387451,8.90792465209961,8.90799427032471,8.90806484222412,8.90813446044922,8.90820407867432,8.90827465057373,8.90834426879883,8.90841484069824,8.90848445892334,8.90855407714844,8.90862464904785,8.90869426727295,8.90876388549805,8.90883445739746,8.90890312194824,8.90897274017334,8.90904235839844,8.90911197662354,8.90918159484863,8.90925025939941,8.90931987762451,8.90938949584961,8.90945816040039,8.90952777862549,8.90959739685059,8.90966701507568,8.90973567962646,8.90980529785156,8.90987491607666,8.90994453430176,8.91001415252686,8.91008281707764,8.91015243530273,8.91022205352783,8.91029167175293,8.43639755249023,8.43644618988037,8.43649578094482,8.43654537200928,8.43659400939941,8.43664360046387,8.436692237854,8.43676280975342,8.43685626983643,8.43694972991943,8.43704319000244,8.43708515167236,8.43711090087891,8.43717193603516,8.43725395202637,8.43733310699463,8.43739700317383,8.43746185302734,8.43752670288086,8.44589614868164,8.47229957580566,8.49886894226074,8.52560520172119,8.55251026153564,8.57958507537842,8.60683250427246,8.63425350189209,8.66184997558594,8.68962287902832,8.71757507324219,8.74570751190186,8.77402210235596,8.80251979827881,8.83120441436768,8.86007595062256,8.88913726806641,8.91838932037354,8.94783401489258,8.9774751663208,9.00731182098389,9.03734397888184,9.06757736206055,9.09801292419434
8.70261287689209,8.68881034851074,8.67505168914795,8.66133689880371,8.64766502380371,8.63403701782227,8.62045097351074,8.60690784454346,8.59340763092041,8.5799503326416,8.56653499603271,8.55316066741943,8.53982925415039,8.52653884887695,8.51328945159912,8.50008201599121,8.48691463470459,8.47378826141357,8.46070194244385,8.44765663146973,8.43799686431885,8.43297863006592,8.4279670715332,8.42296123504639,8.41796112060547,8.41296768188477,8.40798091888428,8.40299987792969,8.398024559021,8.3930549621582,8.38809204101562,8.38313388824463,8.37818241119385,8.37323665618896,8.36240482330322,8.34982204437256,8.33727645874023,8.32476902008057,8.31229877471924,8.29986572265625,8.28747081756592,8.27511119842529,8.26319980621338,8.27993106842041,8.29673099517822,8.31359958648682,8.33053588867188,8.34754180908203,8.36461734771729,8.37311553955078,8.37317562103271,8.37323474884033,8.37329483032227,8.3733549118042,8.37341499328613,8.37347507476807,8.37353420257568,8.37359428405762,8.37365436553955,8.37371444702148,8.3737735748291,8.37383365631104,8.37389373779297,8.3739538192749,8.37401294708252,8.37407302856445,8.37413311004639,8.37419414520264,8.3742618560791,8.38949680328369,8.40746593475342,8.42551231384277,8.44363594055176,8.461838722229,8.48011875152588,8.49847888946533,8.51691913604736,8.53543853759766,8.55403900146484,8.57272148132324,8.59148502349854,8.61033058166504,8.62925910949707,8.64827156066895,8.66736507415771,8.68654441833496,8.70580768585205,8.72515773773193,8.74459362030029,8.76411533355713,8.78372573852539,8.80342292785645,8.82320976257324,8.84308528900146,8.8466796875,8.84674835205078,8.84681701660156,8.84688568115234,8.84695434570312,8.84702301025391,8.84709167480469,8.84716033935547,8.84722900390625,8.84729766845703,8.84736633300781,8.84743499755859,8.84750366210938,8.84757137298584,8.84764003753662,8.8477087020874,8.84777736663818,8.84784603118896,8.84791469573975,8.84798336029053,8.84805202484131,8.84812068939209,8.84819030761719,8.84825992584229,8.84832954406738,8.84839916229248,8.84846878051758,8.84853839874268,8.84860801696777,8.84867763519287,8.84874725341797,8.84881687164307,8.84888648986816,8.84895610809326,8.84902572631836,8.84909534454346,8.84916496276855,8.84923458099365,8.84930419921875,8.84937381744385,8.84944343566895,8.84951305389404,8.84958267211914,8.84965229034424,8.84972190856934,8.84979152679443,8.84986019134521,8.84992980957031,8.84999847412109,8.85006713867188,8.85013675689697,8.85020542144775,8.85027503967285,8.85034370422363,8.85041332244873,8.85048198699951,8.85055160522461,8.85062026977539,8.85068893432617,8.85075855255127,8.85082721710205,8.85089683532715,8.85096549987793,8.85103416442871,8.85110378265381,8.85117244720459,8.85124206542969,8.85131072998047,8.85138034820557,8.85144901275635,8.85151863098145,8.85158729553223,8.85165596008301,8.85172557830811,8.85179424285889,8.85186386108398,8.85193252563477,8.85200214385986,8.85207080841064,8.85214042663574,8.85220909118652,8.8522777557373,8.8523473739624,8.85241603851318,8.85248374938965,8.85255336761475,8.85262107849121,8.85268974304199,8.85275840759277,8.85282707214355,8.85289573669434,8.85296440124512,8.85303211212158,8.85310077667236,8.85316944122314,8.85323810577393,8.85330677032471,8.85337543487549,8.85344314575195,8.85351181030273,8.85358047485352,8.38270282745361,8.38275146484375,8.38280010223389,8.38284778594971,8.38289642333984,8.38294506072998,8.38299369812012,8.38304805755615,8.38314056396484,8.38323307037354,8.38332557678223,8.38338184356689,8.38340759277344,8.38346099853516,8.38353824615479,8.38361835479736,8.38368225097656,8.38374614715576,8.38381004333496,8.39377307891846,8.41985130310059,8.44609069824219,8.47249603271484,8.49906635284424,8.52580451965332,8.55271053314209,8.5797872543335,8.60703563690186,8.6344575881958,8.66205501556396,8.68982982635498,8.71778297424316,8.74591636657715,8.77423286437988,8.80273246765137,8.83141708374023,8.86029052734375,8.88935279846191,8.91860675811768,8.94805335998535,8.97769260406494,9.00752639770508,9.03756046295166,9.06779479980469,9.09823226928711
8.70266819000244,8.68886566162109,8.6751070022583,8.66139125823975,8.64771938323975,8.63409042358398,8.62050533294678,8.60696125030518,8.59346103668213,8.580002784729,8.56658744812012,8.55321311950684,8.53988075256348,8.52659034729004,8.51334095001221,8.50013256072998,8.48696613311768,8.47383880615234,8.46075344085693,8.4477071762085,8.43470191955566,8.42173671722412,8.40881061553955,8.39592456817627,8.38559913635254,8.38064289093018,8.37569332122803,8.37074947357178,8.36581230163574,8.36088085174561,8.35595512390137,8.35103607177734,8.3461217880249,8.34121322631836,8.33631134033203,8.3314151763916,8.32652378082275,8.32163906097412,8.31234931945801,8.29991626739502,8.28752040863037,8.27516174316406,8.26332378387451,8.28005695343018,8.29685688018799,8.31372547149658,8.32014656066895,8.32020568847656,8.32026481628418,8.3203239440918,8.32038307189941,8.32044219970703,8.32050132751465,8.32056045532227,8.32061958312988,8.3206787109375,8.32073783874512,8.32079696655273,8.32085609436035,8.32091522216797,8.32097434997559,8.3210334777832,8.32109260559082,8.32115173339844,8.32121086120605,8.32127475738525,8.3361759185791,8.35391712188721,8.37173461914062,8.38962745666504,8.40759754180908,8.42564392089844,8.44376850128174,8.4619722366333,8.48025321960449,8.49861335754395,8.51705360412598,8.5355749130249,8.55417537689209,8.57285785675049,8.5916223526001,8.61046886444092,8.62939643859863,8.64840698242188,8.66750144958496,8.68668079376221,8.70594596862793,8.72529602050781,8.74473190307617,8.76425457000732,8.78386497497559,8.79070281982422,8.79077053070068,8.79083824157715,8.79090595245361,8.79097366333008,8.79104137420654,8.79110908508301,8.79117679595947,8.79124450683594,8.7913122177124,8.79137992858887,8.79144763946533,8.7915153503418,8.79158306121826,8.79165077209473,8.79171848297119,8.79178619384766,8.79185390472412,8.79192161560059,8.79198932647705,8.79205703735352,8.79212474822998,8.79219245910645,8.79226016998291,8.79232788085938,8.79239654541016,8.79246520996094,8.79253387451172,8.7926025390625,8.79267120361328,8.79273986816406,8.79280853271484,8.79287719726562,8.79294586181641,8.79301452636719,8.79308319091797,8.79315280914307,8.79322147369385,8.79329013824463,8.79335880279541,8.79342746734619,8.79349613189697,8.79356479644775,8.79363346099854,8.79370212554932,8.79377174377441,8.7938404083252,8.79390907287598,8.79397773742676,8.79404640197754,8.79411506652832,8.7941837310791,8.79425239562988,8.79432106018066,8.79438877105713,8.79445743560791,8.79452514648438,8.79459381103516,8.79466152191162,8.7947301864624,8.79479789733887,8.79486656188965,8.79493522644043,8.79500293731689,8.79507160186768,8.79513931274414,8.79520702362061,8.79527568817139,8.79534435272217,8.79541206359863,8.79548072814941,8.79554843902588,8.79561710357666,8.79568481445312,8.79575347900391,8.79582118988037,8.79588985443115,8.79595756530762,8.7960262298584,8.79609394073486,8.79616260528564,8.79623126983643,8.79629898071289,8.79636669158936,8.79643535614014,8.79650402069092,8.79657173156738,8.79664039611816,8.79670715332031,8.79677486419678,8.79684257507324,8.79691028594971,8.79697799682617,8.79704570770264,8.7971134185791,8.79718112945557,8.79724884033203,8.7973165512085,8.79738426208496,8.79745197296143,8.79751873016357,8.32963943481445,8.32968711853027,8.32973480224609,8.32978248596191,8.32983112335205,8.32987880706787,8.32992649078369,8.32997417449951,8.33002185821533,8.33010482788086,8.33019638061523,8.33028697967529,8.33035659790039,8.33038234710693,8.33042907714844,8.33050155639648,8.33058452606201,8.33064746856689,8.33071041107178,8.33077335357666,8.34228801727295,8.36804676055908,8.39396572113037,8.42004489898682,8.44628715515137,8.47269248962402,8.49926471710205,8.52600288391113,8.55291080474854,8.57998847961426,8.60723876953125,8.63466167449951,8.66226100921631,8.69003677368164,8.71799087524414,8.74612617492676,8.77444267272949,8.80294418334961,8.83163070678711,8.86050605773926,8.88956928253174,8.91882228851318,8.94826602935791,8.9779052734375,9.00774097442627,9.03777599334717,9.06801223754883,9.09845066070557
8.70272254943848,8.68892002105713,8.67516136169434,8.66144561767578,8.64777374267578,8.63414478302002,8.6205587387085,8.60701560974121,8.59351444244385,8.58005619049072,8.56663990020752,8.55326557159424,8.53993320465088,8.52664184570312,8.51339244842529,8.50018405914307,8.48701667785645,8.47389030456543,8.4608039855957,8.44775867462158,8.43475246429443,8.42178726196289,8.40886116027832,8.39597511291504,8.38312816619873,8.37032032012939,8.35755252838135,8.34482288360596,8.33384799957275,8.32895374298096,8.32406425476074,8.31918144226074,8.31430530548096,8.30943489074707,8.30457019805908,8.29971027374268,8.29485702514648,8.29000854492188,8.28516674041748,8.28032970428467,8.27549839019775,8.27067279815674,8.26344871520996,8.26784420013428,8.26790237426758,8.2679615020752,8.2680196762085,8.2680778503418,8.2681360244751,8.2681941986084,8.2682523727417,8.26831150054932,8.26836967468262,8.26842784881592,8.26848602294922,8.26854419708252,8.26860237121582,8.26866149902344,8.26871967315674,8.26877784729004,8.26883697509766,8.26889514923096,8.26895427703857,8.28352928161621,8.30104637145996,8.31863880157471,8.33630561828613,8.35404777526855,8.37186527252197,8.3897590637207,8.40772914886475,8.42577648162842,8.44390201568604,8.46210479736328,8.48038673400879,8.49874877929688,8.51718902587891,8.53571033477783,8.55431175231934,8.57299518585205,8.59175777435303,8.61060333251953,8.62953090667725,8.6485424041748,8.66763782501221,8.68681812286377,8.70608329772949,8.72543430328369,8.73542881011963,8.73549556732178,8.73556327819824,8.73563003540039,8.73569679260254,8.73576354980469,8.73583030700684,8.73589706420898,8.73596382141113,8.73603057861328,8.73609828948975,8.73616504669189,8.73623180389404,8.73629856109619,8.73636531829834,8.73643207550049,8.73649883270264,8.7365665435791,8.73663330078125,8.7367000579834,8.73676681518555,8.7368335723877,8.73690032958984,8.73696708679199,8.73703479766846,8.73710155487061,8.73716831207275,8.7372350692749,8.73730182647705,8.73736953735352,8.73743724822998,8.73750495910645,8.73757266998291,8.73764038085938,8.73770809173584,8.73777675628662,8.73784446716309,8.73791217803955,8.73797988891602,8.73804759979248,8.73811626434326,8.73818397521973,8.73825168609619,8.73831939697266,8.73838710784912,8.7384557723999,8.73852348327637,8.73859119415283,8.7386589050293,8.73872661590576,8.73879528045654,8.73886299133301,8.73893070220947,8.73899841308594,8.7390661239624,8.73913478851318,8.73920249938965,8.73927021026611,8.73933792114258,8.73940658569336,8.73947429656982,8.73954200744629,8.73960876464844,8.7396764755249,8.73974323272705,8.73981094360352,8.73987770080566,8.73994541168213,8.74001312255859,8.74007987976074,8.74014759063721,8.74021530151367,8.74028205871582,8.74034976959229,8.74041748046875,8.7404842376709,8.74055194854736,8.74061965942383,8.74068641662598,8.74075412750244,8.74082183837891,8.74088859558105,8.74095630645752,8.74102306365967,8.74109077453613,8.7411584854126,8.74122524261475,8.74129295349121,8.74136066436768,8.74142742156982,8.74149513244629,8.74156284332275,8.7416296005249,8.74169635772705,8.7417631149292,8.74182987213135,8.7418966293335,8.74196338653564,8.74203014373779,8.74209690093994,8.74216365814209,8.74223041534424,8.27728939056396,8.27733707427979,8.27738475799561,8.27743244171143,8.27747917175293,8.27752685546875,8.27757453918457,8.27762126922607,8.27766895294189,8.27773571014404,8.27782535552979,8.27791595458984,8.27799892425537,8.27802276611328,8.27806377410889,8.27813148498535,8.27821636199951,8.27827835083008,8.27834033966064,8.27840232849121,8.29143238067627,8.3168773651123,8.34247875213623,8.368239402771,8.39415836334229,8.42023849487305,8.44648170471191,8.4728889465332,8.49946117401123,8.52620124816895,8.55311107635498,8.58018970489502,8.60744094848633,8.63486576080322,8.66246604919434,8.69024276733398,8.71819877624512,8.74633502960205,8.77465343475342,8.80315589904785,8.83184432983398,8.86071968078613,8.88978004455566,8.91903209686279,8.94847774505615,8.97811794281006,9.00795555114746,9.03799152374268,9.06822967529297,9.09867095947266
8.70277786254883,8.68897533416748,8.67521667480469,8.66150093078613,8.64782810211182,8.63419914245605,8.62061309814453,8.60706996917725,8.59356880187988,8.58010959625244,8.56669330596924,8.55331802368164,8.53998470306396,8.52669429779053,8.5134449005127,8.50023555755615,8.48706817626953,8.47394180297852,8.46085548400879,8.44780921936035,8.4348030090332,8.42183780670166,8.40891170501709,8.39602470397949,8.38317775726318,8.37037086486816,8.3576021194458,8.34487247467041,8.33218097686768,8.31952857971191,8.30691432952881,8.29433822631836,8.2827320098877,8.27789783477783,8.27306842803955,8.2682466506958,8.26342964172363,8.25861835479736,8.25381183624268,8.2490119934082,8.24810028076172,8.2557315826416,8.26293754577637,8.25065231323242,8.2384033203125,8.22618961334229,8.21657848358154,8.21664142608643,8.21669864654541,8.21675586700439,8.21681213378906,8.21686935424805,8.21692657470703,8.21698379516602,8.21704006195068,8.21709728240967,8.21715450286865,8.21721172332764,8.21726894378662,8.21732521057129,8.21738243103027,8.21743965148926,8.21749687194824,8.21755409240723,8.21761035919189,8.31876754760742,8.33643531799316,8.35417747497559,8.37199592590332,8.38988971710205,8.40786075592041,8.4259090423584,8.44403457641602,8.46223831176758,8.4805212020874,8.49888324737549,8.51732444763184,8.53584575653076,8.55444622039795,8.57312870025635,8.59189224243164,8.61073780059814,8.62966632843018,8.64867877960205,8.66777420043945,8.68084621429443,8.68091297149658,8.68097877502441,8.68104457855225,8.68111038208008,8.68117618560791,8.68124294281006,8.68130874633789,8.68137454986572,8.68144130706787,8.6815071105957,8.68157291412354,8.68163871765137,8.6817045211792,8.68177127838135,8.68183708190918,8.68190288543701,8.68196964263916,8.68203544616699,8.68210124969482,8.68216705322266,8.6822338104248,8.68229961395264,8.68236541748047,8.6824312210083,8.68249797821045,8.68256378173828,8.68262958526611,8.68269634246826,8.68276214599609,8.68282794952393,8.68289375305176,8.68296051025391,8.68302631378174,8.68309307098389,8.68316078186035,8.6832275390625,8.68329429626465,8.68336200714111,8.68342876434326,8.68349552154541,8.68356323242188,8.68362998962402,8.68369674682617,8.68376445770264,8.68383121490479,8.68389797210693,8.68396472930908,8.68403244018555,8.6840991973877,8.68416595458984,8.68423366546631,8.68430042266846,8.68436717987061,8.68443489074707,8.68450164794922,8.68456840515137,8.68463611602783,8.68470287322998,8.68476963043213,8.68483734130859,8.68490409851074,8.68497085571289,8.68503856658936,8.6851053237915,8.68517208099365,8.68523979187012,8.68530654907227,8.68537330627441,8.68544006347656,8.68550682067871,8.68557357788086,8.68563938140869,8.68570613861084,8.68577289581299,8.68583965301514,8.68590641021729,8.68597221374512,8.68603897094727,8.68610572814941,8.68617248535156,8.68623828887939,8.68630504608154,8.68637180328369,8.68643856048584,8.68650436401367,8.68657112121582,8.68663787841797,8.68670463562012,8.68677043914795,8.6868371963501,8.68690395355225,8.68697071075439,8.68703651428223,8.68710327148438,8.68717002868652,8.68723678588867,8.6873025894165,8.68736839294434,8.68743419647217,8.6875,8.68756580352783,8.68763256072998,8.2255859375,8.22564220428467,8.22568893432617,8.22573566436768,8.22578239440918,8.22582912445068,8.22587585449219,8.22592258453369,8.2259693145752,8.22602081298828,8.22610950469971,8.22619819641113,8.22628784179688,8.22631931304932,8.22635269165039,8.22641563415527,8.22650241851807,8.22656345367432,8.22662544250488,8.22668743133545,8.24119186401367,8.26632976531982,8.29162120819092,8.31706619262695,8.34266948699951,8.36843013763428,8.3943510055542,8.42043209075928,8.44667720794678,8.47308540344238,8.49965953826904,8.52640056610107,8.55331134796143,8.58039093017578,8.60764408111572,8.63506984710693,8.66267108917236,8.69044971466064,8.71840667724609,8.74654388427734,8.77486419677734,8.80336761474609,8.83205413818359,8.86092758178711,8.88998889923096,8.9192419052124,8.94868946075439,8.97833156585693,9.00817012786865,9.03820896148682,9.06845283508301,9.09889984130859
8.70283317565918,8.68902969360352,8.67527103424072,8.66155529022217,8.64788246154785,8.63425350189209,8.62066745758057,8.60712337493896,8.5936222076416,8.58016300201416,8.56674671173096,8.55337142944336,8.54003810882568,8.52674674987793,8.51349639892578,8.50028705596924,8.48711967468262,8.47399234771729,8.46090602874756,8.44785976409912,8.43485355377197,8.42188835144043,8.40896224975586,8.39607524871826,8.38322830200195,8.37042045593262,8.35765171051025,8.34492206573486,8.33223056793213,8.31957817077637,8.30696392059326,8.29438781738281,8.28184986114502,8.26934909820557,8.25688648223877,8.24446201324463,8.23223972320557,8.227463722229,8.23298263549805,8.24058532714844,8.24820327758789,8.25583362579346,8.26298522949219,8.25069999694824,8.23845100402832,8.22623825073242,8.21406173706055,8.20192050933838,8.18981456756592,8.17774486541748,8.16600036621094,8.16606521606445,8.16613006591797,8.16618633270264,8.1662425994873,8.16629886627197,8.16635513305664,8.16641139984131,8.16646766662598,8.16652393341064,8.16658020019531,8.16663646697998,8.16669273376465,8.16674900054932,8.1668062210083,8.16686248779297,8.16691875457764,8.1669750213623,8.16703128814697,8.39002132415771,8.40799236297607,8.42604064941406,8.444167137146,8.46237182617188,8.48065567016602,8.4990177154541,8.51745796203613,8.53597831726074,8.55457973480225,8.57326126098633,8.59202575683594,8.61087226867676,8.6269416809082,8.62700653076172,8.62707233428955,8.62713718414307,8.62720203399658,8.62726783752441,8.62733268737793,8.62739849090576,8.62746334075928,8.62752819061279,8.62759399414062,8.62765884399414,8.62772464752197,8.62778949737549,8.627854347229,8.62792015075684,8.62798500061035,8.62805080413818,8.6281156539917,8.62818145751953,8.62824630737305,8.62831115722656,8.62837696075439,8.62844181060791,8.62850761413574,8.62857246398926,8.62863731384277,8.62870311737061,8.62876796722412,8.62883377075195,8.62889862060547,8.62896347045898,8.62902927398682,8.62909412384033,8.62915992736816,8.62922477722168,8.62929058074951,8.62935543060303,8.62942218780518,8.62948799133301,8.62955379486084,8.62962055206299,8.62968635559082,8.62975311279297,8.6298189163208,8.62988567352295,8.62995147705078,8.63001823425293,8.63008403778076,8.63014984130859,8.63021659851074,8.63028240203857,8.63034915924072,8.63041496276855,8.6304817199707,8.63054752349854,8.63061428070068,8.63068008422852,8.63074684143066,8.6308126449585,8.63087844848633,8.63094520568848,8.63101100921631,8.63107776641846,8.63114356994629,8.63121032714844,8.63127613067627,8.63134288787842,8.63140869140625,8.6314754486084,8.63154125213623,8.63160800933838,8.63167381286621,8.63174057006836,8.63180637359619,8.63187313079834,8.63193893432617,8.632004737854,8.63207054138184,8.63213634490967,8.6322021484375,8.63226795196533,8.63233280181885,8.632399559021,8.63246440887451,8.63253021240234,8.63259601593018,8.63266181945801,8.63272762298584,8.63279342651367,8.6328592300415,8.63292503356934,8.63299083709717,8.63305568695068,8.63312149047852,8.63318729400635,8.63325309753418,8.63331890106201,8.63338470458984,8.63345050811768,8.63351631164551,8.63358116149902,8.63364601135254,8.63371181488037,8.17452430725098,8.17458343505859,8.17463493347168,8.17468070983887,8.17472648620605,8.17477321624756,8.17481899261475,8.17486476898193,8.17491149902344,8.17495727539062,8.17503547668457,8.175124168396,8.17521190643311,8.17525672912598,8.17528438568115,8.17534255981445,8.17543125152588,8.17549228668213,8.17555236816406,8.17561340332031,8.19155693054199,8.21639156341553,8.24137783050537,8.26651573181152,8.29180812835693,8.31725597381592,8.34286022186279,8.36862277984619,8.39454364776611,8.42062664031982,8.44687271118164,8.47328186035156,8.49985694885254,8.5265998840332,8.55351066589355,8.58059215545654,8.6078462600708,8.63527297973633,8.66287708282471,8.69065570831299,8.71861457824707,8.74675369262695,8.77507305145264,8.80357360839844,8.83226013183594,8.86113452911377,8.89019775390625,8.91945266723633,8.94890117645264,8.97854423522949,9.00839042663574,9.03843402862549,9.06867980957031,9.09912967681885
8.70288848876953,8.68908500671387,8.67532539367676,8.6616096496582,8.64793682098389,8.63430786132812,8.62072086334229,8.607177734375,8.59367561340332,8.58021640777588,8.56680011749268,8.55342483520508,8.5400915145874,8.52679920196533,8.51354885101318,8.50033950805664,8.4871711730957,8.47404384613037,8.46095752716064,8.44791126251221,8.43490505218506,8.4219388961792,8.40901184082031,8.39612579345703,8.38327789306641,8.37047004699707,8.35770130157471,8.34497165679932,8.33228015899658,8.3196268081665,8.3070125579834,8.29443645477295,8.28189849853516,8.2693977355957,8.25693511962891,8.24451065063477,8.23212242126465,8.22549533843994,8.2330846786499,8.24068737030029,8.24830532073975,8.25593662261963,8.26303291320801,8.25074768066406,8.23849868774414,8.22628498077393,8.21410846710205,8.2019681930542,8.18986320495605,8.17779445648193,8.1657600402832,8.15375995635986,8.14179611206055,8.12986755371094,8.11797332763672,8.1161060333252,8.11616992950439,8.11623477935791,8.11629104614258,8.11634731292725,8.1164026260376,8.11645793914795,8.11651420593262,8.11656951904297,8.11662483215332,8.11668109893799,8.11673641204834,8.11679172515869,8.11684799194336,8.11690330505371,8.11695861816406,8.11701488494873,8.11707019805908,8.46250534057617,8.480788230896,8.49914836883545,8.5175895690918,8.53611087799072,8.55471229553223,8.57339477539062,8.57376670837402,8.57383060455322,8.57389545440674,8.57395935058594,8.57402420043945,8.57408809661865,8.57415294647217,8.57421779632568,8.57428169250488,8.5743465423584,8.5744104385376,8.57447528839111,8.57453918457031,8.57460403442383,8.57466888427734,8.57473278045654,8.57479763031006,8.57486152648926,8.57492637634277,8.57499027252197,8.57505512237549,8.57511901855469,8.5751838684082,8.57524871826172,8.57531261444092,8.57537746429443,8.57544136047363,8.57550621032715,8.57557106018066,8.57563495635986,8.57569980621338,8.57576370239258,8.57582855224609,8.57589244842529,8.57595729827881,8.57602214813232,8.57608604431152,8.57615089416504,8.57621479034424,8.57627964019775,8.57634449005127,8.57640933990479,8.57647514343262,8.57653999328613,8.57660579681396,8.5766716003418,8.57673645019531,8.57680225372314,8.57686710357666,8.57693290710449,8.57699871063232,8.57706356048584,8.57712936401367,8.57719421386719,8.57726001739502,8.57732582092285,8.57739067077637,8.5774564743042,8.57752132415771,8.57758712768555,8.57765293121338,8.57771778106689,8.57778358459473,8.57784938812256,8.57791423797607,8.57798004150391,8.57804489135742,8.57811069488525,8.57817649841309,8.5782413482666,8.57830715179443,8.57837200164795,8.57843780517578,8.57850360870361,8.57856845855713,8.57863426208496,8.57869911193848,8.57876491546631,8.57883071899414,8.57889556884766,8.57896137237549,8.57902717590332,8.57909202575684,8.57915782928467,8.57922267913818,8.5792875289917,8.57935237884521,8.57941722869873,8.57948207855225,8.57954692840576,8.57961177825928,8.57967758178711,8.57974243164062,8.57980728149414,8.57987213134766,8.57993698120117,8.58000183105469,8.5800666809082,8.58013153076172,8.58019638061523,8.58026123046875,8.58032608032227,8.58039093017578,8.5804557800293,8.12409210205078,8.1241512298584,8.12421035766602,8.12425518035889,8.12430095672607,8.12434673309326,8.12439250946045,8.12443828582764,8.12448310852051,8.1245288848877,8.12459182739258,8.12467956542969,8.12476539611816,8.12482357025146,8.12484836578369,8.12490844726562,8.12498950958252,8.12504959106445,8.12510967254639,8.12516975402832,8.14251708984375,8.16705513000488,8.19174098968506,8.21657657623291,8.24156379699707,8.26670265197754,8.29199695587158,8.31744480133057,8.34305000305176,8.36881351470947,8.39473628997803,8.42082023620605,8.44706726074219,8.47347831726074,8.50005435943604,8.52679824829102,8.5537109375,8.58079433441162,8.6080493927002,8.63547706604004,8.66308116912842,8.69086265563965,8.71882247924805,8.74695777893066,8.77527618408203,8.80377864837646,8.8324670791626,8.86134147644043,8.89040660858154,8.91966342926025,8.94911766052246,8.97876739501953,9.0086145401001,9.03866100311279,9.06890773773193,9.09935760498047
