8.82181930541992,8.82051467895508,8.81921100616455,8.81790733337402,8.81660461425781,8.817795753479,8.82218360900879,8.82657718658447,8.83097457885742,8.83537673950195,8.83978271484375,8.84419345855713,8.84860801696777,8.85302734375,8.85745143890381,8.86187934875488,8.86631202697754,8.87074947357178,8.87519073486328,8.87963676452637,8.88408756256104,8.88854312896729,8.8930025100708,8.89746570587158,8.90193462371826,8.90640735626221,8.91088390350342,8.91536617279053,8.9198522567749,8.92434310913086,8.9288387298584,8.93333911895752,8.93784332275391,8.94235229492188,8.94686603546143,8.95138359069824,8.95590686798096,8.96043395996094,8.9649658203125,8.96950244903564,8.97404384613037,8.97858905792236,8.98313903808594,8.98769378662109,8.99225330352783,8.99681758880615,9.00138664245605,9.00595951080322,9.01053810119629,9.01512050628662,9.01970767974854,9.02429962158203,9.02889633178711,9.03349781036377,9.03810405731201,9.04271507263184,9.04732990264893,9.05195045471191,9.05657577514648,9.06120491027832,9.06583976745605,9.07047843933105,9.07512283325195,9.07977104187012,9.08442497253418,9.08908271789551,9.09374618530273,9.09841346740723,9.1030855178833,9.10776329040527,9.11244583129883,9.11713218688965,9.12182426452637,9.12652111053467,9.13122177124023,9.1359281539917,9.14063930511475,9.14535522460938,9.1500768661499,9.1548023223877,9.15953350067139,9.16426849365234,9.1690092086792,9.17375469207764,9.17850494384766,9.18325996398926,9.18801975250244,9.19278526306152,9.19755458831787,9.20232963562012,9.20710945129395,9.21189498901367,9.21668434143066,9.22147941589355,9.22627925872803,9.23108386993408,9.23589420318604,9.24070835113525,9.24552822113037,9.25035285949707,9.25518321990967,9.26001834869385,9.26485824584961,9.26970386505127,9.27384281158447,9.27189350128174,9.26994609832764,9.26799869537354,9.26605224609375,9.26410675048828,9.26216220855713,9.26021862030029,9.25827503204346,9.25633239746094,9.25439167022705,9.25245094299316,9.25051116943359,9.24857234954834,9.24663352966309,9.24469661712646,9.24275970458984,9.24082374572754,9.23888874053955,9.23695468902588,9.23502159118652,9.23308944702148,9.23115730285645,9.22922706604004,9.22729682922363,9.22536754608154,9.22343826293945,9.221510887146,9.21958446502686,9.21765804290771,9.21573257446289,9.21380805969238,9.21188449859619,9.20996189117432,9.20804023742676,9.2061185836792,9.20419788360596,9.20227909088135,9.20035934448242,9.19541358947754,9.17825317382812,9.16115665435791,9.14412403106689,9.12715435028076,9.11024761199951,9.09340381622314,9.07662200927734,9.05990123748779,9.04324245452881,9.02664470672607,9.01010799407959,8.99363231658936,8.97721576690674,8.96085929870605,8.9445629119873,8.92832469940186,8.91214656829834,8.89602565765381,8.87996387481689,8.86395931243896,8.84801292419434,8.83212375640869,8.81629180908203,8.80051612854004,8.78479671478271,8.76913356781006,8.75352573394775,8.7379732131958,8.72247695922852,8.70703506469727,8.69164752960205,8.67631435394287,8.66103649139404,8.64581203460693,8.63064193725586,8.61552429199219,8.60045909881592,8.58544731140137,8.5704870223999,8.55557918548584,8.54072380065918,8.52591896057129,8.51116561889648,8.49646377563477,8.4818115234375,8.46721076965332,8.45265960693359,8.43815803527832,8.4237060546875,8.4093017578125,8.39494705200195,8.38064193725586,8.36638450622559,8.35217571258545,8.33801555633545,8.32390308380127,8.30983829498291,8.29582023620605,8.28184986114502,8.2679271697998,8.25405025482178,8.24022102355957,8.22643661499023,8.2126989364624,8.19900703430176,8.1853609085083,8.17175960540771,8.15820407867432,8.14469337463379,8.13122749328613,8.11780548095703,8.10442733764648,8.09109401702881,8.07780456542969,8.0645580291748,8.05135536193848,8.03819561004639,8.02507972717285,8.01200580596924,7.99897527694702,7.98598670959473,7.97304010391235,7.9601354598999,7.94727277755737,7.93445158004761,7.92167139053345,7.90893268585205,7.8962345123291,7.88357734680176,7.8709602355957,7.86050987243652,7.87303066253662,7.88559198379517,7.89819288253784,7.91083431243896,7.92351579666138,7.93623876571655,7.94900226593018,7.9618067741394,7.9746527671814,7.98754024505615,8.00046920776367,8.01344108581543,8.02645397186279,8.03950977325439,8.05260753631592,8.06574821472168,8.078932762146,8.09215927124023,8.10542964935303,8.11874389648438,8.13210201263428,8.14550304412842,8.15894985198975,8.17244052886963,8.18597507476807,8.19955539703369,8.21318054199219,8.22685146331787,8.24056720733643
8.80374813079834,8.80245018005371,8.80115127563477,8.79985332489014,8.79855537414551,8.80202293395996,8.806396484375,8.8107738494873,8.81515502929688,8.81954097747803,8.82393169403076,8.82832622528076,8.83272552490234,8.83712959289551,8.84153747558594,8.84594917297363,8.85036659240723,8.85478782653809,8.85921287536621,8.86364269256592,8.86807727813721,8.87251663208008,8.87695980072021,8.88140773773193,8.88585948944092,8.8903169631958,8.89477825164795,8.89924335479736,8.90371322631836,8.90818786621094,8.9126672744751,8.91715145111084,8.92163944244385,8.92613220214844,8.93062877655029,8.93513107299805,8.93963718414307,8.94414806365967,8.94866371154785,8.9531831741333,8.95770740509033,8.96223640441895,8.96677017211914,8.97130870819092,8.97585201263428,8.9803991317749,8.98495101928711,8.9895076751709,8.99406909942627,8.99863529205322,9.00320625305176,9.00778102874756,9.01236057281494,9.01694583892822,9.02153491973877,9.0261287689209,9.03072738647461,9.0353307723999,9.03993797302246,9.04455089569092,9.04916858673096,9.05379009246826,9.05841732025146,9.06304836273193,9.0676851272583,9.07232570648193,9.07697200775146,9.08162212371826,9.08627796173096,9.09093761444092,9.09560298919678,9.1002721786499,9.10494709014893,9.10962581634521,9.1143102645874,9.11899852752686,9.12369251251221,9.12839126586914,9.13309478759766,9.13780307769775,9.14251613616943,9.1472339630127,9.15195655822754,9.15668392181396,9.16141700744629,9.16615390777588,9.17089653015137,9.17564392089844,9.18039608001709,9.18515300750732,9.18991565704346,9.19468212127686,9.19945430755615,9.20423126220703,9.20901298522949,9.21380043029785,9.21859169006348,9.223388671875,9.22819042205811,9.23299694061279,9.23780918121338,9.24262619018555,9.2474479675293,9.25227451324463,9.25710678100586,9.26194381713867,9.26035022735596,9.25840663909912,9.2564640045166,9.25452327728271,9.25258255004883,9.25064182281494,9.24870300292969,9.24676513671875,9.24482727050781,9.24289131164551,9.2409553527832,9.23902034759521,9.23708629608154,9.23515224456787,9.23322010040283,9.23128795623779,9.22935771942139,9.22742748260498,9.22549819946289,9.2235689163208,9.22164154052734,9.2197151184082,9.21778869628906,9.21586322784424,9.21393871307373,9.21201515197754,9.21009254455566,9.20816993713379,9.20624828338623,9.2043285369873,9.20240879058838,9.20048999786377,9.19857215881348,9.19665431976318,9.19473838806152,9.19282245635986,9.19090747833252,9.18899345397949,9.17826461791992,9.16116809844971,9.14413547515869,9.12716579437256,9.11025905609131,9.09341430664062,9.07663249969482,9.05991172790527,9.04325294494629,9.02665615081787,9.01011848449707,8.99364280700684,8.97722625732422,8.96086978912354,8.94457340240479,8.92833518981934,8.91215705871582,8.89603614807129,8.87997436523438,8.86396980285645,8.84802341461182,8.83213424682617,8.8163013458252,8.8005256652832,8.78480625152588,8.76914310455322,8.75353527069092,8.73798370361328,8.72248649597168,8.70704460144043,8.69165706634521,8.67632389068604,8.66104602813721,8.6458215713501,8.63065052032471,8.61553287506104,8.60046863555908,8.58545589447021,8.57049655914307,8.555588722229,8.54073238372803,8.52592754364014,8.51117420196533,8.49647235870361,8.48182106018066,8.46721935272217,8.45266819000244,8.43816757202148,8.42371463775635,8.40931034088135,8.3949556350708,8.38065052032471,8.36639308929443,8.3521842956543,8.3380241394043,8.32391166687012,8.30984687805176,8.2958288192749,8.28185844421387,8.26793575286865,8.25405883789062,8.2402286529541,8.22644519805908,8.21270751953125,8.19901561737061,8.18536949157715,8.17176818847656,8.15821266174316,8.14470195770264,8.13123512268066,8.11781311035156,8.10443592071533,8.09110260009766,8.07781219482422,8.06456661224365,8.05136394500732,8.03820419311523,8.02508735656738,8.01201343536377,7.99898290634155,7.98599433898926,7.97304773330688,7.96014356613159,7.9472804069519,7.93445920944214,7.92167901992798,7.90894031524658,7.89624214172363,7.88358497619629,7.87096786499023,7.86063718795776,7.87315845489502,7.88571977615356,7.8983211517334,7.91096305847168,7.92364549636841,7.93636846542358,7.94913244247437,7.96193742752075,7.9747838973999,7.98767185211182,8.00060176849365,8.01357269287109,8.02658653259277,8.03964233398438,8.05274105072021,8.06588268280029,8.07906723022461,8.09229469299316,8.10556507110596,8.1188793182373,8.13223743438721,8.14564037322998,8.15908622741699,8.17257785797119,8.18611335754395,8.19969367980957,8.21331977844238,8.22699069976807,8.24070739746094
8.78575229644775,8.78445816040039,8.78316497802734,8.78187274932861,8.78195381164551,8.7863073348999,8.79066467285156,8.7950267791748,8.79939270019531,8.80376243591309,8.80813789367676,8.81251621246338,8.8169002532959,8.82128810882568,8.82567977905273,8.83007621765137,8.83447742462158,8.83888244628906,8.84329223632812,8.84770679473877,8.85212516784668,8.85654830932617,8.86097526550293,8.86540699005127,8.86984348297119,8.87428379058838,8.87872886657715,8.8831787109375,8.88763236999512,8.89209079742432,8.8965539932251,8.90102195739746,8.90549373626709,8.9099702835083,8.91445064544678,8.91893672943115,8.92342662811279,8.92792129516602,8.9324197769165,8.93692302703857,8.94143199920654,8.94594383239746,8.95046138763428,8.95498275756836,8.95950984954834,8.96404075622559,8.9685754776001,8.97311592102051,8.97766017913818,8.98221015930176,8.9867639541626,8.99132251739502,8.99588584899902,9.00045299530029,9.00502586364746,9.00960254669189,9.01418495178223,9.01877117156982,9.023362159729,9.02795791625977,9.03255844116211,9.03716373443604,9.04177284240723,9.04638767242432,9.05100727081299,9.05563068389893,9.06025981903076,9.06489276885986,9.06953144073486,9.07417392730713,9.07882213592529,9.08347415924072,9.08813190460205,9.09279346466064,9.09745979309082,9.10213184356689,9.10680770874023,9.11148929595947,9.11617565155029,9.12086582183838,9.12556171417236,9.13026237487793,9.13496780395508,9.13967704772949,9.14439296722412,9.14911270141602,9.15383720397949,9.15856647491455,9.16330146789551,9.16804122924805,9.17278480529785,9.17753410339355,9.18228816986084,9.18704795837402,9.19181156158447,9.19658088684082,9.20135498046875,9.20613384246826,9.21091747283936,9.21570587158203,9.22049999237061,9.22529888153076,9.2301025390625,9.23491191864014,9.23972511291504,9.24454402923584,9.24936771392822,9.24883460998535,9.24689674377441,9.24495887756348,9.24302196502686,9.24108600616455,9.23915100097656,9.23721694946289,9.23528385162354,9.23335075378418,9.23141956329346,9.22948837280273,9.22755813598633,9.22562885284424,9.22369956970215,9.22177219390869,9.21984481811523,9.21791934967041,9.21599388122559,9.21406936645508,9.21214485168457,9.2102222442627,9.20830059051514,9.20637893676758,9.20445823669434,9.20253849029541,9.2006196975708,9.19870185852051,9.19678401947021,9.19486808776855,9.19295215606689,9.19103717803955,9.18912315368652,9.1872091293335,9.1852970123291,9.18338489532471,9.18147373199463,9.17956352233887,9.17765522003174,9.16117858886719,9.14414596557617,9.12717628479004,9.11026954650879,9.09342575073242,9.0766429901123,9.05992317199707,9.04326438903809,9.02666664123535,9.01012992858887,8.99365329742432,8.9772367477417,8.96088027954102,8.94458389282227,8.92834568023682,8.9121675491333,8.89604663848877,8.87998485565186,8.86398029327393,8.8480339050293,8.83214473724365,8.81631183624268,8.80053615570068,8.78481674194336,8.7691535949707,8.7535457611084,8.73799324035645,8.72249698638916,8.70705413818359,8.69166660308838,8.6763334274292,8.66105556488037,8.64583110809326,8.63066005706787,8.6155424118042,8.60047721862793,8.58546543121338,8.57050514221191,8.55559730529785,8.54074192047119,8.5259370803833,8.5111837387085,8.49648094177246,8.48182964324951,8.46722793579102,8.45267772674561,8.43817615509033,8.4237232208252,8.40931987762451,8.39496517181396,8.38065910339355,8.36640167236328,8.35219287872314,8.33803272247314,8.32392024993896,8.30985546112061,8.29583740234375,8.28186702728271,8.2679443359375,8.25406742095947,8.24023723602295,8.22645378112793,8.2127161026001,8.19902420043945,8.185378074646,8.17177677154541,8.1582202911377,8.14470958709717,8.13124370574951,8.11782169342041,8.10444355010986,8.09111022949219,8.07782077789307,8.06457424163818,8.05137157440186,8.03821182250977,8.02509498596191,8.01202201843262,7.99899053573608,7.98600196838379,7.97305583953857,7.96015119552612,7.94728803634644,7.93446683883667,7.92168664932251,7.90894794464111,7.89624977111816,7.88359260559082,7.87097549438477,7.860764503479,7.87328624725342,7.88584756851196,7.89844942092896,7.91109180450439,7.92377471923828,7.93649816513062,7.9492621421814,7.96206760406494,7.97491455078125,7.98780298233032,8.00073337554932,8.01370525360107,8.02671909332275,8.03977584838867,8.05287456512451,8.06601619720459,8.07920074462891,8.09242916107178,8.10570049285889,8.11901569366455,8.13237380981445,8.14577674865723,8.15922355651855,8.17271518707275,8.18625164031982,8.19983196258545,8.21345806121826,8.22712993621826,8.24084758758545
8.7678279876709,8.76654052734375,8.76525211334229,8.76396465301514,8.76630973815918,8.77064800262451,8.77498912811279,8.77933597564697,8.7836856842041,8.78804111480713,8.79239940643311,8.79676342010498,8.80113124847412,8.80550289154053,8.80987930297852,8.81426048278809,8.81864547729492,8.82303524017334,8.82742881774902,8.83182716369629,8.83623027801514,8.84063720703125,8.84504890441895,8.84946441650391,8.85388469696045,8.85830879211426,8.86273860931396,8.86717224121094,8.87160968780518,8.876051902771,8.8804988861084,8.88495063781738,8.88940620422363,8.89386653900146,8.89833164215088,8.90280055999756,8.90727424621582,8.91175270080566,8.91623497009277,8.92072296142578,8.92521476745605,8.92971038818359,8.93421173095703,8.93871688842773,8.94322681427002,8.94774150848389,8.95226001739502,8.95678424835205,8.96131229400635,8.96584510803223,8.97038173675537,8.97492408752441,8.97947025299072,8.98402118682861,8.98857688903809,8.99313735961914,8.99770259857178,9.002272605896,9.00684642791748,9.01142597198486,9.01600933074951,9.02059745788574,9.02519035339355,9.02978801727295,9.03439044952393,9.03899765014648,9.04360866546631,9.04822540283203,9.05284595489502,9.05747222900391,9.06210327148438,9.06673812866211,9.07137775421143,9.07602310180664,9.08067226409912,9.0853271484375,9.08998584747314,9.09465026855469,9.0993185043335,9.1039924621582,9.10867023468018,9.11335372924805,9.11804103851318,9.12273406982422,9.12743186950684,9.13213443756104,9.1368408203125,9.14155292510986,9.14626979827881,9.15099239349365,9.15571880340576,9.16044998168945,9.16518688201904,9.16992855072021,9.17467403411865,9.17942523956299,9.18418216705322,9.18894290924072,9.1937084197998,9.19847965240479,9.20325565338135,9.20803642272949,9.21282291412354,9.21761322021484,9.22240924835205,9.22721004486084,9.23201560974121,9.23682689666748,9.23734760284424,9.23541450500488,9.23348140716553,9.2315502166748,9.22961902618408,9.22768878936768,9.22575950622559,9.2238302230835,9.22190284729004,9.21997547149658,9.21804904937744,9.21612453460693,9.21419906616211,9.21227550506592,9.21035289764404,9.20843029022217,9.20650863647461,9.20458793640137,9.20266819000244,9.20074939727783,9.19883155822754,9.19691371917725,9.19499683380127,9.19308185577393,9.19116687774658,9.18925285339355,9.18733882904053,9.18542671203613,9.18351459503174,9.18160343170166,9.1796932220459,9.17778396606445,9.17587566375732,9.1739673614502,9.17206001281738,9.1701545715332,9.16824817657471,9.16119003295898,9.14415740966797,9.12718772888184,9.11028099060059,9.0934362411499,9.0766544342041,9.05993366241455,9.04327487945557,9.02667713165283,9.01014041900635,8.9936637878418,8.97724723815918,8.9608907699585,8.94459438323975,8.9283561706543,8.91217708587646,8.89605712890625,8.87999534606934,8.86399078369141,8.84804439544678,8.83215427398682,8.81632232666016,8.80054664611816,8.78482723236084,8.76916313171387,8.75355625152588,8.73800373077393,8.72250652313232,8.70706462860107,8.69167709350586,8.67634391784668,8.66106414794922,8.64584064483643,8.63066959381104,8.61555194854736,8.60048675537109,8.58547496795654,8.57051467895508,8.55560684204102,8.54075050354004,8.52594566345215,8.51119232177734,8.49649047851562,8.48183822631836,8.46723747253418,8.45268630981445,8.43818473815918,8.42373275756836,8.40932846069336,8.39497375488281,8.3806676864624,8.36641025543213,8.35220146179199,8.33804130554199,8.32392883300781,8.30986404418945,8.2958459854126,8.28187561035156,8.26795291900635,8.25407600402832,8.2402458190918,8.22646236419678,8.21272468566895,8.1990327835083,8.18538570404053,8.17178535461426,8.15822887420654,8.14471817016602,8.13125133514404,8.11782932281494,8.10445213317871,8.09111881256104,8.0778284072876,8.06458282470703,8.05137920379639,8.0382194519043,8.02510356903076,8.01202964782715,7.99899864196777,7.98601007461548,7.97306346893311,7.96015882492065,7.94729566574097,7.9344744682312,7.92169427871704,7.90895557403564,7.8962574005127,7.88359975814819,7.8709831237793,7.86089134216309,7.87341356277466,7.88597583770752,7.89857816696167,7.91122055053711,7.92390394210815,7.93662786483765,7.94939231872559,7.96219825744629,7.97504568099976,7.98793411254883,8.00086498260498,8.01383686065674,8.02685165405273,8.03990840911865,8.05300807952881,8.0661506652832,8.07933521270752,8.09256362915039,8.10583591461182,8.11915111541748,8.1325101852417,8.14591312408447,8.15936088562012,8.17285251617432,8.18638896942139,8.19997119903564,8.21359729766846,8.22726917266846,8.24098682403564
8.74997806549072,8.74869537353516,8.74741268157959,8.74640369415283,8.7507209777832,8.75504302978516,8.75936985015869,8.76370048522949,8.76803588867188,8.77237510681152,8.77671813964844,8.78106594085693,8.78541851043701,8.78977489471436,8.79413604736328,8.79850101470947,8.80287075042725,8.80724430084229,8.81162261962891,8.81600475311279,8.82039165496826,8.82478332519531,8.82917881011963,8.83357906341553,8.83798313140869,8.84239196777344,8.84680557250977,8.85122299194336,8.85564517974854,8.86007118225098,8.864501953125,8.86893749237061,8.87337684631348,8.87782096862793,8.88226985931396,8.88672351837158,8.89118099212646,8.89564228057861,8.90010929107666,8.90458011627197,8.90905570983887,8.91353607177734,8.91802024841309,8.92250919342041,8.92700290679932,8.9315013885498,8.93600368499756,8.94051074981689,8.94502258300781,8.94953918457031,8.95405960083008,8.95858478546143,8.96311473846436,8.96764945983887,8.97218894958496,8.97673225402832,8.98128128051758,8.9858341217041,8.99039173126221,8.99495410919189,8.99952030181885,9.0040922164917,9.00866794586182,9.01324939727783,9.01783466339111,9.02242469787598,9.02701950073242,9.03161907196045,9.03622341156006,9.04083156585693,9.04544544219971,9.05006408691406,9.05468654632568,9.0593147277832,9.06394672393799,9.06858444213867,9.07322597503662,9.07787227630615,9.08252429962158,9.08718013763428,9.09184169769287,9.09650707244873,9.10117721557617,9.10585308074951,9.11053276062012,9.11521816253662,9.11990833282471,9.12460231781006,9.12930202484131,9.13400650024414,9.13871574401855,9.14342975616455,9.14814853668213,9.15287208557129,9.15760135650635,9.16233444213867,9.16707324981689,9.17181587219238,9.17656421661377,9.18131732940674,9.18607616424561,9.19083881378174,9.19560718536377,9.20037937164307,9.20515727996826,9.20994091033936,9.21472835540771,9.21952152252197,9.2243185043335,9.22589015960693,9.22396087646484,9.22203350067139,9.22010612487793,9.21817970275879,9.21625423431396,9.21432971954346,9.21240615844727,9.21048259735107,9.2085599899292,9.20663928985596,9.20471858978271,9.20279884338379,9.20088005065918,9.19896125793457,9.19704437255859,9.19512748718262,9.19321155548096,9.19129657745361,9.18938159942627,9.18746852874756,9.18555545806885,9.18364429473877,9.18173313140869,9.17982292175293,9.17791366577148,9.17600440979004,9.17409706115723,9.17218971252441,9.17028331756592,9.16837787628174,9.16647338867188,9.16456890106201,9.16266632080078,9.16076374053955,9.15886211395264,9.15696144104004,9.14416790008545,9.12719821929932,9.11029148101807,9.09344673156738,9.07666492462158,9.05994415283203,9.04328536987305,9.02668762207031,9.01015090942383,8.99367427825928,8.97725772857666,8.96090126037598,8.94460487365723,8.92836666107178,8.91218757629395,8.89606761932373,8.8800048828125,8.86400127410889,8.84805393218994,8.8321647644043,8.81633186340332,8.80055618286133,8.784836769104,8.76917362213135,8.75356578826904,8.73801326751709,8.7225170135498,8.70707416534424,8.69168663024902,8.67635345458984,8.6610746383667,8.64584922790527,8.6306791305542,8.61556053161621,8.60049629211426,8.58548355102539,8.57052421569824,8.55561542510986,8.5407600402832,8.52595520019531,8.51120185852051,8.49649906158447,8.48184776306152,8.46724605560303,8.4526948928833,8.43819427490234,8.42374134063721,8.40933704376221,8.39498233795166,8.38067626953125,8.36641883850098,8.35221004486084,8.33804988861084,8.32393741607666,8.3098726272583,8.29585456848145,8.28188419342041,8.2679615020752,8.25408458709717,8.24025440216064,8.22647094726562,8.21273231506348,8.19904041290283,8.18539428710938,8.17179298400879,8.15823745727539,8.14472579956055,8.13125991821289,8.11783790588379,8.10446071624756,8.09112644195557,8.07783699035645,8.06459045410156,8.05138778686523,8.03822803497314,8.02511119842529,8.01203727722168,7.9990062713623,7.98601770401001,7.97307109832764,7.96016645431519,7.94730377197266,7.93448209762573,7.92170190811157,7.90896320343018,7.89626502990723,7.88360738754272,7.87099075317383,7.86101865768433,7.87354135513306,7.88610363006592,7.89870643615723,7.91134929656982,7.92403316497803,7.93675708770752,7.94952249526978,7.96232891082764,7.9751763343811,7.98806571960449,8.00099658966064,8.01396942138672,8.02698421478271,8.04004192352295,8.05314159393311,8.0662841796875,8.07946968078613,8.09269905090332,8.10597038269043,8.11928653717041,8.13264656066895,8.14604949951172,8.15949821472168,8.17298984527588,8.18652725219727,8.20010948181152,8.21373653411865,8.22740840911865,8.24112701416016
8.73220062255859,8.73092269897461,8.72964477539062,8.73088550567627,8.73518753051758,8.73949432373047,8.74380588531494,8.74812126159668,8.75244045257568,8.75676441192627,8.76109218597412,8.76542472839355,8.76976203918457,8.77410316467285,8.7784481048584,8.78279781341553,8.78715133666992,8.7915096282959,8.79587268829346,8.80023956298828,8.80461025238037,8.80898571014404,8.8133659362793,8.81774997711182,8.82213878631592,8.82653141021729,8.83092880249023,8.83533096313477,8.83973693847656,8.84414768218994,8.84856224060059,8.85298252105713,8.85740566253662,8.8618335723877,8.86626625061035,8.87070369720459,8.87514495849609,8.87959098815918,8.88404178619385,8.88849639892578,8.8929557800293,8.89741992950439,8.90188789367676,8.9063606262207,8.91083812713623,8.91531944274902,8.91980648040771,8.92429733276367,8.92879199981689,8.93329238891602,8.9377965927124,8.94230556488037,8.94681930541992,8.95133781433105,8.95586013793945,8.96038722991943,8.964919090271,8.96945571899414,8.97399616241455,8.97854232788086,8.98309230804443,8.98764705657959,8.99220657348633,8.99677085876465,9.00133895874023,9.00591278076172,9.01049041748047,9.0150728225708,9.01966094970703,9.02425289154053,9.02884960174561,9.03345012664795,9.03805637359619,9.04266738891602,9.04728221893311,9.05190277099609,9.05652809143066,9.0611572265625,9.06579208374023,9.07043075561523,9.07507419586182,9.0797233581543,9.08437633514404,9.08903503417969,9.0936975479126,9.09836483001709,9.10303783416748,9.10771465301514,9.11239719390869,9.11708354949951,9.12177562713623,9.12647247314453,9.13117408752441,9.13587951660156,9.14059066772461,9.14530658721924,9.15002822875977,9.15475368499756,9.15948390960693,9.16421985626221,9.16895961761475,9.17370510101318,9.1784553527832,9.1832103729248,9.18797016143799,9.19273567199707,9.19750595092773,9.20228004455566,9.20705986022949,9.21184539794922,9.2144603729248,9.2125358581543,9.21061325073242,9.20869064331055,9.20676898956299,9.20484828948975,9.20292854309082,9.20100975036621,9.1990909576416,9.19717311859131,9.19525718688965,9.19334125518799,9.19142627716064,9.1895112991333,9.18759822845459,9.18568515777588,9.18377304077148,9.18186187744141,9.17995166778564,9.1780424118042,9.17613410949707,9.17422580718994,9.17231845855713,9.17041206359863,9.16850662231445,9.16660213470459,9.16469764709473,9.1627950668335,9.16089248657227,9.15899085998535,9.15709018707275,9.15518951416016,9.15329074859619,9.15139198303223,9.14949417114258,9.14759731292725,9.14417934417725,9.12720966339111,9.11030197143555,9.09345817565918,9.07667541503906,9.05995559692383,9.04329586029053,9.02669811248779,9.01016139984131,8.99368476867676,8.97726917266846,8.96091270446777,8.94461536407471,8.92837715148926,8.91219806671143,8.89607810974121,8.88001537322998,8.86401176452637,8.84806442260742,8.83217525482178,8.8163423538208,8.80056667327881,8.78484725952148,8.76918411254883,8.75357627868652,8.73802375793457,8.72252655029297,8.70708465576172,8.6916971206665,8.67636299133301,8.66108417510986,8.64585876464844,8.63068771362305,8.61557006835938,8.60050487518311,8.58549308776855,8.57053279876709,8.55562496185303,8.54076862335205,8.52596378326416,8.51121044158936,8.49650859832764,8.48185634613037,8.46725463867188,8.45270442962646,8.43820285797119,8.42374992370605,8.40934562683105,8.39499092102051,8.3806848526001,8.36642837524414,8.352219581604,8.33805847167969,8.32394599914551,8.30988121032715,8.29586315155029,8.28189277648926,8.26796913146973,8.25409317016602,8.24026298522949,8.22647857666016,8.21274089813232,8.19904899597168,8.18540287017822,8.17180156707764,8.15824508666992,8.14473438262939,8.13126850128174,8.11784648895264,8.10446834564209,8.09113502502441,8.07784461975098,8.06459903717041,8.05139541625977,8.03823566436768,8.02511882781982,8.01204490661621,7.99901437759399,7.98602533340454,7.97307920455933,7.96017408370972,7.94731140136719,7.93448972702026,7.9217095375061,7.90897083282471,7.89627265930176,7.88361501693726,7.87099838256836,7.86114597320557,7.87366914749146,7.88623189926147,7.89883470535278,7.9114785194397,7.9241623878479,7.93688678741455,7.94965267181396,7.96245956420898,7.97530746459961,7.988196849823,8.00112819671631,8.0141019821167,8.0271167755127,8.04017448425293,8.0532751083374,8.06641864776611,8.07960414886475,8.09283351898193,8.10610580444336,8.11942195892334,8.13278198242188,8.14618682861328,8.15963459014893,8.17312717437744,8.18666553497314,8.2002477645874,8.21387481689453,8.22754764556885,8.24126625061035
8.7144947052002,8.71322154998779,8.71194934844971,8.71542167663574,8.7197093963623,8.72400093078613,8.72829723358154,8.7325963973999,8.73690128326416,8.74120998382568,8.74552249908447,8.74983978271484,8.75416088104248,8.75848579406738,8.76281642913818,8.76714992523193,8.77148818969727,8.77583122253418,8.78017807006836,8.78452968597412,8.78888511657715,8.79324531555176,8.79760932922363,8.80197811126709,8.80635070800781,8.81072807312012,8.815110206604,8.81949615478516,8.82388591766357,8.82828140258789,8.83267974853516,8.83708381652832,8.84149169921875,8.84590435028076,8.85032081604004,8.8547420501709,8.85916709899902,8.86359691619873,8.86803150177002,8.87247085571289,8.87691402435303,8.88136196136475,8.88581371307373,8.8902702331543,8.89473152160645,8.89919757843018,8.90366744995117,8.90814208984375,8.91262054443359,8.91710472106934,8.92159271240234,8.92608547210693,8.93058204650879,8.93508434295654,8.93959045410156,8.94410133361816,8.94861698150635,8.9531364440918,8.95766067504883,8.96218967437744,8.96672344207764,8.97126197814941,8.97580432891846,8.9803524017334,8.98490428924561,8.98946094512939,8.99402236938477,8.9985876083374,9.00315856933594,9.00773334503174,9.01231384277344,9.0168981552124,9.02148723602295,9.02608108520508,9.03067970275879,9.03528308868408,9.03989028930664,9.0445032119751,9.04912090301514,9.05374240875244,9.05836963653564,9.06300067901611,9.06763744354248,9.07227802276611,9.07692337036133,9.08157444000244,9.08622932434082,9.0908899307251,9.09555435180664,9.10022354125977,9.10489845275879,9.10957717895508,9.11426162719727,9.11894989013672,9.12364387512207,9.128342628479,9.13304615020752,9.13775444030762,9.1424674987793,9.14718532562256,9.1519079208374,9.15663528442383,9.16136837005615,9.16610527038574,9.17084789276123,9.1755952835083,9.18034744262695,9.18510437011719,9.189866065979,9.19463348388672,9.1994047164917,9.20305824279785,9.20113945007324,9.19922065734863,9.19730377197266,9.19538688659668,9.19347095489502,9.19155597686768,9.18964099884033,9.18772792816162,9.18581485748291,9.18390274047852,9.18199157714844,9.18008136749268,9.17817211151123,9.17626285552979,9.17435550689697,9.17244815826416,9.17054080963135,9.16863536834717,9.1667308807373,9.16482639312744,9.16292381286621,9.16102123260498,9.15911960601807,9.15721893310547,9.15531826019287,9.15341949462891,9.15152072906494,9.14962291717529,9.14772605895996,9.14583015441895,9.14393424987793,9.14204025268555,9.14014625549316,9.1382532119751,9.13636112213135,9.12722015380859,9.11031341552734,9.09346866607666,9.07668685913086,9.05996608734131,9.04330730438232,9.02670955657959,9.01017189025879,8.99369525909424,8.97727966308594,8.96092319488525,8.94462585449219,8.92838764190674,8.91220855712891,8.89608860015869,8.88002586364746,8.86402130126953,8.8480749130249,8.83218479156494,8.81635284423828,8.80057716369629,8.78485679626465,8.76919364929199,8.75358581542969,8.73803329467773,8.72253704071045,8.70709419250488,8.69170665740967,8.67637348175049,8.66109371185303,8.6458683013916,8.63069725036621,8.61557960510254,8.60051441192627,8.5855016708374,8.57054233551025,8.55563449859619,8.54077816009521,8.52597332000732,8.51121997833252,8.49651718139648,8.48186492919922,8.46726417541504,8.45271301269531,8.43821144104004,8.4237585067749,8.40935516357422,8.39499950408936,8.38069438934326,8.36643695831299,8.35222816467285,8.33806705474854,8.32395458221436,8.309889793396,8.29587173461914,8.28190135955811,8.26797771453857,8.25410175323486,8.24027156829834,8.226487159729,8.21274948120117,8.19905757904053,8.18541049957275,8.17181015014648,8.15825366973877,8.14474296569824,8.13127613067627,8.11785411834717,8.10447692871094,8.09114265441895,8.07785320281982,8.06460666656494,8.05140399932861,8.03824424743652,8.02512741088867,8.01205348968506,7.99902200698853,7.98603343963623,7.97308683395386,7.96018218994141,7.94731903076172,7.93449735641479,7.92171716690063,7.90897846221924,7.89628028869629,7.88362264633179,7.87100601196289,7.86127328872681,7.8737964630127,7.88635969161987,7.8989634513855,7.91160726547241,7.92429161071777,7.93701648712158,7.94978284835815,7.96258974075317,7.97543859481812,7.98832845687866,8.00125980377197,8.01423358917236,8.02724933624268,8.04030799865723,8.0534086227417,8.06655216217041,8.07973861694336,8.09296798706055,8.10624122619629,8.11955833435059,8.13291835784912,8.14632320404053,8.15977191925049,8.17326545715332,8.18680286407471,8.20038604736328,8.21401405334473,8.22768783569336,8.24140644073486
8.69686031341553,8.69559288024902,8.69574546813965,8.70001411437988,8.70428562164307,8.70856189727783,8.71284294128418,8.71712779998779,8.72141647338867,8.72570991516113,8.73000717163086,8.73430919647217,8.73861503601074,8.7429256439209,8.74724006652832,8.75155830383301,8.75588130950928,8.76020908355713,8.76454067230225,8.76887607574463,8.77321624755859,8.77756023406982,8.78190898895264,8.78626251220703,8.79061985015869,8.79498100280762,8.79934787750244,8.80371761322021,8.80809211730957,8.81247138977051,8.81685447692871,8.8212423324585,8.82563495635986,8.8300313949585,8.83443164825439,8.83883762359619,8.84324645996094,8.84766101837158,8.85207939147949,8.85650253295898,8.86092948913574,8.86536121368408,8.869797706604,8.87423801422119,8.87868309020996,8.88313293457031,8.88758659362793,8.89204502105713,8.89650821685791,8.90097522735596,8.90544700622559,8.9099235534668,8.91440486907959,8.91888999938965,8.92337989807129,8.92787456512451,8.932373046875,8.93687725067139,8.94138526916504,8.94589710235596,8.95041465759277,8.95493602752686,8.95946311950684,8.96399307250977,8.96852874755859,8.973069190979,8.97761344909668,8.98216342926025,8.98671722412109,8.99127578735352,8.9958381652832,9.00040626525879,9.00497817993164,9.00955581665039,9.01413726806641,9.018723487854,9.02331447601318,9.02791023254395,9.03251075744629,9.03711605072021,9.04172515869141,9.0463399887085,9.05095958709717,9.05558300018311,9.06021213531494,9.06484508514404,9.06948280334473,9.07412624359131,9.07877349853516,9.0834264755249,9.08808326721191,9.09274482727051,9.097412109375,9.10208320617676,9.10676002502441,9.11144065856934,9.11612701416016,9.12081718444824,9.12551307678223,9.13021373748779,9.13491916656494,9.13962841033936,9.14434337615967,9.14906406402588,9.15378856658936,9.15851783752441,9.16325283050537,9.16799163818359,9.17273616790771,9.17748546600342,9.1822395324707,9.18699836730957,9.19168472290039,9.18977069854736,9.18785762786865,9.18594455718994,9.18403244018555,9.18212127685547,9.18021106719971,9.17830085754395,9.17639255523682,9.17448425292969,9.17257690429688,9.17067050933838,9.1687650680542,9.16685962677002,9.16495609283447,9.16305255889893,9.1611499786377,9.15924835205078,9.15734672546387,9.15544700622559,9.15354824066162,9.15164947509766,9.14975166320801,9.14785480499268,9.14595794677734,9.14406299591064,9.14216804504395,9.14027404785156,9.1383810043335,9.13648891448975,9.13459777832031,9.13270664215088,9.13081645965576,9.12892818450928,9.12703895568848,9.12515163421631,9.11032390594482,9.09348011016846,9.07669734954834,9.05997657775879,9.0433177947998,9.02672004699707,9.01018333435059,8.99370670318604,8.97729015350342,8.96093368530273,8.94463634490967,8.92839813232422,8.91221904754639,8.89609909057617,8.88003635406494,8.86403179168701,8.84808540344238,8.83219528198242,8.81636333465576,8.80058670043945,8.78486728668213,8.76920413970947,8.75359630584717,8.73804378509521,8.72254657745361,8.70710468292236,8.69171619415283,8.67638301849365,8.66110420227051,8.64587783813477,8.63070678710938,8.61558818817139,8.60052394866943,8.58551120758057,8.5705509185791,8.55564308166504,8.54078674316406,8.52598190307617,8.51122856140137,8.49652576446533,8.48187446594238,8.46727275848389,8.45272159576416,8.43822002410889,8.42376804351807,8.40936374664307,8.39500904083252,8.38070297241211,8.36644554138184,8.3522367477417,8.33807563781738,8.3239631652832,8.30989837646484,8.29588031768799,8.28190994262695,8.26798629760742,8.25410938262939,8.24027919769287,8.22649574279785,8.21275806427002,8.19906616210938,8.1854190826416,8.17181777954102,8.15826225280762,8.14475059509277,8.13128471374512,8.11786270141602,8.10448455810547,8.09115123748779,8.07786083221436,8.06461524963379,8.05141162872314,8.03825187683105,8.0251350402832,8.01206111907959,7.99902963638306,7.98604106903076,7.97309446334839,7.96018981933594,7.94732666015625,7.93450546264648,7.92172527313232,7.90898609161377,7.89628791809082,7.88363027572632,7.87101316452026,7.86140060424805,7.87392425537109,7.88648796081543,7.89909172058105,7.91173601150513,7.92442083358765,7.93714618682861,7.94991302490234,7.96272039413452,7.97556924819946,7.98845958709717,8.00139236450195,8.01436614990234,8.02738285064697,8.04044055938721,8.053542137146,8.06668567657471,8.07987308502197,8.09310340881348,8.10637664794922,8.11969375610352,8.13305473327637,8.14645957946777,8.15990924835205,8.17340278625488,8.18694114685059,8.20052433013916,8.21415328979492,8.22782707214355,8.24154663085938
8.67929744720459,8.67803478240967,8.68040657043457,8.68465995788574,8.68891716003418,8.69317817687988,8.69744396209717,8.70171356201172,8.70598697662354,8.71026515960693,8.7145471572876,8.71883392333984,8.72312450408936,8.72741985321045,8.73171901702881,8.73602199554443,8.74032974243164,8.74464130401611,8.74895763397217,8.75327777862549,8.75760269165039,8.76193141937256,8.76626491546631,8.77060222625732,8.77494430541992,8.77929019927979,8.78364086151123,8.78799533843994,8.79235458374023,8.79671859741211,8.80108642578125,8.80545806884766,8.80983448028564,8.8142147064209,8.81860065460205,8.82298946380615,8.82738399505615,8.8317813873291,8.83618450164795,8.84059143066406,8.84500312805176,8.84941864013672,8.85383892059326,8.85826396942139,8.86269283294678,8.86712646484375,8.87156391143799,8.87600612640381,8.88045310974121,8.8849048614502,8.88936042785645,8.89382076263428,8.89828491210938,8.90275478363037,8.90722846984863,8.91170597076416,8.91618919372559,8.92067623138428,8.92516803741455,8.92966365814209,8.93416500091553,8.93867015838623,8.94318008422852,8.94769477844238,8.95221328735352,8.95673656463623,8.96126461029053,8.96579742431641,8.97033500671387,8.97487735748291,8.97942352294922,8.98397445678711,8.98853015899658,8.99309062957764,8.99765586853027,9.00222492218018,9.00679969787598,9.01137828826904,9.01596164703369,9.02054977416992,9.02514266967773,9.02974033355713,9.03434276580811,9.03894996643066,9.04356098175049,9.04817771911621,9.0527982711792,9.05742454528809,9.06205463409424,9.06669044494629,9.07133007049561,9.07597541809082,9.0806245803833,9.08527851104736,9.08993816375732,9.09460163116455,9.09926986694336,9.10394382476807,9.10862159729004,9.11330509185791,9.11799240112305,9.12268543243408,9.1273832321167,9.13208484649658,9.13679218292236,9.14150428771973,9.14622116088867,9.1509428024292,9.15567016601562,9.16040134429932,9.16513824462891,9.16987895965576,9.17462539672852,9.17937660217285,9.17843055725098,9.17652130126953,9.1746129989624,9.17270565032959,9.17079925537109,9.16889381408691,9.16698837280273,9.16508483886719,9.16318130493164,9.16127872467041,9.1593770980835,9.15747547149658,9.1555757522583,9.15367603302002,9.15177822113037,9.14988040924072,9.14798259735107,9.14608669281006,9.14419078826904,9.14229679107666,9.14040279388428,9.13850975036621,9.13661766052246,9.13472557067871,9.13283443450928,9.13094425201416,9.12905597686768,9.12716770172119,9.12527942657471,9.12339210510254,9.121506690979,9.11962127685547,9.11773681640625,9.11585330963135,9.11033535003662,9.09349060058594,9.07670783996582,9.05998802185059,9.04332828521729,9.02673053741455,9.01019382476807,8.99371719360352,8.9773006439209,8.96094417572021,8.94464683532715,8.9284086227417,8.91222953796387,8.89610958099365,8.88004684448242,8.86404228210449,8.84809494018555,8.8322057723999,8.81637287139893,8.80059719085693,8.78487777709961,8.76921367645264,8.75360584259033,8.7380542755127,8.72255706787109,8.70711421966553,8.69172668457031,8.67639350891113,8.66111373901367,8.64588832855225,8.63071537017822,8.61559772491455,8.60053253173828,8.58552074432373,8.57056045532227,8.5556526184082,8.54079627990723,8.52599143981934,8.51123809814453,8.4965353012085,8.48188304901123,8.46728229522705,8.45273017883301,8.43822956085205,8.42377662658691,8.40937232971191,8.39501762390137,8.38071155548096,8.36645412445068,8.35224533081055,8.33808422088623,8.32397174835205,8.30990695953369,8.29588890075684,8.2819185256958,8.26799488067627,8.25411796569824,8.24028778076172,8.2265043258667,8.21276664733887,8.19907379150391,8.18542766571045,8.17182636260986,8.15826988220215,8.14475917816162,8.13129234313965,8.11787033081055,8.10449314117432,8.09115886688232,8.0778694152832,8.06462287902832,8.05142021179199,8.0382604598999,8.02514362335205,8.01206874847412,7.99903774261475,7.98604869842529,7.97310209274292,7.96019744873047,7.94733428955078,7.93451309204102,7.92173290252686,7.9089937210083,7.89629554748535,7.88363790512085,7.87102079391479,7.86152744293213,7.87405204772949,7.88661575317383,7.89922046661377,7.91186475753784,7.92455005645752,7.93727588653564,7.95004272460938,7.96285104751587,7.97570037841797,7.98859119415283,8.00152397155762,8.01449871063232,8.02751541137695,8.0405740737915,8.05367565155029,8.06682014465332,8.08000755310059,8.09323787689209,8.10651206970215,8.11982917785645,8.13319110870361,8.14659595489502,8.1600456237793,8.17354011535645,8.18707942962646,8.20066261291504,8.2142915725708,8.22796630859375,8.24168586730957
8.66180515289307,8.66088771820068,8.66512203216553,8.66936016082764,8.67360210418701,8.67784786224365,8.68209838867188,8.68635272979736,8.69061183929443,8.69487476348877,8.69914245605469,8.70341300964355,8.70768928527832,8.71196842193604,8.71625232696533,8.72054100036621,8.72483348846436,8.72912979125977,8.73343086242676,8.73773574829102,8.74204540252686,8.74635887145996,8.75067615509033,8.75499820709229,8.75932502746582,8.76365566253662,8.767991065979,8.77233028411865,8.77667331695557,8.78102111816406,8.78537368774414,8.78973007202148,8.79409027099609,8.79845523834229,8.80282497406006,8.8071985244751,8.81157684326172,8.81595993041992,8.82034683227539,8.82473754882812,8.82913303375244,8.83353328704834,8.8379373550415,8.84234619140625,8.84675979614258,8.85117721557617,8.85559940338135,8.86002540588379,8.86445617675781,8.86889171600342,8.87333106994629,8.87777519226074,8.88222408294678,8.88667678833008,8.89113426208496,8.89559650421143,8.90006351470947,8.90453433990479,8.90900993347168,8.91348934173584,8.9179744720459,8.92246341705322,8.92695617675781,8.9314546585083,8.93595695495605,8.94046401977539,8.94497585296631,8.94949245452881,8.95401287078857,8.95853805541992,8.96306800842285,8.96760272979736,8.97214221954346,8.97668552398682,8.98123359680176,8.98578643798828,8.99034404754639,8.99490642547607,8.99947357177734,9.00404453277588,9.00862121582031,9.01320171356201,9.01778697967529,9.02237701416016,9.0269718170166,9.03157138824463,9.03617572784424,9.04078388214111,9.04539775848389,9.05001544952393,9.05463886260986,9.05926609039307,9.06389904022217,9.06853580474854,9.0731782913208,9.07782459259033,9.08247566223145,9.08713245391846,9.09179306030273,9.09645843505859,9.10112953186035,9.10580444335938,9.1104850769043,9.11516952514648,9.11985969543457,9.12455463409424,9.12925338745117,9.133957862854,9.13866710662842,9.14338111877441,9.14809989929199,9.15282344818115,9.15755176544189,9.16228580474854,9.16702365875244,9.16711807250977,9.1652135848999,9.16331005096436,9.16140747070312,9.15950584411621,9.1576042175293,9.15570449829102,9.15380477905273,9.15190601348877,9.15000820159912,9.14811134338379,9.14621448516846,9.14431953430176,9.14242458343506,9.14053058624268,9.13863754272461,9.13674545288086,9.13485336303711,9.13296318054199,9.13107299804688,9.12918376922607,9.12729549407959,9.12540721893311,9.12352085113525,9.1216344833374,9.11974906921387,9.11786460876465,9.11598110198975,9.11409759521484,9.11221504211426,9.1103343963623,9.10845279693604,9.1065731048584,9.10469436645508,9.09350109100342,9.07671928405762,9.05999851226807,9.04333972930908,9.02674102783203,9.01020431518555,8.993727684021,8.97731113433838,8.9609546661377,8.94465732574463,8.92841911315918,8.91224002838135,8.89611911773682,8.8800573348999,8.86405277252197,8.84810543060303,8.83221626281738,8.81638336181641,8.80060768127441,8.78488731384277,8.76922416687012,8.75361633300781,8.73806381225586,8.72256660461426,8.70712471008301,8.69173622131348,8.6764030456543,8.66112327575684,8.64589786529541,8.6307258605957,8.61560726165771,8.60054206848145,8.58552932739258,8.57056903839111,8.55566120147705,8.54080486297607,8.52600002288818,8.51124668121338,8.49654388427734,8.48189258575439,8.4672908782959,8.45273971557617,8.4382381439209,8.42378520965576,8.40938091278076,8.39502620697021,8.3807201385498,8.36646270751953,8.35225391387939,8.33809280395508,8.3239803314209,8.30991554260254,8.29589748382568,8.28192710876465,8.26800346374512,8.25412654876709,8.24029636383057,8.22651290893555,8.2127742767334,8.19908237457275,8.1854362487793,8.17183494567871,8.158278465271,8.14476776123047,8.1313009262085,8.11787891387939,8.10450077056885,8.09116744995117,8.07787704467773,8.06463050842285,8.05142784118652,8.03826808929443,8.02515125274658,8.01207733154297,7.99904537200928,7.98605680465698,7.97311019897461,7.960205078125,7.94734239578247,7.93452072143555,7.92174053192139,7.90900135040283,7.89630317687988,7.88364553451538,7.87102842330933,7.86165475845337,7.87417936325073,7.88674402236938,7.89934873580933,7.91199398040771,7.92467927932739,7.93740558624268,7.95017290115356,7.96298122406006,7.97583103179932,7.98872232437134,8.00165557861328,8.01463031768799,8.02764797210693,8.0407075881958,8.05380916595459,8.06695365905762,8.0801420211792,8.0933723449707,8.10664749145508,8.11996555328369,8.13332748413086,8.14673328399658,8.16018295288086,8.17367744445801,8.18721675872803,8.20080089569092,8.214430809021,8.22810554504395,8.24182605743408
8.64438343048096,8.64567184448242,8.6498908996582,8.65411376953125,8.65834045410156,8.66257190704346,8.66680812835693,8.67104721069336,8.67529106140137,8.67953872680664,8.6837911605835,8.68804740905762,8.692307472229,8.69657230377197,8.70084095001221,8.70511436462402,8.70939159393311,8.71367263793945,8.71795845031738,8.72224807739258,8.72654247283936,8.7308406829834,8.73514366149902,8.73945045471191,8.74376106262207,8.74807643890381,8.75239562988281,8.7567195892334,8.76104831695557,8.76537990570068,8.7697172164917,8.77405834197998,8.77840328216553,8.78275299072266,8.78710651397705,8.79146480560303,8.79582691192627,8.80019378662109,8.8045654296875,8.80894088745117,8.81332015991211,8.81770515441895,8.82209300994873,8.82648658752441,8.83088397979736,8.83528518676758,8.83969116210938,8.84410190582275,8.84851741790771,8.85293674468994,8.85735988616943,8.86178779602051,8.86622047424316,8.8706579208374,8.87509918212891,8.87954521179199,8.88399505615234,8.88845062255859,8.89291000366211,8.89737319946289,8.90184211730957,8.90631484985352,8.91079139709473,8.91527366638184,8.91975975036621,8.92425060272217,8.92874622344971,8.93324565887451,8.9377498626709,8.94225883483887,8.94677257537842,8.95129013061523,8.95581340789795,8.96034049987793,8.96487236022949,8.96940898895264,8.97394943237305,8.97849464416504,8.98304462432861,8.98759937286377,8.99215888977051,8.99672317504883,9.00129222869873,9.0058650970459,9.01044273376465,9.0150260925293,9.01961326599121,9.02420520782471,9.02880191802979,9.03340244293213,9.03800868988037,9.0426197052002,9.04723453521729,9.05185508728027,9.05647945404053,9.06110954284668,9.0657434463501,9.0703821182251,9.075026512146,9.07967472076416,9.08432865142822,9.08898639678955,9.09364891052246,9.09831714630127,9.10298919677734,9.10766696929932,9.11234855651855,9.11703586578369,9.12172698974609,9.12642383575439,9.13112545013428,9.13583087921143,9.14054203033447,9.1452579498291,9.14997863769531,9.15470409393311,9.15583324432373,9.15393352508545,9.15203475952148,9.15013694763184,9.1482400894165,9.14634323120117,9.14444732666016,9.14255332946777,9.14065933227539,9.13876533508301,9.13687324523926,9.13498115539551,9.13309097290039,9.13120079040527,9.12931156158447,9.12742328643799,9.1255350112915,9.12364768981934,9.1217622756958,9.11987686157227,9.11799144744873,9.11610794067383,9.11422538757324,9.11234283447266,9.11046123504639,9.10858058929443,9.1067008972168,9.10482120513916,9.10294246673584,9.10106563568115,9.09918880462646,9.09731197357178,9.09543704986572,9.09351253509521,9.0767297744751,9.06000900268555,9.04335021972656,9.02675247192383,9.01021480560303,8.99373817443848,8.97732162475586,8.96096515655518,8.94466781616211,8.92842960357666,8.91225051879883,8.8961296081543,8.88006782531738,8.86406326293945,8.84811592102051,8.83222579956055,8.81639385223389,8.80061721801758,8.78489780426025,8.76923370361328,8.75362586975098,8.73807430267334,8.72257614135742,8.70713424682617,8.69174671173096,8.67641258239746,8.66113376617432,8.64590740203857,8.63073539733887,8.61561584472656,8.60055160522461,8.58553886413574,8.57057857513428,8.55567073822021,8.54081439971924,8.52600955963135,8.51125526428223,8.49655342102051,8.48190116882324,8.46729946136475,8.45274829864502,8.43824672698975,8.42379379272461,8.40938949584961,8.39503479003906,8.38072872161865,8.36647129058838,8.35226249694824,8.33810138702393,8.32398891448975,8.30992412567139,8.29590606689453,8.2819356918335,8.26801204681396,8.25413513183594,8.24030494689941,8.22652053833008,8.21278285980225,8.1990909576416,8.18544387817383,8.17184257507324,8.15828704833984,8.144775390625,8.13130950927734,8.11788749694824,8.1045093536377,8.0911750793457,8.07788562774658,8.0646390914917,8.05143642425537,8.03827571868896,8.02515888214111,8.0120849609375,7.99905347824097,7.98606443405151,7.97311782836914,7.96021318435669,7.947350025177,7.93452835083008,7.92174816131592,7.90900897979736,7.89631080627441,7.88365316390991,7.87103605270386,7.86178207397461,7.87430715560913,7.88687181472778,7.89947700500488,7.91212272644043,7.92480850219727,7.93753528594971,7.95030307769775,7.96311187744141,7.97596216201782,7.988853931427,8.00178718566895,8.01476287841797,8.02778053283691,8.04084014892578,8.05394268035889,8.06708812713623,8.08027648925781,8.09350776672363,8.10678291320801,8.12010097503662,8.13346290588379,8.14686965942383,8.16032028198242,8.17381572723389,8.18735504150391,8.20094013214111,8.21457004547119,8.22824478149414,8.24196624755859
8.62703227996826,8.63050842285156,8.63471221923828,8.63892078399658,8.64313316345215,8.64734935760498,8.65157032012939,8.65579509735107,8.66002368927002,8.66425704956055,8.66849422454834,8.6727352142334,8.67698097229004,8.68123054504395,8.68548393249512,8.68974208831787,8.69400405883789,8.69827079772949,8.70254135131836,8.70681571960449,8.71109485626221,8.71537780761719,8.71966552734375,8.72395706176758,8.72825241088867,8.73255252838135,8.73685646057129,8.74116516113281,8.7454776763916,8.74979496002197,8.75411605834961,8.75844192504883,8.76277160644531,8.76710510253906,8.77144336700439,8.77578639984131,8.78013324737549,8.78448486328125,8.78884029388428,8.79320049285889,8.79756450653076,8.80193328857422,8.80630588531494,8.81068325042725,8.81506443023682,8.81945037841797,8.8238410949707,8.8282356262207,8.83263492584229,8.83703804016113,8.84144592285156,8.84585857391357,8.85027503967285,8.85469627380371,8.85912132263184,8.86355113983154,8.86798572540283,8.87242412567139,8.87686824798584,8.88131523132324,8.88576793670654,8.89022445678711,8.89468574523926,8.89915084838867,8.90362071990967,8.90809535980225,8.91257476806641,8.91705799102783,8.92154598236084,8.92603874206543,8.9305362701416,8.93503761291504,8.93954372406006,8.94405460357666,8.94857025146484,8.95308971405029,8.95761394500732,8.96214294433594,8.96667671203613,8.97121524810791,8.97575759887695,8.98030471801758,8.98485660552979,8.98941326141357,8.99397468566895,8.9985408782959,9.00311088562012,9.00768661499023,9.01226615905762,9.01685047149658,9.02143955230713,9.02603340148926,9.03063201904297,9.03523540496826,9.03984260559082,9.04445552825928,9.04907321929932,9.05369472503662,9.05832195281982,9.06295299530029,9.06758880615234,9.07223033905029,9.07687568664551,9.0815258026123,9.086181640625,9.09084129333496,9.0955057144165,9.10017585754395,9.10484981536865,9.10952949523926,9.11421298980713,9.1189022064209,9.12359523773193,9.12829399108887,9.13299751281738,9.13770484924316,9.14241790771484,9.14457607269287,9.14268112182617,9.14078712463379,9.13889408111572,9.13700103759766,9.13510990142822,9.13321876525879,9.13132858276367,9.12943935394287,9.12755107879639,9.1256628036499,9.12377548217773,9.1218900680542,9.12000370025635,9.11811923980713,9.11623573303223,9.11435222625732,9.11247062683105,9.11058902740479,9.10870838165283,9.10682773590088,9.10494899749756,9.10307025909424,9.10119247436523,9.09931564331055,9.09743976593018,9.0955638885498,9.09368991851807,9.09181594848633,9.08994293212891,9.0880708694458,9.0861988067627,9.08432769775391,9.07674026489258,9.06002044677734,9.04336071014404,9.02676296234131,9.01022529602051,8.99374866485596,8.97733211517334,8.96097564697266,8.94467830657959,8.92844009399414,8.91226100921631,8.89614009857178,8.88007736206055,8.86407279968262,8.84812641143799,8.83223628997803,8.81640338897705,8.80062770843506,8.78490829467773,8.76924419403076,8.75363636016846,8.7380838394165,8.7225866317749,8.70714378356934,8.69175624847412,8.67642307281494,8.66114330291748,8.64591789245605,8.63074493408203,8.61562538146973,8.60056018829346,8.58554840087891,8.57058811187744,8.55567932128906,8.54082298278809,8.5260181427002,8.51126480102539,8.49656200408936,8.48190975189209,8.46730899810791,8.45275688171387,8.43825626373291,8.42380332946777,8.40939903259277,8.39504337310791,8.3807373046875,8.36647987365723,8.35227108001709,8.33810997009277,8.32399749755859,8.30993270874023,8.29591464996338,8.28194427490234,8.26802062988281,8.25414371490479,8.24031352996826,8.22652912139893,8.21279144287109,8.19909954071045,8.18545246124268,8.17185115814209,8.15829563140869,8.14478397369385,8.13131713867188,8.11789512634277,8.10451793670654,8.09118366241455,8.07789325714111,8.06464672088623,8.0514440536499,8.03828430175781,8.02516746520996,8.01209259033203,7.9990611076355,7.98607206344604,7.97312545776367,7.96022081375122,7.94735765457153,7.93453598022461,7.92175579071045,7.90901660919189,7.89631843566895,7.88366079330444,7.87104368209839,7.86190938949585,7.87443494796753,7.88700008392334,7.8996057510376,7.91225147247314,7.92493772506714,7.93766498565674,7.95043325424194,7.96324253082275,7.97609329223633,7.98898506164551,8.00191879272461,8.01489543914795,8.02791309356689,8.04097366333008,8.05407619476318,8.06722164154053,8.08041095733643,8.09364223480225,8.10691738128662,8.12023639678955,8.13359928131104,8.14700603485107,8.16045761108398,8.17395305633545,8.18749332427979,8.20107841491699,8.21470832824707,8.22838401794434,8.24210548400879
8.61121273040771,8.61539840698242,8.61958789825439,8.62378120422363,8.62797927856445,8.63218116760254,8.63638687133789,8.64059638977051,8.64481067657471,8.64902877807617,8.6532506942749,8.65747737884521,8.66170787811279,8.66594219207764,8.67018127441406,8.67442417144775,8.67867183685303,8.68292236328125,8.68717861175537,8.69143772125244,8.69570159912109,8.69996929168701,8.70424175262451,8.70851802825928,8.71279907226562,8.71708297729492,8.72137260437012,8.72566509246826,8.7299633026123,8.7342643737793,8.73857021331787,8.74288082122803,8.74719524383545,8.75151348114014,8.75583648681641,8.76016426086426,8.76449584960938,8.76883125305176,8.77317142486572,8.77751541137695,8.78186416625977,8.78621768951416,8.79057502746582,8.79493618011475,8.79930210113525,8.80367279052734,8.8080472946167,8.81242561340332,8.81680965423584,8.82119750976562,8.82558917999268,8.82998561859131,8.83438682556152,8.838791847229,8.84320163726807,8.84761524200439,8.8520336151123,8.8564567565918,8.86088371276855,8.86531543731689,8.86975193023682,8.874192237854,8.87863731384277,8.88308620452881,8.88754081726074,8.89199924468994,8.89646148681641,8.90092945098877,8.9054012298584,8.90987777709961,8.91435813903809,8.91884326934814,8.92333316802979,8.92782783508301,8.93232727050781,8.93683052062988,8.94133853912354,8.94585132598877,8.95036792755127,8.95488929748535,8.95941638946533,8.96394634246826,8.96848201751709,8.9730224609375,8.97756671905518,8.98211574554443,8.98666954040527,8.9912281036377,8.9957914352417,9.00035858154297,9.00493144989014,9.00950813293457,9.01408958435059,9.01867580413818,9.02326679229736,9.02786254882812,9.03246307373047,9.03706836700439,9.0416784286499,9.04629230499268,9.05091190338135,9.05553531646729,9.0601634979248,9.06479740142822,9.06943511962891,9.07407855987549,9.07872581481934,9.08337783813477,9.08803462982178,9.09269714355469,9.09736347198486,9.10203552246094,9.10671138763428,9.1113920211792,9.11607837677002,9.12076854705811,9.12546443939209,9.13016510009766,9.13334655761719,9.13145637512207,9.12956714630127,9.12767887115479,9.1257905960083,9.12390327453613,9.12201690673828,9.12013149261475,9.11824703216553,9.11636352539062,9.11448001861572,9.11259746551514,9.11071586608887,9.10883522033691,9.10695552825928,9.10507583618164,9.10319709777832,9.10131931304932,9.09944248199463,9.09756660461426,9.09569072723389,9.09381580352783,9.09194278717041,9.09006977081299,9.08819675445557,9.08632564544678,9.08445453643799,9.08258438110352,9.08071517944336,9.07884693145752,9.07697868347168,9.07511234283447,9.07324600219727,9.06003093719482,9.04337120056152,9.02677345275879,9.0102367401123,8.99375915527344,8.97734260559082,8.96098613739014,8.94468879699707,8.92845058441162,8.91227149963379,8.89615058898926,8.88008785247803,8.8640832901001,8.84813690185547,8.83224678039551,8.81641387939453,8.80063819885254,8.7849178314209,8.76925468444824,8.75364685058594,8.73809432983398,8.72259616851807,8.70715427398682,8.6917667388916,8.67643260955811,8.66115283966064,8.64592742919922,8.6307544708252,8.61563587188721,8.60056972503662,8.58555698394775,8.57059669494629,8.55568885803223,8.54083251953125,8.52602767944336,8.51127338409424,8.4965705871582,8.48191928863525,8.46731758117676,8.45276641845703,8.43826484680176,8.42381191253662,8.40940761566162,8.39505195617676,8.38074588775635,8.36648845672607,8.35227966308594,8.33811855316162,8.32400608062744,8.30994129180908,8.29592323303223,8.28195285797119,8.26802921295166,8.25415229797363,8.24032211303711,8.22653770446777,8.21280002593994,8.19910717010498,8.18546104431152,8.17185974121094,8.15830326080322,8.1447925567627,8.13132572174072,8.11790370941162,8.10452556610107,8.09119129180908,8.07790184020996,8.06465530395508,8.05145168304443,8.03829193115234,8.02517509460449,8.01210117340088,7.99906921386719,7.98608016967773,7.9731330871582,7.96022844314575,7.94736528396606,7.93454360961914,7.92176342010498,7.90902423858643,7.89632606506348,7.88366842269897,7.87105131149292,7.86203670501709,7.87456226348877,7.8871283531189,7.89973402023315,7.91238021850586,7.92506742477417,7.93779468536377,7.95056343078613,7.9633731842041,7.97622394561768,7.98911666870117,8.00205135345459,8.01502704620361,8.02804565429688,8.04110622406006,8.05420970916748,8.06735610961914,8.08054542541504,8.09377765655518,8.10705280303955,8.1203727722168,8.13373565673828,8.14714241027832,8.16059398651123,8.17409038543701,8.18763065338135,8.20121669769287,8.21484756469727,8.22852325439453,8.2422456741333
8.59617042541504,8.600341796875,8.60451602935791,8.6086950302124,8.61287784576416,8.6170654296875,8.62125587463379,8.62545108795166,8.62965106964111,8.63385391235352,8.6380615234375,8.64227294921875,8.64648914337158,8.65070819854736,8.65493202209473,8.65916061401367,8.66339302062988,8.66762924194336,8.6718692779541,8.67611408233643,8.68036270141602,8.68461608886719,8.68887329101562,8.69313430786133,8.6973991394043,8.70166873931885,8.70594310760498,8.71022129058838,8.71450328826904,8.71878910064697,8.7230806350708,8.72737503051758,8.73167419433594,8.73597717285156,8.74028491973877,8.74459743499756,8.7489128112793,8.75323295593262,8.75755786895752,8.76188659667969,8.76622009277344,8.77055740356445,8.77489948272705,8.77924537658691,8.78359603881836,8.78795051574707,8.79230976104736,8.79667282104492,8.80104064941406,8.80541324615479,8.80978965759277,8.81416988372803,8.81855487823486,8.82294464111328,8.82733821868896,8.83173656463623,8.83613872528076,8.84054565429688,8.84495735168457,8.84937286376953,8.85379314422607,8.8582181930542,8.86264705657959,8.86708068847656,8.8715181350708,8.87596035003662,8.88040733337402,8.88485813140869,8.88931465148926,8.89377403259277,8.89823913574219,8.90270805358887,8.90718173980713,8.91166019439697,8.91614246368408,8.92062950134277,8.92512130737305,8.9296178817749,8.93411827087402,8.93862342834473,8.94313335418701,8.94764804840088,8.95216655731201,8.95668983459473,8.96121883392334,8.9657506942749,8.97028827667236,8.97482967376709,8.97937679290771,8.98392772674561,8.98848342895508,8.99304389953613,8.99760818481445,9.00217819213867,9.00675201416016,9.01133060455322,9.01591491699219,9.02050304412842,9.02509498596191,9.02969264984131,9.03429508209229,9.03890228271484,9.04351329803467,9.04813003540039,9.05275058746338,9.05737686157227,9.06200695037842,9.06664276123047,9.07128238677979,9.07592678070068,9.08057689666748,9.08523082733154,9.08988952636719,9.09455299377441,9.09922218322754,9.10389518737793,9.10857391357422,9.11325645446777,9.11794376373291,9.12214469909668,9.12025928497314,9.11837482452393,9.11649036407471,9.11460781097412,9.11272525787354,9.11084365844727,9.108962059021,9.10708236694336,9.10520267486572,9.10332489013672,9.10144710540771,9.09956932067871,9.09769344329834,9.09581851959229,9.09394359588623,9.09206962585449,9.09019660949707,9.08832359313965,9.08645248413086,9.08458137512207,9.0827112197876,9.08084201812744,9.0789737701416,9.07710552215576,9.07523822784424,9.07337284088135,9.07150650024414,9.06964206695557,9.06777858734131,9.06591510772705,9.06405258178711,9.0600414276123,9.04338264465332,9.02678394317627,9.01024723052979,8.99377059936523,8.9773530960083,8.96099662780762,8.94469928741455,8.9284610748291,8.91228199005127,8.89616107940674,8.88009834289551,8.86409378051758,8.84814643859863,8.83225727081299,8.81642436981201,8.8006477355957,8.78492832183838,8.76926422119141,8.7536563873291,8.73810386657715,8.72260665893555,8.70716381072998,8.69177627563477,8.67644214630127,8.66116333007812,8.64593696594238,8.63076496124268,8.61564540863037,8.60057926177979,8.58556652069092,8.57060623168945,8.55569744110107,8.5408411026001,8.52603626251221,8.5112829208374,8.49658012390137,8.4819278717041,8.46732616424561,8.45277500152588,8.43827342987061,8.42382049560547,8.40941619873047,8.39506149291992,8.38075542449951,8.36649799346924,8.35228824615479,8.33812713623047,8.32401466369629,8.30994987487793,8.29593181610107,8.28196144104004,8.26803779602051,8.25416088104248,8.24033069610596,8.22654628753662,8.21280765533447,8.19911575317383,8.18546962738037,8.17186832427979,8.15831184387207,8.14480018615723,8.13133335113525,8.11791133880615,8.10453414916992,8.09119987487793,8.07790946960449,8.06466293334961,8.05146026611328,8.03830051422119,8.02518272399902,8.01210880279541,7.99907732009888,7.98608779907227,7.97314119338989,7.96023607254028,7.9473729133606,7.93455123901367,7.92177104949951,7.90903186798096,7.89633369445801,7.88367605209351,7.87105894088745,7.86216402053833,7.87469005584717,7.88725614547729,7.89986276626587,7.91250944137573,7.92519664764404,7.9379243850708,7.95069360733032,7.96350383758545,7.97635507583618,7.98924827575684,8.00218296051025,8.01515960693359,8.02817821502686,8.04123973846436,8.05434322357178,8.06748962402344,8.08067989349365,8.09391212463379,8.10718822479248,8.12050819396973,8.13387203216553,8.14727973937988,8.16073131561279,8.17422771453857,8.18776893615723,8.20135498046875,8.21498680114746,8.22866344451904,8.2423849105835
8.58118057250977,8.58533668518066,8.58949756622314,8.59366130828857,8.59782981872559,8.60200214385986,8.60617923736572,8.61035919189453,8.61454391479492,8.61873245239258,8.6229248046875,8.627121925354,8.63132286071777,8.63552761077881,8.63973712921143,8.64395046234131,8.64816761016846,8.65238857269287,8.65661430358887,8.66084384918213,8.66507816314697,8.66931629180908,8.67355823516846,8.6778039932251,8.68205451965332,8.68630886077881,8.69056797027588,8.69483089447021,8.69909763336182,8.703369140625,8.70764446258545,8.71192455291748,8.71620845794678,8.72049617767334,8.72478866577148,8.72908592224121,8.73338603973389,8.73769092559814,8.74200057983398,8.74631404876709,8.75063228607178,8.75495433807373,8.75928020477295,8.76361083984375,8.76794624328613,8.77228450775146,8.7766284942627,8.78097629547119,8.78532791137695,8.78968524932861,8.79404544830322,8.79841041564941,8.80278015136719,8.80715370178223,8.81153202056885,8.81591415405273,8.8203010559082,8.82469272613525,8.82908821105957,8.83348751068115,8.83789157867432,8.84230041503906,8.84671401977539,8.85113143920898,8.85555362701416,8.8599796295166,8.86441040039062,8.86884593963623,8.8732852935791,8.87772941589355,8.88217830657959,8.88663101196289,8.89108848571777,8.89555072784424,8.90001678466797,8.90448760986328,8.90896320343018,8.91344356536865,8.91792774200439,8.92241668701172,8.92691040039062,8.9314079284668,8.93591022491455,8.94041728973389,8.9449291229248,8.9494457244873,8.95396614074707,8.95849132537842,8.96302127838135,8.96755599975586,8.97209548950195,8.97663879394531,8.98118686676025,8.98573970794678,8.99029731750488,8.99485969543457,8.99942588806152,9.00399780273438,9.00857353210449,9.01315402984619,9.01773929595947,9.02232933044434,9.02692413330078,9.03152370452881,9.03612804412842,9.04073619842529,9.04535007476807,9.04996776580811,9.05459117889404,9.05921840667725,9.06385135650635,9.06848812103271,9.07312965393066,9.07777690887451,9.08242797851562,9.08708381652832,9.09174537658691,9.09641075134277,9.10108089447021,9.10575675964355,9.11043643951416,9.10908985137939,9.10721015930176,9.10533046722412,9.1034517288208,9.1015739440918,9.09969711303711,9.09782028198242,9.09594440460205,9.09407043457031,9.09219646453857,9.09032344818115,9.08845043182373,9.08657932281494,9.08470821380615,9.08283805847168,9.08096885681152,9.07909965515137,9.07723236083984,9.07536506652832,9.07349872589111,9.07163333892822,9.06976890563965,9.06790447235107,9.06604099273682,9.06417942047119,9.06231689453125,9.06045627593994,9.05859661102295,9.05673694610596,9.05487823486328,9.05302047729492,9.0433931350708,9.02679538726807,9.01025772094727,8.99378108978271,8.9773645401001,8.9610071182251,8.94470977783203,8.92847156524658,8.91229248046875,8.89617156982422,8.88010883331299,8.86410427093506,8.84815692901611,8.83226680755615,8.81643486022949,8.80065822601318,8.78493881225586,8.76927471160889,8.75366687774658,8.73811435699463,8.72261619567871,8.70717430114746,8.69178581237793,8.67645263671875,8.66117286682129,8.64594650268555,8.63077449798584,8.61565494537354,8.60058879852295,8.58557510375977,8.5706148147583,8.55570697784424,8.54085063934326,8.52604579925537,8.51129150390625,8.49658870697021,8.48193740844727,8.46733570098877,8.45278358459473,8.43828201293945,8.42382907867432,8.40942478179932,8.39507007598877,8.38076400756836,8.36650657653809,8.35229682922363,8.33813667297363,8.32402324676514,8.30995845794678,8.29594039916992,8.28197002410889,8.26804637908936,8.25416946411133,8.24033832550049,8.22655487060547,8.21281623840332,8.19912433624268,8.1854772567749,8.17187595367432,8.15832042694092,8.14480876922607,8.1313419342041,8.117919921875,8.10454177856445,8.09120845794678,8.07791805267334,8.06467151641846,8.05146789550781,8.03830814361572,8.02519130706787,8.01211643218994,7.99908494949341,7.98609590530396,7.97314882278442,7.96024370193481,7.94738054275513,7.9345588684082,7.92177867889404,7.90903949737549,7.89634132385254,7.88368320465088,7.87106609344482,7.86229085922241,7.87481784820557,7.88738441467285,7.89999103546143,7.91263818740845,7.92532587051392,7.93805408477783,7.95082378387451,7.96363401412964,7.97648620605469,7.98937940597534,8.00231456756592,8.01529216766357,8.02831077575684,8.04137229919434,8.05447673797607,8.06762409210205,8.08081436157227,8.09404754638672,8.10732364654541,8.12064361572266,8.13400840759277,8.14741611480713,8.16086864471436,8.17436504364014,8.18790721893311,8.20149326324463,8.21512508392334,8.22880268096924,8.24252510070801
8.56624317169189,8.57038497924805,8.57453060150146,8.57868003845215,8.58283424377441,8.58699226379395,8.59115409851074,8.5953197479248,8.59949016571045,8.60366344451904,8.60784149169922,8.61202430725098,8.61620998382568,8.62040042877197,8.62459468841553,8.62879276275635,8.63299560546875,8.63720226287842,8.64141368865967,8.64562797546387,8.64984703063965,8.6540699005127,8.65829753875732,8.6625280380249,8.66676425933838,8.6710033416748,8.67524719238281,8.67949485778809,8.68374729156494,8.68800354003906,8.69226360321045,8.69652843475342,8.70079708099365,8.70507049560547,8.70934677124023,8.7136287689209,8.71791458129883,8.72220420837402,8.7264986038208,8.73079681396484,8.73509883880615,8.73940563201904,8.7437162399292,8.74803161621094,8.75235080718994,8.75667476654053,8.76100254058838,8.76533508300781,8.76967239379883,8.77401256561279,8.77835845947266,8.78270816802979,8.78706169128418,8.79141902923584,8.7957820892334,8.80014896392822,8.80451965332031,8.80889511108398,8.81327533721924,8.81765937805176,8.82204818725586,8.82644081115723,8.83083820343018,8.83523941040039,8.8396463394165,8.84405612945557,8.84847164154053,8.85289001464844,8.85731410980225,8.86174201965332,8.86617469787598,8.87061214447021,8.87505340576172,8.8794994354248,8.88394927978516,8.88840389251709,8.89286327362061,8.8973274230957,8.90179538726807,8.90626811981201,8.91074562072754,8.91522693634033,8.91971302032471,8.92420387268066,8.9286994934082,8.93319892883301,8.93770408630371,8.94221210479736,8.94672584533691,8.95124340057373,8.95576667785645,8.96029376983643,8.96482563018799,8.96936130523682,8.97390270233154,8.97844791412354,8.98299789428711,8.98755264282227,8.992112159729,8.99667644500732,9.00124454498291,9.00581836700439,9.01039600372314,9.01497840881348,9.01956558227539,9.02415752410889,9.02875423431396,9.03335571289062,9.03796100616455,9.04257202148438,9.04718685150146,9.05180740356445,9.05643177032471,9.06106185913086,9.06569576263428,9.07033443450928,9.07497882843018,9.07962703704834,9.08428001403809,9.08893871307373,9.09360122680664,9.09826850891113,9.0979471206665,9.09607219696045,9.09419727325439,9.09232330322266,9.09045028686523,9.08857727050781,9.08670616149902,9.08483505249023,9.08296489715576,9.08109474182129,9.07922649383545,9.07735824584961,9.0754919052124,9.07362461090088,9.07175922393799,9.06989479064941,9.06803131103516,9.0661678314209,9.06430530548096,9.06244373321533,9.06058216094971,9.05872249603271,9.05686283111572,9.05500411987305,9.05314636230469,9.05128860473633,9.0494327545166,9.04757690429688,9.04572200775146,9.04386806488037,9.04201507568359,9.02680587768555,9.01026821136475,8.9937915802002,8.97737503051758,8.96101760864258,8.94472026824951,8.92848205566406,8.91230297088623,8.8961820602417,8.88011932373047,8.86411476135254,8.84816741943359,8.83227729797363,8.81644439697266,8.80066871643066,8.78494834899902,8.76928424835205,8.75367641448975,8.73812389373779,8.72262668609619,8.70718383789062,8.69179630279541,8.67646217346191,8.66118240356445,8.64595699310303,8.630784034729,8.6156644821167,8.60059833526611,8.58558464050293,8.57062435150146,8.55571556091309,8.54085922241211,8.52605438232422,8.51130104064941,8.49659824371338,8.48194599151611,8.46734428405762,8.45279312133789,8.43829154968262,8.42383766174316,8.40943336486816,8.39507865905762,8.38077259063721,8.36651515960693,8.35230541229248,8.33814525604248,8.32403182983398,8.30996704101562,8.29594898223877,8.28197765350342,8.26805400848389,8.25417709350586,8.24034690856934,8.2265625,8.21282482147217,8.19913291931152,8.18548583984375,8.17188453674316,8.15832805633545,8.14481735229492,8.13135051727295,8.11792755126953,8.1045503616333,8.09121608734131,8.07792568206787,8.06467914581299,8.05147647857666,8.03831577301025,8.0251989364624,8.01212501525879,7.9990930557251,7.98610353469849,7.97315645217896,7.9602518081665,7.94738864898682,7.93456649780273,7.92178630828857,7.90904712677002,7.89634895324707,7.88369083404541,7.87107372283936,7.86241817474365,7.87494516372681,7.88751220703125,7.90011930465698,7.91276693344116,7.92545509338379,7.93818378448486,7.9509539604187,7.96376466751099,7.97661685943604,7.98951101303101,8.00244617462158,8.01542377471924,8.02844333648682,8.04150581359863,8.05461025238037,8.06775760650635,8.08094787597656,8.09418201446533,8.10745906829834,8.1207799911499,8.1341438293457,8.14755249023438,8.16100597381592,8.17450332641602,8.18804550170898,8.20163249969482,8.21526432037354,8.22894191741943,8.24266529083252
8.55135726928711,8.55548477172852,8.55961608886719,8.56375122070312,8.56789016723633,8.57203388214111,8.57618141174316,8.58033275604248,8.58448791503906,8.58864784240723,8.59281063079834,8.59697818756104,8.60115051269531,8.60532569885254,8.60950565338135,8.61368942260742,8.61787700653076,8.62206935882568,8.62626457214355,8.63046455383301,8.63466930389404,8.63887691497803,8.64309024810791,8.64730644226074,8.65152740478516,8.65575122833252,8.65998077392578,8.66421318054199,8.66845035552979,8.67269134521484,8.67693710327148,8.68118667602539,8.68544006347656,8.68969821929932,8.69396018981934,8.69822692871094,8.70249652862549,8.70677185058594,8.71105003356934,8.71533298492432,8.71962070465088,8.72391223907471,8.7282075881958,8.73250770568848,8.73681259155273,8.74112033843994,8.74543285369873,8.7497501373291,8.75407123565674,8.75839710235596,8.76272678375244,8.76706027984619,8.77139854431152,8.77574157714844,8.78008842468262,8.78444004058838,8.78879547119141,8.7931547164917,8.79751873016357,8.80188751220703,8.80626010894775,8.81063747406006,8.81501960754395,8.8194055557251,8.82379531860352,8.82818984985352,8.8325891494751,8.83699226379395,8.84140014648438,8.84581279754639,8.85022926330566,8.85465049743652,8.85907554626465,8.86350536346436,8.86793994903564,8.8723783493042,8.87682151794434,8.88126945495605,8.88572120666504,8.89017868041992,8.89463901519775,8.89910507202148,8.90357494354248,8.90804958343506,8.9125280380249,8.91701221466064,8.92150020599365,8.92599296569824,8.9304895401001,8.93499088287354,8.93949699401855,8.94400787353516,8.94852352142334,8.95304298400879,8.95756721496582,8.96209621429443,8.96662998199463,8.97116756439209,8.97571086883545,8.98025798797607,8.98480987548828,8.98936653137207,8.99392795562744,8.99849319458008,9.00306415557861,9.00763893127441,9.0122184753418,9.01680278778076,9.02139186859131,9.02598571777344,9.03058433532715,9.03518772125244,9.03979587554932,9.04440784454346,9.04902458190918,9.0536470413208,9.05827331542969,9.06290531158447,9.06754112243652,9.07218170166016,9.07682800292969,9.08147811889648,9.08613300323486,9.08683204650879,9.0849609375,9.08309078216553,9.08122158050537,9.07935333251953,9.07748508453369,9.07561779022217,9.07375144958496,9.07188606262207,9.07002067565918,9.06815719604492,9.06629371643066,9.06443119049072,9.0625696182251,9.06070804595947,9.05884838104248,9.05698871612549,9.05513000488281,9.05327224731445,9.05141448974609,9.04955863952637,9.04770278930664,9.04584789276123,9.04399394989014,9.04214000701904,9.04028797149658,9.03843593597412,9.03658485412598,9.03473377227783,9.03288459777832,9.02681636810303,9.01027870178223,8.99380207061768,8.97738552093506,8.96102809906006,8.94473075866699,8.92849254608154,8.91231346130371,8.89619255065918,8.88012981414795,8.86412525177002,8.84817790985107,8.83228778839111,8.81645488739014,8.80067825317383,8.7849588394165,8.76929473876953,8.75368690490723,8.73813438415527,8.72263622283936,8.70719432830811,8.69180583953857,8.67647266387939,8.66119289398193,8.64596652984619,8.63079357147217,8.61567497253418,8.60060787200928,8.58559417724609,8.57063388824463,8.55572509765625,8.54086875915527,8.52606391906738,8.51130962371826,8.49660682678223,8.48195457458496,8.46735286712646,8.45280170440674,8.43830013275146,8.42384719848633,8.40944290161133,8.39508724212646,8.38078117370605,8.36652374267578,8.35231494903564,8.33815383911133,8.32404041290283,8.30997562408447,8.29595756530762,8.28198623657227,8.26806259155273,8.25418567657471,8.24035549163818,8.22657108306885,8.21283340454102,8.19914054870605,8.1854944229126,8.17189311981201,8.1583366394043,8.14482498168945,8.13135814666748,8.11793613433838,8.10455799102783,8.09122467041016,8.07793426513672,8.06468772888184,8.05148410797119,8.0383243560791,8.02520751953125,8.01213264465332,7.99910116195679,7.98611164093018,7.97316455841064,7.96025943756104,7.94739627838135,7.93457460403442,7.92179393768311,7.90905475616455,7.89635610580444,7.88369846343994,7.87108135223389,7.86254549026489,7.87507295608521,7.88764047622681,7.9002480506897,7.91289615631104,7.92558431625366,7.93831348419189,7.95108413696289,7.96389532089233,7.97674798965454,7.98964214324951,8.00257873535156,8.01555633544922,8.02857685089111,8.04163932800293,8.05474376678467,8.06789207458496,8.08108234405518,8.09431648254395,8.10759449005127,8.12091541290283,8.13428020477295,8.14768981933594,8.16114234924316,8.17464065551758,8.18818283081055,8.2017707824707,8.21540355682373,8.22908115386963,8.24280452728271
8.53652286529541,8.54063606262207,8.544753074646,8.54887390136719,8.55299854278564,8.55712795257568,8.56126117706299,8.56539821624756,8.56953907012939,8.5736837387085,8.57783317565918,8.58198642730713,8.58614349365234,8.59030437469482,8.59446907043457,8.5986385345459,8.60281181335449,8.60698890686035,8.61116981506348,8.61535549163818,8.61954498291016,8.62373828887939,8.6279354095459,8.63213729858398,8.63634300231934,8.64055347442627,8.64476680755615,8.64898490905762,8.65320777893066,8.65743350982666,8.66166400909424,8.6658992767334,8.67013740539551,8.6743803024292,8.67862796783447,8.6828784942627,8.6871337890625,8.69139385223389,8.69565773010254,8.69992542266846,8.70419788360596,8.70847415924072,8.71275424957275,8.71703910827637,8.72132778167725,8.72562122344971,8.72991847991943,8.73422050476074,8.73852634429932,8.74283599853516,8.74715042114258,8.75146961212158,8.75579166412354,8.76011943817139,8.7644510269165,8.76878643035889,8.77312660217285,8.77747058868408,8.78181934356689,8.78617191314697,8.79052925109863,8.79489135742188,8.79925727844238,8.80362701416016,8.80800151824951,8.81238079071045,8.81676387786865,8.82115173339844,8.82554340362549,8.82993984222412,8.83434104919434,8.83874607086182,8.84315586090088,8.84756946563721,8.85198783874512,8.85641098022461,8.86083793640137,8.86526966094971,8.86970615386963,8.87414646148682,8.87859153747559,8.88304042816162,8.88749408721924,8.89195251464844,8.89641571044922,8.90088272094727,8.90535449981689,8.90983104705811,8.9143123626709,8.91879749298096,8.9232873916626,8.9277811050415,8.93228054046631,8.93678379058838,8.94129180908203,8.94580459594727,8.95032119750977,8.95484256744385,8.95936870574951,8.96389961242676,8.96843528747559,8.97297477722168,8.97751998901367,8.98206901550293,8.98662281036377,8.99118137359619,8.99574375152588,9.00031185150146,9.00488376617432,9.00946140289307,9.01404285430908,9.01862907409668,9.02322006225586,9.02781581878662,9.03241539001465,9.03702068328857,9.04163074493408,9.04624462127686,9.05086421966553,9.05548763275146,9.06011581420898,9.0647497177124,9.06938743591309,9.07402992248535,9.07574462890625,9.07387733459473,9.07201194763184,9.07014751434326,9.06828308105469,9.06641960144043,9.06455707550049,9.06269550323486,9.06083393096924,9.05897426605225,9.05711460113525,9.05525588989258,9.0533971786499,9.05154037475586,9.04968357086182,9.04782772064209,9.045973777771,9.04411888122559,9.04226589202881,9.04041290283203,9.03856086730957,9.03670978546143,9.0348596572876,9.03300952911377,9.03116130828857,9.02931308746338,9.02746486663818,9.02561855316162,9.02377319335938,9.02192783355713,9.01028919219971,8.99381256103516,8.97739601135254,8.96103858947754,8.94474124908447,8.92850303649902,8.91232395172119,8.89620304107666,8.88014030456543,8.86413478851318,8.84818840026855,8.83229827880859,8.81646537780762,8.80068874359131,8.78496837615967,8.76930522918701,8.75369644165039,8.73814392089844,8.72264671325684,8.70720386505127,8.69181632995605,8.67648220062256,8.6612024307251,8.64597606658936,8.63080406188965,8.61568450927734,8.60061740875244,8.58560371398926,8.57064247131348,8.55573463439941,8.54087734222412,8.52607250213623,8.51131916046143,8.49661636352539,8.48196411132812,8.46736240386963,8.45281028747559,8.43830871582031,8.42385578155518,8.40945148468018,8.39509582519531,8.3807897567749,8.36653232574463,8.35232353210449,8.33816242218018,8.32404899597168,8.30998420715332,8.29596614837646,8.28199481964111,8.26807117462158,8.25419425964355,8.24036407470703,8.2265796661377,8.21284198760986,8.1991491317749,8.18550205230713,8.17190074920654,8.15834522247314,8.1448335647583,8.13136672973633,8.11794471740723,8.10456657409668,8.09123229980469,8.07794189453125,8.06469535827637,8.05149269104004,8.03833198547363,8.02521514892578,8.01214122772217,7.99910879135132,7.98611927032471,7.97317218780518,7.96026706695557,7.94740390777588,7.93458223342896,7.92180156707764,7.90906238555908,7.89636373519897,7.88370609283447,7.87108898162842,7.86267280578613,7.8752007484436,7.88776826858521,7.90037631988525,7.91302490234375,7.92571353912354,7.93844318389893,7.95121383666992,7.96402597427368,7.97687911987305,7.98977375030518,8.00271034240723,8.0156888961792,8.02870941162109,8.04177188873291,8.05487728118896,8.06802558898926,8.08121681213379,8.09445190429688,8.1077299118042,8.12105083465576,8.1344165802002,8.14782619476318,8.16127967834473,8.17477798461914,8.18832111358643,8.20190906524658,8.21554183959961,8.22922039031982,8.24294471740723
8.5217399597168,8.52583885192871,8.52994155883789,8.53404808044434,8.53815937042236,8.54227352142334,8.5463924407959,8.55051517486572,8.55464172363281,8.55877208709717,8.56290626525879,8.56704521179199,8.57118797302246,8.5753345489502,8.5794849395752,8.58364009857178,8.58779811859131,8.59196090698242,8.5961275100708,8.60029888153076,8.60447311401367,8.60865211486816,8.61283493041992,8.61702156066895,8.62121295928955,8.62540817260742,8.62960720062256,8.63381099700928,8.63801765441895,8.64223003387451,8.64644527435303,8.65066528320312,8.65488910675049,8.65911674499512,8.66334915161133,8.6675853729248,8.67182540893555,8.67607021331787,8.68031883239746,8.68457126617432,8.68882846832275,8.69308948516846,8.69735527038574,8.70162487030029,8.70589828491211,8.71017646789551,8.71445846557617,8.71874523162842,8.72303581237793,8.72733020782471,8.73162937164307,8.73593330383301,8.74024105072021,8.74455261230469,8.74886894226074,8.75318908691406,8.75751399993896,8.76184272766113,8.76617527008057,8.77051258087158,8.77485466003418,8.77920055389404,8.78355121612549,8.7879056930542,8.79226493835449,8.79662799835205,8.80099582672119,8.8053674697876,8.80974388122559,8.81412410736084,8.81850910186768,8.82289886474609,8.82729244232178,8.83169078826904,8.83609390258789,8.840500831604,8.84491157531738,8.84932708740234,8.85374736785889,8.85817241668701,8.8626012802124,8.86703395843506,8.87147235870361,8.87591457366943,8.88036155700684,8.8848123550415,8.88926792144775,8.89372825622559,8.89819240570068,8.90266227722168,8.90713596343994,8.91161346435547,8.91609668731689,8.92058372497559,8.92507457733154,8.9295711517334,8.93407154083252,8.93857669830322,8.94308662414551,8.94760131835938,8.95211982727051,8.95664310455322,8.96117115020752,8.9657039642334,8.97024154663086,8.97478294372559,8.97932910919189,8.98388004302979,8.98843574523926,8.99299621582031,8.99756145477295,9.00213050842285,9.00670433044434,9.01128387451172,9.01586723327637,9.0204553604126,9.02504825592041,9.02964496612549,9.03424739837646,9.03885459899902,9.04346561431885,9.04808235168457,9.05270290374756,9.05732917785645,9.0619592666626,9.06468296051025,9.06282138824463,9.06096076965332,9.05910015106201,9.05724048614502,9.05538177490234,9.05352306365967,9.05166625976562,9.04980945587158,9.04795360565186,9.04609870910645,9.04424476623535,9.04239082336426,9.0405387878418,9.03868675231934,9.03683471679688,9.03498458862305,9.03313446044922,9.03128623962402,9.02943801879883,9.02759075164795,9.02574348449707,9.02389812469482,9.02205276489258,9.02020835876465,9.01836490631104,9.01652145385742,9.01467990875244,9.01283836364746,9.0103006362915,8.99382305145264,8.97740650177002,8.96104907989502,8.94475173950195,8.9285135269165,8.91233444213867,8.89621353149414,8.88015079498291,8.86414527893066,8.84819793701172,8.83230781555176,8.81647491455078,8.80069923400879,8.78497886657715,8.76931476593018,8.75370693206787,8.73815441131592,8.72265625,8.70721435546875,8.69182586669922,8.67649173736572,8.66121196746826,8.64598655700684,8.63081359863281,8.61569404602051,8.60062789916992,8.58561325073242,8.57065200805664,8.55574321746826,8.54088687896729,8.52608203887939,8.51132774353027,8.49662494659424,8.48197269439697,8.46737098693848,8.45281982421875,8.43831825256348,8.42386436462402,8.40946006774902,8.39510536193848,8.38079833984375,8.36654090881348,8.35233211517334,8.33817100524902,8.32405757904053,8.30999279022217,8.29597473144531,8.28200340270996,8.26807975769043,8.2542028427124,8.24037265777588,8.22658824920654,8.21284961700439,8.19915771484375,8.18551063537598,8.17190933227539,8.15835285186768,8.14484119415283,8.13137531280518,8.11795234680176,8.10457420349121,8.09124088287354,8.0779504776001,8.06470394134521,8.05150032043457,8.03834056854248,8.02522277832031,8.0121488571167,7.99911689758301,7.9861273765564,7.97317981719971,7.9602746963501,7.94741153717041,7.93458986282349,7.92180919647217,7.90907001495361,7.89637136459351,7.883713722229,7.87109661102295,7.86280012130737,7.875328540802,7.88789653778076,7.90050506591797,7.91315364837646,7.92584323883057,7.93857336044312,7.95134401321411,7.96415662765503,7.97700977325439,7.98990488052368,8.00284194946289,8.01582050323486,8.02884197235107,8.04190540313721,8.05501079559326,8.06816005706787,8.0813512802124,8.09458637237549,8.10786533355713,8.12118721008301,8.13455295562744,8.14796257019043,8.16141700744629,8.1749153137207,8.1884593963623,8.20204734802246,8.2156810760498,8.22935962677002,8.24308490753174
8.50700855255127,8.51109218597412,8.51518154144287,8.51927375793457,8.52337074279785,8.52747058868408,8.53157520294189,8.53568363189697,8.53979587554932,8.54391193389893,8.54803276062012,8.55215644836426,8.55628490447998,8.56041717529297,8.56455326080322,8.56869316101074,8.57283782958984,8.57698535919189,8.58113765716553,8.58529376983643,8.58945465087891,8.59361839294434,8.59778690338135,8.60195922851562,8.60613536834717,8.61031627655029,8.61450099945068,8.61868953704834,8.62288188934326,8.62707901000977,8.63127899169922,8.63548469543457,8.63969326019287,8.64390659332275,8.6481237411499,8.65234565734863,8.65657043457031,8.66079998016357,8.66503429412842,8.66927242279053,8.6735143661499,8.67776012420654,8.68201065063477,8.68626499176025,8.69052410125732,8.69478702545166,8.69905376434326,8.70332527160645,8.70760059356689,8.71187973022461,8.71616363525391,8.72045230865479,8.72474479675293,8.72904109954834,8.73334121704102,8.73764705657959,8.74195575714111,8.74626922607422,8.75058746337891,8.75490951538086,8.75923538208008,8.76356601715088,8.76790142059326,8.77224063873291,8.77658367156982,8.78093147277832,8.78528308868408,8.78963947296143,8.79400062561035,8.79836559295654,8.80273532867432,8.80710887908936,8.81148624420166,8.81586933135986,8.82025527954102,8.82464694976807,8.82904243469238,8.83344268798828,8.83784675598145,8.84225559234619,8.8466682434082,8.8510856628418,8.85550785064697,8.85993385314941,8.86436462402344,8.86880016326904,8.87323951721191,8.87768363952637,8.88213157653809,8.8865852355957,8.89104270935059,8.89550399780273,8.89997100830078,8.90444183349609,8.90891742706299,8.91339683532715,8.91788101196289,8.92236995697021,8.92686367034912,8.93136119842529,8.93586444854736,8.9403715133667,8.9448823928833,8.9493989944458,8.95391941070557,8.95844459533691,8.96297454833984,8.96750926971436,8.97204780578613,8.97659111022949,8.98114013671875,8.98569297790527,8.99025058746338,8.99481201171875,8.99937915802002,9.00395011901855,9.00852584838867,9.01310634613037,9.01769256591797,9.02228260040283,9.02687644958496,9.03147602081299,9.0360803604126,9.04068851470947,9.04530239105225,9.04992008209229,9.05364894866943,9.05179214477539,9.04993534088135,9.04807949066162,9.04622459411621,9.0443696975708,9.04251670837402,9.04066371917725,9.03881168365479,9.03696060180664,9.0351095199585,9.03326034545898,9.03141117095947,9.02956295013428,9.0277156829834,9.02586841583252,9.02402305603027,9.02217769622803,9.0203332901001,9.01848983764648,9.01664638519287,9.01480388641357,9.01296234130859,9.01112174987793,9.00928211212158,9.00744247436523,9.00560474395752,9.0037670135498,9.00193023681641,8.99383354187012,8.9774169921875,8.9610595703125,8.94476222991943,8.92852401733398,8.91234493255615,8.8962230682373,8.88016033172607,8.86415576934814,8.8482084274292,8.83231830596924,8.81648540496826,8.80070877075195,8.78498935699463,8.76932525634766,8.75371646881104,8.73816394805908,8.72266674041748,8.70722389221191,8.69183540344238,8.6765022277832,8.66122245788574,8.64599609375,8.63082313537598,8.61570358276367,8.60063743591309,8.58562278747559,8.5706615447998,8.55575275421143,8.54089546203613,8.52609062194824,8.51133632659912,8.49663352966309,8.48198127746582,8.46737957000732,8.4528284072876,8.43832683563232,8.42387294769287,8.40946865081787,8.39511394500732,8.3808069229126,8.36654949188232,8.35234069824219,8.33817958831787,8.32406616210938,8.31000137329102,8.29598331451416,8.28201198577881,8.26808834075928,8.25421142578125,8.24038124084473,8.22659683227539,8.21285820007324,8.1991662979126,8.18551921844482,8.17191791534424,8.15836143493652,8.14484977722168,8.13138294219971,8.11796092987061,8.10458278656006,8.09124851226807,8.07795810699463,8.06471157073975,8.05150890350342,8.03834819793701,8.02523136138916,8.01215648651123,7.9991250038147,7.98613500595093,7.9731879234314,7.96028280258179,7.94741916656494,7.93459749221802,7.9218168258667,7.90907764434814,7.89637899398804,7.88372135162354,7.87110424041748,7.86292743682861,7.87545585632324,7.88802480697632,7.90063333511353,7.91328239440918,7.92597246170044,7.93870306015015,7.9514741897583,7.96428680419922,7.9771409034729,7.99003648757935,8.00297355651855,8.01595306396484,8.02897453308105,8.04203796386719,8.05514430999756,8.06829357147217,8.08148574829102,8.09472179412842,8.10799980163574,8.12132263183594,8.13468933105469,8.14809894561768,8.16155433654785,8.17505359649658,8.18859672546387,8.20218563079834,8.2158203125,8.22949981689453,8.24322414398193
8.4923267364502,8.49639797210693,8.50047206878662,8.50455093383789,8.50863265991211,8.51271915435791,8.51680946350098,8.52090358734131,8.52500152587891,8.52910327911377,8.53320980072021,8.53731918334961,8.54143333435059,8.54555130004883,8.54967308044434,8.55379867553711,8.55792808532715,8.56206226348877,8.56620025634766,8.57034206390381,8.57448768615723,8.57863712310791,8.58279132843018,8.58694934844971,8.5911111831665,8.59527683258057,8.59944725036621,8.6036205291748,8.60779857635498,8.61198043823242,8.61616706848145,8.62035751342773,8.62455177307129,8.62874984741211,8.63295269012451,8.63715839385986,8.64136981964111,8.64558410644531,8.64980316162109,8.65402603149414,8.65825366973877,8.66248416900635,8.66672039031982,8.67095947265625,8.67520332336426,8.67945098876953,8.68370342254639,8.68795967102051,8.69221973419189,8.69648456573486,8.7007532119751,8.7050256729126,8.70930290222168,8.71358489990234,8.71786975860596,8.72215938568115,8.72645378112793,8.73075199127197,8.73505401611328,8.73936080932617,8.74367141723633,8.74798679351807,8.75230693817139,8.75662994384766,8.76095771789551,8.76529026031494,8.76962661743164,8.77396774291992,8.77831363677979,8.7826623916626,8.78701686859131,8.79137420654297,8.79573726654053,8.80010414123535,8.80447483062744,8.80885028839111,8.81322956085205,8.81761360168457,8.82200241088867,8.82639503479004,8.83079242706299,8.83519458770752,8.83960056304932,8.84401035308838,8.84842586517334,8.85284519195557,8.85726833343506,8.86169624328613,8.86612892150879,8.87056636810303,8.87500762939453,8.8794527053833,8.88390350341797,8.8883581161499,8.89281749725342,8.89728164672852,8.90174961090088,8.90622234344482,8.91069889068604,8.91518115997314,8.91966724395752,8.92415809631348,8.9286527633667,8.93315315246582,8.93765735626221,8.94216537475586,8.94667911529541,8.95119762420654,8.95571994781494,8.96024703979492,8.96477890014648,8.96931457519531,8.97385597229004,8.97840118408203,8.98295116424561,8.98750591278076,8.9920654296875,8.9966287612915,9.00119781494141,9.00577068328857,9.01034832000732,9.01493072509766,9.01951789855957,9.02410984039307,9.02870655059814,9.0333080291748,9.03791332244873,9.04252433776855,9.04078960418701,9.03893756866455,9.03708553314209,9.03523540496826,9.03338527679443,9.03153610229492,9.02968788146973,9.02784061431885,9.02599430084229,9.02414798736572,9.02230262756348,9.02045822143555,9.01861381530762,9.01677131652832,9.01492881774902,9.01308727264404,9.01124668121338,9.00940704345703,9.00756740570068,9.00572872161865,9.00389099121094,9.00205421447754,9.00021839141846,8.99838256835938,8.99654769897461,8.99471378326416,8.99287986755371,8.99104785919189,8.97742748260498,8.96107006072998,8.94477272033691,8.92853450775146,8.91235542297363,8.89623355865479,8.88017082214355,8.86416625976562,8.84821891784668,8.83232879638672,8.81649589538574,8.80071926116943,8.78499889373779,8.76933479309082,8.75372695922852,8.73817443847656,8.72267627716064,8.70723342895508,8.69184589385986,8.67651176452637,8.66123199462891,8.64600563049316,8.63083267211914,8.61571407318115,8.60064697265625,8.58563327789307,8.57067108154297,8.55576133728027,8.5409049987793,8.52610015869141,8.51134586334229,8.49664306640625,8.48199081420898,8.46738910675049,8.45283699035645,8.43833541870117,8.42388248443604,8.40947818756104,8.39512252807617,8.38081645965576,8.36655807495117,8.35234928131104,8.33818817138672,8.32407474517822,8.31000995635986,8.29599189758301,8.28202056884766,8.26809692382812,8.2542200088501,8.24038887023926,8.22660541534424,8.21286678314209,8.19917392730713,8.18552780151367,8.17192554473877,8.15837001800537,8.14485836029053,8.13139152526855,8.11796855926514,8.10459041595459,8.09125709533691,8.07796669006348,8.06472015380859,8.05151653289795,8.03835678100586,8.02523899078369,8.01216506958008,7.99913263320923,7.98614311218262,7.97319555282593,7.96029043197632,7.94742679595947,7.93460512161255,7.92182445526123,7.90908527374268,7.89638662338257,7.88372898101807,7.87111186981201,7.86305475234985,7.87558364868164,7.88815259933472,7.90076208114624,7.91341161727905,7.92610168457031,7.93883275985718,7.95160436630249,7.96441745758057,7.97727203369141,7.99016809463501,8.00310611724854,8.01608562469482,8.02910709381104,8.04217147827148,8.05527782440186,8.06842803955078,8.08162021636963,8.09485626220703,8.10813522338867,8.12145805358887,8.13482570648193,8.14823627471924,8.16169166564941,8.17519092559814,8.18873500823975,8.20232486724854,8.21595859527588,8.22963905334473,8.24336433410645
