12.4090414047241,12.409387588501,12.4097328186035,12.4100770950317,12.4104194641113,12.4107646942139,12.4111089706421,12.4114551544189,12.4117994308472,12.4121417999268,12.4124879837036,12.4128313064575,12.4131774902344,12.4135217666626,12.4138669967651,12.4142093658447,12.4145545959473,12.4149017333984,12.4152450561523,12.4155874252319,12.4159336090088,12.4162797927856,12.4166240692139,12.4169702529907,12.4173135757446,12.4176588058472,12.4180021286011,12.4183492660522,12.4186935424805,12.4190378189087,12.4193811416626,12.4197273254395,12.4200735092163,12.4204196929932,12.4207649230957,12.4211082458496,12.4214534759521,12.4217987060547,12.4221448898315,12.4224891662598,12.422833442688,12.4231777191162,12.4235248565674,12.4238700866699,12.4242143630981,12.424560546875,12.4249038696289,12.4252510070801,12.4255962371826,12.4259433746338,12.4262857437134,12.4266328811646,12.4269762039185,12.4273252487183,12.4276676177979,12.428014755249,12.4283580780029,12.4287042617798,12.429051399231,12.4293947219849,12.429741859436,12.4300842285156,12.4304323196411,12.430778503418,12.4311237335205,12.431468963623,12.4318132400513,12.4321584701538,12.4325065612793,12.4328517913818,12.4331979751587,12.4335451126099,12.4338874816895,12.4342365264893,12.4345808029175,12.434928894043,12.4352722167969,12.4356164932251,12.4359636306763,12.4363117218018,12.43665599823,12.4370031356812,12.4373483657837,12.4376945495605,12.4380416870117,12.4383859634399,12.4387321472168,12.4390754699707,12.4306964874268,12.4180212020874,12.4053726196289,12.392749786377,12.3801517486572,12.3675804138184,12.3550338745117,12.3425130844116,12.3300170898438,12.3175468444824,12.3051023483276,12.2926816940308,12.2802867889404,12.2679166793823,12.2555723190308,12.2432518005371,12.2309560775757,12.2186851501465,12.2064390182495,12.1942167282104,12.1820201873779,12.1698474884033,12.1576986312866,12.1455736160278,12.1334733963013,12.1213979721069,12.1093454360962,12.0973176956177,12.0853128433228,12.0733327865601,12.061375617981,12.0494422912598,12.0375328063965,12.0256471633911,12.0137844085693,12.0019454956055,11.9901294708252,11.9783372879028,11.9665670394897,11.9548215866089,11.9430980682373,11.9313974380493,11.9197196960449,11.9080657958984,11.8964338302612,11.8848247528076,11.8732376098633,11.8616743087769,11.8501329421997,11.8386135101318,11.8271169662476,11.8156433105469,11.8041906356812,11.792760848999,11.7813529968262,11.7699670791626,11.7586040496826,11.7472620010376,11.7359418869019,11.7246437072754,11.7133674621582,11.702112197876,11.6908798217773,11.6796674728394,11.668478012085,11.6573085784912,11.6461620330811,11.6350355148315,11.6239309310913,11.612847328186,11.6017847061157,11.5907430648804,11.57972240448,11.5687236785889,11.5577449798584,11.5467872619629,11.535849571228,11.5249338150024,11.5140380859375,11.5031623840332,11.4923076629639,11.4814739227295,11.4706602096558,11.4598665237427,11.4490938186646,11.4383411407471,11.4276084899902,11.416895866394,11.4034509658813,11.3850088119507,11.3666257858276,11.3483028411865,11.3300380706787,11.3118324279785,11.2936859130859,11.2755966186523,11.2575654983521,11.2395915985107,11.2216749191284,11.2063503265381,11.1921977996826,11.1780805587769,11.1639995574951,11.1499528884888,11.1359424591064,11.1219663619995,11.1080255508423,11.0941200256348,11.080249786377,11.0664129257202,11.0526113510132,11.0388441085815,11.0251111984253,11.0114116668701,10.9977464675903,10.9841156005859,10.9705181121826,10.9569540023804,10.9434242248535,10.9299268722534,10.9164638519287,10.9030332565308,10.8896360397339,10.8762712478638,10.8629388809204,10.8496398925781,10.8363733291626,10.8231391906738,10.8099374771118,10.7967672348022,10.7836294174194,10.7705240249634,10.7574491500854,10.7444076538086,10.7313966751099,10.7184171676636,10.7054691314697,10.6925525665283,10.6796674728394,10.6668128967285,10.6534519195557,10.6378221511841,10.6222381591797,10.6066989898682,10.5912055969238,10.5757579803467,10.5603551864624,10.5449962615967,10.5296831130981,10.5144138336182,10.4991884231567,10.4840078353882,10.4688701629639,10.4537773132324,10.4387273788452,10.4237203598022,10.4087572097778,10.3938360214233,10.3789577484131,10.3641223907471,10.349328994751,10.3345775604248,10.3198690414429,10.3052024841309,10.2905759811401,10.2759923934937,10.2614488601685,10.2469472885132,10.2324867248535,10.2180671691895,10.2036876678467,10.1893482208252,10.1750497817993,10.1607904434204,10.1465721130371,10.1323928833008,10.1182537078857,10.1041536331177,10.0900926589966,10.0760707855225,10.0620880126953,10.0481433868408,10.0342378616333,10.0203714370728,10.0065422058105,9.99275207519531,9.97899913787842,9.96528434753418,9.95160675048828,9.93796730041504,9.92436408996582,9.91079902648926,9.89727115631104,9.88377952575684,9.87032508850098,9.85690689086914,9.84287261962891,9.82125949859619,9.79974174499512,9.77831840515137,9.75698757171631,9.73575019836426,9.71276569366455,9.68769931793213,9.66276168823242,9.63795185089111,9.6132698059082,9.58871364593506,9.56657028198242,9.55612564086914,9.54570293426514,9.53530406951904,9.52492713928223,9.514573097229,9.50424098968506,9.49393177032471,9.48364448547363,9.47338008880615,9.46313667297363,9.45291709899902,9.44271850585938,9.432541847229,9.42238712310791,9.41225433349609,9.40214347839355,9.39205455780029,9.38198661804199,9.37194061279297,9.36191654205322,9.35191345214844,9.34193134307861,9.33197116851807,9.32203197479248,9.31211376190186,9.30221652984619,9.29234027862549,9.28248596191406,9.27265167236328,9.26283836364746,9.2530460357666,9.24327373504639,9.23352241516113,9.22379112243652,9.21408081054688,9.20439147949219,9.19472217559814,9.18507289886475,9.17544364929199,9.1658353805542,9.15624618530273,9.14667797088623,9.13712882995605,9.12760066986084,9.11809158325195,9.10860252380371,9.0991325378418,9.08968353271484,9.0802526473999,9.07084274291992,9.06145191192627,9.05208015441895,9.04272747039795,9.0333948135376,9.02408123016357,9.01478672027588,9.00551128387451,8.99625492095947,8.98701763153076,8.97779846191406,8.96859931945801
12.3277769088745,12.3281164169312,12.3284568786621,12.3287954330444,12.3291368484497,12.3294773101807,12.329815864563,12.3301563262939,12.3304958343506,12.3308362960815,12.3311767578125,12.3315172195435,12.3318548202515,12.3321962356567,12.3325347900391,12.332878112793,12.3332147598267,12.3335571289062,12.3338947296143,12.3342370986938,12.3345804214478,12.3349189758301,12.335259437561,12.335599899292,12.3359394073486,12.3362798690796,12.3366212844849,12.3369579315186,12.3373003005981,12.3376398086548,12.3379831314087,12.338324546814,12.338662147522,12.3390035629272,12.3393430709839,12.3396863937378,12.3400249481201,12.3403663635254,12.3407049179077,12.3410472869873,12.3413877487183,12.3417291641235,12.3420686721802,12.3424091339111,12.3427505493164,12.3430919647217,12.3434314727783,12.3437719345093,12.3441133499146,12.3444528579712,12.3447961807251,12.3451356887817,12.3454761505127,12.345817565918,12.3461589813232,12.3465013504028,12.3468408584595,12.3471832275391,12.3475217819214,12.3478651046753,12.348201751709,12.3485469818115,12.3488864898682,12.3492279052734,12.3495674133301,12.349907875061,12.3502511978149,12.3505907058716,12.3509340286255,12.3512725830078,12.3516149520874,12.3519582748413,12.3522987365723,12.3526382446289,12.3529806137085,12.3533201217651,12.3536643981934,12.3540048599243,12.3543472290039,12.3546848297119,12.3550281524658,12.3553714752197,12.3557119369507,12.3560543060303,12.3563938140869,12.3567342758179,12.3570775985718,12.3574199676514,12.3577604293823,12.3581018447876,12.3515024185181,12.3389883041382,12.3264999389648,12.314037322998,12.3015995025635,12.2891864776611,12.276798248291,12.2644348144531,12.2520971298218,12.2397842407227,12.2274951934814,12.2152309417725,12.20299243927,12.1907768249512,12.1785869598389,12.1664209365845,12.154278755188,12.1421613693237,12.1300678253174,12.1179990768433,12.1059532165527,12.0939321517944,12.0819339752197,12.0699605941772,12.0580101013184,12.0460834503174,12.0341806411743,12.0223016738892,12.0104455947876,11.9986133575439,11.9868040084839,11.9750175476074,11.9632549285889,11.9515151977539,11.9397983551025,11.9281044006348,11.9164333343506,11.90478515625,11.893159866333,11.8815565109253,11.8699769973755,11.858419418335,11.8468837738037,11.8353710174561,11.823881149292,11.8124132156372,11.8009672164917,11.7895441055298,11.7781419754028,11.7667627334595,11.7554054260254,11.7440690994263,11.7327556610107,11.7214632034302,11.7101936340332,11.6989450454712,11.6877174377441,11.6765117645264,11.6653280258179,11.6541652679443,11.6430244445801,11.6319036483765,11.6208047866821,11.6097278594971,11.5986709594727,11.5876350402832,11.576621055603,11.5656270980835,11.5546541213989,11.5437021255493,11.5327711105347,11.521861076355,11.5109710693359,11.5001010894775,11.4892530441284,11.4784240722656,11.4676160812378,11.4568281173706,11.4460611343384,11.4353141784668,11.4245872497559,11.4138803482056,11.4031934738159,11.3862361907959,11.3678493499756,11.3495216369629,11.3312540054321,11.3130445480347,11.2948932647705,11.2768001556396,11.2587652206421,11.2407875061035,11.2228670120239,11.2050046920776,11.1871976852417,11.1699371337891,11.155876159668,11.1418504714966,11.1278600692749,11.1139049530029,11.0999841690063,11.0860986709595,11.0722484588623,11.0584316253662,11.0446500778198,11.0309019088745,11.0171890258789,11.0035095214844,10.9898643493652,10.9762525558472,10.9626750946045,10.9491300582886,10.935619354248,10.9221420288086,10.9086971282959,10.8952856063843,10.8819074630737,10.8685617446899,10.8552484512329,10.841968536377,10.8287200927734,10.815505027771,10.802321434021,10.7891702651978,10.776050567627,10.7629632949829,10.7499074935913,10.7368831634521,10.7238912582397,10.7109298706055,10.6979999542236,10.6851015090942,10.672233581543,10.6593971252441,10.6465911865234,10.6338167190552,10.6210718154907,10.6083574295044,10.5956745147705,10.5830211639404,10.5703983306885,10.5578050613403,10.5452423095703,10.5327091217041,10.5202054977417,10.5055265426636,10.490327835083,10.4751720428467,10.4600601196289,10.444993019104,10.429967880249,10.4149856567383,10.4000473022461,10.3851518630981,10.3702983856201,10.3554878234863,10.3407192230225,10.3259925842285,10.3113079071045,10.2966651916504,10.2820634841919,10.2675037384033,10.2529850006104,10.238507270813,10.2240695953369,10.2096738815308,10.1953182220459,10.1810026168823,10.16672706604,10.152491569519,10.1382961273193,10.1241397857666,10.1100234985352,10.0959463119507,10.0819082260132,10.0679092407227,10.0539493560791,10.0400276184082,10.02614402771,10.0122995376587,9.99849319458008,9.9847240447998,9.9709939956665,9.95730113983154,9.94364547729492,9.93002700805664,9.91644668579102,9.90290355682373,9.88939666748047,9.87592697143555,9.86249351501465,9.84909629821777,9.83573627471924,9.82241153717041,9.80912399291992,9.78973293304443,9.76835250854492,9.7470645904541,9.72587108612061,9.70476818084717,9.68082141876221,9.65591907501221,9.63114452362061,9.60649681091309,9.58197593688965,9.55924701690674,9.54881763458252,9.53841114044189,9.52802753448486,9.51766681671143,9.50732803344727,9.4970121383667,9.48671817779541,9.47644710540771,9.4661979675293,9.45597076416016,9.44576644897461,9.43558311462402,9.42542171478271,9.41528224945068,9.40516567230225,9.39506912231445,9.38499546051025,9.37494277954102,9.36491203308105,9.35490226745605,9.34491443634033,9.33494758605957,9.32500171661377,9.31507778167725,9.30517482757568,9.29529190063477,9.28543090820312,9.27558994293213,9.26577091217041,9.25597190856934,9.24619388580322,9.23643684387207,9.22669982910156,9.2169828414917,9.20728778839111,9.19761180877686,9.18795680999756,9.17832088470459,9.1687068939209,9.15911197662354,9.14953708648682,9.13998222351074,9.13044834136963,9.12093353271484,9.11143779754639,9.10196304321289,9.09250736236572,9.0830717086792,9.073655128479,9.06425762176514,9.05488014221191,9.04552268981934,9.03618431091309,9.02686405181885,9.01756381988525,9.00828266143799,8.99902057647705,8.98977756500244,8.98055362701416,8.97134876251221,8.96216201782227,8.95299530029297
12.2475671768188,12.2479019165039,12.2482385635376,12.2485761642456,12.2489080429077,12.2492446899414,12.2495822906494,12.2499160766602,12.2502536773682,12.2505884170532,12.2509250640869,12.2512559890747,12.2515964508057,12.2519292831421,12.2522659301758,12.2526016235352,12.2529373168945,12.2532758712769,12.2536106109619,12.2539472579956,12.2542810440063,12.2546186447144,12.2549514770508,12.2552909851074,12.2556247711182,12.2559614181519,12.2562961578369,12.2566328048706,12.25696849823,12.2573041915894,12.2576398849487,12.2579765319824,12.2583122253418,12.2586488723755,12.2589855194092,12.2593212127686,12.2596578598022,12.259991645813,12.2603321075439,12.2606658935547,12.2610015869141,12.2613372802734,12.2616739273071,12.2620115280151,12.2623481750488,12.2626829147339,12.2630195617676,12.263355255127,12.2636938095093,12.2640295028687,12.264365196228,12.2647008895874,12.2650365829468,12.2653751373291,12.2657127380371,12.2660474777222,12.2663841247559,12.2667198181152,12.2670593261719,12.2673950195312,12.2677307128906,12.26806640625,12.268404006958,12.268741607666,12.2690763473511,12.2694120407104,12.2697486877441,12.2700872421265,12.2704238891602,12.2707624435425,12.2710971832275,12.2714347839355,12.2717704772949,12.2721080780029,12.2724447250366,12.2727823257446,12.2731170654297,12.2734546661377,12.2737913131714,12.2741279602051,12.2744674682617,12.2748012542725,12.2751417160034,12.2754755020142,12.2758150100708,12.2761507034302,12.2764883041382,12.2768230438232,12.2771615982056,12.2775001525879,12.2778367996216,12.2781753540039,12.2733116149902,12.2609558105469,12.2486248016357,12.2363185882568,12.2240362167358,12.2117795944214,12.1995468139648,12.1873388290405,12.1751556396484,12.1629962921143,12.1508617401123,12.1387510299683,12.1266641616821,12.1146011352539,12.1025629043579,12.0905485153198,12.0785570144653,12.0665903091431,12.0546464920044,12.0427274703979,12.0308303833008,12.0189580917358,12.0071086883545,11.9952821731567,11.9834794998169,11.971700668335,11.9599437713623,11.9482107162476,11.9365005493164,11.9248123168945,11.9131479263306,11.9015064239502,11.8898878097534,11.8782911300659,11.866717338562,11.8551664352417,11.8436374664307,11.8321313858032,11.8206472396851,11.8091850280762,11.7977457046509,11.7863283157349,11.7749328613281,11.7635593414307,11.7522077560425,11.7408790588379,11.7295713424683,11.7182855606079,11.7070207595825,11.6957788467407,11.6845569610596,11.673357963562,11.6621799468994,11.6510229110718,11.6398878097534,11.62877368927,11.6176815032959,11.6066093444824,11.5955591201782,11.5845289230347,11.5735206604004,11.5625324249268,11.5515661239624,11.5406198501587,11.5296945571899,11.5187892913818,11.5079050064087,11.4970417022705,11.486198425293,11.4753761291504,11.4645738601685,11.4537916183472,11.4430303573608,11.4322891235352,11.4215679168701,11.4108657836914,11.4001846313477,11.3874635696411,11.3690729141235,11.3507413864136,11.3324689865112,11.3142557144165,11.2961006164551,11.278003692627,11.2599649429321,11.2419834136963,11.2240600585938,11.2061929702759,11.188383102417,11.1706295013428,11.1529321670532,11.135290145874,11.1197900772095,11.1058549880981,11.0919551849365,11.0780897140503,11.0642585754395,11.050461769104,11.0367002487183,11.0229721069336,11.0092782974243,10.9956188201904,10.9819927215576,10.9684009552002,10.9548425674438,10.9413175582886,10.9278249740601,10.9143667221069,10.9009418487549,10.8875494003296,10.8741893768311,10.8608627319336,10.8475685119629,10.8343076705933,10.8210783004761,10.8078813552856,10.7947158813477,10.7815837860107,10.768482208252,10.7554130554199,10.7423763275146,10.7293701171875,10.7163963317871,10.7034530639648,10.690541267395,10.6776599884033,10.6648111343384,10.6519918441772,10.6392040252686,10.626446723938,10.6137199401855,10.6010236740112,10.5883569717407,10.5757217407227,10.5631160736084,10.5505399703979,10.5379943847656,10.5254783630371,10.5129928588867,10.5005359649658,10.4881086349487,10.4757108688354,10.463342666626,10.451003074646,10.4386930465698,10.4264116287231,10.414158821106,10.4019355773926,10.3897399902344,10.3764820098877,10.3616533279419,10.3468675613403,10.3321237564087,10.3174209594727,10.3027610778809,10.2881422042847,10.2735652923584,10.2590293884277,10.2445344924927,10.2300806045532,10.2156667709351,10.2012948989868,10.1869621276855,10.1726703643799,10.1584177017212,10.1442060470581,10.130033493042,10.1159000396729,10.101806640625,10.0877523422241,10.0737371444702,10.0597610473633,10.045823097229,10.0319242477417,10.0180635452271,10.0042409896851,9.99045658111572,9.97671031951904,9.9630012512207,9.94933032989502,9.93569660186768,9.92210102081299,9.90854167938232,9.89501953125,9.88153457641602,9.86808586120605,9.85467338562012,9.84129810333252,9.82795906066895,9.81465625762939,9.80138874053955,9.78815746307373,9.77496147155762,9.7584056854248,9.73716259002686,9.71601104736328,9.69495105743408,9.67395305633545,9.64908599853516,9.62434673309326,9.59973335266113,9.57524681091309,9.55193424224854,9.5415210723877,9.53113079071045,9.5207633972168,9.51041793823242,9.50009536743164,9.48979473114014,9.47951698303223,9.46926116943359,9.45902729034424,9.44881534576416,9.43862628936768,9.42845821380615,9.41831302642822,9.40818881988525,9.39808654785156,9.38800621032715,9.3779468536377,9.36790943145752,9.35789394378662,9.34789943695068,9.33792591094971,9.32797431945801,9.31804370880127,9.30813407897949,9.29824542999268,9.28837776184082,9.27853107452393,9.26870536804199,9.25890064239502,9.24911594390869,9.23935222625732,9.22960948944092,9.21988677978516,9.21018505096436,9.2005033493042,9.19084167480469,9.18120098114014,9.17158031463623,9.16197872161865,9.15239906311035,9.14283847808838,9.13329696655273,9.12377643585205,9.11427593231201,9.1047945022583,9.09533309936523,9.08589172363281,9.07646942138672,9.06706619262695,9.05768299102783,9.04831886291504,9.03897476196289,9.02964973449707,9.02034378051758,9.01105690002441,9.00178909301758,8.99254035949707,8.98331069946289,8.97409915924072,8.9649076461792,8.95573425292969,8.9465799331665,8.93744468688965
12.1683959960938,12.1687250137329,12.169056892395,12.1693897247314,12.1697187423706,12.1700525283813,12.1703824996948,12.1707153320312,12.1710433959961,12.1713752746582,12.1717081069946,12.1720399856567,12.1723690032959,12.1727027893066,12.1730318069458,12.1733655929565,12.173698425293,12.1740283966064,12.1743593215942,12.1746912002563,12.1750240325928,12.1753540039062,12.1756858825684,12.1760158538818,12.1763486862183,12.1766805648804,12.1770114898682,12.177342414856,12.1776733398438,12.1780061721802,12.1783390045166,12.1786708831787,12.1790008544922,12.1793346405029,12.1796636581421,12.1799974441528,12.1803293228149,12.1806621551514,12.1809911727905,12.181324005127,12.1816568374634,12.1819896697998,12.1823225021362,12.182653427124,12.1829833984375,12.1833143234253,12.1836490631104,12.1839799880981,12.1843118667603,12.1846437454224,12.1849756240845,12.1853075027466,12.185640335083,12.1859731674194,12.1863031387329,12.1866369247437,12.1869707107544,12.1873025894165,12.1876335144043,12.1879653930664,12.1882972717285,12.1886329650879,12.1889619827271,12.1892957687378,12.1896286010742,12.1899585723877,12.1902933120728,12.1906242370605,12.1909561157227,12.1912889480591,12.1916208267212,12.1919555664062,12.1922874450684,12.1926174163818,12.1929521560669,12.1932821273804,12.1936168670654,12.1939506530762,12.1942806243896,12.1946144104004,12.1949453353882,12.1952810287476,12.1956119537354,12.1959466934204,12.1962776184082,12.1966094970703,12.1969404220581,12.1972770690918,12.1976070404053,12.197940826416,12.1982746124268,12.1986055374146,12.1989421844482,12.1992721557617,12.1961040496826,12.1839027404785,12.1717262268066,12.159574508667,12.1474456787109,12.1353416442871,12.1232624053955,12.1112060546875,12.0991744995117,12.0871667861938,12.0751819610596,12.0632219314575,12.0512847900391,12.0393724441528,12.0274820327759,12.0156164169312,12.00377368927,11.9919538497925,11.9801578521729,11.9683847427368,11.9566345214844,11.9449081420898,11.9332036972046,11.9215230941772,11.9098653793335,11.898229598999,11.8866167068481,11.8750267028809,11.8634595870972,11.8519144058228,11.8403921127319,11.8288927078247,11.8174142837524,11.8059587478638,11.7945261001587,11.7831144332886,11.7717256546021,11.7603578567505,11.7490129470825,11.7376899719238,11.7263879776001,11.71510887146,11.7038507461548,11.6926136016846,11.6813993453979,11.670205116272,11.6590337753296,11.6478824615479,11.6367540359497,11.6256456375122,11.6145582199097,11.6034927368164,11.5924482345581,11.5814247131348,11.5704221725464,11.5594396591187,11.5484790802002,11.5375385284424,11.5266189575195,11.5157203674316,11.5048418045044,11.4939842224121,11.4831466674805,11.4723300933838,11.4615335464478,11.4507570266724,11.4400014877319,11.4292650222778,11.4185495376587,11.4078540802002,11.3971786499023,11.3865232467651,11.3702964782715,11.3519611358643,11.3336849212646,11.3154678344727,11.297308921814,11.2792081832886,11.2611656188965,11.2431802749634,11.2252521514893,11.2073822021484,11.189567565918,11.1718101501465,11.1541090011597,11.1364641189575,11.1188745498657,11.1013412475586,11.0839366912842,11.0700912475586,11.0562801361084,11.0425033569336,11.0287618637085,11.0150537490845,11.0013790130615,10.9877395629883,10.9741325378418,10.9605598449707,10.9470205307007,10.9335155487061,10.9200429916382,10.9066038131714,10.8931970596313,10.8798236846924,10.8664827346802,10.853175163269,10.8399000167847,10.8266572952271,10.8134469985962,10.8002681732178,10.7871217727661,10.7740077972412,10.7609252929688,10.7478742599487,10.7348556518555,10.7218675613403,10.7089109420776,10.6959867477417,10.6830930709839,10.6702299118042,10.657398223877,10.6445970535278,10.6318264007568,10.6190872192383,10.6063776016235,10.5936994552612,10.5810508728027,10.568431854248,10.5558443069458,10.543285369873,10.5307569503784,10.5182580947876,10.5057888031006,10.4933500289917,10.4809398651123,10.4685583114624,10.4562072753906,10.4438848495483,10.4315910339355,10.4193267822266,10.4070901870728,10.3948831558228,10.3827047348022,10.3705549240112,10.3584337234497,10.3463401794434,10.3342752456665,10.3222379684448,10.3102293014526,10.2982482910156,10.2862949371338,10.2743692398071,10.2624711990356,10.2505683898926,10.2360973358154,10.2216672897339,10.2072782516479,10.192928314209,10.1786203384399,10.1643514633179,10.1501226425171,10.1359329223633,10.1217842102051,10.1076745986938,10.0936031341553,10.079571723938,10.0655794143677,10.05162525177,10.0377101898193,10.0238342285156,10.0099954605103,9.99619579315186,9.9824333190918,9.96870899200439,9.95502185821533,9.94137287139893,9.92776107788086,9.91418647766113,9.90064907073975,9.8871488571167,9.87368488311768,9.86025810241699,9.84686660766602,9.83351230621338,9.82019424438477,9.80691242218018,9.79366588592529,9.78045558929443,9.76728057861328,9.75414085388184,9.7410364151001,9.72727966308594,9.7061710357666,9.68515396118164,9.66422843933105,9.64226245880127,9.61755752563477,9.59298038482666,9.56852722167969,9.54463291168213,9.53423595428467,9.5238618850708,9.51350975036621,9.50318050384521,9.4928731918335,9.48258781433105,9.47232627868652,9.46208572387695,9.45186710357666,9.44167137145996,9.43149662017822,9.42134475708008,9.41121387481689,9.4011058807373,9.39101886749268,9.38095283508301,9.37090969085693,9.36088752746582,9.35088634490967,9.34090709686279,9.33094882965088,9.32101154327393,9.31109523773193,9.30120086669922,9.29132652282715,9.28147411346436,9.27164173126221,9.26183032989502,9.25203990936279,9.24227046966553,9.23252105712891,9.22279262542725,9.21308422088623,9.20339679718018,9.19372940063477,9.18408203125,9.17445468902588,9.16484832763672,9.1552619934082,9.14569473266602,9.13614845275879,9.12662220001221,9.11711502075195,9.10762786865234,9.09816074371338,9.08871269226074,9.07928466796875,9.0698766708374,9.06048679351807,9.05111789703369,9.04176712036133,9.03243637084961,9.02312469482422,9.01383209228516,9.00455856323242,8.99530410766602,8.98606872558594,8.97685241699219,8.96765518188477,8.95847606658936,8.94931602478027,8.94017505645752,8.93105220794678,8.92194843292236
12.090238571167,12.0905675888062,12.0908937454224,12.0912218093872,12.0915498733521,12.0918741226196,12.0922021865845,12.0925273895264,12.0928573608398,12.0931816101074,12.0935106277466,12.0938348770142,12.0941648483276,12.0944919586182,12.094820022583,12.0951471328735,12.0954723358154,12.0958003997803,12.0961275100708,12.0964555740356,12.0967817306519,12.0971088409424,12.0974349975586,12.0977640151978,12.098090171814,12.0984182357788,12.0987462997437,12.0990734100342,12.0994033813477,12.0997285842896,12.1000576019287,12.1003828048706,12.1007099151611,12.1010389328003,12.1013669967651,12.1016931533813,12.1020193099976,12.1023473739624,12.1026773452759,12.1030044555664,12.1033325195312,12.1036596298218,12.1039867401123,12.1043157577515,12.1046419143677,12.1049709320068,12.1052951812744,12.1056251525879,12.1059513092041,12.1062831878662,12.1066064834595,12.1069364547729,12.1072635650635,12.107590675354,12.1079225540161,12.1082468032837,12.1085767745972,12.1089038848877,12.1092300415039,12.1095600128174,12.1098880767822,12.1102151870728,12.1105432510376,12.1108722686768,12.1112003326416,12.1115293502808,12.1118574142456,12.1121835708618,12.1125106811523,12.1128416061401,12.1131687164307,12.1134967803955,12.1138229370117,12.1141538619995,12.1144819259644,12.1148109436035,12.1151399612427,12.1154651641846,12.1157941818237,12.1161241531372,12.1164522171021,12.1167783737183,12.1171083450317,12.1174364089966,12.1177663803101,12.1180934906006,12.1184215545654,12.1187505722046,12.1190786361694,12.1194086074829,12.1197347640991,12.1200656890869,12.1203927993774,12.1207208633423,12.1210508346558,12.1213788986206,12.1198625564575,12.1078128814697,12.0957880020142,12.0837869644165,12.0718088150024,12.0598554611206,12.0479249954224,12.036018371582,12.0241355895996,12.0122766494751,12.0004405975342,11.9886274337769,11.9768371582031,11.9650707244873,11.9533271789551,11.9416074752808,11.9299097061157,11.9182348251343,11.9065837860107,11.8949546813965,11.8833484649658,11.8717651367188,11.860203742981,11.8486652374268,11.8371486663818,11.8256549835205,11.8141841888428,11.802734375,11.7913074493408,11.7799024581909,11.7685194015503,11.7571582794189,11.7458200454712,11.7345027923584,11.7232074737549,11.7119331359863,11.7006816864014,11.6894512176514,11.6782426834106,11.6670551300049,11.6558885574341,11.6447439193726,11.6336212158203,11.6225185394287,11.6114377975464,11.600378036499,11.5893392562866,11.5783214569092,11.5673246383667,11.5563488006592,11.5453939437866,11.5344591140747,11.5235452651978,11.5126523971558,11.5017795562744,11.490927696228,11.4800958633423,11.4692850112915,11.4584941864014,11.4477233886719,11.4369735717773,11.4262428283691,11.4155330657959,11.4048433303833,11.3941736221313,11.3835229873657,11.3715200424194,11.3531818389893,11.3349018096924,11.3166799545288,11.2985172271729,11.2804126739502,11.2623662948608,11.2443771362305,11.2264451980591,11.2085704803467,11.1907529830933,11.1729917526245,11.1552877426147,11.137638092041,11.1200456619263,11.1025075912476,11.0850257873535,11.0675983428955,11.0502252578735,11.034556388855,11.0208339691162,11.0071458816528,10.9934911727905,10.9798707962036,10.9662837982178,10.9527311325073,10.9392108917236,10.925724029541,10.9122714996338,10.898850440979,10.8854637145996,10.872109413147,10.8587875366211,10.845498085022,10.8322420120239,10.8190174102783,10.8058261871338,10.7926664352417,10.7795381546021,10.7664422988892,10.7533779144287,10.740345954895,10.7273445129395,10.7143754959106,10.70143699646,10.6885299682617,10.6756544113159,10.6628093719482,10.649995803833,10.6372117996216,10.6244592666626,10.6117382049561,10.599045753479,10.5863847732544,10.5737533569336,10.5611524581909,10.5485820770264,10.5360403060913,10.5235290527344,10.5110483169556,10.4985961914062,10.4861736297607,10.4737796783447,10.4614162445068,10.4490814208984,10.4367752075195,10.4244985580444,10.4122505187988,10.400032043457,10.3878412246704,10.3756790161133,10.3635454177856,10.3514404296875,10.3393630981445,10.3273143768311,10.3152942657471,10.3033008575439,10.2913360595703,10.2793989181519,10.2674894332886,10.2556076049805,10.2437524795532,10.2319259643555,10.2201261520386,10.2083530426025,10.1966075897217,10.1848888397217,10.1731967926025,10.1615324020386,10.1498937606812,10.1382827758789,10.1266975402832,10.1135482788086,10.099461555481,10.085412979126,10.0714044570923,10.0574350357056,10.0435037612915,10.0296106338501,10.0157566070557,10.0019407272339,9.98816204071045,9.97442245483398,9.96072006225586,9.94705486297607,9.93342781066895,9.91983795166016,9.90628528594971,9.89276885986328,9.8792896270752,9.86584758758545,9.85244178771973,9.83907222747803,9.82573890686035,9.8124418258667,9.79918003082275,9.78595542907715,9.77276515960693,9.75961112976074,9.74649238586426,9.73340797424316,9.72035980224609,9.70734596252441,9.69436740875244,9.67537784576416,9.65449333190918,9.63369941711426,9.61077976226807,9.58623600006104,9.56181716918945,9.537522315979,9.52696228027344,9.51660346984863,9.50626659393311,9.49595355987549,9.48566150665283,9.47539234161377,9.46514511108398,9.45492076873779,9.44471836090088,9.43453693389893,9.42437839508057,9.41424179077148,9.40412616729736,9.39403247833252,9.38396072387695,9.37391090393066,9.36388206481934,9.35387516021729,9.3438892364502,9.33392429351807,9.3239803314209,9.31405830383301,9.30415725708008,9.29427719116211,9.2844181060791,9.27458000183105,9.26476287841797,9.25496578216553,9.24518966674805,9.23543453216553,9.22569942474365,9.21598529815674,9.20629119873047,9.19661808013916,9.1869649887085,9.17733192443848,9.16771984100342,9.15812683105469,9.1485538482666,9.13900184631348,9.12946891784668,9.11995601654053,9.11046314239502,9.10099029541016,9.09153652191162,9.08210182189941,9.07268810272217,9.06329345703125,9.05391788482666,9.0445613861084,9.03522491455078,9.02590751647949,9.01660919189453,9.0073299407959,8.99806976318359,8.98882865905762,8.97960662841797,8.97040367126465,8.96121883392334,8.95205307006836,8.94290637969971,8.93377876281738,8.92466926574707,8.91557788848877,8.9065055847168
12.0130825042725,12.01340675354,12.013729095459,12.0140514373779,12.0143718719482,12.0146989822388,12.0150194168091,12.015341758728,12.0156650543213,12.0159883499146,12.0163116455078,12.0166349411011,12.016960144043,12.0172786712646,12.0176029205322,12.0179252624512,12.0182514190674,12.0185718536377,12.0188970565796,12.0192165374756,12.0195417404175,12.0198650360107,12.020188331604,12.0205097198486,12.0208339691162,12.0211572647095,12.0214815139771,12.0218057632446,12.0221271514893,12.0224494934082,12.0227727890015,12.0230989456177,12.0234203338623,12.0237436294556,12.0240640640259,12.0243892669678,12.0247135162354,12.0250368118286,12.0253610610962,12.0256843566895,12.0260066986084,12.026330947876,12.0266561508179,12.0269775390625,12.0273008346558,12.0276231765747,12.0279493331909,12.0282735824585,12.0285968780518,12.0289211273193,12.029242515564,12.0295677185059,12.0298891067505,12.0302152633667,12.0305376052856,12.0308618545532,12.0311851501465,12.0315103530884,12.0318326950073,12.0321569442749,12.0324792861938,12.0328035354614,12.0331287384033,12.0334520339966,12.0337762832642,12.0340995788574,12.0344228744507,12.0347480773926,12.0350713729858,12.0353956222534,12.0357189178467,12.0360431671143,12.0363683700562,12.0366926193237,12.0370140075684,12.0373401641846,12.0376634597778,12.0379886627197,12.038311958313,12.0386371612549,12.0389585494995,12.0392847061157,12.039608001709,12.0399341583252,12.0402545928955,12.0405807495117,12.0409049987793,12.0412311553955,12.0415563583374,12.0418796539307,12.0422029495239,12.0425252914429,12.0428524017334,12.0431747436523,12.0434999465942,12.0438222885132,12.0441484451294,12.044472694397,12.0445671081543,12.0326671600342,12.020791053772,12.0089378356934,11.9971084594727,11.9853019714355,11.9735193252563,11.9617586135864,11.9500217437744,11.9383087158203,11.9266176223755,11.9149494171143,11.9033041000366,11.8916816711426,11.8800811767578,11.868504524231,11.8569498062134,11.8454170227051,11.8339071273804,11.8224201202393,11.8109550476074,11.7995119094849,11.7880907058716,11.7766923904419,11.7653160095215,11.753960609436,11.7426280975342,11.7313165664673,11.720027923584,11.7087602615356,11.6975145339966,11.6862897872925,11.6750869750977,11.6639060974121,11.6527462005615,11.6416072845459,11.6304903030396,11.6193933486938,11.6083192825317,11.5972652435303,11.5862321853638,11.5752201080322,11.5642290115356,11.553258895874,11.5423097610474,11.5313816070557,11.5204734802246,11.5095863342285,11.4987192153931,11.4878730773926,11.4770469665527,11.4662418365479,11.4554567337036,11.44469165802,11.4339475631714,11.4232225418091,11.4125185012817,11.401834487915,11.3911695480347,11.3805255889893,11.3699007034302,11.3544015884399,11.3361177444458,11.3178930282593,11.2997255325317,11.2816171646118,11.2635669708252,11.2455739974976,11.2276382446289,11.2097606658936,11.1919393539429,11.1741743087769,11.1564655303955,11.1388130187988,11.1212158203125,11.1036748886108,11.0861892700195,11.0687580108643,11.051381111145,11.0340595245361,11.0167922973633,10.9995784759521,10.9856147766113,10.9720134735107,10.9584465026855,10.9449129104614,10.9314117431641,10.9179449081421,10.9045104980469,10.8911094665527,10.8777408599854,10.864405632019,10.8511028289795,10.8378324508667,10.8245944976807,10.8113889694214,10.7982158660889,10.7850742340088,10.7719650268555,10.7588872909546,10.7458419799805,10.7328281402588,10.7198448181152,10.7068939208984,10.6939735412598,10.6810846328735,10.6682262420654,10.6553993225098,10.6426038742065,10.6298379898071,10.6171026229858,10.604398727417,10.591724395752,10.579080581665,10.5664672851562,10.5538835525513,10.5413293838501,10.5288057327271,10.5163116455078,10.5038471221924,10.4914121627808,10.4790067672729,10.4666299819946,10.4542837142944,10.4419651031494,10.4296760559082,10.4174165725708,10.4051847457886,10.3929824829102,10.3808078765869,10.3686628341675,10.3565454483032,10.3444566726685,10.3323965072632,10.3203630447388,10.3083591461182,10.2963819503784,10.2844333648682,10.2725124359131,10.2606182098389,10.2487525939941,10.2369136810303,10.2251024246216,10.2133178710938,10.2015609741211,10.1898307800293,10.1781282424927,10.1664524078369,10.1548023223877,10.1431798934937,10.1315841674805,10.1200141906738,10.108470916748,10.0969533920288,10.0854625701904,10.0739984512329,10.0625600814819,10.0511474609375,10.0397605895996,10.0283994674683,10.0170640945435,10.0057544708252,9.99389839172363,9.98014259338379,9.9664249420166,9.95274448394775,9.93910121917725,9.92549610137939,9.91192722320557,9.89839649200439,9.88490200042725,9.87144374847412,9.85802268981934,9.84463787078857,9.83129024505615,9.81797790527344,9.80470180511475,9.79146099090576,9.7782564163208,9.76508712768555,9.75195407867432,9.73885536193848,9.72579288482666,9.71276378631592,9.6997709274292,9.68681240081787,9.67388820648193,9.66099834442139,9.64477729797363,9.62402534484863,9.60336208343506,9.57950115203857,9.55511665344238,9.53085613250732,9.51969909667969,9.50935554504395,9.4990348815918,9.48873710632324,9.47846126556396,9.46820735931396,9.45797634124756,9.44776725769043,9.43758010864258,9.427414894104,9.41727066040039,9.40714931488037,9.39704895019531,9.38697052001953,9.37691402435303,9.3668794631958,9.35686588287354,9.34687328338623,9.33690166473389,9.32695293426514,9.31702423095703,9.30711650848389,9.2972297668457,9.2873649597168,9.27752017974854,9.26769638061523,9.25789356231689,9.24811172485352,9.23834991455078,9.22860908508301,9.21888828277588,9.20918846130371,9.19950866699219,9.18984985351562,9.18021106719971,9.17059230804443,9.1609935760498,9.15141487121582,9.14185619354248,9.13231754302979,9.12279891967773,9.11330032348633,9.10382080078125,9.09436130523682,9.08492183685303,9.07550144195557,9.06610107421875,9.05671977996826,9.0473575592041,9.03801536560059,9.02869129180908,9.01938819885254,9.01010322570801,9.0008373260498,8.99159049987793,8.98236274719238,8.97315406799316,8.96396350860596,8.95479297637939,8.94564056396484,8.9365062713623,8.92739105224609,8.91829490661621,8.90921688079834,8.90015697479248,8.89111614227295
11.9369039535522,11.9372205734253,11.9375410079956,11.9378595352173,11.9381799697876,11.9384956359863,11.9388160705566,11.9391317367554,11.9394550323486,11.9397716522217,11.9400911331177,11.9404106140137,11.9407272338867,11.9410486221313,11.941367149353,11.9416875839233,11.9420042037964,11.9423236846924,11.9426441192627,11.9429626464844,11.9432792663574,11.9435997009277,11.9439163208008,11.9442377090454,11.94455909729,11.9448757171631,11.9451961517334,11.9455127716064,11.9458332061768,11.9461517333984,11.9464731216431,11.9467906951904,11.9471111297607,11.9474277496338,11.9477500915527,11.9480686187744,11.9483871459961,11.9487085342407,11.9490242004395,11.9493474960327,11.9496650695801,11.9499835968018,11.9503030776978,11.9506235122681,11.9509429931641,11.9512605667114,11.9515810012817,11.9519004821777,11.952220916748,11.952540397644,11.9528608322144,11.953179359436,11.953498840332,11.9538164138794,11.9541387557983,11.9544563293457,11.9547777175903,11.9550952911377,11.9554147720337,11.955735206604,11.9560556411743,11.9563770294189,11.956693649292,11.9570159912109,11.9573364257812,11.9576559066772,11.9579734802246,11.9582948684692,11.9586124420166,11.9589357376099,11.9592533111572,11.9595737457275,11.9598941802979,11.9602146148682,11.9605350494385,11.9608535766602,11.9611759185791,11.9614934921265,11.9618129730225,11.9621324539185,11.9624547958374,11.9627723693848,11.9630947113037,11.9634122848511,11.9637336730957,11.9640560150146,11.9643745422363,11.9646949768066,11.9650144577026,11.9653339385986,11.9656543731689,11.9659776687622,11.9662942886353,11.9666156768799,11.9669351577759,11.9672574996948,11.9675788879395,11.9678983688354,11.9682168960571,11.9685363769531,11.9688606262207,11.9584493637085,11.9467182159424,11.9350109100342,11.9233264923096,11.9116649627686,11.9000263214111,11.888409614563,11.8768167495728,11.8652458190918,11.8536968231201,11.8421716690063,11.8306674957275,11.8191871643066,11.8077278137207,11.7962913513184,11.7848768234253,11.7734842300415,11.762113571167,11.7507648468018,11.7394380569458,11.7281332015991,11.7168502807617,11.7055883407593,11.6943492889404,11.6831302642822,11.6719341278076,11.660758972168,11.6496047973633,11.6384716033936,11.6273603439331,11.6162700653076,11.6052017211914,11.5941534042358,11.5831270217896,11.5721206665039,11.5611352920532,11.5501708984375,11.5392274856567,11.5283050537109,11.5174026489258,11.5065212249756,11.4956607818604,11.4848203659058,11.4739999771118,11.4632005691528,11.4524211883545,11.4416618347168,11.4309225082397,11.4202041625977,11.4095058441162,11.3988265991211,11.3881683349609,11.3775291442871,11.3669099807739,11.3556222915649,11.3373346328735,11.3191051483154,11.3009347915649,11.2828226089478,11.2647676467896,11.246771812439,11.228832244873,11.2109498977661,11.1931247711182,11.1753559112549,11.1576442718506,11.1399879455566,11.122386932373,11.1048421859741,11.0873527526855,11.069917678833,11.0525379180908,11.0352125167847,11.0179414749146,11.0007238388062,10.9835605621338,10.9664506912231,10.9506196975708,10.937105178833,10.9236240386963,10.9101762771606,10.8967609405518,10.8833789825439,10.8700294494629,10.8567132949829,10.8434286117554,10.8301773071289,10.8169584274292,10.8037710189819,10.7906169891357,10.7774934768677,10.7644023895264,10.7513437271118,10.7383165359497,10.7253198623657,10.7123556137085,10.6994218826294,10.6865205764771,10.6736488342285,10.6608095169067,10.6479997634888,10.6352214813232,10.6224737167358,10.6097564697266,10.5970697402954,10.5844125747681,10.5717868804932,10.5591907501221,10.5466241836548,10.5340871810913,10.521580696106,10.5091037750244,10.4966564178467,10.4842386245728,10.4718503952026,10.459490776062,10.4471607208252,10.4348592758179,10.42258644104,10.410343170166,10.3981285095215,10.3859424591064,10.3737850189209,10.3616561889648,10.349555015564,10.3374824523926,10.3254384994507,10.3134212493896,10.3014335632324,10.2894725799561,10.2775402069092,10.2656345367432,10.2537565231323,10.2419061660767,10.2300834655762,10.2182884216309,10.2065200805664,10.1947784423828,10.1830635070801,10.1713762283325,10.1597156524658,10.14808177948,10.136474609375,10.1248931884766,10.1133394241333,10.1018114089966,10.0903091430664,10.0788335800171,10.0673837661743,10.0559597015381,10.0445623397827,10.0331907272339,10.0218448638916,10.0105237960815,9.99922847747803,9.98795890808105,9.97671508789062,9.96549606323242,9.95430278778076,9.94313430786133,9.93199062347412,9.92087173461914,9.9097785949707,9.89870929718018,9.88766479492188,9.8766450881958,9.86361026763916,9.85021114349365,9.83684730529785,9.82351970672607,9.81022930145264,9.79697322845459,9.78375434875488,9.77057075500488,9.75742149353027,9.74430847167969,9.73123073577881,9.71818828582764,9.70518016815186,9.69220733642578,9.6792688369751,9.6663646697998,9.65349578857422,9.64065933227539,9.62785911560059,9.61437129974365,9.59374904632568,9.57277584075928,9.54842567443848,9.52419948577881,9.51244640350342,9.50211906433105,9.49181461334229,9.48153209686279,9.47127151489258,9.46103382110596,9.45081806182861,9.44062423706055,9.43045234680176,9.42030239105225,9.41017436981201,9.40006732940674,9.38998317718506,9.37992000579834,9.36987781524658,9.3598575592041,9.3498592376709,9.33988189697266,9.32992553710938,9.31999111175537,9.31007671356201,9.30018424987793,9.29031276702881,9.28046226501465,9.27063179016113,9.26082324981689,9.2510347366333,9.24126720428467,9.23151969909668,9.22179317474365,9.21208763122559,9.20240211486816,9.19273662567139,9.18309116363525,9.17346668243408,9.16386222839355,9.15427684783936,9.14471244812012,9.13516807556152,9.12564373016357,9.11613845825195,9.10665321350098,9.09718799591064,9.08774280548096,9.0783166885376,9.06891059875488,9.0595235824585,9.05015563964844,9.04080677032471,9.03147792816162,9.02216815948486,9.01287746429443,9.00360679626465,8.99435424804688,8.98512077331543,8.975905418396,8.96671009063721,8.95753288269043,8.9483757019043,8.93923568725586,8.93011569976807,8.92101287841797,8.91193008422852,8.90286445617676,8.89381790161133,8.88478946685791,8.87578010559082
11.86168384552,11.8620014190674,11.8623132705688,11.8626279830933,11.8629417419434,11.8632583618164,11.8635730743408,11.8638887405396,11.8642024993896,11.8645153045654,11.8648309707642,11.8651466369629,11.8654623031616,11.8657760620117,11.8660907745361,11.8664035797119,11.8667240142822,11.867036819458,11.8673524856567,11.8676652908325,11.8679800033569,11.8682975769043,11.8686122894287,11.8689260482788,11.8692426681519,11.8695573806763,11.8698720932007,11.8701868057251,11.8705015182495,11.8708171844482,11.8711309432983,11.87144947052,11.8717622756958,11.8720779418945,11.8723955154419,11.8727083206177,11.8730239868164,11.8733386993408,11.8736553192139,11.873969078064,11.8742837905884,11.8745994567871,11.8749160766602,11.8752317428589,11.8755464553833,11.8758602142334,11.8761768341064,11.8764953613281,11.8768100738525,11.877124786377,11.8774385452271,11.8777561187744,11.8780698776245,11.8783874511719,11.878701210022,11.879017829895,11.8793306350708,11.8796501159668,11.8799657821655,11.8802804946899,11.880597114563,11.8809099197388,11.8812284469604,11.8815431594849,11.8818597793579,11.8821744918823,11.8824911117554,11.8828067779541,11.8831224441528,11.8834371566772,11.8837547302246,11.8840713500977,11.8843870162964,11.8847036361694,11.8850173950195,11.8853340148926,11.8856477737427,11.8859663009644,11.8862819671631,11.8865976333618,11.8869123458862,11.8872299194336,11.887547492981,11.8878631591797,11.8881797790527,11.8884935379028,11.8888101577759,11.8891258239746,11.8894443511963,11.8897581100464,11.8900756835938,11.8903894424438,11.8907051086426,11.8910226821899,11.891339302063,11.8916568756104,11.8919706344604,11.8922891616821,11.8926057815552,11.8929224014282,11.8932361602783,11.8935546875,11.8938674926758,11.8851404190063,11.873553276062,11.8619890213013,11.8504467010498,11.8389272689819,11.8274297714233,11.8159551620483,11.8045024871826,11.7930717468262,11.7816638946533,11.7702770233154,11.7589130401611,11.7475700378418,11.7362499237061,11.7249507904053,11.7136745452881,11.7024192810059,11.6911849975586,11.6799726486206,11.6687822341919,11.6576128005981,11.6464653015137,11.6353387832642,11.6242332458496,11.61314868927,11.6020860671997,11.59104347229,11.5800228118896,11.5690221786499,11.5580434799194,11.5470848083496,11.5361471176147,11.5252304077148,11.5143346786499,11.5034589767456,11.492603302002,11.4817686080933,11.4709539413452,11.4601602554321,11.4493865966797,11.4386329650879,11.4279003143311,11.4171867370605,11.406494140625,11.3958206176758,11.3851680755615,11.3745346069336,11.3639211654663,11.3533277511597,11.3385515213013,11.3203182220459,11.3021440505981,11.2840280532837,11.2659692764282,11.2479686737061,11.2300262451172,11.212140083313,11.1943111419678,11.1765384674072,11.1588220596313,11.1411628723145,11.1235580444336,11.1060094833374,11.0885162353516,11.0710783004761,11.0536947250366,11.0363655090332,11.0190906524658,11.0018692016602,10.9847021102905,10.9675893783569,10.9505281448364,10.933521270752,10.9165668487549,10.9024181365967,10.8890218734741,10.8756589889526,10.8623285293579,10.8490314483643,10.835765838623,10.8225336074829,10.8093328475952,10.7961645126343,10.7830276489258,10.769923210144,10.7568511962891,10.7438097000122,10.7308006286621,10.7178230285645,10.7048768997192,10.6919612884521,10.6790771484375,10.6662244796753,10.6534023284912,10.6406106948853,10.6278495788574,10.615119934082,10.6024198532104,10.589750289917,10.5771112442017,10.5645027160645,10.5519237518311,10.5393743515015,10.52685546875,10.5143661499023,10.5019063949585,10.4894752502441,10.4770746231079,10.4647026062012,10.4523601531982,10.4400472640991,10.4277620315552,10.415506362915,10.4032802581787,10.3910818099976,10.3789119720459,10.3667707443237,10.3546581268311,10.3425741195679,10.3305177688599,10.318489074707,10.3064889907837,10.2945165634155,10.2825717926025,10.270655632019,10.2587661743164,10.2469043731689,10.2350702285767,10.2232627868652,10.211483001709,10.1997299194336,10.1880044937134,10.176305770874,10.1646337509155,10.1529884338379,10.1413698196411,10.1297779083252,10.1182117462158,10.1066722869873,10.0951595306396,10.0836734771729,10.0722131729126,10.0607776641846,10.0493698120117,10.0379867553711,10.026629447937,10.0152978897095,10.0039930343628,9.99271202087402,9.98145771026611,9.97022819519043,9.95902347564697,9.94784450531006,9.93669033050537,9.92556095123291,9.91445732116699,9.90337753295898,9.8923225402832,9.88129329681396,9.87028789520264,9.85930633544922,9.84834957122803,9.83741760253906,9.82650947570801,9.81562614440918,9.80476665496826,9.79393100738525,9.78311920166016,9.77233123779297,9.76156711578369,9.74976825714111,9.73667621612549,9.72361850738525,9.71059608459473,9.69760894775391,9.68465518951416,9.67173671722412,9.65885353088379,9.64600372314453,9.63318824768066,9.62040710449219,9.60765933990479,9.59494495391846,9.58226490020752,9.56366348266602,9.54174327850342,9.51755142211914,9.50520610809326,9.49489402770996,9.48460483551025,9.47433757781982,9.46409320831299,9.45387077331543,9.44367027282715,9.43349170684814,9.42333507537842,9.41320037841797,9.4030876159668,9.3929967880249,9.38292694091797,9.37287902832031,9.36285209655762,9.3528470993042,9.34286308288574,9.33290100097656,9.32295989990234,9.31303977966309,9.30314064025879,9.29326248168945,9.28340530395508,9.27357006072998,9.26375484466553,9.25395965576172,9.24418640136719,9.2344331741333,9.22469997406006,9.21498775482178,9.20529651641846,9.19562530517578,9.18597412109375,9.17634296417236,9.16673183441162,9.15714168548584,9.1475715637207,9.13802051544189,9.12849044799805,9.11897945404053,9.10948848724365,9.10001754760742,9.09056568145752,9.08113384246826,9.07172107696533,9.06232833862305,9.05295467376709,9.04360103607178,9.03426647186279,9.02495098114014,9.01565456390381,9.00637722015381,8.99711894989014,8.98787975311279,8.97865962982178,8.96945858001709,8.96027565002441,8.95111274719238,8.94196701049805,8.93284130096436,8.92373371124268,8.91464424133301,8.90557384490967,8.89652156829834,8.88748741149902,8.87847232818604,8.86947536468506,8.86049652099609
11.7874069213867,11.7877178192139,11.7880296707153,11.7883377075195,11.7886505126953,11.7889604568481,11.7892723083496,11.7895812988281,11.7898931503296,11.7902069091797,11.7905158996582,11.790828704834,11.7911376953125,11.7914476394653,11.7917585372925,11.7920703887939,11.7923803329468,11.7926921844482,11.7930021286011,11.7933158874512,11.7936267852783,11.7939367294312,11.7942476272583,11.7945575714111,11.7948713302612,11.7951812744141,11.7954921722412,11.7958040237427,11.7961149215698,11.7964267730713,11.7967376708984,11.7970476150513,11.7973585128784,11.7976722717285,11.7979831695557,11.7982959747314,11.7986040115356,11.7989177703857,11.7992258071899,11.7995405197144,11.7998504638672,11.8001623153687,11.8004713058472,11.8007850646973,11.8010988235474,11.8014097213745,11.8017206192017,11.8020315170288,11.802342414856,11.8026552200317,11.8029670715332,11.8032779693604,11.8035879135132,11.8038997650146,11.8042106628418,11.8045244216919,11.8048362731934,11.8051490783691,11.8054580688477,11.8057718276978,11.8060817718506,11.806396484375,11.8067064285278,11.8070182800293,11.8073282241821,11.8076429367065,11.8079538345337,11.8082666397095,11.8085746765137,11.8088884353638,11.8092021942139,11.8095140457153,11.8098268508911,11.8101367950439,11.8104496002197,11.8107604980469,11.811074256897,11.8113842010498,11.8116979598999,11.8120069503784,11.8123226165771,11.8126354217529,11.8129463195801,11.8132591247559,11.8135690689087,11.8138828277588,11.8141927719116,11.8145065307617,11.8148183822632,11.8151302337646,11.8154420852661,11.8157558441162,11.8160648345947,11.8163795471191,11.8166913986206,11.8170042037964,11.8173189163208,11.8176288604736,11.8179407119751,11.8182535171509,11.8185653686523,11.8188772201538,11.8191909790039,11.8195018768311,11.8198156356812,11.8127250671387,11.8012790679932,11.7898540496826,11.7784519195557,11.7670726776123,11.7557144165039,11.7443780899048,11.7330636978149,11.7217712402344,11.7104997634888,11.6992511749268,11.6880226135254,11.6768169403076,11.6656322479248,11.6544694900513,11.6433267593384,11.6322069168091,11.6211071014404,11.6100292205811,11.5989713668823,11.5879354476929,11.5769205093384,11.5659265518188,11.55495262146,11.5440006256104,11.5330686569214,11.5221576690674,11.511266708374,11.5003967285156,11.4895477294922,11.4787187576294,11.4679107666016,11.4571218490601,11.4463539123535,11.4356060028076,11.4248790740967,11.4141712188721,11.4034843444824,11.3928165435791,11.3821687698364,11.3715419769287,11.3609342575073,11.3503456115723,11.339768409729,11.3215312957764,11.3033533096313,11.2852334976196,11.2671709060669,11.2491664886475,11.2312202453613,11.2133302688599,11.1954975128174,11.1777210235596,11.1600017547607,11.1423377990723,11.1247301101685,11.107177734375,11.0896806716919,11.0722379684448,11.0548515319824,11.0375185012817,11.0202398300171,11.0030155181885,10.9858446121216,10.9687280654907,10.9516639709473,10.9346532821655,10.9176950454712,10.9007892608643,10.8839359283447,10.8679504394531,10.8546390533447,10.8413600921631,10.8281135559082,10.8148994445801,10.8017177581787,10.7885675430298,10.7754497528076,10.7623643875122,10.7493095397949,10.7362871170044,10.7232961654663,10.7103366851807,10.6974077224731,10.6845111846924,10.6716442108154,10.6588096618652,10.6460046768188,10.6332311630249,10.6204881668091,10.6077756881714,10.5950937271118,10.5824422836304,10.5698204040527,10.5572290420532,10.5446672439575,10.5321350097656,10.5196332931519,10.5071611404419,10.4947175979614,10.4823045730591,10.4699201583862,10.4575653076172,10.445240020752,10.4329433441162,10.42067527771,10.4084367752075,10.3962259292603,10.3840446472168,10.3718919754028,10.359766960144,10.3476705551147,10.3356018066406,10.3235626220703,10.3115501403809,10.2995662689209,10.2876100540161,10.2756814956665,10.2637805938721,10.2519073486328,10.2400608062744,10.2282419204712,10.2164506912231,10.2046871185303,10.1929492950439,10.1812391281128,10.1695556640625,10.1578998565674,10.1462697982788,10.1346664428711,10.1230897903442,10.1115398406982,10.1000156402588,10.0885181427002,10.0770463943481,10.0656003952026,10.054181098938,10.0427875518799,10.0314197540283,10.020076751709,10.0087604522705,9.99746990203857,9.98620414733887,9.9749641418457,9.96374893188477,9.95255947113037,9.9413948059082,9.93025493621826,9.91913986206055,9.90805053710938,9.89698505401611,9.88594532012939,9.87492847442627,9.863938331604,9.85297107696533,9.84202861785889,9.83111000061035,9.82021617889404,9.80934619903564,9.79850101470947,9.78767871856689,9.77688121795654,9.76610660552979,9.75535583496094,9.74462890625,9.73392581939697,9.72324657440186,9.71258926391602,9.7019567489624,9.69134712219238,9.68076038360596,9.67019653320312,9.6596565246582,9.64913845062256,9.63852405548096,9.62572765350342,9.61296653747559,9.60023880004883,9.58754444122314,9.57488346099854,9.56225681304932,9.54966259002686,9.53376483917236,9.51091289520264,9.49797534942627,9.48767948150635,9.47740650177002,9.46715545654297,9.4569263458252,9.4467191696167,9.43653392791748,9.42637062072754,9.41622924804688,9.40610980987549,9.39601230621338,9.38593578338623,9.37588214874268,9.36584854125977,9.35583686828613,9.34584712982178,9.33587837219238,9.32593059539795,9.31600475311279,9.30609893798828,9.29621505737305,9.28635120391846,9.27650928497314,9.26668739318848,9.25688648223877,9.24710655212402,9.23734760284424,9.2276086807251,9.21789073944092,9.20819282531738,9.19851493835449,9.18885803222656,9.17922115325928,9.16960430145264,9.16000747680664,9.15043163299561,9.1408748626709,9.13133811950684,9.12182140350342,9.11232471466064,9.10284805297852,9.09339046478271,9.08395290374756,9.07453441619873,9.06513500213623,9.05575656890869,9.04639625549316,9.03705596923828,9.02773475646973,9.0184326171875,9.0091495513916,8.99988555908203,8.99064064025879,8.98141479492188,8.97220802307129,8.96302032470703,8.95385074615479,8.94470024108887,8.93556880950928,8.9264554977417,8.91736125946045,8.90828418731689,8.89922714233398,8.89018726348877,8.88116645812988,8.87216377258301,8.86317920684814,8.85421371459961,8.84526538848877
11.7140531539917,11.7143621444702,11.7146673202515,11.7149753570557,11.7152824401855,11.7155876159668,11.7158975601196,11.7162027359009,11.7165117263794,11.7168159484863,11.7171239852905,11.7174310684204,11.7177400588989,11.7180452346802,11.7183532714844,11.7186584472656,11.7189664840698,11.7192735671997,11.7195816040039,11.7198886871338,11.7201948165894,11.7205038070679,11.7208108901978,11.721118927002,11.7214250564575,11.7217330932617,11.722038269043,11.7223472595215,11.7226524353027,11.7229614257812,11.7232694625854,11.7235765457153,11.7238855361938,11.7241916656494,11.7244987487793,11.7248048782349,11.7251148223877,11.7254228591919,11.7257289886475,11.7260360717773,11.7263441085815,11.7266492843628,11.7269592285156,11.7272691726685,11.7275733947754,11.7278814315796,11.7281885147095,11.7284984588623,11.7288055419922,11.7291135787964,11.7294187545776,11.7297286987305,11.730034828186,11.7303438186646,11.7306509017944,11.7309598922729,11.7312688827515,11.7315759658813,11.7318849563599,11.7321891784668,11.7324991226196,11.7328052520752,11.733115196228,11.7334213256836,11.7337312698364,11.7340354919434,11.7343454360962,11.7346544265747,11.7349634170532,11.7352705001831,11.7355766296387,11.7358856201172,11.7361927032471,11.7365036010742,11.7368097305298,11.7371196746826,11.7374248504639,11.7377338409424,11.7380418777466,11.7383508682251,11.7386598587036,11.7389659881592,11.7392749786377,11.7395839691162,11.7398920059204,11.7401990890503,11.7405080795288,11.7408151626587,11.7411270141602,11.74143409729,11.7417421340942,11.7420511245728,11.7423572540283,11.7426671981812,11.742977142334,11.7432842254639,11.7435922622681,11.7439002990723,11.7442102432251,11.7445182800293,11.7448253631592,11.7451343536377,11.7454423904419,11.745753288269,11.7460641860962,11.7463693618774,11.7466773986816,11.7411870956421,11.7298784255981,11.7185926437378,11.7073278427124,11.696084022522,11.6848630905151,11.6736631393433,11.6624841690063,11.6513271331787,11.640191078186,11.6290760040283,11.6179828643799,11.6069107055664,11.5958595275879,11.5848293304443,11.5738201141357,11.5628318786621,11.5518646240234,11.5409173965454,11.5299911499023,11.5190858840942,11.5082015991211,11.4973373413086,11.4864940643311,11.4756708145142,11.4648675918579,11.4540853500366,11.443323135376,11.432580947876,11.4218587875366,11.4111576080322,11.4004755020142,11.3898134231567,11.3791723251343,11.3685503005981,11.3579483032227,11.3473653793335,11.336802482605,11.3227453231812,11.3045625686646,11.2864389419556,11.2683725357056,11.2503652572632,11.2324142456055,11.2145204544067,11.196683883667,11.1789035797119,11.1611804962158,11.1435127258301,11.125901222229,11.1083450317383,11.0908451080322,11.0733985900879,11.0560083389282,11.0386714935303,11.0213899612427,11.0041618347168,10.9869871139526,10.9698667526245,10.9527997970581,10.9357852935791,10.9188232421875,10.9019145965576,10.8850574493408,10.8682527542114,10.8514995574951,10.8347978591919,10.8204727172852,10.807276725769,10.7941131591797,10.7809820175171,10.7678823471069,10.7548151016235,10.7417793273926,10.7287750244141,10.715802192688,10.70285987854,10.6899499893188,10.6770706176758,10.6642227172852,10.6514053344727,10.6386184692383,10.625862121582,10.6131372451782,10.6004419326782,10.5877771377563,10.5751428604126,10.562539100647,10.5499649047852,10.5374202728271,10.5249061584473,10.5124206542969,10.4999656677246,10.4875392913818,10.4751434326172,10.462776184082,10.4504384994507,10.4381294250488,10.4258489608765,10.4135980606079,10.4013757705688,10.3891820907593,10.3770170211792,10.3648805618286,10.3527717590332,10.3406915664673,10.3286399841309,10.3166160583496,10.3046197891235,10.292652130127,10.2807121276855,10.268798828125,10.2569141387939,10.2450571060181,10.233226776123,10.2214241027832,10.2096481323242,10.1978998184204,10.1861782073975,10.1744832992554,10.1628160476685,10.1511745452881,10.1395597457886,10.1279726028442,10.1164112091064,10.1048755645752,10.0933666229248,10.0818843841553,10.0704278945923,10.0589971542358,10.0475921630859,10.0362138748169,10.0248603820801,10.0135335922241,10.0022315979004,9.9909553527832,9.97970485687256,9.96847915649414,9.95727825164795,9.9461030960083,9.93495273590088,9.923828125,9.91272735595703,9.90165233612061,9.89060115814209,9.8795747756958,9.86857318878174,9.8575963973999,9.84664344787598,9.83571529388428,9.82481098175049,9.81393051147461,9.80307483673096,9.79224300384521,9.78143501281738,9.77065086364746,9.75989055633545,9.74915313720703,9.73844051361084,9.72775077819824,9.71708393096924,9.70644187927246,9.69582176208496,9.68522548675537,9.67465209960938,9.66410160064697,9.65357494354248,9.64307022094727,9.63258934020996,9.62213039398193,9.6116943359375,9.60128116607666,9.5908899307251,9.58052158355713,9.57017612457275,9.55985164642334,9.54955101013184,9.53927135467529,9.52901363372803,9.51728057861328,9.50405311584473,9.49075698852539,9.48047637939453,9.47021865844727,9.45998287200928,9.44976902008057,9.43957710266113,9.42940807342529,9.41926002502441,9.40913391113281,9.39902973175049,9.38894748687744,9.37888622283936,9.36884689331055,9.35882949829102,9.34883308410645,9.33885765075684,9.32890319824219,9.31897068023682,9.30905914306641,9.29916858673096,9.28929901123047,9.27945041656494,9.26962280273438,9.25981616973877,9.25002956390381,9.24026393890381,9.23051929473877,9.22079467773438,9.21109104156494,9.20140743255615,9.19174385070801,9.18210124969482,9.17247867584229,9.16287612915039,9.15329360961914,9.14373111724854,9.13418769836426,9.12466526031494,9.11516284942627,9.10567951202393,9.09621620178223,9.08677291870117,9.07734870910645,9.06794452667236,9.05855941772461,9.04919338226318,9.0398473739624,9.03052043914795,9.02121257781982,9.01192378997803,9.00265407562256,8.99340343475342,8.98417186737061,8.97495937347412,8.96576595306396,8.95659065246582,8.94743537902832,8.93829727172852,8.92917919158936,8.92007827758789,8.91099739074707,8.90193367004395,8.89288902282715,8.88386249542236,8.87485408782959,8.86586475372314,8.85689353942871,8.84793949127197,8.83900451660156,8.83008670806885
11.6416110992432,11.6419115066528,11.6422166824341,11.6425180435181,11.6428251266479,11.6431274414062,11.6434297561646,11.6437339782715,11.6440334320068,11.6443386077881,11.6446418762207,11.6449460983276,11.6452474594116,11.6455526351929,11.6458559036255,11.6461582183838,11.6464605331421,11.6467638015747,11.647068977356,11.6473712921143,11.6476755142212,11.6479787826538,11.6482830047607,11.6485843658447,11.6488904953003,11.6491928100586,11.6494960784912,11.6497974395752,11.6501016616821,11.650408744812,11.6507120132446,11.6510162353516,11.6513175964355,11.6516218185425,11.6519231796265,11.6522302627563,11.6525316238403,11.6528348922729,11.6531372070312,11.6534433364868,11.6537475585938,11.6540508270264,11.6543569564819,11.6546573638916,11.6549615859985,11.6552677154541,11.6555700302124,11.655873298645,11.6561784744263,11.6564817428589,11.6567859649658,11.6570901870728,11.6573934555054,11.6576986312866,11.6580009460449,11.6583080291748,11.6586093902588,11.6589155197144,11.6592168807983,11.6595211029053,11.6598253250122,11.6601305007935,11.6604318618774,11.6607389450073,11.661039352417,11.6613464355469,11.6616516113281,11.6619558334351,11.6622581481934,11.662561416626,11.6628684997559,11.6631717681885,11.6634759902954,11.663779258728,11.664083480835,11.6643886566162,11.6646938323975,11.6649990081787,11.665301322937,11.6656064987183,11.6659097671509,11.6662168502808,11.6665191650391,11.6668243408203,11.6671276092529,11.6674318313599,11.6677370071411,11.6680421829224,11.6683444976807,11.6686515808105,11.6689567565918,11.6692609786987,11.6695652008057,11.669867515564,11.6701736450195,11.6704769134521,11.670783996582,11.6710863113403,11.6713914871216,11.6716966629028,11.6720018386841,11.6723051071167,11.6726121902466,11.6729164123535,11.6732187271118,11.6735248565674,11.6738290786743,11.6741371154785,11.6744384765625,11.6705102920532,11.6593370437622,11.6481866836548,11.637056350708,11.6259479522705,11.614860534668,11.6037940979004,11.5927486419678,11.5817241668701,11.5707206726074,11.559739112854,11.5487766265869,11.5378360748291,11.5269165039062,11.516016960144,11.5051374435425,11.4942798614502,11.4834413528442,11.4726238250732,11.4618272781372,11.4510498046875,11.4402933120728,11.429557800293,11.4188413619995,11.4081449508667,11.3974685668945,11.3868131637573,11.3761768341064,11.3655605316162,11.3549633026123,11.3443870544434,11.3338298797607,11.3232917785645,11.3057727813721,11.2876453399658,11.2695751190186,11.2515630722046,11.2336082458496,11.2157115936279,11.1978712081909,11.1800870895386,11.1623601913452,11.1446886062622,11.1270732879639,11.1095132827759,11.0920095443726,11.0745601654053,11.057165145874,11.0398254394531,11.0225400924683,11.0053081512451,10.988130569458,10.9710063934326,10.9539346694946,10.9369173049927,10.9199523925781,10.9030389785767,10.8861789703369,10.8693714141846,10.852614402771,10.8359098434448,10.8192558288574,10.8026542663574,10.7865200042725,10.7734069824219,10.760326385498,10.7472772598267,10.7342596054077,10.7212734222412,10.7083177566528,10.6953945159912,10.6825017929077,10.6696405410767,10.656810760498,10.6440105438232,10.6312417984009,10.6185035705566,10.6057958602905,10.5931186676025,10.5804719924927,10.5678548812866,10.5552673339844,10.5427103042603,10.5301837921143,10.5176858901978,10.5052185058594,10.4927797317505,10.4803714752197,10.4679918289185,10.455641746521,10.443320274353,10.4310283660889,10.4187650680542,10.406530380249,10.3943243026733,10.3821477890015,10.3699989318848,10.3578786849976,10.3457860946655,10.3337230682373,10.3216867446899,10.3096790313721,10.2976999282837,10.2857475280762,10.2738237380981,10.261926651001,10.250057220459,10.2382154464722,10.2264013290405,10.2146148681641,10.2028541564941,10.1911211013794,10.1794157028198,10.1677360534668,10.1560840606689,10.144458770752,10.1328592300415,10.1212863922119,10.1097402572632,10.0982208251953,10.086727142334,10.0752592086792,10.0638179779053,10.0524024963379,10.0410127639771,10.0296487808228,10.018310546875,10.0069980621338,9.99571132659912,9.98444938659668,9.97321319580078,9.96200180053711,9.95081615447998,9.93965530395508,9.92852020263672,9.91740894317627,9.90632343292236,9.89526176452637,9.8842248916626,9.87321376800537,9.86222553253174,9.85126304626465,9.84032440185547,9.8294095993042,9.81851959228516,9.80765342712402,9.7968111038208,9.7859935760498,9.7751989364624,9.76442813873291,9.75368118286133,9.74295902252197,9.73225879669189,9.72158241271973,9.71092987060547,9.7003002166748,9.68969440460205,9.67911148071289,9.66855144500732,9.65801429748535,9.64750099182129,9.6370096206665,9.62654113769531,9.61609554290771,9.60567283630371,9.59527206420898,9.58489513397217,9.57453918457031,9.56420612335205,9.55389499664307,9.54360675811768,9.53334045410156,9.52309608459473,9.51287364959717,9.50267314910889,9.49249458312988,9.48564338684082,9.47881317138672,9.46828746795654,9.45823860168457,9.44821166992188,9.43820476531982,9.42821979522705,9.41825580596924,9.40831279754639,9.3983907699585,9.38848972320557,9.3786096572876,9.36874961853027,9.35891151428223,9.34909343719482,9.33929538726807,9.32951831817627,9.31976222991943,9.31002521514893,9.3003101348877,9.29061412811279,9.28093910217285,9.27128314971924,9.26164817810059,9.25203323364258,9.2424373626709,9.23286247253418,9.22330665588379,9.21377086639404,9.20425415039062,9.19475841522217,9.18528079986572,9.17582416534424,9.16638565063477,9.15696716308594,9.14756774902344,9.13818836212158,9.12882709503174,9.11948585510254,9.11016368865967,9.10085964202881,9.09157562255859,9.08230972290039,9.07306289672852,9.06383514404297,9.05462646484375,9.04543590545654,9.03626441955566,9.0271110534668,9.01797580718994,9.00885963439941,8.99976253509521,8.99068260192871,8.98162174224854,8.97257900238037,8.96355438232422,8.95454788208008,8.94555950164795,8.93658828735352,8.92763614654541,8.91870212554932,8.90978527069092,8.90088653564453,8.89200496673584,8.88314151763916,8.87429618835449,8.86546802520752,8.85665702819824,8.84786415100098,8.83908843994141,8.83032989501953,8.82158946990967,8.81286525726318
11.5700550079346,11.5703535079956,11.5706520080566,11.5709533691406,11.5712537765503,11.571551322937,11.5718507766724,11.5721502304077,11.5724515914917,11.5727481842041,11.5730504989624,11.5733470916748,11.5736503601074,11.5739479064941,11.5742483139038,11.5745487213135,11.5748462677002,11.5751485824585,11.5754470825195,11.5757484436035,11.5760450363159,11.5763463973999,11.5766458511353,11.5769462585449,11.577244758606,11.5775451660156,11.5778436660767,11.578145980835,11.5784454345703,11.578742980957,11.5790452957153,11.5793437957764,11.5796451568604,11.5799446105957,11.5802440643311,11.5805425643921,11.5808429718018,11.5811433792114,11.5814437866211,11.5817461013794,11.5820436477661,11.5823431015015,11.5826425552368,11.5829448699951,11.5832443237305,11.5835447311401,11.5838432312012,11.5841426849365,11.5844449996948,11.5847454071045,11.5850439071655,11.5853462219238,11.5856456756592,11.5859460830688,11.5862464904785,11.5865449905396,11.5868473052979,11.5871448516846,11.5874471664429,11.5877475738525,11.5880489349365,11.5883464813232,11.5886478424072,11.5889492034912,11.5892496109009,11.5895500183105,11.5898485183716,11.5901508331299,11.5904521942139,11.5907535552979,11.5910520553589,11.5913534164429,11.5916519165039,11.5919551849365,11.5922527313232,11.5925550460815,11.5928554534912,11.5931549072266,11.5934572219849,11.5937576293945,11.5940589904785,11.5943584442139,11.5946588516235,11.5949602127075,11.5952625274658,11.5955610275269,11.5958614349365,11.5961599349976,11.5964651107788,11.5967664718628,11.5970659255981,11.5973663330078,11.5976667404175,11.5979671478271,11.5982694625854,11.5985689163208,11.5988693237305,11.5991706848145,11.5994701385498,11.5997753143311,11.6000757217407,11.6003761291504,11.6006755828857,11.6009750366211,11.601279258728,11.6015777587891,11.6018810272217,11.6021795272827,11.6024827957153,11.6027822494507,11.603084564209,11.600679397583,11.5896396636963,11.5786209106445,11.5676240921021,11.5566473007202,11.5456914901733,11.5347566604614,11.5238418579102,11.5129489898682,11.5020751953125,11.4912233352661,11.4803905487061,11.469578742981,11.4587879180908,11.4480171203613,11.4372663497925,11.4265356063843,11.4158248901367,11.4051342010498,11.3944635391235,11.3838129043579,11.3731822967529,11.3625717163086,11.3519811630249,11.3414096832275,11.3308582305908,11.3203258514404,11.3069829940796,11.2888507843018,11.2707777023315,11.2527618408203,11.2348031997681,11.2169017791748,11.1990585327148,11.1812705993652,11.1635398864746,11.1458644866943,11.1282453536987,11.1106824874878,11.0931739807129,11.0757207870483,11.0583229064941,11.040979385376,11.0236902236938,11.0064544677734,10.9892730712891,10.9721460342407,10.9550714492798,10.9380493164062,10.9210805892944,10.9041652679443,10.8873014450073,10.8704891204834,10.8537292480469,10.8370218276978,10.8203639984131,10.8037586212158,10.7872037887573,10.7706995010376,10.7542457580566,10.7397489547729,10.726749420166,10.7137813568115,10.7008447647095,10.6879396438599,10.6750650405884,10.6622219085693,10.6494092941284,10.6366271972656,10.623875617981,10.6111555099487,10.5984649658203,10.58580493927,10.5731754302979,10.5605754852295,10.5480060577393,10.5354661941528,10.5229568481445,10.5104761123657,10.498025894165,10.4856042861938,10.4732122421265,10.4608497619629,10.4485168457031,10.4362125396729,10.4239368438721,10.4116897583008,10.3994722366333,10.3872833251953,10.3751220703125,10.3629903793335,10.3508863449097,10.3388109207153,10.3267631530762,10.3147430419922,10.3027515411377,10.2907886505127,10.2788524627686,10.2669439315796,10.2550630569458,10.2432098388672,10.2313842773438,10.2195854187012,10.2078142166138,10.1960697174072,10.1843519210815,10.172661781311,10.1609983444214,10.1493616104126,10.1377515792847,10.1261672973633,10.1146097183228,10.1030788421631,10.0915746688843,10.080096244812,10.0686435699463,10.0572166442871,10.0458164215088,10.0344409942627,10.0230922698975,10.0117692947388,10.0004711151123,9.98919868469238,9.977952003479,9.96673011779785,9.95553398132324,9.94436264038086,9.9332160949707,9.92209529876709,9.91099834442139,9.89992713928223,9.88887977600098,9.87785816192627,9.86685943603516,9.85588645935059,9.84493732452393,9.83401298522949,9.82311248779297,9.81223678588867,9.80138397216797,9.79055595397949,9.77975177764893,9.76897144317627,9.75821399688721,9.74748134613037,9.73677158355713,9.7260856628418,9.71542263031006,9.70478343963623,9.69416809082031,9.68357467651367,9.67300510406494,9.6624584197998,9.65193557739258,9.64143466949463,9.63095664978027,9.62050151824951,9.61006832122803,9.59965896606445,9.58927154541016,9.57890605926514,9.56856441497803,9.55824375152588,9.54794597625732,9.53767013549805,9.52741622924805,9.51718521118164,9.5069751739502,9.49678707122803,9.48662090301514,9.47952365875244,9.47537803649902,9.46139526367188,9.45748519897461,9.45357894897461,9.44076442718506,9.43048572540283,9.42051601409912,9.41056823730469,9.40064239501953,9.3907356262207,9.38085079193115,9.37098693847656,9.36114311218262,9.35132026672363,9.34151840209961,9.33173656463623,9.32197570800781,9.31223487854004,9.30251407623291,9.29281425476074,9.2831335067749,9.27347373962402,9.26383399963379,9.2542142868042,9.24461460113525,9.23503494262695,9.22547435760498,9.21593379974365,9.20641326904297,9.19691276550293,9.18743133544922,9.17796897888184,9.1685266494751,9.159104347229,9.14970016479492,9.14031600952148,9.13095092773438,9.12160491943359,9.11227798461914,9.10297107696533,9.09368228912354,9.08441257476807,9.07516098022461,9.0659294128418,9.056715965271,9.04752063751221,9.03834533691406,9.02918720245361,9.02004909515381,9.0109281539917,9.00182628631592,8.99274253845215,8.98367786407471,8.97463035583496,8.96560192108154,8.95659065246582,8.94759845733643,8.93862438201904,8.92966747283936,8.92072868347168,8.91180801391602,8.90290546417236,8.89402008056641,8.88515281677246,8.87630271911621,8.86747074127197,8.85865592956543,8.8498592376709,8.84107971191406,8.83231735229492,8.82357215881348,8.81484508514404,8.80613422393799,8.79744148254395,8.78876495361328,8.78010654449463
11.4993762969971,11.4996709823608,11.4999647140503,11.5002613067627,11.5005569458008,11.5008544921875,11.501148223877,11.5014448165894,11.5017385482788,11.5020360946655,11.5023326873779,11.5026302337646,11.5029230117798,11.5032205581665,11.5035171508789,11.5038118362427,11.5041084289551,11.5044050216675,11.5047016143799,11.5049953460693,11.5052938461304,11.5055866241455,11.5058851242065,11.5061798095703,11.506477355957,11.5067758560181,11.5070695877075,11.5073671340942,11.507661819458,11.5079574584961,11.5082550048828,11.5085506439209,11.5088472366333,11.5091428756714,11.5094385147095,11.5097360610962,11.5100317001343,11.5103282928467,11.5106258392334,11.5109205245972,11.5112199783325,11.511513710022,11.511812210083,11.5121068954468,11.5124025344849,11.5126991271973,11.512996673584,11.5132904052734,11.5135898590088,11.5138845443726,11.5141820907593,11.514479637146,11.5147762298584,11.5150728225708,11.5153665542603,11.515664100647,11.5159616470337,11.5162582397461,11.5165538787842,11.5168514251709,11.5171451568604,11.5174446105957,11.5177421569824,11.5180368423462,11.5183343887329,11.518630027771,11.5189294815063,11.5192241668701,11.5195226669312,11.5198173522949,11.520115852356,11.520411491394,11.5207080841064,11.5210046768188,11.5213022232056,11.5216016769409,11.521897315979,11.52219581604,11.5224905014038,11.5227870941162,11.5230827331543,11.523383140564,11.5236778259277,11.5239753723145,11.5242729187012,11.5245704650879,11.5248689651489,11.5251636505127,11.5254621505737,11.5257568359375,11.5260553359985,11.5263528823853,11.5266494750977,11.5269470214844,11.5272436141968,11.5275411605835,11.5278396606445,11.5281352996826,11.5284328460693,11.5287322998047,11.5290269851685,11.5293264389038,11.5296220779419,11.5299215316772,11.5302152633667,11.5305137634277,11.5308103561401,11.5311088562012,11.5314064025879,11.5317039489746,11.5319995880127,11.5322971343994,11.5325984954834,11.5316781997681,11.520770072937,11.5098819732666,11.4990148544312,11.4881677627563,11.4773416519165,11.4665355682373,11.4557504653931,11.4449844360352,11.4342393875122,11.4235143661499,11.4128093719482,11.4021253585815,11.3914604187012,11.3808155059814,11.3701906204224,11.3595848083496,11.3489990234375,11.338433265686,11.3278875350952,11.3173608779907,11.3068542480469,11.2900581359863,11.2719802856445,11.253960609436,11.2359981536865,11.2180938720703,11.2002458572388,11.1824541091919,11.164719581604,11.1470403671265,11.1294183731079,11.1118507385254,11.0943393707275,11.0768823623657,11.0594806671143,11.0421333312988,11.0248403549194,11.0076017379761,10.9904165267944,10.9732856750488,10.9562072753906,10.9391822814941,10.9222097396851,10.9052906036377,10.8884229660034,10.8716077804565,10.8548450469971,10.8381328582764,10.8214731216431,10.8048639297485,10.7883052825928,10.7717981338501,10.7553405761719,10.7389335632324,10.7225770950317,10.7063007354736,10.6933822631836,10.6804943084717,10.6676378250122,10.6548128128052,10.642017364502,10.6292533874512,10.6165199279785,10.603816986084,10.5911445617676,10.578501701355,10.5658893585205,10.5533075332642,10.5407552719116,10.5282325744629,10.515739440918,10.5032768249512,10.4908428192139,10.4784383773804,10.4660634994507,10.4537181854248,10.4414014816284,10.4291133880615,10.4168548583984,10.4046249389648,10.3924236297607,10.3802509307861,10.368106842041,10.3559904098511,10.3439035415649,10.3318433761597,10.3198127746582,10.3078088760376,10.2958335876465,10.2838859558105,10.2719659805298,10.2600736618042,10.2482089996338,10.2363719940186,10.2245616912842,10.2127780914307,10.2010231018066,10.1892938613892,10.1775922775269,10.1659173965454,10.1542692184448,10.1426477432251,10.1310529708862,10.1194839477539,10.1079425811768,10.0964260101318,10.0849370956421,10.0734729766846,10.0620355606079,10.0506238937378,10.0392389297485,10.0278787612915,10.016544342041,10.0052366256714,9.99395275115967,9.98269557952881,9.97146320343018,9.96025562286377,9.94907379150391,9.93791770935059,9.92678546905518,9.91567897796631,9.90459632873535,9.89353942871094,9.88250637054443,9.87149810791016,9.86051464080811,9.84955501556396,9.83862018585205,9.82771015167236,9.81682300567627,9.8059606552124,9.79512214660645,9.78430843353271,9.77351760864258,9.76275062561035,9.75200748443604,9.74128818511963,9.73059177398682,9.71992015838623,9.70927047729492,9.69864463806152,9.68804264068604,9.67746353149414,9.66690635681152,9.65637397766113,9.6458625793457,9.6353759765625,9.62491035461426,9.61446857452393,9.60404968261719,9.59365272521973,9.58327770233154,9.57292652130127,9.56259632110596,9.55228900909424,9.54200458526611,9.53174114227295,9.52150058746338,9.51128101348877,9.50108432769775,9.4909086227417,9.48075580596924,9.4720458984375,9.4679069519043,9.46377086639404,9.44855117797852,9.44014549255371,9.43625354766846,9.43236446380615,9.42773914337158,9.41463661193848,9.40289402008057,9.39298343658447,9.38309383392334,9.37322521209717,9.36337661743164,9.35354900360107,9.34374237060547,9.33395576477051,9.32419013977051,9.31444454193115,9.30471897125244,9.29501438140869,9.28532981872559,9.27566528320312,9.26602077484131,9.25639724731445,9.24679279327393,9.23720836639404,9.2276439666748,9.21809864044189,9.20857334136963,9.19906806945801,9.18958282470703,9.18011665344238,9.17066955566406,9.16124248504639,9.15183448791504,9.14244556427002,9.13307571411133,9.12372589111328,9.11439418792725,9.10508251190186,9.09578895568848,9.08651542663574,9.07726001739502,9.06802368164062,9.05880641937256,9.0496072769165,9.04042720794678,9.03126525878906,9.02212238311768,9.0129976272583,9.00389194488525,8.9948034286499,8.98573398590088,8.97668361663818,8.96765041351318,8.9586353302002,8.94963836669922,8.94066047668457,8.93169975280762,8.92275714874268,8.91383171081543,8.90492534637451,8.89603614807129,8.88716411590576,8.87831115722656,8.86947441101074,8.86065578460693,8.85185527801514,8.84307098388672,8.83430480957031,8.82555675506592,8.8168249130249,8.80811023712158,8.79941368103027,8.79073333740234,8.78207111358643,8.77342510223389,8.76479625701904,8.75618457794189,8.74759006500244
11.4295539855957,11.4298448562622,11.430139541626,11.4304294586182,11.4307231903076,11.4310140609741,11.4313068389893,11.4315977096558,11.4318923950195,11.4321823120117,11.4324760437012,11.432767868042,11.4330606460571,11.4333534240723,11.4336452484131,11.4339370727539,11.434229850769,11.4345245361328,11.4348154067993,11.4351081848145,11.4353981018066,11.4356927871704,11.4359827041626,11.4362783432007,11.4365720748901,11.4368629455566,11.4371566772461,11.437445640564,11.4377422332764,11.4380331039429,11.438325881958,11.4386167526245,11.438910484314,11.4392032623291,11.4394960403442,11.4397878646851,11.4400815963745,11.4403743743896,11.4406681060791,11.4409618377686,11.4412508010864,11.4415454864502,11.4418363571167,11.4421319961548,11.4424228668213,11.4427175521851,11.4430093765259,11.4433012008667,11.4435958862305,11.4438877105713,11.4441814422607,11.4444732666016,11.444766998291,11.4450597763062,11.4453535079956,11.4456443786621,11.4459390640259,11.4462299346924,11.4465246200562,11.4468173980713,11.4471111297607,11.4474058151245,11.447696685791,11.4479913711548,11.4482841491699,11.4485759735107,11.4488697052002,11.4491624832153,11.4494543075562,11.4497499465942,11.4500427246094,11.4503355026245,11.4506273269653,11.4509210586548,11.4512176513672,11.4515075683594,11.4518032073975,11.4520950317383,11.4523878097534,11.4526834487915,11.4529762268066,11.4532690048218,11.4535617828369,11.4538545608521,11.4541492462158,11.4544439315796,11.4547357559204,11.4550313949585,11.455322265625,11.4556188583374,11.4559097290039,11.4562034606934,11.4564971923828,11.4567899703979,11.4570846557617,11.4573774337769,11.4576711654663,11.4579658508301,11.4582605361938,11.4585523605347,11.4588479995728,11.4591398239136,11.4594354629517,11.4597244262695,11.4600219726562,11.4603147506714,11.4606084823608,11.4609022140503,11.4611959457397,11.4614915847778,11.4617824554443,11.4620780944824,11.4623699188232,11.4626655578613,11.4629592895508,11.4632539749146,11.4527139663696,11.4419546127319,11.4312152862549,11.4204959869385,11.4097967147827,11.3991174697876,11.3884582519531,11.3778190612793,11.3671989440918,11.3565998077393,11.346019744873,11.3354597091675,11.3249187469482,11.3143978118896,11.3038969039917,11.2912645339966,11.2731828689575,11.2551593780518,11.2371940612793,11.2192850112915,11.2014331817627,11.1836376190186,11.1658992767334,11.1482172012329,11.1305904388428,11.1130199432373,11.0955047607422,11.0780439376831,11.0606384277344,11.043288230896,11.0259914398193,11.0087490081787,10.9915599822998,10.9744253158569,10.9573440551758,10.940315246582,10.92333984375,10.9064168930054,10.8895454406738,10.872727394104,10.8559608459473,10.8392457962036,10.8225812911987,10.8059692382812,10.7894077301025,10.7728967666626,10.7564363479614,10.7400255203247,10.7236652374268,10.7073545455933,10.6910943984985,10.6748819351196,10.6602210998535,10.6474132537842,10.634635925293,10.6218900680542,10.6091737747192,10.5964889526367,10.583833694458,10.5712089538574,10.5586137771606,10.546049118042,10.5335140228271,10.5210084915161,10.5085325241089,10.4960870742798,10.4836702346802,10.4712829589844,10.4589242935181,10.4465961456299,10.4342956542969,10.4220247268677,10.409782409668,10.3975696563721,10.3853845596313,10.3732280731201,10.3611001968384,10.3490009307861,10.3369293212891,10.3248863220215,10.3128719329834,10.3008842468262,10.2889251708984,10.2769927978516,10.2650890350342,10.253212928772,10.2413635253906,10.2295427322388,10.2177476882935,10.2059803009033,10.1942405700684,10.1825275421143,10.170841217041,10.1591815948486,10.1475486755371,10.1359424591064,10.1243629455566,10.1128101348877,10.1012830734253,10.0897827148438,10.0783081054688,10.0668592453003,10.0554370880127,10.0440406799316,10.0326700210571,10.0213251113892,10.0100059509277,9.99871158599854,9.98744297027588,9.97620010375977,9.9649829864502,9.95378971099854,9.94262313842773,9.93148040771484,9.92036247253418,9.90927028656006,9.89820289611816,9.88715934753418,9.87614059448242,9.86514663696289,9.85417747497559,9.84323215484619,9.83231163024902,9.82141494750977,9.81054210662842,9.7996940612793,9.78886890411377,9.77806854248047,9.76729202270508,9.75653839111328,9.74580955505371,9.73510360717773,9.72442150115967,9.7137622833252,9.70312690734863,9.69251441955566,9.68192481994629,9.67135906219482,9.66081619262695,9.65029621124268,9.63979911804199,9.6293249130249,9.61887264251709,9.60844421386719,9.59803771972656,9.58765316009521,9.57729244232178,9.56695365905762,9.55663681030273,9.54634189605713,9.53606986999512,9.52581977844238,9.51559162139893,9.50538539886475,9.49520015716553,9.4850378036499,9.47489643096924,9.46477794647217,9.46044731140137,9.45631790161133,9.45219230651855,9.44059944152832,9.4228687286377,9.41899108886719,9.41511631011963,9.41124439239502,9.40737628936768,9.40168285369873,9.38865184783936,9.37565803527832,9.36561107635498,9.35577869415283,9.34596729278564,9.3361759185791,9.32640552520752,9.31665515899658,9.30692577362061,9.29721641540527,9.28752708435059,9.27785778045654,9.26820945739746,9.25858020782471,9.24897193908691,9.23938274383545,9.22981357574463,9.22026443481445,9.21073436737061,9.20122528076172,9.19173431396484,9.18226432800293,9.17281246185303,9.16338062286377,9.15396881103516,9.14457511901855,9.1352014541626,9.12584686279297,9.11651134490967,9.1071949005127,9.09789752960205,9.08861923217773,9.07936000823975,9.07011890411377,9.06089782714844,9.0516939163208,9.04251003265381,9.03334426879883,9.02419662475586,9.01506805419922,9.00595760345459,8.99686527252197,8.98779201507568,8.97873687744141,8.96969985961914,8.96068096160889,8.95168018341064,8.94269752502441,8.9337329864502,8.92478561401367,8.91585731506348,8.90694618225098,8.89805316925049,8.8891773223877,8.88031959533691,8.87147903442383,8.86265659332275,8.85385131835938,8.84506416320801,8.83629417419434,8.82754135131836,8.81880569458008,8.81008815765381,8.80138683319092,8.79270362854004,8.78403663635254,8.77538681030273,8.76675415039062,8.75813865661621,8.74954032897949,8.74095821380615,8.73239326477051,8.72384452819824,8.71531391143799
11.3605737686157,11.3608646392822,11.3611497879028,11.361439704895,11.3617267608643,11.3620185852051,11.3623046875,11.3625955581665,11.3628826141357,11.3631715774536,11.3634624481201,11.3637495040894,11.3640384674072,11.3643264770508,11.364616394043,11.3649053573608,11.365195274353,11.3654842376709,11.3657722473145,11.3660583496094,11.3663501739502,11.3666381835938,11.3669290542603,11.3672180175781,11.3675050735474,11.3677959442139,11.3680839538574,11.3683738708496,11.3686609268188,11.368950843811,11.3692407608032,11.3695297241211,11.369818687439,11.3701076507568,11.370397567749,11.3706846237183,11.3709774017334,11.3712644577026,11.3715534210205,11.3718423843384,11.3721323013306,11.3724203109741,11.3727102279663,11.3729991912842,11.3732900619507,11.3735771179199,11.3738679885864,11.3741588592529,11.3744478225708,11.374737739563,11.3750238418579,11.3753156661987,11.3756046295166,11.3758955001831,11.3761825561523,11.3764724731445,11.3767623901367,11.3770513534546,11.3773403167725,11.3776302337646,11.3779191970825,11.378210067749,11.3784999847412,11.3787879943848,11.3790788650513,11.3793659210205,11.3796586990356,11.3799457550049,11.3802366256714,11.3805255889893,11.3808155059814,11.3811082839966,11.3813953399658,11.3816862106323,11.3819742202759,11.3822641372681,11.3825550079346,11.3828439712524,11.3831338882446,11.3834238052368,11.3837127685547,11.3840026855469,11.3842935562134,11.3845834732056,11.3848743438721,11.3851623535156,11.3854513168335,11.3857421875,11.3860340118408,11.3863220214844,11.3866138458252,11.3869018554688,11.3871917724609,11.3874807357788,11.3877725601196,11.3880634307861,11.3883514404297,11.3886451721191,11.3889322280884,11.3892240524292,11.3895120620728,11.3898029327393,11.3900928497314,11.3903846740723,11.3906745910645,11.3909645080566,11.3912534713745,11.3915452957153,11.3918361663818,11.3921251296997,11.3924160003662,11.3927049636841,11.3929977416992,11.3932857513428,11.3935775756836,11.3938674926758,11.394157409668,11.3944473266602,11.3854579925537,11.3748235702515,11.3642101287842,11.3536157608032,11.3430414199829,11.3324871063232,11.3219518661499,11.3114366531372,11.3009405136108,11.2904644012451,11.2743864059448,11.2563591003418,11.2383890151978,11.2204761505127,11.2026214599609,11.1848220825195,11.1670799255371,11.1493940353394,11.131763458252,11.1141891479492,11.0966701507568,11.0792055130005,11.0617971420288,11.0444421768188,11.0271425247192,11.0098962783813,10.9927043914795,10.9755659103394,10.9584808349609,10.9414482116699,10.9244689941406,10.9075422286987,10.8906688690186,10.8738460540771,10.8570756912231,10.8403577804565,10.8236904144287,10.807074546814,10.790509223938,10.7739953994751,10.7575311660767,10.741117477417,10.7247543334961,10.7084407806396,10.6921758651733,10.6759614944458,10.6597948074341,10.6436786651611,10.627610206604,10.6145372390747,10.6018381118774,10.5891704559326,10.5765333175659,10.563925743103,10.5513477325439,10.538800239563,10.5262823104858,10.5137939453125,10.501335144043,10.4889068603516,10.4765071868896,10.4641361236572,10.4517955780029,10.4394836425781,10.4272003173828,10.414945602417,10.402720451355,10.3905229568481,10.3783550262451,10.3662157058716,10.3541040420532,10.3420209884644,10.3299655914307,10.3179388046265,10.3059396743774,10.2939691543579,10.2820253372192,10.2701101303101,10.2582216262817,10.2463607788086,10.2345275878906,10.2227220535278,10.2109432220459,10.1991920471191,10.1874675750732,10.1757698059082,10.164098739624,10.152455329895,10.1408376693726,10.129246711731,10.1176824569702,10.1061449050903,10.094633102417,10.0831470489502,10.0716876983643,10.0602540969849,10.0488471984863,10.03746509552,10.0261096954346,10.0147790908813,10.003475189209,9.99219608306885,9.98094177246094,9.96971416473389,9.95851039886475,9.94733238220215,9.93618011474609,9.92505168914795,9.91394901275635,9.90287017822266,9.89181709289551,9.88078784942627,9.86978340148926,9.85880374908447,9.84784889221191,9.83691692352295,9.82601070404053,9.8151273727417,9.8042688369751,9.79343414306641,9.78262424468994,9.77183723449707,9.76107406616211,9.75033473968506,9.7396183013916,9.72892665863037,9.71825790405273,9.70761203765869,9.69699001312256,9.68639087677002,9.67581558227539,9.66526222229004,9.6547327041626,9.64422607421875,9.6337423324585,9.62328052520752,9.61284255981445,9.60242652893066,9.59203338623047,9.58166217803955,9.57131385803223,9.56098747253418,9.55068397521973,9.54040241241455,9.53014278411865,9.51990509033203,9.50968933105469,9.49949550628662,9.48932456970215,9.47917366027832,9.46904563903809,9.45893859863281,9.45299911499023,9.44887733459473,9.44475746154785,9.44064235687256,9.43266105651855,9.4117488861084,9.4017915725708,9.39793109893799,9.39407348632812,9.39021873474121,9.38636779785156,9.38251972198486,9.37576961517334,9.36281108856201,9.34988784790039,9.33839797973633,9.32862281799316,9.31886768341064,9.30913352966309,9.29941940307617,9.2897253036499,9.28005218505859,9.27039813995361,9.26076507568359,9.25115203857422,9.24155807495117,9.23198413848877,9.22243118286133,9.2128963470459,9.20338249206543,9.19388771057129,9.18441295623779,9.17495727539062,9.16552066802979,9.15610408782959,9.14670658111572,9.13732814788818,9.12796974182129,9.11862945556641,9.10930919647217,9.10000705718994,9.09072494506836,9.08146095275879,9.07221603393555,9.06298923492432,9.05378246307373,9.04459381103516,9.03542327880859,9.02627182006836,9.01713943481445,9.00802421569824,8.99892807006836,8.9898509979248,8.98079109191895,8.97175025939941,8.96272659301758,8.95372200012207,8.94473552703857,8.93576622009277,8.9268159866333,8.91788291931152,8.90896797180176,8.90007019042969,8.89119148254395,8.88232898712158,8.87348556518555,8.86465835571289,8.85584926605225,8.84705829620361,8.83828449249268,8.82952690124512,8.82078742980957,8.81206607818604,8.80336093902588,8.79467391967773,8.78600311279297,8.7773494720459,8.76871299743652,8.76009368896484,8.75149154663086,8.74290561676025,8.73433685302734,8.72578430175781,8.71724891662598,8.70873069763184,8.70022869110107,8.69174289703369,8.683274269104
