15.1786708831787,15.1790332794189,15.1793937683105,15.1797533035278,15.1801128387451,15.1804695129395,15.180832862854,15.1811904907227,15.1815509796143,15.1819114685059,15.1822690963745,15.1826295852661,15.1829872131348,15.1833486557007,15.1837062835693,15.1840677261353,15.1844263076782,15.1847877502441,15.1851463317871,15.1855087280273,15.1858673095703,15.1862258911133,15.1865882873535,15.1869478225708,15.1873073577881,15.1876697540283,15.1880264282227,15.1883888244629,15.1887493133545,15.1891088485718,15.1894693374634,15.1898288726807,15.1901865005493,15.1905498504639,15.1909074783325,15.1912717819214,15.19162940979,15.191990852356,15.1923522949219,15.1927099227905,15.1930685043335,15.1934299468994,15.1937913894653,15.1941499710083,15.1945123672485,15.1948709487915,15.1952333450317,15.1955900192261,15.1959524154663,15.1963119506836,15.1966743469238,15.1970338821411,15.1973943710327,15.19775390625,15.1981172561646,15.1984748840332,15.1988344192505,15.1991987228394,15.199559211731,15.1999197006226,15.2002811431885,15.2006387710571,15.201003074646,15.201361656189,15.2017230987549,15.2020807266235,15.2024431228638,15.2028045654297,15.2031631469727,15.2035226821899,15.2038850784302,15.2042474746704,15.2046031951904,15.2049694061279,15.2053289413452,15.2056913375854,15.2060518264771,15.2064113616943,15.2067718505859,15.2071352005005,15.2074928283691,15.2078561782837,15.2082166671753,15.2085771560669,15.2089385986328,15.2092990875244,15.2096605300903,15.2100219726562,15.2103805541992,15.2107448577881,15.2111034393311,15.2114686965942,15.2118272781372,15.2121896743774,15.2125520706177,15.2129144668579,15.2132701873779,15.2136335372925,15.2139930725098,15.21435546875,15.2147188186646,15.2150754928589,15.2154417037964,15.215799331665,15.2161626815796,15.2165231704712,15.2168865203857,15.2172479629517,13.5362129211426,13.5206823348999,13.5051870346069,13.489727973938,13.4743032455444,13.4589147567749,13.4435606002808,13.4282417297363,13.4129581451416,13.3977088928223,13.3824939727783,13.3673133850098,13.3521680831909,13.3370571136475,13.3219795227051,13.3069362640381,13.2919273376465,13.276951789856,13.2620096206665,13.2471017837524,13.221794128418,13.1938695907593,13.1660633087158,13.1383743286133,13.110800743103,13.0833425521851,13.0559997558594,13.0287704467773,13.001654624939,12.9746513366699,12.9477605819702,12.9209804534912,12.8943109512329,12.8677520751953,12.8413009643555,12.814959526062,12.7887258529663,12.762598991394,12.7365789413452,12.7106637954712,12.6848554611206,12.6591501235962,12.6335496902466,12.6080532073975,12.5826587677002,12.5573654174805,12.5321750640869,12.5070848464966,12.4820947647095,12.4572048187256,12.4324140548706,12.4077215194702,12.3831262588501,12.3586292266846,12.334228515625,12.3099241256714,12.2857151031494,12.2616014480591,12.2375822067261,12.2132863998413,12.1888904571533,12.1645917892456,12.1403894424438,12.116283416748,12.0922737121582,12.0683574676514,12.0445365905762,12.0208101272583,11.9971761703491,11.9736347198486,11.9501857757568,11.9268283843994,11.9035625457764,11.8803873062134,11.8573017120361,11.8343057632446,11.8113985061646,11.7896423339844,11.7702512741089,11.7509231567383,11.7316589355469,11.7124576568604,11.6933183670044,11.6742429733276,11.6552286148071,11.6362762451172,11.6173858642578,11.5985565185547,11.5797872543335,11.5610799789429,11.5424318313599,11.5238447189331,11.505316734314,11.4868488311768,11.4684400558472,11.4500894546509,11.4317979812622,11.4135646820068,11.3953895568848,11.377272605896,11.3592128753662,11.3412103652954,11.3232650756836,11.3053760528564,11.287543296814,11.2697668075562,11.252046585083,11.2343816757202,11.2167730331421,11.19921875,11.1817188262939,11.1642742156982,11.1468839645386,11.1295480728149,11.1122646331787,11.0950365066528,11.0778608322144,11.0607385635376,11.0436687469482,11.0266513824463,11.000376701355,10.9731693267822,10.9460964202881,10.9191570281982,10.8923501968384,10.8656740188599,10.8391284942627,10.8127126693726,10.7864246368408,10.7602643966675,10.7342309951782,10.7083225250244,10.6825389862061,10.6568794250488,10.6313438415527,10.6059293746948,10.5806360244751,10.5554637908936,10.5304098129272,10.5054759979248,10.480658531189,10.4559593200684,10.4296607971191,10.4005823135376,10.3716640472412,10.3429069519043,10.3143081665039,10.28586769104,10.2575836181641,10.2294549942017,10.2014799118042,10.1736574172974,10.1459856033325,10.1184644699097,10.0910921096802,10.0638675689697,10.036789894104,10.0098562240601,9.98306846618652,9.95642280578613,9.92991924285889,9.90355587005615,9.87733268737793,9.85124778747559,9.8253002166748,9.79948902130127,9.77381324768066,9.74827194213867,9.7367115020752,9.72563171386719,9.71457767486572,9.70354747772217,9.69254302978516,9.68156337738037,9.67060852050781,9.65967845916748,9.64877319335938,9.63789176940918,9.62703609466553,9.61620426177979,9.60539627075195,9.59461307525635,9.58385372161865,9.57311916351318,9.56240844726562,9.55172157287598,9.54105854034424,9.53041839599609,9.51980304718018,9.50921058654785,9.49864292144775,9.48809719085693,9.47757625579834,9.46707725524902,9.45660209655762,9.44615077972412,9.4357213973999,9.42531585693359,9.41493320465088,9.40457248687744,9.39423561096191,9.38392066955566,9.37362861633301,9.36335945129395,9.35311222076416,9.34288787841797,9.33268547058105,9.32250595092773,9.31234836578369,9.30221176147461,9.29209899902344,9.28200721740723,9.27193737030029,9.26188945770264,9.25186347961426,9.24185848236084,9.2318754196167,9.22191429138184,9.21197414398193,9.20205593109131,9.19215869903564,9.18228340148926,9.17242813110352,9.16259479522705,9.15278244018555,9.142991065979,9.13322067260742,9.12347030639648,9.11374187469482,9.10403347015381,9.09434604644775,9.08467864990234,9.07503318786621,9.06540679931641,9.05580139160156,9.04621601104736,9.03665161132812,9.02710628509521,9.01758193969727,9.00807762145996,8.9985933303833,8.98912811279297
15.0575704574585,15.0579204559326,15.058277130127,15.0586309432983,15.0589876174927,15.0593376159668,15.0596952438354,15.0600490570068,15.0604028701782,15.0607538223267,15.0611114501953,15.0614624023438,15.0618209838867,15.0621719360352,15.0625267028809,15.0628786087036,15.0632343292236,15.0635862350464,15.0639448165894,15.0642967224121,15.0646524429321,15.0650053024292,15.0653581619263,15.0657138824463,15.0660638809204,15.0664205551147,15.0667734146118,15.0671300888062,15.0674839019775,15.0678405761719,15.068190574646,15.0685482025146,15.068902015686,15.0692558288574,15.0696105957031,15.0699653625488,15.0703191757202,15.0706739425659,15.0710258483887,15.0713844299316,15.0717363357544,15.0720911026001,15.0724468231201,15.0728015899658,15.0731573104858,15.0735130310059,15.0738658905029,15.0742216110229,15.07457447052,15.0749282836914,15.0752840042114,15.0756406784058,15.0759944915771,15.0763444900513,15.0767011642456,15.077054977417,15.0774126052856,15.077766418457,15.0781240463257,15.0784749984741,15.0788326263428,15.0791845321655,15.0795421600342,15.0798969268799,15.0802526473999,15.0806045532227,15.0809621810913,15.0813150405884,15.0816736221313,15.0820264816284,15.0823822021484,15.0827350616455,15.0830936431885,15.0834436416626,15.0838031768799,15.084156036377,15.0845098495483,15.0848665237427,15.085223197937,15.0855770111084,15.0859308242798,15.0862884521484,15.0866422653198,15.0869970321655,15.0873517990112,15.0877094268799,15.0880641937256,15.0884218215942,15.088773727417,15.0891284942627,15.0894842147827,15.0898427963257,15.0901947021484,15.0905532836914,15.0909061431885,15.0912647247314,15.0916175842285,15.0919742584229,15.0923299789429,15.0926866531372,15.0930366516113,15.0933971405029,15.09375,15.0941076278687,13.5142602920532,13.4987802505493,13.4833354949951,13.4679260253906,13.4525508880615,13.4372119903564,13.4219074249268,13.4066381454468,13.3914031982422,13.376202583313,13.3610372543335,13.3459053039551,13.3308076858521,13.3157453536987,13.3007154464722,13.2857208251953,13.2707595825195,13.2558317184448,13.2409372329712,13.2260761260986,13.2112483978271,13.1964540481567,13.1816930770874,13.1669645309448,13.1522693634033,13.1255531311035,13.0980339050293,13.070629119873,13.0433387756348,13.0161628723145,12.9890995025635,12.9621486663818,12.9353094100952,12.9085807800293,12.8819627761841,12.8554534912109,12.8290538787842,12.8027620315552,12.7765779495239,12.7505006790161,12.7245302200317,12.6986646652222,12.6729040145874,12.6472482681274,12.6216955184937,12.596245765686,12.5708990097046,12.5456533432007,12.5205097198486,12.4954662322998,12.4705228805542,12.4456787109375,12.4209337234497,12.3962869644165,12.3717374801636,12.3472852706909,12.3229293823242,12.2986688613892,12.2745037078857,12.250433921814,12.2264585494995,12.2025766372681,12.1784687042236,12.1542119979858,12.1300506591797,12.1059856414795,12.0820159912109,12.058141708374,12.0343608856201,12.0106735229492,11.9870796203613,11.9635772705078,11.9401683807373,11.9168500900269,11.8936223983765,11.8704862594604,11.8474388122559,11.824481010437,11.8016128540039,11.7790393829346,11.7596826553345,11.7403898239136,11.7211599349976,11.7019929885864,11.6828880310059,11.6638460159302,11.6448659896851,11.6259469985962,11.6070899963379,11.5882940292358,11.5695581436157,11.5508832931519,11.5322685241699,11.5137138366699,11.4952182769775,11.4767827987671,11.4584064483643,11.4400882720947,11.4218282699585,11.4036273956299,11.3854837417603,11.3673973083496,11.3493690490723,11.3313980102539,11.3134832382202,11.2956256866455,11.2778234481812,11.2600784301758,11.2423877716064,11.2247533798218,11.2071743011475,11.1896505355835,11.1721811294556,11.1547660827637,11.1374044418335,11.1200981140137,11.1028451919556,11.0856456756592,11.0684986114502,11.0514049530029,11.0343637466431,11.0173759460449,11.0004396438599,10.9835557937622,10.9608860015869,10.9338731765747,10.9069938659668,10.8802471160889,10.8536291122437,10.8271427154541,10.8007850646973,10.7745552062988,10.7484521865845,10.7224760055542,10.6966238021851,10.6708974838257,10.6452941894531,10.6198129653931,10.5944538116455,10.5692148208618,10.5440969467163,10.519097328186,10.494215965271,10.4694528579712,10.4448051452637,10.4202737808228,10.3928813934326,10.3640069961548,10.3352918624878,10.3067350387573,10.2783365249634,10.2500944137573,10.2220058441162,10.1940717697144,10.1662893295288,10.1386575698853,10.1111764907837,10.0838432312012,10.0566577911377,10.0296192169189,10.002724647522,9.97597408294678,9.94936561584473,9.92290019989014,9.89657402038574,9.87038707733154,9.84433937072754,9.81842803955078,9.79265308380127,9.76701354980469,9.74150657653809,9.72939777374268,9.71833419799805,9.70729637145996,9.6962833404541,9.68529510498047,9.67433166503906,9.66339302062988,9.65247917175293,9.6415901184082,9.63072490692139,9.61988544464111,9.60906982421875,9.5982780456543,9.58751106262207,9.57676696777344,9.56604862213135,9.55535316467285,9.54468154907227,9.53403472900391,9.52341079711914,9.51281070709229,9.50223445892334,9.49168109893799,9.48115158081055,9.4706449508667,9.46016216278076,9.44970226287842,9.43926620483398,9.42885208129883,9.41846179962158,9.40809345245361,9.39774894714355,9.38742637634277,9.37712669372559,9.36684989929199,9.35659503936768,9.34636306762695,9.33615303039551,9.32596588134766,9.31579971313477,9.30565643310547,9.29553604125977,9.28543663024902,9.27535915374756,9.26530456542969,9.25527095794678,9.24525833129883,9.23526859283447,9.22529983520508,9.21535301208496,9.2054271697998,9.19552230834961,9.18563938140869,9.17577743530273,9.16593647003174,9.15611743927002,9.14631843566895,9.13654041290283,9.126784324646,9.1170482635498,9.10733318328857,9.09763813018799,9.08796405792236,9.0783109664917,9.06867790222168,9.05906581878662,9.04947376251221,9.03990173339844,9.03035068511963,9.02081871032715,9.01130771636963,9.00181674957275,8.99234485626221,8.98289394378662,8.97346210479736
14.9383859634399,14.9387331008911,14.9390773773193,14.9394311904907,14.9397754669189,14.9401264190674,14.9404745101929,14.9408197402954,14.9411706924438,14.9415159225464,14.9418678283691,14.9422159194946,14.9425649642944,14.9429130554199,14.9432621002197,14.9436082839966,14.9439601898193,14.9443063735962,14.9446563720703,14.9450025558472,14.945351600647,14.9457015991211,14.9460515975952,14.9463987350464,14.9467487335205,14.9470958709717,14.9474430084229,14.9477939605713,14.9481439590454,14.9484920501709,14.9488401412964,14.9491872787476,14.9495391845703,14.9498872756958,14.9502353668213,14.9505834579468,14.9509286880493,14.9512805938721,14.9516296386719,14.9519786834717,14.9523277282715,14.9526767730713,14.9530229568481,14.9533748626709,14.9537220001221,14.9540710449219,14.954421043396,14.9547710418701,14.9551210403442,14.9554710388184,14.9558153152466,14.956169128418,14.9565162658691,14.9568634033203,14.9572143554688,14.9575653076172,14.9579133987427,14.9582643508911,14.9586095809937,14.9589614868164,14.9593095779419,14.9596576690674,14.9600086212158,14.9603576660156,14.9607076644897,14.9610548019409,14.9614057540894,14.9617538452148,14.9621028900146,14.9624509811401,14.9628038406372,14.9631509780884,14.9635038375854,14.9638509750366,14.9642009735107,14.9645509719849,14.9649000167847,14.9652471542358,14.9656000137329,14.9659471511841,14.9663000106812,14.9666481018066,14.9669971466064,14.9673471450806,14.9676971435547,14.9680461883545,14.9683971405029,14.9687442779541,14.9690980911255,14.9694452285767,14.9697942733765,14.9701452255249,14.9704933166504,14.9708442687988,14.9711942672729,14.9715452194214,14.9718952178955,14.972243309021,14.9725904464722,14.9729452133179,13.4923791885376,13.4769487380981,13.4615535736084,13.4461936950684,13.430869102478,13.4155788421631,13.4003238677979,13.385103225708,13.3699178695679,13.3547658920288,13.3396482467651,13.3245658874512,13.309515953064,13.2945013046265,13.27952003479,13.2645721435547,13.2496585845947,13.2347784042358,13.219931602478,13.205117225647,13.1903371810913,13.1755895614624,13.1608743667603,13.1461925506592,13.1315441131592,13.1169271469116,13.1023435592651,13.0877923965454,13.0732727050781,13.0579404830933,13.0307035446167,13.0035800933838,12.9765691757202,12.9496698379517,12.9228820800781,12.8962049484253,12.8696374893188,12.8431797027588,12.8168296813965,12.7905883789062,12.7644538879395,12.7384262084961,12.7125043869019,12.6866874694824,12.6609754562378,12.6353673934937,12.60986328125,12.5844612121582,12.5591621398926,12.5339641571045,12.5088663101196,12.4838695526123,12.4589719772339,12.4341745376587,12.4094743728638,12.3848733901978,12.3603687286377,12.3359613418579,12.3116502761841,12.2874345779419,12.263313293457,12.2392873764038,12.2153549194336,12.1915168762207,12.1677703857422,12.1438493728638,12.1197290420532,12.0957050323486,12.0717763900757,12.0479421615601,12.0242013931274,12.0005540847778,11.9769992828369,11.953537940979,11.9301671981812,11.9068880081177,11.8836994171143,11.8606014251709,11.8375930786133,11.8146734237671,11.7918424606323,11.7690992355347,11.7491331100464,11.7298746109009,11.7106790542603,11.6915464401245,11.6724758148193,11.6534671783447,11.634521484375,11.6156358718872,11.59681224823,11.578049659729,11.55934715271,11.5407047271729,11.522123336792,11.5036010742188,11.4851379394531,11.4667348861694,11.448390007019,11.4301042556763,11.4118757247925,11.3937063217163,11.3755941390991,11.3575401306152,11.339542388916,11.3216028213501,11.3037185668945,11.2858915328979,11.268120765686,11.2504053115845,11.2327461242676,11.2151412963867,11.1975927352905,11.1800985336304,11.1626586914062,11.1452732086182,11.1279420852661,11.1106643676758,11.0934410095215,11.0762701034546,11.0591526031494,11.0420875549316,11.0250759124756,11.0081157684326,10.9912080764771,10.9743518829346,10.9575481414795,10.9407949447632,10.9216775894165,10.8948583602905,10.8681697845459,10.8416118621826,10.8151836395264,10.7888841629028,10.7627115249634,10.7366666793823,10.7107467651367,10.6849517822266,10.6592807769775,10.6337327957153,10.6083068847656,10.5830030441284,10.5578184127808,10.5327548980713,10.5078086853027,10.4829807281494,10.458270072937,10.4336757659912,10.4091968536377,10.3848323822021,10.3563604354858,10.3276872634888,10.2991733551025,10.2708158493042,10.2426147460938,10.2145671844482,10.1866731643677,10.1589317321777,10.1313400268555,10.1038990020752,10.0766048431396,10.0494585037231,10.0224580764771,9.99560165405273,9.9688892364502,9.9423189163208,9.91589069366455,9.8896017074585,9.86345195770264,9.83744049072266,9.81156539916992,9.78582668304443,9.76022148132324,9.73475170135498,9.72209358215332,9.71104717254639,9.70002555847168,9.6890287399292,9.67805671691895,9.66711044311523,9.65618801116943,9.64529037475586,9.63441753387451,9.62356948852539,9.61274528503418,9.60194492340088,9.5911693572998,9.58041858673096,9.5696907043457,9.55898761749268,9.54830837249756,9.53765296936035,9.52702140808105,9.51641273498535,9.50582885742188,9.49526786804199,9.4847297668457,9.47421550750732,9.46372509002686,9.45325756072998,9.4428129196167,9.43239116668701,9.42199325561523,9.41161727905273,9.40126419067383,9.39093399047852,9.3806266784668,9.37034225463867,9.36007976531982,9.34984016418457,9.33962249755859,9.32942771911621,9.31925487518311,9.30910396575928,9.29897594451904,9.28886890411377,9.27878379821777,9.26872158050537,9.25868034362793,9.24866104125977,9.23866367340088,9.22868728637695,9.2187328338623,9.20880031585693,9.19888877868652,9.18899822235107,9.17912864685059,9.16928100585938,9.15945434570312,9.14964866638184,9.13986396789551,9.13010025024414,9.12035655975342,9.11063480377197,9.10093307495117,9.09125232696533,9.08159160614014,9.0719518661499,9.06233215332031,9.05273342132568,9.0431547164917,9.03359699249268,9.02405834197998,9.01453971862793,9.00504207611084,8.99556350708008,8.98610591888428,8.9766674041748,8.96724891662598,8.95785045623779
14.8210668563843,14.8214149475098,14.8217535018921,14.8220987319946,14.8224401473999,14.8227853775024,14.8231248855591,14.8234701156616,14.8238124847412,14.8241548538208,14.8244981765747,14.8248405456543,14.8251838684082,14.8255290985107,14.8258686065674,14.8262147903442,14.8265552520752,14.8269023895264,14.8272428512573,14.8275833129883,14.8279294967651,14.8282699584961,14.8286142349243,14.8289585113525,14.8293018341064,14.8296461105347,14.8299884796143,14.8303298950195,14.8306760787964,14.831018447876,14.8313608169556,14.8317060470581,14.832049369812,14.8323917388916,14.8327360153198,14.8330774307251,14.833423614502,14.8337650299072,14.8341083526611,14.8344507217407,14.8347940444946,14.8351392745972,14.8354845046997,14.8358240127563,14.8361701965332,14.8365135192871,14.836856842041,14.8372001647949,14.8375425338745,14.8378887176514,14.8382301330566,14.8385744094849,14.8389177322388,14.8392629623413,14.8396034240723,14.8399505615234,14.8402919769287,14.8406381607056,14.8409805297852,14.8413248062134,14.8416690826416,14.8420114517212,14.8423547744751,14.842700958252,14.8430423736572,14.8433904647827,14.8437309265137,14.8440752029419,14.8444194793701,14.844762802124,14.8451051712036,14.8454523086548,14.8457937240601,14.8461408615112,14.8464822769165,14.8468236923218,14.8471717834473,14.8475131988525,14.8478584289551,14.848201751709,14.8485469818115,14.8488922119141,14.8492345809937,14.8495769500732,14.8499240875244,14.8502655029297,14.8506116867065,14.8509559631348,14.851300239563,14.8516454696655,14.8519897460938,14.8523302078247,14.8526782989502,14.8530206680298,14.853364944458,14.8537120819092,14.8540554046631,13.4551887512207,13.4398431777954,13.4245328903198,13.4092569351196,13.3940162658691,13.378809928894,13.3636379241943,13.34850025177,13.3333978652954,13.3183288574219,13.3032932281494,13.2882928848267,13.2733249664307,13.2583913803101,13.2434921264648,13.2286252975464,13.213791847229,13.1989917755127,13.1842250823975,13.169490814209,13.1547899246216,13.1401214599609,13.1254863739014,13.1108837127686,13.0963125228882,13.0817747116089,13.0672693252563,13.0527954101562,13.0383529663086,13.023943901062,13.0095653533936,12.9952192306519,12.9809045791626,12.9640626907349,12.9372148513794,12.9104785919189,12.8838520050049,12.8573360443115,12.8309288024902,12.8046293258667,12.7784376144409,12.7523527145386,12.7263736724854,12.7005014419556,12.6747331619263,12.6490697860718,12.6235094070435,12.5980529785156,12.5726985931396,12.5474462509155,12.5222949981689,12.4972448348999,12.4722938537598,12.4474430084229,12.4226903915405,12.3980369567871,12.373480796814,12.3490209579468,12.3246583938599,12.3003911972046,12.2762203216553,12.252142906189,12.2281608581543,12.2042722702026,12.180477142334,12.1567735671997,12.1331634521484,12.1094255447388,12.0854425430298,12.0615539550781,12.0377597808838,12.0140590667725,11.9904518127441,11.9669370651245,11.9435138702393,11.9201831817627,11.8969430923462,11.8737926483154,11.850733757019,11.8277626037598,11.8048810958862,11.7820882797241,11.7593822479248,11.7386026382446,11.7193784713745,11.7002172470093,11.6811189651489,11.6620826721191,11.6431074142456,11.624195098877,11.6053438186646,11.5865526199341,11.5678234100342,11.5491542816162,11.5305442810059,11.5119953155518,11.4935054779053,11.4750757217407,11.4567041397095,11.4383916854858,11.4201374053955,11.4019412994385,11.3838033676147,11.36572265625,11.3476991653442,11.3297338485718,11.3118238449097,11.2939710617065,11.2761745452881,11.2584342956543,11.2407493591309,11.2231206893921,11.2055463790894,11.188027381897,11.1705627441406,11.1531524658203,11.135796546936,11.1184949874878,11.1012468338013,11.0840520858765,11.0669107437134,11.0498218536377,11.0327863693237,11.0158023834229,10.9988708496094,10.9819917678833,10.9651641845703,10.9483880996704,10.9316635131836,10.9149894714355,10.8983659744263,10.8817939758301,10.8561201095581,10.8296213150024,10.8032512664795,10.7770090103149,10.7508945465088,10.7249069213867,10.6990432739258,10.6733045578003,10.6476898193359,10.6221971511841,10.5968265533447,10.5715770721436,10.5464468002319,10.5214366912842,10.4965448379517,10.4717693328857,10.4471120834351,10.4225692749023,10.3981418609619,10.3738288879395,10.3487253189087,10.3200950622559,10.2916221618652,10.2633066177368,10.235146522522,10.2071399688721,10.1792869567871,10.1515846252441,10.1240329742432,10.0966310501099,10.0693769454956,10.0422687530518,10.0153074264526,9.98848915100098,9.96181488037109,9.93528270721436,9.90889072418213,9.88263988494873,9.85652637481689,9.83055114746094,9.80471324920654,9.77900886535645,9.75344085693359,9.72800540924072,9.71480083465576,9.70377159118652,9.6927661895752,9.68178558349609,9.67083072662354,9.65989971160889,9.64899444580078,9.63811302185059,9.6272554397583,9.61642360687256,9.60561561584473,9.5948314666748,9.58407211303711,9.57333660125732,9.56262493133545,9.5519380569458,9.54127407073975,9.5306339263916,9.52001857757568,9.50942611694336,9.49885654449463,9.48831081390381,9.4777889251709,9.46728992462158,9.45681476593018,9.44636249542236,9.43593311309814,9.42552661895752,9.41514301300049,9.40478229522705,9.39444446563721,9.38412952423096,9.3738374710083,9.36356735229492,9.35332012176514,9.34309482574463,9.33289241790771,9.32271194458008,9.31255340576172,9.30241775512695,9.29230403900146,9.28221130371094,9.272141456604,9.26209259033203,9.25206661224365,9.24206161499023,9.23207759857178,9.22211647033691,9.21217632293701,9.20225715637207,9.19235897064209,9.18248271942139,9.17262840270996,9.16279411315918,9.15298080444336,9.14318943023682,9.13341808319092,9.1236686706543,9.11393928527832,9.10422992706299,9.09454250335693,9.08487510681152,9.07522869110107,9.06560134887695,9.05599594116211,9.04641056060791,9.03684520721436,9.02729988098145,9.01777458190918,9.00827026367188,8.9987850189209,8.98931980133057,8.97987461090088,8.97044944763184,8.96104431152344,8.95165824890137,8.94229221343994
14.705584526062,14.7059192657471,14.7062606811523,14.7065954208374,14.7069320678711,14.7072706222534,14.7076072692871,14.7079448699951,14.7082834243774,14.7086219787598,14.7089595794678,14.7092971801758,14.7096319198608,14.7099723815918,14.7103071212769,14.7106456756592,14.7109851837158,14.7113237380981,14.7116603851318,14.7119989395142,14.7123346328735,14.7126770019531,14.7130107879639,14.7133483886719,14.7136869430542,14.7140264511108,14.7143650054932,14.7147026062012,14.7150373458862,14.7153806686401,14.7157135009766,14.7160511016846,14.7163906097412,14.7167282104492,14.7170686721802,14.7174043655396,14.7177438735962,14.7180814743042,14.7184190750122,14.7187547683716,14.7190961837769,14.7194328308105,14.7197742462158,14.7201089859009,14.7204475402832,14.7207880020142,14.7211246490479,14.7214603424072,14.7218027114868,14.7221384048462,14.7224798202515,14.7228155136108,14.7231550216675,14.7234945297241,14.7238311767578,14.7241678237915,14.7245092391968,14.7248468399048,14.7251882553101,14.7255239486694,14.7258596420288,14.7262020111084,14.7265377044678,14.7268753051758,14.7272167205811,14.7275524139404,14.7278938293457,14.7282304763794,14.7285690307617,14.728910446167,14.7292461395264,14.729585647583,14.7299251556396,14.730263710022,14.7305994033813,14.7309398651123,14.731276512146,14.7316207885742,14.7319555282593,14.7322950363159,14.7326326370239,14.7329730987549,14.7333097457886,14.7336511611938,14.7339887619019,14.7343301773071,14.7346677780151,14.7350034713745,14.7353448867798,14.7356824874878,14.7360219955444,14.7363615036011,14.7367010116577,13.433497428894,13.4182014465332,13.4029407501221,13.3877143859863,13.372522354126,13.357364654541,13.3422412872314,13.3271522521973,13.3120975494385,13.2970762252808,13.2820892333984,13.2671365737915,13.2522163391113,13.2373304367065,13.2224779129028,13.2076578140259,13.1928720474243,13.1781187057495,13.1633987426758,13.1487112045288,13.1340560913086,13.1194343566895,13.1048450469971,13.0902881622314,13.0757627487183,13.0612707138062,13.0468101501465,13.0323810577393,13.0179843902588,13.0036201477051,12.9892864227295,12.9749851226807,12.9607152938843,12.946475982666,12.9322690963745,12.9180917739868,12.9039468765259,12.8898324966431,12.8715238571167,12.8450574874878,12.8187007904053,12.7924518585205,12.7663097381592,12.7402744293213,12.7143449783325,12.6885204315186,12.6628017425537,12.637186050415,12.6116743087769,12.5862646102905,12.5609579086304,12.5357532501221,12.510648727417,12.4856443405151,12.4607400894165,12.4359350204468,12.411229133606,12.3866195678711,12.3621082305908,12.3376941680908,12.3133764266968,12.2891540527344,12.2650260925293,12.2409934997559,12.2170543670654,12.1932096481323,12.1694564819336,12.1457967758179,12.1222286224365,12.0987520217896,12.0751962661743,12.0513486862183,12.0275945663452,12.0039339065552,11.9803667068481,11.9568910598755,11.9335079193115,11.9102153778076,11.8870143890381,11.8639030456543,11.8408813476562,11.8179492950439,11.7951059341431,11.7723503112793,11.7496824264526,11.7280912399292,11.7089014053345,11.6897745132446,11.6707096099854,11.651707649231,11.6327667236328,11.6138868331909,11.5950689315796,11.5763120651245,11.5576152801514,11.5389785766602,11.5204019546509,11.5018854141235,11.4834280014038,11.465030670166,11.4466915130615,11.4284105300903,11.4101877212524,11.3920240402222,11.3739175796509,11.3558683395386,11.3378763198853,11.3199405670166,11.3020629882812,11.2842407226562,11.2664747238159,11.2487649917603,11.2311105728149,11.21351146698,11.1959676742554,11.1784782409668,11.1610431671143,11.1436634063721,11.1263370513916,11.1090641021729,11.0918455123901,11.0746793746948,11.0575666427612,11.0405073165894,11.0234994888306,11.0065450668335,10.9896421432495,10.9727907180786,10.9559917449951,10.9392433166504,10.9225463867188,10.9059009552002,10.8893051147461,10.8727598190308,10.8562650680542,10.8398208618164,10.8176565170288,10.7913446426392,10.7651605606079,10.7391033172607,10.7131719589233,10.6873655319214,10.6616830825806,10.6361236572266,10.6106863021851,10.5853700637817,10.5601749420166,10.5350999832153,10.5101432800293,10.4853038787842,10.4605827331543,10.4359769821167,10.4114875793457,10.3871116638184,10.362850189209,10.3387022018433,10.3125133514404,10.284083366394,10.2558078765869,10.227689743042,10.1997232437134,10.1719102859497,10.1442489624023,10.1167373657227,10.0893745422363,10.062159538269,10.0350904464722,10.0081663131714,9.9813871383667,9.95475101470947,9.92825508117676,9.90190124511719,9.87568664550781,9.84961032867432,9.82367134094238,9.79786968231201,9.77220153808594,9.74666881561279,9.72126865386963,9.70751953125,9.69650650024414,9.68551731109619,9.67455387115479,9.66361427307129,9.65270042419434,9.64181041717529,9.63094520568848,9.62010478973389,9.60928821563721,9.59849643707275,9.58772850036621,9.57698535919189,9.56626605987549,9.55556964874268,9.54489803314209,9.53425025939941,9.52362632751465,9.51302528381348,9.50244808197021,9.49189472198486,9.48136520385742,9.47085857391357,9.46037483215332,9.44991493225098,9.43947792053223,9.42906284332275,9.41867160797119,9.40830421447754,9.39795780181885,9.38763523101807,9.37733554840088,9.36705780029297,9.35680294036865,9.34657001495361,9.33635997772217,9.326171875,9.31600570678711,9.30586242675781,9.29574108123779,9.28564167022705,9.27556324005127,9.26550769805908,9.25547409057617,9.24546146392822,9.23547077178955,9.22550201416016,9.21555423736572,9.20562839508057,9.19572353363037,9.18583965301514,9.17597770690918,9.16613578796387,9.15631580352783,9.14651679992676,9.13673877716064,9.12698173522949,9.1172456741333,9.10752964019775,9.09783458709717,9.08816051483154,9.07850646972656,9.06887340545654,9.05926036834717,9.04966831207275,9.04009628295898,9.03054428100586,9.02101230621338,9.01150035858154,9.00200843811035,8.9925365447998,8.9830846786499,8.97365283966064,8.96424102783203,8.95484828948975,8.94547557830811,8.93612289428711,8.92678928375244
14.5918817520142,14.5922145843506,14.5925455093384,14.5928792953491,14.5932121276855,14.5935430526733,14.593879699707,14.5942087173462,14.5945425033569,14.594874382019,14.5952072143555,14.5955400466919,14.595871925354,14.5962018966675,14.5965385437012,14.596869468689,14.5971994400024,14.5975351333618,14.5978651046753,14.598201751709,14.5985307693481,14.5988626480103,14.599196434021,14.5995292663574,14.5998601913452,14.6001958847046,14.6005258560181,14.6008634567261,14.6011934280396,14.601526260376,14.6018600463867,14.6021938323975,14.6025238037109,14.6028594970703,14.6031894683838,14.6035232543945,14.603856086731,14.6041889190674,14.6045227050781,14.6048555374146,14.605185508728,14.6055221557617,14.6058530807495,14.6061840057373,14.606520652771,14.6068487167358,14.6071863174438,14.607518196106,14.6078510284424,14.6081829071045,14.6085176467896,14.6088485717773,14.6091842651367,14.6095142364502,14.6098518371582,14.6101818084717,14.6105155944824,14.6108484268188,14.6111822128296,14.6115140914917,14.6118497848511,14.6121816635132,14.6125173568726,14.6128482818604,14.6131811141968,14.6135158538818,14.6138486862183,14.6141805648804,14.6145162582397,14.6148481369019,14.6151838302612,14.6155157089233,14.6158456802368,14.6161832809448,14.6165142059326,14.6168479919434,14.6171808242798,14.6175165176392,14.6178493499756,14.618182182312,14.6185131072998,14.6188516616821,14.6191835403442,14.6195163726807,14.61985206604,14.6201839447021,14.6205177307129,14.6208534240723,14.6211843490601,13.4118766784668,13.3966302871704,13.3814182281494,13.3662405014038,13.3510971069336,13.3359880447388,13.3209133148193,13.305871963501,13.2908658981323,13.2758922576904,13.2609529495239,13.2460470199585,13.2311754226685,13.2163362503052,13.201530456543,13.1867580413818,13.1720180511475,13.1573114395142,13.1426382064819,13.1279964447021,13.1133880615234,13.0988121032715,13.0842685699463,13.0697565078735,13.0552778244019,13.0408306121826,13.0264148712158,13.0120315551758,12.9976797103882,12.983359336853,12.9690713882446,12.9548139572144,12.9405879974365,12.9263935089111,12.9122295379639,12.898097038269,12.8839960098267,12.8699245452881,12.855884552002,12.8418750762939,12.8278961181641,12.8139476776123,12.8000288009644,12.7802972793579,12.754204750061,12.7282190322876,12.702338218689,12.6765632629395,12.6508922576904,12.6253252029419,12.5998611450195,12.574499130249,12.5492391586304,12.5240812301636,12.4990234375,12.4740657806396,12.4492073059082,12.4244480133057,12.3997869491577,12.3752241134644,12.350757598877,12.3263883590698,12.3021144866943,12.2779359817505,12.2538528442383,12.2298641204834,12.2059688568115,12.1821660995483,12.1584568023682,12.1348400115967,12.1113138198853,12.0878791809082,12.0645351409912,12.0411605834961,12.0174465179443,11.9938259124756,11.9702978134155,11.9468622207642,11.9235181808472,11.9002647399902,11.8771018981934,11.8540296554565,11.8310461044312,11.8081521987915,11.785346031189,11.7626276016235,11.7399978637695,11.7175989151001,11.6984434127808,11.679349899292,11.6603193283081,11.6413507461548,11.6224431991577,11.6035976409912,11.584813117981,11.5660886764526,11.5474252700806,11.5288209915161,11.5102777481079,11.4917936325073,11.4733686447144,11.455002784729,11.436695098877,11.4184465408325,11.4002561569214,11.3821229934692,11.3640480041504,11.3460302352905,11.3280696868896,11.3101654052734,11.2923183441162,11.2745265960693,11.2567911148071,11.2391119003296,11.2214879989624,11.2039184570312,11.1864042282104,11.1689453125,11.1515407562256,11.1341896057129,11.1168928146362,11.0996494293213,11.0824594497681,11.0653228759766,11.0482387542725,11.0312080383301,11.0142297744751,10.9973030090332,10.9804286956787,10.9636058807373,10.946834564209,10.9301137924194,10.9134454727173,10.8968267440796,10.8802585601807,10.8637409210205,10.8472738265991,10.8308563232422,10.8144884109497,10.7981700897217,10.7794647216797,10.7533378601074,10.7273378372192,10.7014636993408,10.6757125854492,10.6500864028931,10.6245822906494,10.5992002487183,10.5739393234253,10.5487985610962,10.5237770080566,10.4988737106323,10.4740877151489,10.4494190216064,10.4248657226562,10.4004278182983,10.3761043548584,10.3518943786621,10.3277969360352,10.3038120269775,10.276554107666,10.2483205795288,10.2202425003052,10.1923179626465,10.1645450592041,10.136923789978,10.1094512939453,10.082127571106,10.0549516677856,10.0279216766357,10.0010366439819,9.97429466247559,9.9476957321167,9.92123889923096,9.89492225646973,9.86874389648438,9.8427038192749,9.81680107116699,9.79103469848633,9.76540374755859,9.73990535736084,9.7145414352417,9.70024871826172,9.68925189971924,9.67827987670898,9.66733169555664,9.65640926361084,9.64551162719727,9.6346378326416,9.62378883361816,9.61296463012695,9.60216426849365,9.59138774871826,9.5806360244751,9.56990814208984,9.55920505523682,9.54852485656738,9.53786849975586,9.52723693847656,9.51662826538086,9.50604343414307,9.49548149108887,9.48494338989258,9.4744291305542,9.46393775939941,9.45346927642822,9.44302463531494,9.43260288238525,9.42220306396484,9.41182708740234,9.40147399902344,9.39114379882812,9.38083553314209,9.37055015563965,9.3602876663208,9.35004806518555,9.33982944488525,9.32963466644287,9.31946086883545,9.30930995941162,9.29918098449707,9.2890739440918,9.2789888381958,9.26892566680908,9.25888347625732,9.24886417388916,9.23886585235596,9.22888946533203,9.21893501281738,9.2090015411377,9.19908905029297,9.18919849395752,9.17932891845703,9.1694803237915,9.15965366363525,9.14984703063965,9.14006233215332,9.13029766082764,9.12055397033691,9.11083126068115,9.10112953186035,9.09144878387451,9.08178806304932,9.07214736938477,9.06252765655518,9.05292797088623,9.04334926605225,9.03379058837891,9.02425193786621,9.01473331451416,9.00523471832275,8.99575614929199,8.98629760742188,8.97685813903809,8.96743965148926,8.95804023742676,8.9486608505249,8.93930149078369,8.92996120452881,8.92063999176025,8.91133880615234
14.4799270629883,14.4802522659302,14.4805822372437,14.4809074401855,14.4812345504761,14.4815626144409,14.4818906784058,14.4822187423706,14.4825458526611,14.4828720092773,14.4832019805908,14.4835262298584,14.4838533401489,14.4841823577881,14.4845094680786,14.4848375320435,14.4851665496826,14.4854917526245,14.485821723938,14.4861469268799,14.4864749908447,14.4868011474609,14.4871311187744,14.4874582290649,14.4877862930298,14.488112449646,14.4884424209595,14.4887676239014,14.4890928268433,14.4894247055054,14.4897499084473,14.4900808334351,14.490406036377,14.4907321929932,14.4910612106323,14.4913902282715,14.4917144775391,14.4920463562012,14.4923706054688,14.4927034378052,14.4930286407471,14.4933557510376,14.4936838150024,14.4940128326416,14.4943380355835,14.4946699142456,14.4949941635132,14.4953269958496,14.4956531524658,14.495979309082,14.4963102340698,14.496636390686,14.4969615936279,14.4972925186157,14.4976177215576,14.4979476928711,14.4982748031616,14.4986019134521,14.4989337921143,14.4992599487305,14.499587059021,14.4999160766602,14.500244140625,14.5005722045898,14.500901222229,14.5012283325195,14.5015592575073,14.5018844604492,14.5022134780884,14.5025415420532,14.5028715133667,14.5031986236572,14.5035276412964,14.5038557052612,14.5041856765747,14.5045108795166,14.5048398971558,14.5051698684692,14.5054979324341,14.5058269500732,14.5061559677124,14.5064811706543,14.5068140029907,14.5071382522583,14.5074653625488,13.3903255462646,13.3751277923584,13.3599643707275,13.3448352813721,13.329740524292,13.3146800994873,13.2996530532837,13.2846603393555,13.2697010040283,13.2547760009766,13.2398834228516,13.225025177002,13.2102003097534,13.1954078674316,13.1806497573853,13.1659231185913,13.1512308120728,13.1365699768066,13.1219425201416,13.1073474884033,13.0927848815918,13.078254699707,13.0637559890747,13.0492906570435,13.0348558425903,13.0204544067383,13.0060834884644,12.9917449951172,12.9774379730225,12.9631624221802,12.9489183425903,12.9347057342529,12.9205236434937,12.9063730239868,12.8922529220581,12.8781642913818,12.8641061782837,12.8500785827637,12.8360815048218,12.8221158981323,12.8081798553467,12.7942733764648,12.7803983688354,12.7665519714355,12.7527370452881,12.7389507293701,12.7251949310303,12.7114686965942,12.690354347229,12.6646280288696,12.6390047073364,12.6134853363037,12.5880689620972,12.5627555847168,12.5375423431396,12.5124311447144,12.4874200820923,12.4625082015991,12.4376964569092,12.4129829406738,12.3883676528931,12.3638496398926,12.339427947998,12.3151025772095,12.2908735275269,12.2667398452759,12.2426996231079,12.2187547683716,12.1949024200439,12.1711435317993,12.1474771499634,12.1239023208618,12.1004190444946,12.0770263671875,12.0537233352661,12.0305109024048,12.0073165893555,11.9837350845337,11.9602470397949,11.9368505477905,11.9135446548462,11.8903303146362,11.8672065734863,11.8441724777222,11.8212270736694,11.7983703613281,11.7756023406982,11.7529220581055,11.7303285598755,11.7078227996826,11.6880035400391,11.6689443588257,11.6499471664429,11.6310119628906,11.6121387481689,11.5933265686035,11.57457447052,11.5558834075928,11.5372524261475,11.5186815261841,11.5001707077026,11.4817190170288,11.4633264541626,11.444993019104,11.4267177581787,11.4085006713867,11.390341758728,11.3722400665283,11.3541965484619,11.3362092971802,11.3182802200317,11.3004064559937,11.2825899124146,11.2648296356201,11.247124671936,11.2294750213623,11.2118816375732,11.1943426132202,11.1768579483032,11.1594285964966,11.142053604126,11.1247320175171,11.1074647903442,11.0902509689331,11.0730895996094,11.0559816360474,11.0389270782471,11.0219249725342,11.0049743652344,10.988076210022,10.971230506897,10.9544353485107,10.9376926422119,10.9210004806519,10.9043588638306,10.887767791748,10.8712282180786,10.8547372817993,10.8382968902588,10.821907043457,10.8055658340454,10.7892742156982,10.7730312347412,10.7568378448486,10.7406930923462,10.7155981063843,10.6897802352905,10.6640853881836,10.6385154724121,10.6130666732788,10.5877389907837,10.5625324249268,10.5374460220337,10.5124778747559,10.4876279830933,10.4628953933716,10.4382791519165,10.4137783050537,10.3893928527832,10.3651208877563,10.3409614562988,10.316915512085,10.2929801940918,10.2690362930298,10.2408447265625,10.2128067016602,10.1849231719971,10.157190322876,10.1296081542969,10.1021757125854,10.0748920440674,10.0477542877197,10.0207624435425,9.99391555786133,9.96721267700195,9.94065189361572,9.91423225402832,9.88795185089111,9.8618106842041,9.83580780029297,9.80994129180908,9.78421115875244,9.7586145401001,9.73315238952637,9.70782279968262,9.69298934936523,9.68200874328613,9.67105293273926,9.66012096405029,9.64921474456787,9.63833332061768,9.62747573852539,9.61664295196533,9.6058349609375,9.59504985809326,9.58429050445557,9.57355403900146,9.56284236907959,9.55215454101562,9.54149055480957,9.53085041046143,9.52023315429688,9.50964069366455,9.49907112121582,9.488525390625,9.47800254821777,9.46750259399414,9.45702743530273,9.44657421112061,9.43614482879639,9.42573738098145,9.41535377502441,9.40499305725098,9.39465427398682,9.38433933258057,9.37404632568359,9.36377620697021,9.35352802276611,9.34330272674561,9.33309936523438,9.32291889190674,9.31275939941406,9.30262279510498,9.29250812530518,9.28241634368896,9.27234554290771,9.26229667663574,9.25226974487305,9.24226379394531,9.23228073120117,9.22231769561768,9.21237754821777,9.20245838165283,9.19256019592285,9.18268299102783,9.17282772064209,9.16299343109131,9.15318012237549,9.14338779449463,9.13361644744873,9.12386608123779,9.1141357421875,9.10442733764648,9.09473896026611,9.08507061004639,9.07542419433594,9.06579685211182,9.05619049072266,9.04660415649414,9.03703880310059,9.02749347686768,9.01796817779541,9.00846290588379,8.99897766113281,8.98951244354248,8.98006629943848,8.97064113616943,8.96123504638672,8.95184898376465,8.94248199462891,8.93313503265381,8.92380809783936,8.91450023651123,8.90521144866943,8.89594268798828
14.3696765899658,14.3699989318848,14.3703184127808,14.370644569397,14.370964050293,14.3712863922119,14.3716096878052,14.3719329833984,14.3722562789917,14.372579574585,14.3728981018066,14.3732223510742,14.3735437393188,14.3738632202148,14.3741884231567,14.3745107650757,14.3748369216919,14.3751544952393,14.3754777908325,14.3758020401001,14.3761253356934,14.376443862915,14.3767700195312,14.3770904541016,14.3774175643921,14.3777379989624,14.3780603408813,14.3783826828003,14.3787050247192,14.3790273666382,14.3793516159058,14.3796730041504,14.3799991607666,14.3803205490112,14.3806419372559,14.3809671401978,14.3812885284424,14.3816089630127,14.3819360733032,14.3822565078735,14.3825798034668,14.3829021453857,14.3832235336304,14.3835477828979,14.3838691711426,14.3841915130615,14.3845148086548,14.3848390579224,14.3851623535156,14.3854856491089,14.3858060836792,14.3861331939697,14.3864545822144,14.3867769241333,14.3870992660522,14.3874235153198,14.3877477645874,14.3880701065063,14.388391494751,14.3887176513672,14.3890390396118,14.3893623352051,14.3896856307983,14.3900108337402,14.3903341293335,14.3906564712524,14.3909788131714,14.3913011550903,14.3916244506836,14.3919458389282,14.3922729492188,14.3925924301147,14.3929176330566,14.3932399749756,14.3935651779175,14.3938884735107,14.394211769104,14.3945322036743,14.3948583602905,14.3951807022095,14.3955049514771,13.3688430786133,13.3536939620972,13.3385791778564,13.3234987258911,13.3084526062012,13.2934398651123,13.2784605026245,13.2635154724121,13.2486038208008,13.2337255477905,13.2188816070557,13.2040700912476,13.1892919540405,13.1745462417603,13.1598339080811,13.1451549530029,13.1305074691772,13.1158933639526,13.1013116836548,13.086763381958,13.0722455978394,13.0577611923218,13.0433082580566,13.0288877487183,13.0144987106323,13.0001411437988,12.9858160018921,12.9715223312378,12.9572591781616,12.9430284500122,12.9288282394409,12.9146595001221,12.9005212783813,12.8864145278931,12.8723382949829,12.8582925796509,12.8442783355713,12.8302936553955,12.8163404464722,12.8024168014526,12.7885227203369,12.7746601104736,12.7608270645142,12.7470235824585,12.7332496643066,12.7195062637329,12.705792427063,12.6921081542969,12.6784524917603,12.6648273468018,12.6512308120728,12.6376638412476,12.6241254806519,12.6016693115234,12.5762996673584,12.5510330200195,12.5258674621582,12.5008029937744,12.4758377075195,12.4509725570679,12.4262065887451,12.401538848877,12.3769683837891,12.3524951934814,12.3281183242798,12.3038387298584,12.2796535491943,12.2555627822876,12.2315673828125,12.2076654434204,12.1838569641113,12.1601409912109,12.1365165710449,12.1129846572876,12.0895433425903,12.0661926269531,12.0429315567017,12.0197610855103,11.996678352356,11.9736614227295,11.9502124786377,11.9268550872803,11.9035882949829,11.8804130554199,11.8573274612427,11.8343315124512,11.8114242553711,11.7886056900024,11.7658758163452,11.7432327270508,11.7206764221191,11.6982069015503,11.6775817871094,11.6585569381714,11.639594078064,11.6206922531128,11.6018524169922,11.5830726623535,11.5643548965454,11.5456962585449,11.5270986557007,11.5085601806641,11.4900817871094,11.4716625213623,11.4533014297485,11.4350004196167,11.4167566299438,11.3985710144043,11.380443572998,11.3623743057251,11.3443613052368,11.3264064788818,11.3085069656372,11.2906646728516,11.2728786468506,11.2551488876343,11.2374744415283,11.2198553085327,11.2022914886475,11.1847820281982,11.1673278808594,11.1499280929565,11.1325826644897,11.1152906417847,11.0980520248413,11.080867767334,11.0637359619141,11.0466566085815,11.0296306610107,11.0126571655273,10.995735168457,10.9788656234741,10.9620475769043,10.9452810287476,10.9285659790039,10.911901473999,10.8952875137329,10.8787240982056,10.862211227417,10.8457489013672,10.8293361663818,10.8129720687866,10.7966585159302,10.7803936004639,10.7641773223877,10.748010635376,10.7318916320801,10.7158212661743,10.6997985839844,10.6781225204468,10.6524839401245,10.6269683837891,10.6015748977661,10.5763025283813,10.5511512756348,10.5261182785034,10.5012035369873,10.4764070510864,10.4517278671265,10.4271640777588,10.4027147293091,10.3783807754517,10.3541603088379,10.3300523757935,10.306056022644,10.2821712493896,10.258397102356,10.2333793640137,10.2053823471069,10.1775379180908,10.1498460769653,10.1223039627075,10.0949115753174,10.067666053772,10.0405673980713,10.013614654541,9.98680591583252,9.96014022827148,9.93361663818359,9.90723419189453,9.88099193572998,9.85488700866699,9.82892036437988,9.80309104919434,9.7773962020874,9.75183582305908,9.72640800476074,9.7011137008667,9.68574047088623,9.67477607727051,9.66383647918701,9.65292167663574,9.6420316696167,9.63116550445557,9.62032413482666,9.60950756072998,9.59871482849121,9.58794689178467,9.57720279693604,9.56648254394531,9.55578708648682,9.54511451721191,9.53446578979492,9.52384185791016,9.51323986053467,9.50266265869141,9.49210929870605,9.4815788269043,9.47107124328613,9.46058750152588,9.45012664794922,9.43968868255615,9.429274559021,9.41888236999512,9.40851402282715,9.39816761016846,9.38784503936768,9.37754440307617,9.36726570129395,9.35701084136963,9.34677791595459,9.33656692504883,9.32637882232666,9.31621170043945,9.30606842041016,9.29594612121582,9.28584575653076,9.2757682800293,9.26571178436279,9.25567722320557,9.24566459655762,9.23567295074463,9.22570419311523,9.21575546264648,9.20582962036133,9.19592380523682,9.18603992462158,9.17617702484131,9.16633605957031,9.15651512145996,9.14671611785889,9.13693714141846,9.12717914581299,9.1174430847168,9.10772705078125,9.09803104400635,9.08835697174072,9.07870197296143,9.06906890869141,9.05945491790771,9.0498628616333,9.04028987884521,9.03073787689209,9.02120494842529,9.01169300079346,9.00220108032227,8.99272918701172,8.9832763671875,8.97384452819824,8.96443176269531,8.95503902435303,8.94566535949707,8.93631172180176,8.92697811126709,8.91766357421875,8.90836811065674,8.89909267425537,8.88983631134033,8.88059902191162
14.2610893249512,14.2614097595215,14.2617263793945,14.2620429992676,14.2623605728149,14.2626781463623,14.262993812561,14.2633142471313,14.2636289596558,14.2639493942261,14.2642641067505,14.2645845413208,14.2649002075195,14.2652187347412,14.2655344009399,14.2658557891846,14.2661714553833,14.2664928436279,14.266806602478,14.267126083374,14.2674436569214,14.2677612304688,14.2680768966675,14.2683944702148,14.2687129974365,14.2690305709839,14.2693500518799,14.2696657180786,14.2699851989746,14.270302772522,14.270619392395,14.2709379196167,14.2712554931641,14.2715711593628,14.2718915939331,14.2722091674805,14.2725305557251,14.2728452682495,14.2731628417969,14.2734813690186,14.2738008499146,14.2741146087646,14.2744379043579,14.274751663208,14.2750749588013,14.2753887176514,14.275707244873,14.276026725769,14.276346206665,14.2766618728638,14.2769794464111,14.2772970199585,14.2776174545288,14.2779350280762,14.2782506942749,14.2785730361938,14.2788867950439,14.2792072296143,14.2795257568359,14.2798433303833,14.280161857605,14.280481338501,14.2807970046997,14.2811193466187,14.2814359664917,14.2817525863647,14.2820720672607,14.2823915481567,14.2827100753784,14.2830286026001,14.2833452224731,14.2836666107178,14.2839822769165,14.2842998504639,14.2846202850342,14.2849378585815,14.2852582931519,13.347430229187,13.332329750061,13.3172626495361,13.3022308349609,13.2872314453125,13.2722663879395,13.2573356628418,13.2424383163452,13.2275733947754,13.212742805481,13.1979455947876,13.183180809021,13.1684494018555,13.1537504196167,13.139084815979,13.1244516372681,13.1098508834839,13.0952825546265,13.0807466506958,13.0662431716919,13.0517711639404,13.0373315811157,13.0229244232178,13.0085487365723,12.9942045211792,12.9798917770386,12.9656114578247,12.951361656189,12.9371433258057,12.9229564666748,12.9088001251221,12.8946752548218,12.8805809020996,12.8665180206299,12.852484703064,12.8384828567505,12.8245115280151,12.8105697631836,12.7966585159302,12.7827777862549,12.7689275741577,12.75510597229,12.7413158416748,12.7275543212891,12.7138233184814,12.7001209259033,12.6864490509033,12.6728057861328,12.6591920852661,12.6456079483032,12.6320533752441,12.6185264587402,12.6050291061401,12.5915613174438,12.5781211853027,12.5647106170654,12.5513277053833,12.5379734039307,12.514214515686,12.4891958236694,12.4642772674561,12.4394578933716,12.414737701416,12.390115737915,12.36559009552,12.3411617279053,12.3168306350708,12.2925939559937,12.2684535980225,12.2444076538086,12.2204551696777,12.1965961456299,12.172830581665,12.1491575241089,12.1255760192871,12.1020860671997,12.0786867141724,12.0553779602051,12.0321598052979,12.0090293884277,11.9859886169434,11.9630355834961,11.9401712417603,11.9168767929077,11.8936491012573,11.870512008667,11.8474645614624,11.8245067596436,11.8016376495361,11.7788572311401,11.7561645507812,11.7335586547852,11.7110395431519,11.6886072158813,11.667179107666,11.6481876373291,11.6292591094971,11.610390663147,11.5915842056274,11.5728378295898,11.5541524887085,11.5355272293091,11.5169620513916,11.4984560012817,11.4800100326538,11.4616231918335,11.4432945251465,11.4250249862671,11.406813621521,11.3886594772339,11.3705635070801,11.3525257110596,11.3345441818237,11.3166198730469,11.2987518310547,11.2809400558472,11.2631845474243,11.2454853057861,11.227840423584,11.2102518081665,11.1927175521851,11.175238609314,11.1578140258789,11.1404438018799,11.1231279373169,11.1058654785156,11.0886564254761,11.0715007781982,11.0543975830078,11.0373477935791,11.0203495025635,11.0034046173096,10.9865112304688,10.9696702957153,10.9528799057007,10.9361419677734,10.9194536209106,10.9028177261353,10.8862314224243,10.8696956634521,10.8532104492188,10.8367748260498,10.8203887939453,10.8040523529053,10.7877655029297,10.7715272903442,10.7553377151489,10.7391977310181,10.723105430603,10.7070608139038,10.6910648345947,10.6751165390015,10.6592149734497,10.6409072875977,10.6154479980469,10.59010887146,10.5648908615112,10.5397930145264,10.5148143768311,10.489953994751,10.4652099609375,10.4405822753906,10.4160709381104,10.3916749954224,10.3673915863037,10.343222618103,10.3191652297974,10.295220375061,10.2713851928711,10.2476615905762,10.2240467071533,10.1979684829712,10.1701650619507,10.1425123214722,10.1150102615356,10.0876569747925,10.060450553894,10.0333909988403,10.0064764022827,9.97970581054688,9.9530782699585,9.92659282684326,9.90024757385254,9.87404155731201,9.84797382354736,9.82204341888428,9.79624938964844,9.77059078216553,9.74506568908691,9.7196741104126,9.69441413879395,9.67850208282471,9.66755390167236,9.65663051605225,9.64573192596436,9.63485813140869,9.62400913238525,9.61318397521973,9.60238265991211,9.59160614013672,9.58085441589355,9.57012557983398,9.55942153930664,9.54874134063721,9.53808498382568,9.52745246887207,9.51684284210205,9.50625801086426,9.49569606781006,9.48515701293945,9.47464179992676,9.46415042877197,9.45368194580078,9.44323635101318,9.43281364440918,9.42241382598877,9.41203784942627,9.40168380737305,9.39135265350342,9.38104438781738,9.37075901031494,9.36049556732178,9.35025501251221,9.34003639221191,9.32984066009521,9.31966686248779,9.30951499938965,9.2993860244751,9.28927803039551,9.27919292449951,9.26912879943848,9.25908756256104,9.24906730651855,9.23906898498535,9.22909164428711,9.21913623809814,9.20920276641846,9.19929027557373,9.18939876556396,9.17952919006348,9.16968059539795,9.15985298156738,9.15004634857178,9.14026069641113,9.13049602508545,9.12075233459473,9.11102867126465,9.10132598876953,9.09164428710938,9.08198356628418,9.07234287261963,9.06272220611572,9.05312252044678,9.04354286193848,9.03398418426514,9.02444458007812,9.01492595672607,9.00542736053467,8.99594783782959,8.98648929595947,8.97704982757568,8.96763038635254,8.95823097229004,8.94885158538818,8.93949127197266,8.93015003204346,8.9208288192749,8.91152763366699,8.90224456787109,8.89298152923584,8.88373851776123,8.87451362609863,8.86530780792236
14.1541385650635,14.1544485092163,14.1547594070435,14.1550750732422,14.1553869247437,14.1556987762451,14.1560106277466,14.156322479248,14.1566371917725,14.1569490432739,14.1572599411011,14.1575756072998,14.1578874588013,14.158203125,14.1585130691528,14.1588258743286,14.1591396331787,14.1594524383545,14.159764289856,14.1600799560547,14.1603908538818,14.1607055664062,14.1610164642334,14.1613292694092,14.1616449356079,14.1619577407837,14.1622667312622,14.1625833511353,14.1628942489624,14.1632108688354,14.1635227203369,14.1638355255127,14.1641483306885,14.1644611358643,14.16477394104,14.1650876998901,14.1653995513916,14.165714263916,14.1660280227661,14.1663379669189,14.1666555404663,14.1669645309448,14.1672792434692,14.1675930023193,14.1679077148438,14.1682214736938,14.1685342788696,14.1688451766968,14.1691617965698,14.169472694397,14.1697864532471,14.1701002120972,14.1704149246216,14.1707277297974,14.1710414886475,14.1713533401489,14.1716680526733,14.1719799041748,14.1722946166992,14.172607421875,14.1729211807251,14.1732349395752,14.1735467910767,14.1738615036011,14.1741752624512,14.1744890213013,14.1747999191284,14.1751165390015,14.1754274368286,14.175745010376,14.1760568618774,14.1763696670532,14.1766843795776,14.1770000457764,13.3110332489014,13.2960147857666,13.2810297012329,13.2660789489746,13.2511615753174,13.2362775802612,13.2214269638062,13.2066106796265,13.1918268203735,13.1770753860474,13.1623573303223,13.1476726531982,13.133020401001,13.1184005737305,13.1038131713867,13.0892581939697,13.0747356414795,13.060245513916,13.0457878112793,13.031361579895,13.0169668197632,13.0026044845581,12.9882726669312,12.9739742279053,12.9597053527832,12.9454689025879,12.931263923645,12.9170894622803,12.902946472168,12.8888339996338,12.8747529983521,12.8607025146484,12.8466815948486,12.8326921463013,12.818733215332,12.8048048019409,12.7909059524536,12.7770376205444,12.7631998062134,12.7493915557861,12.7356128692627,12.7218637466431,12.7081451416016,12.6944551467896,12.6807947158813,12.667163848877,12.6535625457764,12.6399908065796,12.6264476776123,12.6129331588745,12.5994482040405,12.5859909057617,12.5725631713867,12.5591640472412,12.5457935333252,12.5324516296387,12.5191373825073,12.5058517456055,12.4925947189331,12.4793653488159,12.4661636352539,12.4527387619019,12.4279651641846,12.4032897949219,12.3787126541138,12.3542327880859,12.3298492431641,12.3055629730225,12.2813711166382,12.2572736740112,12.2332715988159,12.2093629837036,12.1855478286743,12.1618242263794,12.1381940841675,12.1146554946899,12.0912075042725,12.0678510665894,12.0445833206177,12.0214061737061,11.9983177185059,11.9753179550171,11.9524059295654,11.9295816421509,11.9068441390991,11.8837261199951,11.8606271743774,11.8376178741455,11.8146991729736,11.7918672561646,11.7691249847412,11.7464694976807,11.7239007949829,11.7014188766479,11.6790227890015,11.6567945480347,11.6378374099731,11.6189422607422,11.6001071929932,11.5813341140747,11.5626211166382,11.5439682006836,11.5253763198853,11.5068435668945,11.4883699417114,11.4699563980103,11.4516010284424,11.4333047866821,11.4150667190552,11.3968868255615,11.3787651062012,11.3607006072998,11.3426933288574,11.324743270874,11.3068494796753,11.2890129089355,11.2712316513062,11.2535066604614,11.2358369827271,11.2182235717773,11.2006645202637,11.1831607818604,11.1657114028931,11.1483163833618,11.1309757232666,11.1136894226074,11.0964555740356,11.0792760848999,11.0621490478516,11.0450754165649,11.0280532836914,11.0110845565796,10.9941682815552,10.9773035049438,10.9604902267456,10.9437274932861,10.9270172119141,10.9103574752808,10.8937482833862,10.8771905899048,10.8606824874878,10.8442239761353,10.8278150558472,10.8114566802979,10.7951469421387,10.7788867950439,10.7626752853394,10.7465133666992,10.7303991317749,10.7143325805664,10.698314666748,10.6823444366455,10.6664218902588,10.6505470275879,10.6347188949585,10.6189384460449,10.6032037734985,10.578667640686,10.5535049438477,10.5284605026245,10.5035352706909,10.4787273406982,10.4540367126465,10.429461479187,10.4050025939941,10.3806571960449,10.3564262390137,10.3323078155518,10.3083019256592,10.2844066619873,10.2606220245361,10.2369470596313,10.2133817672729,10.1899242401123,10.1628017425537,10.1351890563965,10.1077270507812,10.0804128646851,10.0532455444336,10.0262250900269,9.99934864044189,9.97261619567871,9.94602584838867,9.91957759857178,9.89326953887939,9.86710071563721,9.8410701751709,9.81517601013184,9.78941822052002,9.76379489898682,9.73830509185791,9.7129487991333,9.68772315979004,9.67127418518066,9.66034317016602,9.64943599700928,9.63855361938477,9.62769603729248,9.61686229705811,9.60605335235596,9.59526920318604,9.58450794219971,9.57377147674561,9.56305980682373,9.55237102508545,9.54170608520508,9.53106594085693,9.52044868469238,9.50985527038574,9.4992847442627,9.48873901367188,9.47821521759033,9.46771621704102,9.45723915100098,9.44678592681885,9.43635559082031,9.42594814300537,9.41556453704834,9.40520286560059,9.39486408233643,9.38454818725586,9.37425422668457,9.36398410797119,9.35373592376709,9.34350967407227,9.33330631256104,9.32312488555908,9.31296539306641,9.30282878875732,9.29271411895752,9.28262042999268,9.27254962921143,9.26249980926514,9.25247287750244,9.24246692657471,9.23248291015625,9.22251987457275,9.21257877349854,9.20265865325928,9.1927604675293,9.18288326263428,9.17302703857422,9.16319274902344,9.1533784866333,9.14358615875244,9.13381385803223,9.12406349182129,9.114333152771,9.10462379455566,9.09493541717529,9.08526706695557,9.07561874389648,9.06599235534668,9.0563850402832,9.04679870605469,9.03723239898682,9.02768707275391,9.01816082000732,9.0086555480957,8.99916934967041,8.98970413208008,8.98025798797607,8.97083187103271,8.96142578125,8.95203876495361,8.94267177581787,8.93332481384277,8.923996925354,8.91468906402588,8.90539932250977,8.8961296081543,8.88687992095947,8.87764835357666,8.86843681335449,8.85924339294434,8.85006999969482
14.0487718582153,14.0490798950195,14.0493879318237,14.049693107605,14.0500049591064,14.0503101348877,14.0506219863892,14.0509271621704,14.0512361526489,14.0515451431274,14.051854133606,14.0521593093872,14.0524702072144,14.0527763366699,14.0530872344971,14.0533933639526,14.0537023544312,14.054012298584,14.0543174743652,14.0546255111694,14.0549345016479,14.0552434921265,14.055552482605,14.0558595657349,14.0561666488647,14.0564775466919,14.0567836761475,14.0570936203003,14.0574026107788,14.057710647583,14.0580205917358,14.05832862854,14.0586357116699,14.0589456558228,14.0592527389526,14.0595617294312,14.0598707199097,14.0601797103882,14.0604887008667,14.0607967376709,14.0611028671265,14.0614137649536,14.0617218017578,14.0620317459106,14.0623378753662,14.062647819519,14.0629577636719,14.0632648468018,14.0635719299316,14.0638818740845,14.064190864563,14.0644989013672,14.06480884552,14.0651149749756,14.0654277801514,14.0657339096069,14.0660419464111,14.0663528442383,14.0666608810425,14.0669679641724,14.0672798156738,14.0675868988037,14.0678968429565,14.0682058334351,14.0685157775879,14.0688247680664,14.0691337585449,14.0694398880005,14.0697526931763,14.0700588226318,13.2898044586182,13.2748336791992,13.2598962783813,13.2449932098389,13.2301235198975,13.2152862548828,13.2004833221436,13.1857128143311,13.1709756851196,13.1562719345093,13.1415996551514,13.1269617080688,13.1123552322388,13.0977811813354,13.0832395553589,13.0687303543091,13.054253578186,13.0398092269897,13.0253953933716,13.0110149383545,12.9966650009155,12.9823474884033,12.9680604934692,12.9538059234619,12.9395818710327,12.925389289856,12.9112281799316,12.8970975875854,12.8829984664917,12.8689298629761,12.8548917770386,12.8408842086792,12.8269071578979,12.8129606246948,12.7990446090698,12.7851591110229,12.7713031768799,12.7574768066406,12.7436809539795,12.7299146652222,12.7161779403687,12.7024717330933,12.6887941360474,12.6751461029053,12.661527633667,12.6479377746582,12.6343784332275,12.6208467483521,12.6073446273804,12.5938711166382,12.5804262161255,12.5670108795166,12.5536231994629,12.5402641296387,12.5269336700439,12.5136318206787,12.5003576278687,12.4871120452881,12.4738941192627,12.4607048034668,12.4475431442261,12.4344081878662,12.4213018417358,12.4082231521606,12.3951721191406,12.3821477890015,12.3673315048218,12.3428964614868,12.3185577392578,12.2943153381348,12.270167350769,12.246114730835,12.2221555709839,12.1982908248901,12.1745185852051,12.1508388519287,12.1272506713867,12.1037540435791,12.0803489685059,12.0570335388184,12.0338087081909,12.0106716156006,11.9876251220703,11.9646654129028,11.9417943954468,11.9190111160278,11.8963136672974,11.8737030029297,11.8507595062256,11.8277883529663,11.8049068450928,11.7821130752563,11.7594079971313,11.7367897033691,11.7142581939697,11.6918134689331,11.669454574585,11.647180557251,11.6275053024292,11.6086435317993,11.5898418426514,11.571102142334,11.5524215698242,11.5338020324707,11.5152425765991,11.4967422485352,11.4783020019531,11.4599199295044,11.4415969848633,11.4233331680298,11.4051265716553,11.3869781494141,11.3688879013062,11.3508548736572,11.332878112793,11.314959526062,11.2970962524414,11.2792901992798,11.2615404129028,11.2438459396362,11.22620677948,11.2086229324341,11.1910943984985,11.173620223999,11.1562004089355,11.1388349533081,11.1215238571167,11.104266166687,11.087061882019,11.0699110031128,11.0528135299683,11.0357685089111,11.0187759399414,11.0018348693848,10.9849462509155,10.9681100845337,10.9513254165649,10.934591293335,10.9179086685181,10.9012765884399,10.8846950531006,10.8681640625,10.8516836166382,10.8352527618408,10.8188714981079,10.8025398254395,10.7862567901611,10.7700233459473,10.7538385391235,10.7377023696899,10.7216148376465,10.7055749893188,10.689582824707,10.6736392974854,10.6577425003052,10.6418933868408,10.626091003418,10.6103353500366,10.5946264266968,10.5789642333984,10.5633487701416,10.5421419143677,10.5171518325806,10.4922800064087,10.4675254821777,10.4428873062134,10.4183645248413,10.3939571380615,10.3696641921997,10.3454837799072,10.3214168548584,10.2974605560303,10.2736158370972,10.2498807907104,10.2262563705444,10.2027397155762,10.1793308258057,10.1554498672485,10.1278772354126,10.1004543304443,10.0731792449951,10.0460510253906,10.0190687179565,9.99223041534424,9.96553611755371,9.93898391723633,9.91257286071777,9.88630199432373,9.86016941070557,9.83417510986328,9.80831813812256,9.78259563446045,9.75700855255127,9.73155403137207,9.70623302459717,9.68104267120361,9.66405773162842,9.65314292907715,9.64225196838379,9.63138580322266,9.62054443359375,9.60972690582275,9.59893417358398,9.58816528320312,9.57742023468018,9.56669998168945,9.55600357055664,9.54533100128174,9.53468227386475,9.52405643463135,9.51345539093018,9.5028772354126,9.49232292175293,9.48179149627686,9.47128391265869,9.46080017089844,9.45033836364746,9.43990039825439,9.42948532104492,9.41909313201904,9.40872383117676,9.39837741851807,9.38805389404297,9.37775230407715,9.36747455596924,9.35721874237061,9.34698486328125,9.33677387237549,9.326584815979,9.3164176940918,9.30627346038818,9.29615116119385,9.28605079650879,9.27597236633301,9.2659158706665,9.25588035583496,9.24586772918701,9.23587608337402,9.225905418396,9.21595764160156,9.20602989196777,9.19612503051758,9.18624019622803,9.17637729644775,9.16653537750244,9.15671443939209,9.1469144821167,9.13713550567627,9.1273775100708,9.11764049530029,9.10792350769043,9.09822750091553,9.08855247497559,9.07889842987061,9.06926345825195,9.05965042114258,9.05005741119385,9.04048347473145,9.03093147277832,9.02139854431152,9.01188564300537,9.00239372253418,8.99292087554932,8.9834680557251,8.97403526306152,8.96462249755859,8.95522880554199,8.94585514068604,8.93650150299072,8.92716693878174,8.9178524017334,8.90855693817139,8.8992805480957,8.89002323150635,8.88078594207764,8.87156772613525,8.86236763000488,8.85318756103516,8.84402656555176,8.83488464355469
13.9449653625488,13.9452686309814,13.9455738067627,13.9458751678467,13.9461793899536,13.9464817047119,13.9467859268188,13.9470911026001,13.9473934173584,13.947696685791,13.9480018615723,13.9483032226562,13.9486083984375,13.9489116668701,13.9492158889771,13.9495191574097,13.9498243331909,13.9501247406006,13.9504337310791,13.9507322311401,13.9510374069214,13.9513416290283,13.9516458511353,13.9519491195679,13.9522542953491,13.9525556564331,13.9528617858887,13.9531631469727,13.9534702301025,13.9537734985352,13.9540748596191,13.9543790817261,13.9546842575073,13.9549856185913,13.9552917480469,13.9555969238281,13.9558982849121,13.956205368042,13.9565076828003,13.9568109512329,13.9571151733398,13.9574203491211,13.957724571228,13.9580297470093,13.9583320617676,13.9586362838745,13.9589385986328,13.9592437744141,13.959547996521,13.9598531723022,13.9601573944092,13.9604616165161,13.9607639312744,13.9610719680786,13.9613733291626,13.9616775512695,13.9619827270508,13.962287902832,13.962592124939,13.9628944396973,13.9631996154785,13.9635028839111,13.9638090133667,13.9641094207764,13.9644165039062,13.9647207260132,13.2686433792114,13.2537202835083,13.2388305664062,13.2239742279053,13.2091512680054,13.1943616867065,13.1796054840088,13.1648817062378,13.1501913070679,13.1355333328247,13.1209077835083,13.106315612793,13.0917549133301,13.0772266387939,13.0627307891846,13.048267364502,13.0338354110718,13.0194358825684,13.0050678253174,12.9907312393188,12.9764261245728,12.9621534347534,12.9479112625122,12.9337005615234,12.9195203781128,12.9053726196289,12.8912544250488,12.8771677017212,12.863112449646,12.8490867614746,12.8350915908813,12.8211278915405,12.8071937561035,12.7932901382446,12.7794170379639,12.7655735015869,12.7517595291138,12.7379760742188,12.7242221832275,12.7104978561401,12.6968030929565,12.6831378936768,12.6695022583008,12.6558961868286,12.6423187255859,12.6287708282471,12.6152515411377,12.6017608642578,12.5882997512817,12.5748662948608,12.5614624023438,12.5480871200562,12.534740447998,12.5214214324951,12.5081310272217,12.4948682785034,12.4816341400146,12.4684286117554,12.455249786377,12.442099571228,12.4289770126343,12.4158821105957,12.402813911438,12.3897743225098,12.3767614364624,12.3637762069702,12.3508186340332,12.3378877639771,12.3249835968018,12.3121070861816,12.2992563247681,12.283088684082,12.2589845657349,12.2349758148193,12.2110605239868,12.1872386932373,12.1635093688965,12.1398725509644,12.1163272857666,12.0928726196289,12.0695095062256,12.046236038208,12.0230522155762,11.9999570846558,11.9769515991211,11.9540328979492,11.9312019348145,11.9084587097168,11.8858013153076,11.8632307052612,11.840744972229,11.8179750442505,11.7951307296753,11.7723751068115,11.7497072219849,11.7271270751953,11.7046327590942,11.6822242736816,11.6599016189575,11.6376647949219,11.6171922683716,11.5983629226685,11.5795955657959,11.5608882904053,11.5422410964966,11.5236539840698,11.505126953125,11.4866590499878,11.4682512283325,11.4499015808105,11.4316101074219,11.4133777618408,11.3952035903931,11.3770866394043,11.3590278625488,11.341025352478,11.3230810165405,11.3051919937134,11.2873601913452,11.2695846557617,11.2518653869629,11.2342014312744,11.216591835022,11.1990385055542,11.1815395355225,11.1640958786011,11.1467056274414,11.1293697357178,11.1120882034302,11.09485912323,11.0776844024658,11.0605630874634,11.043493270874,11.0264768600464,11.0095129013062,10.9926013946533,10.9757413864136,10.9589328765869,10.9421758651733,10.9254693984985,10.9088144302368,10.8922100067139,10.8756561279297,10.8591527938843,10.8426990509033,10.8262958526611,10.8099412918091,10.7936363220215,10.7773809432983,10.7611742019653,10.7450160980225,10.7289066314697,10.7128448486328,10.696831703186,10.6808652877808,10.6649475097656,10.649076461792,10.6332530975342,10.6174764633179,10.6017465591431,10.5860633850098,10.5704259872437,10.554835319519,10.5392904281616,10.5237913131714,10.5058679580688,10.4810485839844,10.4563474655151,10.4317617416382,10.4072914123535,10.3829355239868,10.3586940765381,10.3345651626587,10.3105478286743,10.2866430282593,10.2628479003906,10.2391633987427,10.2155866622925,10.1921186447144,10.1687593460083,10.1455059051514,10.1205749511719,10.0931921005249,10.0659561157227,10.0388660430908,10.0119228363037,9.98512363433838,9.95846652984619,9.93195152282715,9.90557861328125,9.87934494018555,9.85324859619141,9.82729053497314,9.80146884918213,9.77578353881836,9.75023078918457,9.72481250762939,9.69952583312988,9.67437076568604,9.65685176849365,9.64595317840576,9.63507843017578,9.62422847747803,9.6134033203125,9.60260200500488,9.59182453155518,9.5810718536377,9.57034301757812,9.55963897705078,9.54895782470703,9.53830051422119,9.52766799926758,9.51705837249756,9.50647163391113,9.49590969085693,9.48537063598633,9.47485542297363,9.46436309814453,9.45389366149902,9.44344806671143,9.43302440643311,9.4226245880127,9.41224765777588,9.40189361572266,9.39156246185303,9.38125324249268,9.37096786499023,9.36070346832275,9.35046291351318,9.34024429321289,9.33004760742188,9.31987285614014,9.30972099304199,9.29959106445312,9.28948307037354,9.27939701080322,9.26933288574219,9.25929069519043,9.24927043914795,9.23927116394043,9.22929382324219,9.21933841705322,9.20940399169922,9.19949150085449,9.18959999084473,9.17972946166992,9.16987991333008,9.16005229949951,9.15024471282959,9.14045906066895,9.13069343566895,9.12094974517822,9.11122608184814,9.10152339935303,9.09184074401855,9.08217906951904,9.07253837585449,9.06291770935059,9.05331707000732,9.04373741149902,9.03417778015137,9.02463817596436,9.01511859893799,9.00562000274658,8.9961404800415,8.98668098449707,8.97724151611328,8.96782112121582,8.95842170715332,8.94904136657715,8.93968105316162,8.93033981323242,8.92101764678955,8.91171550750732,8.90243339538574,8.89316940307617,8.88392543792725,8.87470054626465,8.86549472808838,8.85630798339844,8.84714031219482,8.83799171447754,8.82886123657227,8.81975078582764
13.8426818847656,13.8429822921753,13.843279838562,13.8435802459717,13.8438787460327,13.8441791534424,13.8444776535034,13.8447771072388,13.8450736999512,13.8453750610352,13.8456716537476,13.8459749221802,13.8462715148926,13.8465719223022,13.8468723297119,13.8471698760986,13.8474674224854,13.847767829895,13.8480663299561,13.84836769104,13.8486671447754,13.8489637374878,13.8492650985718,13.8495645523071,13.8498630523682,13.8501625061035,13.8504610061646,13.8507633209229,13.8510618209839,13.8513603210449,13.8516607284546,13.8519601821899,13.8522577285767,13.8525581359863,13.8528594970703,13.8531589508057,13.853458404541,13.8537549972534,13.854058265686,13.8543548583984,13.8546552658081,13.8549566268921,13.8552522659302,13.8555555343628,13.8558530807495,13.8561534881592,13.8564529418945,13.8567533493042,13.8570508956909,13.8573541641235,13.8576498031616,13.8579530715942,13.8582515716553,13.8585510253906,13.8588514328003,13.8591527938843,13.8594484329224,13.859751701355,13.8600492477417,13.8603506088257,13.860650062561,13.8609495162964,13.2475490570068,13.2326736450195,13.2178316116333,13.2030220031738,13.1882467269897,13.1735038757324,13.1587934494019,13.1441164016724,13.1294717788696,13.114860534668,13.1002807617188,13.0857343673706,13.0712194442749,13.056736946106,13.0422859191895,13.027868270874,13.0134811401367,12.9991264343262,12.9848031997681,12.9705114364624,12.9562511444092,12.9420213699341,12.9278240203857,12.9136571884155,12.8995218276978,12.8854169845581,12.8713426589966,12.8572998046875,12.8432874679565,12.8293046951294,12.8153533935547,12.8014316558838,12.787540435791,12.7736797332764,12.7598485946655,12.7460470199585,12.7322759628296,12.7185344696045,12.7048225402832,12.6911401748657,12.6774873733521,12.6638631820679,12.6502695083618,12.6367034912109,12.6231679916382,12.6096601486206,12.5961818695068,12.5827331542969,12.5693120956421,12.5559196472168,12.542555809021,12.5292205810547,12.5159130096436,12.5026350021362,12.4893836975098,12.4761619567871,12.4629669189453,12.449800491333,12.4366617202759,12.4235496520996,12.4104661941528,12.3974103927612,12.3843822479248,12.3713808059692,12.3584060668945,12.3454599380493,12.3325395584106,12.3196468353271,12.3067817687988,12.2939424514771,12.2811307907104,12.2683448791504,12.2555856704712,12.2428531646729,12.2301473617554,12.2174682617188,12.1999855041504,12.1762065887451,12.1525201797485,12.1289253234863,12.1054229736328,12.0820112228394,12.0586891174316,12.035457611084,12.0123147964478,11.9892616271973,11.9662961959839,11.9434185028076,11.9206285476685,11.8979253768921,11.8753080368042,11.8527774810791,11.8303308486938,11.8079700469971,11.7853717803955,11.7626533508301,11.7400226593018,11.7174797058105,11.6950216293335,11.6726503372192,11.6503648757935,11.6281633377075,11.6068964004517,11.5881013870239,11.5693664550781,11.5506916046143,11.5320777893066,11.513524055481,11.4950294494629,11.4765939712524,11.4582176208496,11.4399003982544,11.4216413497925,11.4034404754639,11.3852977752686,11.3672122955322,11.3491840362549,11.3312139511108,11.3133001327515,11.2954425811768,11.2776412963867,11.2598962783813,11.2422065734863,11.224573135376,11.2069940567017,11.1894702911377,11.1720018386841,11.1545867919922,11.1372270584106,11.1199207305908,11.1026678085327,11.0854692459106,11.068323135376,11.0512294769287,11.0341892242432,11.017201423645,11.0002660751343,10.9833822250366,10.9665508270264,10.9497699737549,10.9330415725708,10.9163627624512,10.8997364044189,10.8831596374512,10.8666334152222,10.8501567840576,10.8337306976318,10.8173542022705,10.8010263442993,10.7847490310669,10.7685194015503,10.7523393630981,10.7362079620361,10.7201242446899,10.7040891647339,10.6881017684937,10.6721620559692,10.6562700271606,10.6404247283936,10.6246271133423,10.6088762283325,10.5931720733643,10.5775136947632,10.5619020462036,10.5463361740112,10.530816078186,10.515341758728,10.4999132156372,10.4845294952393,10.4691905975342,10.4451932907104,10.4206600189209,10.3962411880493,10.37193775177,10.3477468490601,10.3236684799194,10.2997026443481,10.2758474349976,10.2521018981934,10.2284669876099,10.2049398422241,10.1815214157104,10.1582098007202,10.1350040435791,10.1119050979614,10.0859394073486,10.0587434768677,10.0316925048828,10.0047874450684,9.97802543640137,9.95140743255615,9.92492961883545,9.89859390258789,9.87239646911621,9.84633731842041,9.82041549682617,9.7946310043335,9.76898002624512,9.74346351623535,9.71807956695557,9.69282913208008,9.66770839691162,9.64965724945068,9.63877391815186,9.62791633605957,9.6170825958252,9.60627269744873,9.59548759460449,9.58472633361816,9.57398986816406,9.56327629089355,9.55258750915527,9.5419225692749,9.53128147125244,9.52066421508789,9.51006984710693,9.49949932098389,9.48895263671875,9.47842884063721,9.46792888641357,9.45745182037354,9.44699764251709,9.43656730651855,9.4261589050293,9.41577434539795,9.4054126739502,9.39507389068604,9.38475704193115,9.37446308135986,9.36419200897217,9.35394287109375,9.34371662139893,9.33351230621338,9.32333087921143,9.31317138671875,9.30303382873535,9.29291820526123,9.2828254699707,9.27275371551514,9.26270389556885,9.25267601013184,9.24266910552979,9.23268508911133,9.22272205352783,9.2127799987793,9.20285987854004,9.19296169281006,9.18308353424072,9.17322731018066,9.16339206695557,9.15357780456543,9.14378452301025,9.13401222229004,9.12426090240479,9.11453056335449,9.10482025146484,9.09513187408447,9.08546257019043,9.07581424713135,9.06618690490723,9.05658054351807,9.04699325561523,9.03742694854736,9.02788066864014,9.01835441589355,9.00884819030762,8.99936199188232,8.98989582061768,8.98044967651367,8.971022605896,8.96161651611328,8.95222949981689,8.94286251068115,8.93351459503174,8.92418575286865,8.91487693786621,8.90558815002441,8.89631843566895,8.88706684112549,8.87783622741699,8.86862373352051,8.85943031311035,8.85025596618652,8.84110069274902,8.83196449279785,8.82284736633301,8.81374835968018,8.80466842651367
13.7418851852417,13.7421798706055,13.7424764633179,13.7427711486816,13.7430667877197,13.7433614730835,13.7436542510986,13.7439527511597,13.7442436218262,13.7445383071899,13.7448358535767,13.7451305389404,13.7454261779785,13.7457218170166,13.7460136413574,13.7463111877441,13.7466049194336,13.746901512146,13.7471961975098,13.7474918365479,13.7477865219116,13.7480821609497,13.7483739852905,13.7486724853516,13.7489652633667,13.7492580413818,13.7495555877686,13.7498483657837,13.7501459121704,13.7504405975342,13.7507352828979,13.7510318756104,13.7513265609741,13.7516202926636,13.751916885376,13.7522106170654,13.7525072097778,13.7528009414673,13.7530965805054,13.7533922195435,13.7536878585815,13.753981590271,13.754280090332,13.7545728683472,13.7548713684082,13.7551641464233,13.7554588317871,13.7557544708252,13.7560510635376,13.7563438415527,13.7566413879395,13.7569351196289,13.7572336196899,13.7575273513794,13.7578201293945,13.7581176757812,13.7584104537964,13.7587080001831,13.2265224456787,13.2116937637329,13.1968984603882,13.1821365356445,13.1674070358276,13.1527109146118,13.1380472183228,13.1234169006348,13.1088180541992,13.0942525863647,13.0797185897827,13.0652170181274,13.0507478713989,13.0363111495972,13.0219058990479,13.007532119751,12.9931898117065,12.9788799285889,12.9646015167236,12.9503536224365,12.9361381530762,12.9219532012939,12.9077987670898,12.8936758041382,12.879584312439,12.8655233383179,12.8514928817749,12.8374929428101,12.823522567749,12.8095836639404,12.79567527771,12.7817964553833,12.7679471969604,12.75412940979,12.7403402328491,12.7265815734863,12.712851524353,12.6991519927979,12.6854820251465,12.6718416213989,12.6582298278809,12.6446475982666,12.6310939788818,12.6175699234009,12.6040744781494,12.5906085968018,12.5771703720093,12.5637617111206,12.5503816604614,12.5370292663574,12.5237054824829,12.5104103088379,12.4971437454224,12.483904838562,12.4706935882568,12.4575099945068,12.4443550109863,12.431227684021,12.4181280136108,12.4050559997559,12.3920106887817,12.3789939880371,12.3660039901733,12.3530406951904,12.3401050567627,12.3271970748901,12.3143157958984,12.3014612197876,12.2886333465576,12.2758321762085,12.2630577087402,12.2503099441528,12.237587928772,12.224892616272,12.2122240066528,12.1995820999146,12.1869649887085,12.1743745803833,12.161810874939,12.1492719650269,12.1367597579956,12.1179990768433,12.0945386886597,12.0711688995361,12.0478887557983,12.0246982574463,12.00159740448,11.9785852432251,11.955659866333,11.9328231811523,11.9100742340088,11.8874101638794,11.8648338317871,11.842342376709,11.819935798645,11.7976140975952,11.7753763198853,11.752947807312,11.730354309082,11.7078475952148,11.6854276657104,11.6630926132202,11.6408433914185,11.6186780929565,11.5966196060181,11.5778570175171,11.5591554641724,11.5405139923096,11.5219326019287,11.5034112930298,11.4849491119385,11.4665460586548,11.4482021331787,11.4299163818359,11.4116897583008,11.3935203552246,11.3754091262817,11.3573551177979,11.3393583297729,11.321418762207,11.3035354614258,11.2857093811035,11.2679386138916,11.2502241134644,11.2325649261475,11.2149610519409,11.1974124908447,11.1799192428589,11.1624803543091,11.145094871521,11.1277647018433,11.1104869842529,11.0932636260986,11.0760936737061,11.0589771270752,11.0419130325317,11.0249013900757,11.007942199707,10.9910345077515,10.9741792678833,10.9573755264282,10.9406232833862,10.9239225387573,10.9072723388672,10.8906726837158,10.8741235733032,10.8576250076294,10.8411750793457,10.8247766494751,10.8084268569946,10.7921266555786,10.7758750915527,10.7596731185913,10.7435188293457,10.7274141311646,10.7113571166992,10.6953477859497,10.6793870925903,10.6634731292725,10.6476068496704,10.6317873001099,10.6160154342651,10.6002893447876,10.5846109390259,10.5689783096313,10.553391456604,10.5378503799438,10.5223560333252,10.5069065093994,10.4915018081665,10.4761428833008,10.4608287811279,10.4455595016479,10.4303340911865,10.4095811843872,10.385214805603,10.3609619140625,10.3368225097656,10.3127956390381,10.2888793945312,10.2650747299194,10.2413787841797,10.2177934646606,10.194314956665,10.1709451675415,10.1476821899414,10.1245250701904,10.1014738082886,10.0785264968872,10.0515403747559,10.024528503418,9.99766159057617,9.97093772888184,9.94435787200928,9.91791725158691,9.8916187286377,9.86545848846436,9.83943557739258,9.81355094909668,9.78780078887939,9.76218605041504,9.73670482635498,9.71135711669922,9.6861400604248,9.66105461120605,9.64247226715088,9.63160610198975,9.62076377868652,9.60994625091553,9.59915256500244,9.58838367462158,9.57763862609863,9.56691741943359,9.55622005462646,9.54554653167725,9.53489780426025,9.52427196502686,9.51366996765137,9.50309181213379,9.4925365447998,9.48200511932373,9.47149753570557,9.46101188659668,9.4505500793457,9.44011211395264,9.42969608306885,9.41930389404297,9.40893459320068,9.39858722686768,9.38826274871826,9.37796115875244,9.36768245697021,9.35742664337158,9.34719181060791,9.33698081970215,9.32679080963135,9.31662464141846,9.30647945404053,9.29635620117188,9.2862548828125,9.27617645263672,9.2661190032959,9.25608348846436,9.24606990814209,9.2360782623291,9.22610759735107,9.21615886688232,9.20623111724854,9.19632530212402,9.18644046783447,9.17657661437988,9.16673469543457,9.1569128036499,9.14711284637451,9.13733386993408,9.1275749206543,9.11783695220947,9.10812091827393,9.09842395782471,9.08874893188477,9.07909393310547,9.06945896148682,9.05984497070312,9.05025100708008,9.04067802429199,9.03112506866455,9.02159118652344,9.01207828521729,9.00258541107178,8.99311256408691,8.9836597442627,8.97422695159912,8.96481323242188,8.95541954040527,8.94604587554932,8.93669128417969,8.9273567199707,8.91804122924805,8.90874481201172,8.89946842193604,8.89021110534668,8.88097286224365,8.87175464630127,8.8625545501709,8.85337352752686,8.84421253204346,8.83506965637207,8.82594585418701,8.81684017181396,8.80775451660156,8.79868698120117,8.78963756561279
13.6425533294678,13.6428413391113,13.6431322097778,13.6434230804443,13.6437129974365,13.644003868103,13.6442956924438,13.6445837020874,13.6448774337769,13.6451654434204,13.6454544067383,13.6457490921021,13.6460371017456,13.6463298797607,13.6466178894043,13.6469097137451,13.6472005844116,13.6474905014038,13.6477813720703,13.6480722427368,13.648362159729,13.6486539840698,13.648943901062,13.6492357254028,13.6495265960693,13.6498184204102,13.6501064300537,13.6503992080688,13.6506881713867,13.6509790420532,13.6512718200684,13.6515607833862,13.6518535614014,13.6521463394165,13.6524343490601,13.6527290344238,13.6530170440674,13.6533041000366,13.6535987854004,13.6538887023926,13.6541805267334,13.6544704437256,13.6547613143921,13.6550531387329,13.6553440093994,13.6556329727173,13.6559286117554,13.6562166213989,13.6565093994141,13.6568002700806,13.6570920944214,13.6573820114136,13.6576728820801,13.6579627990723,13.2055625915527,13.1907806396484,13.1760320663452,13.1613168716431,13.1466341018677,13.131983757019,13.1173667907715,13.1027812957764,13.0882291793823,13.0737085342407,13.0592212677002,13.0447645187378,13.0303411483765,13.0159482955933,13.0015888214111,12.9872598648071,12.9729623794556,12.9586963653564,12.9444627761841,12.9302597045898,12.9160871505737,12.9019460678101,12.8878364562988,12.8737573623657,12.8597087860107,12.8456907272339,12.8317031860352,12.8177461624146,12.8038196563721,12.7899236679077,12.7760572433472,12.7622203826904,12.7484149932861,12.7346382141113,12.7208919525146,12.7071743011475,12.6934871673584,12.6798286437988,12.6662006378174,12.6526012420654,12.639030456543,12.6254892349243,12.6119775772095,12.5984945297241,12.5850400924683,12.5716142654419,12.558217048645,12.5448484420776,12.5315074920654,12.518196105957,12.5049123764038,12.4916572570801,12.4784297943115,12.4652299880981,12.4520587921143,12.4389152526855,12.425799369812,12.4127111434937,12.3996496200562,12.3866167068481,12.373610496521,12.360631942749,12.3476800918579,12.334755897522,12.3218584060669,12.308988571167,12.2961444854736,12.2833280563354,12.2705383300781,12.2577743530273,12.2450370788574,12.2323265075684,12.2196426391602,12.2069854736328,12.1943531036377,12.1817474365234,12.16916847229,12.1566143035889,12.1440868377686,12.1315851211548,12.1191091537476,12.1066579818726,12.0942335128784,12.0818338394165,12.0694599151611,12.057110786438,12.0371074676514,12.0139579772949,11.9908981323242,11.9679269790649,11.9450435638428,11.9222469329834,11.8995370864868,11.876914024353,11.8543767929077,11.8319253921509,11.8095579147339,11.7872753143311,11.7650766372681,11.7429618835449,11.7207021713257,11.6982316970825,11.6758489608765,11.6535501480103,11.6313371658325,11.6092081069946,11.5871639251709,11.5676307678223,11.5489625930786,11.5303535461426,11.5118055343628,11.4933166503906,11.4748868942261,11.4565162658691,11.4382038116455,11.4199504852295,11.4017543792725,11.383617401123,11.3655376434326,11.3475151062012,11.3295488357544,11.3116407394409,11.2937889099121,11.2759923934937,11.2582521438599,11.2405681610107,11.222939491272,11.2053661346436,11.1878471374512,11.1703834533691,11.1529741287231,11.1356191635132,11.1183176040649,11.1010704040527,11.0838756561279,11.0667343139648,11.0496463775635,11.0326108932495,11.0156288146973,10.9986972808838,10.981819152832,10.964991569519,10.9482164382935,10.9314918518066,10.9148187637329,10.8981962203979,10.8816242218018,10.86510181427,10.8486309051514,10.8322086334229,10.8158369064331,10.7995147705078,10.7832412719727,10.7670164108276,10.7508411407471,10.7347135543823,10.7186346054077,10.7026042938232,10.6866207122803,10.6706857681274,10.6547975540161,10.6389570236206,10.6231641769409,10.6074171066284,10.5917167663574,10.5760631561279,10.5604562759399,10.5448942184448,10.5293788909912,10.5139083862305,10.4984836578369,10.4831047058105,10.4677696228027,10.4524803161621,10.43723487854,10.4220342636108,10.4068784713745,10.3917655944824,10.3742113113403,10.3500099182129,10.3259220123291,10.3019456863403,10.2780799865723,10.2543239593506,10.2306785583496,10.2071418762207,10.1837129592896,10.1603918075562,10.1371765136719,10.1140670776367,10.0910634994507,10.0681638717651,10.0443477630615,10.0173749923706,9.99054622650146,9.96386051177979,9.93731784820557,9.91091537475586,9.88465309143066,9.85853004455566,9.83254337310791,9.80669403076172,9.78098106384277,9.75540256500244,9.72995662689209,9.70464324951172,9.67946147918701,9.65441036224365,9.63529872894287,9.62444877624512,9.61362266540527,9.60282039642334,9.59204292297363,9.58129024505615,9.57056045532227,9.55985546112061,9.54917430877686,9.53851699829102,9.52788257598877,9.51727294921875,9.50668621063232,9.49612426757812,9.4855842590332,9.47506809234619,9.46457576751709,9.45410633087158,9.44365978240967,9.43323612213135,9.42283535003662,9.4124584197998,9.40210342407227,9.39177131652832,9.38146209716797,9.37117576599121,9.36091232299805,9.35066986083984,9.34045124053955,9.33025455474854,9.3200798034668,9.30992698669434,9.29979610443115,9.28968811035156,9.27960205078125,9.2695369720459,9.25949478149414,9.24947357177734,9.23947429656982,9.22949600219727,9.2195405960083,9.20960521697998,9.19969177246094,9.18980026245117,9.17992877960205,9.17007923126221,9.16025066375732,9.15044403076172,9.14065742492676,9.13089179992676,9.12114715576172,9.11142253875732,9.10171985626221,9.09203720092773,9.08237457275391,9.07273387908936,9.06311225891113,9.05351161956787,9.04393100738525,9.0343713760376,9.02483177185059,9.01531219482422,9.00581169128418,8.9963321685791,8.98687267303467,8.97743225097656,8.96801280975342,8.9586124420166,8.94923114776611,8.93986988067627,8.93052864074707,8.92120742797852,8.91190433502197,8.90262126922607,8.8933572769165,8.88411235809326,8.87488746643066,8.86568164825439,8.85649394989014,8.84732627868652,8.83817672729492,8.82904624938965,8.8199348449707,8.81084251403809,8.80176830291748,8.7927131652832,8.78367710113525,8.774658203125
13.5446395874023,13.5449266433716,13.5452136993408,13.5454978942871,13.545786857605,13.5460720062256,13.5463581085205,13.5466451644897,13.546932220459,13.5472183227539,13.5475053787231,13.5477886199951,13.5480794906616,13.5483617782593,13.5486488342285,13.5489358901978,13.549222946167,13.5495109558105,13.5497961044312,13.5500822067261,13.5503711700439,13.5506563186646,13.5509405136108,13.5512285232544,13.551513671875,13.5518035888672,13.5520887374878,13.5523767471313,13.552661895752,13.5529489517212,13.5532341003418,13.5535230636597,13.553807258606,13.5540962219238,13.5543804168701,13.554669380188,13.5549564361572,13.5552425384521,13.5555267333984,13.5558185577393,13.5561027526855,13.5563917160034,13.556676864624,13.5569629669189,13.5572519302368,13.5575389862061,13.5578231811523,13.5581121444702,13.5583972930908,13.5586853027344,13.1846685409546,13.1699333190918,13.1552314758301,13.1405630111694,13.1259260177612,13.1113224029541,13.0967502593994,13.0822114944458,13.0677042007446,13.0532302856445,13.0387868881226,13.0243759155273,13.0099973678589,12.9956502914429,12.9813346862793,12.9670505523682,12.9527978897095,12.9385757446289,12.9243860244751,12.9102268218994,12.8960990905762,12.8820009231567,12.8679351806641,12.8538990020752,12.8398933410645,12.8259191513062,12.8119745254517,12.7980604171753,12.7841768264771,12.7703227996826,12.7564992904663,12.7427053451538,12.7289409637451,12.7152070999146,12.7015018463135,12.6878271102905,12.6741809844971,12.6605644226074,12.6469774246216,12.6334190368652,12.6198902130127,12.6063899993896,12.5929183959961,12.579475402832,12.5660619735718,12.5526762008667,12.5393199920654,12.5259914398193,12.5126914978027,12.4994192123413,12.4861755371094,12.4729595184326,12.4597721099854,12.4466114044189,12.433479309082,12.4203748703003,12.4072980880737,12.3942489624023,12.3812265396118,12.3682317733765,12.3552646636963,12.342324256897,12.3294115066528,12.3165254592896,12.3036661148071,12.2908334732056,12.2780275344849,12.265248298645,12.252495765686,12.2397699356079,12.2270708084106,12.2143974304199,12.2017507553101,12.1891298294067,12.17653465271,12.163966178894,12.1514234542847,12.1389055252075,12.1264152526855,12.1139488220215,12.1015090942383,12.0890951156616,12.0767059326172,12.0643424987793,12.0520038604736,12.0396909713745,12.0274028778076,12.0151395797729,12.0029020309448,11.9906892776489,11.9785003662109,11.9572877883911,11.9344453811646,11.9116897583008,11.8890199661255,11.866436958313,11.8439388275146,11.8215265274048,11.7991991043091,11.7769556045532,11.7547950744629,11.7327194213867,11.7107248306274,11.6886320114136,11.6662855148315,11.6440238952637,11.62184715271,11.5997543334961,11.5777454376221,11.5574235916138,11.5387878417969,11.5202121734619,11.5016956329346,11.4832391738892,11.4648418426514,11.4465026855469,11.42822265625,11.4100008010864,11.3918371200562,11.3737316131592,11.3556833267212,11.3376913070679,11.3197574615479,11.3018798828125,11.2840576171875,11.2662925720215,11.2485828399658,11.2309293746948,11.2133312225342,11.1957874298096,11.1782989501953,11.1608648300171,11.1434850692749,11.1261587142944,11.1088876724243,11.0916690826416,11.0745038986206,11.057391166687,11.0403318405151,11.023325920105,11.0063714981079,10.9894685745239,10.9726181030273,10.9558191299438,10.9390716552734,10.9223756790161,10.9057302474976,10.8891353607178,10.8725900650024,10.8560962677002,10.8396520614624,10.8232574462891,10.8069124221802,10.7906169891357,10.7743701934814,10.7581720352173,10.7420234680176,10.7259225845337,10.7098693847656,10.6938648223877,10.6779088973999,10.6619987487793,10.6461372375488,10.6303224563599,10.6145544052124,10.5988330841064,10.583158493042,10.5675296783447,10.551947593689,10.5364112854004,10.520920753479,10.5054750442505,10.4900751113892,10.4747200012207,10.4594106674194,10.4441452026367,10.4289245605469,10.4137477874756,10.3986148834229,10.383526802063,10.3684816360474,10.3534803390503,10.3385229110718,10.3150444030762,10.2911176681519,10.2673025131226,10.2435970306396,10.2200002670288,10.19651222229,10.173131942749,10.1498584747314,10.1266918182373,10.1036310195923,10.0806741714478,10.0578212738037,10.0350723266602,10.0102310180664,9.98344135284424,9.9567928314209,9.93028831481934,9.90392303466797,9.87769794464111,9.85161018371582,9.82566165924072,9.79984855651855,9.77417087554932,9.74862670898438,9.72321701049805,9.69793796539307,9.67279148101807,9.64777374267578,9.62813568115234,9.61730194091797,9.6064920425415,9.59570598602295,9.58494472503662,9.5742073059082,9.5634937286377,9.5528039932251,9.54213905334473,9.53149700164795,9.52087879180908,9.51028442382812,9.49971389770508,9.48916625976562,9.47864246368408,9.46814155578613,9.45766448974609,9.44720935821533,9.43677806854248,9.42637062072754,9.41598510742188,9.4056224822998,9.39528274536133,9.38496589660645,9.37467193603516,9.36439990997314,9.35415077209473,9.34392356872559,9.33371925354004,9.32353782653809,9.31337738037109,9.3032398223877,9.29312324523926,9.28302955627441,9.27295780181885,9.26290702819824,9.25287914276123,9.24287223815918,9.23288726806641,9.22292327880859,9.21298217773438,9.2030611038208,9.1931619644165,9.18328380584717,9.17342662811279,9.1635913848877,9.15377712249756,9.14398288726807,9.13421058654785,9.12445831298828,9.11472797393799,9.10501766204834,9.09532737731934,9.08565902709961,9.07601070404053,9.06638240814209,9.0567741394043,9.04718780517578,9.03762054443359,9.02807331085205,9.01854705810547,9.00904083251953,8.99955368041992,8.99008750915527,8.98064041137695,8.97121429443359,8.96180725097656,8.95241928100586,8.9430513381958,8.93370342254639,8.92437553405762,8.91506576538086,8.90577602386475,8.89650535583496,8.88725471496582,8.87802314758301,8.86880970001221,8.85961627960205,8.85044193267822,8.84128665924072,8.83214950561523,8.82303142547607,8.81393241882324,8.80485248565674,8.79579067230225,8.78674793243408,8.77772331237793,8.76871776580811,8.75973033905029
