16.2589511871338,16.2594318389893,16.2599182128906,16.2603988647461,16.2608871459961,16.2613677978516,16.2618522644043,16.262336730957,16.2628231048584,16.2633037567139,16.2637901306152,16.2642707824707,16.2647571563721,16.2652397155762,16.2657279968262,16.2662086486816,16.266695022583,16.2671775817871,16.2676639556885,16.2681446075439,16.2686309814453,16.269115447998,16.2696018218994,16.2700824737549,16.2705707550049,16.2710514068604,16.2715396881104,16.2720203399658,16.2725067138672,16.2729911804199,16.2734756469727,16.2739582061768,16.2744445800781,16.2749290466309,16.2754154205322,16.2758979797363,16.2763843536377,16.2768669128418,16.2773532867432,16.2778339385986,16.2783241271973,16.27880859375,16.2792911529541,16.2797756195068,16.2802639007568,16.2807483673096,16.2812366485596,16.281717300415,16.282205581665,16.2826881408691,16.2831764221191,16.2836608886719,16.2841472625732,16.2846298217773,16.2851142883301,16.2856044769287,16.2860870361328,16.2865734100342,16.2870559692383,16.2875461578369,16.2880268096924,16.2885150909424,16.2889976501465,16.2894878387451,16.2899703979492,16.2904567718506,16.2909412384033,16.2914295196533,16.2919139862061,16.2924003601074,16.2928848266602,16.2933731079102,16.2938556671143,16.2943420410156,16.294828414917,16.295316696167,16.2957992553711,16.2962894439697,16.2967720031738,16.2972602844238,16.2977428436279,16.2982330322266,16.2987174987793,16.2992038726807,16.2996864318848,16.3001766204834,16.3006610870361,16.3011455535889,16.3016338348389,16.3021221160889,16.302604675293,16.303092956543,16.303581237793,16.3040676116943,16.3045539855957,16.3050422668457,16.3055267333984,16.3060131072998,16.3064994812012,16.3069896697998,16.3074722290039,16.3079624176025,16.3084468841553,16.3089351654053,16.3094177246094,16.3099060058594,16.3103904724121,16.3108825683594,16.3113670349121,16.3118515014648,16.3123397827148,16.3128299713135,16.3133125305176,16.3138046264648,16.3142871856689,16.3147792816162,16.3152618408203,16.3157482147217,16.3162384033203,16.3167247772217,16.3172130584717,16.317699432373,16.3181858062744,16.3186740875244,16.3191604614258,16.319652557373,16.3201370239258,16.3206214904785,16.3211097717285,16.3216018676758,16.3220844268799,16.3225765228271,16.3230571746826,16.3235511779785,16.3240356445312,16.3245220184326,16.325008392334,16.3255023956299,16.3259887695312,16.3264751434326,16.326961517334,16.3274517059326,16.3279399871826,16.328426361084,16.328914642334,16.329402923584,16.3298931121826,16.3303775787354,16.3308696746826,16.3313541412354,16.3318462371826,16.332332611084,16.3308334350586,16.3093452453613,16.287914276123,16.2665405273438,16.2452220916748,16.2239589691162,16.2027530670166,16.1816005706787,16.1605052947998,16.1394634246826,16.1184768676758,16.0975437164307,16.0766658782959,16.0558414459229,16.0350723266602,16.0143547058105,15.9936923980713,15.9730825424194,13.6605033874512,13.6306343078613,13.6008949279785,13.5712852478027,13.5418043136597,13.5124502182007,13.4832239151001,13.4541244506836,13.4251489639282,13.3962993621826,13.3675727844238,13.3389682769775,13.3104867935181,13.2821273803711,13.2538871765137,13.2257680892944,13.1977672576904,13.1698846817017,13.1421203613281,13.1144723892212,13.0869398117065,13.0595235824585,13.0322217941284,13.005033493042,12.9779596328735,12.9509973526001,12.9241466522217,12.8974075317383,12.8707780838013,12.844259262085,12.8178491592407,12.7915468215942,12.7653532028198,12.7392663955688,12.713285446167,12.6874103546143,12.6616411209106,12.6359758377075,12.6104145050049,12.5849561691284,12.5596008300781,12.5340156555176,12.5082778930664,12.48264503479,12.4571180343628,12.4316940307617,12.4063739776611,12.381157875061,12.3560428619385,12.3310298919678,12.3061180114746,12.281307220459,12.2565946578979,12.2319831848145,12.2074689865112,12.1830539703369,12.1587352752686,12.1345148086548,12.1103897094727,12.0863599777222,12.0624265670776,12.0385866165161,12.0148410797119,11.991189956665,11.9676303863525,11.944164276123,11.9207897186279,11.9002828598022,11.8804607391357,11.8607053756714,11.8410158157349,11.8213911056519,11.8018312454224,11.7823362350464,11.7629051208496,11.743537902832,11.7242345809937,11.7049951553345,11.6858186721802,11.6667041778564,11.6476526260376,11.6286630630493,11.6097354888916,11.5908689498901,11.5720643997192,11.5533208847046,11.5346374511719,11.5160140991211,11.4974508285522,11.4789476394653,11.460503578186,11.435492515564,11.4060277938843,11.3767137527466,11.3475503921509,11.3185358047485,11.2896699905396,11.260950088501,11.2323760986328,11.2039480209351,11.1756620407104,11.1475191116333,11.119517326355,11.0916566848755,11.0639343261719,11.0363512039185,11.008903503418,10.981593132019,10.954418182373,10.9273777008057,10.9004697799683,10.8736934661865,10.8470487594604,10.8205347061157,10.794150352478,10.7678937911987,10.7417640686035,10.7157621383667,10.6898851394653,10.661319732666,10.6308870315552,10.6006278991699,10.5705413818359,10.540623664856,10.5108757019043,10.481294631958,10.4518804550171,10.4226303100586,10.3935432434082,10.3646192550659,10.3358545303345,10.3072490692139,10.2788019180298,10.2505121231079,10.222375869751,10.1943950653076,10.1665668487549,10.1388902664185,10.1113634109497,10.0839853286743,10.0567560195923,10.0296726226807,10.0027351379395,9.97594165802002,9.94929122924805,9.92278385162354,9.89641571044922,9.87018871307373,9.84409999847412,9.81814765930176,9.79233264923096,9.77783966064453,9.7665491104126,9.75528430938721,9.74404525756836,9.73283290863037,9.72164535522461,9.71048450469971,9.69934844970703,9.6882381439209,9.67715358734131,9.66609382629395,9.65505981445312,9.64405059814453,9.63306713104248,9.62210845947266,9.61117362976074,9.60026454925537,9.58938026428223,9.57852077484131,9.5676851272583,9.55687427520752,9.54608821868896,9.53532600402832,9.5245885848999,9.51387500762939,9.5031852722168,9.49251937866211,9.48187732696533,9.47126007080078,9.46066570281982
16.1204452514648,16.120922088623,16.1213989257812,16.1218700408936,16.122350692749,16.1228218078613,16.1233024597168,16.1237735748291,16.1242523193359,16.1247272491455,16.1252040863037,16.1256771087646,16.1261558532715,16.1266307830811,16.1271095275879,16.1275825500488,16.1280612945557,16.1285305023193,16.1290111541748,16.1294841766357,16.1299648284912,16.1304378509521,16.1309185028076,16.1313877105713,16.1318683624268,16.1323432922363,16.1328201293945,16.1332950592041,16.1337738037109,16.1342506408691,16.1347255706787,16.1352005004883,16.1356792449951,16.1361560821533,16.1366348266602,16.1371078491211,16.1375827789307,16.1380596160889,16.1385383605957,16.1390151977539,16.1394920349121,16.1399688720703,16.1404457092285,16.1409225463867,16.1413993835449,16.1418743133545,16.14235496521,16.1428279876709,16.1433067321777,16.1437854766846,16.1442604064941,16.1447372436523,16.1452140808105,16.1456928253174,16.146167755127,16.1466503143311,16.147123336792,16.1476020812988,16.1480751037598,16.1485576629639,16.1490345001221,16.1495113372803,16.1499843597412,16.1504650115967,16.1509418487549,16.1514186859131,16.1518936157227,16.1523742675781,16.1528491973877,16.1533298492432,16.1538047790527,16.1542835235596,16.1547584533691,16.1552410125732,16.1557159423828,16.1561946868896,16.1566715240479,16.1571502685547,16.1576271057129,16.1581058502197,16.1585865020752,16.1590614318848,16.1595363616943,16.1600189208984,16.1604957580566,16.1609745025635,16.1614513397217,16.1619281768799,16.1624069213867,16.1628875732422,16.1633605957031,16.1638412475586,16.1643199920654,16.1648006439209,16.1652736663818,16.1657562255859,16.1662311553955,16.1667098999023,16.1671867370605,16.167667388916,16.1681461334229,16.1686267852783,16.1690998077393,16.1695823669434,16.1700572967529,16.1705379486084,16.1710147857666,16.1714954376221,16.1719741821289,16.1724548339844,16.1729297637939,16.1734104156494,16.1738891601562,16.1743679046631,16.1748466491699,16.1753253936768,16.1758041381836,16.1762828826904,16.1767597198486,16.1772384643555,16.1777153015137,16.178201675415,16.1786785125732,16.1791591644287,16.1796360015869,16.1801128387451,16.1805934906006,16.1810741424561,16.1815528869629,16.1820297241211,16.1825084686279,16.1829929351807,16.1834678649902,16.1839504241943,16.1844291687012,16.184907913208,16.1853866577148,16.1858692169189,16.1863441467285,16.186824798584,16.1873073577881,16.1877841949463,16.1882667541504,16.1887474060059,16.1892280578613,16.1897010803223,16.1901817321777,16.1906623840332,16.19114112854,16.1916217803955,16.1921005249023,16.1925811767578,16.1930618286133,16.1935386657715,16.1940231323242,16.187671661377,16.166561126709,16.1455020904541,16.1245002746582,16.103551864624,16.0826587677002,16.0618190765381,16.0410327911377,16.0203018188477,15.999623298645,15.9789981842041,15.9584264755249,14.7809629440308,13.6468162536621,13.6170063018799,13.587327003479,13.5577754974365,13.5283527374268,13.4990577697754,13.4698896408081,13.4408464431763,13.4119291305542,13.3831357955933,13.3544654846191,13.3259172439575,13.2974920272827,13.2691869735718,13.2410020828247,13.2129373550415,13.1849908828735,13.1571626663208,13.1294507980347,13.1018562316895,13.0743770599365,13.0470132827759,13.0197639465332,12.9926280975342,12.9656047821045,12.9386940002441,12.9118938446045,12.8852052688599,12.8586263656616,12.8321571350098,12.8057975769043,12.7795448303223,12.753399848938,12.7273616790771,12.7014293670654,12.6756029129028,12.649881362915,12.6242637634277,12.5987491607666,12.573338508606,12.5480289459229,12.5228223800659,12.4974365234375,12.4718475341797,12.446364402771,12.4209852218628,12.3957090377808,12.3705348968506,12.3454637527466,12.3204936981201,12.2956237792969,12.2708549499512,12.2461853027344,12.2216148376465,12.1971426010132,12.1727685928345,12.1484909057617,12.1243104934692,12.1002264022827,12.0762376785278,12.0523433685303,12.02854347229,12.0048379898071,11.9812250137329,11.9577054977417,11.9342775344849,11.9109420776367,11.8896369934082,11.8698511123657,11.8501300811768,11.8304758071899,11.8108854293823,11.7913608551025,11.771900177002,11.7525033950806,11.7331705093384,11.7139015197754,11.6946954727173,11.6755523681641,11.6564722061157,11.6374540328979,11.6184978485107,11.5996026992798,11.5807695388794,11.5619974136353,11.5432863235474,11.5246353149414,11.5060443878174,11.4875135421753,11.4690418243408,11.4506301879883,11.432276725769,11.4139823913574,11.3928165435791,11.3635702133179,11.3344745635986,11.3055267333984,11.2767267227173,11.2480726242065,11.2195644378662,11.1912002563477,11.1629791259766,11.1349000930786,11.1069612503052,11.0791625976562,11.0515031814575,11.0239810943604,10.9965963363647,10.9693460464478,10.942232131958,10.9152507781982,10.8884029388428,10.8616857528687,10.8351001739502,10.8086442947388,10.7823171615601,10.7561178207397,10.7300462722778,10.7040996551514,10.678279876709,10.6525831222534,10.6228799819946,10.5926666259766,10.5626249313354,10.5327520370483,10.5030479431152,10.4735116958618,10.4441404342651,10.4149341583252,10.385890007019,10.3570079803467,10.3282852172852,10.2997226715088,10.2713165283203,10.243067741394,10.2149724960327,10.1870317459106,10.1592435836792,10.1316070556641,10.1041193008423,10.0767803192139,10.0495891571045,10.0225448608398,9.99564552307129,9.96889019012451,9.9422779083252,9.91580677032471,9.88947677612305,9.86328601837158,9.837233543396,9.81131839752197,9.7855396270752,9.77056694030762,9.75929355621338,9.74804496765137,9.73682308197021,9.72562694549561,9.71445655822754,9.70331192016602,9.69219207763672,9.68109893798828,9.67003059387207,9.65898704528809,9.64796924591064,9.63697624206543,9.62600803375244,9.615065574646,9.60414695739746,9.59325408935547,9.58238506317139,9.57154178619385,9.56072235107422,9.5499267578125,9.53915596008301,9.52840995788574,9.51768779754639,9.50698947906494,9.49631500244141,9.4856653213501,9.47503852844238,9.46443653106689,9.453857421875,9.44330215454102
15.9842834472656,15.9847469329834,15.9852180480957,15.9856824874878,15.9861526489258,15.9866209030151,15.9870882034302,15.9875564575195,15.9880247116089,15.9884901046753,15.9889612197876,15.9894237518311,15.9898958206177,15.9903612136841,15.9908304214478,15.9912967681885,15.9917697906494,15.9922323226929,15.9927024841309,15.9931726455688,15.9936389923096,15.9941062927246,15.9945764541626,15.9950408935547,15.9955148696899,15.995979309082,15.9964504241943,15.9969148635864,15.9973831176758,15.9978513717651,15.9983224868774,15.9987878799438,15.9992599487305,15.9997253417969,16.0001945495605,16.0006637573242,16.0011367797852,16.0016021728516,16.0020732879639,16.0025386810303,16.0030117034912,16.0034790039062,16.0039463043213,16.0044174194336,16.0048866271973,16.0053539276123,16.005823135376,16.0062942504883,16.0067615509033,16.0072288513184,16.007698059082,16.0081672668457,16.0086345672607,16.0091037750244,16.0095729827881,16.0100440979004,16.0105113983154,16.0109844207764,16.0114498138428,16.0119190216064,16.0123901367188,16.0128593444824,16.0133266448975,16.0137977600098,16.0142650604248,16.0147342681885,16.0152015686035,16.0156726837158,16.0161418914795,16.0166149139404,16.0170803070068,16.0175514221191,16.0180206298828,16.0184898376465,16.0189590454102,16.0194282531738,16.0198993682861,16.0203685760498,16.0208358764648,16.0213088989258,16.0217781066895,16.0222473144531,16.0227146148682,16.0231876373291,16.0236549377441,16.0241298675537,16.0245971679688,16.0250701904297,16.0255355834961,16.0260066986084,16.0264739990234,16.0269470214844,16.0274181365967,16.0278873443604,16.0283546447754,16.0288276672363,16.0292987823486,16.0297679901123,16.0302391052246,16.0307083129883,16.031177520752,16.0316467285156,16.0321178436279,16.0325908660889,16.0330581665039,16.0335311889648,16.0340023040771,16.0344696044922,16.0349407196045,16.0354118347168,16.0358829498291,16.0363540649414,16.0368232727051,16.0372982025146,16.0377655029297,16.0382347106934,16.0387077331543,16.0391807556152,16.0396499633789,16.0401210784912,16.0405883789062,16.0410652160645,16.0415306091309,16.0420036315918,16.0424709320068,16.0429458618164,16.0434150695801,16.0438861846924,16.0443572998047,16.0448322296143,16.0452995300293,16.0457706451416,16.0462455749512,16.0467147827148,16.0471858978271,16.0476608276367,16.0481338500977,16.0486011505127,16.0490741729736,16.0495433807373,16.0500164031982,16.0504856109619,16.0509567260742,16.0514297485352,16.0519027709961,16.0523700714111,16.0528430938721,16.0533180236816,16.0537891387939,16.054256439209,16.0547332763672,16.0552024841309,16.0556735992432,16.0561447143555,16.056619644165,16.0570888519287,16.0575637817383,16.058032989502,16.0470008850098,16.026252746582,16.0055599212646,15.9849185943604,15.9643316268921,15.9437980651855,15.9233160018921,14.0480842590332,13.6331558227539,13.6034059524536,13.573784828186,13.5442934036255,13.514928817749,13.485692024231,13.4565811157227,13.4275960922241,13.3987350463867,13.3699979782104,13.341383934021,13.312891960144,13.2845220565796,13.256272315979,13.2281427383423,13.2001314163208,13.1722393035889,13.1444644927979,13.1168069839478,13.0892648696899,13.0618391036987,13.0345268249512,13.0073299407959,12.98024559021,12.9532737731934,12.9264135360718,12.8996648788452,12.8730268478394,12.8464984893799,12.8200788497925,12.7937679290771,12.7675647735596,12.7414693832397,12.7154788970947,12.6895952224731,12.6638174057007,12.6381425857544,12.6125726699829,12.5871057510376,12.5617418289185,12.5364789962769,12.5113182067871,12.4862585067749,12.4610691070557,12.4356298446655,12.4102935791016,12.3850612640381,12.3599309921265,12.3349018096924,12.3099746704102,12.2851476669312,12.2604207992554,12.2357931137085,12.2112646102905,12.1868333816528,12.1625003814697,12.1382646560669,12.1141242980957,12.0900802612305,12.0661315917969,12.0422773361206,12.0185174942017,11.9948511123657,11.9712781906128,11.9477968215942,11.9244079589844,11.9011106491089,11.8790102005005,11.8592596054077,11.8395738601685,11.819953918457,11.8003988265991,11.7809085845947,11.7614822387695,11.7421207427979,11.7228221893311,11.7035865783691,11.6844148635864,11.6653051376343,11.646258354187,11.6272735595703,11.6083498001099,11.58948802948,11.5706882476807,11.5519485473633,11.5332689285278,11.5146503448486,11.4960918426514,11.477593421936,11.459153175354,11.4407730102539,11.4224519729614,11.4041891098022,11.3859844207764,11.3678379058838,11.3497486114502,11.3214282989502,11.2925472259521,11.2638130187988,11.2352247238159,11.2067813873291,11.1784820556641,11.1503238677979,11.1223087310791,11.0944337844849,11.0666980743408,11.0390996932983,11.0116395950317,10.9843158721924,10.9571266174316,10.9300727844238,10.903151512146,10.8763628005981,10.849705696106,10.8231782913208,10.7967805862427,10.7705106735229,10.7443685531616,10.7183542251587,10.6924638748169,10.6666994094849,10.6410579681396,10.6148853302002,10.5847177505493,10.5547199249268,10.5248918533325,10.4952325820923,10.4657402038574,10.436411857605,10.4072484970093,10.3782472610474,10.3494081497192,10.3207273483276,10.2922067642212,10.2638416290283,10.2356338500977,10.2075796127319,10.1796798706055,10.151930809021,10.1243333816528,10.0968856811523,10.0695858001709,10.0424337387085,10.0154275894165,9.98856639862061,9.96184921264648,9.93527412414551,9.90884017944336,9.88254737854004,9.8563928604126,9.83037662506104,9.80449771881104,9.77875423431396,9.7633056640625,9.75204849243164,9.74081707000732,9.72961139678955,9.71843242645264,9.70727825164795,9.6961498260498,9.6850471496582,9.67396926879883,9.662917137146,9.65189075469971,9.64088821411133,9.62991142272949,9.6189603805542,9.60803318023682,9.59713077545166,9.58625316619873,9.57540035247803,9.56457233428955,9.5537691116333,9.54298973083496,9.53223419189453,9.52150344848633,9.51079654693604,9.50011444091797,9.4894552230835,9.47882080078125,9.4682092666626,9.45762252807617,9.44705867767334,9.43651866912842,9.42600250244141
15.8504018783569,15.8508596420288,15.8513212203979,15.8517789840698,15.852240562439,15.8526983261108,15.853157043457,15.8536186218262,15.8540811538696,15.8545398712158,15.8550024032593,15.8554620742798,15.855920791626,15.8563804626465,15.856840133667,15.8573007583618,15.8577632904053,15.8582172393799,15.8586807250977,15.8591413497925,15.8596019744873,15.8600625991821,15.8605241775513,15.8609819412231,15.8614435195923,15.8619012832642,15.8623628616333,15.8628244400024,15.8632831573486,15.8637456893921,15.8642072677612,15.8646669387817,15.8651256561279,15.8655920028687,15.8660478591919,15.8665113449097,15.8669710159302,15.8674345016479,15.8678913116455,15.8683519363403,15.8688125610352,15.8692760467529,15.8697338104248,15.8701972961426,15.8706588745117,15.8711166381836,15.8715810775757,15.8720397949219,15.872501373291,15.8729639053345,15.8734226226807,15.8738880157471,15.8743467330933,15.8748064041138,15.8752689361572,15.8757314682007,15.8761911392212,15.876654624939,15.8771114349365,15.8775749206543,15.8780384063721,15.8784990310669,15.8789596557617,15.8794231414795,15.8798809051514,15.8803453445435,15.8808040618896,15.8812685012817,15.8817300796509,15.8821887969971,15.8826503753662,15.8831157684326,15.8835744857788,15.8840370178223,15.8844995498657,15.8849620819092,15.8854217529297,15.8858842849731,15.886344909668,15.8868112564087,15.8872680664062,15.887731552124,15.8881921768188,15.8886556625366,15.8891172409058,15.8895807266235,15.8900394439697,15.8905038833618,15.8909616470337,15.891429901123,15.8918886184692,15.8923530578613,15.8928127288818,15.8932781219482,15.8937368392944,15.8942022323608,15.8946647644043,15.8951253890991,15.8955879211426,15.8960514068604,15.8965110778809,15.8969774246216,15.8974351882935,15.8979015350342,15.898362159729,15.8988265991211,15.8992872238159,15.899751663208,15.9002132415771,15.9006776809692,15.9011363983154,15.9016017913818,15.902063369751,15.9025259017944,15.9029874801636,15.90345287323,15.9039154052734,15.9043788909912,15.9048414230347,15.9053039550781,15.9057674407959,15.9062280654907,15.9066905975342,15.9071578979492,15.907618522644,15.9080820083618,15.9085493087769,15.909010887146,15.9094753265381,15.9099359512329,15.9104013442993,15.9108629226685,15.9113245010376,15.911789894104,15.9122552871704,15.9127140045166,15.9131832122803,15.9136419296265,15.9141082763672,15.9145708084106,15.9150342941284,15.9154968261719,15.9159641265869,15.9164237976074,15.9168872833252,15.9173517227173,15.9178152084351,15.9182796478271,15.9187469482422,15.9192047119141,15.9196729660034,15.9201316833496,15.9205989837646,15.9210615158081,15.9215259552002,15.9219884872437,15.922456741333,15.9229164123535,15.9233818054199,15.9238481521606,15.9243106842041,15.9087514877319,15.8883600234985,13.6493444442749,13.6195230484009,13.5898323059082,13.5602712631226,13.530837059021,13.5015316009521,13.4723520278931,13.4432992935181,13.4143705368042,13.3855667114258,13.3568859100342,13.3283281326294,13.2998924255371,13.2715768814087,13.2433824539185,13.2153072357178,13.1873502731323,13.1595125198364,13.1317911148071,13.1041870117188,13.0766983032227,13.0493240356445,13.0220651626587,12.9949188232422,12.9678869247437,12.9409656524658,12.9141569137573,12.8874588012695,12.8608713150024,12.8343925476074,12.8080234527588,12.7817611694336,12.7556076049805,12.7295598983765,12.7036190032959,12.6777839660645,12.6520528793335,12.6264266967773,12.6009035110474,12.5754842758179,12.5501661300659,12.5249509811401,12.4998359680176,12.4748220443726,12.4499073028564,12.4249143600464,12.399621963501,12.3744325637817,12.3493452072144,12.3243589401245,12.2994737625122,12.2746896743774,12.2500047683716,12.2254190444946,12.2009315490723,12.1765422821045,12.1522493362427,12.1280546188354,12.1039552688599,12.0799512863159,12.0560426712036,12.0322284698486,12.0085077285767,11.984881401062,11.9613466262817,11.9379053115845,11.9145545959473,11.8912954330444,11.8684024810791,11.848687171936,11.8290367126465,11.8094520568848,11.7899312973022,11.7704753875732,11.7510833740234,11.7317552566528,11.7124910354614,11.6932897567749,11.6741514205933,11.6550760269165,11.636061668396,11.6171102523804,11.598219871521,11.5793914794922,11.5606231689453,11.541916847229,11.5232696533203,11.5046834945679,11.486156463623,11.4676895141602,11.4492816925049,11.4309329986572,11.4126434326172,11.3944120407104,11.376238822937,11.3581228256226,11.3400650024414,11.3220643997192,11.3041210174561,11.2795972824097,11.2509288787842,11.2224063873291,11.1940279006958,11.16579246521,11.1376991271973,11.1097459793091,11.0819339752197,11.0542602539062,11.0267248153687,10.9993257522583,10.9720630645752,10.9449348449707,10.9179401397705,10.8910789489746,10.8643493652344,10.8377504348755,10.8112812042236,10.7849416732788,10.7587299346924,10.73264503479,10.7066869735718,10.680853843689,10.655143737793,10.6295585632324,10.6040964126587,10.5767793655396,10.5468273162842,10.5170440673828,10.4874286651611,10.4579792022705,10.4286956787109,10.3995752334595,10.3706169128418,10.3418188095093,10.3131809234619,10.2847013473511,10.2563781738281,10.2282104492188,10.2001981735229,10.1723375320435,10.1446294784546,10.1170711517334,10.0896625518799,10.0624027252197,10.03528881073,10.0083208084106,9.9814977645874,9.95481777191162,9.92827987670898,9.90188407897949,9.8756275177002,9.84951019287109,9.82353019714355,9.79768753051758,9.77197933197021,9.75605487823486,9.74481391906738,9.73359966278076,9.72241115570068,9.71124744415283,9.70011043548584,9.68899822235107,9.67791175842285,9.66685104370117,9.65581512451172,9.64480400085449,9.63381862640381,9.62285804748535,9.61192226409912,9.60101127624512,9.59012508392334,9.57926368713379,9.56842613220215,9.55761337280273,9.54682540893555,9.53606224060059,9.52532291412354,9.51460742950439,9.50391578674316,9.49324893951416,9.48260593414307,9.47198581695557,9.46139049530029,9.45081806182861,9.44026947021484,9.42974472045898,9.41924381256104,9.40876483917236
15.7187423706055,15.7191915512085,15.7196464538574,15.7200994491577,15.7205514907837,15.721004486084,15.72145652771,15.7219066619873,15.7223625183105,15.7228126525879,15.7232656478882,15.7237195968628,15.7241697311401,15.7246236801147,15.7250776290894,15.725528717041,15.7259826660156,15.7264308929443,15.7268886566162,15.7273397445679,15.7277917861938,15.7282428741455,15.7286987304688,15.7291469573975,15.7296028137207,15.7300586700439,15.730507850647,15.7309637069702,15.7314128875732,15.7318696975708,15.7323226928711,15.7327728271484,15.7332258224487,15.7336826324463,15.7341299057007,15.7345867156982,15.7350378036499,15.7354917526245,15.7359466552734,15.7363977432251,15.7368488311768,15.7373075485229,15.7377557754517,15.7382106781006,15.7386655807495,15.7391185760498,15.7395706176758,15.7400226593018,15.7404756546021,15.7409315109253,15.7413845062256,15.7418403625488,15.7422943115234,15.7427444458008,15.7431974411011,15.7436542510986,15.7441053390503,15.7445621490479,15.7450103759766,15.7454671859741,15.745922088623,15.7463731765747,15.7468280792236,15.7472829818726,15.7477350234985,15.7481899261475,15.7486448287964,15.7490978240967,15.7495498657227,15.7500057220459,15.7504587173462,15.7509145736694,15.7513647079468,15.75182056427,15.7522773742676,15.7527313232422,15.7531843185425,15.75364112854,15.7540922164917,15.7545490264893,15.754997253418,15.7554550170898,15.7559099197388,15.7563638687134,15.7568159103394,15.7572736740112,15.7577257156372,15.7581815719604,15.7586364746094,15.7590923309326,15.7595443725586,15.7599973678589,15.7604532241821,15.7609100341797,15.761360168457,15.7618198394775,15.7622728347778,15.7627267837524,15.7631797790527,15.7636375427246,15.7640914916992,15.7645454406738,15.7649965286255,15.7654571533203,15.7659091949463,15.7663640975952,15.7668190002441,15.767276763916,15.767725944519,15.7681846618652,15.7686367034912,15.7690954208374,15.7695484161377,15.7700042724609,15.7704610824585,15.7709169387817,15.771369934082,15.7718267440796,15.7722835540771,15.7727346420288,15.7731943130493,15.773645401001,15.7741022109985,15.7745599746704,15.7750148773193,15.7754688262939,15.7759275436401,15.7763786315918,15.776837348938,15.7772922515869,15.7777481079102,15.7782030105591,15.7786560058594,15.7791118621826,15.7795705795288,15.7800235748291,15.7804832458496,15.7809362411499,15.7813930511475,15.781849861145,15.7823066711426,15.7827577590942,15.7832174301147,15.7836685180664,15.7841262817383,15.7845840454102,15.7850389480591,15.7854928970337,15.7859544754028,15.7864065170288,15.786865234375,15.7873201370239,15.7877759933472,15.7882318496704,15.7886877059937,15.7891435623169,15.7896022796631,15.7900552749634,15.7905149459839,15.7909688949585,14.8716192245483,13.6356792449951,13.605917930603,13.576286315918,13.5467834472656,13.5174083709717,13.4881610870361,13.459038734436,13.43004322052,13.4011716842651,13.3724241256714,13.3437995910645,13.3152980804443,13.2869176864624,13.2586574554443,13.2305173873901,13.2024965286255,13.1745948791504,13.1468095779419,13.1191425323486,13.0915908813477,13.064154624939,13.0368337631226,13.0096263885498,12.9825325012207,12.9555511474609,12.9286823272705,12.9019241333008,12.8752765655518,12.8487386703491,12.8223094940186,12.7959899902344,12.7697772979736,12.7436723709106,12.7176742553711,12.6917810440063,12.6659936904907,12.6403112411499,12.6147317886353,12.5892562866211,12.5638837814331,12.5386123657227,12.5134429931641,12.488374710083,12.4634065628052,12.4385375976562,12.4137678146362,12.3889675140381,12.3638210296631,12.3387765884399,12.3138341903687,12.2889909744263,12.2642488479614,12.2396059036255,12.2150621414185,12.1906156539917,12.1662673950195,12.1420164108276,12.1178617477417,12.0938024520874,12.0698394775391,12.0459699630737,12.02219581604,11.9985151290894,11.9749279022217,11.9514322280884,11.9280290603638,11.9047174453735,11.8814964294434,11.8583660125732,11.8381328582764,11.8185176849365,11.7989673614502,11.7794818878174,11.7600603103638,11.7407035827637,11.7214088439941,11.7021789550781,11.6830110549927,11.6639060974121,11.6448640823364,11.625883102417,11.6069650650024,11.5881071090698,11.5693111419678,11.550576210022,11.5319023132324,11.5132875442505,11.4947338104248,11.4762392044067,11.4578037261963,11.4394273757935,11.4211101531982,11.4028520584106,11.384651184082,11.366509437561,11.348424911499,11.330397605896,11.312427520752,11.2945146560669,11.2766580581665,11.2588586807251,11.2380743026733,11.2096166610718,11.1813020706177,11.153130531311,11.1251010894775,11.0972118377686,11.0694618225098,11.0418510437012,11.0143766403198,10.98703956604,10.9598369598389,10.9327697753906,10.9058351516724,10.8790330886841,10.8523626327515,10.8258218765259,10.7994117736816,10.7731294631958,10.7469749450684,10.720947265625,10.6950445175171,10.6692676544189,10.6436147689819,10.6180839538574,10.5926761627197,10.5673894882202,10.5389461517334,10.5092077255249,10.4796361923218,10.4502305984497,10.4209899902344,10.3919124603271,10.3629970550537,10.3342418670654,10.305645942688,10.2772073745728,10.2489252090454,10.2207984924316,10.1928262710571,10.1650056838989,10.1373376846313,10.1098194122314,10.0824499130249,10.0552282333374,10.0281534194946,10.0012245178223,9.97443866729736,9.94779682159424,9.92129707336426,9.89493751525879,9.86871719360352,9.84263610839844,9.81669330596924,9.79088497161865,9.76521301269531,9.74881458282471,9.73759078979492,9.72639274597168,9.71522045135498,9.70407390594482,9.69295310974121,9.68185710906982,9.67078685760498,9.65974235534668,9.64872264862061,9.63772773742676,9.62675857543945,9.61581420898438,9.60489368438721,9.59399890899658,9.58312892913818,9.5722827911377,9.56146240234375,9.5506649017334,9.53989315032959,9.52914428710938,9.5184211730957,9.50772094726562,9.49704551696777,9.48639297485352,9.47576522827148,9.46516132354736,9.45458126068115,9.44402408599854,9.43349075317383,9.42298126220703,9.41249465942383,9.40203094482422,9.39159107208252
15.5892543792725,15.5896949768066,15.5901441574097,15.5905885696411,15.5910320281982,15.5914754867554,15.5919227600098,15.5923671722412,15.5928153991699,15.5932531356812,15.5937042236328,15.5941486358643,15.59459400177,15.5950355529785,15.5954847335815,15.59592628479,15.5963726043701,15.5968151092529,15.5972633361816,15.5977125167847,15.5981531143188,15.5986022949219,15.599045753479,15.5994920730591,15.5999355316162,15.6003828048706,15.6008262634277,15.6012735366821,15.6017179489136,15.602165222168,15.6026096343994,15.6030540466309,15.6034984588623,15.603946685791,15.6043891906738,15.6048374176025,15.6052827835083,15.6057281494141,15.6061735153198,15.6066188812256,15.6070652008057,15.6075143814087,15.6079540252686,15.6084041595459,15.608850479126,15.6092939376831,15.6097402572632,15.6101903915405,15.6106309890747,15.6110782623291,15.6115226745605,15.6119699478149,15.6124181747437,15.6128625869751,15.6133069992065,15.6137552261353,15.614200592041,15.6146488189697,15.6150941848755,15.6155395507812,15.6159858703613,15.6164312362671,15.6168775558472,15.6173267364502,15.617769241333,15.6182193756104,15.6186656951904,15.6191091537476,15.619556427002,15.6200065612793,15.6204500198364,15.6208972930908,15.6213417053223,15.6217889785767,15.6222372055054,15.6226816177368,15.6231298446655,15.6235780715942,15.6240196228027,15.6244716644287,15.6249170303345,15.6253623962402,15.625807762146,15.626256942749,15.6267032623291,15.6271524429321,15.6275959014893,15.6280450820923,15.6284923553467,15.6289386749268,15.6293859481812,15.6298322677612,15.6302766799927,15.63072681427,15.6311712265015,15.6316223144531,15.6320695877075,15.6325149536133,15.632963180542,15.6334114074707,15.6338567733765,15.6343050003052,15.6347503662109,15.635199546814,15.6356477737427,15.6360940933228,15.6365404129028,15.6369924545288,15.6374359130859,15.6378860473633,15.6383323669434,15.6387786865234,15.6392288208008,15.6396732330322,15.6401233673096,15.640570640564,15.6410188674927,15.6414632797241,15.6419172286987,15.6423587799072,15.6428098678589,15.6432552337646,15.6437034606934,15.6441526412964,15.6446008682251,15.6450471878052,15.6454963684082,15.645941734314,15.6463947296143,15.6468410491943,15.6472902297974,15.6477365493774,15.6481866836548,15.6486310958862,15.6490812301636,15.649528503418,15.6499786376953,15.6504259109497,15.6508741378784,15.6513214111328,15.6517724990845,15.6522178649902,15.6526689529419,15.6531171798706,15.6535625457764,15.6540107727051,15.6544599533081,15.6549091339111,15.6553583145142,15.6558046340942,15.6562566757202,15.6567029953003,15.6571531295776,15.6575994491577,15.658052444458,15.6584968566895,15.6589498519897,15.6593942642212,13.61838722229,13.6026582717896,13.5869655609131,13.5627670288086,13.5333223342896,13.5040063858032,13.4748163223267,13.4457521438599,13.4168138504028,13.3879985809326,13.3593082427979,13.3307399749756,13.3022928237915,13.2739677429199,13.2457628250122,13.2176780700684,13.1897115707397,13.1618633270264,13.1341314315796,13.106517791748,13.0790185928345,13.0516357421875,13.0243663787842,12.9972114562988,12.9701690673828,12.9432392120361,12.9164209365845,12.8897132873535,12.8631162643433,12.8366289138794,12.8102502822876,12.7839794158936,12.7578163146973,12.7317600250244,12.7058095932007,12.6799650192261,12.6542263031006,12.6285905838013,12.6030588150024,12.5776309967041,12.5523042678833,12.5270805358887,12.5019569396973,12.4769344329834,12.4520120620728,12.427188873291,12.4024639129639,12.3778381347656,12.3532285690308,12.3282270431519,12.3033266067505,12.2785263061523,12.2538261413574,12.2292251586914,12.20472240448,12.1803178787231,12.1560106277466,12.131799697876,12.1076860427856,12.083667755127,12.0597438812256,12.0359153747559,12.0121803283691,11.9885387420654,11.9649906158447,11.9415340423584,11.9181699752808,11.8948965072632,11.87171459198,11.8486223220825,11.8275985717773,11.8080177307129,11.7885026931763,11.7690515518188,11.7496643066406,11.7303409576416,11.7110815048218,11.6918840408325,11.6727504730225,11.653678894043,11.6346702575684,11.61572265625,11.5968370437622,11.5780124664307,11.5592498779297,11.5405473709106,11.5219049453735,11.5033226013184,11.4848003387451,11.4663381576538,11.4479341506958,11.4295902252197,11.411304473877,11.3930768966675,11.3749084472656,11.3567972183228,11.3387432098389,11.320746421814,11.3028078079224,11.2849245071411,11.2670984268188,11.2493286132812,11.2316150665283,11.2139568328857,11.1963539123535,11.1686058044434,11.1404991149902,11.1125326156616,11.0847063064575,11.0570182800293,11.0294694900513,11.0020570755005,10.974781036377,10.9476385116577,10.9206314086914,10.8937559127808,10.8670139312744,10.8404016494751,10.8139200210571,10.7875671386719,10.7613430023193,10.7352457046509,10.7092742919922,10.6834278106689,10.6577072143555,10.6321096420288,10.6066341400146,10.581280708313,10.5560483932495,10.5309362411499,10.5013828277588,10.4718551635742,10.442494392395,10.4132966995239,10.3842611312866,10.3553886413574,10.3266754150391,10.2981204986572,10.2697238922119,10.2414836883545,10.213397026062,10.1854648590088,10.1576852798462,10.1300563812256,10.1025772094727,10.0752477645874,10.0480651855469,10.0210285186768,9.99413776397705,9.9673900604248,9.94078540802002,9.91432285308838,9.88800048828125,9.86181735992432,9.83577251434326,9.80986499786377,9.78409290313721,9.75845718383789,9.74158477783203,9.73037815093994,9.71919631958008,9.70804119110107,9.6969108581543,9.68580627441406,9.67472743988037,9.66367340087891,9.65264415740967,9.64164066314697,9.63066291809082,9.61970901489258,9.60877990722656,9.59787654876709,9.58699703216553,9.57614326477051,9.5653133392334,9.5545072555542,9.54372692108154,9.53296947479248,9.52223777770996,9.51152896881104,9.50084495544434,9.49018478393555,9.47954750061035,9.46893501281738,9.45834636688232,9.44778156280518,9.43723964691162,9.42672157287598,9.41622638702393,9.40575504302979,9.39530754089355,9.3848819732666,9.37448024749756
15.4618825912476,15.4623146057129,15.4627561569214,15.4631948471069,15.4636297225952,15.4640693664551,15.4645080566406,15.4649410247803,15.4653835296631,15.4658164978027,15.4662561416626,15.4666986465454,15.4671325683594,15.4675722122192,15.4680089950562,15.4684495925903,15.4688835144043,15.4693241119385,15.4697589874268,15.4701995849609,15.4706344604492,15.4710750579834,15.4715137481689,15.4719514846802,15.4723901748657,15.4728288650513,15.4732637405396,15.4737033843994,15.474142074585,15.4745807647705,15.4750175476074,15.475456237793,15.4758958816528,15.4763355255127,15.4767694473267,15.4772129058838,15.4776496887207,15.4780864715576,15.4785242080688,15.478967666626,15.4794015884399,15.4798431396484,15.4802780151367,15.4807186126709,15.4811563491821,15.4815950393677,15.4820337295532,15.4824752807617,15.4829111099243,15.4833498001099,15.4837884902954,15.484227180481,15.4846668243408,15.4851064682007,15.4855422973633,15.4859819412231,15.4864187240601,15.4868621826172,15.4872989654541,15.4877367019653,15.4881763458252,15.4886169433594,15.4890546798706,15.4894952774048,15.4899301528931,15.4903717041016,15.4908132553101,15.4912509918213,15.4916896820068,15.4921312332153,15.4925670623779,15.4930086135864,15.493444442749,15.4938869476318,15.4943265914917,15.4947624206543,15.4952049255371,15.495644569397,15.4960813522339,15.4965219497681,15.4969615936279,15.4974021911621,15.497838973999,15.4982795715332,15.4987201690674,15.4991617202759,15.4995965957642,15.5000400543213,15.5004787445068,15.5009164810181,15.5013580322266,15.5018005371094,15.5022354125977,15.5026779174805,15.503116607666,15.5035591125488,15.5039987564087,15.5044374465942,15.5048770904541,15.5053205490112,15.5057535171509,15.506196975708,15.5066404342651,15.5070772171021,15.5075206756592,15.5079555511475,15.5083990097046,15.5088367462158,15.5092782974243,15.5097188949585,15.510160446167,15.5105991363525,15.511040687561,15.5114822387695,15.5119209289551,15.5123624801636,15.5128021240234,15.513240814209,15.5136833190918,15.5141201019287,15.5145626068115,15.5150022506714,15.5154457092285,15.5158853530884,15.5163288116455,15.5167655944824,15.5172100067139,15.5176467895508,15.5180912017822,15.5185289382935,15.5189695358276,15.5194110870361,15.5198554992676,15.5202903747559,15.5207357406616,15.5211772918701,15.5216159820557,15.5220575332642,15.522497177124,15.5229358673096,15.5233821868896,15.5238180160522,15.5242605209351,15.5247039794922,15.5251436233521,15.5255842208862,15.5260238647461,15.5264644622803,15.5269079208374,15.5273485183716,15.5277891159058,15.5282306671143,15.5286712646484,15.5291128158569,13.5963296890259,13.5806512832642,13.5650091171265,13.5494031906128,13.5338325500488,13.5182981491089,13.5027990341187,13.4873361587524,13.461498260498,13.4324913024902,13.4036092758179,13.374852180481,13.3462171554565,13.3177042007446,13.2893133163452,13.261043548584,13.2328939437866,13.2048625946045,13.1769504547119,13.1491556167603,13.1214780807495,13.0939168930054,13.0664710998535,13.0391407012939,13.011923789978,12.9848203659058,12.9578294754028,12.9309511184692,12.9041833877563,12.8775262832642,12.8509798049927,12.8245420455933,12.7982120513916,12.771990776062,12.7458772659302,12.7198696136475,12.6939678192139,12.6681718826294,12.6424798965454,12.6168918609619,12.5914077758789,12.5660266876221,12.5407466888428,12.5155687332153,12.4904918670654,12.4655151367188,12.440637588501,12.4158601760864,12.3911800384521,12.3665990829468,12.3421144485474,12.3176956176758,12.2928371429443,12.2680797576904,12.2434206008911,12.218861579895,12.1944007873535,12.1700372695923,12.1457710266113,12.1216011047363,12.0975275039673,12.0735492706299,12.0496654510498,12.0258769989014,12.0021810531616,11.9785795211792,11.9550695419312,11.9316520690918,11.9083261489868,11.8850917816162,11.8619470596313,11.8388929367065,11.8170824050903,11.7975368499756,11.7780561447144,11.7586393356323,11.7392864227295,11.7199974060059,11.7007713317871,11.6816082000732,11.6625080108643,11.6434698104858,11.624493598938,11.6055793762207,11.586727142334,11.5679359436035,11.549204826355,11.5305347442627,11.5119247436523,11.4933748245239,11.4748849868774,11.4564542770386,11.4380826950073,11.4197692871094,11.401515007019,11.383318901062,11.3651809692383,11.3471012115479,11.3290777206421,11.3111124038696,11.2932033538818,11.275351524353,11.2575550079346,11.2398157119751,11.222131729126,11.2045030593872,11.1869297027588,11.1694116592407,11.151948928833,11.1278953552246,11.0999917984009,11.0722284317017,11.0446033477783,11.0171155929565,10.989764213562,10.9625482559204,10.9354677200317,10.908519744873,10.8817052841187,10.8550214767456,10.8284683227539,10.8020439147949,10.775749206543,10.7495822906494,10.7235422134399,10.6976270675659,10.6718378067017,10.6461715698242,10.6206293106079,10.5952091217041,10.5699100494385,10.544732093811,10.5196733474731,10.4935693740845,10.4640865325928,10.4347677230835,10.405613899231,10.3766222000122,10.3477907180786,10.3191194534302,10.2906074523926,10.2622518539429,10.2340517044067,10.2060070037842,10.1781148910522,10.1503753662109,10.1227865219116,10.0953464508057,10.0680551528931,10.0409116744995,10.0139131546021,9.987060546875,9.96035099029541,9.93378353118896,9.90735816955566,9.88107204437256,9.85492610931396,9.82891750335693,9.80304622650146,9.77731037139893,9.75170993804932,9.73436641693115,9.72317600250244,9.71201133728027,9.70087242126465,9.68975830078125,9.67866992950439,9.66760730743408,9.656569480896,9.64555740356445,9.63456916809082,9.62360763549805,9.61266994476318,9.60175704956055,9.59086894989014,9.58000564575195,9.569167137146,9.55835342407227,9.54756355285645,9.53679847717285,9.52605724334717,9.51533985137939,9.50464725494385,9.49397850036621,9.48333358764648,9.47271251678467,9.46211528778076,9.45154094696045,9.44099140167236,9.43046474456787,9.41996192932129,9.4094820022583,9.39902591705322,9.38859272003174,9.37818241119385,9.36779499053955,9.35743141174316
15.3365726470947,15.3369998931885,15.3374328613281,15.3378667831421,15.3382949829102,15.3387250900269,15.3391561508179,15.3395881652832,15.3400163650513,15.3404502868652,15.3408794403076,15.3413105010986,15.341739654541,15.3421716690063,15.3426008224487,15.3430328369141,15.3434619903564,15.343897819519,15.3443241119385,15.3447570800781,15.3451871871948,15.3456172943115,15.3460502624512,15.3464813232422,15.3469114303589,15.3473453521729,15.3477725982666,15.3482065200806,15.3486347198486,15.3490657806396,15.3494968414307,15.3499317169189,15.350359916687,15.3507947921753,15.3512201309204,15.3516550064087,15.352087020874,15.3525161743164,15.3529491424561,15.3533811569214,15.3538084030151,15.3542442321777,15.3546705245972,15.3551063537598,15.3555364608765,15.3559675216675,15.3563976287842,15.3568315505981,15.3572616577148,15.3576955795288,15.3581266403198,15.3585577011108,15.3589887619019,15.3594207763672,15.3598518371582,15.3602867126465,15.3607158660889,15.3611507415771,15.3615798950195,15.3620119094849,15.3624439239502,15.3628768920898,15.3633060455322,15.3637418746948,15.3641681671143,15.3646049499512,15.3650350570679,15.3654680252075,15.3658981323242,15.3663320541382,15.3667631149292,15.3671970367432,15.3676309585571,15.3680620193481,15.3684930801392,15.3689241409302,15.3693561553955,15.3697910308838,15.3702192306519,15.3706541061401,15.3710861206055,15.3715181350708,15.3719511032104,15.3723859786987,15.3728160858154,15.3732490539551,15.3736810684204,15.3741149902344,15.374547958374,15.3749809265137,15.3754110336304,15.3758449554443,15.376275062561,15.376708984375,15.3771467208862,15.37757396698,15.3780117034912,15.3784399032593,15.3788747787476,15.3793058395386,15.3797407150269,15.3801727294922,15.3806076049805,15.3810367584229,15.3814725875854,15.381908416748,15.3823375701904,15.3827705383301,15.3832035064697,15.3836364746094,15.384072303772,15.3845024108887,15.3849391937256,15.3853721618652,15.3858032226562,15.3862371444702,15.3866710662842,15.3871021270752,15.3875389099121,15.3879671096802,15.3884048461914,15.3888368606567,15.3892688751221,15.3897037506104,15.3901386260986,15.390567779541,15.3910026550293,15.3914356231689,15.3918714523315,15.3923034667969,15.3927364349365,15.3931694030762,15.393609046936,15.3940362930298,15.3944721221924,15.3949060440063,15.3953399658203,15.3957738876343,15.3962078094482,15.3966379165649,15.3970756530762,15.3975067138672,15.3979415893555,15.3983764648438,15.398811340332,15.399242401123,15.3996810913086,15.4001131057739,15.4005489349365,15.4009809494019,13.5743427276611,13.5587148666382,13.5431232452393,13.5275678634644,13.5120477676392,13.4965629577637,13.4811134338379,13.4657001495361,13.4503211975098,13.4349775314331,13.4196691513062,13.4043960571289,13.3891563415527,13.3617305755615,13.3331518173218,13.3046951293945,13.2763595581055,13.2481441497803,13.2200489044189,13.1920728683472,13.1642141342163,13.1364736557007,13.1088495254517,13.0813407897949,13.0539484024048,13.0266695022583,12.9995040893555,12.9724531173706,12.9455137252808,12.9186859130859,12.8919687271118,12.8653621673584,12.8388652801514,12.8124771118164,12.7861976623535,12.7600259780884,12.7339601516724,12.7080011367798,12.6821479797363,12.6563997268677,12.6307554244995,12.6052150726318,12.5797777175903,12.554443359375,12.5292100906372,12.5040788650513,12.4790477752686,12.4541168212891,12.4292850494385,12.4045515060425,12.3799171447754,12.3553800582886,12.330940246582,12.3065977096558,12.2823495864868,12.2576503753662,12.2330331802368,12.2085151672363,12.1840963363647,12.1597738265991,12.1355485916138,12.1114187240601,12.0873861312866,12.0634479522705,12.0396041870117,12.0158548355103,11.9921989440918,11.9686365127563,11.9451656341553,11.9217872619629,11.8984994888306,11.8753032684326,11.8521976470947,11.8291807174683,11.8065843582153,11.7870740890503,11.7676277160645,11.7482452392578,11.7289266586304,11.7096710205078,11.6904792785645,11.6713495254517,11.6522827148438,11.6332788467407,11.6143360137939,11.5954542160034,11.5766344070435,11.5578756332397,11.5391778945923,11.5205402374268,11.5019626617432,11.4834451675415,11.4649868011475,11.446587562561,11.4282474517822,11.4099655151367,11.3917427062988,11.3735780715942,11.3554706573486,11.3374214172363,11.319429397583,11.3014945983887,11.283616065979,11.265793800354,11.2480278015137,11.230318069458,11.212664604187,11.1950654983521,11.1775217056274,11.1600332260132,11.142599105835,11.1252193450928,11.1078939437866,11.0874795913696,11.059778213501,11.0322151184082,11.004789352417,10.9774990081787,10.9503450393677,10.9233236312866,10.8964357376099,10.8696794509888,10.8430547714233,10.8165597915649,10.7901945114136,10.7639570236206,10.737847328186,10.7118635177612,10.6860046386719,10.660270690918,10.6346616744995,10.6091737747192,10.5838079452515,10.5585641860962,10.5334396362305,10.5084342956543,10.4835481643677,10.4563283920288,10.4270534515381,10.3979415893555,10.368992805481,10.3402042388916,10.3115749359131,10.2831039428711,10.2547903060913,10.2266311645508,10.1986265182495,10.1707754135132,10.1430749893188,10.1155261993408,10.0881261825562,10.0608730316162,10.0337686538696,10.0068082809448,9.97999382019043,9.9533224105835,9.92679214477539,9.90040302276611,9.87415504455566,9.84804534912109,9.82207298278809,9.79623794555664,9.77053737640381,9.74497222900391,9.72715854644775,9.71598434448242,9.70483589172363,9.69371318817139,9.68261623382568,9.67154407501221,9.66049766540527,9.64947605133057,9.6384801864624,9.62750816345215,9.61656188964844,9.60564041137695,9.5947437286377,9.58387184143066,9.57302474975586,9.56220245361328,9.55140399932861,9.54062938690186,9.52987957000732,9.51915454864502,9.50845241546631,9.49777507781982,9.48712158203125,9.47649192810059,9.46588611602783,9.45530414581299,9.44474601745605,9.43421077728271,9.42369937896729,9.41321182250977,9.40274715423584,9.39230537414551,9.38188743591309,9.37149238586426,9.36111927032471,9.35076999664307,9.34044361114502
15.2132787704468,15.2137050628662,15.2141246795654,15.2145509719849,15.2149705886841,15.2153968811035,15.2158203125,15.2162446975708,15.2166681289673,15.217095375061,15.2175159454346,15.2179431915283,15.2183609008789,15.218789100647,15.2192106246948,15.2196350097656,15.2200593948364,15.2204847335815,15.2209062576294,15.2213315963745,15.2217569351196,15.2221794128418,15.222601890564,15.2230281829834,15.2234506607056,15.223876953125,15.2242965698242,15.2247228622437,15.2251501083374,15.2255735397339,15.2259969711304,15.2264232635498,15.2268447875977,15.2272720336914,15.2276926040649,15.2281198501587,15.2285413742065,15.2289657592773,15.2293910980225,15.2298183441162,15.2302408218384,15.2306661605835,15.2310914993286,15.2315130233765,15.2319393157959,15.2323617935181,15.2327871322632,15.2332134246826,15.2336359024048,15.2340621948242,15.234489440918,15.2349119186401,15.2353363037109,15.2357625961304,15.2361831665039,15.2366132736206,15.2370347976685,15.2374620437622,15.237886428833,15.2383108139038,15.2387351989746,15.2391633987427,15.2395849227905,15.2400102615356,15.2404384613037,15.2408609390259,15.241286277771,15.2417087554932,15.2421340942383,15.2425632476807,15.2429866790771,15.2434120178223,15.2438383102417,15.2442617416382,15.2446889877319,15.2451152801514,15.2455358505249,15.2459659576416,15.2463865280151,15.2468175888062,15.2472381591797,15.2476663589478,15.2480907440186,15.2485179901123,15.2489404678345,15.2493686676025,15.2497930526733,15.2502183914185,15.2506475448608,15.2510690689087,15.2514982223511,15.2519245147705,15.2523498535156,15.2527732849121,15.2532024383545,15.253625869751,15.2540521621704,15.2544755935669,15.2549057006836,15.2553291320801,15.2557563781738,15.2561807632446,15.2566080093384,15.2570323944092,15.2574596405029,15.257887840271,15.2583122253418,15.2587366104126,15.2591648101807,15.2595872879028,15.2600183486938,15.260440826416,15.2608699798584,15.2612953186035,15.2617216110229,15.2621469497681,15.2625770568848,15.2629995346069,15.2634258270264,15.2638492584229,15.2642793655396,15.2647066116333,15.2651300430298,15.2655572891235,15.2659873962402,15.2664089202881,15.2668390274048,15.2672643661499,15.2676916122437,15.2681169509888,15.2685451507568,15.2689695358276,15.2693977355957,15.2698202133179,15.2702522277832,15.2706775665283,15.2711038589478,15.2715291976929,15.2719583511353,15.2723846435547,15.2728109359741,15.2732381820679,15.2736673355103,15.2740907669067,15.2745180130005,15.2749452590942,13.5524272918701,13.5368499755859,13.5213088989258,13.5058031082153,13.4903326034546,13.4748973846436,13.4594984054565,13.4441337585449,13.428804397583,13.4135093688965,13.3982496261597,13.3830251693726,13.3678350448608,13.3526782989502,13.3375568389893,13.3224697113037,13.3074159622192,13.2917108535767,13.2634305953979,13.2352705001831,13.2072296142578,13.1793069839478,13.1515026092529,13.123815536499,13.0962448120117,13.0687885284424,13.0414485931396,13.0142221450806,12.9871091842651,12.960108757019,12.9332208633423,12.9064435958862,12.8797779083252,12.8532209396362,12.8267736434937,12.8004360198975,12.7742052078247,12.7480821609497,12.7220659255981,12.6961555480957,12.6703500747681,12.6446495056152,12.6190528869629,12.593560218811,12.568169593811,12.5428819656372,12.5176954269409,12.4926090240479,12.4676237106323,12.44273853302,12.4179525375366,12.3932647705078,12.3686752319336,12.3441820144653,12.3197870254517,12.2954874038696,12.2712841033936,12.2471752166748,12.2226638793945,12.1981868743896,12.1738090515137,12.1495275497437,12.1253423690796,12.1012544631958,12.0772609710693,12.0533638000488,12.0295600891113,12.0058498382568,11.9822330474854,11.9587097167969,11.9352779388428,11.911937713623,11.8886890411377,11.8655309677124,11.8424625396729,11.819483757019,11.7965936660767,11.776629447937,11.7572174072266,11.7378692626953,11.7185850143433,11.6993637084961,11.6802053451538,11.6611099243164,11.6420764923096,11.6231050491333,11.6041955947876,11.5853471755981,11.5665597915649,11.547833442688,11.5291681289673,11.5105628967285,11.4920167922974,11.4735317230225,11.4551048278809,11.4367380142212,11.4184293746948,11.4001789093018,11.3819875717163,11.3638534545898,11.3457775115967,11.3277587890625,11.3097972869873,11.2918920516968,11.2740440368652,11.2562522888184,11.2385168075562,11.2208366394043,11.2032127380371,11.185643196106,11.1681299209595,11.1506700515747,11.1332654953003,11.1159143447876,11.0986185073853,11.0813751220703,11.0641860961914,11.0470495223999,11.0198554992676,10.9924907684326,10.9652614593506,10.9381666183472,10.9112062454224,10.8843774795532,10.8576803207397,10.8311147689819,10.8046779632568,10.7783699035645,10.7521905899048,10.7261381149292,10.7002105712891,10.6744079589844,10.6487302780151,10.6231756210327,10.5977430343628,10.5724325180054,10.5472421646118,10.5221710205078,10.4972200393677,10.4723863601685,10.4476699829102,10.4193506240845,10.3902826309204,10.3613748550415,10.3326292037964,10.3040418624878,10.2756118774414,10.2473392486572,10.2192211151123,10.1912574768066,10.1634464263916,10.1357860565186,10.1082763671875,10.0809154510498,10.0537023544312,10.0266351699829,9.99971389770508,9.97293663024902,9.94630241394043,9.91981029510498,9.89345932006836,9.86724662780762,9.84117317199707,9.81523704528809,9.78943824768066,9.76377391815186,9.73824405670166,9.71996116638184,9.7088041305542,9.69767189025879,9.68656539916992,9.6754846572876,9.6644287109375,9.65339851379395,9.64239311218262,9.63141345977783,9.62045764923096,9.60952758789062,9.59862232208252,9.58774185180664,9.57688522338867,9.56605339050293,9.55524635314941,9.54446411132812,9.53370571136475,9.52297115325928,9.51226139068604,9.5015754699707,9.49091339111328,9.48027515411377,9.46966075897217,9.45907020568848,9.4485034942627,9.43796062469482,9.42744064331055,9.41694450378418,9.40647125244141,9.39602184295654,9.38559532165527,9.3751916885376,9.36481094360352,9.35445404052734,9.34411907196045,9.33380699157715,9.32351875305176
15.0919513702393,15.0923728942871,15.0927848815918,15.093204498291,15.0936164855957,15.0940361022949,15.0944519042969,15.0948686599731,15.0952854156494,15.0957050323486,15.0961179733276,15.0965385437012,15.0969552993774,15.0973720550537,15.0977897644043,15.0982074737549,15.0986242294312,15.0990419387817,15.0994567871094,15.0998783111572,15.1002931594849,15.1007108688354,15.1011266708374,15.1015481948853,15.1019639968872,15.1023826599121,15.1027946472168,15.103217124939,15.1036329269409,15.1040496826172,15.1044654846191,15.1048879623413,15.1053018569946,15.1057214736938,15.1061382293701,15.1065559387207,15.106972694397,15.1073894500732,15.1078071594238,15.1082277297974,15.108642578125,15.1090631484985,15.1094808578491,15.109899520874,15.1103143692017,15.1107358932495,15.1111478805542,15.1115694046021,15.111985206604,15.1124048233032,15.1128234863281,15.1132392883301,15.1136589050293,15.1140785217285,15.1144943237305,15.1149139404297,15.115330696106,15.1157474517822,15.1161680221558,15.116584777832,15.1170024871826,15.1174230575562,15.1178369522095,15.1182613372803,15.1186761856079,15.1190967559814,15.1195116043091,15.119930267334,15.1203479766846,15.1207695007324,15.1211853027344,15.1216039657593,15.1220226287842,15.1224422454834,15.1228609085083,15.1232833862305,15.1236963272095,15.124119758606,15.124532699585,15.1249523162842,15.1253757476807,15.125789642334,15.1262130737305,15.1266298294067,15.1270475387573,15.1274681091309,15.1278886795044,15.128303527832,15.1287250518799,15.1291399002075,15.1295614242554,15.1299829483032,15.1303977966309,15.1308164596558,15.1312379837036,15.1316537857056,15.1320762634277,15.132495880127,15.1329145431519,15.1333341598511,15.1337509155273,15.1341705322266,15.1345930099487,15.1350069046021,15.1354303359985,15.1358509063721,15.1362676620483,15.1366882324219,15.1371088027954,15.137523651123,15.1379480361938,15.1383619308472,15.138783454895,15.1392021179199,15.1396236419678,15.1400413513184,15.1404638290405,15.1408796310425,15.1413011550903,15.1417198181152,15.1421394348145,15.1425590515137,15.1429777145386,15.1433973312378,15.1438207626343,15.1442375183105,15.1446571350098,15.1450777053833,15.1454973220825,15.1459178924561,15.1463384628296,15.1467561721802,15.147180557251,15.1475944519043,15.1480188369751,15.1484375,15.1488552093506,15.1492767333984,15.1496982574463,15.1501140594482,15.1505393981934,15.1509580612183,13.5305824279785,13.5150556564331,13.4995641708374,13.4841079711914,13.4686870574951,13.4533014297485,13.4379510879517,13.4226360321045,13.4073553085327,13.3921098709106,13.376898765564,13.361722946167,13.3465805053711,13.3314723968506,13.3163986206055,13.3013591766357,13.2863531112671,13.2713813781738,13.2564430236816,13.2415390014648,13.2266674041748,13.2118301391602,13.1944351196289,13.1665668487549,13.1388158798218,13.1111822128296,13.0836639404297,13.0562610626221,13.0289726257324,13.0017986297607,12.9747371673584,12.9477882385254,12.9209508895874,12.8942251205444,12.8676090240479,12.8411026000977,12.8147058486938,12.7884168624878,12.7622356414795,12.7361612319946,12.7101936340332,12.6843309402466,12.6585741043091,12.6329212188721,12.6073722839355,12.5819263458252,12.5565824508667,12.5313415527344,12.5062007904053,12.4811611175537,12.4562215805054,12.4313812255859,12.4066400527954,12.3819980621338,12.3574523925781,12.3330049514771,12.3086528778076,12.2843971252441,12.2602376937866,12.2361717224121,12.2122011184692,12.187876701355,12.1635389328003,12.1392984390259,12.1151542663574,12.0911064147949,12.0671539306641,12.0432958602905,12.01953125,11.9958610534668,11.9722843170166,11.9487991333008,11.9254064559937,11.9021053314209,11.8788948059082,11.8557748794556,11.8327436447144,11.8098030090332,11.7869501113892,11.7662038803101,11.746826171875,11.7275123596191,11.7082614898682,11.6890745162964,11.6699495315552,11.6508874893188,11.6318874359131,11.6129493713379,11.5940723419189,11.5752573013306,11.5565023422241,11.5378093719482,11.51917552948,11.500602722168,11.4820890426636,11.4636354446411,11.445240020752,11.4269046783447,11.4086275100708,11.3904085159302,11.3722486495972,11.3541450500488,11.3361005783081,11.3181123733521,11.300181388855,11.2823066711426,11.2644891738892,11.2467269897461,11.229022026062,11.211371421814,11.1937770843506,11.1762371063232,11.1587524414062,11.1413230895996,11.1239471435547,11.1066255569458,11.0893583297729,11.0721435546875,11.0549831390381,11.0378761291504,11.0208206176758,11.0038185119629,10.9802198410034,10.9530515670776,10.9260168075562,10.899115562439,10.8723459243774,10.8457088470459,10.8192005157471,10.7928218841553,10.7665719985962,10.7404499053955,10.7144536972046,10.6885824203491,10.6628360748291,10.6372137069702,10.6117143630981,10.5863370895386,10.5610799789429,10.5359439849854,10.5109272003174,10.4860286712646,10.4612483978271,10.4365844726562,10.4116592407227,10.3826332092285,10.3537693023682,10.325065612793,10.2965202331543,10.2681312561035,10.2398996353149,10.2118225097656,10.1838989257812,10.1561269760132,10.1285076141357,10.1010370254517,10.0737152099609,10.0465402603149,10.0195121765137,9.9926290512085,9.9658899307251,9.93929290771484,9.91283893585205,9.88652420043945,9.86034870147705,9.83431148529053,9.80841255187988,9.78264808654785,9.75701999664307,9.73152446746826,9.7127742767334,9.70163345336914,9.69051837921143,9.67942810058594,9.66836357116699,9.65732383728027,9.6463098526001,9.63532066345215,9.62435722351074,9.61341762542725,9.60250377655029,9.59161376953125,9.58074951171875,9.56990814208984,9.55909252166748,9.54830169677734,9.53753471374512,9.5267915725708,9.51607322692871,9.50537872314453,9.49470806121826,9.4840612411499,9.47343826293945,9.46284008026123,9.4522647857666,9.44171237945557,9.43118476867676,9.42068004608154,9.41019821166992,9.39974021911621,9.38930606842041,9.37889385223389,9.36850547790527,9.35813999176025,9.34779739379883,9.337477684021,9.32717990875244,9.3169059753418,9.30665397644043
14.9725437164307,14.9729585647583,14.9733638763428,14.9737758636475,14.9741878509521,14.9745969772339,14.9750061035156,14.9754152297974,14.9758253097534,14.9762411117554,14.9766473770142,14.9770603179932,14.9774703979492,14.9778804779053,14.9782905578613,14.9787044525146,14.9791088104248,14.9795227050781,14.9799299240112,14.9803447723389,14.9807558059692,14.9811639785767,14.981575012207,14.9819898605347,14.9823951721191,14.9828100204468,14.9832181930542,14.9836301803589,14.9840431213379,14.9844522476196,14.9848613739014,14.9852733612061,14.9856834411621,14.9860963821411,14.9865093231201,14.9869155883789,14.9873294830322,14.9877424240112,14.9881496429443,14.9885635375977,14.9889707565308,14.9893846511841,14.9897956848145,14.9902067184448,14.9906177520752,14.9910326004028,14.9914379119873,14.9918518066406,14.9922609329224,14.99267578125,14.9930849075317,14.9934968948364,14.9939088821411,14.9943208694458,14.9947309494019,14.9951429367065,14.9955558776855,14.9959659576416,14.9963788986206,14.9967889785767,14.9971990585327,14.997612953186,14.9980230331421,14.9984369277954,14.9988470077515,14.9992580413818,14.9996690750122,15.0000867843628,15.0004911422729,15.0009088516235,15.0013179779053,15.0017290115356,15.0021438598633,15.002552986145,15.0029678344727,15.0033798217773,15.0037927627563,15.0042018890381,15.00461769104,15.0050268173218,15.0054397583008,15.0058498382568,15.0062627792358,15.0066766738892,15.0070867538452,15.0074996948242,15.0079135894775,15.0083208084106,15.0087385177612,15.0091495513916,15.009560585022,15.0099744796753,15.01038646698,15.0107975006104,15.011212348938,15.0116205215454,15.012035369873,15.0124483108521,15.0128602981567,15.0132722854614,15.0136880874634,15.0140972137451,15.0145130157471,15.0149192810059,15.0153360366821,15.0157489776611,15.0161590576172,15.0165719985962,15.0169887542725,15.0173988342285,15.0178127288818,15.0182266235352,15.0186376571655,15.0190505981445,15.0194635391235,15.0198745727539,15.0202903747559,15.0207004547119,15.0211153030396,15.0215282440186,15.0219402313232,15.0223531723022,15.0227651596069,15.0231771469116,15.0235929489136,15.0240039825439,15.0244197845459,15.0248327255249,15.0252447128296,15.0256576538086,15.0260744094849,15.0264825820923,15.0268993377686,15.0273084640503,15.0277242660522,15.0281381607056,15.0285501480103,15.0289630889893,13.5088081359863,13.4933309555054,13.4778890609741,13.4624824523926,13.4471111297607,13.4317750930786,13.4164733886719,13.4012069702148,13.3859758377075,13.3707790374756,13.3556156158447,13.3404874801636,13.3253936767578,13.3103332519531,13.2953071594238,13.2803153991699,13.2653570175171,13.2504329681396,13.235541343689,13.2206840515137,13.2058591842651,13.191068649292,13.1763105392456,13.161584854126,13.1468935012817,13.1322336196899,13.1176071166992,13.0985727310181,13.0711069107056,13.0437574386597,13.0165214538574,12.9893989562988,12.9623889923096,12.9354906082153,12.9087047576904,12.8820295333862,12.8554639816284,12.8290071487427,12.8026599884033,12.7764205932617,12.7502880096436,12.7242622375488,12.6983432769775,12.6725292205811,12.6468200683594,12.6212148666382,12.5957126617432,12.5703134536743,12.5450172424316,12.5198221206665,12.4947280883789,12.4697341918945,12.4448404312134,12.4200458526611,12.3953495025635,12.3707513809204,12.3462505340576,12.3218469619751,12.2975397109985,12.2733278274536,12.249210357666,12.2251892089844,12.2012605667114,12.1774263381958,12.1532859802246,12.1290864944458,12.1049833297729,12.0809755325317,12.0570631027222,12.0332450866699,12.0095205307007,11.9858894348145,11.9623517990112,11.9389057159424,11.9155511856079,11.8922882080078,11.8691158294678,11.8460340499878,11.8230419158936,11.8001375198364,11.777322769165,11.7557964324951,11.7364530563354,11.717173576355,11.6979570388794,11.6788024902344,11.6597118377686,11.6406831741333,11.6217164993286,11.6028108596802,11.5839672088623,11.5651845932007,11.5464630126953,11.5278015136719,11.5092010498047,11.4906597137451,11.4721784591675,11.4537563323975,11.4353933334351,11.417088508606,11.3988428115845,11.3806552886963,11.3625259399414,11.3444538116455,11.3264398574829,11.308482170105,11.290581703186,11.2727375030518,11.2549505233765,11.2372188568115,11.2195425033569,11.201922416687,11.1843576431274,11.1668472290039,11.1493921279907,11.1319913864136,11.1146450042725,11.0973520278931,11.0801134109497,11.0629272460938,11.0457954406738,11.0287160873413,11.0116901397705,10.9947156906128,10.9777946472168,10.9609241485596,10.9408674240112,10.913893699646,10.8870515823364,10.8603420257568,10.8337631225586,10.8073139190674,10.7809925079346,10.7547998428345,10.7287340164185,10.7027950286865,10.6769800186157,10.6512899398804,10.6257228851318,10.6002788543701,10.5749549865723,10.5497531890869,10.5246706008911,10.4997072219849,10.4748620986938,10.4501333236694,10.4255218505859,10.401026725769,10.3749961853027,10.3461742401123,10.3175115585327,10.289008140564,10.2606611251831,10.2324705123901,10.2044343948364,10.1765508651733,10.1488199234009,10.1212387084961,10.0938081741333,10.0665254592896,10.0393896102905,10.0123996734619,9.98555469512939,9.95885276794434,9.93229389190674,9.90587615966797,9.87959861755371,9.85346031188965,9.82745933532715,9.80159568786621,9.7758674621582,9.75027465820312,9.72481441497803,9.70559883117676,9.69447422027588,9.68337535858154,9.67230129241943,9.66125297546387,9.65023040771484,9.63923168182373,9.62825870513916,9.61731052398682,9.60638809204102,9.59548950195312,9.58461570739746,9.57376670837402,9.56294250488281,9.55214214324951,9.54136657714844,9.53061485290527,9.51988792419434,9.50918483734131,9.49850559234619,9.48785018920898,9.477219581604,9.46661186218262,9.45602798461914,9.44546794891357,9.43493175506592,9.42441844940186,9.4139289855957,9.40346240997314,9.3930196762085,9.38259983062744,9.37220287322998,9.36182880401611,9.35147857666016,9.34115028381348,9.33084487915039,9.3205623626709,9.310302734375,9.30006504058838,9.28985023498535
14.8550109863281,14.8554191589355,14.8558187484741,14.8562240600586,14.8566293716431,14.8570318222046,14.8574342727661,14.8578395843506,14.8582429885864,14.8586492538452,14.8590488433838,14.8594551086426,14.8598585128784,14.8602647781372,14.8606691360474,14.8610754013062,14.8614768981934,14.8618803024292,14.8622817993164,14.8626918792725,14.8630933761597,14.8634977340698,14.86390209198,14.8643074035645,14.8647089004517,14.8651170730591,14.8655195236206,14.8659248352051,14.8663272857666,14.8667325973511,14.8671350479126,14.8675441741943,14.8679437637329,14.8683528900146,14.8687562942505,14.8691596984863,14.8695659637451,14.8699731826782,14.8703727722168,14.8707799911499,14.8711805343628,14.8715877532959,14.8719921112061,14.8723964691162,14.8728008270264,14.8732089996338,14.873610496521,14.8740186691284,14.8744230270386,14.874828338623,14.8752307891846,14.875636100769,14.8760414123535,14.8764495849609,14.8768491744995,14.8772583007812,14.8776617050171,14.8780670166016,14.878472328186,14.8788805007935,14.879280090332,14.8796882629395,14.880090713501,14.8804979324341,14.8809061050415,14.881308555603,14.8817167282104,14.8821201324463,14.8825263977051,14.8829298019409,14.8833389282227,14.8837404251099,14.8841485977173,14.8845510482788,14.8849592208862,14.8853645324707,14.8857698440552,14.8861742019653,14.8865833282471,14.8869848251343,14.887393951416,14.8877983093262,14.8882026672363,14.8886089324951,14.8890132904053,14.8894176483154,14.8898267745972,14.890230178833,14.8906393051147,14.8910427093506,14.8914489746094,14.8918542861938,14.8922624588013,14.8926639556885,14.8930749893188,14.8934764862061,14.8938846588135,14.8942899703979,14.8946971893311,14.8951025009155,14.8955097198486,14.8959131240845,14.8963212966919,14.8967237472534,14.8971328735352,14.8975372314453,14.8979434967041,14.8983507156372,14.8987588882446,14.8991622924805,14.8995704650879,14.8999757766724,14.9003820419312,14.9007892608643,14.9011945724487,14.9016008377075,14.9020099639893,14.9024133682251,14.9028224945068,14.9032258987427,14.9036340713501,14.9040393829346,14.904447555542,14.9048538208008,14.9052619934082,14.9056644439697,14.9060735702515,14.9064798355103,14.906886100769,14.9072923660278,14.9077005386353,14.9081048965454,14.9085149765015,14.9089202880859,13.4871034622192,13.4716758728027,13.4562835693359,13.4409265518188,13.4256038665771,13.4103174209595,13.3950643539429,13.379846572876,13.3646640777588,13.3495149612427,13.334400177002,13.3193197250366,13.3042736053467,13.2892618179321,13.2742834091187,13.2593383789062,13.2444276809692,13.229549407959,13.2147054672241,13.1998949050903,13.1851167678833,13.1703720092773,13.1556606292725,13.1409816741943,13.126335144043,13.1117210388184,13.0971403121948,13.082592010498,13.0680751800537,13.0535907745361,13.0391387939453,13.0247182846069,13.004093170166,12.9770221710205,12.9500637054443,12.9232168197632,12.8964815139771,12.8698568344116,12.8433408737183,12.8169345855713,12.7906370162964,12.7644462585449,12.7383632659912,12.7123861312866,12.6865148544312,12.6607494354248,12.6350870132446,12.6095294952393,12.5840749740601,12.5587224960327,12.5334730148315,12.5083236694336,12.4832754135132,12.4583282470703,12.433479309082,12.4087295532227,12.3840789794922,12.359525680542,12.3350687026978,12.3107089996338,12.2864456176758,12.2622776031494,12.2382040023804,12.2142248153687,12.1903400421143,12.1665477752686,12.1428489685059,12.1188926696777,12.0948295593262,12.0708618164062,12.046989440918,12.0232105255127,11.9995260238647,11.9759340286255,11.9524354934692,11.9290285110474,11.9057121276855,11.8824882507324,11.859354019165,11.8363094329834,11.8133544921875,11.790488243103,11.76771068573,11.7454080581665,11.7260980606079,11.7068529129028,11.6876697540283,11.6685495376587,11.6494922637939,11.6304960250854,11.6115627288818,11.5926904678345,11.5738801956177,11.5551300048828,11.5364408493042,11.5178117752075,11.4992427825928,11.48073387146,11.4622840881348,11.4438943862915,11.4255628585815,11.4072895050049,11.3890752792358,11.3709192276001,11.3528203964233,11.3347787857056,11.3167953491211,11.2988681793213,11.2809982299805,11.2631845474243,11.2454271316528,11.2277250289917,11.2100791931152,11.1924886703491,11.1749534606934,11.1574726104736,11.1400470733643,11.1226749420166,11.105357170105,11.0880937576294,11.0708837509155,11.0537271499634,11.0366230010986,11.0195722579956,11.00257396698,10.9856281280518,10.9687347412109,10.9518928527832,10.9351024627686,10.918363571167,10.9016752243042,10.8750152587891,10.8483638763428,10.8218431472778,10.7954521179199,10.7691888809204,10.7430534362793,10.7170448303223,10.6911611557007,10.6654024124146,10.6397676467896,10.6142559051514,10.5888671875,10.5635986328125,10.5384502410889,10.5134210586548,10.4885110855103,10.4637184143066,10.4390430450439,10.4144840240479,10.3900394439697,10.3657102584839,10.3385896682739,10.3099699020386,10.2815074920654,10.2532024383545,10.2250518798828,10.1970567703247,10.1692132949829,10.1415224075317,10.1139812469482,10.0865888595581,10.0593452453613,10.0322484970093,10.0052967071533,9.97848987579346,9.95182609558105,9.9253044128418,9.89892387390137,9.87268257141113,9.84658050537109,9.82061672210693,9.7947883605957,9.76909637451172,9.74353790283203,9.71811389923096,9.69843292236328,9.6873254776001,9.67624282836914,9.66518497467041,9.65415287017822,9.64314651489258,9.63216400146484,9.62120723724365,9.61027526855469,9.59936809539795,9.58848571777344,9.57762813568115,9.56679439544678,9.55598545074463,9.54520130157471,9.5344409942627,9.52370548248291,9.51299381256104,9.50230598449707,9.49164295196533,9.48100280761719,9.47038650512695,9.45979499816895,9.44922637939453,9.43868160247803,9.42815971374512,9.41766166687012,9.40718746185303,9.39673614501953,9.38630771636963,9.37590312957764,9.36552143096924,9.35516166687012,9.34482574462891,9.33451271057129,9.32422256469727,9.31395435333252,9.30370903015137,9.29348659515381,9.28328609466553,9.27310752868652
14.7393093109131,14.739709854126,14.7401037216187,14.7405042648315,14.7409009933472,14.7412986755371,14.7416963577271,14.7420959472656,14.7424907684326,14.7428903579712,14.7432851791382,14.7436857223511,14.7440843582153,14.744481086731,14.7448787689209,14.7452774047852,14.7456731796265,14.746072769165,14.746470451355,14.7468700408936,14.7472677230835,14.7476644515991,14.7480621337891,14.748462677002,14.7488565444946,14.7492570877075,14.7496538162231,14.7500524520874,14.7504501342773,14.7508506774902,14.7512474060059,14.7516469955444,14.7520418167114,14.7524433135986,14.7528409957886,14.7532377243042,14.7536363601685,14.7540369033813,14.7544326782227,14.7548332214355,14.7552318572998,14.7556295394897,14.7560272216797,14.7564268112183,14.7568235397339,14.7572259902954,14.7576198577881,14.7580213546753,14.7584199905396,14.7588167190552,14.7592153549194,14.759617805481,14.7600135803223,14.7604122161865,14.7608098983765,14.761209487915,14.7616081237793,14.7620077133179,14.7624092102051,14.762806892395,14.7632055282593,14.7636041641235,14.7640047073364,14.7644004821777,14.7648029327393,14.7651968002319,14.7655992507935,14.7659978866577,14.766396522522,14.7667951583862,14.7671966552734,14.7675914764404,14.7679929733276,14.7683906555176,14.7687921524048,14.7691898345947,14.7695903778076,14.7699880599976,14.7703905105591,14.7707862854004,14.7711877822876,14.7715854644775,14.7719860076904,14.772385597229,14.7727823257446,14.7731828689575,14.7735843658447,14.773980140686,14.7743825912476,14.7747812271118,14.7751808166504,14.7755784988403,14.7759809494019,14.7763776779175,14.7767810821533,14.7771759033203,14.7775793075562,14.7779779434204,14.7783784866333,14.7787771224976,14.7791776657104,14.779577255249,14.7799777984619,14.7803773880005,14.7807769775391,14.7811765670776,14.7815742492676,14.7819747924805,14.7823762893677,14.7827749252319,14.7831764221191,14.783576965332,14.7839756011963,14.7843751907349,14.7847776412964,14.7851753234863,14.7855777740479,14.7859725952148,14.7863759994507,14.7867774963379,14.7871761322021,14.7875747680664,14.7879791259766,14.7883749008179,14.788779258728,14.7891778945923,14.7895793914795,14.7899780273438,14.7903776168823,14.7907772064209,14.7911825180054,13.4500904083252,13.4347476959229,13.4194393157959,13.4041662216187,13.3889274597168,13.3737239837646,13.3585548400879,13.3434190750122,13.3283185958862,13.3132524490356,13.2982196807861,13.283221244812,13.268256187439,13.2533254623413,13.2384271621704,13.2235631942749,13.2087326049805,13.1939353942871,13.1791706085205,13.164439201355,13.1497402191162,13.1350746154785,13.1204414367676,13.1058406829834,13.0912733078003,13.0767374038696,13.0622339248657,13.0477628707886,13.0333232879639,13.0189161300659,13.0045404434204,12.9901962280273,12.975884437561,12.9616031646729,12.9473543167114,12.9331359863281,12.9109668731689,12.8842821121216,12.8577070236206,12.831241607666,12.8048849105835,12.7786359786987,12.7524948120117,12.7264604568481,12.7005319595337,12.6747093200684,12.6489906311035,12.6233768463135,12.5978660583496,12.5724582672119,12.5471534729004,12.5219497680664,12.49684715271,12.4718446731567,12.4469423294067,12.4221391677856,12.3974351882935,12.3728284835815,12.3483200073242,12.3239078521729,12.2995920181274,12.275372505188,12.2512474060059,12.2272176742554,12.2032814025879,12.1794385910034,12.155689239502,12.1320323944092,12.1084671020508,12.0846929550171,12.0607652664185,12.0369319915771,12.0131931304932,11.9895477294922,11.9659957885742,11.9425354003906,11.9191665649414,11.8958902359009,11.8727035522461,11.8496074676514,11.8266010284424,11.8036842346191,11.780855178833,11.7581148147583,11.7354621887207,11.7157621383667,11.6965503692627,11.6774005889893,11.658314704895,11.639289855957,11.6203279495239,11.6014270782471,11.5825881958008,11.5638093948364,11.5450925827026,11.5264358520508,11.5078392028809,11.4893026351929,11.4708251953125,11.4524078369141,11.4340486526489,11.4157485961914,11.3975076675415,11.3793239593506,11.361198425293,11.3431310653687,11.3251209259033,11.307168006897,11.2892713546753,11.2714309692383,11.2536478042603,11.2359199523926,11.2182483673096,11.2006320953369,11.1830711364746,11.1655654907227,11.1481142044067,11.1307172775269,11.113374710083,11.0960865020752,11.0788507461548,11.0616693496704,11.0445413589478,11.0274658203125,11.010443687439,10.9934730529785,10.9765558242798,10.9596891403198,10.9428749084473,10.9261121749878,10.9094009399414,10.8927412033081,10.8761310577393,10.8595724105835,10.8364124298096,10.8099498748779,10.783616065979,10.7574110031128,10.7313327789307,10.7053804397583,10.6795530319214,10.6538505554199,10.6282711029053,10.6028146743774,10.5774793624878,10.5522651672363,10.5271711349487,10.5021953582764,10.4773387908936,10.4525985717773,10.4279756546021,10.403468132019,10.3790760040283,10.3547973632812,10.3306322097778,10.3024387359619,10.2740182876587,10.2457542419434,10.2176446914673,10.1896886825562,10.16188621521,10.1342344284058,10.1067333221436,10.0793809890747,10.0521755218506,10.0251169204712,9.99820423126221,9.971435546875,9.94480895996094,9.91832447052002,9.89198112487793,9.86577701568604,9.83971118927002,9.81378269195557,9.78799152374268,9.7623348236084,9.73681163787842,9.71142196655273,9.6912784576416,9.68018627166748,9.66912078857422,9.65807914733887,9.64706325531006,9.63607215881348,9.62510681152344,9.61416625976562,9.60324954986572,9.59235858917236,9.58149242401123,9.57065010070801,9.55983257293701,9.54903984069824,9.53827095031738,9.52752590179443,9.51680564880371,9.50611019134521,9.49543762207031,9.48478984832764,9.47416496276855,9.4635648727417,9.45298767089844,9.44243431091309,9.43190479278564,9.4213981628418,9.41091537475586,9.40045547485352,9.39001941680908,9.37960624694824,9.369215965271,9.35884857177734,9.3485050201416,9.33818340301514,9.32788467407227,9.31760883331299,9.30735492706299,9.2971248626709,9.28691577911377,9.27673053741455,9.26656627655029,9.25642490386963
14.6253967285156,14.6257915496826,14.6261777877808,14.6265726089478,14.6269636154175,14.6273536682129,14.6277456283569,14.6281385421753,14.6285276412964,14.6289224624634,14.6293134689331,14.6297063827515,14.6300964355469,14.6304874420166,14.6308794021606,14.631275177002,14.6316633224487,14.6320562362671,14.6324462890625,14.6328382492065,14.6332321166992,14.6336259841919,14.6340131759644,14.6344089508057,14.6347980499268,14.6351900100708,14.6355829238892,14.6359748840332,14.6363677978516,14.6367607116699,14.6371488571167,14.6375436782837,14.6379356384277,14.6383275985718,14.6387195587158,14.6391105651855,14.6395034790039,14.6398973464966,14.6402864456177,14.6406812667847,14.6410722732544,14.6414642333984,14.6418571472168,14.6422519683838,14.6426410675049,14.6430358886719,14.643424987793,14.6438188552856,14.6442108154297,14.644603729248,14.6449995040894,14.6453905105591,14.6457834243774,14.6461744308472,14.6465682983398,14.6469593048096,14.6473550796509,14.6477432250977,14.648138999939,14.6485328674316,14.6489229202271,14.6493158340454,14.6497116088867,14.6501016616821,14.6504974365234,14.6508855819702,14.6512813568115,14.6516733169556,14.6520652770996,14.6524591445923,14.6528539657593,14.6532440185547,14.6536388397217,14.6540327072144,14.6544246673584,14.6548175811768,14.6552104949951,14.6556034088135,14.6559963226318,14.6563882827759,14.6567831039429,14.6571750640869,14.6575689315796,14.6579608917236,14.6583557128906,14.658748626709,14.6591444015503,14.6595335006714,14.6599283218384,14.6603212356567,14.6607141494751,14.6611070632935,14.6615037918091,14.6618938446045,14.6622896194458,14.6626815795898,14.6630754470825,14.6634693145752,14.6638612747192,14.6642541885376,14.6646499633789,14.6650409698486,14.6654376983643,14.6658306121826,14.6662244796753,14.6666173934937,14.6670122146606,14.6674032211304,14.6677980422974,14.6681909561157,14.668586730957,14.6689786911011,14.6693735122681,14.6697673797607,14.6701622009277,14.6705541610718,14.6709499359131,14.6713438034058,14.6717367172241,14.6721305847168,14.6725225448608,14.6729183197021,14.6733140945435,14.6737051010132,14.6741027832031,14.6744956970215,14.6748895645142,13.4285736083984,13.4132795333862,13.3980207443237,13.3827962875366,13.3676061630249,13.3524503707886,13.337329864502,13.3222427368164,13.3071899414062,13.2921714782715,13.2771863937378,13.2622346878052,13.2473173141479,13.2324333190918,13.2175827026367,13.2027654647827,13.1879806518555,13.1732292175293,13.1585111618042,13.1438264846802,13.1291732788086,13.1145534515381,13.0999660491943,13.0854110717773,13.0708885192871,13.0563983917236,13.0419397354126,13.0275135040283,13.0131187438965,12.9987554550171,12.9844245910645,12.9701251983643,12.9558572769165,12.9416208267212,12.927414894104,12.9132404327393,12.899097442627,12.8849849700928,12.870903968811,12.8568534851074,12.8428325653076,12.819164276123,12.792857170105,12.7666578292847,12.7405652999878,12.7145795822144,12.68869972229,12.6629247665405,12.6372547149658,12.6116876602173,12.5862245559692,12.560863494873,12.535605430603,12.5104475021362,12.485390663147,12.4604349136353,12.4355773925781,12.4108200073242,12.3861608505249,12.3615989685059,12.3371343612671,12.3127660751343,12.2884950637817,12.2643184661865,12.2402372360229,12.2162504196167,12.1923570632935,12.1685571670532,12.144850730896,12.1212358474731,12.0977125167847,12.0742797851562,12.050684928894,12.026891708374,12.0031929016113,11.9795866012573,11.9560737609863,11.9326524734497,11.9093227386475,11.8860836029053,11.8629350662231,11.8398771286011,11.8169088363647,11.7940282821655,11.7712373733521,11.7485342025757,11.7259178161621,11.7054433822632,11.6862649917603,11.6671495437622,11.648097038269,11.6291055679321,11.6101770401001,11.5913095474243,11.5725030899048,11.5537576675415,11.5350723266602,11.5164480209351,11.4978837966919,11.4793787002563,11.4609336853027,11.4425477981567,11.424220085144,11.405951499939,11.3877420425415,11.369589805603,11.3514957427979,11.3334589004517,11.3154783248901,11.2975559234619,11.2796897888184,11.2618808746338,11.2441272735596,11.22642993927,11.2087879180908,11.191201210022,11.1736698150635,11.156192779541,11.1387710571289,11.1214036941528,11.1040897369385,11.0868301391602,11.0696239471436,11.0524711608887,11.0353708267212,11.0183238983154,11.0013294219971,10.9843873977661,10.9674978256226,10.9506597518921,10.9338731765747,10.9171380996704,10.9004535675049,10.8838205337524,10.8672389984131,10.8507070541382,10.8342247009277,10.8177928924561,10.7980823516846,10.7718067169189,10.7456588745117,10.7196378707886,10.6937417984009,10.6679706573486,10.6423234939575,10.6167993545532,10.5913982391357,10.5661172866821,10.5409564971924,10.5159168243408,10.4909944534302,10.4661903381348,10.4415035247803,10.4169321060181,10.3924770355225,10.3681354522705,10.3439083099365,10.3197937011719,10.2949190139771,10.2665395736694,10.2383165359497,10.2102479934692,10.1823329925537,10.1545705795288,10.1269578933716,10.0994968414307,10.0721826553345,10.0450162887573,10.0179967880249,9.99112224578857,9.96438980102539,9.93780136108398,9.91135501861572,9.88504791259766,9.85888004302979,9.83285140991211,9.80695915222168,9.7812032699585,9.75558185577393,9.73009490966797,9.70474052429199,9.6841344833374,9.67305850982666,9.66200828552246,9.6509838104248,9.63998413085938,9.62900924682617,9.61806011199951,9.60713481903076,9.59623432159424,9.58535957336426,9.57450866699219,9.56368255615234,9.55288028717041,9.5421028137207,9.53135013580322,9.52062129974365,9.50991630554199,9.49923610687256,9.48857879638672,9.47794628143311,9.4673376083374,9.45675182342529,9.44618988037109,9.4356517791748,9.42513751983643,9.41464614868164,9.40417861938477,9.39373397827148,9.3833122253418,9.37291431427002,9.36253833770752,9.35218620300293,9.34185695648193,9.33154964447021,9.32126617431641,9.31100463867188,9.30076599121094,9.29054927825928,9.28035545349121,9.27018356323242,9.26003456115723,9.24990749359131,9.23980236053467
14.5132312774658,14.5136184692383,14.5140037536621,14.5143890380859,14.5147733688354,14.5151605606079,14.5155448913574,14.5159330368042,14.5163154602051,14.5167036056519,14.5170888900757,14.5174732208252,14.517858505249,14.5182466506958,14.5186290740967,14.5190181732178,14.51939868927,14.5197896957397,14.5201740264893,14.5205583572388,14.5209455490112,14.521333694458,14.5217151641846,14.52210521698,14.5224866867065,14.5228748321533,14.5232601165771,14.5236473083496,14.5240316390991,14.5244216918945,14.5248031616211,14.5251922607422,14.5255765914917,14.5259628295898,14.526349067688,14.5267362594604,14.52712059021,14.5275106430054,14.5278930664062,14.528281211853,14.5286664962769,14.529052734375,14.5294427871704,14.5298271179199,14.5302152633667,14.5305995941162,14.5309858322144,14.5313701629639,14.5317602157593,14.5321435928345,14.5325317382812,14.5329189300537,14.5333042144775,14.5336904525757,14.5340805053711,14.5344648361206,14.5348539352417,14.5352373123169,14.5356245040894,14.5360107421875,14.53639793396,14.5367841720581,14.5371742248535,14.5375556945801,14.5379447937012,14.5383329391479,14.5387191772461,14.5391044616699,14.5394926071167,14.5398778915405,14.5402679443359,14.5406503677368,14.5410413742065,14.5414266586304,14.5418148040771,14.542200088501,14.5425901412964,14.5429725646973,14.5433626174927,14.5437469482422,14.5441360473633,14.5445232391357,14.5449113845825,14.545295715332,14.5456867218018,14.546070098877,14.546462059021,14.5468463897705,14.547233581543,14.5476207733154,14.5480079650879,14.5483951568604,14.5487852096558,14.549168586731,14.5495586395264,14.5499448776245,14.5503330230713,14.5507192611694,14.5511093139648,14.5514945983887,14.5518846511841,14.5522680282593,14.5526580810547,14.5530452728271,14.5534315109253,14.5538206100464,14.5542106628418,14.554594039917,14.5549831390381,14.5553693771362,14.5557594299316,14.5561456680298,14.5565347671509,14.556921005249,14.5573110580444,14.5576972961426,14.5580854415894,14.5584735870361,14.5588607788086,14.5592498779297,14.5596361160278,14.5600242614746,14.5604133605957,13.4071264266968,13.3918809890747,13.3766708374023,13.3614940643311,13.3463525772095,13.3312454223633,13.3161725997925,13.3011331558228,13.2861280441284,13.2711563110352,13.2562189102173,13.2413148880005,13.2264442443848,13.2116069793701,13.1968030929565,13.1820316314697,13.1672945022583,13.1525888442993,13.1379175186157,13.1232776641846,13.1086711883545,13.0940961837769,13.0795545578003,13.0650444030762,13.0505676269531,13.0361213684082,13.0217084884644,13.0073261260986,12.9929761886597,12.9786586761475,12.9643716812134,12.9501161575317,12.9358921051025,12.9216985702515,12.9075374603271,12.893406867981,12.8793067932129,12.8652372360229,12.8511991500854,12.8371915817261,12.8232145309448,12.8092670440674,12.7953510284424,12.7814645767212,12.7676076889038,12.7537822723389,12.7286586761475,12.7027215957642,12.6768894195557,12.651162147522,12.6255397796631,12.6000204086304,12.5746040344238,12.5492906570435,12.5240774154663,12.4989671707153,12.4739561080933,12.4490451812744,12.4242343902588,12.3995208740234,12.374906539917,12.3503894805908,12.3259696960449,12.3016452789307,12.2774171829224,12.2532844543457,12.2292470932007,12.2053031921387,12.1814527511597,12.1576957702637,12.1340303421021,12.1104574203491,12.0869760513306,12.0635852813721,12.0402851104736,12.0168685913086,11.9932088851929,11.9696416854858,11.9461669921875,11.9227848052979,11.8994941711426,11.876293182373,11.8531837463379,11.8301630020142,11.8072319030762,11.7843894958496,11.7616357803345,11.7389688491821,11.7163896560669,11.695143699646,11.6759986877441,11.6569166183472,11.6378974914551,11.6189393997192,11.600043296814,11.5812091827393,11.5624351501465,11.54372215271,11.5250701904297,11.506477355957,11.4879455566406,11.4694728851318,11.4510593414307,11.4327049255371,11.4144096374512,11.3961715698242,11.3779926300049,11.3598718643188,11.3418083190918,11.3238019943237,11.3058528900146,11.2879610061646,11.2701253890991,11.2523460388184,11.2346229553223,11.2169551849365,11.1993427276611,11.1817855834961,11.1642837524414,11.1468362808228,11.1294441223145,11.1121053695679,11.094820022583,11.0775890350342,11.0604114532471,11.0432872772217,11.026216506958,11.0091972351074,10.9922304153442,10.9753170013428,10.9584550857544,10.9416446685791,10.9248857498169,10.9081783294678,10.8915214538574,10.8749151229858,10.8583602905273,10.8418550491333,10.825400352478,10.8089952468872,10.7926406860352,10.7763347625732,10.7600231170654,10.7339324951172,10.7079677581787,10.6821279525757,10.6564130783081,10.6308212280273,10.6053524017334,10.580005645752,10.5547790527344,10.5296726226807,10.5046854019165,10.4798164367676,10.4550657272339,10.4304304122925,10.4059114456177,10.3815078735352,10.3572177886963,10.3330411911011,10.3089780807495,10.2850255966187,10.259072303772,10.2308893203735,10.2028617858887,10.1749868392944,10.1472644805908,10.1196918487549,10.0922698974609,10.0649948120117,10.0378675460815,10.0108861923218,9.98404884338379,9.95735549926758,9.93080425262451,9.90439510345459,9.87812423706055,9.85199356079102,9.82600116729736,9.80014514923096,9.77442455291748,9.74883842468262,9.72338676452637,9.6980676651001,9.67700004577637,9.66594123840332,9.6549072265625,9.64389896392822,9.63291549682617,9.62195682525635,9.61102294921875,9.60011386871338,9.58922958374023,9.57837009429932,9.56753540039062,9.55672454833984,9.54593849182129,9.53517723083496,9.52443981170654,9.51372623443604,9.50303745269775,9.49237155914307,9.48173046112061,9.47111320495605,9.4605188369751,9.44994926452637,9.43940258026123,9.428879737854,9.41837978363037,9.40790367126465,9.39745140075684,9.3870210647583,9.37661457061768,9.36623096466064,9.35587024688721,9.34553241729736,9.33521842956543,9.32492542266846,9.31465625762939,9.30440998077393,9.29418563842773,9.28398323059082,9.2738037109375,9.26364707946777,9.25351142883301,9.24339866638184,9.23330783843994,9.22323894500732
14.4027709960938,14.4031534194946,14.4035339355469,14.4039125442505,14.4042921066284,14.404670715332,14.4050512313843,14.4054317474365,14.4058094024658,14.4061908721924,14.406569480896,14.4069509506226,14.4073295593262,14.4077119827271,14.408088684082,14.4084720611572,14.4088468551636,14.4092311859131,14.4096097946167,14.4099903106689,14.4103689193726,14.4107513427734,14.4111280441284,14.4115104675293,14.4118909835815,14.4122705459595,14.4126491546631,14.4130306243896,14.4134092330933,14.4137907028198,14.4141693115234,14.4145517349243,14.4149322509766,14.4153108596802,14.4156951904297,14.4160747528076,14.4164543151855,14.4168338775635,14.4172134399414,14.417594909668,14.4179763793945,14.4183549880981,14.4187383651733,14.419116973877,14.4194974899292,14.4198780059814,14.4202604293823,14.4206380844116,14.4210205078125,14.4213981628418,14.421781539917,14.4221620559692,14.4225425720215,14.4229221343994,14.4233074188232,14.4236841201782,14.4240674972534,14.4244451522827,14.4248275756836,14.4252080917358,14.4255876541138,14.425968170166,14.4263525009155,14.4267292022705,14.4271125793457,14.4274921417236,14.4278736114502,14.4282550811768,14.428638458252,14.4290142059326,14.4293985366821,14.4297771453857,14.4301595687866,14.4305410385132,14.4309215545654,14.431303024292,14.4316854476929,14.4320640563965,14.4324474334717,14.4328260421753,14.4332094192505,14.4335908889771,14.4339694976807,14.4343519210815,14.4347343444824,14.4351139068604,14.4354972839355,14.4358787536621,14.4362602233887,14.4366397857666,14.4370212554932,14.4374027252197,14.4377880096436,14.4381647109985,14.4385480880737,14.4389305114746,14.4393110275269,14.4396915435791,14.4400758743286,14.4404554367065,14.4408378601074,14.441216468811,14.4416007995605,14.4419822692871,14.4423637390137,14.4427442550659,14.4431285858154,14.4435062408447,14.4438915252686,14.4442720413208,14.4446563720703,14.4450368881226,14.4454183578491,14.4457988739014,14.4461841583252,14.4465637207031,14.4469470977783,14.4473285675049,14.4477090835571,13.3857469558716,13.3705501556396,13.3553876876831,13.3402605056763,13.3251667022705,13.3101072311401,13.2950820922852,13.2800903320312,13.2651319503784,13.250207901001,13.2353181838989,13.2204608917236,13.2056369781494,13.1908464431763,13.1760883331299,13.1613636016846,13.1466722488403,13.1320133209229,13.1173868179321,13.1027936935425,13.0882320404053,13.0737028121948,13.0592060089111,13.0447416305542,13.0303087234497,13.015908241272,13.0015392303467,12.9872026443481,12.9728965759277,12.9586229324341,12.9443798065186,12.9301681518555,12.9159879684448,12.9018383026123,12.8877201080322,12.8736324310303,12.8595762252808,12.8455505371094,12.8315544128418,12.8175897598267,12.8036546707153,12.7897510528564,12.7758760452271,12.7620325088501,12.748218536377,12.7344341278076,12.7206792831421,12.7069549560547,12.6932592391968,12.679594039917,12.6651010513306,12.639422416687,12.6138467788696,12.5883750915527,12.5630054473877,12.5377378463745,12.5125722885132,12.4875068664551,12.4625425338745,12.4376773834229,12.4129104614258,12.3882427215576,12.363673210144,12.3392000198364,12.3148241043091,12.2905445098877,12.2663602828979,12.2422714233398,12.2182760238647,12.194375038147,12.1705675125122,12.1468524932861,12.1232299804688,12.0996990203857,12.0762596130371,12.0529098510742,12.0296506881714,12.0064811706543,11.9832410812378,11.9597139358521,11.9362783432007,11.9129343032837,11.8896808624268,11.8665189743042,11.8434476852417,11.8204641342163,11.797571182251,11.7747659683228,11.752049446106,11.729419708252,11.7068767547607,11.6848611831665,11.66575050354,11.6467018127441,11.6277160644531,11.6087913513184,11.5899276733398,11.5711259841919,11.5523853302002,11.5337047576904,11.5150842666626,11.496524810791,11.4780244827271,11.4595832824707,11.4412021636963,11.4228792190552,11.4046144485474,11.3864088058472,11.368260383606,11.3501710891724,11.3321380615234,11.3141622543335,11.2962436676025,11.2783823013306,11.2605772018433,11.2428274154663,11.225133895874,11.2074956893921,11.1899137496948,11.1723861694336,11.1549139022827,11.1374959945679,11.1201314926147,11.102822303772,11.0855665206909,11.0683641433716,11.051215171814,11.0341186523438,11.0170764923096,11.0000858306885,10.9831476211548,10.9662609100342,10.949426651001,10.9326438903809,10.9159126281738,10.8992328643799,10.8826036453247,10.8660249710083,10.8494968414307,10.8330183029175,10.8165903091431,10.8002119064331,10.7838830947876,10.7676038742065,10.7513732910156,10.7351922988892,10.7190589904785,10.6963233947754,10.670539855957,10.6448802947998,10.6193437576294,10.5939302444458,10.5686368942261,10.5434656143188,10.5184125900269,10.4934787750244,10.4686632156372,10.4439640045166,10.4193820953369,10.3949146270752,10.3705625534058,10.34632396698,10.3221979141235,10.2981843948364,10.2742824554443,10.2504911422729,10.2234735488892,10.1954870223999,10.167652130127,10.1399688720703,10.11243724823,10.0850534439087,10.0578174591064,10.0307292938232,10.0037860870361,9.9769868850708,9.95033073425293,9.92381763458252,9.89744472503662,9.87121105194092,9.84511661529541,9.81916046142578,9.7933406829834,9.76765537261963,9.74210548400879,9.71668720245361,9.69140338897705,9.66987705230713,9.65883445739746,9.64781665802002,9.63682460784912,9.62585639953613,9.61491394042969,9.60399627685547,9.59310340881348,9.58223533630371,9.57139110565186,9.56057262420654,9.54977798461914,9.53900718688965,9.52826118469238,9.51753902435303,9.5068416595459,9.49616718292236,9.48551750183105,9.47489166259766,9.46428966522217,9.45371150970459,9.44315624237061,9.43262481689453,9.42211723327637,9.4116325378418,9.40117168426514,9.39073276519775,9.3803186416626,9.36992645263672,9.35955810546875,9.34921169281006,9.33888912200928,9.32858848571777,9.31831169128418,9.30805683135986,9.29782390594482,9.28761386871338,9.27742671966553,9.26726150512695,9.25711917877197,9.24699783325195,9.23689937591553,9.22682285308838,9.21676826477051,9.20673561096191
