14.7235040664673,14.7240266799927,14.7245492935181,14.7250738143921,14.7255983352661,14.7261247634888,14.7266464233398,14.7271699905396,14.7276983261108,14.7282199859619,14.7287425994873,14.729266166687,14.7297925949097,14.730318069458,14.7308397293091,14.7313642501831,14.7318906784058,14.7324132919312,14.7329397201538,14.7334651947021,14.7339878082275,14.7345132827759,14.7350378036499,14.7355623245239,14.7360887527466,14.7366104125977,14.7371387481689,14.7376623153687,14.7381858825684,14.7387132644653,14.7392358779907,14.7397651672363,14.7402877807617,14.7408103942871,14.7413368225098,14.7418632507324,14.7423868179321,14.7429122924805,14.7434396743774,14.7439651489258,14.7444896697998,14.7450132369995,14.7455425262451,14.7460660934448,14.7465925216675,14.7471160888672,14.7476425170898,14.7481679916382,14.7486934661865,14.7492179870605,14.7497472763062,14.7502717971802,14.7507972717285,14.7513227462769,14.7518491744995,14.7523756027222,14.7528991699219,14.7534265518188,14.7539539337158,14.7544775009155,14.7550039291382,14.7555332183838,14.7560577392578,14.7565841674805,14.7571096420288,14.7576398849487,14.7581634521484,14.7586870193481,14.7592144012451,14.7597436904907,14.7602701187134,14.7607946395874,14.7613191604614,14.7618494033813,14.762375831604,14.7629013061523,14.7634286880493,14.763955116272,14.7644824981689,14.7650089263916,14.7655334472656,14.7660627365112,14.7665891647339,14.7671175003052,14.7676458358765,14.7681703567505,14.7686986923218,14.7692251205444,14.7697525024414,14.770281791687,14.770806312561,14.7713346481323,14.7718639373779,14.7723894119263,14.7729158401489,14.7734413146973,14.7739734649658,14.7744998931885,14.7750253677368,14.7755537033081,14.7760829925537,14.7766084671021,14.7771377563477,14.777663230896,14.7781953811646,14.7787208557129,14.7792482376099,14.7797784805298,14.7803049087524,14.780834197998,14.7813596725464,14.781888961792,14.7824192047119,14.7829446792603,14.7834701538086,14.7840023040771,14.7845296859741,14.7850589752197,14.7855854034424,14.786114692688,14.7866430282593,14.7871713638306,14.7876996994019,14.7882299423218,14.7887563705444,14.7892866134644,14.78981590271,14.7903432846069,14.7908716201782,14.7913999557495,14.7919321060181,14.792459487915,14.792986869812,14.7935152053833,14.7940454483032,14.7945766448975,14.7951030731201,14.7956304550171,14.79616355896,14.7966899871826,13.4597387313843,13.4444732666016,13.4292430877686,13.4140462875366,13.3988847732544,13.3837575912476,13.3686637878418,13.3536043167114,13.3385791778564,13.3235874176025,13.3086290359497,13.2937040328979,13.2788133621216,13.263955116272,13.2491312026978,13.2343397140503,13.2195806503296,13.20485496521,13.1901626586914,13.1755018234253,13.1608743667603,13.146279335022,13.1317167282104,13.1171855926514,13.102686882019,13.0882205963135,13.0737857818604,13.059383392334,13.0450124740601,13.0306730270386,13.0163650512695,13.0020885467529,12.9878425598145,12.9736289978027,12.9594459533691,12.9452934265137,12.923189163208,12.8965301513672,12.8699817657471,12.843542098999,12.817211151123,12.7909870147705,12.7648706436157,12.7388610839844,12.7129564285278,12.6871576309204,12.6614627838135,12.635871887207,12.6103849411011,12.585000038147,12.5597171783447,12.53453540802,12.5094547271729,12.4844741821289,12.4595928192139,12.4348115921021,12.4101276397705,12.3855419158936,12.3610534667969,12.3366613388062,12.3123655319214,12.2881650924683,12.2640600204468,12.2400484085083,12.2161312103271,12.192307472229,12.1685762405396,12.1449375152588,12.1213893890381,12.0978260040283,12.0739116668701,12.0500926971436,12.0263671875,12.0027341842651,11.9791946411133,11.9557466506958,11.932391166687,11.9091262817383,11.8859510421753,11.8628673553467,11.8398723602295,11.8169660568237,11.7941484451294,11.7714195251465,11.7487773895264,11.7269687652588,11.7077646255493,11.6886234283447,11.669545173645,11.6505279541016,11.631573677063,11.6126804351807,11.5938482284546,11.5750780105591,11.5563669204712,11.5377178192139,11.5191278457642,11.5005979537964,11.4821271896362,11.463716506958,11.4453639984131,11.4270706176758,11.4088354110718,11.3906583786011,11.3725385665894,11.3544769287109,11.3364725112915,11.3185253143311,11.3006353378296,11.2828006744385,11.265022277832,11.2473001480103,11.2296342849731,11.2120237350464,11.1944675445557,11.1769666671753,11.159520149231,11.1421279907227,11.1247901916504,11.1075067520142,11.0902767181396,11.0730991363525,11.0559759140015,11.0389041900635,11.0218868255615,11.0049200057983,10.9880065917969,10.9711446762085,10.9543342590332,10.9375762939453,10.9208688735962,10.9042119979858,10.8876056671143,10.8710508346558,10.8476734161377,10.8211851119995,10.794825553894,10.768593788147,10.742488861084,10.7165107727051,10.6906585693359,10.6649293899536,10.6393251419067,10.6138429641724,10.5884828567505,10.5632429122925,10.5381231307983,10.5131235122681,10.4882411956787,10.4634771347046,10.4388294219971,10.4142971038818,10.3898801803589,10.3655776977539,10.3413887023926,10.3143815994263,10.2859258651733,10.2576265335083,10.2294826507568,10.2014923095703,10.1736555099487,10.1459693908691,10.1184339523315,10.0910472869873,10.0638084411621,10.036717414856,10.0097703933716,9.9829683303833,9.95630931854248,9.9297924041748,9.90341663360596,9.8771800994873,9.85108184814453,9.82512187957764,9.79929828643799,9.77361011505127,9.74805545806885,9.72263526916504,9.69734668731689,9.68139553070068,9.67031478881836,9.65925884246826,9.64822769165039,9.63722229003906,9.62624168395996,9.61528587341309,9.60435581207275,9.59344959259033,9.58256912231445,9.57171249389648,9.56088066101074,9.55007362365723,9.53929042816162,9.52853202819824,9.51779747009277,9.50708770751953,9.4964017868042,9.48573970794678,9.47510147094727,9.46448707580566,9.45389652252197,9.44332981109619,9.432785987854,9.42226600646973,9.41176986694336,9.40129661560059,9.39084720611572,9.38042068481445,9.37001705169678,9.35963726043701
14.6101503372192,14.6106672286987,14.6111841201782,14.6116981506348,14.6122140884399,14.6127319335938,14.6132469177246,14.6137647628784,14.6142778396606,14.6147975921631,14.6153116226196,14.6158266067505,14.6163444519043,14.6168613433838,14.6173763275146,14.6178941726685,14.618408203125,14.6189279556274,14.6194429397583,14.6199579238892,14.6204748153687,14.6209936141968,14.621509552002,14.6220273971558,14.6225433349609,14.6230621337891,14.6235752105713,14.6240901947021,14.6246118545532,14.6251268386841,14.6256456375122,14.6261596679688,14.6266784667969,14.6271963119507,14.6277103424072,14.6282300949097,14.6287479400635,14.629264831543,14.6297817230225,14.630298614502,14.6308174133301,14.6313343048096,14.6318502426147,14.6323690414429,14.6328868865967,14.6334028244019,14.6339197158813,14.6344413757324,14.6349582672119,14.6354751586914,14.6359901428223,14.6365127563477,14.6370286941528,14.6375427246094,14.6380624771118,14.6385822296143,14.6391000747681,14.6396169662476,14.6401338577271,14.6406536102295,14.6411695480347,14.6416902542114,14.642204284668,14.6427249908447,14.6432447433472,14.643759727478,14.6442794799805,14.6447992324829,14.6453161239624,14.6458349227905,14.6463537216187,14.6468715667725,14.6473903656006,14.6479082107544,14.6484308242798,14.6489477157593,14.6494626998901,14.6499824523926,14.6505031585693,14.6510200500488,14.6515407562256,14.6520566940308,14.6525783538818,14.6530961990356,14.6536130905151,14.6541328430176,14.65465259552,14.6551733016968,14.6556921005249,14.6562118530273,14.6567306518555,14.6572484970093,14.6577663421631,14.6582889556885,14.658805847168,14.659327507019,14.6598453521729,14.6603660583496,14.6608848571777,14.6614017486572,14.661922454834,14.6624431610107,14.6629629135132,14.6634836196899,14.6640005111694,14.6645202636719,14.6650419235229,14.6655607223511,14.6660814285278,14.6666021347046,14.6671190261841,14.6676406860352,14.6681632995605,14.668683052063,14.6692008972168,14.6697177886963,14.6702442169189,14.6707601547241,14.6712789535522,14.6718006134033,14.6723222732544,14.6728429794312,14.673360824585,14.6738805770874,14.6744050979614,14.6749238967896,14.6754455566406,14.6759624481201,14.6764850616455,14.6770057678223,14.677526473999,14.6780443191528,14.6785688400269,14.679087638855,14.6796102523804,14.6801319122314,13.4379472732544,13.4227313995361,13.4075498580933,13.3924026489258,13.3772897720337,13.3622102737427,13.3471660614014,13.3321542739868,13.3171768188477,13.3022336959839,13.2873229980469,13.2724466323853,13.2576026916504,13.2427921295166,13.2280149459839,13.2132701873779,13.198558807373,13.1838798522949,13.1692342758179,13.1546201705933,13.1400384902954,13.1254901885986,13.1109733581543,13.0964879989624,13.0820350646973,13.0676145553589,13.0532255172729,13.0388679504395,13.0245418548584,13.0102472305298,12.9959840774536,12.9817514419556,12.9675512313843,12.9533815383911,12.9392423629761,12.9251346588135,12.911057472229,12.8970108032227,12.8829946517944,12.8690090179443,12.855052947998,12.8313455581665,12.805064201355,12.7788906097412,12.7528228759766,12.7268619537354,12.7010068893433,12.6752557754517,12.6496095657349,12.6240663528442,12.5986270904541,12.5732889175415,12.5480527877808,12.5229187011719,12.4978837966919,12.4729499816895,12.4481143951416,12.4233779907227,12.3987398147583,12.3741989135742,12.3497552871704,12.3254079818726,12.3011560440063,12.2769994735718,12.2529382705688,12.2289705276489,12.2050971984863,12.1813154220581,12.1576271057129,12.1340312957764,12.1105260848999,12.0871114730835,12.0637254714966,12.039945602417,12.0162601470947,11.9926671981812,11.9691667556763,11.9457578659058,11.9224414825439,11.8992147445679,11.8760795593262,11.8530330657959,11.8300762176514,11.8072080612183,11.7844285964966,11.7617359161377,11.7391309738159,11.7166128158569,11.6974067687988,11.6782999038696,11.6592540740967,11.6402711868286,11.6213502883911,11.6024904251099,11.5836915969849,11.5649528503418,11.546275138855,11.5276584625244,11.5091009140015,11.4906034469604,11.4721651077271,11.4537858963013,11.4354648590088,11.4172029495239,11.3989992141724,11.3808536529541,11.3627653121948,11.3447351455688,11.3267612457275,11.3088445663452,11.2909841537476,11.2731809616089,11.2554330825806,11.2377414703369,11.2201051712036,11.2025232315063,11.1849975585938,11.1675262451172,11.1501092910767,11.1327466964722,11.1154384613037,11.098183631897,11.080982208252,11.0638332366943,11.0467386245728,11.0296964645386,11.0127058029175,10.9957685470581,10.9788827896118,10.9620485305786,10.9452667236328,10.9285354614258,10.9118556976318,10.8952264785767,10.8786478042603,10.8621196746826,10.8456420898438,10.8292140960693,10.8092603683472,10.7829580307007,10.7567844390869,10.7307376861572,10.704815864563,10.6790189743042,10.6533470153809,10.62779712677,10.602370262146,10.5770645141602,10.5518798828125,10.5268144607544,10.5018672943115,10.4770383834839,10.4523277282715,10.4277324676514,10.4032516479492,10.3788871765137,10.3546352386475,10.3304977416992,10.306471824646,10.2783861160278,10.2501277923584,10.2220249176025,10.1940755844116,10.1662788391113,10.1386337280273,10.1111373901367,10.0837907791138,10.0565910339355,10.0295381546021,10.0026302337646,9.97586631774902,9.94924449920654,9.92276573181152,9.89642715454102,9.8702278137207,9.84416675567627,9.81824207305908,9.79245471954346,9.76680278778076,9.74128341674805,9.71589851379395,9.69064521789551,9.67428302764893,9.66321849822998,9.65217876434326,9.64116382598877,9.63017463684082,9.6192102432251,9.6082706451416,9.59735584259033,9.58646583557129,9.57560062408447,9.56476020812988,9.55394458770752,9.54315280914307,9.53238582611084,9.52164268493652,9.51092338562012,9.50022888183594,9.48955821990967,9.47891139984131,9.46828842163086,9.45768928527832,9.44711399078369,9.43656253814697,9.42603397369385,9.41552925109863,9.40504837036133,9.39459037780762,9.3841552734375,9.37374401092529,9.36335468292236,9.35298919677734,9.34264659881592
14.4985342025757,14.4990406036377,14.4995470046997,14.5000591278076,14.5005645751953,14.5010738372803,14.5015830993652,14.5020904541016,14.5025978088379,14.5031061172485,14.5036153793335,14.5041236877441,14.5046310424805,14.5051403045654,14.5056505203247,14.5061569213867,14.5066652297974,14.5071725845337,14.5076856613159,14.5081930160522,14.5086994171143,14.5092096328735,14.5097208023071,14.5102243423462,14.5107355117798,14.5112428665161,14.5117559432983,14.5122623443604,14.512770652771,14.5132837295532,14.5137910842896,14.5143013000488,14.5148067474365,14.5153179168701,14.5158271789551,14.51633644104,14.5168428421021,14.5173559188843,14.5178642272949,14.5183734893799,14.5188808441162,14.5193910598755,14.5199022293091,14.520411491394,14.520920753479,14.5214309692383,14.5219392776489,14.5224494934082,14.5229578018188,14.5234689712524,14.5239782333374,14.524486541748,14.5250005722046,14.5255079269409,14.5260171890259,14.5265283584595,14.5270395278931,14.5275497436523,14.528058052063,14.5285663604736,14.5290803909302,14.5295886993408,14.5300979614258,14.5306091308594,14.5311212539673,14.5316324234009,14.5321388244629,14.5326490402222,14.5331621170044,14.5336723327637,14.5341825485229,14.5346918106079,14.5352039337158,14.5357141494751,14.5362243652344,14.536735534668,14.5372467041016,14.5377559661865,14.5382680892944,14.5387802124023,14.539288520813,14.5398006439209,14.5403099060059,14.540825843811,14.5413331985474,14.5418434143066,14.5423545837402,14.5428657531738,14.5433759689331,14.5438899993896,14.544397354126,14.5449123382568,14.5454235076904,14.5459308624268,14.5464487075806,14.5469560623169,14.5474691390991,14.5479774475098,14.5484914779663,14.5490026473999,14.5495138168335,14.5500240325928,14.5505399703979,14.5510492324829,14.5515623092651,14.5520715713501,14.5525846481323,14.5530977249146,14.5536069869995,14.5541200637817,14.5546340942383,14.5551433563232,14.5556554794312,14.5561685562134,14.556679725647,14.5571937561035,14.5577020645142,14.558219909668,14.5587310791016,14.5592412948608,14.5597543716431,14.5602674484253,14.5607814788818,14.5612907409668,14.5618019104004,14.5623178482056,14.5628280639648,14.5633382797241,14.563853263855,14.5643672943115,14.5648794174194,14.565390586853,13.4162254333496,13.4010591506958,13.3859262466431,13.3708276748657,13.3557634353638,13.3407335281372,13.3257369995117,13.3107738494873,13.295844078064,13.280948638916,13.2660856246948,13.2512559890747,13.2364597320557,13.2216968536377,13.2069664001465,13.1922693252563,13.1776037216187,13.162971496582,13.1483716964722,13.1338043212891,13.1192693710327,13.1047658920288,13.0902948379517,13.0758562088013,13.061448097229,13.0470724105835,13.0327291488647,13.0184164047241,13.0041351318359,12.9898853302002,12.9756669998169,12.9614791870117,12.947322845459,12.9331970214844,12.9191017150879,12.9050378799438,12.8910045623779,12.8770017623901,12.8630285263062,12.8490867614746,12.8351736068726,12.8212919235229,12.8074398040771,12.7936172485352,12.7798252105713,12.7660627365112,12.740797996521,12.7148857116699,12.689079284668,12.6633768081665,12.6377782821655,12.6122827529907,12.5868902206421,12.5615997314453,12.5364112854004,12.5113229751587,12.4863348007202,12.461446762085,12.4366569519043,12.4119663238525,12.3873729705811,12.3628768920898,12.3384780883789,12.3141746520996,12.2899675369263,12.2658548355103,12.2418365478516,12.2179126739502,12.1940822601318,12.1703433990479,12.1466979980469,12.1231441497803,12.0996809005737,12.0763082504272,12.0530261993408,12.0298166275024,12.0061702728271,11.9826173782349,11.959156036377,11.9357872009277,11.9125089645386,11.8893213272095,11.8662233352661,11.8432159423828,11.8202962875366,11.7974662780762,11.7747240066528,11.7520694732666,11.7295017242432,11.7070198059082,11.6870679855347,11.6679935455322,11.6489820480347,11.6300325393677,11.6111440658569,11.5923175811768,11.5735511779785,11.5548467636108,11.5362014770508,11.5176162719727,11.4990911483765,11.4806261062622,11.4622192382812,11.4438724517822,11.4255828857422,11.4073524475098,11.3891801834106,11.3710660934448,11.353009223938,11.3350095748901,11.317066192627,11.2991800308228,11.2813510894775,11.2635774612427,11.2458600997925,11.2281980514526,11.2105913162231,11.193039894104,11.1755437850952,11.1581020355225,11.1407146453857,11.1233806610107,11.1061010360718,11.0888757705688,11.0717029571533,11.0545835494995,11.0375165939331,11.0205030441284,11.0035409927368,10.9866313934326,10.9697742462158,10.9529676437378,10.9362134933472,10.9195098876953,10.9028577804565,10.8862562179565,10.8697052001953,10.8532037734985,10.8367528915405,10.820351600647,10.8039999008179,10.7876977920532,10.7711172103882,10.7450008392334,10.7190103530884,10.6931457519531,10.6674060821533,10.641788482666,10.6162948608398,10.5909223556519,10.5656719207764,10.5405406951904,10.515528678894,10.4906349182129,10.465859413147,10.441201210022,10.4166584014893,10.3922300338745,10.3679161071777,10.3437156677246,10.3196287155151,10.2956533432007,10.2708568572998,10.2426404953003,10.21457862854,10.1866703033447,10.1589136123657,10.1313076019287,10.1038513183594,10.0765438079834,10.0493841171265,10.0223693847656,9.99549961090088,9.96877384185791,9.9421911239624,9.91574859619141,9.88944721221924,9.86328411102295,9.83726024627686,9.81137275695801,9.78562068939209,9.7600040435791,9.73452186584473,9.70917129516602,9.68395233154297,9.66718101501465,9.65613269805908,9.64510917663574,9.63411045074463,9.62313747406006,9.61218929290771,9.60126495361328,9.59036636352539,9.57949256896973,9.56864356994629,9.55781841278076,9.54701805114746,9.53624248504639,9.52549076080322,9.51476287841797,9.50405979156494,9.49338054656982,9.48272514343262,9.47209358215332,9.46148586273193,9.45090198516846,9.44034194946289,9.42980480194092,9.41929244995117,9.4088020324707,9.39833545684814,9.3878927230835,9.37747287750244,9.36707592010498,9.35670185089111,9.34635066986084,9.33602333068848,9.32571792602539
14.3886060714722,14.3891048431396,14.3896074295044,14.3901052474976,14.3906097412109,14.3911085128784,14.3916072845459,14.3921089172363,14.3926105499268,14.3931121826172,14.3936109542847,14.3941087722778,14.3946142196655,14.395112991333,14.3956127166748,14.3961172103882,14.3966150283813,14.3971185684204,14.3976173400879,14.3981189727783,14.3986206054688,14.3991203308105,14.3996238708496,14.4001264572144,14.4006223678589,14.4011268615723,14.4016256332397,14.4021282196045,14.4026317596436,14.403130531311,14.4036321640015,14.4041347503662,14.4046354293823,14.4051380157471,14.4056386947632,14.4061422348022,14.406641960144,14.4071416854858,14.4076480865479,14.4081468582153,14.4086475372314,14.4091491699219,14.4096517562866,14.41015625,14.4106559753418,14.4111557006836,14.4116611480713,14.4121618270874,14.4126634597778,14.4131631851196,14.413667678833,14.4141693115234,14.4146699905396,14.41517162323,14.4156770706177,14.4161787033081,14.4166812896729,14.4171848297119,14.4176845550537,14.4181880950928,14.4186887741089,14.4191961288452,14.4196949005127,14.4201965332031,14.4206991195679,14.4212045669556,14.4217052459717,14.4222078323364,14.4227094650269,14.4232168197632,14.4237174987793,14.4242181777954,14.4247217178345,14.4252243041992,14.4257307052612,14.4262313842773,14.4267311096191,14.4272394180298,14.4277410507202,14.428243637085,14.4287481307983,14.4292497634888,14.4297552108765,14.4302558898926,14.430760383606,14.4312648773193,14.4317646026611,14.4322690963745,14.4327745437622,14.4332752227783,14.433780670166,14.4342823028564,14.4347896575928,14.4352912902832,14.4357938766479,14.4362983703613,14.4368019104004,14.4373044967651,14.4378080368042,14.4383115768433,14.4388189315796,14.4393215179443,14.4398221969604,14.4403314590454,14.4408340454102,14.4413366317749,14.441840171814,14.4423446655273,14.442850112915,14.4433536529541,14.4438562393188,14.4443626403809,14.4448652267456,14.4453716278076,14.4458742141724,14.4463787078857,14.4468832015991,14.4473867416382,14.4478921890259,14.4483985900879,14.448899269104,14.4494047164917,14.4499092102051,14.4504137039185,14.4509201049805,14.4514226913452,14.4519309997559,14.4524345397949,13.3945741653442,13.3794565200806,13.364372253418,13.3493232727051,13.3343067169189,13.3193244934082,13.3043766021729,13.2894611358643,13.2745790481567,13.2597312927246,13.2449159622192,13.2301340103149,13.2153844833374,13.2006683349609,13.1859846115112,13.1713342666626,13.1567153930664,13.1421298980713,13.1275758743286,13.1130542755127,13.0985651016235,13.0841073989868,13.0696821212769,13.0552883148193,13.0409259796143,13.0265960693359,13.0122966766357,12.998028755188,12.9837923049927,12.9695873260498,12.9554128646851,12.9412698745728,12.9271574020386,12.9130754470825,12.8990249633789,12.8850040435791,12.8710136413574,12.8570547103882,12.8431243896484,12.8292255401611,12.8153562545776,12.8015165328979,12.7877073287964,12.7739276885986,12.7601776123047,12.7464570999146,12.7327661514282,12.7191047668457,12.7054719924927,12.6918687820435,12.677173614502,12.6515197753906,12.6259689331055,12.6005220413208,12.5751762390137,12.5499324798584,12.524790763855,12.4997491836548,12.4748067855835,12.4499645233154,12.425220489502,12.4005746841431,12.3760271072388,12.3515758514404,12.3272218704224,12.3029623031616,12.2787990570068,12.2547302246094,12.2307558059692,12.2068748474121,12.183087348938,12.1593914031982,12.1357889175415,12.1122770309448,12.0888557434082,12.0655250549316,12.0422840118408,12.0191335678101,11.9960708618164,11.972583770752,11.949161529541,11.9258317947388,11.9025917053223,11.8794431686401,11.8563842773438,11.8334140777588,11.8105335235596,11.7877407073975,11.7650356292725,11.7424182891846,11.7198877334595,11.6974430084229,11.6767463684082,11.6577062606812,11.6387281417847,11.6198120117188,11.6009569168091,11.5821628570557,11.5634298324585,11.5447568893433,11.5261449813843,11.5075922012329,11.4890995025635,11.4706659317017,11.4522914886475,11.4339752197266,11.4157180786133,11.3975191116333,11.3793783187866,11.3612947463989,11.3432693481445,11.3253002166748,11.3073883056641,11.289532661438,11.2717332839966,11.2539901733398,11.2363023757935,11.2186708450317,11.2010946273804,11.183572769165,11.1661062240601,11.1486930847168,11.1313352584839,11.1140308380127,11.0967807769775,11.0795831680298,11.0624389648438,11.0453481674194,11.0283107757568,11.0113248825073,10.9943914413452,10.9775104522705,10.9606800079346,10.943902015686,10.9271755218506,10.9104995727539,10.8938751220703,10.8773002624512,10.8607759475708,10.8443021774292,10.8278779983521,10.8115043640137,10.7951793670654,10.7789039611816,10.762677192688,10.7464990615845,10.7303695678711,10.7073097229004,10.6815013885498,10.6558170318604,10.6302556991577,10.6048173904419,10.5795001983643,10.5543031692505,10.5292263031006,10.5042686462402,10.4794273376465,10.4547052383423,10.4300985336304,10.4056072235107,10.3812313079834,10.3569688796997,10.3328199386597,10.308783531189,10.284857749939,10.261043548584,10.235164642334,10.207142829895,10.1792755126953,10.1515588760376,10.1239929199219,10.0965766906738,10.0693082809448,10.0421867370605,10.0152111053467,9.98837947845459,9.96169185638428,9.93514633178711,9.90874195098877,9.88247680664062,9.85635185241699,9.83036327362061,9.80451202392578,9.7787971496582,9.75321578979492,9.72776794433594,9.70245265960693,9.67726898193359,9.66008949279785,9.64905738830566,9.6380500793457,9.62706756591797,9.61610984802246,9.6051778793335,9.59426975250244,9.58338737487793,9.57252883911133,9.56169509887695,9.5508861541748,9.54010200500488,9.52934169769287,9.51860523223877,9.50789260864258,9.49720573425293,9.48654174804688,9.47590160369873,9.4652853012085,9.45469284057617,9.44412422180176,9.43357944488525,9.42305755615234,9.41255950927734,9.40208435058594,9.39163303375244,9.38120460510254,9.37080001831055,9.36041736602783,9.35005855560303,9.33972263336182,9.32940864562988,9.31911849975586,9.30885028839111
14.2803325653076,14.2808275222778,14.2813196182251,14.2818117141724,14.2823047637939,14.2828016281128,14.2832918167114,14.2837839126587,14.2842779159546,14.2847719192505,14.2852630615234,14.2857570648193,14.2862482070923,14.2867460250854,14.2872362136841,14.2877283096313,14.2882232666016,14.2887172698975,14.2892122268677,14.2897033691406,14.2901973724365,14.2906932830811,14.291184425354,14.291675567627,14.2921724319458,14.2926645278931,14.2931594848633,14.2936515808105,14.2941465377808,14.2946405410767,14.2951354980469,14.2956275939941,14.2961235046387,14.2966156005859,14.2971096038818,14.2976016998291,14.2980985641479,14.2985935211182,14.2990856170654,14.29958152771,14.3000755310059,14.3005685806274,14.3010625839233,14.3015594482422,14.3020544052124,14.302547454834,14.3030395507812,14.3035373687744,14.304030418396,14.3045225143433,14.3050193786621,14.3055152893066,14.3060102462769,14.3065013885498,14.30699634552,14.3074941635132,14.3079862594604,14.3084831237793,14.3089752197266,14.3094720840454,14.3099679946899,14.3104610443115,14.3109540939331,14.3114519119263,14.3119468688965,14.3124408721924,14.3129367828369,14.3134317398071,14.3139266967773,14.3144207000732,14.314920425415,14.3154144287109,14.3159074783325,14.3164033889771,14.3169002532959,14.3173933029175,14.3178901672363,14.3183832168579,14.318883895874,14.3193759918213,14.3198699951172,14.3203659057617,14.3208618164062,14.3213596343994,14.3218545913696,14.3223514556885,14.322847366333,14.3233413696289,14.3238353729248,14.3243360519409,14.3248300552368,14.3253269195557,14.3258199691772,14.3263168334961,14.3268146514893,14.3273077011108,14.3278045654297,14.3283023834229,14.3287982940674,14.3292932510376,14.3297891616821,14.3302869796753,14.3307828903198,14.33127784729,14.3317756652832,14.3322725296021,14.3327674865723,14.3332653045654,14.3337621688843,14.3342609405518,14.334755897522,14.3352499008179,14.335750579834,14.3362455368042,14.3367404937744,14.3372383117676,14.3377351760864,14.3382329940796,14.3387289047241,14.33922290802,14.3397245407104,14.340220451355,14.3407182693481,14.3412113189697,13.372992515564,13.3579235076904,13.342887878418,13.3278865814209,13.3129186630249,13.2979850769043,13.2830839157104,13.268217086792,13.2533826828003,13.2385816574097,13.2238140106201,13.2090787887573,13.1943759918213,13.1797065734863,13.1650695800781,13.1504650115967,13.135892868042,13.1213531494141,13.1068458557129,13.0923700332642,13.0779266357422,13.0635147094727,13.0491342544556,13.0347852706909,13.020468711853,13.0061826705933,12.9919290542603,12.9777059555054,12.9635133743286,12.9493522644043,12.9352226257324,12.9211235046387,12.907054901123,12.8930168151855,12.8790092468262,12.8650321960449,12.8510856628418,12.8371686935425,12.8232822418213,12.8094263076782,12.7955989837646,12.7818031311035,12.7680358886719,12.754298210144,12.74059009552,12.7269124984741,12.7132635116577,12.6996431350708,12.6860523223877,12.6724910736084,12.6589584350586,12.6454544067383,12.6319799423218,12.6185331344604,12.6051158905029,12.5887823104858,12.5634841918945,12.5382871627808,12.5131912231445,12.4881963729858,12.4633007049561,12.4385032653809,12.4138050079346,12.3892049789429,12.3647012710571,12.340295791626,12.3159856796265,12.2917709350586,12.2676515579224,12.2436256408691,12.2196950912476,12.1958570480347,12.1721124649048,12.1484594345093,12.1248989105225,12.1014289855957,12.078049659729,12.0547609329224,12.0315618515015,12.008451461792,11.9854297637939,11.962495803833,11.9391841888428,11.9158926010132,11.892692565918,11.8695812225342,11.8465604782104,11.8236293792725,11.8007860183716,11.7780303955078,11.7553634643555,11.7327823638916,11.7102890014648,11.6878814697266,11.6664428710938,11.6474370956421,11.6284923553467,11.6096086502075,11.5907869338989,11.5720262527466,11.5533256530762,11.534686088562,11.5161056518555,11.4975852966309,11.4791250228882,11.4607229232788,11.4423809051514,11.4240961074829,11.4058704376221,11.3877029418945,11.3695936203003,11.3515405654907,11.3335456848145,11.3156080245972,11.2977266311646,11.2799015045166,11.2621326446533,11.2444190979004,11.2267618179321,11.2091598510742,11.1916131973267,11.1741209030151,11.156683921814,11.1393003463745,11.1219720840454,11.1046962738037,11.087474822998,11.0703067779541,11.0531911849976,11.0361289978027,11.0191192626953,11.0021619796753,10.9852571487427,10.9684038162231,10.9516019821167,10.9348516464233,10.9181518554688,10.9015035629272,10.8849067687988,10.8683586120605,10.8518619537354,10.8354148864746,10.8190183639526,10.8026704788208,10.7863721847534,10.7701234817505,10.7539234161377,10.737771987915,10.7216682434082,10.7056131362915,10.6896066665649,10.669882774353,10.6442537307739,10.6187477111816,10.5933647155762,10.5681009292603,10.5429592132568,10.5179357528687,10.49303150177,10.4682445526123,10.4435739517212,10.4190196990967,10.3945808410645,10.3702564239502,10.3460454940796,10.321946144104,10.2979602813721,10.2740859985352,10.2503213882446,10.2266664505005,10.1997184753418,10.1718912124634,10.144214630127,10.1166887283325,10.0893115997314,10.0620822906494,10.0349998474121,10.0080633163452,9.98126983642578,9.95462036132812,9.9281120300293,9.9017448425293,9.87551689147949,9.84942817687988,9.82347679138184,9.79766178131104,9.77198219299316,9.74643611907959,9.72102451324463,9.69574451446533,9.67059516906738,9.65300846099854,9.64199256896973,9.63100147247314,9.62003517150879,9.60909366607666,9.59817695617676,9.58728504180908,9.57641792297363,9.56557559967041,9.55475807189941,9.54396438598633,9.53319549560547,9.52245044708252,9.5117301940918,9.50103378295898,9.49036121368408,9.47971248626709,9.46908760070801,9.45848655700684,9.44790935516357,9.43735599517822,9.42682552337646,9.41631984710693,9.40583610534668,9.39537620544434,9.3849401473999,9.37452697753906,9.36413669586182,9.35376930236816,9.34342479705811,9.33310317993164,9.32280445098877,9.31252861022949,9.30227470397949,9.29204368591309
14.1736764907837,14.1741647720337,14.1746511459351,14.1751365661621,14.1756219863892,14.1761064529419,14.1765918731689,14.1770801544189,14.177562713623,14.1780490875244,14.1785373687744,14.1790208816528,14.1795082092285,14.1799917221069,14.1804828643799,14.1809663772583,14.181450843811,14.1819372177124,14.1824235916138,14.1829099655151,14.1833944320679,14.1838817596436,14.1843700408936,14.1848554611206,14.1853399276733,14.185830116272,14.1863126754761,14.1868009567261,14.1872863769531,14.1877737045288,14.1882610321045,14.1887464523315,14.1892318725586,14.1897220611572,14.1902055740356,14.1906929016113,14.1911792755127,14.1916656494141,14.1921548843384,14.1926393508911,14.1931257247925,14.1936140060425,14.1940994262695,14.1945877075195,14.1950731277466,14.1955604553223,14.1960477828979,14.1965360641479,14.1970252990723,14.197509765625,14.1979961395264,14.1984844207764,14.1989727020264,14.1994619369507,14.1999454498291,14.2004327774048,14.2009229660034,14.2014074325562,14.2018938064575,14.2023830413818,14.2028694152832,14.2033596038818,14.2038450241089,14.2043313980103,14.2048215866089,14.2053089141846,14.2057962417603,14.2062826156616,14.2067718505859,14.2072601318359,14.2077465057373,14.2082347869873,14.2087240219116,14.2092113494873,14.2096996307373,14.2101888656616,14.2106742858887,14.211163520813,14.2116498947144,14.2121419906616,14.212628364563,14.21311378479,14.2136039733887,14.214093208313,14.21457862854,14.215069770813,14.2155570983887,14.2160491943359,14.2165336608887,14.2170209884644,14.217511177063,14.2180004119873,14.2184886932373,14.2189769744873,14.2194671630859,14.2199563980103,14.2204437255859,14.220929145813,14.2214221954346,14.2219095230103,14.2223987579346,14.2228870391846,14.2233772277832,14.2238674163818,14.2243537902832,14.2248430252075,14.2253332138062,14.2258205413818,14.2263116836548,14.2267980575562,14.2272872924805,14.2277784347534,14.2282667160034,14.2287569046021,14.2292451858521,14.2297344207764,14.230224609375,14.2307138442993,14.2312059402466,14.2316923141479,14.2321796417236,13.3364601135254,13.3214731216431,13.3065195083618,13.2915992736816,13.2767133712769,13.2618598937988,13.2470397949219,13.232253074646,13.2174997329712,13.2027788162231,13.1880903244019,13.1734342575073,13.1588115692139,13.1442213058472,13.1296625137329,13.1151361465454,13.1006422042847,13.0861806869507,13.0717506408691,13.05735206604,13.0429859161377,13.0286502838135,13.014347076416,13.0000743865967,12.9858341217041,12.9716243743896,12.9574451446533,12.9432973861694,12.929181098938,12.9150943756104,12.9010391235352,12.8870143890381,12.8730201721191,12.859055519104,12.8451223373413,12.8312187194824,12.8173446655273,12.8035011291504,12.7896871566772,12.7759037017822,12.7621488571167,12.7484245300293,12.7347297668457,12.7210636138916,12.7074270248413,12.6938199996948,12.6802415847778,12.6666927337646,12.653172492981,12.6396808624268,12.6262178421021,12.6127834320068,12.5993785858154,12.5860013961792,12.5726528167725,12.5593328475952,12.5460405349731,12.5327758789062,12.5195398330688,12.5016136169434,12.4766645431519,12.4518146514893,12.4270639419556,12.4024105072021,12.3778553009033,12.3533973693848,12.3290357589722,12.3047695159912,12.2805995941162,12.2565231323242,12.2325420379639,12.2086534500122,12.1848592758179,12.1611566543579,12.1375465393066,12.1140279769897,12.0906000137329,12.0672626495361,12.0440158843994,12.0208578109741,11.9977884292603,11.9748077392578,11.9519147872925,11.9291095733643,11.9059705734253,11.8828086853027,11.8597364425659,11.8367538452148,11.8138599395752,11.791054725647,11.7683372497559,11.7457065582275,11.7231636047363,11.7007064819336,11.6783351898193,11.6561584472656,11.6371850967407,11.6182737350464,11.5994243621826,11.5806350708008,11.5619068145752,11.5432395935059,11.5246315002441,11.5060844421387,11.4875955581665,11.4691677093506,11.450798034668,11.4324865341187,11.414234161377,11.3960399627686,11.3779039382935,11.3598251342773,11.3418035507202,11.3238391876221,11.3059320449829,11.2880811691284,11.2702865600586,11.2525472640991,11.2348651885986,11.2172374725342,11.1996650695801,11.1821479797363,11.1646862030029,11.1472778320312,11.1299238204956,11.112624168396,11.0953779220581,11.0781850814819,11.0610456466675,11.0439586639404,11.0269250869751,11.0099439620972,10.9930143356323,10.9761371612549,10.9593114852905,10.9425382614136,10.9258155822754,10.909143447876,10.8925228118896,10.8759527206421,10.8594331741333,10.842963218689,10.8265428543091,10.810173034668,10.793851852417,10.7775802612305,10.7613573074341,10.7451839447021,10.729058265686,10.7129812240601,10.6969528198242,10.6809711456299,10.6650381088257,10.649151802063,10.6327152252197,10.6072654724121,10.5819358825684,10.5567274093628,10.5316390991211,10.5066699981689,10.4818181991577,10.4570837020874,10.432466506958,10.4079637527466,10.3835773468018,10.3593034744263,10.3351440429688,10.3110961914062,10.2871608734131,10.2633352279663,10.2396202087402,10.2160148620605,10.1923046112061,10.1645174026489,10.1368808746338,10.1093950271606,10.0820569992065,10.0548667907715,10.0278234481812,10.0009250640869,9.97416973114014,9.94755744934082,9.92108726501465,9.89475727081299,9.86856651306152,9.84251499176025,9.81659984588623,9.79082012176514,9.76517677307129,9.73966598510742,9.71428966522217,9.68904399871826,9.66393089294434,9.6459379196167,9.63493728637695,9.62396240234375,9.61301231384277,9.60208702087402,9.5911865234375,9.5803108215332,9.56945896148682,9.55863189697266,9.54783058166504,9.53705215454102,9.52629852294922,9.51556968688965,9.50486469268799,9.49418354034424,9.4835262298584,9.47289276123047,9.46228408813477,9.45169830322266,9.44113636016846,9.43059730529785,9.42008304595947,9.40959072113037,9.3991231918335,9.38867855072021,9.37825679779053,9.36785793304443,9.35748195648193,9.34712982177734,9.33679962158203,9.32649326324463,9.3162088394165,9.30594730377197,9.29570865631104,9.28549194335938,9.27529811859131
14.0686063766479,14.0690841674805,14.0695610046387,14.0700387954712,14.070517539978,14.0709972381592,14.0714750289917,14.0719509124756,14.072434425354,14.0729122161865,14.0733880996704,14.0738706588745,14.0743474960327,14.0748271942139,14.0753049850464,14.0757837295532,14.0762634277344,14.0767412185669,14.0772218704224,14.0777025222778,14.0781784057617,14.0786581039429,14.0791358947754,14.0796155929565,14.0800952911377,14.0805721282959,14.0810537338257,14.0815343856812,14.082010269165,14.0824899673462,14.0829677581787,14.0834522247314,14.083930015564,14.0844068527222,14.0848894119263,14.0853681564331,14.0858469009399,14.0863265991211,14.0868072509766,14.087287902832,14.0877647399902,14.0882444381714,14.0887269973755,14.089204788208,14.0896844863892,14.090163230896,14.0906429290771,14.0911245346069,14.0916042327881,14.0920829772949,14.0925645828247,14.0930442810059,14.093523979187,14.0940065383911,14.0944833755493,14.0949640274048,14.0954427719116,14.09592628479,14.0964050292969,14.0968837738037,14.0973653793335,14.0978469848633,14.0983247756958,14.0988073348999,14.0992851257324,14.0997695922852,14.100248336792,14.1007261276245,14.1012086868286,14.1016883850098,14.1021709442139,14.1026515960693,14.1031293869019,14.1036138534546,14.1040935516357,14.1045713424683,14.105055809021,14.1055364608765,14.1060161590576,14.1064968109131,14.1069774627686,14.107460975647,14.1079406738281,14.1084213256836,14.1089038848877,14.1093835830688,14.1098651885986,14.1103439331055,14.1108264923096,14.1113090515137,14.1117897033691,14.1122703552246,14.1127519607544,14.1132335662842,14.1137142181396,14.1141958236694,14.1146783828735,14.1151599884033,14.1156387329102,14.1161231994629,14.1166038513184,14.1170845031738,14.1175670623779,14.118049621582,14.1185302734375,14.1190118789673,14.1194934844971,14.1199779510498,14.1204566955566,14.1209411621094,14.1214199066162,14.1219034194946,14.1223878860474,14.1228656768799,14.1233463287354,14.123833656311,14.1243133544922,13.3150653839111,13.3001260757446,13.2852210998535,13.2703485488892,13.2555093765259,13.2407035827637,13.2259311676025,13.2111911773682,13.1964845657349,13.1818103790283,13.1671686172485,13.1525592803955,13.1379823684692,13.1234378814697,13.108925819397,13.0944452285767,13.0799970626831,13.065580368042,13.0511960983276,13.0368432998657,13.0225210189819,13.0082311630249,12.9939727783203,12.9797449111938,12.9655485153198,12.9513826370239,12.9372482299805,12.9231452941895,12.9090719223022,12.8950290679932,12.8810176849365,12.8670358657837,12.8530855178833,12.8391647338867,12.8252735137939,12.8114128112793,12.7975816726685,12.7837810516357,12.7700099945068,12.7562685012817,12.7425556182861,12.7288732528687,12.715220451355,12.7015962600708,12.6880016326904,12.6744356155396,12.6608991622925,12.6473913192749,12.6339120864868,12.6204614639282,12.6070394515991,12.5936460494995,12.5802812576294,12.5669450759888,12.5536365509033,12.5403566360474,12.5271043777466,12.5138807296753,12.5006847381592,12.4875154495239,12.4743747711182,12.4612627029419,12.4481763839722,12.4351186752319,12.4156446456909,12.3910369873047,12.3665266036987,12.342113494873,12.317795753479,12.2935743331909,12.2694473266602,12.245415687561,12.2214775085449,12.1976327896118,12.1738805770874,12.1502208709717,12.1266536712646,12.1031770706177,12.0797910690308,12.0564956665039,12.0332899093628,12.0101728439331,11.9871444702148,11.964204788208,11.9413528442383,11.918586730957,11.8959083557129,11.8729419708252,11.849907875061,11.8269634246826,11.8041067123413,11.7813396453857,11.7586584091187,11.736065864563,11.7135601043701,11.6911392211914,11.6688041687012,11.6465549468994,11.6269521713257,11.6080741882324,11.5892572402954,11.5705003738403,11.5518054962158,11.5331707000732,11.5145950317383,11.4960794448853,11.4776239395142,11.4592275619507,11.4408893585205,11.4226102828979,11.4043893814087,11.3862257003784,11.3681211471558,11.3500728607178,11.3320827484131,11.3141489028931,11.296272277832,11.2784519195557,11.260687828064,11.2429790496826,11.2253265380859,11.2077293395996,11.1901865005493,11.1726989746094,11.1552658081055,11.1378870010376,11.1205625534058,11.1032915115356,11.0860748291016,11.0689105987549,11.0517997741699,11.0347423553467,11.0177364349365,11.0007839202881,10.9838819503784,10.9670333862305,10.9502353668213,10.9334897994995,10.9167947769165,10.9001502990723,10.8835563659668,10.8670139312744,10.8505210876465,10.834077835083,10.8176851272583,10.801342010498,10.7850475311279,10.7688026428223,10.7526054382324,10.7364587783813,10.7203588485718,10.7043085098267,10.688304901123,10.6723499298096,10.6564426422119,10.6405820846558,10.6247692108154,10.6090030670166,10.593282699585,10.5705318450928,10.5453777313232,10.5203437805176,10.4954271316528,10.4706287384033,10.4459476470947,10.4213829040527,10.3969326019287,10.3725967407227,10.3483743667603,10.3242654800415,10.3002691268921,10.2763833999634,10.2526073455811,10.2289419174194,10.2053861618042,10.1819372177124,10.1571550369263,10.1295585632324,10.1021118164062,10.0748138427734,10.0476627349854,10.0206575393677,9.99379730224609,9.96708011627197,9.94050598144531,9.91407299041748,9.88778018951416,9.86162662506104,9.83561038970947,9.80973148345947,9.78398895263672,9.75838088989258,9.73290634155273,9.70756435394287,9.68235397338867,9.65727424621582,9.63887786865234,9.62789344787598,9.61693477630615,9.60599994659424,9.59509086608887,9.58420562744141,9.57334613800049,9.56251049041748,9.5516996383667,9.54091262817383,9.53015041351318,9.51941299438477,9.50869846343994,9.49800872802734,9.48734378814697,9.4767017364502,9.46608352661133,9.45548915863037,9.44491863250732,9.43437194824219,9.42384910583496,9.41334915161133,9.40287208557129,9.39241886138916,9.38198947906494,9.37158203125,9.36119842529297,9.35083770751953,9.34049987792969,9.33018493652344,9.31989192962646,9.3096227645874,9.29937553405762,9.28915119171143,9.27894878387451,9.26876926422119,9.25861263275146
13.9650764465332,13.9655513763428,13.9660205841064,13.9664897918701,13.9669647216797,13.9674348831177,13.9679040908813,13.9683780670166,13.968846321106,13.9693231582642,13.9697923660278,13.9702634811401,13.9707355499268,13.9712085723877,13.9716796875,13.972149848938,13.9726247787476,13.9730958938599,13.9735679626465,13.9740371704102,13.9745140075684,13.974983215332,13.9754571914673,13.975926399231,13.9763994216919,13.9768733978271,13.9773416519165,13.9778146743774,13.978289604187,13.9787607192993,13.9792337417603,13.9797029495239,13.9801769256592,13.9806499481201,13.9811210632324,13.981593132019,13.98206615448,13.9825382232666,13.9830131530762,13.9834861755371,13.9839582443237,13.9844303131104,13.9849014282227,13.9853782653809,13.9858474731445,13.9863185882568,13.9867935180664,13.9872665405273,13.9877414703369,13.9882116317749,13.9886817932129,13.9891586303711,13.9896306991577,13.9901037216187,13.9905757904053,13.9910497665405,13.9915227890015,13.9919958114624,13.992467880249,13.9929437637329,13.9934139251709,13.9938907623291,13.9943628311157,13.9948358535767,13.9953098297119,13.9957809448242,13.9962577819824,13.996729850769,13.9972009658813,13.9976768493652,13.9981517791748,13.9986238479614,13.999095916748,13.999568939209,14.0000476837158,14.0005178451538,14.0009908676147,14.0014657974243,14.0019397735596,14.0024147033691,14.0028867721558,14.0033597946167,14.0038385391235,14.0043087005615,14.0047826766968,14.005259513855,14.0057306289673,14.0062065124512,14.0066795349121,14.007152557373,14.0076293945312,14.0081014633179,14.0085773468018,14.009051322937,14.0095252990723,14.0099992752075,14.0104722976685,14.0109481811523,14.0114240646362,14.0118970870972,14.0123710632324,14.0128479003906,14.0133199691772,14.0137968063354,14.014271736145,14.0147476196289,14.0152196884155,14.0156927108765,14.0161714553833,14.0166444778442,14.0171165466309,14.0175924301147,14.0180692672729,13.2937393188477,13.278847694397,13.2639894485474,13.2491655349731,13.2343740463257,13.219614982605,13.2048892974854,13.1901960372925,13.1755361557007,13.1609086990356,13.146312713623,13.1317501068115,13.1172189712524,13.1027212142944,13.0882539749146,13.0738201141357,13.0594167709351,13.0450458526611,13.0307064056396,13.0163984298706,13.0021209716797,12.9878759384155,12.9736614227295,12.9594783782959,12.9453258514404,12.9312047958374,12.9171142578125,12.9030542373657,12.8890256881714,12.8750267028809,12.8610582351685,12.8471202850342,12.8332118988037,12.8193340301514,12.8054866790771,12.7916679382324,12.7778797149658,12.764121055603,12.7503929138184,12.7366933822632,12.7230234146118,12.7093820571899,12.6957712173462,12.6821880340576,12.6686353683472,12.6551103591919,12.6416149139404,12.6281480789185,12.614709854126,12.601300239563,12.5879192352295,12.5745668411255,12.5612421035767,12.5479459762573,12.5346784591675,12.5214376449585,12.508225440979,12.495041847229,12.4818849563599,12.4687566757202,12.4556550979614,12.4425811767578,12.4295349121094,12.4165163040161,12.4035243988037,12.3905591964722,12.3776226043701,12.3647117614746,12.35182762146,12.330849647522,12.3065767288208,12.2823991775513,12.2583169937134,12.2343282699585,12.2104330062866,12.1866312026978,12.1629219055176,12.1393051147461,12.115779876709,12.0923452377319,12.0690011978149,12.0457468032837,12.0225830078125,11.9995069503784,11.9765195846558,11.9536199569702,11.9308080673218,11.9080829620361,11.8854446411133,11.8628921508789,11.8400955200195,11.8171882629395,11.7943706512451,11.7716398239136,11.7489967346191,11.7264413833618,11.7039709091187,11.6815881729126,11.6592893600464,11.6370763778687,11.6167364120483,11.5978918075562,11.5791072845459,11.5603847503662,11.5417213439941,11.5231189727783,11.5045766830444,11.4860925674438,11.4676694869995,11.4493045806885,11.4309978485107,11.4127502441406,11.3945608139038,11.3764295578003,11.3583555221558,11.3403387069702,11.3223791122437,11.3044757843018,11.2866296768188,11.2688398361206,11.2511053085327,11.2334270477295,11.2158041000366,11.1982364654541,11.1807241439819,11.1632661819458,11.1458625793457,11.1285133361816,11.1112174987793,11.093976020813,11.0767869949341,11.0596523284912,11.0425701141357,11.0255403518677,11.008563041687,10.9916381835938,10.9747648239136,10.9579439163208,10.9411745071411,10.9244556427002,10.9077882766724,10.8911714553833,10.874605178833,10.8580894470215,10.8416242599487,10.8252077102661,10.8088417053223,10.7925252914429,10.7762575149536,10.7600383758545,10.7438688278198,10.727746963501,10.7116737365723,10.6956491470337,10.6796722412109,10.6637420654297,10.6478605270386,10.632025718689,10.6162376403809,10.6004972457886,10.5848026275635,10.5691547393799,10.5535526275635,10.5340538024902,10.509072303772,10.4842100143433,10.4594640731812,10.43483543396,10.4103221893311,10.3859233856201,10.3616390228271,10.3374691009521,10.3134107589722,10.2894639968872,10.2656278610229,10.2419023513794,10.2182865142822,10.1947793960571,10.1713790893555,10.1480865478516,10.1222457885742,10.0948390960693,10.0675802230835,10.0404682159424,10.0135011672974,9.98667907714844,9.96000099182129,9.93346405029297,9.90706825256348,9.8808126449585,9.85469532012939,9.82871627807617,9.8028736114502,9.77716636657715,9.75159454345703,9.72615528106689,9.70084857940674,9.67567348480225,9.65062808990479,9.63182735443115,9.62085914611816,9.60991668701172,9.59899806976318,9.58810424804688,9.57723522186279,9.56639099121094,9.55557155609131,9.54477596282959,9.5340051651001,9.52325820922852,9.51253604888916,9.50183773040771,9.49116325378418,9.48051261901855,9.46988677978516,9.45928382873535,9.44870471954346,9.43814945220947,9.4276180267334,9.41710948944092,9.40662479400635,9.39616298675537,9.3857250213623,9.37530994415283,9.36491775512695,9.35454845428467,9.34420299530029,9.3338794708252,9.32357883453369,9.31330108642578,9.30304622650146,9.29281330108643,9.28260326385498,9.27241611480713,9.26224994659424,9.25210762023926,9.24198627471924
13.8630638122559,13.8635272979736,13.8639917373657,13.8644561767578,13.8649206161499,13.865385055542,13.865852355957,13.8663139343262,13.8667802810669,13.8672428131104,13.8677091598511,13.8681755065918,13.8686380386353,13.8691053390503,13.8695707321167,13.8700342178345,13.8704986572266,13.8709621429443,13.871431350708,13.8718957901001,13.8723573684692,13.8728227615356,13.8732900619507,13.8737525939941,13.8742198944092,13.8746862411499,13.8751525878906,13.8756160736084,13.8760776519775,13.8765478134155,13.8770122528076,13.877477645874,13.8779420852661,13.8784093856812,13.8788747787476,13.879337310791,13.8798027038574,13.8802719116211,13.8807363510132,13.8812017440796,13.8816661834717,13.8821334838867,13.8826007843018,13.8830642700195,13.8835334777832,13.8839979171753,13.8844623565674,13.8849296569824,13.8853960037231,13.8858604431152,13.8863258361816,13.8867893218994,13.887261390686,13.8877248764038,13.8881893157959,13.8886566162109,13.8891220092773,13.8895902633667,13.8900566101074,13.8905191421509,13.8909902572632,13.891453742981,13.8919191360474,13.8923864364624,13.8928537368774,13.8933210372925,13.8937864303589,13.8942537307739,13.8947219848633,13.8951864242554,13.8956546783447,13.8961229324341,13.8965864181519,13.8970546722412,13.8975200653076,13.897988319397,13.8984546661377,13.8989200592041,13.8993883132935,13.8998556137085,13.9003219604492,13.9007883071899,13.9012537002563,13.9017248153687,13.9021902084351,13.9026546478271,13.9031229019165,13.9035921096802,13.9040594100952,13.9045257568359,13.904993057251,13.9054613113403,13.9059276580811,13.9063930511475,13.9068651199341,13.9073305130005,13.9077987670898,13.9082632064819,13.9087324142456,13.909200668335,13.9096670150757,13.910135269165,13.9106044769287,13.9110698699951,13.9115381240845,13.9120044708252,13.9124736785889,13.9129409790039,13.9134082794189,13.2724809646606,13.2576370239258,13.242826461792,13.2280492782593,13.2133045196533,13.1985931396484,13.1839141845703,13.1692676544189,13.1546545028687,13.1400728225708,13.1255235671997,13.1110067367554,13.0965213775635,13.0820684432983,13.06764793396,13.053258895874,13.0389013290405,13.0245752334595,13.0102806091309,12.9960174560547,12.9817848205566,12.967583656311,12.9534139633179,12.9392747879028,12.9251670837402,12.9110898971558,12.8970432281494,12.8830270767212,12.8690414428711,12.8550853729248,12.841160774231,12.8272657394409,12.8134002685547,12.7995653152466,12.7857599258423,12.7719841003418,12.7582387924194,12.7445220947266,12.7308359146118,12.7171783447266,12.7035493850708,12.6899509429932,12.676381111145,12.6628398895264,12.6493282318115,12.6358442306519,12.622389793396,12.6089639663696,12.5955667495728,12.5821981430054,12.5688571929932,12.5555448532104,12.5422611236572,12.5290050506592,12.5157766342163,12.5025768280029,12.4894037246704,12.4762592315674,12.4631423950195,12.4500532150269,12.436990737915,12.4239568710327,12.4109487533569,12.3979692459106,12.3850164413452,12.3720903396606,12.3591909408569,12.3463191986084,12.3334732055664,12.3206548690796,12.3078632354736,12.2950973510742,12.2823581695557,12.269645690918,12.2472057342529,12.2232608795166,12.199408531189,12.1756496429443,12.1519832611084,12.1284093856812,12.1049251556396,12.0815334320068,12.0582304000854,12.0350179672241,12.0118951797485,11.9888601303101,11.965913772583,11.9430541992188,11.9202833175659,11.8975973129272,11.8749990463257,11.8524856567383,11.8300580978394,11.807430267334,11.784649848938,11.7619562149048,11.739351272583,11.7168312072754,11.6943988800049,11.6720523834229,11.6497898101807,11.627613067627,11.606538772583,11.5877275466919,11.5689764022827,11.5502853393555,11.5316553115845,11.5130853652954,11.494574546814,11.4761238098145,11.4577312469482,11.439398765564,11.4211235046387,11.402907371521,11.3847494125366,11.3666486740112,11.3486061096191,11.330620765686,11.3126916885376,11.2948188781738,11.277003288269,11.2592439651489,11.2415399551392,11.2238912582397,11.206298828125,11.1887607574463,11.1712770462036,11.1538486480713,11.136474609375,11.1191539764404,11.1018877029419,11.0846748352051,11.06751537323,11.0504093170166,11.0333547592163,11.0163536071777,10.9994049072266,10.9825086593628,10.9656629562378,10.9488697052002,10.9321279525757,10.9154367446899,10.8987970352173,10.8822078704834,10.865668296814,10.8491802215576,10.8327407836914,10.816351890564,10.800012588501,10.7837228775024,10.767481803894,10.7512893676758,10.7351455688477,10.7190504074097,10.7030029296875,10.6870040893555,10.6710529327393,10.6551494598389,10.63929271698,10.6234836578369,10.607720375061,10.592004776001,10.5763359069824,10.5607128143311,10.5451364517212,10.5296049118042,10.5141201019287,10.4978246688843,10.473014831543,10.4483232498169,10.4237461090088,10.3992853164673,10.3749380111694,10.3507061004639,10.3265857696533,10.3025779724121,10.2786817550659,10.2548952102661,10.2312202453613,10.2076530456543,10.184193611145,10.1608428955078,10.137598991394,10.1144609451294,10.0875768661499,10.060357093811,10.0332832336426,10.0063552856445,9.97957134246826,9.95293045043945,9.92643165588379,9.90007305145264,9.873854637146,9.84777450561523,9.82183170318604,9.79602527618408,9.77035427093506,9.74481678009033,9.71941375732422,9.69414138793945,9.66900157928467,9.6439905166626,9.62478828430176,9.61383533477783,9.60290813446045,9.59200572967529,9.58112812042236,9.57027530670166,9.55944633483887,9.5486421585083,9.53786277770996,9.52710723876953,9.51637649536133,9.50566959381104,9.49498653411865,9.48432731628418,9.47369289398193,9.46308135986328,9.45249366760254,9.44193077087402,9.43138980865479,9.42087364196777,9.41038036346436,9.39990997314453,9.38946342468262,9.3790397644043,9.36863994598389,9.35826301574707,9.34790802001953,9.3375768661499,9.32726860046387,9.31698226928711,9.30671882629395,9.29647827148438,9.2862606048584,9.2760648727417,9.26589107513428,9.25574016571045,9.2456111907959,9.23550510406494,9.22541999816895
13.7625284194946,13.7629871368408,13.7634420394897,13.7638998031616,13.7643604278564,13.7648162841797,13.7652721405029,13.7657337188721,13.7661914825439,13.7666492462158,13.7671070098877,13.7675657272339,13.7680253982544,13.7684812545776,13.7689409255981,13.76939868927,13.7698564529419,13.7703151702881,13.770770072937,13.7712306976318,13.7716903686523,13.7721462249756,13.7726068496704,13.7730665206909,13.7735223770142,13.7739820480347,13.7744379043579,13.7749013900757,13.7753572463989,13.7758150100708,13.7762765884399,13.7767353057861,13.7771911621094,13.7776498794556,13.7781085968018,13.7785701751709,13.7790279388428,13.779483795166,13.7799472808838,13.7804040908813,13.7808637619019,13.7813205718994,13.7817811965942,13.7822399139404,13.7826976776123,13.7831554412842,13.7836179733276,13.7840757369995,13.7845373153687,13.7849931716919,13.785454750061,13.7859134674072,13.7863702774048,13.7868337631226,13.7872915267944,13.7877492904663,13.7882099151611,13.788670539856,13.7891302108765,13.7895879745483,13.7900485992432,13.7905111312866,13.7909679412842,13.7914257049561,13.7918853759766,13.79234790802,13.7928085327148,13.7932662963867,13.7937240600586,13.7941884994507,13.7946462631226,13.7951049804688,13.7955665588379,13.7960262298584,13.7964887619019,13.7969455718994,13.7974081039429,13.7978687286377,13.7983264923096,13.7987871170044,13.7992486953735,13.7997064590454,13.8001680374146,13.8006267547607,13.8010883331299,13.801549911499,13.8020095825195,13.8024682998657,13.8029308319092,13.8033895492554,13.8038511276245,13.8043088912964,13.8047733306885,13.8052320480347,13.8056917190552,13.8061571121216,13.8066139221191,13.807074546814,13.8075351715088,13.8079957962036,13.8084602355957,13.8089179992676,13.8093776702881,13.8098421096802,13.8103008270264,13.2512903213501,13.2364940643311,13.2217311859131,13.2070007324219,13.1923027038574,13.177638053894,13.1630058288574,13.1484060287476,13.1338386535645,13.1193027496338,13.1047992706299,13.0903282165527,13.0758895874023,13.0614814758301,13.0471057891846,13.0327625274658,13.0184497833252,13.004168510437,12.9899187088013,12.9756994247437,12.9615125656128,12.9473552703857,12.9332294464111,12.919135093689,12.9050703048706,12.8910369873047,12.8770341873169,12.8630609512329,12.8491182327271,12.8352060317993,12.8213243484497,12.8074722290039,12.7936496734619,12.7798566818237,12.7660942077637,12.7523612976074,12.7386569976807,12.724983215332,12.7113380432129,12.6977224349976,12.684136390686,12.670578956604,12.6570501327515,12.6435499191284,12.6300792694092,12.6166372299194,12.6032238006592,12.5898380279541,12.5764818191528,12.5631532669067,12.5498523712158,12.5365810394287,12.5233364105225,12.5101203918457,12.4969320297241,12.4837713241577,12.4706392288208,12.4575338363647,12.4444561004639,12.4314060211182,12.4183826446533,12.4053869247437,12.3924188613892,12.3794775009155,12.3665628433228,12.3536758422852,12.3408145904541,12.3279809951782,12.3151741027832,12.3023929595947,12.2896385192871,12.2769117355347,12.2642097473145,12.2515344619751,12.2388858795166,12.2262630462646,12.2136659622192,12.2010955810547,12.188404083252,12.1646881103516,12.1410646438599,12.1175327301025,12.094090461731,12.0707406997681,12.0474796295166,12.0243082046509,12.0012254714966,11.978232383728,11.9553260803223,11.9325075149536,11.9097757339478,11.8871307373047,11.8645715713501,11.842098236084,11.819709777832,11.7974052429199,11.7749452590942,11.7522888183594,11.7297210693359,11.7072381973267,11.6848421096802,11.6625318527222,11.6403064727783,11.6181650161743,11.5963592529297,11.5775804519653,11.5588617324829,11.5402040481567,11.5216064453125,11.5030689239502,11.4845905303955,11.4661712646484,11.447811126709,11.4295101165771,11.4112672805786,11.3930816650391,11.3749551773071,11.3568859100342,11.3388738632202,11.3209190368652,11.3030204772949,11.2851791381836,11.2673931121826,11.2496633529663,11.2319898605347,11.2143716812134,11.1968088150024,11.1793003082275,11.161847114563,11.1444473266602,11.1271028518677,11.1098117828369,11.0925741195679,11.0753898620605,11.0582590103149,11.0411815643311,11.0241556167603,11.0071830749512,10.9902620315552,10.9733934402466,10.9565763473511,10.9398107528687,10.9230966567993,10.9064331054688,10.889820098877,10.8732585906982,10.856746673584,10.8402853012085,10.8238735198975,10.8075113296509,10.7911987304688,10.7749347686768,10.7587203979492,10.7425537109375,10.7264366149902,10.7103672027588,10.6943464279175,10.678373336792,10.662446975708,10.6465692520142,10.6307382583618,10.614953994751,10.599217414856,10.5835266113281,10.5678825378418,10.5522842407227,10.536732673645,10.5212259292603,10.505765914917,10.4903507232666,10.4749803543091,10.4596548080444,10.4372053146362,10.4126806259155,10.3882713317871,10.3639764785767,10.3397951126099,10.3157253265381,10.2917680740356,10.2679224014282,10.2441854476929,10.2205591201782,10.1970415115356,10.1736307144165,10.1503286361694,10.1271324157715,10.1040420532227,10.0803251266479,10.0531435012817,10.0261096954346,9.99921989440918,9.97247505187988,9.94587135314941,9.91940975189209,9.89308834075928,9.86690711975098,9.84086322784424,9.81495666503906,9.78918647766113,9.76355075836182,9.73804950714111,9.71268081665039,9.68744468688965,9.66233825683594,9.63736248016357,9.61775875091553,9.60682201385498,9.59591102600098,9.58502388000488,9.57416248321533,9.56332492828369,9.55251216888428,9.54172420501709,9.53096008300781,9.52021980285645,9.5095043182373,9.49881267547607,9.48814582824707,9.47750186920166,9.46688175201416,9.45628643035889,9.44571399688721,9.43516540527344,9.42464065551758,9.41413879394531,9.40366077423096,9.3932056427002,9.38277339935303,9.37236499786377,9.36197948455811,9.35161685943604,9.34127712249756,9.33096027374268,9.32066631317139,9.31039524078369,9.30014610290527,9.28991985321045,9.27971649169922,9.26953506469727,9.25937652587891,9.24923896789551,9.2391242980957,9.22903251647949,9.21896171569824,9.20891284942627
13.6634407043457,13.6638917922974,13.6643419265747,13.664794921875,13.6652450561523,13.6656980514526,13.66614818573,13.666597366333,13.6670513153076,13.667501449585,13.6679553985596,13.6684055328369,13.6688575744629,13.6693096160889,13.6697597503662,13.6702089309692,13.6706638336182,13.6711158752441,13.6715669631958,13.6720170974731,13.6724691390991,13.672924041748,13.6733732223511,13.6738262176514,13.6742792129517,13.6747303009033,13.6751823425293,13.6756324768066,13.6760854721069,13.6765375137329,13.6769895553589,13.6774425506592,13.6778945922852,13.6783456802368,13.6787986755371,13.6792516708374,13.679705619812,13.680154800415,13.6806058883667,13.6810607910156,13.6815118789673,13.6819639205933,13.6824159622192,13.6828708648682,13.6833248138428,13.6837739944458,13.6842241287231,13.684681892395,13.6851320266724,13.6855869293213,13.6860370635986,13.6864910125732,13.6869430541992,13.6873950958252,13.6878461837769,13.6883039474487,13.6887550354004,13.6892080307007,13.6896619796753,13.6901121139526,13.6905660629272,13.6910190582275,13.6914749145508,13.6919250488281,13.6923770904541,13.692831993103,13.693284034729,13.6937370300293,13.6941919326782,13.6946430206299,13.6950998306274,13.6955509185791,13.6960029602051,13.6964569091797,13.6969118118286,13.6973657608032,13.6978168487549,13.6982698440552,13.6987276077271,13.6991786956787,13.699631690979,13.7000865936279,13.7005386352539,13.7009935379028,13.7014455795288,13.7019014358521,13.7023544311523,13.7028074264526,13.7032613754272,13.7037162780762,13.7041692733765,13.7046251296997,13.7050771713257,13.7055320739746,13.7059850692749,13.7064390182495,13.7068929672241,13.7073488235474,13.7078008651733,13.7082557678223,13.7087078094482,13.2301683425903,13.2154188156128,13.2007026672363,13.1860189437866,13.1713676452637,13.1567497253418,13.1421632766724,13.127610206604,13.1130886077881,13.0985984802246,13.0841407775879,13.0697154998779,13.0553216934204,13.0409593582153,13.026629447937,13.0123300552368,12.9980621337891,12.9838256835938,12.9696207046509,12.9554462432861,12.9413022994995,12.9271898269653,12.9131078720093,12.8990573883057,12.8850364685059,12.8710460662842,12.8570861816406,12.8431568145752,12.8292579650879,12.8153886795044,12.8015489578247,12.7877397537231,12.7739601135254,12.7602100372314,12.746488571167,12.7327976226807,12.7191362380981,12.7055044174194,12.6919002532959,12.6783266067505,12.6647815704346,12.6512651443481,12.6377782821655,12.6243190765381,12.6108894348145,12.597487449646,12.5841150283813,12.5707702636719,12.5574541091919,12.5441656112671,12.5309057235718,12.5176734924316,12.504469871521,12.4912929534912,12.4781446456909,12.4650230407715,12.4519300460815,12.4388637542725,12.4258251190186,12.4128141403198,12.3998308181763,12.3868732452393,12.3739433288574,12.3610410690308,12.3481645584106,12.3353157043457,12.3224935531616,12.3096971511841,12.2969284057617,12.2841854095459,12.2714691162109,12.2587785720825,12.246114730835,12.2334766387939,12.2208652496338,12.2082796096802,12.1957197189331,12.1831855773926,12.1706771850586,12.1581945419312,12.1457376480103,12.1333065032959,12.1209001541138,12.1066751480103,12.0832757949829,12.0599670410156,12.0367469787598,12.013617515564,11.9905757904053,11.967622756958,11.9447574615479,11.9219789505005,11.8992881774902,11.8766822814941,11.8541631698608,11.8317289352417,11.8093786239624,11.7871141433716,11.7649326324463,11.7426376342773,11.7201061248779,11.697660446167,11.6753015518188,11.6530265808105,11.6308374404907,11.6087322235107,11.5867118835449,11.5674514770508,11.5487661361694,11.53014087677,11.5115756988525,11.4930696487427,11.4746236801147,11.4562358856201,11.4379081726074,11.419638633728,11.4014272689819,11.3832731246948,11.365177154541,11.3471393585205,11.3291578292847,11.3112335205078,11.2933664321899,11.2755546569824,11.2578001022339,11.2400999069214,11.2224569320679,11.2048683166504,11.1873350143433,11.1698560714722,11.1524314880371,11.1350622177124,11.1177463531494,11.1004838943481,11.0832757949829,11.0661201477051,11.049017906189,11.0319690704346,11.0149717330933,10.9980268478394,10.9811344146729,10.9642934799194,10.9475049972534,10.9307670593262,10.9140796661377,10.8974437713623,10.880859375,10.8643245697021,10.8478393554688,10.8314046859741,10.8150196075439,10.7986841201782,10.782398223877,10.7661609649658,10.7499723434448,10.733832359314,10.7177419662476,10.7016983032227,10.6857032775879,10.6697559356689,10.6538562774658,10.6380033493042,10.6221981048584,10.6064386367798,10.590726852417,10.5750617980957,10.5594425201416,10.543869972229,10.5283422470093,10.5128612518311,10.4974250793457,10.4820337295532,10.4666881561279,10.4513874053955,10.4361305236816,10.420919418335,10.4016389846802,10.3772811889648,10.3530378341675,10.3289070129395,10.3048887252808,10.2809810638428,10.2571849822998,10.2334985733032,10.2099208831787,10.1864519119263,10.1630907058716,10.1398363113403,10.1166877746582,10.0936450958252,10.0707063674927,10.0459413528442,10.0189456939697,9.99209499359131,9.96538734436035,9.93882179260254,9.91239738464355,9.88611316680908,9.85996913909912,9.83396148681641,9.80809211730957,9.78235721588135,9.75675773620605,9.73129177093506,9.70595836639404,9.68075656890869,9.65568447113037,9.6307430267334,9.61073970794678,9.59981918334961,9.58892345428467,9.57805252075195,9.56720638275146,9.5563850402832,9.54558753967285,9.53481483459473,9.52406692504883,9.51334285736084,9.50264263153076,9.49196624755859,9.48131370544434,9.4706859588623,9.46008110046387,9.44950103759766,9.43894386291504,9.42840957641602,9.41790008544922,9.40741348266602,9.39694976806641,9.38650989532471,9.3760929107666,9.36569976806641,9.35532855987549,9.34498023986816,9.33465576171875,9.32435321807861,9.31407356262207,9.30381774902344,9.29358291625977,9.28337097167969,9.2731819152832,9.263014793396,9.25287055969238,9.24274730682373,9.23264694213867,9.22256851196289,9.21251201629639,9.20247745513916,9.19246578216553
13.5657711029053,13.566216468811,13.5666618347168,13.5671052932739,13.5675506591797,13.5679931640625,13.5684394836426,13.5688848495483,13.5693283081055,13.5697746276855,13.5702209472656,13.5706644058228,13.5711107254028,13.5715522766113,13.5720024108887,13.5724449157715,13.5728893280029,13.5733346939087,13.5737810134888,13.5742254257202,13.5746698379517,13.5751180648804,13.5755643844604,13.5760059356689,13.5764513015747,13.5768995285034,13.5773439407349,13.5777912139893,13.5782337188721,13.5786809921265,13.5791273117065,13.579571723938,13.5800161361694,13.5804643630981,13.5809097290039,13.581356048584,13.5817995071411,13.5822467803955,13.5826921463013,13.5831365585327,13.5835838317871,13.5840320587158,13.5844764709473,13.5849208831787,13.5853710174561,13.5858144760132,13.5862588882446,13.586706161499,13.5871543884277,13.5875997543335,13.5880441665649,13.5884914398193,13.5889377593994,13.5893850326538,13.5898303985596,13.590274810791,13.5907249450684,13.5911703109741,13.5916137695312,13.5920600891113,13.5925092697144,13.5929565429688,13.5934019088745,13.5938482284546,13.5942974090576,13.5947408676147,13.5951890945435,13.5956373214722,13.5960807800293,13.596529006958,13.5969743728638,13.5974225997925,13.5978698730469,13.5983142852783,13.5987634658813,13.5992116928101,13.5996561050415,13.6001052856445,13.6005506515503,13.6009998321533,13.6014451980591,13.6018905639648,13.6023397445679,13.6027870178223,13.603232383728,13.6036815643311,13.6041297912598,13.6045770645142,13.6050224304199,13.60546875,13.6059198379517,13.6063671112061,13.6068134307861,13.6072587966919,13.6077079772949,13.6081552505493,13.608603477478,13.2091131210327,13.1944103240967,13.1797409057617,13.1651039123535,13.1504993438721,13.1359272003174,13.1213874816895,13.106879234314,13.0924034118652,13.0779600143433,13.0635480880737,13.0491676330566,13.034818649292,13.0205020904541,13.0062160491943,12.991961479187,12.9777383804321,12.9635467529297,12.9493856430054,12.9352550506592,12.9211559295654,12.9070873260498,12.8930492401123,12.8790416717529,12.8650646209717,12.8511180877686,12.8372011184692,12.823314666748,12.8094577789307,12.7956314086914,12.781834602356,12.7680673599243,12.7543306350708,12.7406225204468,12.7269439697266,12.7132949829102,12.6996746063232,12.6860837936401,12.6725225448608,12.658989906311,12.6454858779907,12.6320104598999,12.6185646057129,12.6051464080811,12.591757774353,12.5783967971802,12.5650644302368,12.5517597198486,12.5384836196899,12.5252361297607,12.5120153427124,12.4988231658936,12.4856586456299,12.4725217819214,12.4594125747681,12.4463310241699,12.433277130127,12.4202499389648,12.4072504043579,12.3942785263062,12.3813333511353,12.3684148788452,12.355523109436,12.342658996582,12.3298215866089,12.3170099258423,12.3042259216309,12.291467666626,12.278736114502,12.2660312652588,12.2533521652222,12.2406997680664,12.2280731201172,12.2154722213745,12.2028980255127,12.1903486251831,12.1778259277344,12.1653289794922,12.1528568267822,12.1404104232788,12.1279897689819,12.1155948638916,12.1032247543335,12.0908803939819,12.0785608291626,12.0662660598755,12.0539970397949,12.0417518615723,12.0260343551636,12.0029449462891,11.9799451828003,11.9570322036743,11.9342079162598,11.9114694595337,11.8888177871704,11.8662519454956,11.8437719345093,11.8213768005371,11.7990665435791,11.7768402099609,11.7546977996826,11.7326374053955,11.7105073928833,11.6880989074707,11.6657752990723,11.6435375213623,11.6213846206665,11.5993156433105,11.5773296356201,11.5573406219482,11.5386877059937,11.520094871521,11.5015621185303,11.4830884933472,11.4646739959717,11.4463186264038,11.4280223846436,11.4097833633423,11.3916034698486,11.3734817504883,11.3554172515869,11.3374090194702,11.3194589614868,11.3015651702881,11.2837285995483,11.2659473419189,11.2482223510742,11.2305536270142,11.2129392623901,11.1953802108765,11.1778764724731,11.1604280471802,11.1430330276489,11.1256923675537,11.1084051132202,11.0911722183228,11.073992729187,11.056866645813,11.0397920608521,11.0227718353271,11.0058031082153,10.9888868331909,10.9720220565796,10.9552087783813,10.9384479522705,10.9217376708984,10.9050788879395,10.8884696960449,10.8719120025635,10.8554039001465,10.8389463424683,10.8225393295288,10.8061809539795,10.7898721694946,10.7736120223999,10.7574014663696,10.7412395477295,10.7251262664795,10.7090606689453,10.6930437088013,10.677074432373,10.6611528396606,10.6452779769897,10.6294507980347,10.6136713027954,10.5979375839233,10.5822505950928,10.5666103363037,10.5510158538818,10.5354681015015,10.519965171814,10.504508972168,10.4890966415405,10.4737300872803,10.4584093093872,10.4431324005127,10.4279003143311,10.412712097168,10.3975687026978,10.3824691772461,10.3663148880005,10.3421211242676,10.3180418014526,10.2940731048584,10.2702169418335,10.2464694976807,10.2228326797485,10.1993045806885,10.1758842468262,10.1525707244873,10.1293640136719,10.1062641143799,10.0832691192627,10.060378074646,10.0375900268555,10.0117921829224,9.9849796295166,9.95830917358398,9.93178176879883,9.9053955078125,9.87914848327637,9.85304069519043,9.82707023620605,9.80123615264893,9.77553749084473,9.74997329711914,9.72454261779785,9.69924449920654,9.67407703399658,9.64904022216797,9.62413311004639,9.60373020172119,9.5928258895874,9.58194637298584,9.5710916519165,9.56026077270508,9.54945468902588,9.53867340087891,9.52791690826416,9.51718330383301,9.50647449493408,9.49579048156738,9.48512935638428,9.47449207305908,9.46387958526611,9.45328998565674,9.44272518157959,9.43218231201172,9.42166423797607,9.41116905212402,9.40069770812988,9.39024925231934,9.37982368469238,9.36942195892334,9.35904312133789,9.34868717193604,9.33835411071777,9.32804393768311,9.31775569915771,9.30749130249023,9.29724884033203,9.28702831268311,9.27683162689209,9.26665687561035,9.25650405883789,9.24637317657471,9.23626518249512,9.22617816925049,9.21611404418945,9.2060718536377,9.19605159759521,9.1860523223877,9.17607593536377
13.4694852828979,13.4699249267578,13.4703607559204,13.4708032608032,13.4712400436401,13.4716796875,13.4721164703369,13.4725570678711,13.4729948043823,13.4734325408936,13.4738731384277,13.4743137359619,13.4747495651245,13.4751882553101,13.4756269454956,13.4760665893555,13.4765062332153,13.4769430160522,13.4773845672607,13.477822303772,13.4782600402832,13.4787006378174,13.4791374206543,13.4795818328857,13.4800186157227,13.4804534912109,13.4808979034424,13.4813365936279,13.4817724227905,13.4822130203247,13.4826545715332,13.4830932617188,13.4835300445557,13.4839706420898,13.484411239624,13.4848489761353,13.4852895736694,13.4857292175293,13.4861688613892,13.4866104125977,13.4870471954346,13.4874858856201,13.4879274368286,13.4883661270142,13.4888067245483,13.4892444610596,13.4896850585938,13.4901256561279,13.4905652999878,13.4910078048706,13.4914455413818,13.4918842315674,13.4923257827759,13.4927663803101,13.4932050704956,13.4936456680298,13.4940824508667,13.4945278167725,13.4949655532837,13.4954051971436,13.4958448410034,13.4962863922119,13.4967288970947,13.4971675872803,13.4976043701172,13.4980487823486,13.4984884262085,13.4989252090454,13.4993677139282,13.4998083114624,13.5002508163452,13.5006885528564,13.5011301040649,13.5015716552734,13.5020112991333,13.5024528503418,13.502893447876,13.5033340454102,13.5037755966187,13.5042133331299,13.5046558380127,13.5050964355469,13.5055379867554,13.5059785842896,13.506420135498,13.5068588256836,13.5073013305664,13.5077390670776,13.5081853866577,13.5086240768433,13.5090637207031,13.5095052719116,13.5099477767944,13.1881246566772,13.1734685897827,13.1588459014893,13.1442546844482,13.1296968460083,13.1151704788208,13.1006765365601,13.0862140655518,13.0717840194702,13.0573854446411,13.0430192947388,13.0286836624146,13.0143804550171,13.0001077651978,12.9858665466309,12.9716567993164,12.9574785232544,12.9433307647705,12.9292135238647,12.9151277542114,12.9010715484619,12.8870468139648,12.8730525970459,12.8590879440308,12.8451547622681,12.8312511444092,12.8173770904541,12.8035335540771,12.789719581604,12.7759351730347,12.7621812820435,12.7484560012817,12.7347612380981,12.721095085144,12.7074584960938,12.6938514709473,12.6802730560303,12.6667242050171,12.6532039642334,12.6397123336792,12.6262493133545,12.6128149032593,12.5994091033936,12.5860319137573,12.5726833343506,12.5593633651733,12.5460710525513,12.5328073501587,12.519570350647,12.5063629150391,12.493182182312,12.4800300598145,12.4669046401978,12.4538078308105,12.4407377243042,12.427695274353,12.4146795272827,12.4016923904419,12.3887310028076,12.3757972717285,12.3628911972046,12.3500108718872,12.337158203125,12.3243322372437,12.3115320205688,12.2987594604492,12.2860126495361,12.2732925415039,12.2605981826782,12.2479305267334,12.2352895736694,12.2226734161377,12.2100839614868,12.1975202560425,12.184983253479,12.1724710464478,12.159984588623,12.1475238800049,12.1350889205933,12.1226787567139,12.110294342041,12.0979356765747,12.0856018066406,12.0732927322388,12.0610084533691,12.0487499237061,12.0365161895752,12.0243072509766,12.0121231079102,11.9999628067017,11.9878282546997,11.9757175445557,11.9636306762695,11.946460723877,11.9236755371094,11.9009780883789,11.8783664703369,11.8558406829834,11.833399772644,11.8110437393188,11.7887725830078,11.7665843963623,11.7444801330566,11.7224588394165,11.7005195617676,11.6785526275635,11.6562652587891,11.6340637207031,11.611946105957,11.5899133682251,11.5679636001587,11.5472469329834,11.5286264419556,11.5100660324097,11.4915657043457,11.473123550415,11.4547414779663,11.4364175796509,11.4181528091431,11.3999462127686,11.3817977905273,11.3637065887451,11.3456726074219,11.3276958465576,11.3097763061523,11.2919139862061,11.2741069793701,11.2563562393188,11.2386617660522,11.221022605896,11.2034378051758,11.1859092712402,11.1684350967407,11.1510152816772,11.1336498260498,11.1163387298584,11.0990810394287,11.0818767547607,11.0647258758545,11.0476274490356,11.0305824279785,11.0135898590088,10.9966497421265,10.9797611236572,10.9629249572754,10.9461393356323,10.9294061660767,10.9127235412598,10.8960914611816,10.8795099258423,10.862979888916,10.8464994430542,10.8300685882568,10.8136873245239,10.7973566055298,10.7810735702515,10.7648410797119,10.7486562728882,10.7325210571289,10.7164335250854,10.7003936767578,10.6844024658203,10.6684589385986,10.6525630950928,10.6367139816284,10.6209125518799,10.6051578521729,10.5894498825073,10.573787689209,10.5581722259521,10.5426034927368,10.5270795822144,10.5116024017334,10.4961700439453,10.4807825088501,10.4654407501221,10.4501428604126,10.4348907470703,10.4196825027466,10.4045181274414,10.3893985748291,10.3743228912354,10.3592901229858,10.3443012237549,10.3293561935425,10.3071994781494,10.2832813262939,10.2594747543335,10.2357769012451,10.2121896743774,10.1887102127075,10.1653385162354,10.1420736312866,10.1189155578613,10.0958623886108,10.0729141235352,10.05006980896,10.0273294448853,10.0046482086182,9.97787475585938,9.95124244689941,9.9247522354126,9.89840316772461,9.87219333648682,9.8461217880249,9.82018756866455,9.79438972473145,9.76872730255127,9.74319839477539,9.71780300140381,9.69254016876221,9.66740798950195,9.64240455627441,9.61753177642822,9.59673118591309,9.58584308624268,9.57497882843018,9.56414031982422,9.55332565307617,9.54253578186035,9.53176975250244,9.52102756500244,9.51031017303467,9.4996166229248,9.48894786834717,9.47830200195312,9.46768093109131,9.45708274841309,9.44650936126709,9.43595886230469,9.4254322052002,9.4149284362793,9.40444850921631,9.39399147033691,9.38355827331543,9.37314796447754,9.36276054382324,9.35239601135254,9.34205532073975,9.33173656463623,9.32144069671631,9.31116771697998,9.30091762542725,9.29068946838379,9.28048419952393,9.27030086517334,9.26014041900635,9.25000190734863,9.2398853302002,9.22979164123535,9.21971893310547,9.20966911315918,9.19964027404785,9.18963432312012,9.17964935302734,9.16968631744385,9.15974521636963
13.3745574951172,13.3749942779541,13.3754243850708,13.3758554458618,13.3762874603271,13.3767213821411,13.3771524429321,13.3775854110718,13.3780164718628,13.3784532546997,13.3788843154907,13.3793153762817,13.37975025177,13.3801803588867,13.380615234375,13.381046295166,13.3814792633057,13.3819131851196,13.3823442459106,13.3827772140503,13.3832111358643,13.3836431503296,13.3840780258179,13.3845081329346,13.3849430084229,13.3853750228882,13.3858079910278,13.3862419128418,13.3866739273071,13.3871068954468,13.3875408172607,13.3879728317261,13.3884057998657,13.388840675354,13.389271736145,13.3897085189819,13.3901405334473,13.3905715942383,13.3910055160522,13.3914403915405,13.3918762207031,13.3923072814941,13.3927392959595,13.3931751251221,13.3936080932617,13.3940401077271,13.3944749832153,13.3949089050293,13.3953418731689,13.3957757949829,13.3962068557739,13.3966455459595,13.3970766067505,13.3975124359131,13.3979454040527,13.3983774185181,13.3988122940063,13.399245262146,13.3996801376343,13.4001159667969,13.4005460739136,13.4009819030762,13.4014177322388,13.4018497467041,13.4022846221924,13.4027156829834,13.4031543731689,13.4035863876343,13.4040193557739,13.4044542312622,13.4048900604248,13.4053249359131,13.4057569503784,13.4061899185181,13.406626701355,13.4070596694946,13.4074926376343,13.4079322814941,13.4083652496338,13.4088001251221,13.4092330932617,13.4096698760986,13.4101037979126,13.4105377197266,13.4109725952148,13.4114065170288,13.4118413925171,13.412278175354,13.4127101898193,13.1672029495239,13.1525936126709,13.1380167007446,13.1234722137451,13.108959197998,13.0944795608521,13.0800304412842,13.0656137466431,13.0512294769287,13.0368766784668,13.022554397583,13.008264541626,12.9940052032471,12.9797782897949,12.9655818939209,12.951416015625,12.9372816085815,12.9231777191162,12.909104347229,12.8950624465942,12.8810501098633,12.8670692443848,12.8531179428101,12.8391962051392,12.8253059387207,12.8114452362061,12.7976140975952,12.7838134765625,12.7700414657593,12.7562999725342,12.7425880432129,12.7289056777954,12.7152519226074,12.7016277313232,12.6880331039429,12.674467086792,12.6609306335449,12.6474227905273,12.6339435577393,12.6204929351807,12.6070709228516,12.593677520752,12.5803127288818,12.5669755935669,12.5536670684814,12.5403871536255,12.5271348953247,12.5139112472534,12.5007152557373,12.4875459671021,12.4744052886963,12.4612922668457,12.4482069015503,12.4351491928101,12.4221181869507,12.4091148376465,12.3961381912231,12.383189201355,12.3702669143677,12.3573722839355,12.34450340271,12.3316621780396,12.31884765625,12.306058883667,12.2932977676392,12.2805614471436,12.2678527832031,12.2551698684692,12.2425136566162,12.2298831939697,12.2172794342041,12.2047004699707,12.1921482086182,12.1796216964722,12.1671209335327,12.1546449661255,12.1421957015991,12.129771232605,12.1173725128174,12.104998588562,12.0926504135132,12.0803270339966,12.0680294036865,12.0557565689087,12.0435075759888,12.0312843322754,12.0190858840942,12.0069122314453,11.9947633743286,11.9826383590698,11.9705381393433,11.9584627151489,11.9464120864868,11.9343843460083,11.922381401062,11.9104032516479,11.8984479904175,11.8865175247192,11.8679332733154,11.8454465866089,11.8230457305908,11.8007287979126,11.7784957885742,11.7563467025757,11.7342805862427,11.7122974395752,11.6903972625732,11.6685771942139,11.6467704772949,11.624605178833,11.6025238037109,11.5805263519287,11.558611869812,11.5371713638306,11.5185832977295,11.5000553131104,11.4815864562988,11.4631767272949,11.4448261260986,11.42653465271,11.4083013534546,11.3901252746582,11.3720083236694,11.3539485931396,11.3359451293945,11.3179998397827,11.3001108169556,11.2822780609131,11.2645015716553,11.2467813491821,11.2291164398193,11.2115068435669,11.1939535140991,11.1764535903931,11.1590089797974,11.1416187286377,11.1242828369141,11.1070003509521,11.089771270752,11.0725965499878,11.055474281311,11.0384044647217,11.021388053894,11.0044231414795,10.9875116348267,10.9706506729126,10.9538421630859,10.9370851516724,10.9203786849976,10.9037237167358,10.8871192932129,10.8705654144287,10.8540620803833,10.8376083374023,10.8212051391602,10.8048505783081,10.7885456085205,10.7722902297974,10.7560834884644,10.7399253845215,10.7238159179688,10.7077541351318,10.6917409896851,10.6757755279541,10.659857749939,10.6439876556396,10.6281642913818,10.6123876571655,10.5966577529907,10.5809755325317,10.5653390884399,10.5497484207153,10.5342035293579,10.518705368042,10.5032520294189,10.4878435134888,10.4724807739258,10.4571628570557,10.4418897628784,10.426661491394,10.4114770889282,10.3963375091553,10.3812417984009,10.3661890029907,10.3511800765991,10.3362150192261,10.3212928771973,10.3064136505127,10.2915773391724,10.2725124359131,10.2487545013428,10.2251071929932,10.2015686035156,10.1781377792358,10.1548147201538,10.1315975189209,10.1084871292114,10.0854816436768,10.0625810623169,10.0397834777832,10.0170888900757,9.99449729919434,9.97077941894531,9.94418525695801,9.91773223876953,9.89142036437988,9.86524772644043,9.83921241760254,9.81331539154053,9.78755378723145,9.76192665100098,9.7364330291748,9.71107292175293,9.68584442138672,9.66074657440186,9.63577842712402,9.61093997955322,9.58974266052246,9.57887077331543,9.56802272796631,9.5571985244751,9.54640007019043,9.53562545776367,9.52487468719482,9.5141487121582,9.50344753265381,9.49276924133301,9.48211479187012,9.47148513793945,9.4608793258667,9.45029640197754,9.43973731994629,9.42920207977295,9.41869068145752,9.40820217132568,9.39773654937744,9.38729476928711,9.37687683105469,9.36648082733154,9.35610866546631,9.34575939178467,9.3354320526123,9.32512855529785,9.31484699249268,9.30458831787109,9.29435253143311,9.28413867950439,9.27394866943359,9.26377964019775,9.25363349914551,9.24350833892822,9.23340702056885,9.22332668304443,9.2132682800293,9.20323276519775,9.19321823120117,9.18322563171387,9.17325496673584,9.16330623626709,9.1533784866333,9.14347171783447
13.2809610366821,13.2813863754272,13.2818126678467,13.2822399139404,13.2826652526855,13.2830934524536,13.2835187911987,13.2839450836182,13.2843723297119,13.2847967147827,13.2852277755737,13.2856521606445,13.286075592041,13.2865047454834,13.2869300842285,13.2873554229736,13.2877855300903,13.2882127761841,13.2886400222778,13.2890644073486,13.2894897460938,13.2899188995361,13.2903442382812,13.2907733917236,13.2911977767944,13.2916259765625,13.2920551300049,13.29248046875,13.2929039001465,13.2933359146118,13.2937602996826,13.2941884994507,13.2946128845215,13.2950420379639,13.2954721450806,13.2958965301514,13.2963247299194,13.2967510223389,13.2971782684326,13.2976064682007,13.2980356216431,13.2984609603882,13.2988882064819,13.2993144989014,13.2997446060181,13.3001728057861,13.3005962371826,13.3010272979736,13.3014535903931,13.3018836975098,13.3023090362549,13.3027353286743,13.303165435791,13.3035917282104,13.3040189743042,13.3044462203979,13.3048753738403,13.305305480957,13.3057298660278,13.3061561584473,13.3065891265869,13.307014465332,13.3074426651001,13.3078727722168,13.3082990646362,13.3087272644043,13.3091535568237,13.3095827102661,13.3100118637085,13.3104400634766,13.3108673095703,13.311297416687,13.3117237091064,13.3121509552002,13.3125791549683,13.3130111694336,13.3134384155273,13.3138647079468,13.3142929077148,13.3147220611572,13.3151502609253,13.3155794143677,13.3160066604614,13.3164377212524,13.3168640136719,13.1463470458984,13.1317834854126,13.1172533035278,13.1027545928955,13.0882883071899,13.0738534927368,13.0594501495361,13.0450792312622,13.0307397842407,13.0164308547974,13.0021543502808,12.9879093170166,12.9736948013306,12.959511756897,12.9453592300415,12.9312381744385,12.9171466827393,12.9030876159668,12.8890581130981,12.8750591278076,12.8610906600952,12.8471527099609,12.8332443237305,12.8193664550781,12.8055181503296,12.7917003631592,12.7779121398926,12.7641534805298,12.7504243850708,12.7367248535156,12.7230548858643,12.7094144821167,12.6958026885986,12.6822195053101,12.6686668395996,12.6551418304443,12.6416463851929,12.6281795501709,12.6147413253784,12.6013317108154,12.5879507064819,12.5745973587036,12.5612735748291,12.5479774475098,12.5347089767456,12.5214691162109,12.5082569122314,12.4950723648071,12.481915473938,12.4687871932983,12.4556856155396,12.4426116943359,12.4295654296875,12.4165458679199,12.4035549163818,12.3905897140503,12.3776521682739,12.3647413253784,12.3518581390381,12.3390016555786,12.3261709213257,12.3133678436279,12.3005905151367,12.2878398895264,12.2751159667969,12.2624187469482,12.2497472763062,12.2371015548706,12.2244825363159,12.2118892669678,12.1993227005005,12.1867809295654,12.1742649078369,12.1617746353149,12.1493110656738,12.1368722915649,12.1244583129883,12.1120700836182,12.0997076034546,12.0873699188232,12.0750579833984,12.0627698898315,12.0505075454712,12.0382699966431,12.0260581970215,12.0138692855835,12.0017070770264,11.9895677566528,11.9774541854858,11.9653644561768,11.9532985687256,11.941258430481,11.9292411804199,11.9172487258911,11.9052801132202,11.8933362960815,11.8814153671265,11.8695192337036,11.8576459884644,11.8457975387573,11.8339719772339,11.822169303894,11.8103914260864,11.790431022644,11.7682371139526,11.7461271286011,11.7240991592407,11.7021541595459,11.6802911758423,11.6585092544556,11.6368083953857,11.6151628494263,11.5931167602539,11.5711555480957,11.5492763519287,11.5274791717529,11.5085573196411,11.4900608062744,11.4716243743896,11.4532470703125,11.4349279403687,11.4166679382324,11.3984661102295,11.3803224563599,11.3622360229492,11.3442068099976,11.3262348175049,11.3083200454712,11.2904615402222,11.2726593017578,11.2549133300781,11.2372226715088,11.2195882797241,11.2020082473755,11.1844844818115,11.1670141220093,11.1495990753174,11.1322383880615,11.1149311065674,11.097677230835,11.0804777145386,11.0633316040039,11.0462379455566,11.0291967391968,11.0122079849243,10.9952716827393,10.9783878326416,10.961555480957,10.9447746276855,10.9280452728271,10.9113674163818,10.894739151001,10.8781623840332,10.8616361618042,10.8451595306396,10.8287324905396,10.8123559951782,10.796028137207,10.7797498703003,10.763521194458,10.7473402023315,10.7312088012695,10.7151250839233,10.6990900039673,10.6831026077271,10.6671628952026,10.651270866394,10.635425567627,10.6196279525757,10.6038770675659,10.5881729125977,10.5725145339966,10.556902885437,10.5413370132446,10.5258178710938,10.5103435516357,10.4949150085449,10.479531288147,10.4641933441162,10.448899269104,10.4336500167847,10.4184455871582,10.4032859802246,10.3881692886353,10.3730974197388,10.3580684661865,10.3430833816528,10.3281412124634,10.3132419586182,10.2983865737915,10.2835731506348,10.2688026428223,10.2540740966797,10.23805809021,10.2144594192505,10.1909694671631,10.1675872802734,10.1443128585815,10.1211442947388,10.0980806350708,10.0751218795776,10.0522680282593,10.0295181274414,10.0068702697754,9.98432445526123,9.96187973022461,9.93713855743408,9.91072273254395,9.88444805145264,9.85831165313721,9.83231353759766,9.80645179748535,9.78072643280029,9.75513458251953,9.72967720031738,9.70435237884521,9.67915916442871,9.65409564971924,9.6291618347168,9.60435676574707,9.58276462554932,9.57190799713135,9.56107521057129,9.55026817321777,9.53948497772217,9.52872562408447,9.517991065979,9.50728034973145,9.4965934753418,9.48593139648438,9.47529220581055,9.46467781066895,9.45408630371094,9.44351959228516,9.43297576904297,9.42245578765869,9.41195869445801,9.40148544311523,9.39103507995605,9.38060855865479,9.37020397186279,9.35982322692871,9.34946632385254,9.33913135528564,9.32881927490234,9.31852912902832,9.30826282501221,9.29801940917969,9.28779697418213,9.27759838104248,9.26742172241211,9.25726699829102,9.24713516235352,9.23702526092529,9.22693729400635,9.21687126159668,9.20682716369629,9.19680500030518,9.18680477142334,9.17682647705078,9.16686916351318,9.15693378448486,9.14702033996582,9.13712787628174,9.12725639343262
13.1886615753174,13.1890840530396,13.1895027160645,13.1899242401123,13.1903457641602,13.1907644271851,13.1911859512329,13.1916065216064,13.19202709198,13.1924486160278,13.1928663253784,13.1932888031006,13.1937112808228,13.1941289901733,13.1945505142212,13.194972038269,13.1953926086426,13.1958141326904,13.1962327957153,13.1966562271118,13.1970767974854,13.1974964141846,13.1979207992554,13.1983404159546,13.1987600326538,13.1991806030273,13.1996021270752,13.200023651123,13.2004451751709,13.2008638381958,13.2012882232666,13.2017068862915,13.202130317688,13.2025499343872,13.2029705047607,13.2033948898315,13.2038125991821,13.2042331695557,13.2046575546265,13.2050771713257,13.2054986953735,13.2059211730957,13.2063426971436,13.2067651748657,13.2071838378906,13.2076101303101,13.2080307006836,13.2084484100342,13.2088718414307,13.2092943191528,13.2097158432007,13.2101373672485,13.2105579376221,13.2109832763672,13.2114019393921,13.2118225097656,13.2122478485107,13.2126684188843,13.2130908966064,13.2135105133057,13.2139320373535,13.2143583297729,13.2147779464722,13.2151985168457,13.2156219482422,13.21604347229,13.2164669036865,13.2168874740601,13.2173099517822,13.217734336853,13.2181549072266,13.218578338623,13.2190008163452,13.2194223403931,13.2198457717896,13.2202653884888,13.2206907272339,13.2211112976074,13.2215328216553,13.2219572067261,13.2223796844482,13.2228021621704,13.1110401153564,13.0965557098389,13.0821027755737,13.067681312561,13.0532922744751,13.0389347076416,13.0246086120605,13.0103130340576,12.9960498809814,12.9818181991577,12.9676170349121,12.9534473419189,12.9393081665039,12.925199508667,12.9111223220825,12.8970756530762,12.8830595016479,12.8690738677979,12.8551177978516,12.8411922454834,12.8272972106934,12.8134326934814,12.7995977401733,12.785792350769,12.7720165252686,12.7582702636719,12.7445545196533,12.7308673858643,12.717209815979,12.7035818099976,12.6899824142456,12.6764125823975,12.6628713607788,12.6493587493896,12.6358757019043,12.6224212646484,12.6089954376221,12.5955982208252,12.5822286605835,12.5688886642456,12.5555763244629,12.5422916412354,12.5290355682373,12.5158071517944,12.5026073455811,12.4894342422485,12.4762897491455,12.4631729125977,12.450083732605,12.4370212554932,12.4239864349365,12.4109792709351,12.3979988098145,12.385046005249,12.3721199035645,12.3592214584351,12.3463487625122,12.3335037231445,12.3206844329834,12.3078927993774,12.295126914978,12.2823877334595,12.2696752548218,12.2569885253906,12.2443284988403,12.2316942214966,12.2190866470337,12.2065048217773,12.1939487457275,12.18141746521,12.1689128875732,12.1564340591431,12.1439809799194,12.131552696228,12.1191501617432,12.1067733764648,12.0944213867188,12.0820941925049,12.0697927474976,12.0575160980225,12.0452642440796,12.0330371856689,12.0208349227905,12.0086584091187,11.9965057373047,11.9843769073486,11.9722738265991,11.9601945877075,11.9481401443481,11.9361085891724,11.9241027832031,11.9121208190918,11.9001626968384,11.8882284164429,11.8763179779053,11.8644313812256,11.8525686264038,11.8407297134399,11.828914642334,11.8171224594116,11.8053541183472,11.7936096191406,11.7818880081177,11.7701902389526,11.7585144042969,11.7468633651733,11.7352342605591,11.7139358520508,11.6920280456543,11.6702032089233,11.648458480835,11.6267957687378,11.6052131652832,11.5837097167969,11.5617990493774,11.5399551391602,11.5181941986084,11.4985485076904,11.4800844192505,11.4616804122925,11.4433345794678,11.4250478744507,11.4068183898926,11.3886480331421,11.3705348968506,11.3524799346924,11.3344821929932,11.3165407180786,11.298656463623,11.2808284759521,11.2630567550659,11.24534034729,11.2276802062988,11.210075378418,11.1925258636475,11.175030708313,11.1575908660889,11.1402044296265,11.1228733062744,11.1055955886841,11.0883703231812,11.0711994171143,11.0540819168091,11.0370168685913,11.0200042724609,11.003044128418,10.9861364364624,10.9692802429199,10.9524755477905,10.9357223510742,10.919020652771,10.9023694992065,10.8857698440552,10.8692197799683,10.8527202606201,10.8362703323364,10.8198709487915,10.803521156311,10.7872200012207,10.7709684371948,10.7547655105591,10.7386121749878,10.7225065231323,10.7064485549927,10.6904392242432,10.6744775772095,10.6585636138916,10.6426973342896,10.626877784729,10.61110496521,10.5953798294067,10.5797004699707,10.5640678405762,10.5484809875488,10.5329399108887,10.5174446105957,10.5019950866699,10.4865913391113,10.4712324142456,10.4559173583984,10.4406480789185,10.4254236221313,10.4102430343628,10.3951063156128,10.3800134658813,10.3649654388428,10.3499603271484,10.3349981307983,10.3200798034668,10.3052043914795,10.2903709411621,10.2755813598633,10.2608337402344,10.2461280822754,10.2314653396606,10.2168436050415,10.2022638320923,10.1803922653198,10.1570587158203,10.1338319778442,10.1107110977173,10.0876951217651,10.0647840499878,10.0419769287109,10.0192728042603,9.99667167663574,9.97417163848877,9.95177268981934,9.92947387695312,9.90372276306152,9.87748527526855,9.85138607025146,9.82542419433594,9.79959869384766,9.7739086151123,9.74835300445557,9.72293090820312,9.69764137268066,9.67248153686523,9.64745330810547,9.62255382537842,9.59778308868408,9.57579612731934,9.56495571136475,9.55413913726807,9.5433464050293,9.53257942199707,9.52183532714844,9.51111602783203,9.50042152404785,9.48974990844727,9.47910308837891,9.46848011016846,9.4578800201416,9.44730472564697,9.43675231933594,9.42622375488281,9.41571807861328,9.40523624420166,9.39477825164795,9.38434314727783,9.37393093109131,9.36354160308838,9.35317611694336,9.34283256530762,9.33251285552979,9.32221508026123,9.31194019317627,9.3016881942749,9.29145812988281,9.28125095367432,9.27106666564941,9.26090431213379,9.25076389312744,9.24064636230469,9.23055076599121,9.2204761505127,9.21042442321777,9.20039463043213,9.19038677215576,9.18039989471436,9.17043590545654,9.16049289703369,9.1505708694458,9.14067077636719,9.13079261779785,9.12093544006348,9.11109924316406
