19.0173244476318,19.018196105957,19.019063949585,19.0199337005615,19.0208072662354,19.0216770172119,19.0225467681885,19.0234184265137,19.0242881774902,19.0251598358154,19.0260314941406,19.0268993377686,19.0277729034424,19.0286445617676,19.0295162200928,19.0303859710693,19.0312595367432,19.0321292877197,19.0330028533936,19.0338745117188,19.0347461700439,19.0356178283691,19.0364894866943,19.0373630523682,19.038236618042,19.0391044616699,19.039981842041,19.0408515930176,19.0417251586914,19.0426006317139,19.0434722900391,19.0443458557129,19.0452156066895,19.0460891723633,19.0469646453857,19.0478363037109,19.0487098693848,19.04958152771,19.0504550933838,19.0513286590576,19.0522022247314,19.0530757904053,19.0539512634277,19.0548286437988,19.055700302124,19.0565738677979,19.0574474334717,19.0583190917969,19.0591945648193,19.0600681304932,19.060941696167,19.0618190765381,19.0626926422119,19.0635662078857,19.0644416809082,19.065315246582,19.0661869049072,19.067066192627,19.0679378509521,19.0688171386719,19.0696868896484,19.0705642700195,19.0714416503906,19.0723152160645,19.0731925964355,19.0740699768066,19.0749454498291,19.0758190155029,19.0766944885254,19.0775699615479,19.0784473419189,19.0793266296387,19.0801982879639,19.081075668335,19.0819530487061,19.0828266143799,19.083703994751,19.0845794677734,19.0854568481445,19.086332321167,19.0872077941895,19.0880870819092,19.0889644622803,19.0898399353027,19.0907173156738,19.0915966033936,19.092472076416,19.0933513641357,19.0942268371582,19.0951042175293,19.0959796905518,19.0968589782715,19.0977344512939,19.0986137390137,19.099494934082,19.1003704071045,19.1012477874756,19.1021289825439,19.1030025482178,19.1038799285889,19.1047649383545,19.105640411377,19.1065196990967,19.1073989868164,19.1082782745361,19.1091575622559,19.110034942627,19.1109142303467,19.1117916107178,19.1126728057861,19.1135501861572,19.1144313812256,19.1153106689453,19.1161880493164,19.1170673370361,19.1179466247559,19.1188278198242,19.1197109222412,19.1205863952637,19.121467590332,19.1223449707031,19.1232261657715,19.1241054534912,19.1249866485596,19.1258659362793,19.1267471313477,19.1276264190674,19.1285095214844,19.1293888092041,19.1302700042725,19.1311492919922,19.1320304870605,19.1329116821289,19.1337928771973,19.1346759796143,19.1355514526367,19.1364326477051,19.1373157501221,19.1381969451904,19.1390781402588,19.1399593353271,19.1408386230469,19.1417217254639,19.1426048278809,19.1434879302979,19.1443691253662,19.1452503204346,19.1461334228516,19.1470165252686,16.4445400238037,13.7013330459595,13.671422958374,13.6416435241699,13.6119928359985,13.5824718475342,13.5530776977539,13.523811340332,13.4946708679199,13.4656553268433,13.4367647171021,13.407998085022,13.3793535232544,13.3508310317993,13.3224306106567,13.294150352478,13.2659902572632,13.2379121780396,13.20934009552,13.1808910369873,13.1525640487671,13.1243591308594,13.0962753295898,13.0683107376099,13.0404653549194,13.0127382278442,12.9851293563843,12.9576368331909,12.9302606582642,12.9029998779297,12.8758544921875,12.8488216400146,12.8219032287598,12.7950973510742,12.7684030532837,12.7418193817139,12.7153472900391,12.6889839172363,12.66273021698,12.6365842819214,12.6105470657349,12.5829706192017,12.5473804473877,12.5119915008545,12.4768009185791,12.4418087005615,12.4070119857788,12.3724088668823,12.3379983901978,12.3037786483765,12.2697486877441,12.2359056472778,12.2022495269775,12.1687717437744,12.1354780197144,12.1023645401001,12.069432258606,12.036678314209,12.0041017532349,11.971700668335,11.939474105835,11.9074211120605,11.8755397796631,11.8438282012939,11.8122863769531,11.7809114456177,11.7497024536133,11.7186584472656,11.6877784729004,11.6570606231689,11.626503944397,11.5961065292358,11.5658683776855,11.3724031448364,11.2984199523926,11.2253932952881,11.1533041000366,11.0821352005005,11.0118684768677,10.9424877166748,10.8805055618286,10.8320951461792,10.7862911224365,10.756308555603,10.7600774765015,10.7638492584229,10.7676239013672,10.7714004516602,10.7751798629761,10.7789621353149,10.7827463150024,10.7865343093872,10.7903242111206,10.7913646697998,10.7875003814697,10.7836399078369,10.7797813415527,10.7759256362915,10.7620210647583,10.7310676574707,10.700291633606,10.6696920394897,10.6392660140991,10.6090135574341,10.5789337158203,10.5490226745605,10.5192804336548,10.4897060394287,10.4602966308594,10.4310531616211,10.4019718170166,10.3730516433716,10.3442916870117,10.315691947937,10.2872495651245,10.2589635848999,10.2308320999146,10.2028551101685,10.1750297546387,10.1473569869995,10.119833946228,10.0924596786499,10.0652332305908,10.0381536483765,10.0112180709839,9.98442840576172,9.95777988433838,9.9312744140625,9.90491008758545,9.89255142211914,9.88100147247314,9.86948013305664,9.85798454284668,9.84651565551758,9.83507442474365,9.82365894317627,9.81227016448975,9.80090713500977,9.78957080841064,9.77826118469238,9.76697731018066,9.75571918487549,9.74448680877686,9.73328113555908,9.72210025787354,9.71094608306885,9.69981670379639,9.68871307373047,9.67763423919678,9.66658115386963,9.65555381774902,9.64455127716064,9.63357353210449,9.62262058258057,9.61169338226318,9.60079002380371,9.58991146087646,9.57905864715576,9.56822872161865,9.55742454528809,9.54664421081543,9.53588771820068,9.52515602111816,9.51444911956787,9.50376510620117,9.4931058883667,9.48246955871582,9.47185802459717,9.46126937866211,9.45070457458496,9.44016361236572,9.42964649200439,9.41915225982666,9.40868186950684,9.39823436737061,9.38780975341797,9.37740802764893,9.36703014373779,9.35667514801025,9.34634304046631,9.33603286743164,9.32574558258057,9.3154821395874,9.3052396774292,9.29502105712891,9.28482437133789,9.27464962005615,9.26449775695801,9.25436782836914,9.24425983428955,9.23417377471924,9.22411060333252,9.21406841278076,9.20404815673828,9.19404983520508,9.18407344818115,9.1741189956665,9.16418552398682,9.15427303314209,9.14438247680664,9.13451385498047,9.12466621398926
18.8292083740234,18.8300647735596,18.8309154510498,18.8317737579346,18.8326244354248,18.8334770202637,18.8343315124512,18.8351879119873,18.8360366821289,18.836893081665,18.8377456665039,18.8385982513428,18.8394527435303,18.8403091430664,18.8411617279053,18.8420181274414,18.8428707122803,18.8437252044678,18.8445796966553,18.8454360961914,18.8462886810303,18.8471450805664,18.8479976654053,18.84885597229,18.8497085571289,18.8505630493164,18.8514213562012,18.8522758483887,18.8531303405762,18.8539867401123,18.8548412322998,18.8556995391846,18.8565540313721,18.8574104309082,18.8582668304443,18.8591232299805,18.859977722168,18.8608341217041,18.8616886138916,18.8625469207764,18.8634033203125,18.8642578125,18.8651142120361,18.8659725189209,18.8668270111084,18.8676853179932,18.8685398101807,18.8693962097168,18.8702545166016,18.8711128234863,18.8719673156738,18.8728275299072,18.8736839294434,18.8745422363281,18.875394821167,18.876256942749,18.8771114349365,18.8779716491699,18.8788242340088,18.8796863555908,18.880542755127,18.8814010620117,18.8822593688965,18.8831176757812,18.8839740753174,18.8848323822021,18.8856906890869,18.8865509033203,18.8874111175537,18.8882675170898,18.8891258239746,18.8899898529053,18.8908443450928,18.8917045593262,18.8925609588623,18.8934211730957,18.8942813873291,18.8951396942139,18.89599609375,18.8968601226807,18.8977165222168,18.8985767364502,18.899435043335,18.9002952575684,18.9011554718018,18.9020175933838,18.9028739929199,18.903736114502,18.9045944213867,18.9054546356201,18.9063129425049,18.9071769714355,18.9080333709717,18.9088954925537,18.9097557067871,18.9106197357178,18.9114780426025,18.9123401641846,18.9131984710693,18.9140605926514,18.9149208068848,18.9157829284668,18.9166431427002,18.9175071716309,18.9183673858643,18.9192276000977,18.9200878143311,18.9209537506104,18.9218158721924,18.9226741790771,18.9235363006592,18.9243984222412,18.9252605438232,18.9261245727539,18.9269847869873,18.927848815918,18.9287090301514,18.929573059082,18.9304351806641,18.9312953948975,18.9321575164795,18.9330234527588,18.9338817596436,18.9347457885742,18.9356117248535,18.9364719390869,18.9373340606689,18.9381980895996,18.9390621185303,18.9399242401123,18.940788269043,18.941650390625,18.942512512207,18.9433784484863,18.9442405700684,18.9451065063477,18.9459667205811,18.9468326568604,18.947696685791,18.9485607147217,18.9494228363037,18.950288772583,18.9511489868164,18.9520130157471,18.952880859375,18.9537448883057,16.4287967681885,13.853289604187,13.6874256134033,13.6575765609741,13.627857208252,13.5982666015625,13.5688047409058,13.5394706726074,13.5102624893188,13.48118019104,13.4522228240967,13.4233894348145,13.3946800231934,13.3660917282104,13.3376264572144,13.3092823028564,13.2810573577881,13.2529525756836,13.2249660491943,13.1970977783203,13.1687183380127,13.1404438018799,13.1122913360596,13.0842580795288,13.0563449859619,13.0285501480103,13.0008745193481,12.9733152389526,12.945873260498,12.9185466766357,12.8913354873657,12.8642377853394,12.837254524231,12.8103847503662,12.7836265563965,12.7569799423218,12.7304439544678,12.7040185928345,12.6777029037476,12.6514949798584,12.6253957748413,12.599404335022,12.5735197067261,12.5477409362793,12.5220680236816,12.4960317611694,12.4609308242798,12.4260272979736,12.391318321228,12.3568029403687,12.3224792480469,12.2883453369141,12.2544002532959,12.2206420898438,12.1870698928833,12.15367603302,12.1204643249512,12.0874328613281,12.0545816421509,12.0219078063965,11.9894113540649,11.9570894241333,11.9249420166016,11.8929662704468,11.8611621856689,11.8295278549194,11.7980613708496,11.7667617797852,11.7356281280518,11.7046585083008,11.6738519668579,11.6432065963745,11.6127223968506,11.5823974609375,11.5522308349609,11.383749961853,11.3096189498901,11.2364482879639,11.1642169952393,11.0929088592529,11.0225067138672,10.9529914855957,10.8846712112427,10.8325977325439,10.786789894104,10.7677135467529,10.7714900970459,10.7752695083618,10.7790517807007,10.7828369140625,10.7866239547729,10.7904138565063,10.794207572937,10.7910079956055,10.7871446609497,10.7832841873169,10.7794256210327,10.7755699157715,10.7717180252075,10.7678680419922,10.7537527084351,10.7228469848633,10.69211769104,10.6615648269653,10.6311855316162,10.6009788513184,10.5709438323975,10.5410785675049,10.511381149292,10.4818506240845,10.452486038208,10.4232845306396,10.3942470550537,10.3653697967529,10.3366537094116,10.3080949783325,10.2796945571899,10.2514495849609,10.2233591079712,10.1954231262207,10.1676387786865,10.1400060653687,10.1125230789185,10.0851879119873,10.0580005645752,10.0309591293335,10.0040636062622,9.97731113433838,9.9507007598877,9.92423343658447,9.89790534973145,9.88509273529053,9.87356090545654,9.86205577850342,9.85057830810547,9.83912658691406,9.82770156860352,9.81630325317383,9.804931640625,9.79358673095703,9.78226661682129,9.77097415924072,9.75970649719238,9.7484655380249,9.73725032806396,9.72606086730957,9.71489715576172,9.70375823974609,9.69264602661133,9.68155860900879,9.67049694061279,9.65946006774902,9.64844799041748,9.63746166229248,9.62650012969971,9.61556339263916,9.60465240478516,9.59376525878906,9.5829029083252,9.57206439971924,9.56125164031982,9.55046272277832,9.53969764709473,9.52895736694336,9.51824188232422,9.50754928588867,9.49688148498535,9.48623752593994,9.47561645507812,9.46502017974854,9.45444679260254,9.44389820098877,9.43337154388428,9.42286968231201,9.41239070892334,9.40193462371826,9.39150238037109,9.38109302520752,9.37070655822754,9.36034297943115,9.35000228881836,9.33968448638916,9.32938957214355,9.31911754608154,9.30886745452881,9.29864120483398,9.28843593597412,9.27825355529785,9.26809406280518,9.25795555114746,9.24783992767334,9.2377462387085,9.22767543792725,9.21762561798096,9.20759773254395,9.19759178161621,9.18760776519775,9.17764472961426,9.16770362854004,9.1577844619751,9.14788627624512,9.13801002502441,9.12815380096436,9.11832046508789,9.10850715637207
18.6447811126709,18.6456165313721,18.6464538574219,18.647289276123,18.6481266021729,18.6489677429199,18.6498012542725,18.6506366729736,18.6514739990234,18.6523132324219,18.653148651123,18.6539859771729,18.6548233032227,18.6556625366211,18.6565017700195,18.6573390960693,18.6581764221191,18.6590137481689,18.6598472595215,18.6606884002686,18.661527633667,18.6623649597168,18.663200378418,18.6640434265137,18.6648788452148,18.6657180786133,18.6665554046631,18.6673946380615,18.6682319641113,18.6690692901611,18.6699104309082,18.6707496643066,18.6715869903564,18.6724281311035,18.673267364502,18.6741065979004,18.6749458312988,18.6757869720459,18.6766223907471,18.6774654388428,18.6783065795898,18.6791439056396,18.6799831390381,18.6808261871338,18.6816654205322,18.6825046539307,18.6833457946777,18.6841850280762,18.6850242614746,18.6858654022217,18.6867046356201,18.6875457763672,18.6883850097656,18.6892261505127,18.6900653839111,18.6909065246582,18.6917476654053,18.6925888061523,18.6934280395508,18.6942710876465,18.6951141357422,18.6959533691406,18.6967945098877,18.6976375579834,18.6984748840332,18.6993198394775,18.7001571655273,18.701000213623,18.7018451690674,18.7026844024658,18.7035293579102,18.7043685913086,18.7052116394043,18.7060546875,18.7068958282471,18.7077388763428,18.7085800170898,18.7094211578369,18.710262298584,18.7111072540283,18.711950302124,18.7127914428711,18.7136344909668,18.7144775390625,18.7153205871582,18.7161636352539,18.7170066833496,18.7178516387939,18.718692779541,18.7195358276367,18.7203788757324,18.7212257385254,18.7220649719238,18.7229118347168,18.7237510681152,18.7245998382568,18.7254409790039,18.7262859344482,18.7271270751953,18.7279739379883,18.7288150787354,18.729663848877,18.730504989624,18.7313499450684,18.7321968078613,18.7330417633057,18.7338848114014,18.7347316741943,18.73557472229,18.736421585083,18.7372646331787,18.738109588623,18.7389545440674,18.7398014068604,18.7406444549561,18.7414894104004,18.7423343658447,18.7431812286377,18.744026184082,18.744873046875,18.7457180023193,18.7465648651123,18.747407913208,18.7482566833496,18.7490997314453,18.7499485015869,18.7507915496826,18.7516403198242,18.7524852752686,18.7533321380615,18.7541770935059,18.7550239562988,18.7558708190918,18.7567176818848,18.7575626373291,18.7584095001221,18.7592582702637,18.760103225708,18.7609519958496,18.7618007659912,18.7626419067383,18.7634906768799,16.4347171783447,16.4130840301514,16.3915061950684,13.7034664154053,13.6735467910767,13.6437587738037,13.6140995025635,13.584568977356,13.5551652908325,13.5258903503418,13.4967403411865,13.467716217041,13.438817024231,13.4100408554077,13.3813877105713,13.3528575897217,13.3244476318359,13.2961587905884,13.2679901123047,13.2399406433105,13.2120094299316,13.1841955184937,13.1564989089966,13.1283464431763,13.1002445220947,13.0722637176514,13.0444011688232,13.0166578292847,12.989031791687,12.9615230560303,12.9341306686401,12.9068536758423,12.8796911239624,12.8526430130005,12.8257083892822,12.7988862991333,12.7721767425537,12.7455778121948,12.7190895080566,12.6927108764648,12.6664409637451,12.6402807235718,12.6142272949219,12.5882816314697,12.562442779541,12.5367097854614,12.5110807418823,12.4855575561523,12.4601383209229,12.4348211288452,12.4096078872681,12.3756647109985,12.341236114502,12.3069982528687,12.2729501724243,12.2390899658203,12.205415725708,12.1719274520874,12.138617515564,12.1054878234863,12.0725383758545,12.0397672653198,12.0071744918823,11.974757194519,11.9425144195557,11.9104442596436,11.8785467147827,11.8468189239502,11.815260887146,11.7838706970215,11.752646446228,11.7215871810913,11.6906909942627,11.6599578857422,11.6293859481812,11.5989742279053,11.5687208175659,11.5386247634888,11.5086851119995,11.3340730667114,11.2475242614746,11.1751518249512,11.1037044525146,11.0331649780273,10.9635162353516,10.8947410583496,10.833101272583,10.7872886657715,10.7791423797607,10.7829265594482,10.786714553833,10.7905044555664,10.7942972183228,10.7945184707642,10.7906522750854,10.7867889404297,10.7829284667969,10.7790699005127,10.7752151489258,10.7713623046875,10.7675132751465,10.7636661529541,10.7598218917847,10.7454967498779,10.7146377563477,10.6839561462402,10.653450012207,10.6231164932251,10.5929565429688,10.5629663467407,10.533145904541,10.503493309021,10.474006652832,10.4446859359741,10.4155282974243,10.3865327835083,10.3576993942261,10.3290252685547,10.3005084991455,10.2721500396729,10.2439460754395,10.2158975601196,10.1880016326904,10.1602582931519,10.1326656341553,10.1052217483521,10.0779266357422,10.0507783889771,10.023775100708,9.99691772460938,9.97020435333252,9.94363212585449,9.91720199584961,9.89091110229492,9.87764549255371,9.86613082885742,9.85464382171631,9.84318256378174,9.83174896240234,9.82034111022949,9.8089599609375,9.79760456085205,9.78627586364746,9.77497386932373,9.76369762420654,9.7524471282959,9.7412223815918,9.73002433776855,9.71885108947754,9.70770359039307,9.69658184051514,9.68548583984375,9.67441463470459,9.66336917877197,9.65234851837158,9.64135360717773,9.6303825378418,9.6194372177124,9.60851669311523,9.59762096405029,9.58675003051758,9.57590389251709,9.56508159637451,9.55428409576416,9.54351139068604,9.5327615737915,9.52203750610352,9.51133632659912,9.50065994262695,9.4900074005127,9.47937870025635,9.46877384185791,9.45819187164307,9.44763469696045,9.43710041046143,9.42658996582031,9.41610240936279,9.40563869476318,9.39519786834717,9.38477993011475,9.37438488006592,9.364013671875,9.35366535186768,9.34333896636963,9.33303642272949,9.32275581359863,9.31249809265137,9.3022632598877,9.2920503616333,9.2818603515625,9.27169227600098,9.26154708862305,9.25142288208008,9.2413215637207,9.23124217987061,9.22118473052979,9.21114921569824,9.20113563537598,9.19114398956299,9.18117332458496,9.17122554779053,9.16129779815674,9.15139198303223,9.14150810241699,9.13164520263672,9.12180328369141,9.11198329925537,9.1021842956543,9.09240531921387
18.463924407959,18.4647464752197,18.4655704498291,18.4663887023926,18.467212677002,18.4680328369141,18.4688491821289,18.4696731567383,18.4704914093018,18.4713153839111,18.4721336364746,18.4729595184326,18.4737777709961,18.4745998382568,18.4754238128662,18.4762420654297,18.4770622253418,18.4778861999512,18.4787101745605,18.4795265197754,18.4803485870361,18.4811725616455,18.4819946289062,18.482816696167,18.4836387634277,18.4844608306885,18.4852867126465,18.4861068725586,18.4869289398193,18.4877529144287,18.4885730743408,18.4893970489502,18.4902191162109,18.491039276123,18.4918651580811,18.4926872253418,18.4935111999512,18.4943351745605,18.4951610565186,18.4959831237793,18.4968070983887,18.4976291656494,18.4984512329102,18.4992752075195,18.5000991821289,18.5009231567383,18.5017490386963,18.5025730133057,18.5033950805664,18.5042209625244,18.5050449371338,18.5058670043945,18.5066909790039,18.5075168609619,18.5083389282227,18.509162902832,18.50998878479,18.510814666748,18.5116367340088,18.5124645233154,18.5132865905762,18.5141124725342,18.5149345397949,18.5157642364502,18.5165843963623,18.5174121856689,18.5182361602783,18.519063949585,18.5198879241943,18.520715713501,18.5215377807617,18.5223617553711,18.5231876373291,18.5240173339844,18.5248432159424,18.5256690979004,18.526496887207,18.527322769165,18.5281467437744,18.5289745330811,18.5297985076904,18.5306262969971,18.5314521789551,18.5322780609131,18.5331020355225,18.5339317321777,18.5347576141357,18.535587310791,18.5364112854004,18.5372409820557,18.538064956665,18.5388927459717,18.5397205352783,18.5405464172363,18.541374206543,18.5422019958496,18.5430278778076,18.5438575744629,18.5446872711182,18.5455112457275,18.5463409423828,18.5471668243408,18.5479984283447,18.5488262176514,18.549654006958,18.5504817962646,18.5513095855713,18.5521354675293,18.5529670715332,18.5537929534912,18.5546226501465,18.5554504394531,18.556282043457,18.5571060180664,18.5579414367676,18.558765411377,18.5595970153809,18.5604248046875,18.5612525939941,18.5620822906494,18.5629138946533,18.5637397766113,18.5645694732666,18.5653991699219,18.5662307739258,18.5670604705811,18.5678901672363,18.568717956543,18.5695495605469,18.5703792572021,18.5712070465088,18.5720367431641,18.5728721618652,18.5736980438232,18.5745277404785,18.5753612518311,18.5761909484863,18.577018737793,16.4406414031982,16.4189929962158,16.3973999023438,16.3758640289307,14.4641542434692,13.6895551681519,13.6596965789795,13.6299676895142,13.6003684997559,13.570897102356,13.5415534973145,13.512336730957,13.4832458496094,13.4542789459229,13.4254369735718,13.3967189788818,13.3681221008301,13.3396482467651,13.3112955093384,13.2830619812012,13.2549486160278,13.226954460144,13.1990776062012,13.1713180541992,13.1436748504639,13.1161479949951,13.0882205963135,13.0602903366089,13.0324792861938,13.004786491394,12.9772109985352,12.9497518539429,12.9224090576172,12.8951816558838,12.8680686950684,12.8410692214966,12.8141822814941,12.7874088287354,12.7607469558716,12.7341957092285,12.7077541351318,12.6814222335815,12.6552000045776,12.6290855407715,12.6030788421631,12.5771789550781,12.5513849258423,12.5256967544556,12.5001134872437,12.4746351242065,12.4492597579956,12.4239873886108,12.3988180160522,12.3737497329712,12.3487825393677,12.3239164352417,12.2915573120117,12.2575941085815,12.2238187789917,12.1902284622192,12.1568222045898,12.1235961914062,12.0905485153198,12.0576801300049,12.0249900817871,11.9924764633179,11.9601383209229,11.9279737472534,11.8959827423096,11.8641624450684,11.8325109481812,11.8010292053223,11.7697134017944,11.738564491272,11.7075796127319,11.6767578125,11.6460971832275,11.6155977249146,11.5852584838867,11.5550756454468,11.5250511169434,11.4951810836792,11.4654664993286,11.4359045028687,11.2557287216187,11.1394824981689,11.0438442230225,10.9740610122681,10.9051532745361,10.8371067047119,10.7877864837646,10.7905950546265,10.7943878173828,10.7980308532715,10.7941617965698,10.7902956008911,10.7864332199097,10.7825727462769,10.778715133667,10.7748594284058,10.7710075378418,10.7671585083008,10.7633113861084,10.7594680786133,10.7556266784668,10.7517881393433,10.7372531890869,10.7064418792725,10.6758069992065,10.6453475952148,10.6150598526001,10.5849456787109,10.5550003051758,10.5252246856689,10.4956169128418,10.4661750793457,10.436897277832,10.4077835083008,10.3788318634033,10.350040435791,10.3214082717896,10.2929344177246,10.2646169662476,10.2364549636841,10.2084465026855,10.180591583252,10.1528882980347,10.1253347396851,10.0979309082031,10.0706758499146,10.0435657501221,10.0166025161743,9.98978328704834,9.96310710906982,9.93657302856445,9.91018009185791,9.88392639160156,9.87020969390869,9.8587121963501,9.84724235534668,9.8357982635498,9.82438182830811,9.81299114227295,9.80162715911865,9.7902889251709,9.778977394104,9.76769161224365,9.75643157958984,9.74519824981689,9.73399066925049,9.72280883789062,9.71165180206299,9.70052146911621,9.68941593170166,9.67833614349365,9.66728115081787,9.65625190734863,9.64524745941162,9.63426876068115,9.62331485748291,9.61238479614258,9.60148048400879,9.59060096740723,9.57974529266357,9.56891536712646,9.55810832977295,9.54732704162598,9.53656959533691,9.52583599090576,9.51512718200684,9.5044412612915,9.4937801361084,9.48314380645752,9.47252941131592,9.46193981170654,9.45137405395508,9.44083118438721,9.43031215667725,9.4198169708252,9.40934467315674,9.39889621734619,9.38846969604492,9.37806701660156,9.3676872253418,9.35733032226562,9.34699726104736,9.33668613433838,9.32639789581299,9.31613159179688,9.30588912963867,9.29566764831543,9.2854700088501,9.27529430389404,9.26514053344727,9.25500965118408,9.24489974975586,9.23481273651123,9.22474765777588,9.2147045135498,9.20468330383301,9.19468307495117,9.18470573425293,9.17474937438965,9.16481399536133,9.1549015045166,9.14500904083252,9.13513851165771,9.12528991699219,9.11546230316162,9.1056547164917,9.09586906433105,9.08610439300537,9.07636070251465
18.2865505218506,18.2873554229736,18.288158416748,18.2889652252197,18.2897682189941,18.2905788421631,18.2913818359375,18.2921867370605,18.2929916381836,18.2937965393066,18.2946033477783,18.29541015625,18.2962112426758,18.2970199584961,18.2978229522705,18.2986297607422,18.2994365692139,18.3002395629883,18.3010482788086,18.3018569946289,18.3026599884033,18.303466796875,18.3042755126953,18.3050765991211,18.3058853149414,18.3066921234131,18.3074970245361,18.3083076477051,18.3091144561768,18.3099212646484,18.3107242584229,18.3115348815918,18.3123397827148,18.3131465911865,18.3139533996582,18.3147602081299,18.3155689239502,18.3163757324219,18.3171806335449,18.3179874420166,18.3187980651855,18.3196067810059,18.3204135894775,18.3212223052979,18.3220291137695,18.3228378295898,18.3236446380615,18.3244533538818,18.3252620697021,18.3260707855225,18.3268775939941,18.3276863098145,18.3284931182861,18.3293037414551,18.330114364624,18.3309211730957,18.331729888916,18.332540512085,18.3333473205566,18.334156036377,18.3349647521973,18.3357734680176,18.3365840911865,18.3373928070068,18.3381996154785,18.3390102386475,18.339822769165,18.3406295776367,18.3414421081543,18.342248916626,18.3430595397949,18.3438682556152,18.3446807861328,18.3454856872559,18.3462982177734,18.3471088409424,18.3479175567627,18.3487319946289,18.3495407104492,18.3503513336182,18.3511600494385,18.3519706726074,18.352783203125,18.3535938262939,18.3544025421143,18.3552150726318,18.3560276031494,18.3568363189697,18.3576488494873,18.358455657959,18.3592700958252,18.3600807189941,18.3608913421631,18.361701965332,18.3625164031982,18.3633251190186,18.3641414642334,18.3649501800537,18.3657627105713,18.3665714263916,18.3673839569092,18.3681983947754,18.369010925293,18.3698196411133,18.3706321716309,18.3714447021484,18.3722591400146,18.3730697631836,18.3738861083984,18.3746948242188,18.375509262085,18.3763198852539,18.3771324157715,18.3779487609863,18.3787631988525,18.3795738220215,18.3803863525391,18.3811988830566,18.3820133209229,18.3828239440918,18.3836364746094,18.3844528198242,18.3852653503418,18.3860778808594,18.386890411377,18.3877067565918,18.3885173797607,18.389331817627,18.3901481628418,18.390962600708,18.3917751312256,18.3925895690918,18.393404006958,18.3942165374756,18.3950328826904,16.4249057769775,16.4032974243164,16.3817462921143,16.3602504730225,16.3388118743896,13.8741254806519,13.6756715774536,13.6458740234375,13.6162052154541,13.5866661071777,13.5572538375854,13.5279693603516,13.4988107681274,13.4697780609131,13.4408693313599,13.4120845794678,13.3834228515625,13.3548831939697,13.3264656066895,13.298168182373,13.2699909210205,13.2419328689575,13.2139930725098,13.1861705780029,13.1584663391113,13.1308765411377,13.1034030914307,13.0760440826416,13.04833984375,13.0205793380737,12.9929370880127,12.9654111862183,12.9380025863647,12.9107093811035,12.8835306167603,12.856466293335,12.8295154571533,12.8026781082153,12.7759523391724,12.7493371963501,12.7228336334229,12.696439743042,12.6701545715332,12.6439790725708,12.6179103851318,12.5919494628906,12.5660953521729,12.5403470993042,12.5147037506104,12.4891653060913,12.4637317657471,12.4384002685547,12.4131717681885,12.3880462646484,12.3630218505859,12.3380975723267,12.3132743835449,12.2885503768921,12.2639265060425,12.2393999099731,12.2085847854614,12.1750783920288,12.1417551040649,12.1086120605469,12.0756454467773,12.0428581237793,12.0102481842041,11.9778146743774,11.9455547332764,11.9134693145752,11.881555557251,11.8498115539551,11.8182373046875,11.7868309020996,11.7555913925171,11.7245168685913,11.6936054229736,11.6628570556641,11.632269859314,11.601842880249,11.5715742111206,11.5414638519287,11.5115089416504,11.4817094802856,11.4520645141602,11.422571182251,11.3932294845581,11.3640384674072,11.1784591674805,11.0637950897217,10.9514598846436,10.8474092483521,10.7982740402222,10.7976741790771,10.7938051223755,10.7899398803711,10.7860765457153,10.7822170257568,10.778359413147,10.7745046615601,10.7706527709961,10.7668037414551,10.762957572937,10.7591142654419,10.7552728652954,10.7514352798462,10.7475996017456,10.743766784668,10.7290229797363,10.6982583999634,10.6676712036133,10.6372566223145,10.6070156097412,10.5769462585449,10.547046661377,10.517315864563,10.4877529144287,10.4583549499512,10.4291210174561,10.400050163269,10.3711414337158,10.3423929214478,10.3138027191162,10.2853708267212,10.2570953369141,10.2289743423462,10.2010068893433,10.173192024231,10.145528793335,10.1180152893066,10.090651512146,10.0634346008301,10.0363645553589,10.0094394683838,9.98265838623047,9.95602035522461,9.92952346801758,9.90316772460938,9.87695217132568,9.86278438568115,9.85130500793457,9.83985137939453,9.82842540740967,9.81702518463135,9.80565166473389,9.79430484771729,9.78298377990723,9.77168941497803,9.76041984558105,9.74917697906494,9.73796081542969,9.72676944732666,9.71560382843018,9.70446395874023,9.69334983825684,9.68226051330566,9.67119693756104,9.66015911102295,9.64914608001709,9.63815784454346,9.62719440460205,9.61625671386719,9.60534286499023,9.59445476531982,9.58359050750732,9.57275104522705,9.561936378479,9.55114555358887,9.54037952423096,9.52963733673096,9.51891994476318,9.50822639465332,9.49755668640137,9.48691082000732,9.47628879547119,9.46569156646729,9.45511627197266,9.44456577301025,9.43403816223145,9.42353439331055,9.41305446624756,9.40259647369385,9.39216327667236,9.38175201416016,9.37136363983154,9.36099910736084,9.35065746307373,9.3403377532959,9.33004188537598,9.31976795196533,9.30951690673828,9.29928874969482,9.28908252716064,9.27889823913574,9.26873683929443,9.2585973739624,9.24848079681396,9.2383861541748,9.22831344604492,9.21826171875,9.20823287963867,9.1982250213623,9.18824005126953,9.17827606201172,9.16833305358887,9.15841293334961,9.14851379394531,9.13863563537598,9.1287784576416,9.1189432144165,9.10912895202637,9.09933567047119,9.08956336975098,9.07981204986572,9.07008171081543,9.0603723526001
18.112548828125,18.1133403778076,18.1141262054443,18.114917755127,18.1157073974609,18.1164989471436,18.1172866821289,18.1180744171143,18.1188659667969,18.1196613311768,18.1204509735107,18.1212406158447,18.1220302581787,18.1228218078613,18.1236095428467,18.1244029998779,18.1251907348633,18.1259841918945,18.1267719268799,18.1275634765625,18.1283512115479,18.1291446685791,18.1299362182617,18.1307277679443,18.1315174102783,18.1323108673096,18.1331005096436,18.1338939666748,18.1346855163574,18.1354751586914,18.136266708374,18.1370582580566,18.1378517150879,18.1386413574219,18.1394329071045,18.1402263641357,18.1410179138184,18.1418113708496,18.1426010131836,18.1433906555176,18.1441879272461,18.1449794769287,18.1457691192627,18.1465644836426,18.1473579406738,18.1481494903564,18.1489429473877,18.1497344970703,18.1505279541016,18.1513195037842,18.1521167755127,18.1529026031494,18.1536998748779,18.1544914245605,18.1552886962891,18.156078338623,18.1568737030029,18.1576652526855,18.1584606170654,18.159252166748,18.1600475311279,18.1608371734619,18.1616344451904,18.1624279022217,18.1632232666016,18.1640148162842,18.1648082733154,18.165599822998,18.1663970947266,18.1671886444092,18.1679878234863,18.1687793731689,18.1695747375488,18.1703681945801,18.17116355896,18.1719570159912,18.1727542877197,18.173547744751,18.1743450164795,18.1751365661621,18.1759357452393,18.1767311096191,18.177526473999,18.1783180236816,18.1791133880615,18.17991065979,18.1807060241699,18.1814994812012,18.1822986602783,18.1830921173096,18.1838893890381,18.184684753418,18.1854782104492,18.1862754821777,18.1870708465576,18.1878662109375,18.1886653900146,18.1894588470459,18.190258026123,18.1910495758057,18.1918506622314,18.1926441192627,18.1934432983398,18.1942348480225,18.1950359344482,18.1958312988281,18.1966285705566,18.1974239349365,18.1982231140137,18.1990184783936,18.1998176574707,18.2006130218506,18.2014102935791,18.2022075653076,18.2030048370361,18.2038021087646,18.2046012878418,18.2054004669189,18.2061977386475,18.2069931030273,18.2077941894531,18.2085914611816,18.2093868255615,18.2101860046387,18.2109851837158,18.2117824554443,18.2125797271729,18.2133808135986,18.2141780853271,18.2149753570557,18.2157726287842,16.4308242797852,16.4091987609863,16.3876323699951,16.3661231994629,16.344669342041,16.3232707977295,16.301929473877,13.6916847229004,13.6618175506592,13.6320791244507,13.6024703979492,13.5729904174805,13.5436382293701,13.5144119262695,13.4853115081787,13.4563369750977,13.4274854660034,13.3987579345703,13.370153427124,13.3416709899902,13.3133087158203,13.2850675582886,13.2569456100464,13.2289428710938,13.201057434082,13.1732892990112,13.1456384658813,13.1181030273438,13.0906829833984,13.0633773803711,13.0361852645874,13.0087013244629,12.9811086654663,12.9536333084106,12.9262742996216,12.8990306854248,12.871901512146,12.8448858261108,12.8179836273193,12.7911939620972,12.76451587677,12.7379484176636,12.7114915847778,12.6851444244385,12.6589069366455,12.6327772140503,12.6067552566528,12.5808401107788,12.5550317764282,12.5293283462524,12.5037307739258,12.4782361984253,12.4528465270996,12.4275598526001,12.4023752212524,12.377293586731,12.3523120880127,12.327431678772,12.3026514053345,12.2779703140259,12.2533874511719,12.2289037704468,12.204517364502,12.1802282333374,12.1560354232788,12.1267251968384,12.0936651229858,12.0607805252075,12.0280733108521,11.9955425262451,11.9631881713867,11.9310073852539,11.8990001678467,11.8671636581421,11.8354969024658,11.8039979934692,11.7726678848267,11.7415018081665,11.7105016708374,11.6796646118164,11.6489896774292,11.6184749603271,11.5881195068359,11.5579233169556,11.5278825759888,11.4979991912842,11.4682693481445,11.4386930465698,11.4092683792114,11.3799953460693,11.3508720397949,11.3218975067139,11.2177095413208,11.1022434234619,10.9891300201416,10.8782978057861,10.7895841598511,10.7857208251953,10.7818613052368,10.778003692627,10.7741498947144,10.7702980041504,10.7664489746094,10.7626028060913,10.7587594985962,10.754919052124,10.7510814666748,10.7472457885742,10.7434139251709,10.7395839691162,10.7357568740845,10.7208051681519,10.6900882720947,10.6595458984375,10.6291790008545,10.5989837646484,10.5689601898193,10.5391054153442,10.5094194412231,10.4798994064331,10.4505462646484,10.4213562011719,10.3923282623291,10.3634624481201,10.334755897522,10.3062086105347,10.2778186798096,10.2495832443237,10.2215042114258,10.1935777664185,10.1658039093018,10.1381807327271,10.11070728302,10.0833826065063,10.0562047958374,10.0291728973389,10.0022869110107,9.97554302215576,9.94894313812256,9.92248439788818,9.89616680145264,9.86998748779297,9.85537052154541,9.84390830993652,9.8324728012085,9.82106304168701,9.80967998504639,9.79832363128662,9.78699398040771,9.77568912506104,9.76441192626953,9.75315952301025,9.74193382263184,9.73073291778564,9.71955871582031,9.70840930938721,9.69728660583496,9.68618869781494,9.67511558532715,9.6640682220459,9.65304660797119,9.64204978942871,9.63107776641846,9.62013053894043,9.60920906066895,9.59831142425537,9.58743858337402,9.5765905380249,9.56576728820801,9.55496788024902,9.54419326782227,9.53344249725342,9.5227165222168,9.51201438903809,9.50133609771729,9.49068164825439,9.48005199432373,9.46944522857666,9.4588623046875,9.44830322265625,9.43776702880859,9.42725563049316,9.41676616668701,9.40630054473877,9.39585876464844,9.3854398727417,9.37504386901855,9.364670753479,9.35432052612305,9.34399318695068,9.33368873596191,9.32340717315674,9.31314849853516,9.30291175842285,9.29269695281982,9.28250598907471,9.27233600616455,9.2621898651123,9.25206470489502,9.24196147918701,9.2318811416626,9.22182178497314,9.21178531646729,9.20176982879639,9.19177722930908,9.18180561065674,9.17185497283936,9.16192722320557,9.15201950073242,9.14213466644287,9.13226985931396,9.12242698669434,9.11260509490967,9.10280418395996,9.09302520751953,9.08326625823975,9.07352828979492,9.06381130218506,9.05411529541016,9.04444026947021
17.9418277740479,17.9426021575928,17.943380355835,17.9441528320312,17.9449272155762,17.9456996917725,17.9464797973633,17.9472522735596,17.9480323791504,17.9488010406494,17.9495811462402,17.9503517150879,17.9511299133301,17.9519081115723,17.9526824951172,17.9534568786621,17.9542350769043,17.9550113677979,17.9557857513428,17.9565620422363,17.9573383331299,17.9581146240234,17.958890914917,17.9596652984619,17.9604415893555,17.9612197875977,17.9619941711426,17.9627723693848,17.9635467529297,17.9643230438232,17.9651012420654,17.965877532959,17.9666557312012,17.9674301147461,17.9682064056396,17.9689865112305,17.969762802124,17.9705410003662,17.9713172912598,17.972095489502,17.9728698730469,17.9736480712891,17.9744243621826,17.9752025604248,17.9759826660156,17.9767551422119,17.9775352478027,17.9783153533936,17.9790916442871,17.9798679351807,17.9806499481201,17.9814262390137,17.9822044372559,17.982982635498,17.9837608337402,17.9845409393311,17.9853191375732,17.9860954284668,17.9868774414062,17.9876537322998,17.9884338378906,17.9892082214355,17.9899921417236,17.9907703399658,17.9915466308594,17.9923248291016,17.9931030273438,17.9938850402832,17.994665145874,17.9954433441162,17.9962253570557,17.9970035552979,17.99778175354,17.9985618591309,17.999340057373,18.0001201629639,18.0009021759033,18.0016784667969,18.0024604797363,18.0032386779785,18.004020690918,18.0048007965088,18.0055828094482,18.0063629150391,18.0071411132812,18.0079250335693,18.0087051391602,18.0094833374023,18.0102634429932,18.0110454559326,18.0118255615234,18.0126037597656,18.0133895874023,18.0141677856445,18.0149478912354,18.0157299041748,18.0165100097656,18.0172920227051,18.0180759429932,18.0188541412354,18.0196380615234,18.0204181671143,18.0212001800537,18.0219802856445,18.022762298584,18.0235443115234,18.0243263244629,18.025110244751,18.0258884429932,18.026668548584,18.0274524688721,18.0282363891602,18.0290203094482,18.0298004150391,18.0305824279785,18.0313625335693,18.0321483612061,18.0329303741455,18.033712387085,18.0344944000244,18.0352802276611,18.0360622406006,18.0368461608887,18.0376300811768,18.0384101867676,18.0391941070557,18.0399742126465,16.4367446899414,16.4151058197021,16.3935241699219,16.371997833252,16.350528717041,16.3291149139404,16.3077583312988,16.2864570617676,14.4868698120117,13.6777973175049,13.6479902267456,13.6183128356934,13.5887641906738,13.5593433380127,13.5300493240356,13.5008821487427,13.4718399047852,13.4429225921631,13.4141292572021,13.385458946228,13.3569107055664,13.328483581543,13.300178527832,13.2719926834106,13.2439260482788,13.2159776687622,13.1881475448608,13.1604337692261,13.1328363418579,13.105354309082,13.0779876708984,13.0507345199585,13.0235948562622,12.9965686798096,12.9693021774292,12.9418773651123,12.9145669937134,12.8873729705811,12.8602924346924,12.8333253860474,12.806471824646,12.7797298431396,12.7530994415283,12.7265796661377,12.7001705169678,12.6738700866699,12.6476783752441,12.6215953826904,12.5956192016602,12.5697498321533,12.5439872741699,12.518328666687,12.4927759170532,12.4673271179199,12.4419813156128,12.4167385101318,12.3915977478027,12.3665590286255,12.3416213989258,12.3167839050293,12.2920455932617,12.2674074172974,12.2428674697876,12.2184247970581,12.1940803527832,12.1698331832886,12.1456813812256,12.1216249465942,12.0976648330688,12.074275970459,12.0459508895874,12.0133237838745,11.9808731079102,11.94859790802,11.9164953231812,11.8845653533936,11.8528060913086,11.8212156295776,11.7897939682007,11.7585372924805,11.7274475097656,11.6965208053589,11.6657571792603,11.6351547241211,11.6047124862671,11.5744295120239,11.544303894043,11.5143346786499,11.4845209121704,11.4548606872559,11.4253530502319,11.3959970474243,11.366792678833,11.3377361297607,11.3088293075562,11.280068397522,11.2514533996582,11.1409587860107,11.0270595550537,10.9154653549194,10.8061075210571,10.7737941741943,10.7699432373047,10.7660942077637,10.7622489929199,10.7584056854248,10.7545652389526,10.7507276535034,10.7468929290771,10.7430610656738,10.7392311096191,10.7354049682617,10.7315807342529,10.7277593612671,10.7125997543335,10.6819295883179,10.6514348983765,10.6211128234863,10.5909633636475,10.5609855651855,10.5311756134033,10.5015344619751,10.4720592498779,10.4427490234375,10.4136018753052,10.384617805481,10.3557949066162,10.327130317688,10.2986249923706,10.2702760696411,10.2420835494995,10.2140445709229,10.1861591339111,10.1584253311157,10.1308422088623,10.1034088134766,10.0761232376099,10.0489845275879,10.0219917297363,9.99514389038086,9.96843910217285,9.94187641143799,9.91545486450195,9.88917446136475,9.86303234100342,9.84796810150146,9.83652305603027,9.82510471343994,9.81371212005615,9.80234622955322,9.79100704193115,9.77969360351562,9.76840591430664,9.75714492797852,9.74590969085693,9.73470020294189,9.7235164642334,9.71235847473145,9.70122623443604,9.69011974334717,9.67903804779053,9.66798210144043,9.65695095062256,9.64594459533691,9.63496398925781,9.62400817871094,9.61307716369629,9.60217094421387,9.59128952026367,9.5804328918457,9.56960105895996,9.55879306793213,9.54800987243652,9.53725051879883,9.52651596069336,9.5158052444458,9.50511837005615,9.49445629119873,9.4838171005249,9.47320175170898,9.46261119842529,9.4520435333252,9.44149971008301,9.43097877502441,9.42048168182373,9.41000843048096,9.39955711364746,9.38913059234619,9.3787260055542,9.36834526062012,9.35798645019531,9.34765148162842,9.33733940124512,9.32704925537109,9.31678199768066,9.30653762817383,9.29631519317627,9.2861156463623,9.27593803405762,9.26578330993652,9.25565052032471,9.24554061889648,9.23545169830322,9.22538566589355,9.21534061431885,9.20531749725342,9.19531631469727,9.18533706665039,9.17537975311279,9.16544342041016,9.1555290222168,9.1456356048584,9.13576412200928,9.12591361999512,9.11608409881592,9.106276512146,9.09648895263672,9.08672332763672,9.07697772979736,9.06725311279297,9.05755043029785,9.04786777496338,9.03820514678955,9.028564453125
17.7742958068848,17.7750568389893,17.7758159637451,17.7765769958496,17.7773361206055,17.77809715271,17.7788581848145,17.7796192169189,17.7803802490234,17.7811431884766,17.7819004058838,17.7826595306396,17.7834224700928,17.7841815948486,17.784948348999,17.7857074737549,17.7864685058594,17.7872314453125,17.787992477417,17.7887535095215,17.789514541626,17.7902793884277,17.7910404205322,17.7917995452881,17.7925662994385,17.7933254241943,17.7940864562988,17.7948474884033,17.7956104278564,17.7963714599609,17.7971343994141,17.7978954315186,17.7986602783203,17.7994213104248,17.8001861572266,17.8009433746338,17.8017101287842,17.8024711608887,17.8032341003418,17.8039970397949,17.804759979248,17.8055229187012,17.8062858581543,17.8070468902588,17.8078117370605,17.8085765838623,17.8093395233154,17.8101024627686,17.8108673095703,17.8116283416748,17.8123950958252,17.813159942627,17.8139228820801,17.8146839141846,17.8154487609863,17.8162136077881,17.8169765472412,17.817741394043,17.8185062408447,17.8192672729492,17.820032119751,17.8207969665527,17.8215618133545,17.8223247528076,17.823091506958,17.8238544464111,17.8246192932129,17.8253841400146,17.8261470794678,17.8269119262695,17.8276786804199,17.8284397125244,17.8292083740234,17.8299732208252,17.830738067627,17.8315029144287,17.8322696685791,17.8330307006836,17.8338012695312,17.8345642089844,17.8353309631348,17.8360939025879,17.8368625640869,17.83762550354,17.8383941650391,17.8391551971436,17.8399238586426,17.8406925201416,17.8414573669434,17.8422241210938,17.8429889678955,17.8437557220459,17.8445224761963,17.8452854156494,17.8460559844971,17.8468208312988,17.8475875854492,17.8483562469482,17.8491230010986,17.849889755249,17.8506546020508,17.8514232635498,17.8521900177002,17.852954864502,17.8537216186523,17.8544883728027,17.8552589416504,17.8560218811035,17.8567905426025,17.8575572967529,17.858325958252,17.8590927124023,17.8598613739014,17.8606281280518,17.8613967895508,17.8621616363525,17.8629322052002,17.8636989593506,17.8644676208496,17.865234375,17.866003036499,17.8667697906494,17.8675403594971,17.8683090209961,16.4210166931152,16.3994178771973,16.3778781890869,16.3563919067383,16.3349647521973,16.313591003418,16.2922744750977,16.2710151672363,16.2498092651367,13.8950233459473,13.6639385223389,13.6341915130615,13.6045732498169,13.5750846862793,13.5457229614258,13.5164880752563,13.4873781204224,13.4583950042725,13.4295349121094,13.4007987976074,13.3721857070923,13.3436937332153,13.3153238296509,13.287073135376,13.2589426040649,13.2309312820435,13.2030382156372,13.1752624511719,13.1476030349731,13.1200590133667,13.0926303863525,13.0653171539307,13.0381164550781,13.0110292434692,12.9840545654297,12.9571914672852,12.9301414489746,12.9028816223145,12.8757362365723,12.8487043380737,12.8217859268188,12.7949800491333,12.7682867050171,12.7417039871216,12.7152318954468,12.6888694763184,12.662615776062,12.6364707946777,12.6104335784912,12.5845031738281,12.5586795806885,12.5329618453979,12.5073490142822,12.481840133667,12.4564361572266,12.431134223938,12.4059362411499,12.3808393478394,12.3558435440063,12.3309488296509,12.3061542510986,12.2814588546753,12.2568626403809,12.232364654541,12.2079648971558,12.1836614608765,12.1594552993774,12.1353445053101,12.1113300323486,12.0874099731445,12.0635843276978,12.0429420471191,12.0227270126343,11.9986114501953,11.9662399291992,11.934042930603,11.9020185470581,11.8701658248901,11.8384838104248,11.8069696426392,11.7756223678589,11.744441986084,11.7134256362915,11.6825733184814,11.6518831253052,11.6213531494141,11.5909833908081,11.5607709884644,11.5307168960571,11.5008172988892,11.4710731506348,11.4414825439453,11.4120445251465,11.3827571868896,11.3536195755005,11.3246307373047,11.2957897186279,11.2670955657959,11.23854637146,11.2101411819458,11.1818799972534,11.0652523040771,10.9528875350952,10.8427820205688,10.7618951797485,10.7580518722534,10.7542114257812,10.750373840332,10.7465391159058,10.7427072525024,10.7388782501221,10.7350521087646,10.7312278747559,10.7274074554443,10.7235889434814,10.7197732925415,10.7044067382812,10.6737842559814,10.6433353424072,10.6130599975586,10.5829563140869,10.5530223846436,10.5232582092285,10.4936609268188,10.4642305374146,10.4349632263184,10.4058609008789,10.3769187927246,10.3481388092041,10.3195171356201,10.2910528182983,10.2627458572388,10.2345943450928,10.2065963745117,10.1787519454956,10.1510581970215,10.1235151290894,10.0961208343506,10.0688743591309,10.0417747497559,10.0148210525513,9.98801136016846,9.96134471893311,9.9348201751709,9.9084358215332,9.88219261169434,9.85608673095703,9.84057712554932,9.82914924621582,9.81774711608887,9.80637264251709,9.79502296447754,9.78370094299316,9.77240467071533,9.76113414764404,9.7498893737793,9.73867034912109,9.72747802734375,9.71631050109863,9.70516967773438,9.69405364990234,9.68296337127686,9.67189788818359,9.66085815429688,9.64984321594238,9.63885307312012,9.62788867950439,9.6169490814209,9.60603427886963,9.59514427185059,9.58427810668945,9.57343769073486,9.56262111663818,9.55182933807373,9.54106140136719,9.53031826019287,9.51959896087646,9.50890350341797,9.4982328414917,9.48758506774902,9.47696208953857,9.46636199951172,9.45578670501709,9.44523429870605,9.43470478057861,9.4242000579834,9.41371822357178,9.40325927734375,9.39282417297363,9.38241100311279,9.37202167510986,9.36165618896484,9.3513126373291,9.34099197387695,9.3306941986084,9.32041835784912,9.31016635894775,9.29993629455566,9.28972911834717,9.27954387664795,9.26938056945801,9.25924015045166,9.24912166595459,9.2390251159668,9.22895050048828,9.21889877319336,9.2088680267334,9.19885921478271,9.18887233734131,9.17890644073486,9.16896343231201,9.1590404510498,9.14914035797119,9.13926124572754,9.12940311431885,9.11956596374512,9.10974979400635,9.09995555877686,9.09018230438232,9.08043003082275,9.07069778442383,9.06098747253418,9.05129718780518,9.04162788391113,9.03197956085205,9.02235126495361,9.01274394989014
17.60986328125,17.6106109619141,17.6113567352295,17.6120986938477,17.6128482818604,17.6135940551758,17.6143417358398,17.6150875091553,17.6158313751221,17.6165790557861,17.6173305511475,17.6180744171143,17.6188220977783,17.619571685791,17.6203155517578,17.6210613250732,17.6218109130859,17.6225605010986,17.6233024597168,17.6240520477295,17.6248035430908,17.6255493164062,17.6262969970703,17.6270446777344,17.6277923583984,17.6285400390625,17.6292896270752,17.630033493042,17.6307830810547,17.6315326690674,17.6322803497314,17.6330280303955,17.6337776184082,17.6345233917236,17.635274887085,17.636022567749,17.6367721557617,17.6375198364258,17.6382675170898,17.6390171051025,17.6397647857666,17.6405143737793,17.6412620544434,17.6420116424561,17.6427612304688,17.6435108184814,17.6442584991455,17.6450080871582,17.6457595825195,17.6465072631836,17.6472568511963,17.6480045318604,17.6487560272217,17.6495056152344,17.6502532958984,17.6510066986084,17.6517581939697,17.6525058746338,17.6532554626465,17.6540050506592,17.6547546386719,17.6555061340332,17.6562557220459,17.65700340271,17.6577587127686,17.6585063934326,17.6592578887939,17.6600074768066,17.660758972168,17.6615085601807,17.6622619628906,17.6630077362061,17.663761138916,17.6645126342773,17.66526222229,17.6660137176514,17.6667633056641,17.6675148010254,17.668270111084,17.6690196990967,17.6697673797607,17.6705207824707,17.671272277832,17.6720218658447,17.6727752685547,17.6735286712646,17.6742820739746,17.6750316619873,17.6757831573486,17.67653465271,17.6772861480713,17.6780395507812,17.6787948608398,17.6795444488525,17.6802959442139,17.6810493469238,17.6818008422852,17.6825542449951,17.6833038330078,17.6840572357178,17.6848125457764,17.6855621337891,17.6863174438477,17.687068939209,17.6878223419189,17.6885776519775,17.6893310546875,17.6900863647461,17.6908359527588,17.6915874481201,17.6923408508301,17.69309425354,17.69384765625,17.69460105896,17.6953563690186,17.6961097717285,17.6968650817871,17.6976184844971,17.698371887207,17.6991233825684,16.4269313812256,16.4053173065186,16.3837604522705,16.3622608184814,16.3408164978027,16.319429397583,16.2980976104736,16.2768211364746,16.2555999755859,16.2344360351562,16.2133255004883,13.6799240112305,13.650107383728,13.6204204559326,13.5908622741699,13.5614328384399,13.5321292877197,13.5029535293579,13.4739027023315,13.4449758529663,13.4161739349365,13.3874950408936,13.3589382171631,13.3305034637451,13.302188873291,13.2739944458008,13.2459192276001,13.217963218689,13.1901235580444,13.1624021530151,13.1347961425781,13.1073064804077,13.0799312591553,13.0526704788208,13.02552318573,12.9984884262085,12.971565246582,12.9447536468506,12.9180526733398,12.8912162780762,12.8641204833984,12.83713722229,12.8102674484253,12.7835102081299,12.7568635940552,12.7303285598755,12.7039031982422,12.6775884628296,12.6513814926147,12.6252822875977,12.5992918014526,12.5734071731567,12.5476293563843,12.5219564437866,12.4963884353638,12.4709243774414,12.4455642700195,12.4203071594238,12.39515209198,12.370099067688,12.3451471328735,12.320294380188,12.29554271698,12.2708902359009,12.2463369369507,12.2218809127808,12.1975221633911,12.1732606887817,12.1490955352783,12.1250257492065,12.1010522842407,12.0771722793579,12.0533866882324,12.0319480895996,12.0117702484131,11.9916591644287,11.9716157913208,11.951639175415,11.9195232391357,11.8875770568848,11.8558015823364,11.8241949081421,11.7927570343018,11.7614860534668,11.7303800582886,11.6994380950928,11.6686592102051,11.6380414962769,11.6075839996338,11.5772857666016,11.5471448898315,11.5171613693237,11.4873323440552,11.4576578140259,11.4281368255615,11.3987665176392,11.3695468902588,11.3404769897461,11.3115558624268,11.2827816009521,11.2541532516479,11.2256689071655,11.1973295211792,11.169132232666,11.141077041626,11.1037101745605,10.9905672073364,10.8797063827515,10.7710599899292,10.746187210083,10.7423543930054,10.738525390625,10.7346992492676,10.7308759689331,10.7270555496216,10.7232370376587,10.7194223403931,10.7156095504761,10.711799621582,10.6962270736694,10.6656503677368,10.6352481842041,10.6050186157227,10.5749607086182,10.545072555542,10.5153532028198,10.4857997894287,10.456413269043,10.4271898269653,10.3981304168701,10.3692321777344,10.3404932022095,10.3119144439697,10.2834920883179,10.2552270889282,10.2271165847778,10.1991596221924,10.1713552474976,10.1437015533447,10.1161985397339,10.0888442993164,10.0616369247437,10.0345764160156,10.0076608657837,9.98088932037354,9.95426082611084,9.92777347564697,9.90142631530762,9.87521934509277,9.84915161132812,9.83319664001465,9.82178592681885,9.81040096282959,9.79904270172119,9.78771114349365,9.77640533447266,9.76512622833252,9.75387191772461,9.74264430999756,9.73144245147705,9.72026634216309,9.70911598205566,9.69799041748047,9.68689155578613,9.67581748962402,9.66476821899414,9.6537446975708,9.64274597167969,9.63177299499512,9.62082386016846,9.60990047454834,9.59900188446045,9.58812713623047,9.57727718353271,9.56645202636719,9.55565166473389,9.5448751449585,9.53412342071533,9.52339553833008,9.51269245147705,9.50201225280762,9.49135684967041,9.48072528839111,9.47011661529541,9.45953273773193,9.44897174835205,9.43843460083008,9.42792129516602,9.41743087768555,9.40696334838867,9.39651966094971,9.38609981536865,9.37570190429688,9.36532783508301,9.35497570037842,9.34464740753174,9.33434104919434,9.32405853271484,9.31379795074463,9.30355930328369,9.29334449768066,9.28315162658691,9.27298069000244,9.26283168792725,9.25270557403564,9.24260139465332,9.23251914978027,9.2224588394165,9.21242046356201,9.2024040222168,9.19240951538086,9.1824369430542,9.1724853515625,9.16255569458008,9.15264701843262,9.14276027679443,9.13289451599121,9.12305068969727,9.11322689056396,9.10342502593994,9.09364414215088,9.08388423919678,9.07414531707764,9.06442737579346,9.05472946166992,9.04505252838135,9.03539657592773,9.02576160430908,9.01614665985107,9.00655269622803,8.99697875976562
17.4484424591064,17.4491767883301,17.4499092102051,17.4506435394287,17.4513740539551,17.4521083831787,17.4528408050537,17.4535751342773,17.4543075561523,17.455041885376,17.4557723999023,17.4565086364746,17.457239151001,17.4579734802246,17.4587059020996,17.4594402313232,17.4601745605469,17.4609069824219,17.4616394042969,17.4623756408691,17.4631118774414,17.4638423919678,17.46457862854,17.4653148651123,17.4660453796387,17.4667797088623,17.4675140380859,17.4682483673096,17.4689826965332,17.4697151184082,17.4704513549805,17.4711894989014,17.4719219207764,17.4726581573486,17.4733905792236,17.4741249084473,17.4748611450195,17.4755954742432,17.4763278961182,17.4770660400391,17.4778003692627,17.4785327911377,17.4792709350586,17.4800052642822,17.4807415008545,17.4814777374268,17.4822120666504,17.4829483032227,17.4836826324463,17.4844188690186,17.4851551055908,17.4858894348145,17.4866237640381,17.487361907959,17.4881000518799,17.4888343811035,17.4895706176758,17.4903049468994,17.4910449981689,17.4917793273926,17.4925155639648,17.4932518005371,17.4939918518066,17.4947261810303,17.4954624176025,17.4961967468262,17.4969348907471,17.497673034668,17.4984111785889,17.4991455078125,17.499885559082,17.5006198883057,17.5013599395752,17.5020961761475,17.5028324127197,17.503568649292,17.5043087005615,17.5050449371338,17.5057830810547,17.5065212249756,17.5072574615479,17.5079936981201,17.508731842041,17.5094699859619,17.5102081298828,17.5109481811523,17.5116844177246,17.5124206542969,17.5131607055664,17.5138969421387,17.5146331787109,17.5153770446777,17.5161151885986,17.5168533325195,17.5175914764404,17.51833152771,17.5190677642822,17.5198059082031,17.5205459594727,17.5212841033936,17.5220241546631,17.5227603912354,17.5235004425049,17.5242404937744,17.5249786376953,17.5257186889648,17.5264568328857,17.5271949768066,17.5279369354248,17.5286769866943,17.5294132232666,17.5301551818848,17.5308952331543,17.5316333770752,17.5323715209961,17.5331115722656,17.5338516235352,16.4112205505371,16.3896484375,16.3681335449219,16.3466739654541,16.3252716064453,16.3039245605469,16.2826328277588,16.2613964080811,16.2402172088623,16.2190914154053,16.1980209350586,14.5096559524536,13.6660604476929,13.6363039016724,13.6066770553589,13.5771789550781,13.5478076934814,13.5185642242432,13.4894456863403,13.4604530334473,13.4315843582153,13.4028396606445,13.3742179870605,13.3457174301147,13.3173379898071,13.2890796661377,13.2609405517578,13.2329206466675,13.2050189971924,13.1772346496582,13.1495676040649,13.122015953064,13.094578742981,13.0672569274902,13.0400485992432,13.0129537582397,12.9859704971313,12.9590997695923,12.9323396682739,12.905689239502,12.8791494369507,12.8525257110596,12.8255910873413,12.7987699508667,12.7720603942871,12.7454614639282,12.7189741134644,12.6925954818726,12.6663274765015,12.6401672363281,12.6141147613525,12.5881690979004,12.5623302459717,12.5365972518921,12.5109701156616,12.4854469299316,12.4600276947021,12.4347114562988,12.4094982147217,12.3843870162964,12.3593769073486,12.3344678878784,12.3096590042114,12.2849502563477,12.2603397369385,12.2358283996582,12.2114143371582,12.1870975494385,12.1628770828247,12.1387529373169,12.114725112915,12.0907917022705,12.0669527053833,12.0432071685791,12.020975112915,12.0008335113525,11.9807596206665,11.9607524871826,11.9408121109009,11.920937538147,11.9011297225952,11.8731698989868,11.8414716720581,11.8099422454834,11.7785797119141,11.7473831176758,11.7163515090942,11.6854839324951,11.6547775268555,11.6242332458496,11.5938482284546,11.5636205673218,11.5335512161255,11.5036382675171,11.4738788604736,11.4442739486694,11.4148216247559,11.3855199813843,11.3563680648804,11.3273649215698,11.2985105514526,11.2698020935059,11.2412395477295,11.2128210067749,11.1845464706421,11.1564130783081,11.1284217834473,11.1005697250366,11.0728578567505,11.028507232666,10.9168834686279,10.8074970245361,10.7343492507935,10.7305240631104,10.7267036437988,10.7228851318359,10.7190704345703,10.7152576446533,10.7114486694336,10.7076416015625,10.7038373947144,10.6880588531494,10.6575288772583,10.6271734237671,10.5969896316528,10.5669765472412,10.5371332168579,10.5074586868286,10.4779500961304,10.4486064910889,10.4194278717041,10.3904113769531,10.3615550994873,10.332859992981,10.3043231964111,10.2759428024292,10.2477188110352,10.2196483612061,10.1917324066162,10.163969039917,10.1363554000854,10.1088924407959,10.0815763473511,10.0544090270996,10.0273876190186,10.0005102157593,9.97377681732178,9.94718647003174,9.92073631286621,9.89442729949951,9.86825752258301,9.84222507476807,9.82582759857178,9.81443405151367,9.80306625366211,9.79172515869141,9.78040981292725,9.76912117004395,9.75785827636719,9.74662113189697,9.73541069030762,9.72422504425049,9.7130651473999,9.70193099975586,9.69082260131836,9.6797399520874,9.66868209838867,9.65764904022217,9.64664173126221,9.63565921783447,9.62470245361328,9.61376953125,9.60286140441895,9.59197902679443,9.58112049102783,9.57028675079346,9.55947780609131,9.54869270324707,9.53793239593506,9.52719593048096,9.51648330688477,9.5057954788208,9.49513053894043,9.48449039459229,9.47387409210205,9.46328163146973,9.452712059021,9.44216728210449,9.43164539337158,9.42114639282227,9.41067123413086,9.40021896362305,9.38979053497314,9.37938499450684,9.36900234222412,9.358642578125,9.34830570220947,9.33799171447754,9.3277006149292,9.31743240356445,9.30718612670898,9.29696273803711,9.28676128387451,9.27658271789551,9.2664270401001,9.25629234313965,9.24618053436279,9.23609066009521,9.22602272033691,9.21597671508789,9.20595264434814,9.19594955444336,9.18596935272217,9.17601013183594,9.16607284545898,9.15615653991699,9.14626216888428,9.13638877868652,9.12653732299805,9.11670684814453,9.10689735412598,9.09710884094238,9.08734130859375,9.07759475708008,9.06786918640137,9.05816459655762,9.04848098754883,9.03881740570068,9.0291748046875,9.01955223083496,9.00995063781738,9.00037002563477,8.99080848693848,8.98126792907715
17.2899589538574,17.2906761169434,17.2913970947266,17.2921161651611,17.2928352355957,17.2935543060303,17.2942733764648,17.2949962615967,17.2957172393799,17.2964324951172,17.2971496582031,17.2978763580322,17.2985973358154,17.2993125915527,17.3000335693359,17.3007545471191,17.301477432251,17.3021965026855,17.3029136657715,17.3036365509033,17.3043556213379,17.3050785064697,17.3057994842529,17.3065223693848,17.3072395324707,17.3079643249512,17.3086814880371,17.3094062805176,17.3101272583008,17.3108444213867,17.3115673065186,17.3122882843018,17.3130111694336,17.3137302398682,17.314453125,17.3151760101318,17.3158988952637,17.3166160583496,17.3173408508301,17.3180637359619,17.3187828063965,17.3195056915283,17.3202285766602,17.3209533691406,17.3216724395752,17.3223934173584,17.3231163024902,17.3238391876221,17.3245620727539,17.3252792358398,17.3260059356689,17.3267288208008,17.327449798584,17.3281726837158,17.328893661499,17.3296165466309,17.3303413391113,17.3310623168945,17.331787109375,17.3325099945068,17.3332290649414,17.3339557647705,17.3346824645996,17.3354015350342,17.336124420166,17.3368492126465,17.3375720977783,17.3382968902588,17.339017868042,17.3397426605225,17.3404655456543,17.3411922454834,17.341911315918,17.3426380157471,17.3433609008789,17.3440837860107,17.3448104858398,17.3455371856689,17.3462562561035,17.346981048584,17.3477077484131,17.3484287261963,17.3491535186768,17.3498783111572,17.3506031036377,17.3513298034668,17.35205078125,17.3527774810791,17.3535003662109,17.35422706604,17.3549499511719,17.355676651001,17.3564033508301,17.3571281433105,17.3578510284424,17.3585758209229,17.3593006134033,17.3600292205811,17.3607501983643,17.3614768981934,17.3622055053711,17.3629283905029,17.3636569976807,17.3643817901611,17.365104675293,17.3658351898193,17.3665542602539,17.3672866821289,17.3680076599121,17.3687343597412,17.3694629669189,17.3701877593994,17.3709125518799,16.4171295166016,16.3955402374268,16.3740100860596,16.3525352478027,16.3311176300049,16.3097553253174,16.2884483337402,16.2671966552734,16.2460021972656,16.2248611450195,16.2037754058838,16.1827449798584,16.1617698669434,13.9159851074219,13.6522245407104,13.6225290298462,13.5929613113403,13.5635223388672,13.5342111587524,13.5050258636475,13.4759654998779,13.4470310211182,13.4182195663452,13.3895320892334,13.3609666824341,13.3325223922729,13.3042001724243,13.2759971618652,13.2479133605957,13.2199487686157,13.1921014785767,13.1643714904785,13.1367568969727,13.1092596054077,13.0818758010864,13.0546064376831,13.0274515151978,13.0004081726074,12.9734773635864,12.9466581344604,12.9199485778809,12.893349647522,12.8668603897095,12.840479850769,12.8140659332275,12.7872924804688,12.760630607605,12.7340793609619,12.7076387405396,12.6813077926636,12.6550855636597,12.6289720535278,12.6029653549194,12.5770664215088,12.5512733459473,12.5255851745605,12.5000028610229,12.4745244979858,12.4491491317749,12.4238777160645,12.3987083435059,12.3736400604248,12.3486738204956,12.3238086700439,12.2990417480469,12.2743759155273,12.2498073577881,12.2253379821777,12.2009658813477,12.1766910552979,12.1525115966797,12.1284284591675,12.1044406890869,12.080548286438,12.0567493438721,12.0330438613892,12.0100212097168,11.9899168014526,11.9698791503906,11.9499082565308,11.930004119873,11.9101657867432,11.8903932571411,11.8706874847412,11.8510456085205,11.8271760940552,11.7957229614258,11.7644357681274,11.7333135604858,11.702356338501,11.6715621948242,11.6409292221069,11.6104574203491,11.5801439285278,11.5499887466431,11.5199899673462,11.4901466369629,11.4604568481445,11.4309206008911,11.4015369415283,11.3723030090332,11.3432197570801,11.314284324646,11.2854957580566,11.2568531036377,11.2283563613892,11.2000026702881,11.1717920303345,11.143723487854,11.1157960891724,11.0880069732666,11.060357093811,11.032844543457,11.0054693222046,10.9543151855469,10.844181060791,10.7362394332886,10.7187213897705,10.7149066925049,10.7110977172852,10.7072906494141,10.7034864425659,10.699686050415,10.6958866119385,10.6799039840698,10.6494207382202,10.6191101074219,10.5889720916748,10.5590057373047,10.5292072296143,10.4995765686035,10.4701118469238,10.4408130645752,10.4116773605347,10.3827037811279,10.3538904190063,10.3252372741699,10.29674243927,10.268404006958,10.2402210235596,10.2121925354004,10.1843175888062,10.1565933227539,10.129020690918,10.1015968322754,10.0743207931519,10.047191619873,10.0202083587646,9.99337005615234,9.9666748046875,9.9401216506958,9.91370964050293,9.88743782043457,9.86130523681641,9.8353099822998,9.81846904754639,9.80709266662598,9.79574203491211,9.7844181060791,9.77311992645264,9.76184749603271,9.75060176849365,9.73938083648682,9.72818660736084,9.71701812744141,9.70587539672852,9.69475746154785,9.68366527557373,9.67259883880615,9.6615571975708,9.65054035186768,9.63954925537109,9.62858295440674,9.61764144897461,9.60672569274902,9.59583377838135,9.5849666595459,9.57412433624268,9.56330585479736,9.55251216888428,9.54174327850342,9.53099822998047,9.52027797698975,9.50958061218262,9.49890804290771,9.48825931549072,9.47763442993164,9.46703338623047,9.45645618438721,9.44590187072754,9.4353723526001,9.42486476898193,9.414381980896,9.40392112731934,9.39348411560059,9.38307094573975,9.37267971038818,9.36231231689453,9.35196685791016,9.34164524078369,9.3313455581665,9.32106971740723,9.31081581115723,9.3005838394165,9.29037475585938,9.28018856048584,9.27002429962158,9.2598819732666,9.24976253509521,9.23966407775879,9.22958850860596,9.2195348739624,9.20950317382812,9.19949340820312,9.18950462341309,9.17953777313232,9.16959285736084,9.15966892242432,9.14976692199707,9.1398868560791,9.13002681732178,9.12018871307373,9.11037158966064,9.10057640075684,9.09080123901367,9.08104705810547,9.07131385803223,9.06160259246826,9.05191040039062,9.04224014282227,9.03258991241455,9.0229606628418,9.01335144042969,9.00376319885254,8.99419498443604,8.98464775085449,8.97512054443359,8.96561241149902
17.1343231201172,17.13503074646,17.1357402801514,17.1364459991455,17.1371517181396,17.1378574371338,17.1385669708252,17.139274597168,17.1399765014648,17.1406841278076,17.1413974761963,17.1420993804932,17.1428070068359,17.1435146331787,17.1442241668701,17.1449317932129,17.1456336975098,17.1463432312012,17.1470527648926,17.1477584838867,17.1484661102295,17.1491718292236,17.149881362915,17.1505889892578,17.1513004302979,17.1520042419434,17.1527156829834,17.1534233093262,17.1541290283203,17.1548366546631,17.1555519104004,17.1562576293945,17.1569652557373,17.1576747894287,17.1583843231201,17.1590900421143,17.159797668457,17.1605072021484,17.1612148284912,17.1619262695312,17.1626319885254,17.1633396148682,17.1640548706055,17.1647624969482,17.1654682159424,17.1661777496338,17.1668891906738,17.1675987243652,17.168306350708,17.1690158843994,17.1697235107422,17.1704330444336,17.1711406707764,17.1718482971191,17.1725673675537,17.1732749938965,17.1739826202393,17.1746921539307,17.1754035949707,17.1761112213135,17.1768226623535,17.1775321960449,17.1782417297363,17.1789531707764,17.1796627044678,17.1803741455078,17.1810836791992,17.1817951202393,17.182502746582,17.1832141876221,17.1839275360107,17.1846389770508,17.1853485107422,17.1860580444336,17.1867733001709,17.187479019165,17.1881885528564,17.1888999938965,17.1896171569824,17.1903266906738,17.1910343170166,17.1917457580566,17.1924571990967,17.1931686401367,17.1938800811768,17.1945896148682,17.1953048706055,17.1960144042969,17.1967277526855,17.197437286377,17.1981544494629,17.1988639831543,17.1995735168457,17.2002849578857,17.201000213623,17.2017097473145,17.2024211883545,17.2031345367432,17.2038459777832,17.2045612335205,17.2052707672119,17.2059860229492,17.2066993713379,17.2074089050293,17.208122253418,17.2088356018066,17.2095470428467,17.2102603912354,17.2109756469727,16.4230403900146,16.4014377593994,16.3798904418945,16.3584003448486,16.3369674682617,16.3155899047852,16.2942676544189,16.2730026245117,16.2517910003662,16.2306365966797,16.2095355987549,16.1884899139404,16.1674995422363,16.1465625762939,16.1256790161133,13.6681833267212,13.6384172439575,13.6087818145752,13.5792741775513,13.5498943328857,13.5206413269043,13.4915142059326,13.4625120162964,13.4336347579956,13.404881477356,13.3762502670288,13.3477411270142,13.319354057312,13.2910871505737,13.262939453125,13.2349109649658,13.2070007324219,13.1792087554932,13.1515321731567,13.1239719390869,13.0965280532837,13.0691976547241,13.0419816970825,13.0148782730103,12.9878873825073,12.9610080718994,12.9342403411865,12.90758228302,12.8810338973999,12.8545951843262,12.8282642364502,12.802041053772,12.7758359909058,12.7492218017578,12.7227182388306,12.6963243484497,12.6700401306152,12.6438646316528,12.6177968978882,12.5918369293213,12.5659828186035,12.5402355194092,12.5145921707153,12.4890546798706,12.4636201858521,12.4382905960083,12.4130620956421,12.3879365921021,12.3629121780396,12.3379898071289,12.3131666183472,12.2884435653687,12.2638187408447,12.2392930984497,12.2148656845093,12.1905355453491,12.1663017272949,12.1421642303467,12.1181221008301,12.0941753387451,12.0703220367432,12.0465641021729,12.0228986740112,11.9993257522583,11.9790191650391,11.9590177536011,11.9390830993652,11.9192152023315,11.8994131088257,11.8796768188477,11.8600053787231,11.8403997421265,11.820858001709,11.801381111145,11.7815370559692,11.7503252029419,11.7192783355713,11.6883945465088,11.6576738357544,11.6271142959595,11.5967140197754,11.5664720535278,11.5363874435425,11.506459236145,11.4766864776611,11.4470663070679,11.4175996780396,11.3882837295532,11.3591175079346,11.3301010131836,11.3012323379517,11.2725105285645,11.2439336776733,11.2155017852783,11.1872138977051,11.1590671539307,11.1310625076294,11.1031980514526,11.0754718780518,11.0478849411011,11.0204343795776,10.9931201934814,10.9659414291382,10.9388961791992,10.8811149597168,10.7724409103394,10.7069435119629,10.7031383514404,10.6993350982666,10.6955366134644,10.6917419433594,10.6879482269287,10.671760559082,10.6413240432739,10.6110601425171,10.5809679031372,10.5510454177856,10.5212917327881,10.4917058944702,10.4622859954834,10.433030128479,10.403938293457,10.3750076293945,10.3462371826172,10.317626953125,10.2891731262207,10.2608766555786,10.2327346801758,10.2047472000122,10.1769123077393,10.1492290496826,10.1216955184937,10.0943117141724,10.0670747756958,10.039984703064,10.0130405426025,9.98624038696289,9.9595832824707,9.93306732177734,9.90669345855713,9.88045883178711,9.85436248779297,9.82840347290039,9.81112194061279,9.79976272583008,9.78842926025391,9.77712154388428,9.76584053039551,9.75458526611328,9.7433557510376,9.73215198516846,9.72097396850586,9.7098217010498,9.69869518280029,9.68759441375732,9.67651844024658,9.66546821594238,9.65444278717041,9.64344215393066,9.63246726989746,9.62151718139648,9.61059188842773,9.59969139099121,9.58881568908691,9.57796478271484,9.56713771820068,9.55633544921875,9.54555797576904,9.53480434417725,9.52407550811768,9.5133695602417,9.50268840789795,9.49203109741211,9.4813985824585,9.47078895568848,9.46020317077637,9.44964027404785,9.43910217285156,9.42858695983887,9.41809463500977,9.40762615203857,9.39718151092529,9.38675975799561,9.37636089324951,9.36598491668701,9.35563182830811,9.34530162811279,9.33499431610107,9.32470989227295,9.3144474029541,9.30420780181885,9.29399108886719,9.2837963104248,9.27362442016602,9.2634744644165,9.25334739685059,9.24324131011963,9.23315811157227,9.22309589385986,9.21305656433105,9.20303916931152,9.19304275512695,9.18306827545166,9.17311573028564,9.16318416595459,9.15327453613281,9.143385887146,9.13351917266846,9.12367343902588,9.11384963989258,9.10404586791992,9.09426403045654,9.08450222015381,9.07476234436035,9.06504249572754,9.05534362792969,9.0456657409668,9.03600883483887,9.02637195587158,9.01675605773926,9.00716018676758,8.99758529663086,8.98802947998047,8.97849464416504,8.96898078918457,8.95948600769043,8.95001220703125
16.9814701080322,16.9821624755859,16.9828586578369,16.9835529327393,16.9842433929443,16.984935760498,16.9856338500977,16.986328125,16.9870223999023,16.9877166748047,16.988410949707,16.989107131958,16.9897994995117,16.9904918670654,16.9911937713623,16.991886138916,16.9925804138184,16.9932727813721,16.993968963623,16.9946632385254,16.995361328125,16.9960517883301,16.9967517852783,16.997444152832,16.9981422424316,16.9988346099854,16.999532699585,17.0002250671387,17.0009212493896,17.0016174316406,17.0023155212402,17.0030097961426,17.0037059783936,17.0044002532959,17.0050964355469,17.0057945251465,17.0064888000488,17.0071830749512,17.0078811645508,17.0085792541504,17.0092754364014,17.0099678039551,17.0106658935547,17.0113620758057,17.0120582580566,17.0127563476562,17.0134563446045,17.0141487121582,17.0148429870605,17.0155429840088,17.0162410736084,17.0169353485107,17.0176334381104,17.0183296203613,17.0190277099609,17.0197238922119,17.0204200744629,17.0211181640625,17.0218143463135,17.0225124359131,17.0232124328613,17.023904800415,17.0246067047119,17.0253028869629,17.0259971618652,17.0266952514648,17.0273971557617,17.0280952453613,17.0287914276123,17.0294895172119,17.0301876068115,17.0308876037598,17.0315837860107,17.0322799682617,17.03297996521,17.0336780548096,17.0343742370605,17.0350723266602,17.0357761383057,17.0364742279053,17.0371685028076,17.0378684997559,17.0385665893555,17.0392684936523,17.0399646759033,17.0406627655029,17.0413627624512,17.0420589447021,17.0427589416504,17.04345703125,17.0441608428955,17.0448570251465,17.0455551147461,17.046257019043,17.0469551086426,17.0476570129395,17.0483551025391,17.04905128479,17.0497531890869,17.0504531860352,17.0511512756348,17.0518493652344,17.0525512695312,17.0532512664795,17.0539531707764,17.0546531677246,16.4073390960693,16.3857765197754,16.3642711639404,16.3428211212158,16.3214282989502,16.3000907897949,16.2788105010986,16.2575855255127,16.2364139556885,16.2152996063232,16.1942386627197,16.1732330322266,16.1522808074951,16.131383895874,16.1105403900146,14.5325145721436,13.6543436050415,13.6246376037598,13.5950613021851,13.5656137466431,13.5362930297852,13.507098197937,13.4780292510986,13.44908618927,13.4202661514282,13.3915691375732,13.3629951477051,13.3345432281494,13.3062114715576,13.2779998779297,13.2499084472656,13.2219343185425,13.1940793991089,13.1663408279419,13.1387186050415,13.1112127304077,13.0838212966919,13.0565433502197,13.0293798446655,13.0023288726807,12.9753904342651,12.9485626220703,12.9218463897705,12.8952388763428,12.8687419891357,12.8423528671265,12.8160724639893,12.7898988723755,12.7638320922852,12.7378330230713,12.7113761901855,12.6850299835205,12.6587924957275,12.6326637268066,12.6066417694092,12.5807275772095,12.5549192428589,12.5292167663574,12.5036191940308,12.4781255722046,12.4527359008789,12.4274501800537,12.4022665023804,12.3771839141846,12.3522033691406,12.3273229598999,12.3025436401367,12.2778625488281,12.2532806396484,12.2287969589233,12.2044115066528,12.1801223754883,12.155930519104,12.1318340301514,12.1078319549561,12.0839262008667,12.0601139068604,12.036395072937,12.0127696990967,11.989236831665,11.9681425094604,11.9481773376465,11.9282789230347,11.9084463119507,11.8886795043945,11.8689794540405,11.8493432998657,11.8297719955444,11.810266494751,11.7908239364624,11.7714462280273,11.7521314620972,11.7328796386719,11.7052764892578,11.674467086792,11.6438188552856,11.6133317947388,11.5830030441284,11.5528326034546,11.522819519043,11.4929618835449,11.4632577896118,11.4337072372437,11.4043092727661,11.3750610351562,11.3459634780884,11.3170137405396,11.2882108688354,11.2595548629761,11.2310447692871,11.2026777267456,11.1744537353516,11.1463708877563,11.1184301376343,11.0906286239624,11.0629653930664,11.0354404449463,11.0080518722534,10.9807987213135,10.9536800384521,10.9266958236694,10.8998441696167,10.8731231689453,10.8088874816895,10.7016439437866,10.6913948059082,10.6876001358032,10.6838092803955,10.6800222396851,10.6636304855347,10.6332397460938,10.6030216217041,10.5729751586914,10.5430974960327,10.5133895874023,10.483847618103,10.4544715881348,10.4252595901489,10.3962106704712,10.3673229217529,10.3385953903198,10.3100261688232,10.2816152572632,10.2533597946167,10.2252588272095,10.1973123550415,10.1695184707642,10.1418743133545,10.1143817901611,10.0870361328125,10.0598392486572,10.0327882766724,10.0058822631836,9.9791202545166,9.95250129699707,9.92602348327637,9.89968681335449,9.8734884262085,9.8474292755127,9.82150745391846,9.803786277771,9.79244327545166,9.78112602233887,9.76983642578125,9.75857162475586,9.74733257293701,9.73612022399902,9.72493362426758,9.71377182006836,9.70263671875,9.69152641296387,9.68044185638428,9.66938209533691,9.65834808349609,9.6473388671875,9.63635444641113,9.62539577484131,9.61446189880371,9.60355281829834,9.59266757965088,9.58180809020996,9.57097244262695,9.56016159057617,9.54937553405762,9.53861331939697,9.52787590026855,9.51716136932373,9.50647163391113,9.49580669403076,9.48516464233398,9.47454643249512,9.46395206451416,9.45338153839111,9.44283485412598,9.43231105804443,9.4218111038208,9.41133499145508,9.40088081359863,9.3904504776001,9.38004398345947,9.36965942382812,9.35929870605469,9.34896087646484,9.33864498138428,9.32835292816162,9.31808280944824,9.30783462524414,9.29761028289795,9.28740787506104,9.2772274017334,9.26706981658936,9.25693416595459,9.2468204498291,9.23672962188721,9.22666072845459,9.21661281585693,9.20658683776855,9.19658374786377,9.18660163879395,9.1766414642334,9.16670227050781,9.1567850112915,9.14688873291016,9.13701438903809,9.12716102600098,9.11732959747314,9.10751819610596,9.09772872924805,9.0879602432251,9.07821273803711,9.06848526000977,9.05877876281738,9.04909420013428,9.03942966461182,9.02978515625,9.02016162872314,9.01055908203125,9.0009765625,8.99141407012939,8.98187255859375,8.97235107421875,8.96284961700439,8.95336818695068,8.94390678405762,8.9344654083252
16.8313159942627,16.8319969177246,16.8326816558838,16.8333625793457,16.8340454101562,16.8347225189209,16.8354091644287,16.8360900878906,16.8367729187012,16.8374519348145,16.838134765625,16.8388175964355,16.8395023345947,16.840181350708,16.8408699035645,16.8415470123291,16.8422317504883,16.8429126739502,16.8435974121094,16.8442783355713,16.8449611663818,16.8456420898438,16.8463287353516,16.8470115661621,16.8476943969727,16.8483772277832,16.849063873291,16.8497428894043,16.8504238128662,16.851110458374,16.8517951965332,16.8524761199951,16.8531608581543,16.8538436889648,16.854528427124,16.8552131652832,16.8558959960938,16.8565788269043,16.8572673797607,16.857946395874,16.8586311340332,16.8593139648438,16.8600006103516,16.8606853485107,16.8613662719727,16.8620491027832,16.8627376556396,16.8634223937988,16.8641052246094,16.8647861480713,16.8654747009277,16.8661575317383,16.8668441772461,16.8675270080566,16.8682136535645,16.868896484375,16.8695793151855,16.8702640533447,16.8709506988525,16.8716354370117,16.8723201751709,16.8730049133301,16.8736934661865,16.8743782043457,16.8750610351562,16.8757457733154,16.8764343261719,16.8771190643311,16.8778038024902,16.8784885406494,16.8791770935059,16.879861831665,16.8805465698242,16.881233215332,16.8819179534912,16.8826065063477,16.8832912445068,16.883975982666,16.8846645355225,16.8853492736816,16.8860359191895,16.88671875,16.8874092102051,16.8880939483643,16.8887825012207,16.8894653320312,16.8901557922363,16.8908424377441,16.8915271759033,16.8922119140625,16.8929042816162,16.8935890197754,16.8942737579346,16.8949604034424,16.8956489562988,16.8963356018066,16.8970222473145,16.8977069854736,16.8983974456787,16.8990821838379,16.899772644043,16.9004554748535,16.4132423400879,16.3916664123535,16.3701438903809,16.3486804962158,16.3272724151611,16.3059196472168,16.2846240997314,16.2633819580078,16.2421970367432,16.2210655212402,16.1999912261963,16.1789703369141,16.1580028533936,16.1370906829834,16.1162338256836,16.0954284667969,16.0746784210205,13.9370098114014,13.640531539917,13.6108865737915,13.5813694000244,13.55198097229,13.5227184295654,13.4935827255249,13.4645719528198,13.4356861114502,13.4069232940674,13.3782835006714,13.3497667312622,13.3213701248169,13.2930946350098,13.2649383544922,13.2369022369385,13.2089834213257,13.1811819076538,13.1534976959229,13.1259298324585,13.0984773635864,13.071138381958,13.0439147949219,13.0168027877808,12.9898042678833,12.9629173278809,12.9361410140991,12.9094762802124,12.8829202651978,12.8564729690552,12.8301343917847,12.8039035797119,12.7777805328369,12.7517623901367,12.72585105896,12.700044631958,12.673755645752,12.6475648880005,12.6214818954468,12.5955066680908,12.569637298584,12.5438747406006,12.518217086792,12.4926643371582,12.4672164916992,12.4418706893921,12.4166288375854,12.3914890289307,12.3664503097534,12.3415126800537,12.3166761398315,12.291937828064,12.2673006057739,12.2427606582642,12.218318939209,12.1939744949341,12.1697273254395,12.1455764770508,12.1215209960938,12.097559928894,12.073694229126,12.0499229431152,12.0262441635132,12.0026588439941,11.9791650772095,11.9572849273682,11.9373559951782,11.9174928665161,11.8976964950562,11.877965927124,11.8583002090454,11.8387002944946,11.819164276123,11.799693107605,11.7802858352661,11.7609424591064,11.7416620254517,11.7224445343018,11.7032909393311,11.6841983795166,11.660572052002,11.6299962997437,11.5995817184448,11.5693244934082,11.5392255783081,11.5092830657959,11.4794950485229,11.4498605728149,11.4203786849976,11.3910493850708,11.3618688583374,11.3328380584717,11.3039560317993,11.2752199172974,11.2466297149658,11.2181844711304,11.1898822784424,11.1617221832275,11.1337041854858,11.1058263778687,11.0780878067017,11.0504875183105,11.023024559021,10.9956970214844,10.9685049057007,10.9414472579956,10.9145231246948,10.8877305984497,10.8610687255859,10.8345384597778,10.8081369400024,10.7376117706299,10.6796779632568,10.6758909225464,10.6721076965332,10.6555128097534,10.6251678466797,10.5949954986572,10.5649948120117,10.5351619720459,10.5054988861084,10.4760007858276,10.4466686248779,10.4175004959106,10.3884944915771,10.3596496582031,10.3309640884399,10.3024377822876,10.2740678787231,10.2458543777466,10.217794418335,10.1898889541626,10.1621351242065,10.1345319747925,10.1070775985718,10.0797719955444,10.0526142120361,10.0256023406982,9.99873447418213,9.97201061248779,9.9454288482666,9.91898918151855,9.89268970489502,9.86652851104736,9.8405065536499,9.81462001800537,9.79646110534668,9.78513526916504,9.77383518218994,9.7625617980957,9.75131320953369,9.74009132385254,9.72889614105225,9.71772575378418,9.70658016204834,9.69546127319336,9.68436813354492,9.67329978942871,9.66225624084473,9.65123844146729,9.64024543762207,9.62927722930908,9.61833477020264,9.60741710662842,9.59652328491211,9.58565521240234,9.57481098175049,9.56399154663086,9.55319595336914,9.54242515563965,9.53167915344238,9.52095699310303,9.51025867462158,9.49958419799805,9.48893356323242,9.47830772399902,9.46770477294922,9.45712566375732,9.44657039642334,9.43603897094727,9.42553043365479,9.41504573822021,9.40458393096924,9.39414596557617,9.38372993469238,9.3733377456665,9.36296844482422,9.35262203216553,9.34229946136475,9.33199882507324,9.32172012329102,9.3114652633667,9.30123233795166,9.2910213470459,9.28083324432373,9.27066802978516,9.26052474975586,9.25040340423584,9.2403039932251,9.23022747039795,9.22017192840576,9.21013832092285,9.20012664794922,9.19013690948486,9.18016910552979,9.17022323608398,9.16029834747314,9.15039443969727,9.14051246643066,9.13065147399902,9.12081146240234,9.11099338531494,9.1011962890625,9.09142017364502,9.0816650390625,9.07193088531494,9.06221771240234,9.05252456665039,9.0428524017334,9.03320121765137,9.0235710144043,9.01396083831787,9.00437068939209,8.99480152130127,8.98525238037109,8.97572326660156,8.96621513366699,8.95672607421875,8.94725799560547,8.93780994415283,8.92838096618652,8.91897201538086
16.6837902069092,16.6844635009766,16.6851329803467,16.6858062744141,16.6864719390869,16.6871433258057,16.687816619873,16.6884841918945,16.689151763916,16.6898231506348,16.6904945373535,16.6911659240723,16.6918334960938,16.6925067901611,16.6931781768799,16.69384765625,16.6945209503174,16.6951866149902,16.6958599090576,16.696533203125,16.6972026824951,16.6978702545166,16.6985454559326,16.6992149353027,16.6998863220215,16.7005577087402,16.7012310028076,16.7019023895264,16.7025699615479,16.7032432556152,16.7039165496826,16.7045879364014,16.7052574157715,16.7059288024902,16.7066020965576,16.7072715759277,16.7079429626465,16.7086162567139,16.7092876434326,16.7099628448486,16.7106304168701,16.7113018035889,16.7119770050049,16.7126502990723,16.713321685791,16.7139911651611,16.7146644592285,16.7153377532959,16.7160110473633,16.7166805267334,16.717357635498,16.7180252075195,16.7187004089355,16.7193737030029,16.7200489044189,16.7207183837891,16.7213935852051,16.7220649719238,16.7227401733398,16.7234134674072,16.7240829467773,16.7247562408447,16.7254314422607,16.7261028289795,16.7267761230469,16.7274475097656,16.7281246185303,16.7287940979004,16.7294692993164,16.7301445007324,16.7308197021484,16.7314910888672,16.7321643829346,16.7328357696533,16.7335147857666,16.734188079834,16.7348613739014,16.735538482666,16.7362117767334,16.7368850708008,16.7375583648682,16.7382335662842,16.7389068603516,16.7395782470703,16.7402534484863,16.7409286499023,16.7416038513184,16.7422771453857,16.7429523468018,16.7436294555664,16.7443046569824,16.7449760437012,16.7456512451172,16.7463283538818,16.7470016479492,16.7476768493652,16.7483520507812,16.7490291595459,16.419153213501,16.3975601196289,16.3760223388672,16.3545436859131,16.3331203460693,16.3117523193359,16.2904396057129,16.2691841125488,16.2479839324951,16.2268371582031,16.2057476043701,16.1847114562988,16.1637306213379,16.1428031921387,16.1219310760498,16.1011123657227,16.0803470611572,16.0596351623535,15.2062063217163,13.6564617156982,13.626748085022,13.5971622467041,13.5677051544189,13.5383749008179,13.5091714859009,13.4800939559937,13.4511413574219,13.4223127365112,13.3936071395874,13.3650245666504,13.3365640640259,13.3082237243652,13.2800035476685,13.2519035339355,13.2239217758179,13.1960573196411,13.1683111190796,13.1406803131104,13.1131658554077,13.0857667922974,13.0584812164307,13.0313091278076,13.0042505264282,12.9773035049438,12.9504680633545,12.9237442016602,12.8971290588379,12.870623588562,12.8442277908325,12.8179397583008,12.7917585372925,12.7656841278076,12.7397155761719,12.7138528823853,12.6880950927734,12.6624412536621,12.6363573074341,12.6103200912476,12.5843906402588,12.5585670471191,12.5328502655029,12.5072374343872,12.4817295074463,12.4563255310059,12.4310245513916,12.4058265686035,12.380729675293,12.3557348251343,12.3308401107788,12.3060464859009,12.2813520431519,12.2567558288574,12.2322587966919,12.2078590393066,12.1835565567017,12.1593503952026,12.1352405548096,12.1112251281738,12.087306022644,12.0634803771973,12.0397481918335,12.0161104202271,11.992564201355,11.9691104888916,11.9464464187622,11.9265537261963,11.9067277908325,11.8869667053223,11.8672714233398,11.8476409912109,11.8280763626099,11.808575630188,11.7891387939453,11.7697658538818,11.7504568099976,11.7312107086182,11.712028503418,11.6929082870483,11.6738500595093,11.6548538208008,11.6359195709229,11.6162071228027,11.5858640670776,11.5556783676147,11.5256500244141,11.4957780838013,11.4660596847534,11.4364948272705,11.4070816040039,11.3778200149536,11.3487071990967,11.3197441101074,11.2909278869629,11.2622585296631,11.2337341308594,11.2053537368774,11.1771154403687,11.1490201950073,11.1210660934448,11.0932512283325,11.0655746459961,11.0380363464355,11.0106353759766,10.9833698272705,10.9562387466431,10.9292411804199,10.9023771286011,10.8756437301636,10.8490419387817,10.8225698471069,10.7962255477905,10.7700109481812,10.7393493652344,10.6679859161377,10.6642074584961,10.6474075317383,10.6171083450317,10.5869817733765,10.5570259094238,10.5272388458252,10.4976196289062,10.4681663513184,10.4388780593872,10.4097528457642,10.3807897567749,10.3519878387451,10.3233442306519,10.2948598861694,10.2665319442749,10.2383594512939,10.2103414535522,10.1824760437012,10.1547622680664,10.1271991729736,10.0997848510742,10.0725183486938,10.0453996658325,10.0184259414673,9.99159717559814,9.96491146087646,9.93836784362793,9.91196537017822,9.88570213317871,9.85957813262939,9.83359241485596,9.80774307250977,9.78914642333984,9.7778377532959,9.7665548324585,9.75529766082764,9.74406623840332,9.73286151885986,9.72168159484863,9.71052837371826,9.69939994812012,9.68829727172852,9.67721939086914,9.66616821289062,9.65514087677002,9.64413928985596,9.63316249847412,9.62221050262451,9.61128425598145,9.60038185119629,9.58950424194336,9.57865142822266,9.56782341003418,9.55702018737793,9.54624080657959,9.53548526763916,9.52475452423096,9.51404762268066,9.5033655166626,9.49270629882812,9.48207187652588,9.47146034240723,9.46087265014648,9.45030975341797,9.43976974487305,9.42925262451172,9.4187593460083,9.40828990936279,9.39784336090088,9.38741970062256,9.37701892852783,9.36664199829102,9.35628700256348,9.34595584869385,9.3356466293335,9.32536125183105,9.31509780883789,9.304856300354,9.29463863372803,9.28444194793701,9.27426910400391,9.26411724090576,9.25398826599121,9.24388122558594,9.23379611968994,9.22373294830322,9.2136926651001,9.20367336273193,9.19367599487305,9.18369960784912,9.17374610900879,9.16381359100342,9.15390205383301,9.14401245117188,9.1341438293457,9.12429714202881,9.11447143554688,9.1046667098999,9.09488296508789,9.08512020111084,9.07537937164307,9.06565761566162,9.05595779418945,9.04627895355225,9.03662014007568,9.02698230743408,9.01736450195312,9.00776767730713,8.99819087982178,8.98863506317139,8.97909927368164,8.96958351135254,8.96008777618408,8.95061206817627,8.9411563873291,8.93172073364258,8.9223051071167,8.91290950775146,8.90353298187256
16.5388355255127,16.539493560791,16.5401515960693,16.5408096313477,16.5414695739746,16.5421257019043,16.5427913665771,16.5434474945068,16.5441036224365,16.5447635650635,16.5454235076904,16.5460815429688,16.5467376708984,16.5473957061768,16.548059463501,16.5487155914307,16.5493755340576,16.5500316619873,16.5506935119629,16.5513553619385,16.5520114898682,16.5526714324951,16.5533332824707,16.5539932250977,16.5546474456787,16.5553073883057,16.5559711456299,16.5566291809082,16.5572891235352,16.5579471588135,16.5586090087891,16.5592670440674,16.5599250793457,16.560583114624,16.5612468719482,16.5619087219238,16.5625686645508,16.5632266998291,16.5638904571533,16.5645484924316,16.5652084350586,16.5658721923828,16.5665321350098,16.5671939849854,16.5678520202637,16.5685119628906,16.5691738128662,16.5698318481445,16.5704956054688,16.5711574554443,16.5718154907227,16.5724792480469,16.5731391906738,16.5738010406494,16.5744609832764,16.575122833252,16.5757827758789,16.5764465332031,16.5771045684814,16.577766418457,16.578426361084,16.5790920257568,16.5797538757324,16.5804119110107,16.5810718536377,16.5817375183105,16.5823974609375,16.5830593109131,16.58371925354,16.5843830108643,16.5850467681885,16.5857086181641,16.586368560791,16.5870323181152,16.5876903533936,16.5883522033691,16.589017868042,16.5896816253662,16.5903453826904,16.591007232666,16.591667175293,16.5923328399658,16.5929927825928,16.5936584472656,16.5943183898926,16.5949821472168,16.595645904541,16.5963039398193,16.5969696044922,16.5976371765137,16.598295211792,16.5989589691162,16.5996189117432,16.6002864837646,16.6009502410889,16.4034576416016,16.3819046020508,16.3604106903076,16.3389701843262,16.3175888061523,16.2962608337402,16.2749900817871,16.2537746429443,16.2326126098633,16.2115077972412,16.1904563903809,16.1694602966309,16.1485195159912,16.1276321411133,16.1067981719971,16.0860176086426,16.0652923583984,16.0446186065674,16.023998260498,14.5554456710815,13.6426458358765,13.6129913330078,13.5834655761719,13.5540676116943,13.5247964859009,13.4956521987915,13.4666328430176,13.4377374649048,13.4089660644531,13.3803176879883,13.3517923355103,13.3233871459961,13.2951030731201,13.2669382095337,13.2388935089111,13.2109661102295,13.1831569671631,13.1554641723633,13.1278877258301,13.1004266738892,13.0730800628662,13.0458478927612,13.0187292098999,12.9917221069336,12.9648265838623,12.9380435943604,12.9113702774048,12.8848056793213,12.8583517074585,12.8320055007935,12.8057670593262,12.7796354293823,12.7536106109619,12.7276916503906,12.7018775939941,12.6761684417725,12.650562286377,12.6250600814819,12.599178314209,12.5732946395874,12.5475168228149,12.5218448638916,12.4962768554688,12.4708137512207,12.4454536437988,12.4201974868774,12.3950424194336,12.3699893951416,12.3450384140015,12.3201866149902,12.2954349517822,12.2707834243774,12.2462301254272,12.2217741012573,12.197416305542,12.1731548309326,12.1489906311035,12.1249217987061,12.1009473800659,12.0770683288574,12.0532836914062,12.0295915603638,12.0059928894043,11.9824867248535,11.9590721130371,11.9357490539551,11.915771484375,11.8959808349609,11.8762559890747,11.856595993042,11.8370008468628,11.8174715042114,11.7980051040649,11.778603553772,11.7592649459839,11.739990234375,11.7207794189453,11.7016305923462,11.6825437545776,11.663519859314,11.6445569992065,11.6256561279297,11.6068172454834,11.588038444519,11.5693206787109,11.542064666748,11.5121068954468,11.4823045730591,11.4526557922363,11.4231595993042,11.3938159942627,11.3646211624146,11.3355770111084,11.3066806793213,11.2779302597046,11.2493267059326,11.2208671569824,11.192551612854,11.1643781661987,11.1363468170166,11.1084566116333,11.0807046890259,11.0530910491943,11.0256147384644,10.9982748031616,10.9710702896118,10.9440002441406,10.9170627593994,10.8902578353882,10.8635845184326,10.8370409011841,10.8106269836426,10.7843418121338,10.7581844329834,10.7311153411865,10.7003393173218,10.6697397232056,10.6393136978149,10.6090612411499,10.5789804458618,10.5490694046021,10.5193271636963,10.4897518157959,10.4603424072266,10.431097984314,10.4020166397095,10.3730964660645,10.3443365097046,10.3157358169556,10.2872934341431,10.2590074539185,10.2308759689331,10.202898979187,10.1750736236572,10.1473999023438,10.1198768615723,10.0925016403198,10.0652761459351,10.0381956100464,10.0112600326538,9.98446941375732,9.9578218460083,9.93131637573242,9.90495109558105,9.87872505187988,9.85263824462891,9.82668876647949,9.80087471008301,9.7818431854248,9.77055072784424,9.75928497314453,9.74804496765137,9.73683071136475,9.72564125061035,9.71447849273682,9.70334148406982,9.69223022460938,9.68114376068115,9.67008209228516,9.6590461730957,9.64803600311279,9.63705062866211,9.62609004974365,9.61515426635742,9.60424327850342,9.59335708618164,9.58249568939209,9.57165908813477,9.56084632873535,9.55005836486816,9.5392951965332,9.52855587005615,9.51784038543701,9.50714874267578,9.49648189544678,9.48583889007568,9.47521877288818,9.46462345123291,9.45405101776123,9.44350242614746,9.4329776763916,9.42247676849365,9.41199779510498,9.40154361724854,9.39111137390137,9.38070297241211,9.37031745910645,9.35995483398438,9.3496150970459,9.33929824829102,9.32900428771973,9.31873321533203,9.30848407745361,9.29825782775879,9.28805351257324,9.27787208557129,9.26771354675293,9.25757598876953,9.24746131896973,9.2373685836792,9.22729778289795,9.21724891662598,9.20722198486328,9.19721698760986,9.18723392486572,9.17727184295654,9.16733169555664,9.15741348266602,9.14751529693604,9.13763999938965,9.12778568267822,9.11795234680176,9.10813999176025,9.09834861755371,9.08857822418213,9.07882976531982,9.06910133361816,9.05939388275146,9.04970741271973,9.04004192352295,9.03039646148682,9.02077102661133,9.01116752624512,9.00158309936523,8.99201965332031,8.98247718811035,8.97295379638672,8.96345138549805,8.9539680480957,8.94450569152832,8.93506336212158,8.92564105987549,8.91623783111572,8.9068546295166,8.89749145507812,8.88814735412598
