0,0,0,0,0,0,0,0,0,0,0,0,0,0,0,0,0,0,0,0,0,0,0,0,0,0,0,0,0,0,0,0,0,0,0,0,0,0,0,0,0,0,0,0,0,0,0,0,0,0,0,0,0,0,0,0,0,0,0,0,0,0,0,0,0,0,0,0,0,0,0,0,0,0,0,0,0,0,0,0,0,0,0,0,0,0,0,0,0,0,0,0,0,0,0,0,0,0,0,0,0,0,0,0,0,0,0,0,0,0,0,0,0,0,0,0,0,0,0,0,0,0,0,0,0,0,0,0,0,0,0,0,0,0,0,0,0,0,0,0,0,0,0,0,0,0,0,0,0,0,0,0,0,0,0,0,0,0,0,0,0,0,0,0,0,0,0,0,0,0,0,0,0,0,0,0,0,0,0,0,12.959753036499,12.8803234100342,12.8018617630005,12.7243499755859,12.6477718353271,12.5730924606323,12.507568359375,12.4352531433105,12.4261102676392,12.4413604736328,12.4566469192505,12.4719724655151,12.4873342514038,12.5027351379395,12.5181732177734,12.5336503982544,12.5491647720337,12.56471824646,12.5803098678589,12.5959405899048,12.6116104125977,12.6273193359375,12.6430673599243,12.6588544845581,12.6746807098389,12.6905469894409,12.7064533233643,12.7223987579346,12.7383852005005,12.7544116973877,0,0,0,0,0,0,0,0,0,0,0,14.1850519180298,14.0723323822021,13.9613904953003,13.8836278915405,13.8148155212402,13.7466802597046,13.6792144775391,13.6124076843262,13.5462503433228,13.48073387146,13.415846824646,13.3515815734863,13.2879295349121,13.2248811721802,13.162428855896,13.1005630493164,13.0392761230469,12.9785594940186,12.9184064865112,12.8588085174561,12.7997579574585,12.7412462234497,12.6832675933838,12.6258144378662,12.5688800811768,12.5124559402466,12.4565362930298,12.4011144638062,12.3461837768555,12.2917366027832,12.2377681732178,12.184271812439,12.1312408447266,12.0786695480347,11.5578336715698,11.517128944397,11.4767093658447,11.4365730285645,11.3967161178589,11.3571519851685,11.2900314331055,11.2221965789795,11.1551713943481,11.0944719314575,11.0494737625122,11.0068559646606,10.9706144332886,10.9360666275024,10.9069700241089,10.8813056945801,10.8557624816895,10.8303384780884,10.8050336837769,10.7798471450806,10.7547769546509,10.7298240661621,10.7049856185913,10.6802625656128,10.6539125442505,10.6193132400513,10.5849370956421,10.5507841110229,10.5168485641479,10.4831304550171,10.4496288299561,10.4163398742676,10.3832626342773,10.3503942489624,10.3396654129028,10.3416700363159,10.3436756134033,10.345682144165,10.3476886749268,10.3496971130371,10.3517055511475,10.3537149429321,10.3557252883911,10.3577365875244,10.3597478866577,10.3617601394653,10.3637742996216,10.3657884597778,10.3678026199341,10.369818687439,10.3744487762451,10.3816337585449,10.3888282775879,10.3960332870483,10.403247833252,10.410472869873,10.4177074432373,10.424952507019,10.4265213012695,10.4263582229614,10.4261960983276,10.4260330200195,10.4258699417114,10.4257078170776,10.4255447387695,10.4253826141357,10.4252195358276,10.4250564575195,10.4248943328857,10.4247312545776,10.4245681762695,10.4244060516357,10.4242429733276,10.4240808486938,10.4239177703857,10.423755645752,10.498908996582,10.4898204803467,10.4807472229004,10.4716901779175,10.4626483917236,10.4536218643188,10.4446115493774,10.4356164932251,10.4266366958618,10.4176721572876,10.4087228775024,10.3997898101807,10.3908720016479,10.38196849823,10.3730812072754,10.3642091751099,10.3553514480591
0,0,0,0,0,0,0,0,0,0,0,0,0,0,0,0,0,0,0,0,0,0,0,0,0,0,0,0,0,0,0,0,0,0,0,0,0,0,0,0,0,0,0,0,0,0,0,0,0,0,0,0,0,0,0,0,0,0,0,0,0,0,0,0,0,0,0,0,0,0,0,0,0,0,0,0,0,0,0,0,0,0,0,0,0,0,0,0,0,0,0,0,0,0,0,0,0,0,0,0,0,0,0,0,0,0,0,0,0,0,0,0,0,0,0,0,0,0,0,0,0,0,0,0,0,0,0,0,0,0,0,0,0,0,0,0,0,0,0,0,0,0,0,0,0,0,0,0,0,0,0,0,0,0,0,0,0,0,0,0,0,0,0,0,0,0,0,0,0,0,0,0,0,0,0,0,0,0,0,12.9651346206665,12.8856391906738,12.8071126937866,12.7295379638672,12.6528968811035,12.5771741867065,12.5119428634644,12.4408044815063,12.3716926574707,12.3868093490601,12.4019622802734,12.4171533584595,12.4323806762695,12.4476461410522,12.4629487991333,12.4782886505127,12.4936666488647,12.5090827941895,12.5245370864868,12.5400295257568,12.5555601119995,12.5711288452148,12.5867376327515,12.6023836135864,12.6180696487427,12.6337947845459,12.6495580673218,12.6653614044189,12.6812047958374,12.6970872879028,12.7130079269409,0,0,0,0,0,0,0,0,0,14.1438455581665,14.031777381897,13.9232444763184,13.8540391921997,13.7855186462402,13.7176723480225,13.6504898071289,13.5839624404907,13.5180807113647,13.4528350830078,13.3882160186768,13.3242149353027,13.2608232498169,13.1980304718018,13.1358308792114,13.0742139816284,13.0131731033325,12.9526996612549,12.8927850723267,12.8334226608276,12.774603843689,12.7163219451904,12.6585702896118,12.60133934021,12.5446243286133,12.4884176254272,12.4327125549316,12.3775014877319,12.3227796554565,12.2685384750366,12.2147731781006,12.1614770889282,12.1086444854736,12.0562677383423,11.5752868652344,11.5344591140747,11.4939184188843,11.4536619186401,11.413685798645,11.3739881515503,11.3224363327026,11.2542123794556,11.1868057250977,11.1202011108398,11.0711336135864,11.0263242721558,10.9869585037231,10.9519872665405,10.9175567626953,10.8913421630859,10.8657522201538,10.8402814865112,10.8149299621582,10.7896976470947,10.7645816802979,10.7395830154419,10.7146997451782,10.6899318695068,10.6652784347534,10.6340465545654,10.5995750427246,10.5653276443481,10.5312995910645,10.4974889755249,10.4638957977295,10.4305152893066,10.3973484039307,10.3643913269043,10.3357906341553,10.337794303894,10.3397979736328,10.3418035507202,10.3438091278076,10.345814704895,10.3478221893311,10.3498306274414,10.3518390655518,10.3538484573364,10.3558588027954,10.3578701019287,10.359881401062,10.3618936538696,10.3639078140259,10.3659219741821,10.3679370880127,10.3726119995117,10.3797941207886,10.3869867324829,10.3941888809204,10.4014005661011,10.4086236953735,10.4158554077148,10.4230976104736,10.4235744476318,10.4234113693237,10.4232492446899,10.4230861663818,10.422924041748,10.4227609634399,10.4225988388062,10.422435760498,10.4222736358643,10.4221105575562,10.4219484329224,10.4217853546143,10.4216232299805,10.4214601516724,10.4212980270386,10.4211349487305,10.4209728240967,10.4208097457886,10.48131275177,10.4722547531128,10.4632120132446,10.4541845321655,10.4451732635498,10.4361772537231,10.4271965026855,10.418231010437,10.4092817306519,10.4003467559814,10.3914279937744,10.3825244903564,10.3736352920532,10.3647623062134,10.3559036254883,10.3470611572266,10.3382329940796,10.3294200897217
0,0,0,0,0,0,0,0,0,0,0,0,0,0,0,0,0,0,0,0,0,0,0,0,0,0,0,0,0,0,0,0,0,0,0,0,0,0,0,0,0,0,0,0,0,0,0,0,0,0,0,0,0,0,0,0,0,0,0,0,0,0,0,0,0,0,0,0,0,0,0,0,0,0,0,0,0,0,0,0,0,0,0,0,0,0,0,0,0,0,0,0,0,0,0,0,0,0,0,0,0,0,0,0,0,0,0,0,0,0,0,0,0,0,0,0,0,0,0,0,0,0,0,0,0,0,0,0,0,0,0,0,0,0,0,0,0,0,0,0,0,0,0,0,0,0,0,0,0,0,0,0,0,0,0,0,0,0,0,0,0,0,14.356990814209,14.364070892334,0,0,0,0,0,0,0,0,0,0,0,0,0,0,12.9705200195312,12.8909597396851,12.8123683929443,12.7347297668457,12.6580266952515,12.5822420120239,12.5122585296631,12.4463748931885,12.3747606277466,12.3327350616455,12.3477563858032,12.362813949585,12.377908706665,12.3930397033691,12.4082088470459,12.4234142303467,12.4386577606201,12.4539375305176,12.469256401062,12.4846115112305,12.5000057220459,12.5154371261597,12.5309066772461,12.5464153289795,12.5619621276855,12.5775470733643,12.5931711196899,12.6088333129883,12.6245355606079,12.6402759552002,12.6560544967651,12.6718721389771,0,0,0,0,0,0,14.2160892486572,14.1028776168823,13.991455078125,13.8934869766235,13.8245763778687,13.7563457489014,13.6887855529785,13.6218852996826,13.5556364059448,13.4900283813477,13.4250526428223,13.3606996536255,13.2969598770142,13.2338266372681,13.1712894439697,13.1093406677246,13.0479717254639,12.987174987793,12.9269418716431,12.8672647476196,12.8081369400024,12.7495489120483,12.6914949417114,12.6339673995972,12.5769596099854,12.5204629898071,12.4644718170166,12.4089794158936,12.3539791107178,12.299464225769,12.2454280853271,12.1918649673462,12.138768196106,12.0861310958862,12.0339498519897,11.9822158813477,11.5518426895142,11.5111799240112,11.4708023071289,11.4307069778442,11.3908910751343,11.3513584136963,11.2864112854004,11.2186193466187,11.1516370773315,11.0928783416748,11.0478935241699,11.0046529769897,10.9679536819458,10.9334230422974,10.9013977050781,10.8757600784302,10.8502426147461,10.8248453140259,10.7995653152466,10.7744045257568,10.7493600845337,10.7244319915771,10.6996183395386,10.6749200820923,10.6488199234009,10.6142539978027,10.5799112319946,10.5457897186279,10.511887550354,10.4782009124756,10.444730758667,10.4114723205566,10.3784265518188,10.345588684082,10.3339214324951,10.3359241485596,10.337926864624,10.3399314880371,10.3419361114502,10.3439416885376,10.3459482192993,10.3479557037354,10.3499631881714,10.3519725799561,10.3539819717407,10.3559923171997,10.3580026626587,10.3600149154663,10.3620271682739,10.3640413284302,10.3660554885864,10.3707761764526,10.3779554367065,10.3851451873779,10.3923454284668,10.3995542526245,10.406774520874,10.4140043258667,10.4207916259766,10.4206295013428,10.4204664230347,10.4203042984009,10.4201412200928,10.419979095459,10.4198160171509,10.4196538925171,10.419490814209,10.4193286895752,10.4191665649414,10.4190034866333,10.4188413619995,10.4186782836914,10.4185161590576,10.4183540344238,10.4181909561157,10.4180288314819,10.4728193283081,10.4637756347656,10.4547472000122,10.4457349777222,10.4367380142212,10.4277563095093,10.4187898635864,10.409839630127,10.4009037017822,10.3919839859009,10.3830795288086,10.3741893768311,10.3653154373169,10.3564558029175,10.3476123809814,10.3387832641602,10.3299694061279,10.3211708068848,10.3123865127563,10.303617477417
0,0,0,0,0,0,0,0,0,0,0,0,0,0,0,0,0,0,0,0,0,0,0,0,0,0,0,0,0,0,0,0,0,0,0,0,0,0,0,0,0,0,0,0,0,0,0,0,0,0,0,0,0,0,0,0,0,0,0,0,0,0,0,0,0,0,0,0,0,0,0,0,0,0,0,0,0,0,0,0,0,0,0,0,0,0,0,0,0,0,0,0,0,0,0,0,0,0,0,0,0,0,0,0,0,0,0,0,0,0,0,0,0,0,0,0,0,0,0,0,0,0,0,0,0,0,0,0,0,0,0,0,0,0,0,0,0,0,0,0,0,0,0,0,0,0,0,0,0,0,0,0,0,0,0,0,0,0,0,0,0,14.3646450042725,14.2742710113525,14.296290397644,14.318377494812,14.3405332565308,14.3627576828003,14.3850507736206,0,0,0,0,0,0,0,0,13.0565271377563,12.9759101867676,12.8962841033936,12.8176279067993,12.7399263381958,12.6631603240967,12.5873146057129,12.5125732421875,12.4516973495483,12.3802604675293,12.3094139099121,12.2940216064453,12.3089485168457,12.3239116668701,12.3389110565186,12.3539476394653,12.3690204620361,12.3841304779053,12.3992767333984,12.4144611358643,12.4296817779541,12.4449405670166,12.4602365493774,12.4755697250366,12.4909410476685,12.5063505172729,12.5217981338501,12.5372838973999,12.5528078079224,12.5683698654175,12.5839700698853,12.5996084213257,12.6152858734131,0,0,0,0,14.2890739440918,14.1747026443481,14.0621471405029,13.9513645172119,13.8638563156128,13.795238494873,13.7272968292236,13.6600198745728,13.5934009552002,13.5274276733398,13.4620914459229,13.3973836898804,13.3332958221436,13.2698163986206,13.2069396972656,13.1446561813354,13.0829572677612,13.0218343734741,12.9612798690796,12.9012861251831,12.8418455123901,12.7829504013062,12.7245922088623,12.6667652130127,12.6094608306885,12.5526733398438,12.4963941574097,12.4406175613403,12.3853368759155,12.330545425415,12.2762365341187,12.2224035263062,12.169041633606,12.1161422729492,12.0637016296387,12.0117130279541,11.9601707458496,11.5692777633667,11.528491973877,11.4879932403564,11.4477777481079,11.4078435897827,11.3681859970093,11.3187952041626,11.2506151199341,11.1832513809204,11.1166887283325,11.0695466995239,11.0247497558594,10.9847631454468,10.9493360519409,10.9149217605591,10.8857870101929,10.860221862793,10.8347778320312,10.8094520568848,10.7842445373535,10.7591543197632,10.7341804504395,10.7093229293823,10.6845798492432,10.6599502563477,10.6289730072021,10.5945348739624,10.5603199005127,10.5263252258301,10.492546081543,10.458984375,10.4256353378296,10.3924989700317,10.3595724105835,10.3300514221191,10.332052230835,10.3340539932251,10.3360567092896,10.3380603790283,10.3400640487671,10.3420696258545,10.3440752029419,10.3460817337036,10.3480882644653,10.3500967025757,10.352105140686,10.354115486145,10.356125831604,10.358136177063,10.3601484298706,10.3621606826782,10.3641748428345,10.3689403533936,10.3761177062988,10.3833045959473,10.3905019760132,10.3977088928223,10.4049263000488,10.4121532440186,10.4178476333618,10.417685508728,10.4175233840942,10.4173603057861,10.4171981811523,10.4170351028442,10.4168729782104,10.4167108535767,10.4165477752686,10.4163856506348,10.416223526001,10.4160614013672,10.4158983230591,10.4157361984253,10.4155740737915,10.4154109954834,10.4152488708496,10.4150867462158,10.4553108215332,10.4462966918945,10.4372987747192,10.428316116333,10.4193487167358,10.4103975296021,10.401460647583,10.3925399780273,10.3836345672607,10.3747434616089,10.3658685684204,10.357008934021,10.3481636047363,10.3393335342407,10.3305187225342,10.3217191696167,10.3129348754883,10.3041648864746,10.2954092025757,10.2866697311401,10.277943611145
0,0,0,0,0,0,0,0,0,0,0,0,0,0,0,0,0,0,0,0,0,0,0,0,0,0,0,0,0,0,0,0,0,0,0,0,0,0,0,0,0,0,0,0,0,0,0,0,0,0,0,0,0,0,0,0,0,0,0,0,0,0,0,0,0,0,0,0,0,0,0,0,0,0,0,0,0,0,0,0,0,0,0,0,0,0,0,0,0,0,0,0,0,0,0,0,0,0,0,0,0,0,0,0,0,0,0,0,0,0,0,0,0,0,0,0,0,0,0,0,0,0,0,0,0,0,0,0,0,0,0,0,0,0,0,0,0,0,0,0,0,0,0,0,0,0,0,0,0,0,0,0,0,0,0,0,0,0,0,0,14.3721609115601,14.2766218185425,14.2073335647583,14.2291469573975,14.2510271072388,14.2729740142822,14.2949895858765,14.3170719146729,14.3392238616943,14.3614435195923,14.3837327957153,0,0,0,0,13.0619888305664,12.9813051223755,12.9016122817993,12.8228921890259,12.7451267242432,12.6682987213135,12.5923910140991,12.5173873901367,12.4520092010498,12.3857774734497,12.3148527145386,12.2447538375854,12.2555503845215,12.2703838348389,12.2852535247803,12.3001594543457,12.3151006698608,12.3300790786743,12.3450937271118,12.3601455688477,12.3752336502075,12.3903579711914,12.4055204391479,12.4207191467285,12.4359560012817,12.4512300491333,12.4665412902832,12.4818906784058,12.4972772598267,12.5127019882202,12.5281648635864,12.543664932251,12.5592031478882,12.574779510498,0,14.3628129959106,14.2472620010376,14.1335563659668,14.0216503143311,13.9115028381348,13.8343515396118,13.7660245895386,13.6983690261841,13.6313762664795,13.565034866333,13.4993352890015,13.4342708587646,13.3698291778564,13.3060035705566,13.2427835464478,13.1801624298096,13.1181297302246,13.0566787719727,12.9958009719849,12.9354887008667,12.875732421875,12.8165264129639,12.7578630447388,12.6997337341309,12.6421308517456,12.5850496292114,12.5284805297852,12.4724178314209,12.4168548583984,12.3617849349976,12.3072004318237,12.2530965805054,12.1994667053223,12.1463031768799,12.093602180481,12.041356086731,11.989559173584,11.9382057189941,11.586766242981,11.5458574295044,11.5052366256714,11.464900970459,11.4248466491699,11.3850708007812,11.3455724716187,11.2827930450439,11.2150449752808,11.1481046676636,11.0912847518921,11.0463123321533,11.0024509429932,10.9652948379517,10.9307813644409,10.8964834213257,10.8702201843262,10.8447284698486,10.819356918335,10.7941026687622,10.7689666748047,10.7439479827881,10.7190446853638,10.6942567825317,10.6695833206177,10.6437330245972,10.6091995239258,10.5748901367188,10.5408010482788,10.5069303512573,10.4732761383057,10.4398374557495,10.4066104888916,10.3735942840576,10.3407878875732,10.3281841278076,10.3301839828491,10.3321847915649,10.3341865539551,10.3361892700195,10.3381929397583,10.3401975631714,10.3422021865845,10.3442077636719,10.3462142944336,10.3482217788696,10.35023021698,10.3522386550903,10.354248046875,10.356258392334,10.3582696914673,10.3602819442749,10.3622951507568,10.3671054840088,10.3742799758911,10.3814649581909,10.3886594772339,10.39586353302,10.4030780792236,10.4103031158447,10.4149055480957,10.4147434234619,10.4145812988281,10.4144191741943,10.4142560958862,10.4140939712524,10.4139318466187,10.4137697219849,10.4136066436768,10.413444519043,10.4132823944092,10.4131202697754,10.4129571914673,10.4127950668335,10.4126329421997,10.4124708175659,10.4123086929321,10.4468584060669,10.4378595352173,10.4288759231567,10.4199085235596,10.4109554290771,10.4020185470581,10.3930959701538,10.3841896057129,10.375298500061,10.3664216995239,10.3575611114502,10.3487148284912,10.3398838043213,10.3310689926147,10.3222675323486,10.3134822845459,10.3047113418579,10.295955657959,10.2872142791748,10.2784881591797,10.2697772979736,10.261079788208,10.2523984909058
0,0,0,0,0,0,0,0,0,0,0,0,0,0,0,0,0,0,0,0,0,0,0,0,0,0,0,0,0,0,0,0,0,0,0,0,0,0,0,0,0,0,0,0,0,0,0,0,0,0,0,0,0,0,0,0,0,0,0,0,0,0,0,0,0,0,0,0,0,0,0,0,0,0,0,0,0,0,0,0,0,0,0,0,0,0,0,0,0,0,0,0,0,0,0,0,0,0,0,0,0,0,0,0,0,0,0,0,0,0,0,0,0,0,0,0,0,0,0,0,0,0,0,0,0,0,0,0,0,0,0,0,0,0,0,0,0,0,0,0,0,0,0,0,0,0,0,0,0,0,0,0,0,0,0,0,0,0,0,0,14.2840642929077,14.1896705627441,14.1410207748413,14.1626300811768,14.1843061447144,14.2060489654541,14.2278575897217,14.2497339248657,14.2716770172119,14.2936878204346,14.315767288208,14.3379144668579,14.3601303100586,14.3824157714844,13.067455291748,12.986704826355,12.9069452285767,12.8281602859497,12.7503309249878,12.6734399795532,12.5974712371826,12.5224075317383,12.4523220062256,12.3912992477417,12.3203039169312,12.2501354217529,12.2026128768921,12.2173185348511,12.2320604324341,12.2468366622925,12.2616491317749,12.2764978408813,12.2913827896118,12.306303024292,12.3212594985962,12.3362531661987,12.3512830734253,12.3663492202759,12.3814525604248,12.3965930938721,12.4117698669434,12.4269847869873,12.4422359466553,12.4575252532959,12.4728517532349,12.4882144927979,12.5036163330078,12.5190553665161,12.5345325469971,14.2056941986084,14.0926475524902,13.9813871383667,13.8736877441406,13.8049716949463,13.7369346618652,13.6695642471313,13.6028518676758,13.5367870330811,13.4713611602783,13.4065637588501,13.3423871994019,13.2788228988647,13.2158603668213,13.1534929275513,13.0917110443115,13.0305070877075,12.9698724746704,12.9097995758057,12.8502798080444,12.7913074493408,12.732873916626,12.6749706268311,12.6175928115845,12.5607318878174,12.5043802261353,12.4485330581665,12.3931818008423,12.338321685791,12.2839441299438,12.2300443649292,12.1766147613525,12.1236505508423,12.0711450576782,12.0190916061401,11.9674863815308,11.9163217544556,11.865592956543,11.5632743835449,11.5225315093994,11.4820747375488,11.4419002532959,11.402006149292,11.3623895645142,11.3151559829712,11.2470197677612,11.1796989440918,11.1131792068481,11.0679597854614,11.0231761932373,10.9825687408447,10.9466857910156,10.9122886657715,10.8802366256714,10.8546981811523,10.8292798995972,10.8039798736572,10.7787971496582,10.7537326812744,10.7287836074829,10.703950881958,10.6792325973511,10.6546277999878,10.6239051818848,10.5895004272461,10.5553169250488,10.5213537216187,10.4876079559326,10.4540767669678,10.4207601547241,10.3876543045044,10.3547592163086,10.3243179321289,10.3263168334961,10.3283166885376,10.3303165435791,10.3323183059692,10.3343200683594,10.3363227844238,10.3383255004883,10.3403301239014,10.3423347473145,10.3443412780762,10.3463478088379,10.3483552932739,10.35036277771,10.3523721694946,10.3543815612793,10.3563919067383,10.3584032058716,10.3604154586792,10.3652715682983,10.3724431991577,10.3796253204346,10.3868179321289,10.3940191268921,10.4012317657471,10.4084539413452,10.4119653701782,10.4118032455444,10.4116411209106,10.4114789962769,10.4113159179688,10.411153793335,10.4109916687012,10.4108295440674,10.4106674194336,10.4105052947998,10.410343170166,10.4101800918579,10.4100179672241,10.4098558425903,10.4096937179565,10.4095315933228,10.409369468689,10.4294366836548,10.420467376709,10.4115133285522,10.4025754928589,10.3936529159546,10.384744644165,10.3758525848389,10.3669757843018,10.3581132888794,10.3492670059204,10.3404350280762,10.331618309021,10.3228168487549,10.3140296936035,10.3052587509155,10.296501159668,10.2877597808838,10.2790327072144,10.2703199386597,10.261622428894,10.2529392242432,10.2442712783813,10.2356176376343,10.2269792556763
0,0,0,0,0,0,0,0,0,0,0,0,0,0,0,0,0,0,0,0,0,0,0,0,0,0,0,0,0,0,0,0,0,0,0,0,0,0,0,0,0,0,0,0,0,0,0,0,0,0,0,0,0,0,0,0,0,0,0,0,0,0,0,0,0,0,0,0,0,0,0,0,0,0,0,0,0,0,0,0,0,0,0,0,0,0,0,0,0,0,0,0,0,0,0,0,0,0,0,0,0,0,0,0,0,0,0,0,0,0,0,0,0,0,0,0,0,0,0,0,0,0,0,0,0,0,0,0,0,0,0,0,0,0,0,0,0,0,0,0,0,0,0,0,0,0,0,0,0,0,0,0,0,0,0,0,0,0,0,14.2914218902588,14.1970405578613,14.1037721633911,14.0753240585327,14.0967330932617,14.1182079315186,14.1397476196289,14.1613531112671,14.1830253601074,14.2047634124756,14.2265682220459,14.2484407424927,14.2703800201416,13.1549577713013,13.0729265213013,12.9921083450317,12.9122829437256,12.8334331512451,12.755539894104,12.6785869598389,12.6025562286377,12.5274324417114,12.4531984329224,12.3923387527466,12.3257675170898,12.2555227279663,12.1860952377319,12.1647109985352,12.1793251037598,12.1939754486084,12.2086601257324,12.2233800888062,12.2381362915039,12.2529277801514,12.2677545547485,12.282618522644,12.2975177764893,12.3124532699585,12.3274250030518,12.342432975769,12.3574781417847,12.3725595474243,12.3876781463623,12.4028329849243,12.4180250167847,12.433253288269,12.4485187530518,12.4638223648071,12.4791631698608,12.4945421218872,13.9413537979126,13.8441410064697,13.7757167816162,13.7079668045044,13.6408796310425,13.5744457244873,13.50865650177,13.4435014724731,13.3789720535278,13.3150587081909,13.2517528533936,13.1890468597412,13.1269311904907,13.0653982162476,13.0044393539429,12.9440460205078,12.8842115402222,12.8249282836914,12.7661867141724,12.7079820632935,12.6503047943115,12.5931491851807,12.5365076065063,12.4803733825684,12.4247398376465,12.3696002960205,12.3149471282959,12.2607755661011,12.2070779800415,12.1538486480713,12.1010818481445,12.048770904541,11.9969110488892,11.9454946517944,11.8965454101562,11.8615074157715,11.5807447433472,11.5398788452148,11.4993000030518,11.459005355835,11.4189920425415,11.3792581558228,11.3397989273071,11.2791776657104,11.2114725112915,11.1445751190186,11.0896921157837,11.044732093811,11.0002498626709,10.9627590179443,10.9281396865845,10.8938589096069,10.8646860122681,10.8392200469971,10.8138742446899,10.7886457443237,10.7635354995728,10.7385416030884,10.7136631011963,10.6888999938965,10.6642513275146,10.638650894165,10.6041507720947,10.5698728561401,10.535816192627,10.5019788742065,10.4683561325073,10.4349479675293,10.4017524719238,10.3687677383423,10.3359909057617,10.322452545166,10.3244504928589,10.3264493942261,10.3284492492676,10.3304491043091,10.3324508666992,10.3344526290894,10.3364553451538,10.3384590148926,10.3404636383057,10.3424682617188,10.3444738388062,10.3464803695679,10.3484878540039,10.3504962921143,10.3525056838989,10.3545150756836,10.3565254211426,10.3585367202759,10.3634376525879,10.3706073760986,10.3777866363525,10.3849763870239,10.3921756744385,10.3993854522705,10.4066047668457,10.4090270996094,10.4088649749756,10.4087018966675,10.4085397720337,10.4083776473999,10.4082155227661,10.4080533981323,10.4078912734985,10.4077291488647,10.407567024231,10.4074048995972,10.4072427749634,10.4070806503296,10.4069185256958,10.406756401062,10.4065942764282,10.420991897583,10.4120721817017,10.4031324386597,10.3942089080811,10.3853006362915,10.3764066696167,10.3675289154053,10.3586664199829,10.3498182296753,10.3409852981567,10.3321676254272,10.3233652114868,10.3145780563354,10.3058052062988,10.2970476150513,10.2883043289185,10.2795763015747,10.27086353302,10.2621650695801,10.2534809112549,10.2448120117188,10.2361574172974,10.227518081665,10.2188920974731,10.2102813720703,10.2016849517822
0,0,0,0,0,0,0,0,0,0,0,0,0,0,0,0,0,0,0,0,0,0,0,0,0,0,0,0,0,0,0,0,0,0,0,0,0,0,0,0,0,0,0,0,0,0,0,0,0,0,0,0,0,0,0,0,0,0,0,0,0,0,0,0,0,0,0,0,0,0,0,0,0,0,0,0,0,0,0,0,0,0,0,0,0,0,0,0,0,0,0,0,0,0,0,0,0,0,0,0,0,0,0,0,0,0,0,0,0,0,0,0,0,0,0,0,0,0,0,0,0,0,0,0,0,0,0,0,0,0,0,0,0,0,0,0,0,0,0,0,0,0,0,0,0,0,0,0,0,0,0,0,0,0,0,0,0,0,0,14.2043085098267,14.1110706329346,14.0189075469971,14.0102348327637,14.0314464569092,14.0527219772339,14.0740623474121,14.0954685211182,14.1169385910034,14.1384744644165,14.1600761413574,14.1817445755005,13.1606702804565,13.0784025192261,12.9975166320801,12.9176254272461,12.8387098312378,12.7607526779175,12.6837368011475,12.60764503479,12.5324602127075,12.4581670761108,12.3926477432251,12.3312349319458,12.2609243392944,12.1914262771606,12.1227207183838,12.1270437240601,12.1415672302246,12.1561260223389,12.1707201004028,12.1853494644165,12.2000131607056,12.2147121429443,12.2294473648071,12.2442178726196,12.2590246200562,12.2738666534424,12.2887439727783,12.3036584854126,12.3186092376709,12.3335962295532,12.3486194610596,12.3636779785156,12.3787727355957,12.3939056396484,12.4090747833252,12.4242811203003,12.4395246505737,13.8147192001343,13.7465858459473,13.6791210174561,13.6123151779175,13.5461587905884,13.4806423187256,13.4157571792603,13.3514928817749,13.2878408432007,13.2247934341431,13.1623420715332,13.1004772186279,13.0391912460327,12.9784755706787,12.9183235168457,12.8587255477905,12.799674987793,12.7411651611328,12.6831874847412,12.6257352828979,12.5688009262085,12.5123777389526,12.4564590454102,12.4010372161865,12.3461074829102,12.2916612625122,12.2376937866211,12.1841974258423,12.1311674118042,12.0785970687866,12.0264797210693,11.9748106002808,11.9320859909058,11.8968391418457,11.8617992401123,11.5982675552368,11.5572776794434,11.5165767669678,11.4761619567871,11.4360284805298,11.3961763381958,11.3565998077393,11.3115196228027,11.2434272766113,11.1761493682861,11.1115093231201,11.0663738250732,11.0216026306152,10.980375289917,10.944037437439,10.9096565246582,10.8754911422729,10.8491792678833,10.8237867355347,10.7985124588013,10.7733554840088,10.7483158111572,10.7233924865723,10.6985845565796,10.6738910675049,10.6493110656738,10.618842124939,10.5844697952271,10.5503187179565,10.5163879394531,10.4826745986938,10.4491748809814,10.4158887863159,10.3828144073486,10.3499488830566,10.3185911178589,10.3205881118774,10.322585105896,10.3245830535889,10.3265819549561,10.3285818099976,10.3305826187134,10.3325834274292,10.3345851898193,10.3365879058838,10.3385915756226,10.3405961990356,10.3426008224487,10.3446073532104,10.3466138839722,10.3486213684082,10.3506298065186,10.3526382446289,10.3546485900879,10.3566589355469,10.3616046905518,10.3687725067139,10.3759489059448,10.3831357955933,10.3903331756592,10.3975400924683,10.4047565460205,10.4060897827148,10.4059276580811,10.4057655334473,10.4056034088135,10.4054412841797,10.4052791595459,10.4051170349121,10.4049549102783,10.4047927856445,10.4046306610107,10.404468536377,10.4043064117432,10.4041442871094,10.4039831161499,10.4038209915161,10.4036588668823,10.4031562805176,10.3944597244263,10.385778427124,10.3769617080688,10.3680820465088,10.3592185974121,10.3503704071045,10.3415365219116,10.3327178955078,10.3239145278931,10.3151254653931,10.3063526153564,10.2975931167603,10.2888498306274,10.2801208496094,10.2714061737061,10.2627067565918,10.2540225982666,10.2453527450562,10.2366971969604,10.2280559539795,10.2194299697876,10.2108182907104,10.2022218704224,10.1936388015747,10.1850709915161,10.1765165328979
0,0,0,0,0,0,0,0,0,0,0,0,0,0,0,0,0,0,0,0,0,0,0,0,0,0,0,0,0,0,0,0,0,0,0,0,0,0,0,0,0,0,0,0,0,0,0,0,0,0,0,0,0,0,0,0,0,0,0,0,0,0,0,0,0,0,0,0,0,0,0,0,0,0,0,0,0,0,0,0,0,0,0,0,0,0,0,0,0,0,0,0,0,0,0,0,0,0,0,0,0,0,0,0,0,0,0,0,0,0,0,0,0,0,0,0,0,0,0,0,0,0,0,0,0,0,0,0,0,0,0,0,0,0,0,0,0,0,0,0,0,0,0,0,0,0,0,0,0,0,0,0,0,0,0,0,0,0,14.2115850448608,14.1182508468628,14.0261354446411,13.93505859375,13.9457454681396,13.9667615890503,13.9878416061401,14.0089855194092,14.0301933288574,14.0514650344849,14.0728015899658,14.0942029953003,13.1663875579834,13.084041595459,13.0029296875,12.9229717254639,12.8439912796021,12.7659702301025,12.6888914108276,12.6127376556396,12.5374927520752,12.4631404876709,12.3929567337036,12.3332366943359,12.2663354873657,12.1967611312866,12.1279964447021,12.0752086639404,12.0896081924438,12.104043006897,12.1185121536255,12.1330156326294,12.1475534439087,12.162127494812,12.1767349243164,12.1913785934448,12.2060575485229,12.2207717895508,12.2355213165283,12.2503061294556,12.2651271820068,12.2799835205078,12.2948770523071,12.3098039627075,12.3247680664062,12.339768409729,12.3548059463501,12.3698797225952,12.3849897384644,12.4001369476318,13.6503963470459,13.5838708877563,13.5179901123047,13.4527444839478,13.388126373291,13.3241262435913,13.2607345581055,13.197943687439,13.1357450485229,13.0741291046143,13.0130882263184,12.952615737915,12.8927021026611,12.8333396911621,12.7745227813721,12.7162418365479,12.6584892272949,12.6012601852417,12.5445461273193,12.4883394241333,12.432635307312,12.3774251937866,12.3227033615112,12.2684631347656,12.2146987915039,12.1614036560059,12.1085710525513,12.0561952590942,12.0042715072632,11.9678401947021,11.9323816299438,11.8971328735352,11.8620910644531,11.8272552490234,11.5747299194336,11.5339059829712,11.493369102478,11.4531164169312,11.4131441116333,11.3734502792358,11.3340311050415,11.2755641937256,11.2079019546509,11.1410474777222,11.0880994796753,11.0431528091431,10.9985694885254,10.9605731964111,10.9254999160767,10.8912363052368,10.8591566085815,10.8337173461914,10.8083972930908,10.7831945419312,10.7581090927124,10.7331399917603,10.7082872390747,10.6835489273071,10.6589241027832,10.6335735321045,10.5991058349609,10.5648612976074,10.530837059021,10.497031211853,10.4634408950806,10.430064201355,10.3968992233276,10.3639450073242,10.3311986923218,10.3167276382446,10.3187236785889,10.3207197189331,10.322717666626,10.3247156143188,10.326714515686,10.3287143707275,10.3307151794434,10.3327159881592,10.3347187042236,10.3367214202881,10.3387250900269,10.3407287597656,10.342734336853,10.3447399139404,10.3467473983765,10.3487548828125,10.3507623672485,10.3527717590332,10.3547821044922,10.3597726821899,10.3669376373291,10.3741121292114,10.3812961578369,10.3884906768799,10.395694732666,10.4029092788696,10.4031543731689,10.4029922485352,10.4028301239014,10.4026679992676,10.4025058746338,10.4023447036743,10.4021825790405,10.4020204544067,10.4018583297729,10.4016962051392,10.4015340805054,10.4013719558716,10.4012107849121,10.4010486602783,10.4008865356445,10.394061088562,10.3853807449341,10.3767147064209,10.3680629730225,10.3594255447388,10.3508024215698,10.3420867919922,10.3332672119141,10.324462890625,10.315673828125,10.3068990707397,10.2981395721436,10.2893943786621,10.2806644439697,10.2719497680664,10.2632493972778,10.2545642852783,10.2458934783936,10.2372369766235,10.2285947799683,10.2199678421021,10.2113552093506,10.2027578353882,10.1941738128662,10.1856050491333,10.1770496368408,10.1685094833374,10.1599836349487,10.1514720916748
0,0,0,0,0,0,0,0,0,0,0,0,0,0,0,0,0,0,0,0,0,0,0,0,0,0,0,0,0,0,0,0,0,0,0,0,0,0,0,0,0,0,0,0,0,0,0,0,0,0,0,0,0,0,0,0,0,0,0,0,0,0,0,0,0,0,0,0,0,0,0,0,0,0,0,0,0,0,0,0,0,0,0,0,0,0,0,0,0,0,0,0,0,0,0,0,0,0,0,0,0,0,0,0,0,0,0,0,0,0,0,0,0,0,0,0,0,0,0,0,0,0,0,0,0,0,0,0,0,0,0,0,0,0,0,0,0,0,0,0,0,0,0,0,0,0,0,0,0,0,0,0,0,0,0,0,0,14.218843460083,14.1254386901855,14.0332298278809,13.9422168731689,13.8610849380493,13.8818464279175,13.9026708602905,13.9235572814941,13.9445066452026,13.9655199050903,13.9865961074829,14.0077362060547,13.1721105575562,13.089693069458,13.0083465576172,12.9283227920532,12.8492765426636,12.7711915969849,12.6940498352051,12.6178350448608,12.5425291061401,12.4681167602539,12.3945827484131,12.3335428237915,12.2717504501343,12.2021150588989,12.1332759857178,12.0652227401733,12.0380926132202,12.0524044036865,12.0667495727539,12.0811290740967,12.0955438613892,12.1099920272827,12.124475479126,12.1389932632446,12.153546333313,12.1681337356567,12.1827564239502,12.1974143981934,12.2121076583862,12.2268362045288,12.2416000366211,12.2563982009888,12.2712326049805,12.2861032485962,12.3010091781616,12.3159523010254,12.3309307098389,12.3459463119507,12.3609981536865,13.4899368286133,13.4249620437622,13.3606100082397,13.2968721389771,13.233738899231,13.1712026596069,13.1092548370361,13.0478868484497,12.9870901107788,12.9268579483032,12.8671817779541,12.8080549240112,12.7494678497314,12.6914148330688,12.6338882446289,12.5768804550171,12.5203847885132,12.464394569397,12.4089021682739,12.3539028167725,12.2993879318237,12.2453527450562,12.1917896270752,12.1386938095093,12.0860586166382,12.0396938323975,12.0038089752197,11.9681367874146,11.9326772689819,11.8974266052246,11.8623828887939,11.8275461196899,11.5922327041626,11.551287651062,11.5106287002563,11.4702548980713,11.4301633834839,11.3903512954712,11.3508148193359,11.3078861236572,11.2398366928101,11.1726016998291,11.1099109649658,11.0647878646851,11.0200290679932,10.9781827926636,10.9413900375366,10.9070262908936,10.8728771209717,10.8436670303345,10.8182992935181,10.7930507659912,10.7679195404053,10.7429056167603,10.7180070877075,10.6932239532471,10.6685543060303,10.6439990997314,10.6137828826904,10.5794439315796,10.5453252792358,10.5114269256592,10.4777450561523,10.4442777633667,10.4110221862793,10.3779792785645,10.3451442718506,10.3128700256348,10.3148651123047,10.3168601989746,10.3188562393188,10.3208522796631,10.322850227356,10.3248481750488,10.326847076416,10.3288469314575,10.3308477401733,10.3328485488892,10.3348512649536,10.3368539810181,10.3388576507568,10.3408622741699,10.342866897583,10.3448734283447,10.3468799591064,10.3488874435425,10.3508958816528,10.3529052734375,10.3579406738281,10.3651027679443,10.372275352478,10.3794565200806,10.3866491317749,10.3938503265381,10.4003820419312,10.4002208709717,10.4000587463379,10.3998966217041,10.3997344970703,10.3995733261108,10.3994112014771,10.3992490768433,10.3990869522095,10.3989248275757,10.3987636566162,10.3986015319824,10.3984394073486,10.3982772827148,10.3936634063721,10.3849830627441,10.3763179779053,10.3676662445068,10.3590297698975,10.3504076004028,10.3417997360229,10.3332061767578,10.3246269226074,10.3160619735718,10.3074464797974,10.2986860275269,10.2899398803711,10.2812089920044,10.2724933624268,10.2637920379639,10.25510597229,10.2464332580566,10.2377767562866,10.229133605957,10.2205057144165,10.211893081665,10.203293800354,10.1947088241577,10.1861391067505,10.177583694458,10.1690425872803,10.160514831543,10.1520023345947,10.1435041427612,10.1350202560425,10.1265497207642
0,0,0,0,0,0,0,0,0,0,0,0,0,0,0,0,0,0,0,0,0,0,0,0,0,0,0,0,0,0,0,0,0,0,0,0,0,0,0,0,0,0,0,0,0,0,0,0,0,0,0,0,0,0,0,0,0,0,0,0,0,0,0,0,0,0,0,0,0,0,0,0,0,0,0,0,0,0,0,0,0,0,0,0,0,0,0,0,0,0,0,0,0,0,0,0,0,0,0,0,0,0,0,0,0,0,0,0,0,0,0,0,0,0,0,0,0,0,0,0,0,0,0,0,0,0,0,0,0,0,0,0,0,0,0,0,0,0,0,0,0,0,0,0,0,0,0,0,0,0,0,0,0,0,0,0,0,14.1326332092285,14.0403318405151,13.9492263793945,13.8592958450317,13.7979574203491,13.8185300827026,13.8391647338867,13.8598613739014,13.8806190490723,13.901439666748,13.9223232269287,13.1778373718262,13.0953493118286,13.0138864517212,12.9336776733398,12.8545665740967,12.7764177322388,12.6992130279541,12.6229362487793,12.5475692749023,12.4730978012085,12.3995046615601,12.3338489532471,12.2746953964233,12.2074737548828,12.1385631561279,12.0704488754272,12.0030965805054,12.0012035369873,12.0154275894165,12.0296859741211,12.0439767837524,12.0583028793335,12.0726623535156,12.0870561599731,12.1014852523804,12.1159477233887,12.1304454803467,12.1449775695801,12.1595439910889,12.1741466522217,12.1887826919556,12.2034540176392,12.2181606292725,12.2329025268555,12.2476797103882,12.2624931335449,12.2773418426514,12.2922267913818,12.3071489334106,12.3221063613892,13.3332061767578,13.2697286605835,13.2068529129028,13.1445693969727,13.0828714370728,13.02174949646,12.9611959457397,12.9012031555176,12.8417634963989,12.7828683853149,12.7245111465454,12.6666851043701,12.6093816757202,12.5525941848755,12.4963159561157,12.4405403137207,12.3852605819702,12.3304691314697,12.2761611938477,12.2223291397095,12.1689672470093,12.1160688400269,12.076096534729,12.0399942398071,12.0041074752808,11.9684343338013,11.93297290802,11.8977203369141,11.8626747131348,11.8278360366821,11.7932014465332,11.5687208175659,11.5279397964478,11.4874448776245,11.4472332000732,11.407301902771,11.3676490783691,11.3282699584961,11.2719535827637,11.2043342590332,11.1375217437744,11.0865077972412,11.0415735244751,10.9970026016235,10.9583892822266,10.9228620529175,10.8886137008667,10.8545799255371,10.8282203674316,10.8029251098633,10.7777481079102,10.7526884078979,10.727744102478,10.7029161453247,10.6782026290894,10.6536026000977,10.6285009384155,10.594066619873,10.5598545074463,10.5258617401123,10.4920883178711,10.4585294723511,10.4251842498779,10.392050743103,10.3591270446777,10.3264112472534,10.3110094070435,10.3130025863647,10.3149967193604,10.3169927597046,10.3189878463745,10.3209848403931,10.3229827880859,10.3249807357788,10.326979637146,10.3289794921875,10.3309803009033,10.3329820632935,10.3349838256836,10.336986541748,10.3389902114868,10.3409948348999,10.3430004119873,10.3450059890747,10.3470134735107,10.3490209579468,10.3510293960571,10.3561105728149,10.3632698059082,10.3704385757446,10.3776187896729,10.3848075866699,10.3920068740845,10.3974504470825,10.3972883224487,10.3971261978149,10.3969650268555,10.3968029022217,10.3966407775879,10.3964796066284,10.3963174819946,10.3961553573608,10.3959941864014,10.3958320617676,10.3956699371338,10.3932647705078,10.3845853805542,10.3759202957153,10.3672704696655,10.3586339950562,10.3500127792358,10.3414058685303,10.3328123092651,10.3242340087891,10.3156690597534,10.3071184158325,10.2985830307007,10.2900609970093,10.2815532684326,10.2730369567871,10.2643346786499,10.2556476593018,10.246973991394,10.2383165359497,10.2296724319458,10.221043586731,10.2124300003052,10.2038297653198,10.1952438354492,10.1866731643677,10.1781167984009,10.1695747375488,10.1610469818115,10.152533531189,10.1440343856812,10.1355485916138,10.1270780563354,10.1186218261719,10.1101789474487,10.1017503738403
0,0,0,0,0,0,0,0,0,0,0,0,0,0,0,0,0,0,0,0,0,0,0,0,0,0,0,0,0,0,0,0,0,0,0,0,0,0,0,0,0,0,0,0,0,0,0,0,0,0,0,0,0,0,0,0,0,0,0,0,0,0,0,0,0,0,0,0,0,0,0,0,0,0,0,0,0,0,0,0,0,0,0,0,0,0,0,0,0,0,0,0,0,0,0,0,0,0,0,0,0,0,0,0,0,0,0,0,0,0,0,0,0,0,0,0,0,0,0,0,0,0,0,0,0,0,0,0,0,0,0,0,0,0,0,0,0,0,0,0,0,0,0,0,0,0,0,0,0,0,0,0,0,0,0,0,14.1398115158081,14.0474405288696,13.9562435150146,13.8662233352661,13.7773561477661,13.7354030609131,13.7557897567749,13.7762365341187,13.796745300293,13.8173141479492,13.2671775817871,13.1835699081421,13.1010103225708,13.0194778442383,12.939037322998,12.8598613739014,12.7816476821899,12.7043800354004,12.628041267395,12.5526142120361,12.4780826568604,12.4044313430786,12.3341550827026,12.274998664856,12.2128372192383,12.1438665390015,12.0756788253784,12.0082683563232,11.9504365921021,11.9645404815674,11.9786777496338,11.9928483963013,12.0070524215698,12.0212907791138,12.0355625152588,12.0498676300049,12.0642070770264,12.0785808563232,12.0929889678955,12.1074314117432,12.1219091415405,12.136420249939,12.1509647369385,12.165545463562,12.1801605224609,12.1948108673096,12.2094964981079,12.224217414856,12.2389736175537,12.2537660598755,12.268593788147,13.2426958084106,13.1800756454468,13.1180438995361,13.0565938949585,12.995717048645,12.9354047775269,12.8756494522095,12.8164443969727,12.7577810287476,12.699652671814,12.6420516967773,12.5849695205688,12.5284013748169,12.472339630127,12.4167776107788,12.3617076873779,12.3071250915527,12.2530212402344,12.1993923187256,12.1492605209351,12.1127195358276,12.0763988494873,12.0402956008911,12.0044069290161,11.968731880188,11.9332675933838,11.8980140686035,11.8629674911499,11.8281259536743,11.7934894561768,11.5862045288086,11.5453033447266,11.5046863555908,11.4643545150757,11.4243040084839,11.3845319747925,11.3450365066528,11.3042545318604,11.2362480163574,11.1690559387207,11.1083126068115,11.0632019042969,11.0184564590454,10.9759912490845,10.9387435913086,10.9043960571289,10.8702640533447,10.8381595611572,10.8128175735474,10.7875947952271,10.7624893188477,10.7375001907349,10.7126264572144,10.6878681182861,10.6632232666016,10.638692855835,10.6087293624878,10.5744228363037,10.5403366088867,10.5064697265625,10.4728202819824,10.4393844604492,10.4061603546143,10.3731479644775,10.3403434753418,10.3077459335327,10.3091478347778,10.3111410140991,10.3131351470947,10.3151292800903,10.3171243667603,10.3191204071045,10.321117401123,10.3231153488159,10.3251132965088,10.327112197876,10.3291120529175,10.3311128616333,10.3331146240234,10.3351163864136,10.3371200561523,10.3391237258911,10.3411283493042,10.3431329727173,10.345139503479,10.3471460342407,10.3491544723511,10.3542795181274,10.3614368438721,10.3686037063599,10.3757801055908,10.3829669952393,10.3901634216309,10.3945198059082,10.3943576812744,10.3941965103149,10.3940343856812,10.3938732147217,10.3937110900879,10.3935489654541,10.3933877944946,10.3932256698608,10.3930644989014,10.3928670883179,10.3841876983643,10.3755235671997,10.3668737411499,10.3582382202148,10.3496179580688,10.3410110473633,10.3324184417725,10.3238410949707,10.3152770996094,10.3067274093628,10.298192024231,10.2896699905396,10.2811632156372,10.2726697921753,10.2641906738281,10.2557258605957,10.2472743988037,10.2388372421265,10.2302122116089,10.2215824127197,10.2129669189453,10.2043657302856,10.195779800415,10.1872081756592,10.1786499023438,10.1701078414917,10.1615781784058,10.1530637741089,10.1445636749268,10.1360778808594,10.1276063919067,10.1191492080688,10.1107053756714,10.1022758483887,10.0938606262207,10.0854587554932,10.0770711898804
0,0,0,0,0,0,0,0,0,0,0,0,0,0,0,0,0,0,0,0,0,0,0,0,0,0,0,0,0,0,0,0,0,0,0,0,0,0,0,0,0,0,0,0,0,0,0,0,0,0,0,0,0,0,0,0,0,0,0,0,0,0,0,0,0,0,0,0,0,0,0,0,0,0,0,0,0,0,0,0,0,0,0,0,0,0,0,0,0,0,0,0,0,0,0,0,0,0,0,0,0,0,0,0,0,0,0,0,0,0,0,0,0,0,0,0,0,0,0,0,0,0,0,0,0,0,0,0,0,0,0,0,0,0,0,0,0,0,0,0,0,0,0,0,0,0,0,0,0,0,0,0,0,0,0,0,14.0545530319214,13.963267326355,13.8731565475464,13.7842016220093,13.6963796615601,13.673412322998,13.6936159133911,13.7138786315918,13.7342014312744,13.2729873657227,13.1893072128296,13.1066761016846,13.0250730514526,12.9444799423218,12.8651599884033,12.7868824005127,12.7095518112183,12.633150100708,12.5576629638672,12.4830713272095,12.4093608856201,12.3365154266357,12.2753019332886,12.2167081832886,12.1491746902466,12.0809192657471,12.0134449005127,11.9467248916626,11.9140825271606,11.9281005859375,11.9421520233154,11.9562358856201,11.9703531265259,11.984504699707,11.9986886978149,12.0129070281982,12.0271587371826,12.0414447784424,12.0557641983032,12.0701179504395,12.0845050811768,12.0989255905151,12.1133813858032,12.1278715133667,12.1423959732056,12.1569547653198,12.1715497970581,12.1861791610718,12.2008438110352,12.2155437469482,12.2302799224854,13.091625213623,13.030421257019,12.9697875976562,12.9097156524658,12.8501977920532,12.7912254333496,12.7327928543091,12.6748905181885,12.6175127029419,12.5606527328491,12.5043029785156,12.4484558105469,12.393105506897,12.3382453918457,12.2838687896729,12.2299690246582,12.1863288879395,12.1495666503906,12.1130247116089,12.0767021179199,12.0405960083008,12.0047063827515,11.9690284729004,11.9335632324219,11.898307800293,11.8632593154907,11.8284168243408,11.7937784194946,11.7593421936035,11.5627164840698,11.5219793319702,11.4815263748169,11.4413557052612,11.4014663696289,11.361852645874,11.3225145339966,11.2683448791504,11.2007684707642,11.1339988708496,11.0849161148071,11.0399951934814,10.995436668396,10.956205368042,10.9202251434326,10.8859930038452,10.851975440979,10.8227281570435,10.797459602356,10.7723073959351,10.7472724914551,10.7223539352417,10.6975507736206,10.6728620529175,10.648286819458,10.6234331130981,10.5890312194824,10.5548515319824,10.5208911895752,10.4871492385864,10.4536228179932,10.4203090667725,10.3872060775757,10.3543138504028,10.3216285705566,10.3052968978882,10.3072881698608,10.3092803955078,10.3112735748291,10.3132667541504,10.3152618408203,10.3172569274902,10.3192529678345,10.321249961853,10.3232479095459,10.3252458572388,10.327244758606,10.3292446136475,10.3312454223633,10.3332471847534,10.3352499008179,10.3372526168823,10.3392562866211,10.3412609100342,10.3432664871216,10.3452730178833,10.347279548645,10.3524503707886,10.3596048355103,10.3667688369751,10.3739433288574,10.3811273574829,10.3883218765259,10.3915910720825,10.3914289474487,10.3912677764893,10.3911056518555,10.390944480896,10.3907823562622,10.3906211853027,10.3904590606689,10.3902978897095,10.3837900161743,10.3751268386841,10.3664779663086,10.3578433990479,10.3492231369019,10.3406171798706,10.3320255279541,10.323447227478,10.314884185791,10.3063354492188,10.2978010177612,10.2892799377441,10.2807731628418,10.2722806930542,10.2638025283813,10.2553377151489,10.2468872070312,10.238450050354,10.2300271987915,10.2216186523438,10.2132234573364,10.2048425674438,10.1963148117065,10.1877422332764,10.1791839599609,10.1706399917603,10.1621103286743,10.1535949707031,10.1450939178467,10.136607170105,10.128134727478,10.1196756362915,10.111231803894,10.102801322937,10.0943851470947,10.0859832763672,10.0775947570801,10.0692205429077,10.0608596801758,10.0525131225586
0,0,0,0,0,0,0,0,0,0,0,0,0,0,0,0,0,0,0,0,0,0,0,0,0,0,0,0,0,0,0,0,0,0,0,0,0,0,0,0,0,0,0,0,0,0,0,0,0,0,0,0,0,0,0,0,0,0,0,0,0,0,0,0,0,0,0,0,0,0,0,0,0,0,0,0,0,0,0,0,0,0,0,0,0,0,0,0,0,0,0,0,0,0,0,0,0,0,0,0,0,0,0,0,0,0,0,0,0,0,0,0,0,0,0,0,0,0,0,0,0,0,0,0,0,0,0,0,0,0,0,0,0,0,0,0,0,0,0,0,0,0,0,0,0,0,0,0,0,0,0,0,0,0,0,14.061653137207,13.9702987670898,13.8800973892212,13.7910528182983,13.7031440734863,13.6163339614868,13.6119794845581,13.6320009231567,13.6520824432373,13.2788028717041,13.195050239563,13.1123466491699,13.0306730270386,12.9500112533569,12.8704633712769,12.7921209335327,12.7147274017334,12.6382637023926,12.5627145767212,12.4880638122559,12.4142951965332,12.3413915634155,12.2756052017212,12.2170085906982,12.1544876098633,12.0861721038818,12.0186252593994,11.9518489837646,11.8858098983765,11.8779487609863,11.891881942749,11.9058485031128,11.919846534729,11.9338779449463,11.9479427337646,11.9620409011841,11.9761724472046,11.9903373718262,12.0045356750488,12.0187673568726,12.033031463623,12.0473299026489,12.0616626739502,12.0760288238525,12.0904293060303,12.1048641204834,12.1193342208862,12.1338386535645,12.1483774185181,12.1629514694214,12.1775598526001,12.1922035217285,12.943962097168,12.8841285705566,12.8248453140259,12.7661056518555,12.7079010009766,12.6502246856689,12.5930700302124,12.5364294052124,12.4802961349487,12.4246625900269,12.3695230484009,12.3148717880249,12.260838508606,12.2236251831055,12.186637878418,12.1498727798462,12.1133289337158,12.0770044326782,12.0408973693848,12.0050048828125,11.9693260192871,11.93385887146,11.8986015319824,11.8635511398315,11.828706741333,11.7940673828125,11.7596292495728,11.5801830291748,11.5393238067627,11.4987497329712,11.458459854126,11.4184503555298,11.378719329834,11.3392639160156,11.3000946044922,11.2326622009277,11.1655130386353,11.1067142486572,11.061616897583,11.016884803772,10.9738006591797,10.9364900588989,10.9017686843872,10.8676519393921,10.8337488174438,10.8073415756226,10.7821435928345,10.7570638656616,10.7320995330811,10.7072515487671,10.6825180053711,10.6578979492188,10.6333913803101,10.6036806106567,10.5694065093994,10.5353527069092,10.5015182495117,10.4678993225098,10.4344959259033,10.4013032913208,10.3683214187622,10.3355474472046,10.3029804229736,10.3034381866455,10.3054285049438,10.3074207305908,10.3094129562378,10.3114061355591,10.3133993148804,10.3153944015503,10.3173894882202,10.3193855285645,10.321382522583,10.3233804702759,10.3253784179688,10.3273773193359,10.3293781280518,10.3313789367676,10.3333797454834,10.3353824615479,10.3373851776123,10.3393898010254,10.3413944244385,10.3433990478516,10.3454055786133,10.3506212234497,10.3577728271484,10.3649349212646,10.372106552124,10.3792877197266,10.3864793777466,10.3886632919312,10.3885021209717,10.3883409500122,10.3881788253784,10.3880176544189,10.3878555297852,10.3876943588257,10.3833923339844,10.3747301101685,10.366081237793,10.3574476242065,10.3488283157349,10.3402223587036,10.3316316604614,10.3230543136597,10.314492225647,10.3059434890747,10.2974100112915,10.2888898849487,10.2803840637207,10.2718915939331,10.2634134292603,10.2549495697021,10.2465000152588,10.2380638122559,10.2296419143677,10.2212333679199,10.2128391265869,10.2044582366943,10.1960906982422,10.1877384185791,10.1793985366821,10.1710720062256,10.1626424789429,10.1541261672974,10.1456241607666,10.1371364593506,10.1286630630493,10.1202030181885,10.1117582321167,10.1033267974854,10.0949096679688,10.0865068435669,10.0781173706055,10.0697422027588,10.0613813400269,10.0530338287354,10.0446996688843,10.0363798141479,10.0280742645264
0,0,0,0,0,0,0,0,0,0,0,0,0,0,0,0,0,0,0,0,0,0,0,0,0,0,0,0,0,0,0,0,0,0,0,0,0,0,0,0,0,0,0,0,0,0,0,0,0,0,0,0,0,0,0,0,0,0,0,0,0,0,0,0,0,0,0,0,0,0,0,0,0,0,0,0,0,0,0,0,0,0,0,0,0,0,0,0,0,0,0,0,0,0,0,0,0,0,0,0,0,0,0,0,0,0,0,0,0,0,0,0,0,0,0,0,0,0,0,0,0,0,0,0,0,0,0,0,0,0,0,0,0,0,0,0,0,0,0,0,0,0,0,0,0,0,0,0,0,0,0,0,0,0,0,13.9773321151733,13.8870449066162,13.7979116439819,13.7099161148071,13.6230344772339,13.5372171401978,13.5510959625244,13.5709390640259,13.2846240997314,13.2007970809937,13.1180219650269,13.0362787246704,12.9555473327637,12.8758096694946,12.7973642349243,12.7199068069458,12.6433820724487,12.5677719116211,12.4930610656738,12.4192323684692,12.3462724685669,12.2759084701538,12.2173089981079,12.1592655181885,12.0914297103882,12.0238199234009,11.9569759368896,11.8908805847168,11.8282175064087,11.8420333862305,11.8558826446533,11.8697643280029,11.8836784362793,11.8976249694824,11.9116039276123,11.9256162643433,11.9396619796753,11.9537401199341,11.9678516387939,11.9819955825806,11.9961729049683,12.010383605957,12.0246276855469,12.0389060974121,12.0532188415527,12.0675649642944,12.0819454193115,12.096360206604,12.1108093261719,12.1252927780151,12.1398115158081,12.1543645858765,12.7995939254761,12.7410840988159,12.6831073760986,12.6256551742554,12.5687217712402,12.5122995376587,12.4563808441162,12.4009609222412,12.3460311889648,12.2985935211182,12.2611503601074,12.2239351272583,12.1869459152222,12.1501789093018,12.1136331558228,12.0773067474365,12.0411977767944,12.0053043365479,11.9696235656738,11.934154510498,11.8988952636719,11.8638429641724,11.8289976119995,11.7943553924561,11.759916305542,11.7256774902344,11.5567188262939,11.5160245895386,11.4756135940552,11.4354848861694,11.3956356048584,11.3560628890991,11.316764831543,11.2647380828857,11.1972055435181,11.1304779052734,11.083324432373,11.0384168624878,10.9938707351685,10.9540224075317,10.9175891876221,10.8833742141724,10.8493728637695,10.8172426223755,10.7919988632202,10.7668724060059,10.7418632507324,10.7169694900513,10.6921911239624,10.6675262451172,10.6429758071899,10.6183710098267,10.5840015411377,10.5498542785645,10.515926361084,10.4822158813477,10.4487209320068,10.4154386520386,10.3823671340942,10.3495044708252,10.3168497085571,10.2995910644531,10.3015804290771,10.3035697937012,10.3055610656738,10.3075523376465,10.3095445632935,10.3115377426147,10.3135318756104,10.315526008606,10.3175220489502,10.3195180892944,10.321515083313,10.3235130310059,10.3255109786987,10.3275108337402,10.3295106887817,10.3315114974976,10.3335132598877,10.3355150222778,10.3375186920166,10.3395223617554,10.3415269851685,10.3435325622559,10.3487930297852,10.3559427261353,10.3631019592285,10.3702707290649,10.3774499893188,10.3846387863159,10.3857383728027,10.3855762481689,10.3854150772095,10.38525390625,10.3850917816162,10.3829956054688,10.3743333816528,10.3656854629517,10.3570518493652,10.3484325408936,10.3398284912109,10.3312377929688,10.3226613998413,10.3141002655029,10.305552482605,10.2970190048218,10.288498878479,10.2799940109253,10.271502494812,10.2630252838135,10.2545623779297,10.2461128234863,10.2376775741577,10.2292556762695,10.2208480834961,10.2124547958374,10.2040739059448,10.1957082748413,10.1873550415039,10.1790161132812,10.170690536499,10.1623792648315,10.1540813446045,10.1457967758179,10.1375255584717,10.1291913986206,10.1207313537598,10.1122846603394,10.1038522720337,10.0954341888428,10.0870304107666,10.0786409378052,10.0702648162842,10.0619020462036,10.0535545349121,10.0452194213867,10.0368986129761,10.0285921096802,10.0202989578247,10.012020111084,10.0037536621094
0,0,0,0,0,0,0,0,0,0,0,0,0,0,0,0,0,0,0,0,0,0,0,0,0,0,0,0,0,0,0,0,0,0,0,0,0,0,0,0,0,0,0,0,0,0,0,0,0,0,0,0,0,0,0,0,0,0,0,0,0,0,0,0,0,0,0,0,0,0,0,0,0,0,0,0,0,0,0,0,0,0,0,0,0,0,0,0,0,0,0,0,0,0,0,0,0,0,0,0,0,0,0,0,0,0,0,0,0,0,0,0,0,0,0,0,0,0,0,0,0,0,0,0,0,0,0,0,0,0,0,0,0,0,0,0,0,0,0,0,0,0,0,0,0,0,0,0,0,0,0,0,0,0,13.9843530654907,13.8939990997314,13.8047771453857,13.7166938781738,13.6297273635864,13.5438566207886,13.4711446762085,13.4907541275024,13.2904491424561,13.2065496444702,13.1237020492554,13.0418882369995,12.9610872268677,12.8812818527222,12.8026113510132,12.7250909805298,12.6485033035278,12.5728321075439,12.4980611801147,12.4241743087769,12.3511562347412,12.2789907455444,12.2176094055176,12.1595630645752,12.0966920852661,12.0290231704712,11.9621086120605,11.895956993103,11.8305320739746,11.7926015853882,11.8063354492188,11.8201007843018,11.8338985443115,11.847728729248,11.861590385437,11.8754854202271,11.8894128799438,11.9033727645874,11.917366027832,11.9313907623291,11.9454479217529,11.9595384597778,11.9736623764038,11.9878206253052,12.0020112991333,12.0162353515625,12.0304937362671,12.0447864532471,12.0591125488281,12.0734729766846,12.0878677368164,12.1022958755493,12.1167593002319,12.6584091186523,12.6011810302734,12.5444669723511,12.4882612228394,12.4325580596924,12.3773488998413,12.3365812301636,12.2989072799683,12.2614631652832,12.2242460250854,12.1872539520264,12.1504850387573,12.1139373779297,12.0776100158691,12.0414991378784,12.0056028366089,11.9699211120605,11.9344501495361,11.8991889953613,11.8641347885132,11.8292875289917,11.7946443557739,11.7602033615112,11.725962638855,11.5741672515869,11.5333499908447,11.4928197860718,11.4525709152222,11.4126024246216,11.3729124069214,11.3334970474243,11.2943592071533,11.229079246521,11.1619720458984,11.1051168441772,11.0600328445435,11.0153131484985,10.9716110229492,10.9343147277832,10.8991413116455,10.8650417327881,10.8311548233032,10.8018712997437,10.7766990661621,10.7516441345215,10.7267045974731,10.7018814086914,10.6771726608276,10.6525774002075,10.6280956268311,10.5986366271973,10.5643949508667,10.5303735733032,10.4965705871582,10.462984085083,10.429612159729,10.3964500427246,10.3634986877441,10.330756187439,10.2982187271118,10.2977342605591,10.2997226715088,10.3017120361328,10.3037023544312,10.3056926727295,10.3076848983765,10.3096771240234,10.3116703033447,10.3136644363403,10.3156585693359,10.3176546096802,10.3196506500244,10.321647644043,10.3236455917358,10.3256435394287,10.3276433944702,10.3296432495117,10.3316440582275,10.3336458206177,10.3356485366821,10.3376512527466,10.3396549224854,10.3416595458984,10.3469648361206,10.3541116714478,10.3612689971924,10.3684349060059,10.3756122589111,10.3827981948853,10.3828144073486,10.3826522827148,10.3824911117554,10.3823299407959,10.3739366531372,10.365288734436,10.3566560745239,10.3480377197266,10.3394336700439,10.3308448791504,10.3222684860229,10.3137073516846,10.3051605224609,10.2966279983521,10.2881088256836,10.2796039581299,10.2711133956909,10.2626371383667,10.2541742324829,10.2457256317139,10.2372913360596,10.2288703918457,10.2204627990723,10.2120695114136,10.2036905288696,10.1953248977661,10.186972618103,10.1786346435547,10.1703090667725,10.1619987487793,10.1537008285522,10.1454172134399,10.1371459960938,10.1288890838623,10.1206455230713,10.1124153137207,10.1041984558105,10.0959596633911,10.0875549316406,10.0791635513306,10.0707864761353,10.0624237060547,10.0540742874146,10.0457391738892,10.0374174118042,10.029109954834,10.0208158493042,10.0125360488892,10.0042695999146,9.99601650238037,9.98777675628662,9.97955131530762
0,0,0,0,0,0,0,0,0,0,0,0,0,0,0,0,0,0,0,0,0,0,0,0,0,0,0,0,0,0,0,0,0,0,0,0,0,0,0,0,0,0,0,0,0,0,0,0,0,0,0,0,0,0,0,0,0,0,0,0,0,0,0,0,0,0,0,0,0,0,0,0,0,0,0,0,0,0,0,0,0,0,0,0,0,0,0,0,0,0,0,0,0,0,0,0,0,0,0,0,0,0,0,0,0,0,0,0,0,0,0,0,0,0,0,0,0,0,0,0,0,0,0,0,0,0,0,0,0,0,0,0,0,0,0,0,0,0,0,0,0,0,0,0,0,0,0,0,0,0,0,0,0,13.9913816452026,13.900954246521,13.8116502761841,13.7234792709351,13.6364269256592,13.5504722595215,13.465594291687,13.3813276290894,13.2962808609009,13.2123069763184,13.1293878555298,13.0475025177002,12.9666328430176,12.8867597579956,12.8078641891479,12.730278968811,12.6536293029785,12.5778970718384,12.5030660629272,12.4291200637817,12.3560438156128,12.283821105957,12.2179098129272,12.1598606109619,12.1019592285156,12.0342311859131,11.9672574996948,11.9010362625122,11.8355569839478,11.7707929611206,11.7572002410889,11.7708511352539,11.7845344543457,11.7982492446899,11.8119955062866,11.8257741928101,11.8395853042603,11.8534278869629,11.8673038482666,11.8812112808228,11.8951501846313,11.909122467041,11.9231281280518,11.9371662139893,11.9512367248535,11.9653415679932,11.9794788360596,11.9936504364014,12.0078554153442,12.0220937728882,12.0363655090332,12.0506715774536,12.0650119781494,12.5768013000488,12.5203056335449,12.464316368103,12.4129447937012,12.3748035430908,12.3368968963623,12.2992210388184,12.2617750167847,12.2245559692383,12.1875619888306,12.1507911682129,12.1142425537109,12.0779123306274,12.0417995452881,12.0059022903442,11.9702177047729,11.9347457885742,11.8994827270508,11.8644275665283,11.8295783996582,11.7949333190918,11.7604904174805,11.7262477874756,11.6922044754028,11.5507278442383,11.5100755691528,11.4697074890137,11.4296197891235,11.3898115158081,11.3502798080444,11.3110208511353,11.261134147644,11.1936445236206,11.1269960403442,11.0817337036133,11.0368385314941,10.9923057556152,10.9518404006958,10.9149541854858,10.8807563781738,10.8467712402344,10.8129978179932,10.7865438461304,10.7614431381226,10.7364587783813,10.7115898132324,10.6868362426758,10.6621971130371,10.6376705169678,10.6132574081421,10.5789756774902,10.5448608398438,10.51096534729,10.4772863388062,10.4438228607178,10.410572052002,10.3775320053101,10.3446998596191,10.3120746612549,10.293890953064,10.2958784103394,10.2978658676147,10.2998542785645,10.3018436431885,10.3038339614868,10.3058252334595,10.3078165054321,10.3098087310791,10.3118019104004,10.313796043396,10.3157911300659,10.3177862167358,10.3197832107544,10.3217802047729,10.3237781524658,10.3257761001587,10.3277759552002,10.3297758102417,10.3317766189575,10.3337783813477,10.3357810974121,10.3377838134766,10.3397884368896,10.3451385498047,10.3522825241089,10.3594369888306,10.3666009902954,10.3737745285034,10.3800535202026,10.3798913955688,10.3797302246094,10.3735389709473,10.3648929595947,10.3562612533569,10.3476428985596,10.3390398025513,10.3304510116577,10.3218765258789,10.3133153915405,10.3047695159912,10.2962369918823,10.2877187728882,10.2792148590088,10.2707252502441,10.2622489929199,10.2537870407104,10.2453384399414,10.2369041442871,10.2284841537476,10.2200775146484,10.2116851806641,10.2033061981201,10.1949415206909,10.1865901947021,10.1782522201538,10.1699285507202,10.1616172790527,10.1533203125,10.145037651062,10.1367673873901,10.128511428833,10.120267868042,10.1120386123657,10.1038227081299,10.0956192016602,10.0874300003052,10.0792541503906,10.0710906982422,10.0629405975342,10.0545949935913,10.0462589263916,10.0379371643066,10.0296277999878,10.021333694458,10.0130519866943,10.0047845840454,9.99653053283691,9.98829078674316,9.98006439208984,9.97185134887695,9.96365165710449,9.95546531677246
0,0,0,0,0,0,0,0,0,0,0,0,0,0,0,0,0,0,0,0,0,0,0,0,0,0,0,0,0,0,0,0,0,0,0,0,0,0,0,0,0,0,0,0,0,0,0,0,0,0,0,0,0,0,0,0,0,0,0,0,0,0,0,0,0,0,0,0,0,0,0,0,0,0,0,0,0,0,0,0,0,0,0,0,0,0,0,0,0,0,0,0,0,0,0,0,0,0,0,0,0,0,0,0,0,0,0,0,0,0,0,0,0,0,0,0,0,0,0,0,0,0,0,0,0,0,0,0,0,0,0,0,0,0,0,0,0,0,0,0,0,0,0,0,0,0,0,0,0,0,0,0,0,13.9078989028931,13.8185291290283,13.7302703857422,13.6431322097778,13.5570936203003,13.4721326828003,13.3882303237915,13.302116394043,13.2180700302124,13.1350784301758,13.0531225204468,12.9721832275391,12.8922414779663,12.8132791519165,12.7354717254639,12.6587591171265,12.5829658508301,12.508074760437,12.4340696334839,12.3609352111816,12.2886562347412,12.2182092666626,12.1601581573486,12.1026554107666,12.0394439697266,11.972412109375,11.9061231613159,11.8405847549438,11.7757663726807,11.7116546630859,11.7220106124878,11.7355794906616,11.7491807937622,11.7628135681152,11.7764778137207,11.7901735305786,11.8039016723633,11.8176612854004,11.8314514160156,11.8452749252319,11.8591299057007,11.8730173110962,11.8869380950928,11.9008903503418,11.9148769378662,11.9288949966431,11.942946434021,11.9570322036743,11.9711494445801,11.9853010177612,11.9994859695435,12.0137052536011,12.0279569625854,12.4516429901123,12.4132642745972,12.3751211166382,12.337212562561,12.2995347976685,12.2620868682861,12.2248659133911,12.1878700256348,12.1510982513428,12.1145467758179,12.0782146453857,12.0421009063721,12.0062007904053,11.9705152511597,11.9350414276123,11.8997764587402,11.8647193908691,11.8298683166504,11.7952213287354,11.7607774734497,11.7265329360962,11.6924877166748,11.5681581497192,11.527382850647,11.4868955612183,11.4466886520386,11.4067611694336,11.3671112060547,11.3277368545532,11.2886333465576,11.2254972457886,11.1584329605103,11.1035203933716,11.0584487915039,11.0137414932251,10.9694213867188,10.9321403503418,10.8965158462524,10.8624324798584,10.8285617828369,10.7964057922363,10.7712593078613,10.7462291717529,10.7213153839111,10.6965169906616,10.6718330383301,10.6472625732422,10.6228046417236,10.5935974121094,10.5593881607056,10.5253992080688,10.4916276931763,10.4580726623535,10.424732208252,10.3916025161743,10.358681678772,10.3259687423706,10.2934617996216,10.2920370101929,10.2940235137939,10.296010017395,10.2979984283447,10.2999868392944,10.3019762039185,10.3039665222168,10.3059568405151,10.3079490661621,10.3099412918091,10.3119344711304,10.313928604126,10.3159236907959,10.3179187774658,10.3199148178101,10.3219127655029,10.3239097595215,10.3259086608887,10.3279085159302,10.3299083709717,10.3319091796875,10.3339109420776,10.3359136581421,10.3379173278809,10.3433113098145,10.35045337677,10.3576049804688,10.364767074585,10.37193775177,10.3771324157715,10.373143196106,10.3644971847534,10.3558654785156,10.3472490310669,10.3386459350586,10.330057144165,10.3214836120605,10.3129234313965,10.3043775558472,10.2958459854126,10.2873287200928,10.2788248062134,10.270336151123,10.2618608474731,10.2533988952637,10.2449522018433,10.236517906189,10.2280988693237,10.2196931838989,10.2113008499146,10.2029228210449,10.1945581436157,10.1862077713013,10.1778697967529,10.1695470809937,10.1612367630005,10.1529407501221,10.1446580886841,10.1363887786865,10.1281328201294,10.1198902130127,10.1116609573364,10.1034460067749,10.0952434539795,10.0870542526245,10.0788793563843,10.0707168579102,10.0625677108765,10.0544319152832,10.0463085174561,10.0381984710693,10.030101776123,10.0218505859375,10.0135688781738,10.0053005218506,9.99704551696777,9.98880481719971,9.98057651519775,9.97236347198486,9.96416282653809,9.95597553253174,9.94780254364014,9.93964195251465,9.93149566650391
0,0,0,0,0,0,0,0,0,0,0,0,0,0,0,0,0,0,0,0,0,0,0,0,0,0,0,0,0,0,0,0,0,0,0,0,0,0,0,0,0,0,0,0,0,0,0,0,0,0,0,0,0,0,0,0,0,0,0,0,0,0,0,0,0,0,0,0,0,0,0,0,0,0,0,0,0,0,0,0,0,0,0,0,0,0,0,0,0,0,0,0,0,0,0,0,0,0,0,0,0,0,0,0,0,0,0,0,0,0,0,0,0,0,0,0,0,0,0,0,0,0,0,0,0,0,0,0,0,0,0,0,0,0,0,0,0,0,0,0,0,0,0,0,0,0,0,0,0,0,0,0,13.9148511886597,13.8254070281982,13.7370691299438,13.649845123291,13.5637216567993,13.4786777496338,13.3946943283081,13.307957649231,13.2238368988037,13.1407737731934,13.0587472915649,12.9777383804321,12.8977279663086,12.8186988830566,12.740668296814,12.663893699646,12.5880393981934,12.513087272644,12.4390230178833,12.3658304214478,12.2934942245483,12.221999168396,12.1604557037354,12.1029500961304,12.0446605682373,11.9775714874268,11.9112253189087,11.8456172943115,11.7807445526123,11.7165775299072,11.6735734939575,11.6870307922363,11.7005195617676,11.714038848877,11.7275896072388,11.7411727905273,11.754786491394,11.7684316635132,11.7821073532104,11.7958154678345,11.8095550537109,11.8233270645142,11.8371305465698,11.8509674072266,11.8648357391357,11.8787364959717,11.8926706314087,11.9066371917725,11.920636177063,11.9346685409546,11.9487333297729,11.9628324508667,11.9769639968872,11.9911289215088,12.3754396438599,12.3375282287598,12.2998485565186,12.2623987197876,12.2251758575439,12.188178062439,12.1514043807983,12.1148519515991,12.0785179138184,12.0424013137817,12.0065002441406,11.9708127975464,11.9353361129761,11.9000701904297,11.86501121521,11.8301591873169,11.7955102920532,11.7610645294189,11.7268190383911,11.6927719116211,11.6589221954346,11.5447425842285,11.5041332244873,11.4638071060181,11.4237613677979,11.3839931488037,11.3445014953613,11.3052825927734,11.257532119751,11.1900863647461,11.1253929138184,11.0801439285278,11.0352611541748,10.9907417297363,10.9496593475342,10.9125118255615,10.8781394958496,10.8441705703735,10.8104133605957,10.7810935974121,10.7560186386108,10.7310590744019,10.7062158584595,10.6814870834351,10.6568717956543,10.6323699951172,10.6079807281494,10.5739555358887,10.5398731231689,10.5060091018677,10.4723615646362,10.4389295578003,10.4057102203369,10.3727006912231,10.3399000167847,10.3073053359985,10.288197517395,10.2901830673218,10.2921686172485,10.2941551208496,10.2961416244507,10.2981300354004,10.3001184463501,10.3021078109741,10.3040981292725,10.3060894012451,10.3080806732178,10.3100738525391,10.3120670318604,10.314061164856,10.3160552978516,10.3180513381958,10.32004737854,10.3220443725586,10.3240423202515,10.3260412216187,10.3280410766602,10.3300409317017,10.3320426940918,10.3340444564819,10.3360462188721,10.3414859771729,10.3486251831055,10.3557739257812,10.3629331588745,10.3701019287109,10.3641004562378,10.3554697036743,10.3468542098999,10.3382520675659,10.3296642303467,10.3210906982422,10.3125314712524,10.3039865493774,10.2954549789429,10.2869386672974,10.2784357070923,10.269947052002,10.2614727020264,10.2530117034912,10.2445650100708,10.2361316680908,10.2277126312256,10.2193078994751,10.210916519165,10.2025384902954,10.1941747665405,10.1858243942261,10.1774883270264,10.1691656112671,10.1608562469482,10.1525602340698,10.1442785263062,10.1360101699829,10.1277542114258,10.1195125579834,10.1112842559814,10.1030693054199,10.0948677062988,10.0866794586182,10.0785045623779,10.0703430175781,10.0621938705444,10.0540590286255,10.0459365844727,10.0378274917603,10.029730796814,10.0216484069824,10.013578414917,10.0055208206177,9.99747753143311,9.98931789398193,9.98108959197998,9.97287559509277,9.96467399597168,9.95648574829102,9.9483118057251,9.94015121459961,9.93200302124023,9.92386913299561,9.91574859619141,9.90764045715332
0,0,0,0,0,0,0,0,0,0,0,0,0,0,0,0,0,0,0,0,0,0,0,0,0,0,0,0,0,0,0,0,0,0,0,0,0,0,0,0,0,0,0,0,0,0,0,0,0,0,0,0,0,0,0,0,0,0,0,0,0,0,0,0,0,0,0,0,0,0,0,0,0,0,0,0,0,0,0,0,0,0,0,0,0,0,0,0,0,0,0,0,0,0,0,0,0,0,0,0,0,0,0,0,0,0,0,0,0,0,0,0,0,0,0,0,0,0,0,0,0,0,0,0,0,0,0,0,0,0,0,0,0,0,0,0,0,0,0,0,0,0,0,0,0,0,0,0,0,0,0,0,13.8322763442993,13.7438745498657,13.6565637588501,13.5703554153442,13.4852294921875,13.4011640548706,13.3181400299072,13.2296094894409,13.1464738845825,13.0643758773804,12.9832973480225,12.9032192230225,12.824122428894,12.7459897994995,12.6690320968628,12.5931158065796,12.5181045532227,12.4439811706543,12.3707304000854,12.2983369827271,12.22678565979,12.1607532501221,12.1032447814941,12.0462779998779,11.9827346801758,11.9163312911987,11.8506603240967,11.7857265472412,11.7215061187744,11.6579809188843,11.6388816833496,11.6522588729858,11.6656675338745,11.6791067123413,11.6925773620605,11.7060785293579,11.7196102142334,11.7331733703613,11.7467670440674,11.7603931427002,11.7740497589111,11.7877397537231,11.8014602661133,11.8152132034302,11.8289985656738,11.8428153991699,11.8566646575928,11.8705463409424,11.8844614028931,11.8984079360962,11.9123878479004,11.9264011383057,11.9404468536377,11.9545259475708,12.3001623153687,12.2627105712891,12.2254858016968,12.1884870529175,12.1517105102539,12.1151561737061,12.0788202285767,12.0427026748657,12.006799697876,11.9711103439331,11.9356317520142,11.9003639221191,11.8653039932251,11.8304491043091,11.7957992553711,11.7613515853882,11.7271041870117,11.6930551528931,11.6592044830322,11.5621547698975,11.5214223861694,11.4809761047363,11.4408121109009,11.4009256362915,11.3613166809082,11.3219814300537,11.2829179763794,11.2219181060791,11.154896736145,11.1019239425659,11.0568656921387,11.012170791626,10.9678363800049,10.9299669265747,10.8938913345337,10.859824180603,10.8259696960449,10.7923259735107,10.7658252716064,10.7408208847046,10.715931892395,10.6911582946777,10.6664991378784,10.6419525146484,10.6175193786621,10.5885629653931,10.554386138916,10.5204296112061,10.4866895675659,10.4531660079956,10.4198570251465,10.3867588043213,10.3538684844971,10.3211860656738,10.2887086868286,10.2863454818726,10.288330078125,10.2903146743774,10.2923002243042,10.2942867279053,10.2962741851807,10.2982616424561,10.3002500534058,10.3022403717041,10.3042306900024,10.3062210083008,10.3082132339478,10.3102054595947,10.312198638916,10.3141927719116,10.3161878585815,10.3181838989258,10.32017993927,10.3221769332886,10.3241748809814,10.3261737823486,10.3281736373901,10.3301734924316,10.3321752548218,10.3341770172119,10.3396606445312,10.3467979431152,10.3539438247681,10.3611001968384,10.3550748825073,10.3464593887329,10.3378572463989,10.329270362854,10.3206977844238,10.3121395111084,10.3035945892334,10.2950639724731,10.286548614502,10.2780456542969,10.2695579528809,10.2610836029053,10.2526235580444,10.2441778182983,10.2357454299927,10.2273273468018,10.2189226150513,10.2105321884155,10.2021551132202,10.1937913894653,10.1854419708252,10.1771059036255,10.1687841415405,10.160475730896,10.1521806716919,10.1438989639282,10.135630607605,10.1273765563965,10.1191349029541,10.1109075546265,10.1026935577393,10.0944919586182,10.0863046646118,10.0781297683716,10.0699691772461,10.0618209838867,10.0536861419678,10.0455646514893,10.0374555587769,10.0293598175049,10.0212774276733,10.0132083892822,10.0051517486572,9.99710845947266,9.9890775680542,9.98106002807617,9.97305583953857,9.96506309509277,9.95699691772461,9.94882106781006,9.94065952301025,9.93251132965088,9.92437648773193,9.91625499725342,9.90814590454102,9.90005111694336,9.89196872711182,9.8838996887207
0,0,0,0,0,0,0,0,0,0,0,0,0,0,0,0,0,0,0,0,0,0,0,0,0,0,0,0,0,0,0,0,0,0,0,0,0,0,0,0,0,0,0,0,0,0,0,0,0,0,0,0,0,0,0,0,0,0,0,0,0,0,0,0,0,0,0,0,0,0,0,0,0,0,0,0,0,0,0,0,0,0,0,0,0,0,0,0,0,0,0,0,0,0,0,0,0,0,0,0,0,0,0,0,0,0,0,0,0,0,0,0,0,0,0,0,0,0,0,0,0,0,0,0,0,0,0,0,0,0,0,0,0,0,0,0,0,0,0,0,0,0,0,0,0,0,0,0,0,0,0,13.8391532897949,13.7506761550903,13.6632890701294,13.5769968032837,13.4917869567871,13.4076404571533,13.3245363235474,13.2353868484497,13.1521787643433,13.0700101852417,12.9888620376587,12.9087152481079,12.8295516967773,12.7513523101807,12.6741752624512,12.5981969833374,12.5231246948242,12.4489421844482,12.3756332397461,12.3031826019287,12.231575012207,12.1610507965088,12.1035394668579,12.0465698242188,11.9879026412964,11.9214420318604,11.8557147979736,11.7907123565674,11.7264375686646,11.662859916687,11.599967956543,11.604395866394,11.617693901062,11.6310224533081,11.6443824768066,11.6577730178833,11.6711931228638,11.6846437454224,11.6981258392334,11.7116384506226,11.7251825332642,11.7387580871582,11.7523651123047,11.7660045623779,11.7796745300293,11.7933769226074,11.807110786438,11.8208770751953,11.8346748352051,11.8485050201416,11.8623676300049,11.8762636184692,11.890191078186,11.9041519165039,12.2630224227905,12.2257966995239,12.1887950897217,12.1520166397095,12.115460395813,12.0791234970093,12.0430030822754,12.007098197937,11.9714078903198,11.9359273910522,11.9006576538086,11.8655958175659,11.8307399749756,11.7960872650146,11.7616376876831,11.7273893356323,11.6933393478394,11.6594867706299,11.625828742981,11.538763999939,11.4981956481934,11.4579124450684,11.4179077148438,11.3781814575195,11.3387298583984,11.2995500564575,11.2539329528809,11.1865291595459,11.1237897872925,11.0785541534424,11.0336847305298,10.9891767501831,10.9474782943726,10.910346031189,10.8755235671997,10.8415718078613,10.8078308105469,10.7756500244141,10.750599861145,10.7256660461426,10.7008466720581,10.6761426925659,10.6515531539917,10.6270751953125,10.602710723877,10.5689401626587,10.5348892211914,10.5010576248169,10.4674415588379,10.4340410232544,10.4008531570435,10.3678750991821,10.3351039886475,10.3025398254395,10.2825107574463,10.2844934463501,10.2864770889282,10.2884616851807,10.2904462814331,10.2924318313599,10.2944183349609,10.2964057922363,10.2983932495117,10.3003826141357,10.3023719787598,10.3043622970581,10.3063535690308,10.3083448410034,10.3103380203247,10.312331199646,10.3143253326416,10.3163204193115,10.3183164596558,10.3203125,10.3223094940186,10.3243074417114,10.3263063430786,10.3283061981201,10.3303070068359,10.3323078155518,10.337836265564,10.344970703125,10.3521146774292,10.3460645675659,10.3374633789062,10.3288774490356,10.3203048706055,10.31174659729,10.3032035827637,10.2946739196777,10.2861585617065,10.2776565551758,10.2691688537598,10.2606954574585,10.252236366272,10.2437906265259,10.2353591918945,10.2269411087036,10.2185373306274,10.210147857666,10.2017707824707,10.1934089660645,10.1850595474243,10.1767244338989,10.168402671814,10.1600952148438,10.1518001556396,10.1435194015503,10.1352519989014,10.1269979476929,10.1187572479248,10.1105308532715,10.1023168563843,10.0941162109375,10.0859298706055,10.0777549743652,10.0695953369141,10.0614471435547,10.0533132553101,10.0451927185059,10.0370845794678,10.0289897918701,10.0209074020386,10.0128383636475,10.0047826766968,9.99674034118652,9.98871040344238,9.98069286346436,9.97268867492676,9.96469783782959,9.95671844482422,9.94875335693359,9.94079971313477,9.93285942077637,9.92488384246826,9.91676139831543,9.90865135192871,9.90055561065674,9.8924732208252,9.88440322875977,9.87634658813477,9.8683032989502,9.86027336120605
0,0,0,0,0,0,0,0,0,0,0,0,0,0,0,0,0,0,0,0,0,0,0,0,0,0,0,0,0,0,0,0,0,0,0,0,0,0,0,0,0,0,0,0,0,0,0,0,0,0,0,0,0,0,0,0,0,0,0,0,0,0,0,0,0,0,0,0,0,0,0,0,0,0,0,0,0,0,0,0,0,0,0,0,0,0,0,0,0,0,0,0,0,0,0,0,0,0,0,0,0,0,0,0,0,0,0,0,0,0,0,0,0,0,0,0,0,0,0,0,0,0,0,0,0,0,0,0,0,0,0,0,0,0,0,0,0,0,0,0,0,0,0,0,0,0,0,0,0,0,0,13.757472038269,13.6700220108032,13.583643913269,13.4983510971069,13.4141225814819,13.3309392929077,13.248327255249,13.1578893661499,13.0756492614746,12.9944314956665,12.9142160415649,12.8349847793579,12.7567195892334,12.679404258728,12.6032829284668,12.5281496047974,12.4539079666138,12.3805408477783,12.3080320358276,12.2363691329956,12.1655349731445,12.1038341522217,12.0468626022339,11.9904232025146,11.9265575408936,11.8607730865479,11.795711517334,11.7313737869263,11.667742729187,11.6047973632812,11.5569229125977,11.5701131820679,11.5833330154419,11.596583366394,11.60986328125,11.6231737136841,11.636513710022,11.6498851776123,11.6632871627808,11.676718711853,11.6901826858521,11.7036771774292,11.7172031402588,11.7307605743408,11.744348526001,11.7579689025879,11.7716207504272,11.785304069519,11.7990188598633,11.8127660751343,11.826545715332,11.8403568267822,11.8542003631592,11.8680772781372,12.1891031265259,12.1523237228394,12.1157655715942,12.0794258117676,12.0433044433594,12.0073976516724,11.9717044830322,11.9362230300903,11.900951385498,11.8658876419067,11.8310298919678,11.7963762283325,11.7619247436523,11.7276744842529,11.6936225891113,11.6597681045532,11.62610912323,11.5561580657959,11.5154676437378,11.4750633239746,11.4349412918091,11.3950958251953,11.3555269241333,11.3162326812744,11.2772083282471,11.2183418273926,11.1513624191284,11.1003274917603,11.0552825927734,11.0106010437012,10.9662790298462,10.9277944564819,10.8912677764893,10.8572177886963,10.8233795166016,10.7897520065308,10.7603969573975,10.7354173660278,10.7105531692505,10.6858043670654,10.6611700057983,10.6366481781006,10.6122398376465,10.5835332870483,10.549388885498,10.5154638290405,10.4817562103271,10.4482641220093,10.4149856567383,10.3819189071655,10.3490591049194,10.3164072036743,10.2839603424072,10.2806606292725,10.282642364502,10.2846250534058,10.2866086959839,10.2885932922363,10.2905778884888,10.2925634384155,10.2945499420166,10.296537399292,10.2985258102417,10.3005142211914,10.3025035858154,10.3044939041138,10.3064851760864,10.3084774017334,10.3104696273804,10.312463760376,10.3144578933716,10.3164529800415,10.3184480667114,10.32044506073,10.3224420547485,10.3244400024414,10.3264389038086,10.3284387588501,10.3304395675659,10.336012840271,10.3431444168091,10.3370695114136,10.328483581543,10.3199119567871,10.311354637146,10.3028116226196,10.294282913208,10.2857675552368,10.2772674560547,10.268780708313,10.2603073120117,10.2518491744995,10.2434034347534,10.2349729537964,10.2265558242798,10.2181529998779,10.2097635269165,10.2013874053955,10.1930255889893,10.1846771240234,10.1763429641724,10.1680212020874,10.1597146987915,10.1514205932617,10.1431398391724,10.1348733901978,10.1266202926636,10.1183805465698,10.1101541519165,10.1019411087036,10.0937404632568,10.0855541229248,10.0773811340332,10.069221496582,10.061074256897,10.0529403686523,10.0448198318481,10.0367126464844,10.028618812561,10.0205373764038,10.012469291687,10.0044136047363,9.99637126922607,9.98834228515625,9.98032569885254,9.97232246398926,9.96433162689209,9.95635318756104,9.94838809967041,9.9404354095459,9.93249607086182,9.92456817626953,9.91665363311768,9.90875244140625,9.90086269378662,9.89297676086426,9.88490676879883,9.87684917449951,9.86880493164062,9.86077404022217,9.85275554656982,9.84475135803223,9.83675861358643
0,0,0,0,0,0,0,0,0,0,0,0,0,0,0,0,0,0,0,0,0,0,0,0,0,0,0,0,0,0,0,0,0,0,0,0,0,0,0,0,0,0,0,0,0,0,0,0,0,0,0,0,0,0,0,0,0,0,0,0,0,0,0,0,0,0,0,0,0,0,0,0,0,0,0,0,0,0,0,0,0,0,0,0,0,0,0,0,0,0,0,0,0,0,0,0,0,0,0,0,0,0,0,0,0,0,0,0,0,0,0,0,0,0,0,0,0,0,0,0,0,0,0,0,0,0,0,0,0,0,0,0,0,0,0,0,0,0,0,0,0,0,0,0,0,0,0,0,0,0,13.7642736434937,13.6767492294312,13.5902976989746,13.504921913147,13.4206113815308,13.337347984314,13.2551107406616,13.1636037826538,13.0812931060791,13.0000047683716,12.9197206497192,12.8404226303101,12.7620916366577,12.6847105026245,12.6083717346191,12.5331783294678,12.4588775634766,12.3854513168335,12.3128862380981,12.2411661148071,12.1702766418457,12.1041297912598,12.0471544265747,11.9907131195068,11.931676864624,11.865837097168,11.8007192611694,11.7363138198853,11.6726293563843,11.6096315383911,11.5473108291626,11.5229206085205,11.5360326766968,11.5491752624512,11.5623464584351,11.5755481719971,11.5887794494629,11.6020402908325,11.6153326034546,11.6286544799805,11.6420078277588,11.6553907394409,11.6688051223755,11.6822509765625,11.6957273483276,11.7092342376709,11.7227725982666,11.7363433837891,11.7499446868896,11.7635774612427,11.7772426605225,11.7909383773804,11.8046674728394,11.8184270858765,11.8322200775146,12.1160697937012,12.0797290802002,12.043604850769,12.0076971054077,11.9720020294189,11.9365186691284,11.9012460708618,11.8661804199219,11.8313207626343,11.7966651916504,11.7622117996216,11.7279605865479,11.6939067840576,11.6600503921509,11.626389503479,11.5929231643677,11.5327911376953,11.4922657012939,11.4520225524902,11.4120607376099,11.3723745346069,11.3329629898071,11.2938241958618,11.2503356933594,11.1829748153687,11.1221876144409,11.0769643783569,11.0321083068848,10.9876136779785,10.9452991485596,10.908182144165,10.8729095458984,10.8389730453491,10.805248260498,10.7717332839966,10.7451868057251,10.7202777862549,10.695484161377,10.6708040237427,10.6462383270264,10.6217861175537,10.5974454879761,10.563928604126,10.5299100875854,10.4961099624634,10.4625263214111,10.4291572570801,10.3959999084473,10.3630533218384,10.3303127288818,10.2977781295776,10.2768306732178,10.2788105010986,10.2807922363281,10.2827739715576,10.2847566604614,10.2867403030396,10.288724899292,10.2907094955444,10.2926950454712,10.2946815490723,10.2966690063477,10.2986574172974,10.3006467819214,10.3026361465454,10.3046264648438,10.3066177368164,10.3086099624634,10.3106021881104,10.3125953674316,10.3145904541016,10.3165855407715,10.3185806274414,10.32057762146,10.3225746154785,10.3245725631714,10.3265714645386,10.3285713195801,10.334189414978,10.3280906677246,10.3195199966431,10.310962677002,10.3024206161499,10.2938919067383,10.2853775024414,10.2768774032593,10.2683916091919,10.2599191665649,10.2514610290527,10.2430171966553,10.2345867156982,10.226170539856,10.2177677154541,10.209379196167,10.2010040283203,10.1926422119141,10.1842947006226,10.1759605407715,10.1676406860352,10.1593341827393,10.1510400772095,10.1427612304688,10.1344947814941,10.12624168396,10.1180028915405,10.1097764968872,10.1015644073486,10.0933647155762,10.0851793289185,10.0770063400269,10.06884765625,10.0607013702393,10.0525684356689,10.0444478988647,10.0363416671753,10.028247833252,10.020167350769,10.0120992660522,10.0040445327759,9.99600315093994,9.98797416687012,9.97995853424072,9.97195529937744,9.96396541595459,9.95598793029785,9.94802284240723,9.94007110595703,9.93213176727295,9.9242057800293,9.91629123687744,9.90839004516602,9.9005012512207,9.89262580871582,9.88476181030273,9.87691020965576,9.86907196044922,9.86124515533447,9.85325622558594,9.84525012969971,9.83725738525391,9.82927703857422,9.82131099700928,9.81335639953613
0,0,0,0,0,0,0,0,0,0,0,0,0,0,0,0,0,0,0,0,0,0,0,0,0,0,0,0,0,0,0,0,0,0,0,0,0,0,0,0,0,0,0,0,0,0,0,0,0,0,0,0,0,0,0,0,0,0,0,0,0,0,0,0,0,0,0,0,0,0,0,0,0,0,0,0,0,0,0,0,0,0,0,0,0,0,0,0,0,0,0,0,0,0,0,0,0,0,0,0,0,0,0,0,0,0,0,0,0,0,0,0,0,0,0,0,0,0,0,0,0,0,0,0,0,0,0,0,0,0,0,0,0,0,0,0,0,0,0,0,0,0,0,0,0,0,0,0,0,13.7710828781128,13.6834716796875,13.5969581604004,13.5114994049072,13.4271068572998,13.3437623977661,13.2614469528198,13.1776475906372,13.0869417190552,13.0055837631226,12.9252309799194,12.8458652496338,12.7674684524536,12.6900215148926,12.6135101318359,12.5382118225098,12.4638509750366,12.3903665542603,12.3177433013916,12.2459669113159,12.1750221252441,12.1048946380615,12.0474462509155,11.9910020828247,11.9350843429565,11.870903968811,11.8057317733765,11.7412700653076,11.6775197982788,11.6144704818726,11.5520973205566,11.4903907775879,11.4891176223755,11.5021524429321,11.5152177810669,11.5283107757568,11.5414342880249,11.5545873641968,11.5677709579468,11.5809841156006,11.5942277908325,11.6075019836426,11.6208057403564,11.6341409683228,11.6475057601929,11.6609020233154,11.6743297576904,11.6877870559692,11.7012767791748,11.7147970199585,11.7283487319946,11.7419309616089,11.7555456161499,11.7691917419434,11.7828693389893,11.7965793609619,12.043906211853,12.0079956054688,11.9722995758057,11.9368143081665,11.9015398025513,11.8664722442627,11.8316106796265,11.7969541549683,11.7624998092651,11.7282457351685,11.6941909790039,11.6603326797485,11.6266708374023,11.5932016372681,11.5501670837402,11.5095195770264,11.4691562652588,11.4290752410889,11.389271736145,11.3497438430786,11.3104887008667,11.2715044021606,11.2147674560547,11.1478309631348,11.0987319946289,11.0536994934082,11.0090312957764,10.9647216796875,10.9256229400635,10.8886461257935,10.8546123504639,10.8207902908325,10.7871780395508,10.7549734115601,10.730019569397,10.7051801681519,10.680456161499,10.6558465957642,10.6313495635986,10.6069650650024,10.5785083770752,10.5443964004517,10.5105037689209,10.47682762146,10.4433670043945,10.410120010376,10.377082824707,10.3442554473877,10.3116331100464,10.2792167663574,10.2749814987183,10.2769613265991,10.2789421081543,10.2809238433838,10.2829055786133,10.2848882675171,10.2868719100952,10.2888565063477,10.2908411026001,10.2928266525269,10.2948141098022,10.2968015670776,10.298789024353,10.3007783889771,10.3027677536011,10.3047580718994,10.3067493438721,10.308741569519,10.3107347488403,10.3127279281616,10.3147220611572,10.3167171478271,10.3187131881714,10.3207101821899,10.3227071762085,10.3247051239014,10.3267040252686,10.3191270828247,10.3105707168579,10.3020296096802,10.2935018539429,10.284987449646,10.2764883041382,10.2680025100708,10.2595310211182,10.2510738372803,10.2426300048828,10.2342004776001,10.2257843017578,10.2173824310303,10.2089948654175,10.2006196975708,10.1922597885132,10.1839122772217,10.1755790710449,10.1672592163086,10.158953666687,10.1506605148315,10.1423816680908,10.1341161727905,10.1258640289307,10.1176252365112,10.1093997955322,10.1011877059937,10.0929889678955,10.0848045349121,10.0766324996948,10.068473815918,10.0603275299072,10.0521955490112,10.0440759658813,10.0359697341919,10.0278768539429,10.01979637146,10.0117301940918,10.0036754608154,9.99563503265381,9.98760604858398,9.97959136962891,9.97158908843994,9.96359920501709,9.95562267303467,9.94765853881836,9.93970680236816,9.9317684173584,9.92384243011475,9.91592884063721,9.9080286026001,9.90013980865479,9.8922643661499,9.88440132141113,9.87655067443848,9.86871242523193,9.8608865737915,9.8530740737915,9.8452730178833,9.83748435974121,9.82970809936523,9.82180690765381,9.81385231018066,9.80591106414795,9.79798126220703,9.79006576538086
0,0,0,0,0,0,0,0,0,0,0,0,0,0,0,0,0,0,0,0,0,0,0,0,0,0,0,0,0,0,0,0,0,0,0,0,0,0,0,0,0,0,0,0,0,0,0,0,0,0,0,0,0,0,0,0,0,0,0,0,0,0,0,0,0,0,0,0,0,0,0,0,0,0,0,0,0,0,0,0,0,0,0,0,0,0,0,0,0,0,0,0,0,0,0,0,0,0,0,0,0,0,0,0,0,0,0,0,0,0,0,0,0,0,0,0,0,0,0,0,0,0,0,0,0,0,0,0,0,0,0,0,0,0,0,0,0,0,0,0,0,0,0,0,0,0,0,0,0,13.6902008056641,13.6036128997803,13.5180826187134,13.4336080551147,13.3501834869385,13.2677888870239,13.1864042282104,13.093147277832,13.0111675262451,12.9307460784912,12.8513126373291,12.7728490829468,12.6953372955322,12.6187620162964,12.5432481765747,12.4688282012939,12.3952856063843,12.3226051330566,12.250771522522,12.1797714233398,12.1095895767212,12.0477380752563,11.9912910461426,11.9353713989258,11.8759765625,11.8107481002808,11.7462320327759,11.6824169158936,11.619312286377,11.5568876266479,11.4951305389404,11.4425821304321,11.455512046814,11.4684705734253,11.4814577102661,11.4944753646851,11.5075216293335,11.5205974578857,11.5337028503418,11.546838760376,11.560004234314,11.5731992721558,11.58642578125,11.5996809005737,11.6129674911499,11.6262845993042,11.6396322250366,11.6530094146729,11.6664190292358,11.6798582077026,11.6933298110962,11.7068309783936,11.7203645706177,11.7339286804199,11.7475242614746,12.0082950592041,11.9725971221924,11.9371099472046,11.9018335342407,11.8667640686035,11.831901550293,11.7972431182861,11.7627868652344,11.7285308837891,11.6944742202759,11.6606149673462,11.6269512176514,11.5934810638428,11.5602025985718,11.5268249511719,11.4863405227661,11.4461393356323,11.4062194824219,11.3665742874146,11.327202796936,11.2881031036377,11.2467403411865,11.1794233322144,11.1205854415894,11.0753755569458,11.0305318832397,10.9860496520996,10.9431209564209,10.9060182571411,10.8702964782715,10.8363761901855,10.8026676177979,10.7691688537598,10.7397785186768,10.7148942947388,10.6901254653931,10.6654710769653,10.6409301757812,10.6165018081665,10.5921850204468,10.5589227676392,10.5249366760254,10.4911680221558,10.457615852356,10.4242782592773,10.3911514282227,10.3582353591919,10.3255252838135,10.2930221557617,10.2711563110352,10.2731342315674,10.2751131057739,10.2770929336548,10.27907371521,10.2810544967651,10.2830371856689,10.2850198745728,10.2870035171509,10.2889881134033,10.2909727096558,10.2929592132568,10.2949457168579,10.2969331741333,10.298921585083,10.3009099960327,10.3029003143311,10.3048906326294,10.3068819046021,10.308874130249,10.310866355896,10.3128604888916,10.3148546218872,10.3168497085571,10.3188457489014,10.3208427429199,10.3187341690063,10.3101787567139,10.3016376495361,10.2931108474731,10.2845973968506,10.2760992050171,10.267614364624,10.2591428756714,10.2506866455078,10.2422437667847,10.233814239502,10.225399017334,10.2169981002808,10.208610534668,10.2002363204956,10.191876411438,10.1835298538208,10.1751976013184,10.166877746582,10.1585721969604,10.1502809524536,10.1420021057129,10.1337375640869,10.1254854202271,10.1172475814819,10.1090230941772,10.100811958313,10.0926141738892,10.0844297409058,10.0762577056885,10.0680999755859,10.0599546432495,10.0518226623535,10.0437040328979,10.0355987548828,10.0275058746338,10.0194263458252,10.011360168457,10.003306388855,9.99526596069336,9.98723888397217,9.97922420501709,9.97122192382812,9.96323299407959,9.95525646209717,9.94729328155518,9.9393424987793,9.93140506744385,9.9234790802002,9.91556644439697,9.90766620635986,9.89977836608887,9.8919038772583,9.88404083251953,9.87619113922119,9.86835384368896,9.86052799224854,9.85271549224854,9.84491539001465,9.83712768554688,9.8293514251709,9.82158851623535,9.8138370513916,9.80609798431396,9.79837131500244,9.79055881500244,9.78265476226807,9.7747631072998,9.76688385009766
0,0,0,0,0,0,0,0,0,0,0,0,0,0,0,0,0,0,0,0,0,0,0,0,0,0,0,0,0,0,0,0,0,0,0,0,0,0,0,0,0,0,0,0,0,0,0,0,0,0,0,0,0,0,0,0,0,0,0,0,0,0,0,0,0,0,0,0,0,0,0,0,0,0,0,0,0,0,0,0,0,0,0,0,0,0,0,0,0,0,0,0,0,0,0,0,0,0,0,0,0,0,0,0,0,0,0,0,0,0,0,0,0,0,0,0,0,0,0,0,0,0,0,0,0,0,0,0,0,0,0,0,0,0,0,0,0,0,0,0,0,0,0,0,0,0,0,0,13.6969366073608,13.6102638244629,13.5246725082397,13.4401159286499,13.3566102981567,13.2741365432739,13.1926746368408,13.1077175140381,13.0167560577393,12.9362649917603,12.8567638397217,12.7782344818115,12.7006578445435,12.6240177154541,12.5482969284058,12.4738092422485,12.4002075195312,12.3274698257446,12.2555809020996,12.1845245361328,12.1142883300781,12.0480298995972,11.9915809631348,11.9356575012207,11.8802537918091,11.8157682418823,11.7511978149414,11.6873292922974,11.6241588592529,11.5616817474365,11.4998731613159,11.4387226104736,11.4092473983765,11.4221019744873,11.4349842071533,11.4478960037231,11.4608364105225,11.4738063812256,11.4868059158325,11.4998350143433,11.5128936767578,11.5259819030762,11.5390996932983,11.5522480010986,11.5654249191284,11.5786333084106,11.5918712615967,11.6051397323608,11.6184387207031,11.6317682266235,11.6451282501221,11.6585187911987,11.6719408035278,11.6853933334351,11.6988763809204,11.7123908996582,11.9374055862427,11.9021272659302,11.8670568466187,11.8321924209595,11.7975311279297,11.7630739212036,11.7288160324097,11.6947584152222,11.6608972549438,11.6272315979004,11.5937595367432,11.5604801177979,11.5273914337158,11.4944906234741,11.4617776870728,11.4232158660889,11.3834543228149,11.3439664840698,11.3047513961792,11.2658061981201,11.2111949920654,11.1443014144897,11.0971374511719,11.0521173477173,11.0074615478516,10.9631652832031,10.9234523773193,10.8864831924438,10.8520078659058,10.8182020187378,10.7846059799194,10.7512187957764,10.7246265411377,10.6998128890991,10.6751136779785,10.6505279541016,10.6260557174683,10.60169506073,10.5734882354736,10.5394086837769,10.5055475234985,10.4719038009644,10.4384746551514,10.4052581787109,10.3722524642944,10.3394556045532,10.30686378479,10.2744770050049,10.2693090438843,10.2712869644165,10.2732648849487,10.2752447128296,10.2772245407104,10.2792053222656,10.2811861038208,10.2831687927246,10.2851514816284,10.2871351242065,10.289119720459,10.2911043167114,10.2930908203125,10.2950773239136,10.297064781189,10.2990531921387,10.3010425567627,10.3030319213867,10.3050222396851,10.3070135116577,10.3090057373047,10.310998916626,10.3129920959473,10.3149871826172,10.3169822692871,10.3097867965698,10.3012466430664,10.2927198410034,10.2842073440552,10.2757091522217,10.2672252655029,10.2587547302246,10.250298500061,10.2418565750122,10.2334280014038,10.2250137329102,10.2166128158569,10.2082262039185,10.1998529434204,10.1914930343628,10.1831474304199,10.1748151779175,10.1664972305298,10.1581916809082,10.1499004364014,10.141622543335,10.1333589553833,10.1251077651978,10.1168699264526,10.1086463928223,10.100435256958,10.0922384262085,10.0840539932251,10.0758838653564,10.0677261352539,10.0595817565918,10.0514507293701,10.0433320999146,10.0352268218994,10.0271348953247,10.0190563201904,10.0109910964966,10.0029382705688,9.99489784240723,9.98687076568604,9.97885704040527,9.97085571289062,9.96286678314209,9.95489120483398,9.94692802429199,9.93897819519043,9.93104076385498,9.92311573028564,9.91520404815674,9.90730476379395,9.89941692352295,9.89154243469238,9.88368129730225,9.87583160400391,9.86799430847168,9.86017036437988,9.85235786437988,9.844557762146,9.83677005767822,9.82899570465088,9.82123279571533,9.8134822845459,9.80574321746826,9.79801750183105,9.79030323028564,9.78260135650635,9.77491188049316,9.76723384857178,9.75950908660889,9.75165462493896,9.74381256103516
0,0,0,0,0,0,0,0,0,0,0,0,0,0,0,0,0,0,0,0,0,0,0,0,0,0,0,0,0,0,0,0,0,0,0,0,0,0,0,0,0,0,0,0,0,0,0,0,0,0,0,0,0,0,0,0,0,0,0,0,0,0,0,0,0,0,0,0,0,0,0,0,0,0,0,0,0,0,0,0,0,0,0,0,0,0,0,0,0,0,0,0,0,0,0,0,0,0,0,0,0,0,0,0,0,0,0,0,0,0,0,0,0,0,0,0,0,0,0,0,0,0,0,0,0,0,0,0,0,0,0,0,0,0,0,0,0,0,0,0,0,0,0,0,0,0,0,0,13.6169214248657,13.5312538146973,13.4466304779053,13.3630437850952,13.2804908752441,13.1989507675171,13.1184062957764,13.0241088867188,12.9417896270752,12.8622207641602,12.7836246490479,12.7059831619263,12.6292781829834,12.5534944534302,12.4787950515747,12.4051342010498,12.3323392868042,12.2603931427002,12.189281463623,12.118989944458,12.0495042800903,11.9918699264526,11.9359445571899,11.8805379867554,11.8207931518555,11.7561674118042,11.6922454833984,11.6290140151978,11.5664806365967,11.504620552063,11.4434194564819,11.3828649520874,11.376106262207,11.3888854980469,11.4016933441162,11.414529800415,11.4273948669434,11.4402894973755,11.4532127380371,11.4661655426025,11.4791479110718,11.4921588897705,11.5052003860474,11.5182704925537,11.5313711166382,11.5445013046265,11.5576620101929,11.5708522796631,11.5840721130371,11.5973224639893,11.6106033325195,11.6239147186279,11.6372575759888,11.6506299972534,11.6640329360962,11.6774673461914,11.8673486709595,11.8324823379517,11.7978200912476,11.7633609771729,11.7291021347046,11.6950416564941,11.6611795425415,11.6275119781494,11.5940389633179,11.5607576370239,11.5276670455933,11.4947652816772,11.4620504379272,11.4295215606689,11.3971767425537,11.3607797622681,11.3214483261108,11.2823886871338,11.2431478500366,11.1758737564087,11.1189842224121,11.073787689209,11.028956413269,10.9844875335693,10.9409427642822,10.9038553237915,10.8676843643188,10.8337812423706,10.8000888824463,10.7666053771973,10.7343759536743,10.7095174789429,10.6847734451294,10.6601428985596,10.6356267929077,10.6112222671509,10.5869302749634,10.5539207458496,10.5199670791626,10.4862308502197,10.4527101516724,10.4194030761719,10.3863077163696,10.353422164917,10.320743560791,10.2882690429688,10.2654876708984,10.267463684082,10.2694406509399,10.2714185714722,10.2733964920044,10.2753753662109,10.2773551940918,10.279335975647,10.2813177108765,10.283299446106,10.2852830886841,10.2872667312622,10.2892513275146,10.2912359237671,10.2932224273682,10.2952089309692,10.2971963882446,10.2991847991943,10.3011741638184,10.3031635284424,10.305154800415,10.3071460723877,10.3091382980347,10.311131477356,10.3093948364258,10.3008556365967,10.292329788208,10.2838182449341,10.2753200531006,10.2668371200562,10.2583675384521,10.2499113082886,10.2414703369141,10.2330417633057,10.2246284484863,10.2162284851074,10.2078418731689,10.1994695663452,10.1911106109619,10.182765007019,10.1744337081909,10.1661157608032,10.157811164856,10.1495208740234,10.1412439346313,10.1329803466797,10.1247301101685,10.1164932250977,10.1082696914673,10.1000595092773,10.0918626785278,10.0836791992188,10.0755090713501,10.0673522949219,10.0592079162598,10.0510778427124,10.0429601669312,10.0348558425903,10.0267648696899,10.0186862945557,10.0106210708618,10.0025691986084,9.99452972412109,9.9865026473999,9.97848987579346,9.97048950195312,9.96250057220459,9.9545259475708,9.94656372070312,9.93861389160156,9.93067741394043,9.92275333404541,9.9148416519165,9.90694236755371,9.89905643463135,9.89118194580078,9.88332080841064,9.87547206878662,9.86763572692871,9.85981178283691,9.85200023651123,9.84420108795166,9.8364143371582,9.82863903045654,9.82087707519531,9.81312656402588,9.80538940429688,9.79766368865967,9.78995037078857,9.78224849700928,9.77455902099609,9.76688289642334,9.75921726226807,9.75156402587891,9.74392318725586,9.73629379272461,9.7286548614502,9.72084999084473
