17.3430709838867,17.3441963195801,17.3453254699707,17.3464508056641,17.3475780487061,17.3487014770508,17.3498249053955,17.3509521484375,17.3520774841309,17.3532047271729,17.3543319702148,17.3554573059082,17.3565845489502,17.3577098846436,17.3588371276855,17.3599662780762,17.3610897064209,17.3622226715088,17.3633480072021,17.3644733428955,17.3656005859375,17.3667316436768,17.3678588867188,17.3689861297607,17.3701114654541,17.3712463378906,17.3723754882812,17.3735027313232,17.3746280670166,17.3757553100586,17.3768901824951,17.3780174255371,17.379150390625,17.3802795410156,17.381404876709,17.3825340270996,17.3836650848389,17.3847961425781,17.3859233856201,17.3870544433594,17.3881893157959,17.3893222808838,17.3904514312744,17.391580581665,17.3927116394043,17.3938426971436,17.3949775695801,17.3961048126221,17.3972396850586,17.3983726501465,17.3995056152344,17.4006366729736,17.4017696380615,17.402904510498,17.4040355682373,17.4051628112793,17.4062957763672,17.407434463501,17.4085674285889,17.4096984863281,17.410831451416,17.4119663238525,17.4131011962891,17.414234161377,17.4153690338135,17.4165058135986,17.4176387786865,17.4187717437744,17.4199085235596,17.4210472106934,17.4221782684326,17.4233150482178,17.4244499206543,17.4255867004395,17.4267196655273,17.4278564453125,17.4289951324463,17.4301261901855,17.4312648773193,17.4323997497559,17.4335384368896,17.4346752166748,17.4358100891113,17.4369468688965,17.4380874633789,17.4392223358154,17.440357208252,17.441499710083,17.4426364898682,17.4437732696533,17.4449138641357,17.4460544586182,17.4471893310547,17.4483261108398,17.4494647979736,17.4506072998047,17.4517440795898,17.4528846740723,16.3883571624756,16.3672637939453,16.3462238311768,16.3252372741699,16.3043041229248,16.28342628479,16.2625999450684,16.241828918457,16.2211093902588,16.2004432678223,16.1798305511475,16.1592693328857,14.5875234603882,13.6408643722534,13.6115961074829,13.5824527740479,13.5534343719482,13.5245389938354,13.4957675933838,13.4671173095703,13.4385890960693,13.4101810455322,13.381893157959,13.3537244796753,13.3256740570068,13.2977409362793,13.2699251174927,13.2422256469727,13.2146406173706,13.1871709823608,13.1598148345947,13.1325721740723,13.1054430007935,13.0784244537354,13.0515174865723,13.0247211456299,12.9980344772339,12.97145652771,12.9449872970581,12.9186267852783,12.8923721313477,12.8662242889404,12.840181350708,12.813627243042,12.7871828079224,12.7608470916748,12.734619140625,12.7084989547729,12.6824855804443,12.6565790176392,12.6307773590088,12.6050815582275,12.5794897079468,12.5540018081665,12.5286159515381,12.5033340454102,12.4781532287598,12.4530735015869,12.4280948638916,12.4032154083252,12.378436088562,12.3537549972534,12.3291721343994,12.3046875,12.2803001403809,12.2560081481934,12.2318134307861,12.2077131271362,12.1837072372437,12.1597967147827,12.1359786987305,12.1122550964355,12.088623046875,12.0650835037231,12.0416355133057,12.0182781219482,11.9983978271484,11.9786138534546,11.9588956832886,11.9392423629761,11.9196538925171,11.900128364563,11.8753843307495,11.843918800354,11.8126211166382,11.7814874649048,11.7505178451538,11.7197103500366,11.6890640258789,11.6585779190063,11.6282501220703,11.5980796813965,11.5680656433105,11.5382061004639,11.5085010528564,11.4789476394653,11.4495458602905,11.4202947616577,11.3911924362183,11.3622388839722,11.3334312438965,11.3047695159912,11.2762517929077,11.2478790283203,11.2196474075317,11.191556930542,11.1636075973511,11.1357975006104,11.1081256866455,11.0805902481079,11.0389070510864,10.9255781173706,10.8145532608032,10.7327356338501,10.7291488647461,10.7255620956421,10.7219762802124,10.71839427948,10.7148141860962,10.711236000061,10.7076606750488,10.7040872573853,10.6989316940308,10.6685237884521,10.6382875442505,10.6082220077515,10.5783262252808,10.5485992431641,10.5190382003784,10.4896421432495,10.460410118103,10.4313411712646,10.4024324417114,10.3736839294434,10.3450937271118,10.3166608810425,10.2883834838867,10.2602615356445,10.232292175293,10.204475402832,10.1768093109131,10.1492919921875,10.1219234466553,10.0947027206421,10.0676279067993,10.0406980514526,10.0139112472534,9.98726749420166,9.96076488494873,9.93440246582031,9.90817928314209,9.88209438323975,9.85614585876465,9.83467674255371,9.82344436645508,9.8122386932373,9.80105686187744,9.78990173339844,9.77877140045166,9.76766681671143,9.75658702850342,9.74553298950195,9.7345027923584,9.72349834442139,9.7125186920166,9.70156383514404,9.69063377380371,9.67972755432129,9.66884613037109,9.65798950195312,9.64715766906738,9.63634967803955,9.62556552886963,9.61480522155762,9.60406970977783,9.59335803985596,9.58267021179199,9.57200622558594,9.56136512756348,9.55074882507324,9.5401554107666,9.52958583831787,9.51903915405273,9.50851631164551,9.49801635742188,9.48753929138184,9.47708606719971,9.46665477752686,9.45624732971191,9.44586277008057,9.4355001449585,9.42516136169434,9.41484451293945,9.40455055236816,9.39427852630615,9.38402938842773,9.37380313873291,9.36359786987305,9.35341548919678,9.34325504302979,9.33311748504639,9.32300090789795,9.31290626525879,9.30283355712891,9.2927827835083,9.28275394439697,9.27274703979492,9.26276111602783,9.2527961730957,9.24285316467285,9.23293209075928,9.22303104400635,9.2131519317627,9.20329475402832,9.19345760345459,9.18364143371582,9.17384624481201,9.16407203674316,9.15431880950928,9.14458656311035,9.13487434387207,9.12518310546875,9.11551284790039,9.10586261749268,9.09623241424561,9.08662223815918,9.07703399658203,9.06746482849121,9.05791568756104,9.0483865737915,9.03887844085693,9.02938938140869,9.01992034912109,9.01047134399414,9.00104236602783,8.99163246154785,8.98224258422852,8.97287273406982,8.96352100372314,8.95419025421143,8.94487857818604,8.93558597564697,8.92631244659424,8.91705799102783,8.90782356262207,8.89860820770264,8.88941097259521,0,0,0,0,0,0,0,0,0,0,0,0,0,0,0,0,0,0,0,0,0,0,0,0,0,0,0,0,0,0,0,0,0,0,0,0,0,0,0,0,0,0,0,0,0,0,0,0,0,0,0,0,0,0,0,0,0
17.1873359680176,17.188440322876,17.1895503997803,17.19065284729,17.1917591094971,17.1928596496582,17.1939678192139,17.1950759887695,17.1961841583252,17.1972885131836,17.198392868042,17.1995010375977,17.2006015777588,17.2017097473145,17.2028179168701,17.2039222717285,17.2050342559814,17.2061386108398,17.2072448730469,17.2083549499512,17.2094612121582,17.2105693817139,17.2116737365723,17.2127819061279,17.2138938903809,17.2150058746338,17.2161121368408,17.2172183990479,17.2183246612549,17.2194366455078,17.2205429077148,17.221658706665,17.2227630615234,17.223876953125,17.2249851226807,17.2260932922363,17.2272033691406,17.2283096313477,17.2294216156006,17.2305335998535,17.2316455841064,17.2327537536621,17.2338638305664,17.234977722168,17.236083984375,17.2371978759766,17.2383098602295,17.2394218444824,17.2405338287354,17.2416458129883,17.2427558898926,17.2438697814941,17.2449798583984,17.2460899353027,17.2472076416016,17.2483196258545,17.2494316101074,17.2505416870117,17.2516555786133,17.2527713775635,17.2538814544678,17.2549934387207,17.2561111450195,17.2572269439697,17.2583389282227,17.2594509124756,17.2605648040771,17.2616786956787,17.2627964019775,17.2639102935791,17.2650279998779,17.2661399841309,17.2672557830811,17.2683715820312,17.2694854736328,17.2705993652344,17.2717132568359,17.272834777832,17.2739486694336,17.2750644683838,17.276180267334,17.2772941589355,17.278413772583,17.2795276641846,17.280647277832,17.281759262085,17.2828807830811,17.2839965820312,17.2851161956787,17.2862319946289,17.2873497009277,17.2884693145752,17.289587020874,17.2907028198242,16.3926315307617,16.3715267181396,16.3504753112793,16.3294773101807,16.3085346221924,16.2876453399658,16.266809463501,16.2460269927979,16.2252960205078,16.2046203613281,16.1839962005615,16.163423538208,16.1429042816162,16.1224365234375,14.0684614181519,13.6263809204102,13.5971746444702,13.5680932998657,13.5391359329224,13.5103025436401,13.4815902709961,13.4530010223389,13.4245319366455,13.3961839675903,13.3679552078247,13.3398447036743,13.3118524551392,13.2839775085449,13.2562189102173,13.2285766601562,13.2010488510132,13.1736354827881,13.1463356018066,13.1191482543945,13.0920734405518,13.065110206604,13.0382585525513,13.0115165710449,12.9848833084106,12.9583597183228,12.9319438934326,12.9056358337402,12.8794345855713,12.8533391952515,12.8273496627808,12.8014640808105,12.7751188278198,12.7488317489624,12.7226533889771,12.6965827941895,12.670618057251,12.6447601318359,12.6190071105957,12.593358039856,12.567813873291,12.5423727035522,12.5170345306396,12.4917993545532,12.46666431427,12.4416313171387,12.4166975021362,12.3918647766113,12.367130279541,12.3424949645996,12.3179569244385,12.2935161590576,12.269172668457,12.2449254989624,12.2207736968994,12.1967172622681,12.1727542877197,12.148886680603,12.125111579895,12.10142993927,12.0778408050537,12.0543432235718,12.0309362411499,12.0076208114624,11.9869518280029,11.9672060012817,11.9475259780884,11.9279098510742,11.9083576202393,11.8888702392578,11.8694458007812,11.8500852584839,11.8293170928955,11.798095703125,11.7670383453369,11.7361450195312,11.7054128646851,11.674840927124,11.6444282531738,11.6141748428345,11.5840768814087,11.5541353225708,11.5243473052979,11.4947128295898,11.4652309417725,11.4358997344971,11.4067182540894,11.3776845932007,11.3487987518311,11.3200597763062,11.2914657592773,11.263014793396,11.2347078323364,11.20654296875,11.1785182952881,11.1506338119507,11.1228885650635,11.0952796936035,11.0678081512451,11.040472984314,11.0132722854614,10.9633073806763,10.8515186309814,10.7419862747192,10.7173471450806,10.7137699127197,10.7101926803589,10.706618309021,10.7030458450317,10.6994762420654,10.6959085464478,10.6905088424683,10.6601476669312,10.6299591064453,10.5999412536621,10.5700922012329,10.5404109954834,10.5108957290649,10.4815454483032,10.4523582458496,10.4233331680298,10.3944692611694,10.3657646179199,10.3372182846069,10.3088283538818,10.2805938720703,10.252513885498,10.2245874404907,10.1968116760254,10.1691875457764,10.1417112350464,10.1143836975098,10.0872030258179,10.0601692199707,10.033278465271,10.0065317153931,9.97992610931396,9.95346355438232,9.92713928222656,9.900954246521,9.87490749359131,9.84899711608887,9.82709503173828,9.81588077545166,9.80469131469727,9.79352760314941,9.78238868713379,9.77127552032471,9.76018810272217,9.74912548065186,9.73808765411377,9.72707462310791,9.71608734130859,9.70512390136719,9.69418621063232,9.68327236175537,9.67238330841064,9.66151809692383,9.65067768096924,9.63986206054688,9.62907028198242,9.61830234527588,9.60755920410156,9.59683895111084,9.58614349365234,9.57547187805176,9.56482410430908,9.55419921875,9.54359817504883,9.53302097320557,9.5224666595459,9.51193618774414,9.50142860412598,9.49094486236572,9.48048305511475,9.47004508972168,9.45963001251221,9.44923782348633,9.43886852264404,9.42852210998535,9.41819763183594,9.40789604187012,9.39761734008789,9.38736057281494,9.37712669372559,9.36691474914551,9.35672569274902,9.3465576171875,9.33641242980957,9.32628917694092,9.31618690490723,9.30610752105713,9.29605007171631,9.28601360321045,9.27599906921387,9.26600646972656,9.25603485107422,9.24608516693115,9.23615646362305,9.22624969482422,9.21636295318604,9.20649814605713,9.19665431976318,9.1868314743042,9.17702960968018,9.16724872589111,9.15748882293701,9.14774990081787,9.13803100585938,9.12833309173584,9.11865520477295,9.10899829864502,9.09936237335205,9.08974647521973,9.08015060424805,9.07057476043701,9.06101894378662,9.05148410797119,9.04196834564209,0,0,0,0,0,0,0,0,0,0,0,0,0,0,0,0,0,0,0,0,0,0,0,0,0,0,0,0,0,0,0,0,0,0,0,0,0,0,0,0,0,0,0,0,0,0,0,0,0,0,0,0,0,0,0,0,0,0,0,0,0,0,0,0,0,0,0,0,0,0,0,0,0,0,0
17.0343742370605,17.0354614257812,17.0365447998047,17.0376281738281,17.0387134552002,17.0398006439209,17.040885925293,17.0419731140137,17.043062210083,17.0441474914551,17.0452308654785,17.0463180541992,17.0474071502686,17.0484943389893,17.0495758056641,17.0506649017334,17.0517539978027,17.0528450012207,17.0539283752441,17.0550155639648,17.0561065673828,17.0571918487549,17.0582828521729,17.0593681335449,17.0604572296143,17.0615482330322,17.0626373291016,17.0637245178223,17.0648136138916,17.0659046173096,17.0669956207275,17.0680809020996,17.0691719055176,17.0702648162842,17.0713520050049,17.0724411010742,17.0735301971436,17.0746173858643,17.0757122039795,17.0768013000488,17.0778942108154,17.0789852142334,17.0800743103027,17.0811653137207,17.0822563171387,17.0833511352539,17.0844421386719,17.0855312347412,17.0866222381592,17.0877151489258,17.0888042449951,17.0898990631104,17.0909938812256,17.0920886993408,17.0931797027588,17.0942726135254,17.095365524292,17.0964584350586,17.0975456237793,17.0986423492432,17.0997371673584,17.1008281707764,17.1019229888916,17.1030197143555,17.1041126251221,17.1052055358887,17.1062984466553,17.1073970794678,17.108491897583,17.1095867156982,17.1106815338135,17.1117763519287,17.1128692626953,17.1139640808105,17.1150608062744,17.116153717041,17.1172542572021,17.118350982666,17.1194458007812,17.1205406188965,17.1216335296631,17.122730255127,17.1238288879395,17.1249294281006,17.1260242462158,17.1271209716797,17.1282176971436,17.1293125152588,17.1304130554199,17.1315059661865,17.1326065063477,16.3757915496826,16.3547286987305,16.3337211608887,16.3127670288086,16.2918663024902,16.2710208892822,16.2502269744873,16.2294864654541,16.2087993621826,16.1881637573242,16.1675815582275,16.1470508575439,16.1265735626221,16.1061477661133,16.0857715606689,13.6411991119385,13.6119289398193,13.58278465271,13.5537643432617,13.5248680114746,13.4960947036743,13.4674434661865,13.4389142990112,13.4105052947998,13.3822154998779,13.3540458679199,13.3259935379028,13.298059463501,13.2702417373657,13.2425413131714,13.214955329895,13.1874837875366,13.1601266860962,13.1328830718994,13.105751991272,13.0787324905396,13.0518236160278,13.0250263214111,12.9983386993408,12.9717597961426,12.9452886581421,12.9189262390137,12.892671585083,12.8665227890015,12.840479850769,12.8145418167114,12.7887086868286,12.7629795074463,12.7368402481079,12.7107105255127,12.6846885681152,12.6587734222412,12.632963180542,12.6072578430176,12.581657409668,12.5561599731445,12.5307664871216,12.5054750442505,12.4802856445312,12.4551973342896,12.4302101135254,12.4053220748901,12.3805341720581,12.355845451355,12.3312540054321,12.3067617416382,12.2823648452759,12.2580652236938,12.2338619232178,12.2097539901733,12.1857404708862,12.1618213653564,12.137996673584,12.1142644882202,12.0906248092651,12.0670766830444,12.0436210632324,12.0202560424805,11.9969816207886,11.975528717041,11.9558200836182,11.9361772537231,11.9165983200073,11.8970832824707,11.8776321411133,11.8582448959351,11.8389205932617,11.8196592330933,11.8004608154297,11.7813243865967,11.7526245117188,11.7218065261841,11.6911497116089,11.6606521606445,11.630313873291,11.6001319885254,11.570107460022,11.5402374267578,11.5105218887329,11.4809589385986,11.4515466690063,11.4222850799561,11.3931732177734,11.3642082214355,11.3353910446167,11.3067197799683,11.2781925201416,11.2498092651367,11.221568107605,11.1934690475464,11.165509223938,11.1376895904541,11.1100082397461,11.0824642181396,11.0550556182861,11.0277833938599,11.0006446838379,10.9736394882202,10.9467668533325,10.8887367248535,10.7784557342529,10.7055711746216,10.7020025253296,10.6984348297119,10.6948680877686,10.6913032531738,10.6877412796021,10.6820983886719,10.6517848968506,10.6216440200806,10.5916728973389,10.5618705749512,10.5322351455688,10.5027656555176,10.4734601974487,10.4443187713623,10.4153385162354,10.3865184783936,10.3578577041626,10.3293542861938,10.3010082244873,10.27281665802,10.2447786331177,10.2168941497803,10.1891603469849,10.1615772247314,10.1341428756714,10.1068563461304,10.0797157287598,10.0527210235596,10.0258703231812,9.9991626739502,9.97259712219238,9.94617176055908,9.91988754272461,9.8937406539917,9.86773109436035,9.84185791015625,9.81952476501465,9.80832767486572,9.79715538024902,9.78600883483887,9.77488803863525,9.76379203796387,9.75272083282471,9.74167537689209,9.73065376281738,9.71965789794922,9.70868682861328,9.69774055480957,9.68681907653809,9.67592239379883,9.66504955291748,9.65420150756836,9.64337730407715,9.63257789611816,9.62180233001709,9.61105060577393,9.60032367706299,9.58961963653564,9.57894039154053,9.568284034729,9.55765247344971,9.547043800354,9.53645801544189,9.52589702606201,9.51535892486572,9.50484371185303,9.49435234069824,9.48388290405273,9.47343730926514,9.46301555633545,9.45261573791504,9.44223880767822,9.431884765625,9.42155265808105,9.41124439239502,9.40095806121826,9.3906946182251,9.38045310974121,9.3702335357666,9.36003684997559,9.34986209869385,9.33970928192139,9.32957935333252,9.31947040557861,9.30938339233398,9.29931926727295,9.28927612304688,9.27925395965576,9.26925468444824,9.25927543640137,9.24931907653809,9.23938369750977,9.22946929931641,9.21957683563232,9.20970439910889,9.19985389709473,9.19002437591553,9.18021583557129,9.17042827606201,0,0,0,0,0,0,0,0,0,0,0,0,0,0,0,0,0,0,0,0,0,0,0,0,0,0,0,0,0,0,0,0,0,0,0,0,0,0,0,0,0,0,0,0,0,0,0,0,0,0,0,0,0,0,0,0,0,0,0,0,0,0,0,0,0,0,0,0,0,0,0,0,0,0,0,0,0,0,0,0,0,0,0,0,0,0,0,0,0,0
16.8841075897217,16.8851757049561,16.8862400054932,16.8873062133789,16.888370513916,16.8894367218018,16.8905067443848,16.8915748596191,16.8926410675049,16.8937091827393,16.894775390625,16.8958435058594,16.8969097137451,16.8979778289795,16.8990478515625,16.9001159667969,16.9011821746826,16.902250289917,16.9033184051514,16.9043865203857,16.9054565429688,16.9065265655518,16.9075965881348,16.9086627960205,16.9097328186035,16.9108047485352,16.9118690490723,16.9129409790039,16.9140110015869,16.9150829315186,16.9161529541016,16.9172267913818,16.9182929992676,16.9193649291992,16.9204330444336,16.9215049743652,16.9225769042969,16.9236488342285,16.9247188568115,16.9257888793945,16.9268627166748,16.9279346466064,16.9290046691895,16.9300765991211,16.93115234375,16.932222366333,16.9332942962646,16.9343662261963,16.9354400634766,16.9365100860596,16.9375839233398,16.9386539459229,16.9397315979004,16.9408054351807,16.9418773651123,16.9429512023926,16.9440250396729,16.9450969696045,16.9461708068848,16.9472484588623,16.9483203887939,16.9493961334229,16.9504699707031,16.9515399932861,16.9526176452637,16.9536914825439,16.9547672271729,16.9558448791504,16.9569206237793,16.9579963684082,16.9590682983398,16.9601459503174,16.9612216949463,16.9622974395752,16.9633750915527,16.964448928833,16.9655284881592,16.9666042327881,16.967679977417,16.9687576293945,16.9698352813721,16.970911026001,16.9719905853271,16.9730644226074,16.9741439819336,16.9752197265625,16.9762992858887,16.3800582885742,16.3589859008789,16.3379669189453,16.3170013427734,16.2960910797119,16.2752323150635,16.2544288635254,16.2336769104004,16.2129802703857,16.1923332214355,16.1717414855957,16.1511993408203,16.1307125091553,16.1102752685547,16.0898895263672,16.0695571899414,14.5798301696777,13.6267156600952,13.5975074768066,13.5684251785278,13.5394659042358,13.510630607605,13.4819173812866,13.4533271789551,13.4248571395874,13.3965072631836,13.3682765960693,13.3401651382446,13.3121709823608,13.2842950820923,13.2565355300903,13.2288913726807,13.201361656189,13.1739473342896,13.1466464996338,13.1194581985474,13.0923824310303,13.0654182434082,13.0385646820068,13.0118207931519,12.9851865768433,12.9586620330811,12.9322452545166,12.9059352874756,12.8797330856323,12.8536367416382,12.8276453018188,12.8017597198486,12.7759780883789,12.7502994537354,12.7247247695923,12.6987905502319,12.6728172302246,12.6469497680664,12.6211881637573,12.5955305099487,12.5699777603149,12.5445280075073,12.5191812515259,12.4939365386963,12.4687929153442,12.443751335144,12.4188098907471,12.393967628479,12.3692255020142,12.3445806503296,12.3200349807739,12.2955865859985,12.2712345123291,12.2469787597656,12.2228193283081,12.1987543106079,12.1747846603394,12.1509084701538,12.1271257400513,12.1034355163574,12.0798387527466,12.0563325881958,12.0329189300537,12.0095949172974,11.9863615036011,11.9641265869141,11.9444561004639,11.9248495101929,11.9053077697754,11.8858299255371,11.866415977478,11.8470649719238,11.8277769088745,11.8085517883301,11.7893896102905,11.7702884674072,11.7512493133545,11.7322721481323,11.7075033187866,11.6769208908081,11.6464977264404,11.6162328720093,11.586124420166,11.5561723709106,11.5263738632202,11.496729850769,11.4672365188599,11.4378957748413,11.4087028503418,11.3796606063843,11.3507642745972,11.3220148086548,11.2934103012085,11.2649507522583,11.2366342544556,11.2084589004517,11.1804246902466,11.152530670166,11.1247758865356,11.0971584320068,11.0696773529053,11.042332649231,11.0151224136353,10.9880466461182,10.9611034393311,10.9342918395996,10.9076108932495,10.8810596466064,10.8151741027832,10.7063703536987,10.6902599334717,10.6867008209229,10.6831436157227,10.6795873641968,10.6737012863159,10.6434364318848,10.6133413314819,10.5834169387817,10.5536613464355,10.5240716934204,10.4946479797363,10.4653882980347,10.4362907409668,10.4073553085327,10.3785800933838,10.3499622344971,10.3215026855469,10.2931985855103,10.2650508880615,10.2370548248291,10.2092123031616,10.1815204620361,10.1539783477783,10.1265850067139,10.0993385314941,10.0722389221191,10.0452842712402,10.0184726715088,9.9918041229248,9.96527862548828,9.93889236450195,9.91264533996582,9.88653659820557,9.86056518554688,9.83473014831543,9.81196689605713,9.8007869720459,9.78963184356689,9.77850246429443,9.7673978805542,9.75631904602051,9.74526500701904,9.7342357635498,9.72323226928711,9.71225261688232,9.70129871368408,9.69036865234375,9.67946338653564,9.66858291625977,9.65772724151611,9.64689540863037,9.63608741760254,9.62530422210693,9.61454486846924,9.60380935668945,9.59309864044189,9.58241081237793,9.57174777984619,9.56110763549805,9.55049133300781,9.53989887237549,9.52932929992676,9.51878356933594,9.50826072692871,9.49776172637939,9.48728561401367,9.47683238983154,9.46640300750732,9.45599555969238,9.44561100006104,9.43524932861328,9.42491054534912,9.41459465026855,9.40430164337158,9.39403057098389,9.38378143310547,9.37355518341064,9.3633508682251,9.35316944122314,9.34300899505615,9.33287143707275,9.32275581359863,9.31266212463379,9.30259037017822,9.29253959655762,0,0,0,0,0,0,0,0,0,0,0,0,0,0,0,0,0,0,0,0,0,0,0,0,0,0,0,0,0,0,0,0,0,0,0,0,0,0,0,0,0,0,0,0,0,0,0,0,0,0,0,0,0,0,0,0,0,0,0,0,0,0,0,0,0,0,0,0,0,0,0,0,0,0,0,0,0,0,0,0,0,0,0,0,0,0,0,0,0,0,0,0,0,0,0,0,0,0,0,0,0,0,0,0
16.7364692687988,16.7375164031982,16.7385635375977,16.7396106719971,16.7406578063965,16.7417087554932,16.7427577972412,16.7438068389893,16.7448539733887,16.7459030151367,16.7469501495361,16.7480010986328,16.7490482330322,16.7500991821289,16.7511501312256,16.7521991729736,16.753246307373,16.7542991638184,16.7553424835205,16.7563953399658,16.7574501037598,16.7584972381592,16.7595462799072,16.7605991363525,16.7616481781006,16.7627010345459,16.7637500762939,16.7648010253906,16.7658557891846,16.766902923584,16.7679576873779,16.769006729126,16.7700595855713,16.7711124420166,16.7721652984619,16.7732181549072,16.7742691040039,16.7753238677979,16.7763748168945,16.7774257659912,16.7784748077393,16.7795276641846,16.7805824279785,16.7816371917725,16.7826919555664,16.7837429046631,16.7847938537598,16.7858486175537,16.7869052886963,16.7879581451416,16.7890129089355,16.7900695800781,16.7911205291748,16.7921752929688,16.7932300567627,16.7942848205566,16.7953395843506,16.7963962554932,16.7974548339844,16.7985095977783,16.7995662689209,16.8006191253662,16.8016719818115,16.8027286529541,16.8037815093994,16.8048400878906,16.8059005737305,16.806957244873,16.8080101013184,16.8090667724609,16.8101253509521,16.8111801147461,16.81223487854,16.8132953643799,16.8143539428711,16.8154106140137,16.8164710998535,16.8175239562988,16.81858253479,16.8196411132812,16.8206996917725,16.8217582702637,16.8228168487549,16.8238773345947,16.363245010376,16.3422145843506,16.3212394714355,16.3003158569336,16.279447555542,16.2586326599121,16.2378711700439,16.2171630859375,16.1965065002441,16.1759033203125,16.1553516387939,16.1348514556885,16.1144046783447,16.0940093994141,16.0736656188965,16.053373336792,16.0331325531006,14.0613059997559,13.6122627258301,13.5831165313721,13.5540952682495,13.5251979827881,13.4964227676392,13.4677705764771,13.4392395019531,13.4108285903931,13.3825378417969,13.3543663024902,13.3263130187988,13.2983779907227,13.2705593109131,13.2428569793701,13.2152690887451,13.1877965927124,13.1604385375977,13.1331930160522,13.1060609817505,13.0790405273438,13.0521306991577,13.0253314971924,12.9986429214478,12.9720621109009,12.9455909729004,12.9192266464233,12.892970085144,12.8668203353882,12.8407764434814,12.8148374557495,12.7890024185181,12.7632722854614,12.737645149231,12.7121210098267,12.6866989135742,12.6609678268433,12.6351490020752,12.6094341278076,12.5838251113892,12.5583190917969,12.5329170227051,12.5076169967651,12.4824190139771,12.4573221206665,12.4323263168335,12.4074296951294,12.3826341629028,12.3579359054565,12.3333368301392,12.3088359832764,12.2844314575195,12.2601232528687,12.235912322998,12.2117958068848,12.1877746582031,12.1638479232788,12.1400136947632,12.1162738800049,12.0926265716553,12.0690717697144,12.0456075668335,12.022234916687,11.9989528656006,11.9757614135742,11.9527463912964,11.9331130981445,11.9135446548462,11.8940391540527,11.8745985031128,11.8552207946777,11.8359060287476,11.8166551589966,11.7974662780762,11.7783393859863,11.7592744827271,11.740270614624,11.7213287353516,11.7024478912354,11.6836280822754,11.662727355957,11.6323776245117,11.6021862030029,11.5721502304077,11.5422706604004,11.5125436782837,11.4829702377319,11.4535474777222,11.4242763519287,11.3951539993286,11.3661794662476,11.3373517990112,11.3086700439453,11.2801332473755,11.2517404556274,11.2234897613525,11.1953802108765,11.1674118041992,11.1395826339722,11.111891746521,11.0843381881714,11.056921005249,11.0296392440796,11.0024919509888,10.9754772186279,10.9485950469971,10.9218444824219,10.8952236175537,10.8687334060669,10.8423709869385,10.8161363601685,10.7425985336304,10.6785440444946,10.6749925613403,10.671443939209,10.6653175354004,10.6350994110107,10.605052947998,10.5751752853394,10.545464515686,10.5159215927124,10.4865436553955,10.4573287963867,10.4282760620117,10.3993844985962,10.3706531524658,10.3420791625977,10.313663482666,10.2854022979736,10.2572956085205,10.2293424606323,10.2015419006348,10.1738920211792,10.146390914917,10.1190376281738,10.0918321609497,10.064772605896,10.0378580093384,10.0110864639282,9.98445701599121,9.95796966552734,9.93162250518799,9.90541458129883,9.87934398651123,9.85340976715088,9.82761192321777,9.80442047119141,9.79325675964355,9.78211879730225,9.77100658416748,9.75991916656494,9.74885749816895,9.73782062530518,9.72680854797363,9.71582126617432,9.70485877990723,9.69392108917236,9.68300819396973,9.672119140625,9.6612548828125,9.65041542053223,9.63959980010986,9.62880897521973,9.6180419921875,9.60729885101318,9.59657955169678,9.5858850479126,9.57521343231201,9.56456565856934,9.55394172668457,9.54334163665771,9.53276443481445,9.5222110748291,9.51168060302734,9.5011739730835,9.49069023132324,9.48022937774658,9.46979236602783,9.45937824249268,9.4489860534668,9.43861675262451,9.42827129364014,9.41794776916504,0,0,0,0,0,0,0,0,0,0,0,0,0,0,0,0,0,0,0,0,0,0,0,0,0,0,0,0,0,0,0,0,0,0,0,0,0,0,0,0,0,0,0,0,0,0,0,0,0,0,0,0,0,0,0,0,0,0,0,0,0,0,0,0,0,0,0,0,0,0,0,0,0,0,0,0,0,0,0,0,0,0,0,0,0,0,0,0,0,0,0,0,0,0,0,0,0,0,0,0,0,0,0,0,0,0,0,0,0,0,0,0,0,0,0,0,0,0
16.5913887023926,16.5924167633057,16.5934467315674,16.5944766998291,16.5955085754395,16.5965404510498,16.5975704193115,16.5985984802246,16.5996284484863,16.6006603240967,16.6016883850098,16.602725982666,16.6037559509277,16.6047859191895,16.6058158874512,16.6068477630615,16.6078796386719,16.6089115142822,16.6099395751953,16.6109771728516,16.6120071411133,16.6130390167236,16.614070892334,16.6151008605957,16.6161365509033,16.6171646118164,16.618200302124,16.6192321777344,16.6202697753906,16.6213035583496,16.6223335266113,16.623363494873,16.6243991851807,16.6254329681396,16.6264686584473,16.6275024414062,16.6285381317139,16.6295700073242,16.6306037902832,16.6316413879395,16.6326732635498,16.6337051391602,16.6347465515137,16.635778427124,16.6368141174316,16.6378479003906,16.6388854980469,16.6399192810059,16.6409568786621,16.6419944763184,16.643030166626,16.644063949585,16.6450977325439,16.6461372375488,16.6471710205078,16.6482086181641,16.6492443084717,16.6502857208252,16.6513214111328,16.6523571014404,16.653392791748,16.6544284820557,16.6554660797119,16.6565017700195,16.6575393676758,16.6585807800293,16.6596183776855,16.6606540679932,16.6616954803467,16.6627311706543,16.6637725830078,16.6648082733154,16.6658496856689,16.6668891906738,16.6679248809814,16.668966293335,16.6700057983398,16.6710453033447,16.6720848083496,16.6731204986572,16.367504119873,16.3464641571045,16.3254776000977,16.3045444488525,16.2836647033691,16.2628402709961,16.2420673370361,16.2213478088379,16.2006797790527,16.1800670623779,16.1595039367676,16.1389942169189,16.118537902832,16.0981311798096,16.0777778625488,16.0574741363525,16.0372219085693,16.0170211791992,15.1297760009766,13.627049446106,13.5978403091431,13.5687561035156,13.5397958755493,13.5109596252441,13.4822444915771,13.453652381897,13.425181388855,13.3968296051025,13.368597984314,13.3404855728149,13.3124904632568,13.2846126556396,13.2568511962891,13.2292060852051,13.2016754150391,13.1742601394653,13.1469573974609,13.1197681427002,13.0926904678345,13.0657253265381,13.0388698577881,13.0121259689331,12.9854907989502,12.9589643478394,12.9325456619263,12.9062356948853,12.8800315856934,12.8539333343506,12.8279418945312,12.8020544052124,12.7762718200684,12.7505922317505,12.7250156402588,12.6995420455933,12.6741695404053,12.6488990783691,12.6233692169189,12.5977029800415,12.5721416473389,12.5466833114624,12.5213270187378,12.4960737228394,12.4709224700928,12.4458723068237,12.4209213256836,12.396071434021,12.3713207244873,12.3466682434082,12.3221139907837,12.2976570129395,12.2732973098755,12.2490329742432,12.2248649597168,12.2007923126221,12.1768140792847,12.1529302597046,12.1291399002075,12.1054420471191,12.0818367004395,12.0583238601685,12.0349016189575,12.011570930481,11.9883298873901,11.9651784896851,11.9421167373657,11.9217920303345,11.9022598266602,11.8827924728394,11.8633880615234,11.8440465927124,11.8247690200806,11.8055534362793,11.7864007949829,11.7673091888428,11.7482805252075,11.7293119430542,11.7104053497314,11.6915597915649,11.6727743148804,11.6540498733521,11.6353845596313,11.6167793273926,11.5881729125977,11.5582103729248,11.5284013748169,11.4987468719482,11.4692430496216,11.4398918151855,11.4106893539429,11.3816366195679,11.3527297973633,11.3239707946777,11.2953567504883,11.2668876647949,11.2385606765747,11.2103757858276,11.1823320388794,11.15442943573,11.1266641616821,11.0990381240845,11.0715475082397,11.0441932678223,11.0169744491577,10.9898891448975,10.9629364013672,10.9361152648926,10.9094257354736,10.8828659057617,10.8564357757568,10.830132484436,10.8039569854736,10.777907371521,10.7484951019287,10.6709899902344,10.6633100509644,10.6569471359253,10.6267766952515,10.596776008606,10.5669450759888,10.537281036377,10.5077838897705,10.4784507751465,10.4492807388306,10.4202728271484,10.3914260864258,10.362738609314,10.3342084884644,10.3058347702026,10.2776174545288,10.2495536804199,10.2216424942017,10.1938829421997,10.1662740707397,10.1388149261475,10.1115026473999,10.0843372344971,10.0573177337646,10.030442237854,10.0037107467651,9.97712135314941,9.9506721496582,9.9243631362915,9.898193359375,9.87216091156006,9.84626483917236,9.8205041885376,9.79688453674316,9.78573894500732,9.77461814880371,9.76352310180664,9.7524528503418,9.74140739440918,9.73038768768311,9.71939182281494,9.70842170715332,9.69747543334961,9.68655490875244,9.67565822601318,9.66478633880615,9.65393829345703,9.64311504364014,9.63231563568115,9.62154102325439,9.61079025268555,9.60006332397461,9.58936023712158,9.57868194580078,9.56802654266357,9.55739498138428,9.54678630828857,9.5362024307251,9.52564144134521,0,0,0,0,0,0,0,0,0,0,0,0,0,0,0,0,0,0,0,0,0,0,0,0,0,0,0,0,0,0,0,0,0,0,0,0,0,0,0,0,0,0,0,0,0,0,0,0,0,0,0,0,0,0,0,0,0,0,0,0,0,0,0,0,0,0,0,0,0,0,0,0,0,0,0,0,0,0,0,0,0,0,0,0,0,0,0,0,0,0,0,0,0,0,0,0,0,0,0,0,0,0,0,0,0,0,0,0,0,0,0,0,0,0,0,0,0,0,0,0,0,0,0,0,0,0,0,0,0,0
16.448802947998,16.4498157501221,16.4508247375488,16.4518413543701,16.4528541564941,16.4538669586182,16.4548778533936,16.4558925628662,16.4569034576416,16.457914352417,16.4589309692383,16.4599437713623,16.460958480835,16.461971282959,16.4629821777344,16.463996887207,16.4650077819824,16.4660224914551,16.467041015625,16.4680557250977,16.4690685272217,16.4700832366943,16.4710960388184,16.4721088409424,16.473123550415,16.474142074585,16.4751567840576,16.4761714935303,16.4771881103516,16.4782009124756,16.4792175292969,16.4802303314209,16.4812488555908,16.4822692871094,16.4832801818848,16.4842987060547,16.485315322876,16.4863300323486,16.4873466491699,16.4883632659912,16.4893779754639,16.4904022216797,16.4914150238037,16.4924335479736,16.4934501647949,16.4944686889648,16.4954814910889,16.4965019226074,16.497522354126,16.4985389709473,16.4995555877686,16.5005741119385,16.5015926361084,16.5026111602783,16.5036315917969,16.5046482086182,16.5056667327881,16.5066871643066,16.5077095031738,16.5087261199951,16.509744644165,16.510763168335,16.5117816925049,16.5128059387207,16.5138244628906,16.5148429870605,16.5158634185791,16.5168876647949,16.5179042816162,16.5189266204834,16.5199451446533,16.5209674835205,16.5219879150391,16.5230083465576,16.5240325927734,16.5250492095947,16.3717670440674,16.350715637207,16.329719543457,16.3087749481201,16.2878856658936,16.2670478820801,16.246265411377,16.2255344390869,16.2048568725586,16.184232711792,16.1636600494385,16.143138885498,16.1226711273193,16.1022548675537,16.0818901062012,16.0615768432617,16.0413150787354,16.0211048126221,16.0009441375732,15.9808349609375,14.5721445083618,13.6125965118408,13.5834484100342,13.5544261932373,13.5255270004272,13.496750831604,13.4680967330933,13.439564704895,13.4111528396606,13.3828601837158,13.3546876907349,13.3266324996948,13.2986965179443,13.2708759307861,13.2431716918945,13.2155838012695,13.1881103515625,13.1607503890991,13.1335039138794,13.106369972229,13.0793476104736,13.0524368286133,13.0256366729736,12.9989461898804,12.9723653793335,12.9458923339844,12.919527053833,12.8932695388794,12.8671178817749,12.8410730361938,12.8151330947876,12.7892971038818,12.7635650634766,12.7379369735718,12.7124118804932,12.6869878768921,12.6616659164429,12.6364450454712,12.6113243103027,12.5859937667847,12.5604791641235,12.5350675582886,12.5097589492798,12.4845523834229,12.4594478607178,12.4344425201416,12.409538269043,12.3847341537476,12.3600282669067,12.3354206085205,12.3109102249146,12.2864980697632,12.2621822357178,12.2379627227783,12.2138385772705,12.18980884552,12.1658735275269,12.142032623291,12.1182842254639,12.0946292877197,12.0710668563843,12.0475950241089,12.0242147445679,12.0009250640869,11.9777250289917,11.9546146392822,11.9315938949585,11.9104919433594,11.8909969329834,11.8715658187866,11.852198600769,11.8328943252563,11.8136520385742,11.794472694397,11.7753553390503,11.7562999725342,11.7373065948486,11.7183742523193,11.6995029449463,11.6806917190552,11.6619415283203,11.6432514190674,11.6246213912964,11.6060495376587,11.5875387191772,11.5690851211548,11.5443029403687,11.5145664215088,11.4849824905396,11.4555492401123,11.4262676239014,11.3971347808838,11.3681507110596,11.3393135070801,11.310622215271,11.2820749282837,11.2536725997925,11.2254114151001,11.1972932815552,11.1693153381348,11.1414766311646,11.1137762069702,11.0862131118774,11.0587863922119,11.0314950942993,11.0043382644653,10.9773149490356,10.9504241943359,10.9236640930176,10.8970355987549,10.8705358505249,10.8441648483276,10.8179216384888,10.791805267334,10.7658138275146,10.7399482727051,10.7093515396118,10.6788845062256,10.6485900878906,10.6184663772583,10.5885133743286,10.5587282180786,10.5291109085083,10.4996585845947,10.4703702926636,10.4412460327148,10.4122829437256,10.3834800720215,10.3548355102539,10.3263492584229,10.2980194091797,10.2698440551758,10.2418222427368,10.2139539718628,10.1862363815308,10.1586685180664,10.1312494277954,10.1039781570435,10.0768537521362,10.0498743057251,10.0230388641357,9.99634647369385,9.96979522705078,9.94338512420654,9.91711521148682,9.89098262786865,9.86498832702637,9.83913040161133,9.8134069442749,9.78936195373535,9.77823257446289,9.76712894439697,9.75605010986328,9.74499702453613,9.73396873474121,9.72296524047852,9.71198654174805,9.70103359222412,9.69010353088379,9.67919921875,9.66831970214844,9.65746402740479,9.64663314819336,9.63582611083984,9.62504291534424,0,0,0,0,0,0,0,0,0,0,0,0,0,0,0,0,0,0,0,0,0,0,0,0,0,0,0,0,0,0,0,0,0,0,0,0,0,0,0,0,0,0,0,0,0,0,0,0,0,0,0,0,0,0,0,0,0,0,0,0,0,0,0,0,0,0,0,0,0,0,0,0,0,0,0,0,0,0,0,0,0,0,0,0,0,0,0,0,0,0,0,0,0,0,0,0,0,0,0,0,0,0,0,0,0,0,0,0,0,0,0,0,0,0,0,0,0,0,0,0,0,0,0,0,0,0,0,0,0,0,0,0,0,0,0,0,0,0,0,0,0
16.3086490631104,16.3096446990967,16.310640335083,16.3116359710693,16.312629699707,16.3136234283447,16.3146190643311,16.3156147003174,16.3166084289551,16.3176078796387,16.3186016082764,16.31960105896,16.3205966949463,16.321590423584,16.3225879669189,16.3235816955566,16.3245830535889,16.3255767822266,16.3265762329102,16.3275756835938,16.3285675048828,16.3295669555664,16.3305644989014,16.3315601348877,16.3325614929199,16.3335552215576,16.3345546722412,16.3355503082275,16.3365516662598,16.3375473022461,16.3385448455811,16.3395442962646,16.3405456542969,16.3415431976318,16.3425426483154,16.3435382843018,16.3445377349854,16.3455371856689,16.3465366363525,16.3475379943848,16.348539352417,16.349536895752,16.3505382537842,16.3515396118164,16.3525371551514,16.3535327911377,16.3545360565186,16.3555374145508,16.356538772583,16.3575382232666,16.3585395812988,16.3595409393311,16.3605422973633,16.3615398406982,16.3625431060791,16.3635482788086,16.3645477294922,16.3655490875244,16.366548538208,16.3675498962402,16.3685550689697,16.3695526123047,16.3705615997314,16.371561050415,16.3725624084473,16.3735656738281,16.3745670318604,16.3755702972412,16.3765754699707,16.3775730133057,16.3785820007324,16.3795871734619,16.3805904388428,16.3549709320068,16.3339614868164,16.3130073547363,16.292106628418,16.2712593078613,16.2504653930664,16.2297248840332,16.2090358734131,16.1884002685547,16.167818069458,16.1472873687744,16.1268081665039,16.1063804626465,16.0860061645508,16.0656833648682,16.04541015625,16.0251884460449,16.0050182342529,15.984899520874,15.9648303985596,15.9448108673096,14.0541572570801,13.5981731414795,13.5690870285034,13.5401258468628,13.511287689209,13.4825716018677,13.4539785385132,13.4255056381226,13.3971529006958,13.3689203262329,13.3408060073853,13.3128089904785,13.284930229187,13.2571678161621,13.2295207977295,13.2019891738892,13.1745719909668,13.1472682952881,13.120078086853,13.092999458313,13.066032409668,13.0391759872437,13.01243019104,12.9857940673828,12.9592666625977,12.9328470230103,12.9065351486206,12.8803300857544,12.8542308807373,12.8282375335693,12.8023490905762,12.7765655517578,12.7508850097656,12.7253074645996,12.6998319625854,12.6744594573975,12.6491870880127,12.6240158081055,12.5989437103271,12.5739717483521,12.5488386154175,12.5234746932983,12.4982128143311,12.4730529785156,12.4479932785034,12.4230346679688,12.3981761932373,12.3734169006348,12.3487558364868,12.3241930007935,12.2997283935547,12.2753601074219,12.251088142395,12.2269115447998,12.2028312683105,12.1788454055786,12.1549530029297,12.1311540603638,12.1074495315552,12.083836555481,12.0603151321411,12.0368852615356,12.0135469436646,11.9902982711792,11.9671392440796,11.9440698623657,11.9210891723633,11.8992137908936,11.8797559738159,11.8603610992432,11.8410301208496,11.8217620849609,11.8025560379028,11.7834129333496,11.764331817627,11.7453117370605,11.7263536453247,11.7074565887451,11.6886205673218,11.6698446273804,11.6511287689209,11.6324729919434,11.6138772964478,11.5953407287598,11.5768632888794,11.5584440231323,11.5400838851929,11.5217819213867,11.5007638931274,11.4712505340576,11.4418888092041,11.4126768112183,11.3836126327515,11.354697227478,11.325927734375,11.2973041534424,11.2688245773315,11.2404880523682,11.2122936248779,11.1842403411865,11.1563272476196,11.1285533905029,11.1009178161621,11.0734176635742,11.0460548400879,11.0188264846802,10.9917316436768,10.9647703170776,10.9379405975342,10.9112415313721,10.8846731185913,10.8582334518433,10.8319225311279,10.8057374954224,10.7796802520752,10.7537469863892,10.7279396057129,10.7009124755859,10.6704921722412,10.6402444839478,10.6101694107056,10.5802621841431,10.5505237579346,10.5209522247314,10.4915456771851,10.4623031616211,10.4332227706909,10.4043045043945,10.375545501709,10.34694480896,10.3185024261475,10.2902145385742,10.2620820999146,10.2341032028198,10.2062768936157,10.1786003112793,10.1510734558105,10.1236963272095,10.0964660644531,10.0693807601929,10.042441368103,10.015645980835,9.98899269104004,9.96248054504395,9.93610954284668,9.90987777709961,9.8837833404541,9.85782718658447,9.83200550079346,9.80631923675537,9.78184986114502,9.77073764801025,9.75965118408203,9.74858951568604,9.73755264282227,9.72654151916504,0,0,0,0,0,0,0,0,0,0,0,0,0,0,0,0,0,0,0,0,0,0,0,0,0,0,0,0,0,0,0,0,0,0,0,0,0,0,0,0,0,0,0,0,0,0,0,0,0,0,0,0,0,0,0,0,0,0,0,0,0,0,0,0,0,0,0,0,0,0,0,0,0,0,0,0,0,0,0,0,0,0,0,0,0,0,0,0,0,0,0,0,0,0,0,0,0,0,0,0,0,0,0,0,0,0,0,0,0,0,0,0,0,0,0,0,0,0,0,0,0,0,0,0,0,0,0,0,0,0,0,0,0,0,0,0,0,0,0,0,0,0,0,0,0,0,0,0,0,0,0,0
16.1708641052246,16.1718444824219,16.1728172302246,16.1737976074219,16.1747741699219,16.1757507324219,16.1767330169678,16.1777095794678,16.1786918640137,16.1796703338623,16.1806507110596,16.1816291809082,16.1826095581055,16.1835861206055,16.1845664978027,16.1855487823486,16.1865253448486,16.1875076293945,16.1884860992432,16.1894683837891,16.1904449462891,16.1914253234863,16.1924095153809,16.1933898925781,16.1943702697754,16.195348739624,16.1963272094727,16.1973133087158,16.1982936859131,16.1992721557617,16.200252532959,16.2012386322021,16.202220916748,16.2032012939453,16.2041835784912,16.2051658630371,16.206148147583,16.2071266174316,16.2081127166748,16.2090969085693,16.2100791931152,16.2110614776611,16.2120456695557,16.2130279541016,16.2140083312988,16.2149906158447,16.2159805297852,16.2169609069824,16.2179431915283,16.2189254760742,16.2199096679688,16.2208938598633,16.2218780517578,16.222864151001,16.2238502502441,16.22483253479,16.2258186340332,16.2268028259277,16.2277870178223,16.2287712097168,16.2297554016113,16.2307434082031,16.2317295074463,16.2327117919922,16.2336978912354,16.2346839904785,16.2356719970703,16.2366561889648,16.2376441955566,16.2386283874512,16.2396125793457,16.2405986785889,16.2415885925293,16.2425746917725,16.243558883667,16.2339153289795,16.2132167816162,16.192569732666,16.1719779968262,16.1514358520508,16.1309471130371,16.1105098724365,16.090124130249,16.0697898864746,16.0495071411133,16.029275894165,16.0090942382812,15.9889650344849,15.9688854217529,15.9488573074341,15.9288778305054,15.1215009689331,13.6129293441772,13.5837812423706,13.5547561645508,13.5258560180664,13.4970788955688,13.4684228897095,13.4398889541626,13.4114761352539,13.3831825256348,13.3550081253052,13.3269529342651,13.2990140914917,13.2711925506592,13.2434883117676,13.2158985137939,13.1884231567383,13.1610622406006,13.1338138580322,13.1066789627075,13.0796556472778,13.0527439117432,13.0259418487549,12.9992504119873,12.9726676940918,12.9461936950684,12.9198274612427,12.8935689926147,12.8674163818359,12.8413696289062,12.8154287338257,12.7895917892456,12.763858795166,12.7382297515869,12.7127027511597,12.6872777938843,12.6619548797607,12.6367321014404,12.6116104125977,12.5865879058838,12.5616645812988,12.5368404388428,12.5119028091431,12.4866876602173,12.461573600769,12.4365606307983,12.4116477966309,12.3868341445923,12.3621206283569,12.3375043869019,12.3129863739014,12.2885656356812,12.2642421722412,12.2400140762329,12.2158813476562,12.1918439865112,12.1679010391235,12.1440515518188,12.1202955245972,12.0966329574585,12.0730619430542,12.0495824813843,12.0261945724487,12.0028972625732,11.9796905517578,11.9565725326538,11.9335432052612,11.9106035232544,11.8879566192627,11.8685350418091,11.8491773605347,11.8298826217651,11.8106508255005,11.7914810180664,11.7723741531372,11.7533283233643,11.7343444824219,11.7154207229614,11.6965589523315,11.6777582168579,11.6590166091919,11.6403360366821,11.62171459198,11.6031532287598,11.5846509933472,11.5662069320679,11.5478219985962,11.5294961929321,11.5112276077271,11.493016242981,11.4748630523682,11.4567680358887,11.4282598495483,11.3991174697876,11.3701229095459,11.3412752151489,11.3125734329224,11.2840175628662,11.2556047439575,11.2273349761963,11.1992063522339,11.1712188720703,11.1433706283569,11.1156606674194,11.0880889892578,11.0606527328491,11.0333528518677,11.0061864852905,10.979154586792,10.9522542953491,10.9254856109619,10.8988475799561,10.8723392486572,10.8459596633911,10.8197069168091,10.7935819625854,10.7675828933716,10.7417078018188,10.7159576416016,10.6903305053711,10.6621131896973,10.6319141387939,10.6018848419189,10.5720243453979,10.542332649231,10.512806892395,10.4834461212158,10.4542484283447,10.4252128601074,10.3963384628296,10.3676233291626,10.3390665054321,10.3106670379639,10.2824220657349,10.2543325424194,10.2263956069946,10.1986103057861,10.1709756851196,10.1434907913208,10.116153717041,10.088963508606,10.0619192123413,10.0350198745728,10.0082635879517,9.98164939880371,9.95517635345459,9.9288444519043,9.90265083312988,9.87659454345703,0,0,0,0,0,0,0,0,0,0,0,0,0,0,0,0,0,0,0,0,0,0,0,0,0,0,0,0,0,0,0,0,0,0,0,0,0,0,0,0,0,0,0,0,0,0,0,0,0,0,0,0,0,0,0,0,0,0,0,0,0,0,0,0,0,0,0,0,0,0,0,0,0,0,0,0,0,0,0,0,0,0,0,0,0,0,0,0,0,0,0,0,0,0,0,0,0,0,0,0,0,0,0,0,0,0,0,0,0,0,0,0,0,0,0,0,0,0,0,0,0,0,0,0,0,0,0,0,0,0,0,0,0,0,0,0,0,0,0,0,0,0,0,0,0,0,0,0,0,0,0,0,0,0,0,0,0,0,0,0,0,0
16.0353851318359,16.0363483428955,16.0373077392578,16.0382690429688,16.0392303466797,16.0401954650879,16.0411529541016,16.0421199798584,16.0430850982666,16.0440444946289,16.0450057983398,16.0459690093994,16.046932220459,16.0478935241699,16.0488624572754,16.0498237609863,16.0507869720459,16.0517482757568,16.0527153015137,16.0536785125732,16.0546398162842,16.055606842041,16.0565700531006,16.0575351715088,16.058500289917,16.0594635009766,16.0604286193848,16.0613918304443,16.0623550415039,16.0633220672607,16.0642890930176,16.0652542114258,16.066219329834,16.0671844482422,16.0681476593018,16.0691165924072,16.0700798034668,16.071044921875,16.0720157623291,16.0729808807373,16.0739440917969,16.0749130249023,16.0758781433105,16.0768432617188,16.0778102874756,16.0787792205811,16.0797462463379,16.0807132720947,16.0816802978516,16.0826454162598,16.0836124420166,16.0845794677734,16.0855503082275,16.0865173339844,16.0874862670898,16.0884532928467,16.0894203186035,16.0903873443604,16.0913562774658,16.0923233032227,16.0932960510254,16.0942649841309,16.0952301025391,16.0962009429932,16.0971698760986,16.0981407165527,16.0991077423096,16.100076675415,16.1010513305664,16.1020202636719,16.1029853820801,16.1039543151855,16.1049251556396,16.1058979034424,16.1068649291992,16.1078395843506,16.1088066101074,16.1097793579102,16.0942440032959,16.0738983154297,16.0536060333252,16.0333633422852,16.0131740570068,15.9930334091187,15.9729433059692,15.9529047012329,15.932915687561,15.9129772186279,15.893087387085,14.5644683837891,13.5985059738159,13.5694189071655,13.5404558181763,13.5116167068481,13.4828996658325,13.4543037414551,13.4258298873901,13.3974761962891,13.3692417144775,13.3411254882812,13.3131284713745,13.2852478027344,13.2574844360352,13.2298364639282,13.2023029327393,13.1748847961426,13.1475791931152,13.1203880310059,13.0933074951172,13.0663394927979,13.0394821166992,13.0127353668213,12.9860973358154,12.959568977356,12.9331483840942,12.906834602356,12.8806285858154,12.854528427124,12.8285341262817,12.8026447296143,12.7768592834473,12.7511777877808,12.7255992889404,12.700122833252,12.6747484207153,12.6494750976562,12.6243019104004,12.5992298126221,12.5742559432983,12.5493822097778,12.5246057510376,12.499927520752,12.4751834869385,12.4501152038574,12.4251489639282,12.4002819061279,12.3755140304565,12.3508443832397,12.3262729644775,12.3017997741699,12.2774238586426,12.2531433105469,12.2289590835571,12.2048711776733,12.1808767318726,12.1569766998291,12.1331701278687,12.1094570159912,12.0858364105225,12.0623073577881,12.0388698577881,12.0155229568481,11.9922676086426,11.9691009521484,11.94602394104,11.9230356216431,11.9001359939575,11.8773241043091,11.8573360443115,11.8380146026611,11.8187561035156,11.799560546875,11.7804269790649,11.7613554000854,11.7423448562622,11.7233963012695,11.7045087814331,11.6856822967529,11.6669158935547,11.6482095718384,11.629563331604,11.6109762191772,11.5924491882324,11.5739803314209,11.5555715560913,11.5372200012207,11.5189266204834,11.5006923675537,11.4825143814087,11.464394569397,11.4463319778442,11.4283256530762,11.4103765487671,11.3855905532837,11.3566646575928,11.3278846740723,11.2992515563965,11.2707614898682,11.2424163818359,11.2142124176025,11.186149597168,11.1582269668579,11.130443572998,11.1027975082397,11.0752897262573,11.0479164123535,11.020679473877,10.9935750961304,10.9666051864624,10.9397659301758,10.9130582809448,10.8864812850952,10.8600330352783,10.8337125778198,10.8075199127197,10.7814531326294,10.7555122375488,10.7296953201294,10.7040023803711,10.6784324645996,10.6529836654663,10.6235961914062,10.5936136245728,10.5637998580933,10.5341539382935,10.5046739578247,10.4753580093384,10.4462051391602,10.4172143936157,10.3883848190308,10.3597135543823,10.3311996459961,10.3028440475464,10.2746419906616,10.2465944290161,10.2186994552612,10.1909561157227,10.1633634567261,10.1359195709229,10.1086225509644,10.0814723968506,0,0,0,0,0,0,0,0,0,0,0,0,0,0,0,0,0,0,0,0,0,0,0,0,0,0,0,0,0,0,0,0,0,0,0,0,0,0,0,0,0,0,0,0,0,0,0,0,0,0,0,0,0,0,0,0,0,0,0,0,0,0,0,0,0,0,0,0,0,0,0,0,0,0,0,0,0,0,0,0,0,0,0,0,0,0,0,0,0,0,0,0,0,0,0,0,0,0,0,0,0,0,0,0,0,0,0,0,0,0,0,0,0,0,0,0,0,0,0,0,0,0,0,0,0,0,0,0,0,0,0,0,0,0,0,0,0,0,0,0,0,0,0,0,0,0,0,0,0,0,0,0,0,0,0,0,0,0,0,0,0,0,0,0,0,0,0,0,0,0,0
15.9021577835083,15.9031019210815,15.9040479660034,15.904993057251,15.9059391021729,15.9068851470947,15.9078350067139,15.9087820053101,15.9097261428833,15.9106731414795,15.91162109375,15.9125661849976,15.9135150909424,15.9144639968872,15.9154100418091,15.9163570404053,15.9173040390015,15.9182510375977,15.9191980361938,15.9201459884644,15.9210948944092,15.922046661377,15.9229927062988,15.9239416122437,15.9248886108398,15.925838470459,15.9267854690552,15.9277334213257,15.9286870956421,15.9296360015869,15.9305839538574,15.9315328598022,15.9324827194214,15.9334325790405,15.9343795776367,15.9353294372559,15.9362802505493,15.9372310638428,15.9381799697876,15.9391279220581,15.9400777816772,15.9410266876221,15.9419794082642,15.9429264068604,15.9438800811768,15.9448308944702,15.9457817077637,15.9467334747314,15.9476823806763,15.948634147644,15.9495868682861,15.9505395889282,15.9514923095703,15.9524431228638,15.9533939361572,15.9543447494507,15.9552965164185,15.9562482833862,15.9572010040283,15.9581565856934,15.9591093063354,15.9600591659546,15.961012840271,15.9619665145874,15.9629182815552,15.9638729095459,15.9648275375366,15.9657802581787,15.9667320251465,15.9676856994629,15.968638420105,15.9695920944214,15.9705457687378,15.9715003967285,15.9724578857422,15.9734106063843,15.974365234375,15.9753179550171,15.9762744903564,15.9772272109985,15.9770040512085,15.9569540023804,15.9369554519653,15.9170064926147,15.8971071243286,15.8772583007812,15.857458114624,14.0470161437988,13.5841131210327,13.5550870895386,13.5261850357056,13.4974060058594,13.46875,13.4402141571045,13.4117994308472,13.3835048675537,13.3553295135498,13.3272724151611,13.2993326187134,13.2715101242065,13.2438039779663,13.216212272644,13.1887359619141,13.1613740921021,13.1341247558594,13.106987953186,13.079963684082,13.053050994873,13.0262479782104,12.9995546340942,12.9729709625244,12.9464960098267,12.9201278686523,12.8938684463501,12.8677139282227,12.8416662216187,12.8157243728638,12.7898855209351,12.7641515731812,12.7385215759277,12.7129936218262,12.6875677108765,12.6622428894043,12.637020111084,12.6118965148926,12.5868730545044,12.5619487762451,12.5371227264404,12.5123949050903,12.4877643585205,12.463231086731,12.4386787414551,12.4137573242188,12.3889360427856,12.3642129898071,12.3395891189575,12.3150625228882,12.2906341552734,12.2663021087646,12.2420654296875,12.2179250717163,12.1938800811768,12.1699285507202,12.146071434021,12.1223077774048,12.0986366271973,12.0750579833984,12.051570892334,12.0281753540039,12.0048704147339,11.9816560745239,11.9585304260254,11.9354944229126,11.9125461578369,11.8896865844727,11.8669147491455,11.8461580276489,11.8268728256226,11.8076505661011,11.7884912490845,11.7693929672241,11.7503576278687,11.7313833236694,11.7124691009521,11.6936168670654,11.674825668335,11.6560935974121,11.6374225616455,11.6188106536865,11.6002578735352,11.5817651748657,11.5633306503296,11.5449542999268,11.5266370773315,11.5083780288696,11.4901762008667,11.4720315933228,11.4539451599121,11.4359149932861,11.4179410934448,11.4000244140625,11.3821640014648,11.3643589019775,11.3432378768921,11.3145265579224,11.2859601974487,11.2575378417969,11.2292585372925,11.2011203765869,11.1731233596802,11.1452655792236,11.117546081543,11.0899648666382,11.0625190734863,11.0352096557617,11.0080347061157,10.980993270874,10.9540843963623,10.9273071289062,10.9006595611572,10.8741426467896,10.8477544784546,10.821494102478,10.7953596115112,10.7693519592285,10.7434692382812,10.7177104949951,10.6920738220215,10.666561126709,10.6411695480347,10.6152906417847,10.5853548049927,10.5555877685547,10.5259876251221,10.4965534210205,10.4672832489014,10.438175201416,10.4092292785645,10.3804426193237,10.3518152236938,10.3233451843262,10.2950325012207,0,0,0,0,0,0,0,0,0,0,0,0,0,0,0,0,0,0,0,0,0,0,0,0,0,0,0,0,0,0,0,0,0,0,0,0,0,0,0,0,0,0,0,0,0,0,0,0,0,0,0,0,0,0,0,0,0,0,0,0,0,0,0,0,0,0,0,0,0,0,0,0,0,0,0,0,0,0,0,0,0,0,0,0,0,0,0,0,0,0,0,0,0,0,0,0,0,0,0,0,0,0,0,0,0,0,0,0,0,0,0,0,0,0,0,0,0,0,0,0,0,0,0,0,0,0,0,0,0,0,0,0,0,0,0,0,0,0,0,0,0,0,0,0,0,0,0,0,0,0,0,0,0,0,0,0,0,0,0,0,0,0,0,0,0,0,0,0,0,0,0,0,0,0,0,0,0,0,0,0
15.7711238861084,15.7720537185669,15.7729835510254,15.7739143371582,15.774847984314,15.7757797241211,15.776707649231,15.7776393890381,15.7785692214966,15.779501914978,15.7804317474365,15.781364440918,15.7822980880737,15.7832288742065,15.7841606140137,15.7850914001465,15.7860240936279,15.7869558334351,15.7878885269165,15.788818359375,15.7897548675537,15.7906847000122,15.7916193008423,15.7925500869751,15.7934846878052,15.7944164276123,15.7953481674194,15.7962846755981,15.7972173690796,15.798150062561,15.7990837097168,15.8000173568726,15.8009519577026,15.8018836975098,15.8028182983398,15.8037538528442,15.8046894073486,15.8056221008301,15.8065547943115,15.8074913024902,15.8084259033203,15.8093566894531,15.8102941513062,15.8112297058105,15.8121643066406,15.8130970001221,15.8140325546265,15.8149690628052,15.8159027099609,15.8168392181396,15.8177766799927,15.8187141418457,15.8196487426758,15.8205842971802,15.8215198516846,15.822455406189,15.8233919143677,15.8243284225464,15.8252658843994,15.8262023925781,15.8271408081055,15.8280754089355,15.8290138244629,15.8299522399902,15.8308877944946,15.8318271636963,15.832763671875,15.833703994751,15.8346376419067,15.8355751037598,15.8365135192871,15.8374519348145,15.8383903503418,15.8393297195435,15.8402690887451,15.8412055969238,15.8421449661255,15.8430824279785,15.8440198898315,15.8449611663818,15.8459024429321,15.8468408584595,15.8477802276611,15.8416986465454,15.1132335662842,13.5988388061523,13.5697498321533,13.5407857894897,13.511944770813,13.483226776123,13.4546298980713,13.4261541366577,13.3977994918823,13.3695631027222,13.3414459228516,13.3134469985962,13.2855653762817,13.2578001022339,13.2301511764526,13.2026166915894,13.175196647644,13.1478910446167,13.1206970214844,13.0936164855957,13.0666465759277,13.0397882461548,13.0130395889282,12.986400604248,12.9598712921143,12.9334487915039,12.9071350097656,12.8809270858765,12.8548259735107,12.8288297653198,12.802939414978,12.7771530151367,12.7514696121216,12.7258901596069,12.7004127502441,12.6750373840332,12.6497631072998,12.6245889663696,12.5995149612427,12.5745410919189,12.5496654510498,12.5248880386353,12.5002088546753,12.4756259918213,12.4511394500732,12.4267492294312,12.4023876190186,12.3776111602783,12.352933883667,12.3283538818359,12.3038730621338,12.2794885635376,12.2552003860474,12.2310075759888,12.2069110870361,12.1829090118408,12.1590003967285,12.1351861953735,12.1114654541016,12.087836265564,12.0642995834351,12.0408544540405,12.0175008773804,11.994236946106,11.9710626602173,11.9479780197144,11.9249830245972,11.9020757675171,11.8792562484741,11.8565235137939,11.8350009918213,11.8157529830933,11.7965660095215,11.7774429321289,11.7583808898926,11.7393798828125,11.720440864563,11.7015628814697,11.6827459335327,11.6639881134033,11.6452913284302,11.626654624939,11.6080770492554,11.5895595550537,11.5711002349854,11.5526990890503,11.5343570709229,11.5160732269287,11.4978475570679,11.479679107666,11.4615678787231,11.4435138702393,11.4255170822144,11.4075765609741,11.3896913528442,11.3718633651733,11.3540906906128,11.3363733291626,11.3187112808228,11.3011045455933,11.2727003097534,11.2443447113037,11.2161312103271,11.1880588531494,11.1601266860962,11.1323337554932,11.104679107666,11.0771608352661,11.0497789382935,11.0225324630737,10.9954195022583,10.9684400558472,10.9415922164917,10.9148759841919,10.8882894515991,10.8618326187134,10.835503578186,10.8093023300171,10.7832269668579,10.7572774887085,10.7314519882202,10.7057514190674,10.6801729202271,10.6547155380249,10.6293802261353,10.6041650772095,10.577109336853,10.5473880767822,10.5178337097168,0,0,0,0,0,0,0,0,0,0,0,0,0,0,0,0,0,0,0,0,0,0,0,0,0,0,0,0,0,0,0,0,0,0,0,0,0,0,0,0,0,0,0,0,0,0,0,0,0,0,0,0,0,0,0,0,0,0,0,0,0,0,0,0,0,0,0,0,0,0,0,0,0,0,0,0,0,0,0,0,0,0,0,0,0,0,0,0,0,0,0,0,0,0,0,0,0,0,0,0,0,0,0,0,0,0,0,0,0,0,0,0,0,0,0,0,0,0,0,0,0,0,0,0,0,0,0,0,0,0,0,0,0,0,0,0,0,0,0,0,0,0,0,0,0,0,0,0,0,0,0,0,0,0,0,0,0,0,0,0,0,0,0,0,0,0,0,0,0,0,0,0,0,0,0,0,0,0,0,0,0,0,0,0,0,0,0,0,0
15.6422338485718,15.6431484222412,15.6440649032593,15.644983291626,15.6458969116211,15.6468133926392,15.6477308273315,15.6486444473267,15.6495590209961,15.6504745483398,15.6513929367065,15.6523084640503,15.653223991394,15.6541404724121,15.6550569534302,15.6559734344482,15.6568908691406,15.6578054428101,15.6587266921997,15.6596450805664,15.6605596542358,15.6614761352539,15.6623954772949,15.663311958313,15.6642284393311,15.6651458740234,15.6660690307617,15.6669836044312,15.6679019927979,15.6688203811646,15.6697397232056,15.6706552505493,15.6715755462646,15.6724920272827,15.673412322998,15.6743326187134,15.6752529144287,15.6761684417725,15.6770896911621,15.6780090332031,15.6789274215698,15.6798467636108,15.6807670593262,15.6816835403442,15.6826038360596,15.6835222244263,15.6844434738159,15.6853647232056,15.6862831115723,15.6872053146362,15.6881246566772,15.6890439987183,15.6899671554565,15.6908874511719,15.6918087005615,15.6927299499512,15.6936540603638,15.6945724487305,15.6954946517944,15.6964139938354,15.6973371505737,15.6982564926147,15.699179649353,15.7001008987427,15.7010250091553,15.7019491195679,15.7028703689575,15.7037897109985,15.7047119140625,15.7056350708008,15.7065572738647,15.7074775695801,15.7084045410156,15.7093286514282,15.7102499008179,15.7111749649048,15.7120962142944,15.7130184173584,15.7139444351196,15.7148675918579,15.7157936096191,15.7167139053345,14.5567989349365,13.5844449996948,13.5554180145264,13.526515007019,13.4977340698242,13.4690761566162,13.4405393600464,13.4121236801147,13.3838272094727,13.3556509017944,13.3275918960571,13.2996511459351,13.2718267440796,13.244119644165,13.2165269851685,13.1890487670898,13.1616859436035,13.1344356536865,13.1072978973389,13.0802717208862,13.0533571243286,13.0265531539917,12.9998588562012,12.973274230957,12.9467973709106,12.920428276062,12.8941669464111,12.8680124282837,12.8419637680054,12.8160190582275,12.7901802062988,12.7644453048706,12.7388134002686,12.7132844924927,12.6878576278687,12.6625318527222,12.6373071670532,12.6121826171875,12.587158203125,12.5622329711914,12.5374059677124,12.512677192688,12.4880456924438,12.4635105133057,12.4390716552734,12.4147291183472,12.3904809951782,12.366307258606,12.3416748046875,12.3171405792236,12.2927026748657,12.2683620452881,12.2441177368164,12.2199697494507,12.1959161758423,12.1719570159912,12.1480922698975,12.1243209838867,12.1006422042847,12.077054977417,12.053560256958,12.0301570892334,12.0068445205688,11.98362159729,11.9604892730713,11.9374446868896,11.9144897460938,11.891622543335,11.8688430786133,11.8461513519287,11.8238649368286,11.8046531677246,11.7855024337769,11.766414642334,11.7473878860474,11.7284231185913,11.7095193862915,11.6906766891479,11.6718940734863,11.6531715393066,11.6345100402832,11.6159076690674,11.5973644256592,11.5788803100586,11.5604553222656,11.542088508606,11.5237798690796,11.5055294036865,11.4873371124268,11.469202041626,11.4511232376099,11.4331026077271,11.4151382446289,11.3972301483154,11.3793773651123,11.3615818023682,11.3438405990601,11.3261556625366,11.3085250854492,11.2909498214722,11.2734289169312,11.2559623718262,11.2311820983887,11.2030344009399,11.17502784729,11.1471605300903,11.1194324493408,11.0918407440186,11.0643863677979,11.0370683670044,11.0098838806152,10.9828329086304,10.9559154510498,10.9291286468506,10.902473449707,10.8759469985962,10.8495502471924,10.8232803344727,10.7971382141113,10.7711210250854,10.7452297210693,10.7194623947144,10.6938190460205,0,0,0,0,0,0,0,0,0,0,0,0,0,0,0,0,0,0,0,0,0,0,0,0,0,0,0,0,0,0,0,0,0,0,0,0,0,0,0,0,0,0,0,0,0,0,0,0,0,0,0,0,0,0,0,0,0,0,0,0,0,0,0,0,0,0,0,0,0,0,0,0,0,0,0,0,0,0,0,0,0,0,0,0,0,0,0,0,0,0,0,0,0,0,0,0,0,0,0,0,0,0,0,0,0,0,0,0,0,0,0,0,0,0,0,0,0,0,0,0,0,0,0,0,0,0,0,0,0,0,0,0,0,0,0,0,0,0,0,0,0,0,0,0,0,0,0,0,0,0,0,0,0,0,0,0,0,0,0,0,0,0,0,0,0,0,0,0,0,0,0,0,0,0,0,0,0,0,0,0,0,0,0,0,0,0,0,0,0,0,0,0,0,0,0,0,0
15.515435218811,15.5163335800171,15.517237663269,15.5181398391724,15.5190391540527,15.5199384689331,15.5208377838135,15.5217409133911,15.5226411819458,15.5235424041748,15.5244464874268,15.5253477096558,15.5262498855591,15.5271482467651,15.5280504226685,15.5289535522461,15.5298528671265,15.5307569503784,15.5316600799561,15.5325613021851,15.533465385437,15.534366607666,15.5352687835693,15.5361709594727,15.537073135376,15.5379800796509,15.5388793945312,15.5397834777832,15.5406875610352,15.5415916442871,15.5424928665161,15.5433979034424,15.5443000793457,15.545205116272,15.5461111068726,15.5470142364502,15.5479173660278,15.5488214492798,15.5497255325317,15.5506296157837,15.5515375137329,15.5524396896362,15.5533447265625,15.5542507171631,15.5551500320435,15.5560569763184,15.556960105896,15.5578641891479,15.5587720870972,15.5596790313721,15.5605840682983,15.5614891052246,15.5623950958252,15.5633010864258,15.5642042160034,15.5651140213013,15.5660209655762,15.5669250488281,15.5678329467773,15.5687370300293,15.5696458816528,15.5705509185791,15.5714569091797,15.5723657608032,15.5732727050781,15.574179649353,15.5750865936279,15.5759935379028,15.5769014358521,15.5778064727783,15.5787181854248,15.5796270370483,15.5805330276489,15.5814428329468,15.5823497772217,15.5832567214966,15.5841636657715,15.5850744247437,15.5859823226929,15.5868940353394,13.5709247589111,13.555811882019,13.540732383728,13.5122737884521,13.4835538864136,13.4549560546875,13.4264783859253,13.3981218338013,13.3698854446411,13.3417663574219,13.3137664794922,13.2858829498291,13.2581167221069,13.2304658889771,13.2029304504395,13.1755094528198,13.1482019424438,13.1210069656372,13.0939245223999,13.0669546127319,13.0400943756104,13.0133447647095,12.986704826355,12.9601736068726,12.9337501525879,12.907434463501,12.8812255859375,12.8551235198975,12.8291263580322,12.8032341003418,12.7774467468262,12.7517623901367,12.7261819839478,12.7007036209106,12.6753263473511,12.6500511169434,12.6248760223389,12.5998010635376,12.5748252868652,12.5499486923218,12.5251703262329,12.5004892349243,12.4759063720703,12.4514188766479,12.4270277023315,12.4027318954468,12.3785305023193,12.3544235229492,12.3304100036621,12.3059463500977,12.2815532684326,12.2572574615479,12.2330570220947,12.2089519500732,12.1849412918091,12.1610260009766,12.1372032165527,12.1134738922119,12.0898380279541,12.0662937164307,12.0428400039673,12.0194787979126,11.9962072372437,11.9730253219604,11.949933052063,11.9269304275513,11.9040155410767,11.8811883926392,11.8584489822388,11.8357963562012,11.8132305145264,11.7935733795166,11.7744598388672,11.755407333374,11.7364168167114,11.7174873352051,11.6986179351807,11.6798105239868,11.6610631942749,11.6423749923706,11.6237478256226,11.6051797866821,11.5866708755493,11.5682210922241,11.5498294830322,11.5314960479736,11.5132217407227,11.4950046539307,11.4768447875977,11.4587430953979,11.4406976699829,11.4227094650269,11.4047775268555,11.3869018554688,11.3690824508667,11.351318359375,11.3336095809937,11.3159561157227,11.298357963562,11.2808132171631,11.2633237838745,11.245888710022,11.2285070419312,11.2111797332764,11.1899690628052,11.1620273590088,11.1342248916626,11.1065607070923,11.0790328979492,11.0516424179077,11.0243864059448,10.9972648620605,10.9702758789062,10.9434194564819,10.916693687439,10.8900985717773,10.8636331558228,0,0,0,0,0,0,0,0,0,0,0,0,0,0,0,0,0,0,0,0,0,0,0,0,0,0,0,0,0,0,0,0,0,0,0,0,0,0,0,0,0,0,0,0,0,0,0,0,0,0,0,0,0,0,0,0,0,0,0,0,0,0,0,0,0,0,0,0,0,0,0,0,0,0,0,0,0,0,0,0,0,0,0,0,0,0,0,0,0,0,0,0,0,0,0,0,0,0,0,0,0,0,0,0,0,0,0,0,0,0,0,0,0,0,0,0,0,0,0,0,0,0,0,0,0,0,0,0,0,0,0,0,0,0,0,0,0,0,0,0,0,0,0,0,0,0,0,0,0,0,0,0,0,0,0,0,0,0,0,0,0,0,0,0,0,0,0,0,0,0,0,0,0,0,0,0,0,0,0,0,0,0,0,0,0,0,0,0,0,0,0,0,0,0,0,0,0,0,0,0,0,0,0,0,0
15.3906745910645,15.3915643692017,15.3924465179443,15.3933343887329,15.3942193984985,15.3951053619385,15.3959913253784,15.3968772888184,15.3977642059326,15.3986539840698,15.3995380401611,15.4004287719727,15.4013137817383,15.4021987915039,15.4030866622925,15.4039726257324,15.4048652648926,15.4057512283325,15.4066381454468,15.407525062561,15.4084119796753,15.4092998504639,15.4101915359497,15.4110765457153,15.4119682312012,15.4128570556641,15.413743019104,15.4146327972412,15.4155225753784,15.416410446167,15.4172973632812,15.4181880950928,15.4190769195557,15.4199686050415,15.4208574295044,15.4217462539673,15.4226360321045,15.4235248565674,15.424412727356,15.4253063201904,15.426197052002,15.4270849227905,15.4279756546021,15.4288644790649,15.4297533035278,15.430645942688,15.4315319061279,15.4324254989624,15.4333152770996,15.4342060089111,15.4350967407227,15.4359884262085,15.4368801116943,15.4377689361572,15.4386644363403,15.4395561218262,15.4404458999634,15.4413394927979,15.4422302246094,15.4431209564209,15.4440145492554,15.4449033737183,15.44580078125,15.4466896057129,15.447582244873,15.4484748840332,15.4493675231934,15.4502611160278,15.4511547088623,15.4520492553711,15.4529399871826,15.4538345336914,15.4547271728516,15.4556217193604,15.4565114974976,15.457407951355,13.5475606918335,13.5324993133545,13.5174722671509,13.502477645874,13.4875164031982,13.4725885391235,13.4576940536499,13.4408645629883,13.412446975708,13.3841495513916,13.3559713363647,13.3279113769531,13.2999696731567,13.272144317627,13.2444353103638,13.2168416976929,13.1893625259399,13.161997795105,13.1347455978394,13.1076068878174,13.0805797576904,13.0536642074585,13.0268583297729,13.0001630783081,12.9735765457153,12.9470987319946,12.920729637146,12.8944664001465,12.8683099746704,12.8422603607178,12.8163146972656,12.7904748916626,12.7647380828857,12.7391052246094,12.7135753631592,12.6881475448608,12.66282081604,12.6375942230225,12.6124696731567,12.5874433517456,12.5625171661377,12.5376892089844,12.5129585266113,12.4883260726929,12.4637899398804,12.4393501281738,12.4150066375732,12.39075756073,12.366602897644,12.3425426483154,12.3185758590698,12.2947015762329,12.2704238891602,12.2461719512939,12.2220153808594,12.1979532241821,12.1739864349365,12.1501131057739,12.1263341903687,12.1026468276978,12.0790529251099,12.0555505752563,12.0321397781372,12.0088186264038,11.9855880737305,11.9624481201172,11.9393968582153,11.9164342880249,11.8935594558716,11.8707723617554,11.8480730056763,11.82546043396,11.8029327392578,11.7825155258179,11.7634372711182,11.7444200515747,11.7254648208618,11.7065706253052,11.6877374649048,11.6689643859863,11.6502513885498,11.6315984725952,11.6130056381226,11.5944719314575,11.5759963989258,11.557580947876,11.5392236709595,11.520923614502,11.5026826858521,11.4844989776611,11.4663724899292,11.4483032226562,11.4302911758423,11.412335395813,11.3944358825684,11.3765926361084,11.3588056564331,11.3410730361938,11.3233966827393,11.3057746887207,11.2882080078125,11.2706956863403,11.2532377243042,11.2358331680298,11.2184829711914,11.2011861801147,11.1839427947998,11.1667518615723,11.1490564346313,11.1213188171387,11.0937185287476,11.0662546157837,11.0389270782471,11.0117340087891,0,0,0,0,0,0,0,0,0,0,0,0,0,0,0,0,0,0,0,0,0,0,0,0,0,0,0,0,0,0,0,0,0,0,0,0,0,0,0,0,0,0,0,0,0,0,0,0,0,0,0,0,0,0,0,0,0,0,0,0,0,0,0,0,0,0,0,0,0,0,0,0,0,0,0,0,0,0,0,0,0,0,0,0,0,0,0,0,0,0,0,0,0,0,0,0,0,0,0,0,0,0,0,0,0,0,0,0,0,0,0,0,0,0,0,0,0,0,0,0,0,0,0,0,0,0,0,0,0,0,0,0,0,0,0,0,0,0,0,0,0,0,0,0,0,0,0,0,0,0,0,0,0,0,0,0,0,0,0,0,0,0,0,0,0,0,0,0,0,0,0,0,0,0,0,0,0,0,0,0,0,0,0,0,0,0,0,0,0,0,0,0,0,0,0,0,0,0,0,0,0,0,0,0,0,0,0,0,0,0,0,0
15.2679080963135,15.2687816619873,15.2696533203125,15.2705211639404,15.2713928222656,15.2722654342651,15.2731380462646,15.2740106582642,15.274884223938,15.2757568359375,15.2766275405884,15.2775020599365,15.2783737182617,15.2792453765869,15.2801198959351,15.2809953689575,15.281867980957,15.2827405929565,15.2836141586304,15.2844877243042,15.285361289978,15.2862358093262,15.2871065139771,15.2879848480225,15.2888565063477,15.2897319793701,15.2906045913696,15.2914810180664,15.2923545837402,15.2932281494141,15.2941083908081,15.2949829101562,15.2958536148071,15.2967290878296,15.2976045608521,15.2984800338745,15.299355506897,15.3002319335938,15.3011083602905,15.3019847869873,15.3028593063354,15.3037366867065,15.3046112060547,15.3054866790771,15.3063611984253,15.307240486145,15.3081159591675,15.3089923858643,15.3098659515381,15.3107433319092,15.3116207122803,15.3124942779541,15.3133726119995,15.3142538070679,15.3151292800903,15.3160085678101,15.3168840408325,15.3177604675293,15.3186368942261,15.3195142745972,15.3203916549683,15.3212728500366,15.3221502304077,15.3230285644531,15.3239078521729,15.3247833251953,15.325662612915,15.3265390396118,15.3274221420288,15.3282995223999,15.3291797637939,15.3300580978394,13.5242776870728,13.5092678070068,13.494291305542,13.4793491363525,13.4644384384155,13.4495620727539,13.434718132019,13.4199066162109,13.4051275253296,13.390380859375,13.3756675720215,13.3609857559204,13.3420867919922,13.3140850067139,13.2862005233765,13.25843334198,13.2307815551758,13.2032442092896,13.1758222579956,13.148512840271,13.12131690979,13.0942335128784,13.0672616958618,13.0404005050659,13.0136499404907,12.9870080947876,12.9604759216309,12.9340515136719,12.9077348709106,12.8815240859985,12.8554210662842,12.8294229507446,12.8035297393799,12.7777404785156,12.7520551681519,12.7264728546143,12.7009935379028,12.6756153106689,12.6503391265869,12.6251630783081,12.6000871658325,12.5751104354858,12.5502328872681,12.5254526138306,12.5007705688477,12.476185798645,12.4516973495483,12.4273052215576,12.4030084609985,12.3788061141968,12.3546981811523,12.3306837081909,12.3067626953125,12.2829351425171,12.2591981887817,12.2351064682007,12.2109928131104,12.1869745254517,12.1630506515503,12.1392211914062,12.1154842376709,12.0918397903442,12.068286895752,12.0448265075684,12.0214576721191,11.9981784820557,11.9749889373779,11.9518890380859,11.9288787841797,11.9059562683105,11.8831214904785,11.8603754043579,11.8377151489258,11.8151416778564,11.7926540374756,11.7714786529541,11.7524356842041,11.7334547042847,11.7145338058472,11.6956748962402,11.6768770217896,11.6581382751465,11.6394605636597,11.6208419799805,11.6022834777832,11.5837831497192,11.5653429031372,11.5469608306885,11.528636932373,11.5103712081909,11.4921627044678,11.4740123748779,11.4559192657471,11.4378833770752,11.419903755188,11.4019804000854,11.3841133117676,11.3663024902344,11.3485469818115,11.330846786499,11.3132019042969,11.2956123352051,11.2780771255493,11.2605962753296,11.2431688308716,11.2257957458496,11.2084760665894,11.1912107467651,11.173996925354,11.1568374633789,11.1397294998169,0,0,0,0,0,0,0,0,0,0,0,0,0,0,0,0,0,0,0,0,0,0,0,0,0,0,0,0,0,0,0,0,0,0,0,0,0,0,0,0,0,0,0,0,0,0,0,0,0,0,0,0,0,0,0,0,0,0,0,0,0,0,0,0,0,0,0,0,0,0,0,0,0,0,0,0,0,0,0,0,0,0,0,0,0,0,0,0,0,0,0,0,0,0,0,0,0,0,0,0,0,0,0,0,0,0,0,0,0,0,0,0,0,0,0,0,0,0,0,0,0,0,0,0,0,0,0,0,0,0,0,0,0,0,0,0,0,0,0,0,0,0,0,0,0,0,0,0,0,0,0,0,0,0,0,0,0,0,0,0,0,0,0,0,0,0,0,0,0,0,0,0,0,0,0,0,0,0,0,0,0,0,0,0,0,0,0,0,0,0,0,0,0,0,0,0,0,0,0,0,0,0,0,0,0,0,0,0,0,0,0,0,0,0,0,0,0,0,0
15.1470813751221,15.1479387283325,15.1487970352173,15.1496524810791,15.1505107879639,15.1513671875,15.1522264480591,15.1530866622925,15.1539468765259,15.154803276062,15.1556644439697,15.1565217971802,15.1573801040649,15.158239364624,15.1591005325317,15.1599597930908,15.1608200073242,15.1616792678833,15.1625394821167,15.1633968353271,15.1642570495605,15.1651220321655,15.1659803390503,15.166841506958,15.1677007675171,15.1685600280762,15.1694192886353,15.1702785491943,15.171142578125,15.1720056533813,15.1728668212891,15.1737279891968,15.1745891571045,15.1754474639893,15.1763095855713,15.1771688461304,15.1780319213867,15.1788949966431,15.1797580718994,15.1806182861328,15.1814823150635,15.1823434829712,15.1832046508789,15.1840667724609,15.1849317550659,15.185791015625,15.1866569519043,15.1875171661377,15.188380241394,15.1892404556274,15.1901016235352,15.1909656524658,15.1918306350708,15.1926918029785,15.1935539245605,15.1944198608398,15.1952829360962,15.1961460113525,15.1970090866089,15.1978759765625,15.1987400054932,15.1996011734009,15.2004661560059,15.2013311386108,15.2021932601929,15.2030582427979,15.2039213180542,15.2047910690308,13.5010738372803,13.4861154556274,13.4711904525757,13.456298828125,13.4414396286011,13.4266138076782,13.4118204116821,13.3970594406128,13.3823308944702,13.3676347732544,13.352970123291,13.3383388519287,13.3237390518188,13.3091707229614,13.2946348190308,13.2801303863525,13.2656583786011,13.2447509765625,13.217155456543,13.1896753311157,13.1623086929321,13.1350564956665,13.1079158782959,13.0808877944946,13.0539703369141,13.0271635055542,13.000467300415,12.9738798141479,12.9474010467529,12.9210300445557,12.8947658538818,12.8686084747314,12.8425569534302,12.8166103363037,12.7907695770264,12.7650318145752,12.7393980026245,12.7138662338257,12.6884365081787,12.6631088256836,12.637882232666,12.6127557754517,12.5877285003662,12.562801361084,12.537971496582,12.513240814209,12.4886064529419,12.4640693664551,12.4396286010742,12.4152841567993,12.3910331726074,12.3668785095215,12.3428163528442,12.3188486099243,12.2949733734131,12.2711906433105,12.2474994659424,12.2238998413086,12.1999912261963,12.1760158538818,12.1521348953247,12.1283483505249,12.1046533584595,12.0810508728027,12.0575408935547,12.034122467041,12.0107936859131,11.9875564575195,11.9644079208374,11.941349029541,11.9183788299561,11.8954973220825,11.8727025985718,11.8499956130981,11.8273754119873,11.8048410415649,11.7823925018311,11.760461807251,11.7414541244507,11.722508430481,11.7036237716675,11.6848001480103,11.666036605835,11.6473331451416,11.6286888122559,11.6101055145264,11.5915803909302,11.5731153488159,11.554708480835,11.5363597869873,11.5180692672729,11.4998369216919,11.4816627502441,11.4635448455811,11.4454851150513,11.4274816513062,11.4095344543457,11.3916444778442,11.3738098144531,11.3560304641724,11.3383073806763,11.3206396102905,11.3030261993408,11.2854681015015,11.2679643630981,11.2505140304565,11.233118057251,11.2157764434814,0,0,0,0,0,0,0,0,0,0,0,0,0,0,0,0,0,0,0,0,0,0,0,0,0,0,0,0,0,0,0,0,0,0,0,0,0,0,0,0,0,0,0,0,0,0,0,0,0,0,0,0,0,0,0,0,0,0,0,0,0,0,0,0,0,0,0,0,0,0,0,0,0,0,0,0,0,0,0,0,0,0,0,0,0,0,0,0,0,0,0,0,0,0,0,0,0,0,0,0,0,0,0,0,0,0,0,0,0,0,0,0,0,0,0,0,0,0,0,0,0,0,0,0,0,0,0,0,0,0,0,0,0,0,0,0,0,0,0,0,0,0,0,0,0,0,0,0,0,0,0,0,0,0,0,0,0,0,0,0,0,0,0,0,0,0,0,0,0,0,0,0,0,0,0,0,0,0,0,0,0,0,0,0,0,0,0,0,0,0,0,0,0,0,0,0,0,0,0,0,0,0,0,0,0,0,0,0,0,0,0,0,0,0,0,0,0,0,0,0,0,0,0,0,0,0
15.028148651123,15.0289936065674,15.029839515686,15.0306816101074,15.0315275192261,15.032374382019,15.033221244812,15.0340623855591,15.0349092483521,15.0357542037964,15.0365991592407,15.0374441146851,15.0382890701294,15.039137840271,15.039984703064,15.0408277511597,15.0416746139526,15.0425186157227,15.0433654785156,15.04421043396,15.0450611114502,15.0459060668945,15.0467548370361,15.0476007461548,15.0484466552734,15.0492935180664,15.0501403808594,15.0509872436523,15.0518369674683,15.0526847839355,15.0535297393799,15.0543785095215,15.0552263259888,15.0560722351074,15.0569219589233,15.0577716827393,15.0586175918579,15.0594682693481,15.0603151321411,15.0611629486084,15.0620107650757,15.0628595352173,15.0637073516846,15.0645599365234,15.0654058456421,15.066258430481,15.0671052932739,15.0679521560669,15.0688028335571,15.0696496963501,15.0705013275146,15.0713491439819,15.0721979141235,15.0730504989624,15.073899269104,15.0747451782227,15.0755949020386,15.0764455795288,15.077299118042,15.0781497955322,15.0789976119995,15.0798492431641,15.0807008743286,15.0815496444702,13.4779491424561,13.4630422592163,13.4481687545776,13.4333276748657,13.4185190200806,13.4037437438965,13.3890008926392,13.3742895126343,13.3596115112305,13.3449649810791,13.3303508758545,13.3157682418823,13.3012180328369,13.2866992950439,13.2722120285034,13.2577571868896,13.243332862854,13.2289400100708,13.21457862854,13.2002487182617,13.1859493255615,13.1716814041138,13.1488237380981,13.1216268539429,13.0945425033569,13.0675687789917,13.0407066345215,13.0139541625977,12.9873113632202,12.9607782363892,12.9343519210815,12.908034324646,12.8818235397339,12.8557186126709,12.8297185897827,12.8038244247437,12.7780342102051,12.752347946167,12.7267646789551,12.701283454895,12.6759052276611,12.6506271362305,12.6254501342773,12.6003723144531,12.5753946304321,12.55051612854,12.5257349014282,12.501051902771,12.476466178894,12.451976776123,12.427583694458,12.4032850265503,12.3790817260742,12.3549728393555,12.3309574127197,12.307035446167,12.2832059860229,12.2594690322876,12.2358226776123,12.2122678756714,12.1888036727905,12.1650772094727,12.1412391662598,12.1174945831299,12.0938425064087,12.0702819824219,12.0468139648438,12.0234365463257,12.0001497268677,11.9769525527954,11.9538459777832,11.9308271408081,11.9078979492188,11.8850555419922,11.8623018264771,11.8396348953247,11.8170528411865,11.7945585250854,11.7721490859985,11.7498245239258,11.7304935455322,11.7115831375122,11.6927337646484,11.6739444732666,11.6552152633667,11.636547088623,11.617938041687,11.5993881225586,11.5808982849121,11.5624666213989,11.544093132019,11.5257787704468,11.5075216293335,11.4893226623535,11.4711818695068,11.4530973434448,11.4350700378418,11.4170989990234,11.3991851806641,11.381326675415,11.3635244369507,11.3457775115967,11.328085899353,11.3104496002197,11.2928686141968,11.2753419876099,11.2578687667847,0,0,0,0,0,0,0,0,0,0,0,0,0,0,0,0,0,0,0,0,0,0,0,0,0,0,0,0,0,0,0,0,0,0,0,0,0,0,0,0,0,0,0,0,0,0,0,0,0,0,0,0,0,0,0,0,0,0,0,0,0,0,0,0,0,0,0,0,0,0,0,0,0,0,0,0,0,0,0,0,0,0,0,0,0,0,0,0,0,0,0,0,0,0,0,0,0,0,0,0,0,0,0,0,0,0,0,0,0,0,0,0,0,0,0,0,0,0,0,0,0,0,0,0,0,0,0,0,0,0,0,0,0,0,0,0,0,0,0,0,0,0,0,0,0,0,0,0,0,0,0,0,0,0,0,0,0,0,0,0,0,0,0,0,0,0,0,0,0,0,0,0,0,0,0,0,0,0,0,0,0,0,0,0,0,0,0,0,0,0,0,0,0,0,0,0,0,0,0,0,0,0,0,0,0,0,0,0,0,0,0,0,0,0,0,0,0,0,0,0,0,0,0,0,0,0,0,0,0,0,0
14.9110708236694,14.911904335022,14.9127340316772,14.9135675430298,14.9144010543823,14.9152326583862,14.9160633087158,14.916898727417,14.9177274703979,14.9185562133789,14.9193887710571,14.9202213287354,14.9210577011108,14.9218912124634,14.922721862793,14.9235525131226,14.9243869781494,14.9252214431763,14.9260530471802,14.9268884658813,14.9277210235596,14.9285535812378,14.9293870925903,14.9302196502686,14.9310541152954,14.9318876266479,14.9327220916748,14.9335594177246,14.9343948364258,14.9352264404297,14.9360609054565,14.9368944168091,14.9377279281616,14.9385623931885,14.9394006729126,14.9402351379395,14.941068649292,14.9419031143188,14.9427394866943,14.9435729980469,14.9444074630737,14.9452428817749,14.9460802078247,14.9469156265259,14.9477500915527,14.9485874176025,14.9494218826294,14.9502592086792,14.9510917663574,14.9519290924072,14.95276927948,14.9536046981812,14.9544410705566,14.9552726745605,14.956109046936,14.9569454193115,14.957781791687,14.9586200714111,14.9594583511353,14.9602947235107,14.9611320495605,13.4400482177734,13.4252252578735,13.4104347229004,13.395676612854,13.3809518814087,13.3662586212158,13.3515977859497,13.336968421936,13.3223714828491,13.307806968689,13.2932739257812,13.278772354126,13.2643032073975,13.2498645782471,13.2354574203491,13.2210826873779,13.2067375183105,13.1924247741699,13.1781425476074,13.163890838623,13.1496706008911,13.1354808807373,13.1213216781616,13.1071929931641,13.0930938720703,13.079026222229,13.0542774200439,13.0274696350098,13.000771522522,12.9741830825806,12.9477024078369,12.9213304519653,12.8950653076172,12.8689060211182,12.8428535461426,12.8169059753418,12.7910633087158,12.7653245925903,12.7396898269653,12.7141571044922,12.6887264251709,12.6633977890015,12.6381692886353,12.6130418777466,12.5880136489868,12.5630855560303,12.538254737854,12.5135221481323,12.4888877868652,12.4643497467041,12.4399070739746,12.4155607223511,12.3913097381592,12.3671531677246,12.3430910110474,12.3191213607788,12.2952451705933,12.2714614868164,12.2477693557739,12.2241687774658,12.2006587982178,12.1772394180298,12.1539096832275,12.1303625106812,12.1066598892212,12.0830497741699,12.0595321655273,12.0361061096191,12.0127696990967,11.9895238876343,11.9663686752319,11.943302154541,11.9203243255615,11.8974351882935,11.8746328353882,11.8519191741943,11.829291343689,11.8067493438721,11.784294128418,11.761923789978,11.7396373748779,11.7195529937744,11.7006778717041,11.68186378479,11.6631097793579,11.6444149017334,11.6257810592651,11.6072063446045,11.5886907577515,11.5702352523804,11.5518369674683,11.5334978103638,11.5152168273926,11.4969930648804,11.4788274765015,11.4607191085815,11.4426679611206,11.4246730804443,11.4067354202271,11.3888530731201,11.3710279464722,11.3532571792603,11.335542678833,11.3178834915161,11.3002786636353,11.2827291488647,11.265233039856,11.2477922439575,11.2304048538208,11.2130708694458,0,0,0,0,0,0,0,0,0,0,0,0,0,0,0,0,0,0,0,0,0,0,0,0,0,0,0,0,0,0,0,0,0,0,0,0,0,0,0,0,0,0,0,0,0,0,0,0,0,0,0,0,0,0,0,0,0,0,0,0,0,0,0,0,0,0,0,0,0,0,0,0,0,0,0,0,0,0,0,0,0,0,0,0,0,0,0,0,0,0,0,0,0,0,0,0,0,0,0,0,0,0,0,0,0,0,0,0,0,0,0,0,0,0,0,0,0,0,0,0,0,0,0,0,0,0,0,0,0,0,0,0,0,0,0,0,0,0,0,0,0,0,0,0,0,0,0,0,0,0,0,0,0,0,0,0,0,0,0,0,0,0,0,0,0,0,0,0,0,0,0,0,0,0,0,0,0,0,0,0,0,0,0,0,0,0,0,0,0,0,0,0,0,0,0,0,0,0,0,0,0,0,0,0,0,0,0,0,0,0,0,0,0,0,0,0,0,0,0,0,0,0,0,0,0,0,0,0,0,0,0
14.795804977417,14.7966232299805,14.7974414825439,14.7982625961304,14.7990808486938,14.7999000549316,14.8007192611694,14.8015394210815,14.8023586273193,14.8031778335571,14.8039960861206,14.8048152923584,14.8056354522705,14.8064546585083,14.8072748184204,14.8080959320068,14.8089141845703,14.8097343444824,14.8105573654175,14.8113765716553,14.8121976852417,14.8130178451538,14.8138389587402,14.8146600723267,14.8154783248901,14.8162984848022,14.8171224594116,14.817943572998,14.8187665939331,14.8195858001709,14.8204078674316,14.8212299346924,14.8220491409302,14.8228750228882,14.8236970901489,14.8245182037354,14.8253402709961,14.8261613845825,14.8269834518433,14.827805519104,14.8286266326904,14.8294525146484,14.8302745819092,14.8310966491699,14.8319187164307,14.8327398300171,14.8335638046265,14.8343858718872,14.8352117538452,14.836033821106,14.8368587493896,14.8376808166504,14.8385028839111,14.8393268585205,14.8401517868042,14.8409719467163,14.8417978286743,13.4171323776245,13.4023599624634,13.387619972229,13.3729124069214,13.3582363128662,13.3435935974121,13.3289823532104,13.3144025802612,13.2998552322388,13.2853393554688,13.2708559036255,13.2564029693604,13.241982460022,13.2275924682617,13.2132339477539,13.1989068984985,13.1846103668213,13.1703453063965,13.1561107635498,13.1419067382812,13.1277332305908,13.1135911941528,13.0994787216187,13.0853967666626,13.0713453292847,13.0573244094849,13.0433320999146,13.0293712615967,13.0154399871826,13.001537322998,12.9876155853271,12.9610805511475,12.9346532821655,12.9083337783813,12.8821220397949,12.8560152053833,12.8300151824951,12.8041200637817,12.7783279418945,12.7526407241821,12.7270565032959,12.7015743255615,12.676194190979,12.650915145874,12.6257362365723,12.600658416748,12.5756797790527,12.550799369812,12.5260171890259,12.5013332366943,12.4767465591431,12.4522562026978,12.4278612136841,12.4035625457764,12.3793573379517,12.3552474975586,12.3312311172485,12.3073081970215,12.2834777832031,12.2597389221191,12.2360925674438,12.2125368118286,12.1890716552734,12.165696144104,12.1424102783203,12.1192140579224,12.0958452224731,12.0722770690918,12.0488014221191,12.0254163742065,12.002121925354,11.9789171218872,11.9558029174805,11.9327774047852,11.909839630127,11.8869905471802,11.8642292022705,11.8415546417236,11.8189659118652,11.7964639663696,11.7740468978882,11.7517156600952,11.7294683456421,11.7086334228516,11.689793586731,11.6710138320923,11.6522941589355,11.6336345672607,11.6150350570679,11.5964946746826,11.578013420105,11.559591293335,11.5412273406982,11.5229215621948,11.5046739578247,11.4864845275879,11.4683513641357,11.4502763748169,11.4322576522827,11.4142961502075,11.3963899612427,11.3785409927368,11.3607473373413,11.3430089950562,11.3253269195557,11.3076992034912,11.2901258468628,11.2726078033447,11.2551431655884,11.2377338409424,11.2203769683838,11.2030744552612,11.1858253479004,11.168628692627,0,0,0,0,0,0,0,0,0,0,0,0,0,0,0,0,0,0,0,0,0,0,0,0,0,0,0,0,0,0,0,0,0,0,0,0,0,0,0,0,0,0,0,0,0,0,0,0,0,0,0,0,0,0,0,0,0,0,0,0,0,0,0,0,0,0,0,0,0,0,0,0,0,0,0,0,0,0,0,0,0,0,0,0,0,0,0,0,0,0,0,0,0,0,0,0,0,0,0,0,0,0,0,0,0,0,0,0,0,0,0,0,0,0,0,0,0,0,0,0,0,0,0,0,0,0,0,0,0,0,0,0,0,0,0,0,0,0,0,0,0,0,0,0,0,0,0,0,0,0,0,0,0,0,0,0,0,0,0,0,0,0,0,0,0,0,0,0,0,0,0,0,0,0,0,0,0,0,0,0,0,0,0,0,0,0,0,0,0,0,0,0,0,0,0,0,0,0,0,0,0,0,0,0,0,0,0,0,0,0,0,0,0,0,0,0,0,0,0,0,0,0,0,0,0,0,0,0,0,0,0
14.6823053359985,14.6831121444702,14.6839199066162,14.6847267150879,14.6855335235596,14.6863403320312,14.6871471405029,14.6879529953003,14.688759803772,14.6895685195923,14.690375328064,14.69118309021,14.691987991333,14.6927928924561,14.6936006546021,14.694408416748,14.6952152252197,14.696026802063,14.6968326568604,14.6976413726807,14.6984481811523,14.6992568969727,14.70006275177,14.7008714675903,14.7016820907593,14.7024908065796,14.7032995223999,14.7041072845459,14.7049169540405,14.7057247161865,14.7065334320068,14.7073402404785,14.7081508636475,14.7089624404907,14.7097702026367,14.710578918457,14.7113885879517,14.712197303772,14.7130069732666,14.7138166427612,14.7146291732788,14.7154378890991,14.7162466049194,14.7170572280884,14.717866897583,14.7186765670776,14.7194852828979,14.7202987670898,14.7211093902588,14.7219209671021,14.7227306365967,14.7235403060913,14.7243509292603,13.3942947387695,13.3795728683472,13.3648824691772,13.3502244949341,13.3355989456177,13.3210048675537,13.3064432144165,13.2919130325317,13.2774143218994,13.2629480361938,13.2485122680664,13.2341089248657,13.2197360992432,13.205394744873,13.1910848617554,13.1768054962158,13.1625566482544,13.1483392715454,13.1341514587402,13.1199951171875,13.1058692932129,13.0917739868164,13.077709197998,13.0636739730835,13.0496683120728,13.0356941223145,13.0217485427856,13.007833480835,12.9939479827881,12.980092048645,12.9662656784058,12.952467918396,12.9387006759644,12.9249620437622,12.9112529754639,12.8953647613525,12.8692045211792,12.8431510925293,12.8172025680542,12.7913579940796,12.7656183242798,12.7399816513062,12.7144479751587,12.6890163421631,12.663685798645,12.6384572982788,12.6133279800415,12.5882987976074,12.5633687973022,12.538537979126,12.51380443573,12.4891681671143,12.4646291732788,12.440185546875,12.4158382415771,12.3915863037109,12.3674287796021,12.3433647155762,12.3193950653076,12.2955179214478,12.2717323303223,12.2480392456055,12.224437713623,12.2009267807007,12.1775064468384,12.1541748046875,12.1309337615967,12.107780456543,12.0847158432007,12.0615243911743,12.0380897521973,12.0147457122803,11.9914932250977,11.9683294296265,11.9452562332153,11.9222707748413,11.8993740081787,11.8765649795532,11.8538427352905,11.8312072753906,11.8086585998535,11.7861957550049,11.7638177871704,11.7415256500244,11.7193164825439,11.6977338790894,11.6789283752441,11.6601839065552,11.6414995193481,11.6228742599487,11.6043090820312,11.5858030319214,11.5673561096191,11.5489673614502,11.5306367874146,11.5123653411865,11.4941511154175,11.4759941101074,11.4578943252563,11.4398517608643,11.4218664169312,11.4039373397827,11.3860645294189,11.3682470321655,11.3504858016968,11.3327798843384,11.315128326416,11.2975330352783,11.2799911499023,11.2625045776367,11.2450714111328,11.2276926040649,11.2103672027588,11.1930952072144,11.1758766174316,11.1587104797363,11.1415977478027,11.1245365142822,0,0,0,0,0,0,0,0,0,0,0,0,0,0,0,0,0,0,0,0,0,0,0,0,0,0,0,0,0,0,0,0,0,0,0,0,0,0,0,0,0,0,0,0,0,0,0,0,0,0,0,0,0,0,0,0,0,0,0,0,0,0,0,0,0,0,0,0,0,0,0,0,0,0,0,0,0,0,0,0,0,0,0,0,0,0,0,0,0,0,0,0,0,0,0,0,0,0,0,0,0,0,0,0,0,0,0,0,0,0,0,0,0,0,0,0,0,0,0,0,0,0,0,0,0,0,0,0,0,0,0,0,0,0,0,0,0,0,0,0,0,0,0,0,0,0,0,0,0,0,0,0,0,0,0,0,0,0,0,0,0,0,0,0,0,0,0,0,0,0,0,0,0,0,0,0,0,0,0,0,0,0,0,0,0,0,0,0,0,0,0,0,0,0,0,0,0,0,0,0,0,0,0,0,0,0,0,0,0,0,0,0,0,0,0,0,0,0,0,0,0,0,0,0,0,0,0,0,0,0,0
14.5705375671387,14.5713310241699,14.5721263885498,14.5729198455811,14.5737142562866,14.5745086669922,14.5753011703491,14.5760946273804,14.5768918991089,14.5776872634888,14.5784816741943,14.5792760848999,14.5800724029541,14.5808658599854,14.5816564559937,14.5824527740479,14.5832500457764,14.5840463638306,14.5848417282104,14.5856370925903,14.5864305496216,14.5872268676758,14.5880250930786,14.5888214111328,14.589617729187,14.5904130935669,14.5912094116211,14.5920057296753,14.5928020477295,14.5935974121094,14.5943927764893,14.5951929092407,14.5959892272949,14.5967864990234,14.5975828170776,14.5983781814575,14.599175453186,14.5999736785889,14.600772857666,14.6015691757202,14.6023654937744,14.6031646728516,14.6039600372314,14.6047592163086,14.6055555343628,14.6063537597656,14.6071538925171,14.6079511642456,14.6087493896484,13.3715353012085,13.3568620681763,13.3422222137451,13.3276138305664,13.3130378723145,13.2984933853149,13.2839803695679,13.2694988250732,13.2550497055054,13.2406320571899,13.2262449264526,13.2118892669678,13.1975650787354,13.1832714080811,13.1690092086792,13.1547775268555,13.1405763626099,13.1264066696167,13.1122665405273,13.0981569290161,13.0840787887573,13.070029258728,13.0560111999512,13.0420227050781,13.0280637741089,13.0141353607178,13.0002355575562,12.9863662719727,12.972526550293,12.9587163925171,12.944935798645,12.9311838150024,12.9174613952637,12.9037675857544,12.8901033401489,12.8764677047729,12.8628616333008,12.8492832183838,12.8357343673706,12.8222131729126,12.8044147491455,12.778621673584,12.7529335021973,12.7273473739624,12.7018642425537,12.6764831542969,12.6512031555176,12.6260232925415,12.600944519043,12.575963973999,12.551082611084,12.5262994766235,12.5016145706177,12.4770269393921,12.4525346755981,12.4281396865845,12.4038391113281,12.3796339035034,12.3555221557617,12.3315048217773,12.307580947876,12.2837495803833,12.260009765625,12.2363624572754,12.2128057479858,12.189338684082,12.1659622192383,12.1426763534546,12.119478225708,12.0963687896729,12.0733470916748,12.0504131317139,12.0273971557617,12.0040950775146,11.9808826446533,11.9577608108521,11.9347276687622,11.9117822647095,11.8889255523682,11.866156578064,11.8434743881226,11.8208789825439,11.7983694076538,11.7759456634521,11.7536067962646,11.7313528060913,11.7091827392578,11.6870956420898,11.6680841445923,11.649374961853,11.6307249069214,11.6121339797974,11.5936031341553,11.5751314163208,11.5567178726196,11.5383625030518,11.5200662612915,11.5018281936646,11.4836463928223,11.4655227661133,11.4474563598633,11.4294471740723,11.4114942550659,11.3935976028442,11.3757562637329,11.3579721450806,11.3402423858643,11.3225679397583,11.3049488067627,11.2873849868774,11.2698745727539,11.2524194717407,11.2350177764893,11.2176694869995,11.2003755569458,11.1831340789795,11.1659460067749,11.1488103866577,11.1317272186279,11.1146974563599,11.0977182388306,11.0807914733887,0,0,0,0,0,0,0,0,0,0,0,0,0,0,0,0,0,0,0,0,0,0,0,0,0,0,0,0,0,0,0,0,0,0,0,0,0,0,0,0,0,0,0,0,0,0,0,0,0,0,0,0,0,0,0,0,0,0,0,0,0,0,0,0,0,0,0,0,0,0,0,0,0,0,0,0,0,0,0,0,0,0,0,0,0,0,0,0,0,0,0,0,0,0,0,0,0,0,0,0,0,0,0,0,0,0,0,0,0,0,0,0,0,0,0,0,0,0,0,0,0,0,0,0,0,0,0,0,0,0,0,0,0,0,0,0,0,0,0,0,0,0,0,0,0,0,0,0,0,0,0,0,0,0,0,0,0,0,0,0,0,0,0,0,0,0,0,0,0,0,0,0,0,0,0,0,0,0,0,0,0,0,0,0,0,0,0,0,0,0,0,0,0,0,0,0,0,0,0,0,0,0,0,0,0,0,0,0,0,0,0,0,0,0,0,0,0,0,0,0,0,0,0,0,0,0,0,0,0,0,0
