19.1136837005615,19.1151447296143,19.1166076660156,19.1180667877197,19.1195335388184,19.1209926605225,19.1224594116211,19.1239204406738,19.1253814697266,19.1268463134766,19.1283092498779,19.1297760009766,19.1312370300293,19.1326999664307,19.1341686248779,19.1356315612793,19.1371002197266,19.1385650634766,19.1400318145752,19.1414966583252,19.1429615020752,19.1444301605225,19.1458969116211,19.1473636627197,19.148832321167,19.150297164917,19.151762008667,19.1532325744629,19.1546955108643,19.1561660766602,19.1576347351074,19.159107208252,19.160572052002,19.1620426177979,19.1635131835938,19.1649799346924,19.1664524078369,19.1679210662842,19.1693897247314,19.1708602905273,19.1723308563232,19.1738033294678,19.175271987915,19.1767444610596,19.1782169342041,19.1796875,19.1811618804932,19.1826305389404,19.184103012085,19.1855754852295,19.1870517730713,19.1885223388672,19.189998626709,19.1914730072021,19.1929454803467,19.1944179534912,19.1958961486816,19.1973667144775,19.1988430023193,19.2003173828125,19.2017936706543,19.2032680511475,19.2047443389893,19.2062206268311,19.2076950073242,19.2091674804688,19.2106475830078,19.2121257781982,19.21360206604,19.2150783538818,19.2165565490723,19.2180328369141,19.2195129394531,19.2209911346436,19.222469329834,19.2239456176758,19.2254238128662,19.2269039154053,19.2283840179443,19.2298622131348,19.2313404083252,19.2328205108643,19.2343006134033,19.2357807159424,19.2372646331787,19.2387428283691,19.2402210235596,19.2417049407959,19.2431888580322,19.2446746826172,19.2461585998535,19.2476406097412,19.2491207122803,19.2506046295166,19.2520904541016,19.2535667419434,19.255054473877,19.2565383911133,19.258020401001,19.2595062255859,19.2609882354736,19.2624740600586,19.2639579772949,19.2654438018799,19.2669277191162,19.2684135437012,19.2698993682861,19.2713851928711,13.9549179077148,13.6602268218994,13.6309804916382,13.6018581390381,13.5728607177734,13.5439863204956,13.5152349472046,13.4866046905518,13.4580965042114,13.4297075271606,13.4014387130737,13.3732881546021,13.3452558517456,13.3173408508301,13.2895421981812,13.2618598937988,13.233717918396,13.2056131362915,13.1776275634766,13.1497602462769,13.1220102310181,13.0943775177002,13.0668611526489,13.0394601821899,13.0121736526489,12.9850006103516,12.9579420089722,12.9309949874878,12.9041604995728,12.8774366378784,12.8508234024048,12.8243198394775,12.7979249954224,12.7716388702393,12.7454605102539,12.7193899154663,12.6934251785278,12.6630964279175,12.6273984909058,12.5919017791748,12.5566034317017,12.5215034484863,12.4865980148315,12.4518880844116,12.417368888855,12.3830413818359,12.3489036560059,12.3149528503418,12.2811889648438,12.2476091384888,12.2142124176025,12.1809978485107,12.1479644775391,12.1151094436646,12.0824317932129,12.0499296188354,12.0176019668579,11.985447883606,11.9534645080566,11.92165184021,11.8900079727173,11.8585319519043,11.8272218704224,11.7960758209229,11.7650947570801,11.7342748641968,11.7036170959473,11.6731185913086,11.6427783966064,11.6125955581665,11.4407653808594,11.3688707351685,11.2948732376099,11.2218332290649,11.1497316360474,11.0785512924194,11.0082731246948,10.9392795562744,10.8824148178101,10.8362951278687,10.7906093597412,10.745306968689,10.7362079620361,10.740403175354,10.7446012496948,10.7488021850586,10.7530069351196,10.7572145462036,10.7614259719849,10.7656402587891,10.7698583602905,10.7740793228149,10.7783041000366,10.7825317382812,10.7867622375488,10.7864322662354,10.7792205810547,10.7483921051025,10.7177400588989,10.6872615814209,10.6569566726685,10.626823425293,10.5968589782715,10.5670642852783,10.5374355316162,10.5079736709595,10.4786748886108,10.4495401382446,10.4205656051636,10.391752243042,10.3630981445312,10.3346004486084,10.3062601089478,10.2780742645264,10.2500419616699,10.2221632003784,10.1944341659546,10.1668567657471,10.1394271850586,10.0582284927368,10.0655422210693,10.0580196380615,10.0311737060547,10.0044708251953,9.97790908813477,9.95148849487305,9.92520809173584,9.91212940216064,9.90081214904785,9.88952159881592,9.87825584411621,9.86701679229736,9.85580253601074,9.84461402893066,9.83345031738281,9.82231330871582,9.81120014190674,9.8001127243042,9.78905010223389,9.7780122756958,9.76700019836426,9.75601196289062,9.74504852294922,9.73410987854004,9.72319602966309,9.71230602264404,9.70144081115723,9.69059944152832,9.67978286743164,9.66899013519287,9.65822124481201,9.64747714996338,9.63675594329834,9.62605857849121,9.61538600921631,9.604736328125,9.59410953521729,9.5835075378418,9.5729284286499,9.5623722076416,9.55183982849121,9.54133033752441,9.53084373474121,9.52038097381592,9.5099401473999,9.4995231628418,9.48912811279297,9.47875595092773,9.46840667724609,9.45808029174805,9.44777584075928,9.4374942779541,9.4272346496582,9.41699695587158,9.40678215026855,9.3965892791748,9.38641834259033,9.37627029418945,9.36614322662354,9.35603809356689,9.34595489501953,9.33589363098145,9.32585334777832,9.31583499908447,9.3058385848999,9.29586315155029,9.28590869903564,9.27597618103027,9.26606464385986,9.25617504119873,9.24630546569824,9.23645687103271,9.22663021087646,9.21682357788086,9.20703792572021,9.19727325439453,9.18752956390381,9.17780590057373,9.16810321807861,9.15842056274414,9.14875888824463,9.13911724090576,9.12949562072754,9.11989402770996,9.11031341552734,9.10075283050537,9.09121227264404,9.08169078826904,9.072190284729,9.06270885467529,9.05324840545654,9.04380702972412,9.03438472747803,9.02498245239258,9.01560020446777,9.0062370300293,8.99689292907715,8.98756885528564,8.97826385498047,8.96897792816162,8.9597110748291,8.95046424865723,8.94123554229736,8.93202590942383,8.92446136474609,8.91804695129395,8.91164207458496,8.90524673461914,8.89885997772217,8.89248275756836,8.8861141204834,8.8797550201416,8.87340450286865,8.86706352233887,8.86073207855225,8.85440826416016,8.84809494018555,8.84179019927979,8.83549404144287,8.82920742034912,8.82292938232422,8.81665992736816,8.81039905548096,8.80414772033691,8.79790592193604,8.79167175292969,8.7854471206665,8.77923107147217,8.77302360534668,8.76682567596436,8.76063537597656,8.75445461273193,8.74828243255615,8.74211883544922,8.73596477508545
18.9247512817383,18.9261856079102,18.9276161193848,18.9290523529053,18.9304828643799,18.9319171905518,18.9333515167236,18.9347877502441,18.9362239837646,18.9376564025879,18.9390907287598,18.9405250549316,18.9419631958008,18.943395614624,18.9448356628418,18.9462718963623,18.9477100372314,18.9491443634033,18.9505805969238,18.952018737793,18.9534530639648,18.9548931121826,18.9563293457031,18.9577674865723,18.9592037200928,18.9606399536133,18.9620838165283,18.9635200500488,18.964958190918,18.9664001464844,18.9678363800049,18.9692764282227,18.9707202911377,18.9721565246582,18.9735984802246,18.975040435791,18.9764804840088,18.9779224395752,18.9793605804443,18.9808044433594,18.9822463989258,18.9836864471436,18.9851245880127,18.986572265625,18.9880123138428,18.9894542694092,18.9909000396729,18.992338180542,18.9937858581543,18.9952297210693,18.9966697692871,18.9981174468994,18.9995632171631,19.0010070800781,19.0024509429932,19.0038967132568,19.0053386688232,19.0067844390869,19.0082321166992,19.0096759796143,19.0111236572266,19.0125675201416,19.0140151977539,19.0154609680176,19.0169105529785,19.0183563232422,19.0198040008545,19.0212478637695,19.0227012634277,19.02414894104,19.0255966186523,19.027042388916,19.0284938812256,19.0299415588379,19.0313911437988,19.0328388214111,19.0342903137207,19.0357360839844,19.0371875762939,19.0386371612549,19.0400924682617,19.0415382385254,19.0429878234863,19.0444431304932,19.0458908081055,19.047342300415,19.0487957000732,19.0502490997314,19.0517024993896,19.0531558990479,19.0546073913574,19.0560646057129,19.0575180053711,19.0589714050293,19.0604248046875,19.0618782043457,19.0633316040039,19.0647850036621,19.0662403106689,19.0676937103271,19.069149017334,19.0706043243408,19.0720615386963,19.0735168457031,19.07497215271,16.4064979553223,13.6747026443481,13.645393371582,13.6162099838257,13.5871515274048,13.5582160949707,13.5294046401978,13.500714302063,13.4721460342407,13.4436979293823,13.4153699874878,13.3871612548828,13.3590707778931,13.3310985565186,13.3032426834106,13.275502204895,13.247878074646,13.2203683853149,13.192455291748,13.1645250320435,13.1367130279541,13.1090183258057,13.0814399719238,13.0539779663086,13.0266313552856,12.9993982315063,12.9722785949707,12.9452724456787,12.9183778762817,12.8915958404541,12.8649234771729,12.8383617401123,12.8119096755981,12.7855663299561,12.7593307495117,12.7332029342651,12.707181930542,12.6812677383423,12.6554574966431,12.629753112793,12.6041526794434,12.5752248764038,12.5400199890137,12.505012512207,12.4701986312866,12.4355792999268,12.4011507034302,12.3669128417969,12.3328638076782,12.2990007400513,12.265323638916,12.2318305969238,12.1985197067261,12.1653909683228,12.1324415206909,12.0996704101562,12.0670757293701,12.0346565246582,12.0024108886719,11.9703369140625,11.9384346008301,11.906702041626,11.8751373291016,11.8437395095825,11.8125066757202,11.7814388275146,11.7505340576172,11.7197914123535,11.6892080307007,11.658784866333,11.6285190582275,11.5984106063843,11.5684566497803,11.3798456192017,11.3057060241699,11.2325267791748,11.1602878570557,11.0889730453491,11.0185632705688,10.9490423202515,10.8861379623413,10.8364114761353,10.7907247543335,10.7454214096069,10.7472200393677,10.7514228820801,10.7556295394897,10.7598400115967,10.7640533447266,10.7682695388794,10.7724895477295,10.7767124176025,10.7809391021729,10.7851686477661,10.7884082794189,10.7849187850952,10.7814311981201,10.777946472168,10.7705516815186,10.7397737503052,10.7091703414917,10.6787405014038,10.6484842300415,10.6183986663818,10.5884819030762,10.5587339401245,10.5291519165039,10.4997358322144,10.4704837799072,10.4413938522339,10.41246509552,10.383695602417,10.3550853729248,10.3266324996948,10.2983350753784,10.2701930999756,10.2422037124634,10.2143669128418,10.1866807937622,10.1591444015503,10.1317577362061,10.1045169830322,10.0774221420288,10.0504722595215,10.0236673355103,9.99700355529785,9.97048187255859,9.94410037994385,9.9178581237793,9.90428638458252,9.89298725128174,9.88171482086182,9.87046718597412,9.85924530029297,9.84804821014404,9.83687782287598,9.82573223114014,9.81461143493652,9.80351638793945,9.79244613647461,9.78140068054199,9.77038097381592,9.75938510894775,9.74841403961182,9.73746776580811,9.72654628753662,9.71564865112305,9.7047758102417,9.69392776489258,9.68310356140137,9.67230319976807,9.66152763366699,9.65077495574951,9.64004707336426,9.62934303283691,9.61866188049316,9.60800552368164,9.59737205505371,9.58676242828369,9.57617568969727,9.56561279296875,9.55507278442383,9.54455661773682,9.5340633392334,9.52359294891357,9.51314544677734,9.50272083282471,9.49231910705566,9.48194026947021,9.47158432006836,9.46125030517578,9.4509391784668,9.44064998626709,9.43038368225098,9.42014026641846,9.40991878509521,9.39971828460693,9.38954067230225,9.37938594818115,9.36925220489502,9.35914039611816,9.34905052185059,9.33898258209229,9.32893562316895,9.31891059875488,9.3089075088501,9.29892539978027,9.28896522521973,9.27902603149414,9.26910781860352,9.25921058654785,9.24933528900146,9.23948097229004,9.22964668273926,9.21983432769775,9.21004199981689,9.200270652771,9.19052028656006,9.18079090118408,9.17108154296875,9.16139316558838,9.15172481536865,9.14207649230957,9.13244915008545,9.12284183502197,9.11325454711914,9.10368824005127,9.09414100646973,9.08461380004883,9.07510757446289,9.06561946868896,9.05615234375,9.04670524597168,9.03727722167969,9.02786922454834,9.01848030090332,9.00911140441895,8.9997615814209,8.9904317855835,8.98112010955811,8.97182846069336,8.96255588531494,8.95330333709717,8.94406890869141,8.93485355377197,8.92565727233887,8.91648006439209,8.90732097625732,8.89956378936768,8.89318466186523,8.88681507110596,8.88045501708984,8.87410449981689,8.86776161193848,8.86142921447754,8.85510540008545,8.84879016876221,8.84248447418213,8.8361873626709,8.82989978790283,8.82362079620361,8.81735038757324,8.81108856201172,8.80483627319336,8.79859352111816,8.7923583984375,8.7861328125,8.77991580963135,8.77370738983154,8.7675085067749,8.76131725311279,8.75513553619385,8.74896240234375,8.7427978515625,8.7366418838501,8.73049545288086,8.72435665130615,8.71822643280029
18.7395191192627,18.7409267425537,18.7423267364502,18.7437324523926,18.745138168335,18.746545791626,18.7479515075684,18.7493572235107,18.7507667541504,18.7521705627441,18.7535800933838,18.7549858093262,18.7563934326172,18.7578029632568,18.7592086791992,18.7606201171875,18.7620277404785,18.7634334564209,18.7648448944092,18.7662525177002,18.7676601409912,18.7690696716309,18.7704792022705,18.7718906402588,18.7733001708984,18.7747116088867,18.7761211395264,18.777530670166,18.7789421081543,18.7803535461426,18.7817668914795,18.7831783294678,18.7845878601074,18.7860012054443,18.7874145507812,18.7888240814209,18.7902355194092,18.7916469573975,18.793062210083,18.7944755554199,18.7958889007568,18.7973022460938,18.798713684082,18.8001327514648,18.8015460968018,18.8029613494873,18.8043727874756,18.8057899475098,18.8072071075439,18.8086223602295,18.8100395202637,18.8114528656006,18.8128700256348,18.8142833709717,18.8157024383545,18.81711769104,18.8185329437256,18.8199501037598,18.8213672637939,18.8227863311768,18.8242034912109,18.8256206512451,18.8270397186279,18.8284568786621,18.8298778533936,18.8312950134277,18.8327140808105,18.8341369628906,18.8355522155762,18.8369731903076,18.8383941650391,18.8398151397705,18.8412342071533,18.8426551818848,18.8440742492676,18.8454990386963,18.8469161987305,18.8483371734619,18.849760055542,18.8511810302734,18.8526039123535,18.854024887085,18.8554458618164,18.8568706512451,18.8582935333252,18.8597164154053,18.861141204834,18.8625659942627,18.8639907836914,18.8654098510742,18.8668346405029,18.8682594299316,18.8696823120117,18.8711071014404,18.8725414276123,18.8739624023438,18.8753910064697,18.8768138885498,18.8782424926758,18.8796653747559,18.8810920715332,18.8825206756592,16.3890895843506,16.3681449890137,13.6598377227783,13.6305923461914,13.6014719009399,13.5724763870239,13.5436038970947,13.514853477478,13.4862251281738,13.4577178955078,13.4293308258057,13.4010629653931,13.37291431427,13.3448839187622,13.3169708251953,13.2891731262207,13.261492729187,13.2339267730713,13.2064743041992,13.1791362762451,13.1514492034912,13.1236925125122,13.0960521697998,13.068528175354,13.0411205291748,13.0138273239136,12.986647605896,12.9595813751221,12.9326276779175,12.9057865142822,12.8790559768677,12.8524360656738,12.8259258270264,12.799524307251,12.7732315063477,12.7470474243164,12.7209692001343,12.6949987411499,12.6691331863403,12.6433725357056,12.6177167892456,12.5921649932861,12.5667171478271,12.54137134552,12.5161275863647,12.488564491272,12.4538421630859,12.4193134307861,12.3849754333496,12.3508262634277,12.3168649673462,12.2830905914307,12.2495002746582,12.2160930633545,12.1828680038452,12.1498241424561,12.1169586181641,12.0842704772949,12.0517587661743,12.0194215774536,11.9872579574585,11.955265045166,11.9234428405762,11.8917894363403,11.8603029251099,11.8289842605591,11.7978296279907,11.7668390274048,11.7360105514526,11.70534324646,11.6748352050781,11.6444864273071,11.6142950057983,11.5842599868774,11.5543794631958,11.3893070220947,11.3165597915649,11.243239402771,11.1708641052246,11.0994138717651,11.0288724899292,10.9592208862305,10.8904447555542,10.8365287780762,10.7908411026001,10.7540454864502,10.7582540512085,10.7624664306641,10.7666816711426,10.770899772644,10.7751216888428,10.7793474197388,10.7835760116577,10.7878074645996,10.7868947982788,10.7834062576294,10.7799196243286,10.7764358520508,10.7729539871216,10.769474029541,10.7618980407715,10.7311687469482,10.7006149291992,10.6702337265015,10.640025138855,10.6099863052368,10.5801181793213,10.5504159927368,10.520881652832,10.4915113449097,10.4623041152954,10.4332599639893,10.4043760299683,10.3756523132324,10.3470859527588,10.3186769485474,10.2904233932495,10.2623243331909,10.2343778610229,10.2065839767456,10.1789398193359,10.1514453887939,10.124098777771,10.0968990325928,10.0698461532593,10.0429363250732,10.016170501709,9.98954772949219,9.9630651473999,9.93672275543213,9.91051959991455,9.89645576477051,9.88517475128174,9.87391948699951,9.86268997192383,9.85148525238037,9.84030723571777,9.8291540145874,9.81802558898926,9.80692195892334,9.79584407806396,9.78479194641113,9.77376365661621,9.76276016235352,9.75178241729736,9.74082851409912,9.72989940643311,9.718994140625,9.70811367034912,9.69725799560547,9.68642616271973,9.67561912536621,9.66483592987061,9.65407562255859,9.64334106445312,9.63262939453125,9.62194156646729,9.61127662658691,9.60063648223877,9.59001922607422,9.57942581176758,9.56885528564453,9.55830860137939,9.54778480529785,9.53728485107422,9.52680683135986,9.51635265350342,9.50592136383057,9.49551200866699,9.48512649536133,9.47476291656494,9.46442222595215,9.45410442352295,9.44380855560303,9.4335355758667,9.42328453063965,9.41305637359619,9.40285015106201,9.39266586303711,9.38250350952148,9.37236309051514,9.36224460601807,9.35214805603027,9.34207344055176,9.3320198059082,9.32198810577393,9.31197834014893,9.30198955535889,9.29202270507812,9.28207683563232,9.2721529006958,9.26224899291992,9.25236701965332,9.24250602722168,9.232666015625,9.22284698486328,9.21304798126221,9.20327091217041,9.19351387023926,9.18377780914307,9.17406272888184,9.16436767578125,9.15469264984131,9.14503860473633,9.13540458679199,9.12579154968262,9.11619853973389,9.10662460327148,9.09707164764404,9.08753871917725,9.07802581787109,9.06853294372559,9.05905914306641,9.04960536956787,9.04017162322998,9.03075790405273,9.02136325836182,9.01198768615723,9.00263214111328,8.99329566955566,8.98397922515869,8.97468090057373,8.96540260314941,8.95614433288574,8.94690418243408,8.93768215179443,8.92848014831543,8.91929721832275,8.91013336181641,8.90098762512207,8.89186096191406,8.88275337219238,8.87480354309082,8.8684606552124,8.86212635040283,8.85580158233643,8.84948539733887,8.84317874908447,8.83688068389893,8.83059215545654,8.82431221008301,8.81804084777832,8.8117790222168,8.80552577972412,8.79928112030029,8.79304504394531,8.7868185043335,8.78060054779053,8.77439117431641,8.76819133758545,8.76200008392334,8.75581645965576,8.74964237213135,8.74347686767578,8.73731994628906,8.73117256164551,8.72503280639648,8.71890163421631,8.7127799987793,8.70666599273682,8.70056056976318
18.5578746795654,18.5592555999756,18.5606327056885,18.56201171875,18.5633907318115,18.564769744873,18.5661487579346,18.5675258636475,18.568904876709,18.5702857971191,18.5716686248779,18.5730476379395,18.5744304656982,18.5758075714111,18.577184677124,18.5785694122314,18.579948425293,18.581335067749,18.5827159881592,18.5840930938721,18.5854778289795,18.5868549346924,18.5882415771484,18.5896244049072,18.5910034179688,18.5923881530762,18.5937728881836,18.595157623291,18.5965404510498,18.5979232788086,18.5993099212646,18.6006908416748,18.6020774841309,18.6034603118896,18.6048469543457,18.6062316894531,18.6076164245605,18.6090030670166,18.6103858947754,18.6117744445801,18.6131572723389,18.6145439147949,18.6159324645996,18.617317199707,18.6187057495117,18.6200942993164,18.6214828491211,18.6228694915771,18.6242542266846,18.6256446838379,18.6270332336426,18.6284198760986,18.6298122406006,18.6311988830566,18.6325855255127,18.6339740753174,18.6353664398193,18.636754989624,18.6381435394287,18.639533996582,18.6409225463867,18.64231300354,18.643705368042,18.6450977325439,18.6464862823486,18.6478805541992,18.6492691040039,18.6506633758545,18.6520557403564,18.6534481048584,18.6548366546631,18.6562271118164,18.6576251983643,18.6590175628662,18.6604099273682,18.6618022918701,18.6631946563721,18.6645889282227,18.6659832000732,18.6673774719238,18.668773651123,18.6701698303223,18.6715641021729,18.6729583740234,18.6743545532227,18.6757469177246,18.6771430969238,18.6785430908203,18.6799354553223,18.6813335418701,18.6827278137207,18.6841239929199,18.6855201721191,18.6869201660156,18.6883163452148,18.6897144317627,18.6911125183105,18.6925163269043,16.3926753997803,16.3717193603516,16.3508186340332,13.9691429138184,13.6450052261353,13.6158227920532,13.586766242981,13.5578327178955,13.5290222167969,13.5003337860107,13.4717664718628,13.443320274353,13.4149942398071,13.3867874145508,13.3586978912354,13.3307266235352,13.3028726577759,13.2751340866089,13.2475118637085,13.2200040817261,13.1926097869873,13.1653289794922,13.1381607055664,13.1106967926025,13.0831117630005,13.0556421279907,13.0282878875732,13.0010480880737,12.9739217758179,12.9469089508057,12.9200077056885,12.8932189941406,12.8665399551392,12.8399715423584,12.813512802124,12.7871627807617,12.7609205245972,12.7347869873047,12.7087593078613,12.6828374862671,12.657021522522,12.6313104629517,12.6057043075562,12.5802011489868,12.5548009872437,12.5295028686523,12.5043067932129,12.479211807251,12.4542179107666,12.4293231964111,12.4030904769897,12.3688411712646,12.3347816467285,12.3009080886841,12.2672204971313,12.2337169647217,12.2003965377808,12.1672563552856,12.1342964172363,12.1015148162842,12.0689105987549,12.0364809036255,12.004225730896,11.9721422195435,11.9402303695679,11.9084882736206,11.876914024353,11.8455066680908,11.8142652511597,11.7831878662109,11.7522735595703,11.7215213775635,11.6909303665161,11.6604976654053,11.630223274231,11.6001052856445,11.570143699646,11.5403356552124,11.5106811523438,11.3274335861206,11.2539739608765,11.1814594268799,11.1098747253418,11.0391998291016,10.9694194793701,10.9005146026611,10.8373327255249,10.7909564971924,10.7650938034058,10.7693109512329,10.7735319137573,10.7777557373047,10.7819833755493,10.7862138748169,10.7888717651367,10.7853813171387,10.7818937301636,10.7784080505371,10.7749252319336,10.7714443206787,10.7679653167725,10.7644891738892,10.7610149383545,10.7532577514648,10.7225780487061,10.6920719146729,10.6617403030396,10.6315793991089,10.6015882492065,10.5717668533325,10.5421123504639,10.5126237869263,10.4832992553711,10.4541387557983,10.4251394271851,10.3963003158569,10.3676204681396,10.3390989303589,10.310733795166,10.2825231552124,10.254467010498,10.2265634536743,10.1988115310669,10.1712102890015,10.1437568664551,10.1164522171021,10.0892934799194,10.0622806549072,10.0354118347168,10.0086860656738,9.982102394104,9.95565986633301,9.92935657501221,9.90319156646729,9.88863849639893,9.87737464904785,9.86613750457764,9.85492515563965,9.8437385559082,9.8325777053833,9.82144165039062,9.81033039093018,9.79924488067627,9.78818511962891,9.77714920043945,9.76613807678223,9.75515270233154,9.74419116973877,9.73325443267822,9.72234153747559,9.71145439147949,9.70059108734131,9.68975162506104,9.67893695831299,9.66814613342285,9.65737915039062,9.64663600921631,9.63591766357422,9.62522220611572,9.61455059051514,9.60390281677246,9.5932788848877,9.58267784118652,9.57210063934326,9.56154632568359,9.55101585388184,9.54050827026367,9.5300235748291,9.51956176757812,9.50912380218506,9.49870777130127,9.48831462860107,9.47794437408447,9.46759700775146,9.45727252960205,9.44696998596191,9.43668937683105,9.42643165588379,9.41619682312012,9.40598297119141,9.39579200744629,9.38562297821045,9.37547588348389,9.3653507232666,9.35524749755859,9.34516620635986,9.33510589599609,9.32506847381592,9.31505107879639,9.30505657196045,9.29508304595947,9.28513050079346,9.2751989364624,9.26528930664062,9.25540065765381,9.24553298950195,9.23568630218506,9.22586154937744,9.21605587005615,9.20627212524414,9.19650936126709,9.18676662445068,9.17704486846924,9.16734409332275,9.15766334533691,9.14800262451172,9.13836288452148,9.12874317169189,9.11914348602295,9.10956382751465,9.10000419616699,9.0904655456543,9.08094596862793,9.07144737243652,9.06196784973145,9.0525074005127,9.04306793212891,9.03364753723145,9.02424716949463,9.01486587524414,9.0055046081543,8.99616241455078,8.98683929443359,8.97753620147705,8.96825122833252,8.95898628234863,8.94974040985107,8.94051361083984,8.93130588531494,8.92211723327637,8.9129467010498,8.90379524230957,8.89466285705566,8.88554954528809,8.87645435333252,8.86737728118896,8.85831928253174,8.85018157958984,8.84387397766113,8.83757495880127,8.83128452301025,8.8250036239624,8.8187313079834,8.81246852874756,8.80621433258057,8.79996871948242,8.79373168945312,8.78750419616699,8.78128528594971,8.77507591247559,8.768874168396,8.76268196105957,8.75649738311768,8.75032234191895,8.74415588378906,8.73799800872803,8.73184967041016,8.72570896148682,8.71957683563232,8.713454246521,8.7073392868042,8.70123386383057,8.69513607025146,8.68904685974121,8.6829662322998
18.3797206878662,18.3810749053955,18.3824253082275,18.3837776184082,18.3851299285889,18.3864803314209,18.3878364562988,18.3891868591309,18.3905410766602,18.3918952941895,18.3932476043701,18.3946018218994,18.3959541320801,18.3973083496094,18.3986625671387,18.4000225067139,18.4013748168945,18.4027271270752,18.4040832519531,18.4054374694824,18.406795501709,18.4081497192383,18.4095039367676,18.4108600616455,18.4122161865234,18.4135761260986,18.4149341583252,18.4162902832031,18.4176464080811,18.4190044403076,18.4203624725342,18.4217185974121,18.4230766296387,18.4244327545166,18.4257946014404,18.4271507263184,18.4285087585449,18.4298725128174,18.4312267303467,18.4325885772705,18.4339466094971,18.4353065490723,18.4366645812988,18.4380283355713,18.4393901824951,18.4407520294189,18.4421100616455,18.443473815918,18.4448299407959,18.4461936950684,18.4475555419922,18.448917388916,18.4502811431885,18.4516372680664,18.4530010223389,18.4543647766113,18.4557266235352,18.457088470459,18.4584503173828,18.4598140716553,18.4611778259277,18.4625453948975,18.4639091491699,18.4652729034424,18.4666347503662,18.4680004119873,18.4693641662598,18.4707317352295,18.4720935821533,18.4734592437744,18.4748249053955,18.4761924743652,18.4775562286377,18.4789237976074,18.4802913665771,18.4816551208496,18.4830226898193,18.4843902587891,18.4857540130615,18.4871292114258,18.4884929656982,18.4898624420166,18.4912281036377,18.4925975799561,18.4939651489258,18.4953327178955,18.4967060089111,18.4980735778809,18.4994411468506,18.5008144378662,18.5021820068359,18.5035514831543,18.5049209594727,18.5062866210938,18.5076599121094,16.3752975463867,16.3543872833252,16.3335304260254,16.3127250671387,13.6594476699829,13.6302042007446,13.6010856628418,13.5720911026001,13.5432205200195,13.5144720077515,13.4858455657959,13.4573392868042,13.4289541244507,13.4006881713867,13.3725414276123,13.3445119857788,13.3165998458862,13.2888050079346,13.2611255645752,13.2335605621338,13.2061100006104,13.1787738800049,13.1515502929688,13.124439239502,13.0974388122559,13.0701961517334,13.0427808761597,13.0154809951782,12.9882946014404,12.9612216949463,12.9342613220215,12.9074125289917,12.8806753158569,12.8540487289429,12.8275318145752,12.8011245727539,12.7748250961304,12.7486343383789,12.7225494384766,12.696572303772,12.6707000732422,12.6449337005615,12.6192722320557,12.593713760376,12.5682592391968,12.5429067611694,12.5176572799683,12.4925088882446,12.4674615859985,12.4425144195557,12.4176664352417,12.3929176330566,12.3682670593262,12.3437147140503,12.3187780380249,12.2849931716919,12.251392364502,12.2179746627808,12.1847400665283,12.1516847610474,12.1188087463379,12.0861110687256,12.0535888671875,12.0212421417236,11.989068031311,11.9570655822754,11.9252338409424,11.8935708999634,11.8620758056641,11.8307466506958,11.7995834350586,11.7685832977295,11.7377452850342,11.7070693969727,11.676552772522,11.6461944580078,11.6159944534302,11.5859508514404,11.5560607910156,11.5263261795044,11.4967432022095,11.4673128128052,11.4380311965942,11.2232341766357,11.1203556060791,11.0495481491089,10.9796361923218,10.9106044769287,10.8424348831177,10.791072845459,10.7761650085449,10.7803907394409,10.7846202850342,10.7888526916504,10.7873573303223,10.7838687896729,10.7803821563721,10.7768974304199,10.7734155654907,10.7699356079102,10.7664575576782,10.7629823684692,10.7595090866089,10.7560377120972,10.7525691986084,10.7446317672729,10.7140007019043,10.6835441589355,10.6532592773438,10.6231470108032,10.5932035446167,10.5634288787842,10.533821105957,10.5043792724609,10.4751005172729,10.4459848403931,10.417031288147,10.3882369995117,10.3596019744873,10.3311243057251,10.3028020858765,10.2746353149414,10.2466220855713,10.2187614440918,10.1910514831543,10.1634922027588,10.1360807418823,10.1088171005249,10.0816993713379,10.054726600647,10.0278978347778,10.0012130737305,9.97466850280762,9.94826507568359,9.92200088500977,9.89587497711182,9.88083267211914,9.86958694458008,9.85836696624756,9.84717273712158,9.83600425720215,9.82486057281494,9.81374168395996,9.80264854431152,9.79158020019531,9.78053665161133,9.76951885223389,9.75852489471436,9.74755573272705,9.73661136627197,9.72569179534912,9.7147970199585,9.70392608642578,9.69307899475098,9.6822566986084,9.67145824432373,9.66068458557129,9.64993381500244,9.63920783996582,9.62850570678711,9.61782646179199,9.6071720123291,9.5965404510498,9.5859317779541,9.57534790039062,9.56478691101074,9.55424880981445,9.54373359680176,9.53324222564697,9.52277374267578,9.51232814788818,9.50190544128418,9.49150562286377,9.48112773895264,9.47077369689941,9.46044158935547,9.45013236999512,9.43984508514404,9.42958068847656,9.41933917999268,9.40911865234375,9.39892101287842,9.38874530792236,9.37859153747559,9.36845970153809,9.35834884643555,9.3482608795166,9.33819484710693,9.32814979553223,9.3181266784668,9.30812454223633,9.29814434051514,9.28818607330322,9.27824783325195,9.26833152770996,9.25843715667725,9.24856281280518,9.23870944976807,9.22887802124023,9.21906661987305,9.20927619934082,9.19950675964355,9.18975734710693,9.18002986907959,9.17032241821289,9.16063499450684,9.15096855163574,9.14132213592529,9.13169574737549,9.12209033966064,9.11250495910645,9.10293960571289,9.09339427947998,9.08386898040771,9.07436370849609,9.0648775100708,9.05541229248047,9.04596614837646,9.03654003143311,9.02713298797607,9.01774597167969,9.00837898254395,8.99903011322021,8.98970127105713,8.98039245605469,8.97110176086426,8.96183109283447,8.9525785446167,8.94334602355957,8.93413257598877,8.9249382019043,8.91576194763184,8.9066047668457,8.8974666595459,8.88834762573242,8.87924671173096,8.8701639175415,8.86110019683838,8.85205554962158,8.8430290222168,8.83402061462402,8.8256950378418,8.81942272186279,8.81315803527832,8.80690288543701,8.80065631866455,8.79441928863525,8.7881908416748,8.7819709777832,8.77575969696045,8.76955699920654,8.7633638381958,8.75717830657959,8.75100326538086,8.74483585357666,8.73867702484131,8.7325267791748,8.72638511657715,8.72025299072266,8.7141284942627,8.70801258087158,8.70190620422363,8.69580745697021,8.68971729278564,8.68363666534424,8.67756366729736,8.67149925231934,8.66544342041016
18.2049503326416,18.2062816619873,18.2076072692871,18.2089328765869,18.2102603912354,18.2115859985352,18.2129154205322,18.2142429351807,18.2155685424805,18.2168979644775,18.2182235717773,18.219554901123,18.2208824157715,18.2222099304199,18.223539352417,18.2248687744141,18.2261981964111,18.2275257110596,18.228853225708,18.2301864624023,18.2315158843994,18.2328453063965,18.2341709136963,18.2355079650879,18.2368354797363,18.238166809082,18.2394981384277,18.2408313751221,18.2421607971191,18.2434940338135,18.2448253631592,18.2461566925049,18.2474880218506,18.2488212585449,18.2501544952393,18.2514877319336,18.2528190612793,18.254150390625,18.255485534668,18.2568168640137,18.2581539154053,18.2594909667969,18.2608222961426,18.2621593475342,18.2634906768799,18.2648239135742,18.2661590576172,18.2674961090088,18.2688312530518,18.2701663970947,18.2715015411377,18.2728366851807,18.2741718292236,18.2755088806152,18.2768440246582,18.2781810760498,18.27952003479,18.280855178833,18.2821960449219,18.2835292816162,18.2848701477051,18.2862071990967,18.2875461578369,18.2888813018799,18.2902202606201,18.291561126709,18.2929019927979,18.2942390441895,18.2955780029297,18.2969169616699,18.2982540130615,18.299596786499,18.3009338378906,18.3022747039795,18.3036136627197,18.30495262146,18.3062953948975,18.3076400756836,18.3089790344238,18.3103218078613,18.3116626739502,18.3130054473877,18.3143444061279,18.3156890869141,18.3170318603516,18.3183727264404,18.3197193145752,18.3210582733154,18.3224048614502,18.3237438201904,18.3250846862793,16.3788757324219,16.3579559326172,16.3370895385742,16.316276550293,16.2955169677734,14.4908494949341,13.6446161270142,13.6154356002808,13.5863809585571,13.557448387146,13.528639793396,13.4999532699585,13.4713878631592,13.442943572998,13.4146184921265,13.3864126205444,13.358325958252,13.3303556442261,13.3025035858154,13.2747669219971,13.247145652771,13.2196388244629,13.1922464370728,13.1649675369263,13.1378002166748,13.1107454299927,13.0838022232056,13.0569686889648,13.0299453735352,13.0026988983154,12.9755659103394,12.9485454559326,12.9216384887695,12.8948421478271,12.8681564331055,12.8415813446045,12.8151159286499,12.7887592315674,12.7625112533569,12.7363700866699,12.7103366851807,12.6844081878662,12.6585865020752,12.6328687667847,12.6072559356689,12.5817461013794,12.5563402175903,12.5310363769531,12.5058336257935,12.4807329177856,12.4557323455811,12.4308319091797,12.4060306549072,12.3813285827637,12.3567247390747,12.3322172164917,12.3078079223633,12.2834949493408,12.25927734375,12.2351560592651,12.2022733688354,12.1691226959229,12.1361522674561,12.1033601760864,12.0707454681396,12.0383062362671,12.0060415267944,11.9739484786987,11.9420261383057,11.9102745056152,11.8786907196045,11.8472747802734,11.8160238265991,11.7849378585815,11.7540140151978,11.7232532501221,11.6926517486572,11.6622104644775,11.6319274902344,11.6018009185791,11.5718297958374,11.542013168335,11.5123510360718,11.4828395843506,11.4534788131714,11.4242687225342,11.3952074050903,11.2632274627686,11.1446962356567,11.0286340713501,10.9207124710083,10.8524160385132,10.7911882400513,10.7872591018677,10.7893342971802,10.7858448028564,10.782356262207,10.7788705825806,10.7753868103027,10.7719058990479,10.7684268951416,10.764949798584,10.7614755630493,10.7580032348633,10.7545337677002,10.7510662078857,10.7476005554199,10.7441368103027,10.7360181808472,10.705436706543,10.6750288009644,10.6447925567627,10.6147270202637,10.5848321914673,10.5551042556763,10.5255432128906,10.4961471557617,10.4669151306152,10.4378442764282,10.408935546875,10.3801860809326,10.3515958786011,10.3231611251831,10.2948837280273,10.2667598724365,10.2387895584106,10.2109708786011,10.1833038330078,10.1557855606079,10.1284160614014,10.1011934280396,10.0741167068481,10.0471839904785,10.020396232605,9.99375057220459,9.96724605560303,9.94088172912598,9.9146556854248,9.88856887817383,9.87303924560547,9.86181163787842,9.85060977935791,9.83943271636963,9.82828140258789,9.81715488433838,9.80605411529541,9.79497814178467,9.78392696380615,9.77290058135986,9.76189994812012,9.75092315673828,9.73997116088867,9.72904396057129,9.71814155578613,9.70726299285889,9.69640922546387,9.68557929992676,9.67477321624756,9.66399192810059,9.65323448181152,9.64250087738037,9.63179111480713,9.6211051940918,9.61044311523438,9.59980392456055,9.58918857574463,9.57859706878662,9.56802845001221,9.5574836730957,9.54696178436279,9.53646278381348,9.52598762512207,9.51553440093994,9.50510501861572,9.49469757080078,9.48431396484375,9.473952293396,9.46361351013184,9.45329761505127,9.44300365447998,9.43273258209229,9.42248344421387,9.41225624084473,9.40205192565918,9.39186859130859,9.3817081451416,9.37156963348389,9.36145305633545,9.35135841369629,9.34128475189209,9.33123397827148,9.32120418548584,9.31119537353516,9.30120849609375,9.2912425994873,9.28129863739014,9.27137565612793,9.261474609375,9.25159358978271,9.24173450469971,9.23189640045166,9.22207832336426,9.21228218078613,9.20250606536865,9.19275093078613,9.18301582336426,9.17330265045166,9.16360855102539,9.15393543243408,9.14428329467773,9.13465118408203,9.12503910064697,9.11544799804688,9.10587596893311,9.09632396697998,9.08679294586182,9.0772819519043,9.06779003143311,9.05831813812256,9.04886627197266,9.03943347930908,9.03002071380615,9.02062797546387,9.01125431060791,9.0019006729126,8.99256610870361,8.98324966430664,8.97395420074463,8.96467685699463,8.95541954040527,8.94618034362793,8.93696117401123,8.92776107788086,8.9185791015625,8.90941619873047,8.90027236938477,8.89114665985107,8.88204002380371,8.87295246124268,8.86388301849365,8.85483264923096,8.84580039978027,8.8367862701416,8.82779026031494,8.81881332397461,8.80985450744629,8.801344871521,8.79510593414307,8.7888765335083,8.78265571594238,8.77644348144531,8.77023983001709,8.76404571533203,8.75786018371582,8.75168323516846,8.74551486968994,8.73935508728027,8.73320388793945,8.72706127166748,8.72092819213867,8.71480274200439,8.70868682861328,8.7025785446167,8.69647884368896,8.69038867950439,8.68430614471436,8.67823219299316,8.67216682434082,8.66611099243164,8.66006183624268,8.65402221679688,8.64799022674561
18.0334796905518,18.034782409668,18.0360832214355,18.0373840332031,18.038688659668,18.0399875640869,18.0412902832031,18.0425930023193,18.0438976287842,18.0452003479004,18.0465030670166,18.0478038787842,18.0491065979004,18.0504131317139,18.0517139434814,18.0530166625977,18.0543251037598,18.055627822876,18.0569324493408,18.058235168457,18.0595417022705,18.0608463287354,18.0621547698975,18.0634593963623,18.0647621154785,18.0660667419434,18.0673770904541,18.0686817169189,18.0699863433838,18.0712947845459,18.072603225708,18.0739078521729,18.0752143859863,18.0765228271484,18.0778293609619,18.0791416168213,18.0804443359375,18.0817527770996,18.083065032959,18.0843734741211,18.0856838226318,18.0869922637939,18.0882968902588,18.0896072387695,18.0909156799316,18.0922260284424,18.0935363769531,18.0948448181152,18.0961570739746,18.0974655151367,18.0987796783447,18.1000862121582,18.1013965606689,18.102710723877,18.1040191650391,18.1053314208984,18.1066455841064,18.1079578399658,18.1092720031738,18.1105823516846,18.1118946075439,18.1132068634033,18.1145172119141,18.1158294677734,18.1171436309814,18.1184577941895,18.1197700500488,18.1210861206055,18.1224021911621,18.1237144470215,18.1250286102295,18.1263427734375,18.1276550292969,18.1289730072021,18.1302890777588,18.1316032409668,18.1329193115234,18.1342334747314,18.1355514526367,18.1368675231934,18.13818359375,18.1394996643066,18.1408138275146,18.1421318054199,18.1434497833252,18.1447639465332,18.1460838317871,16.3824558258057,16.3615264892578,16.3406524658203,16.3198299407959,16.2990608215332,16.2783432006836,16.2576808929443,13.9833974838257,13.6298160552979,13.6006994247437,13.5717067718506,13.5428371429443,13.5140905380249,13.485466003418,13.4569616317749,13.4285774230957,13.4003133773804,13.3721675872803,13.3441400527954,13.3162298202515,13.2884359359741,13.2607583999634,13.2331953048706,13.2057466506958,13.1784114837646,13.1511888504028,13.1240797042847,13.0970811843872,13.0701932907104,13.0434160232544,13.0167484283447,12.9899415969849,12.9628620147705,12.9358949661255,12.9090394973755,12.8822956085205,12.8556623458862,12.8291387557983,12.8027248382568,12.7764186859131,12.7502212524414,12.7241306304932,12.6981468200684,12.6722679138184,12.6464948654175,12.6208267211914,12.5952625274658,12.5698013305664,12.5444440841675,12.5191879272461,12.4940328598022,12.4689788818359,12.4440259933472,12.4191722869873,12.3944177627563,12.36976146698,12.3452033996582,12.3207416534424,12.2963781356812,12.2721099853516,12.2479372024536,12.2238597869873,12.1998767852783,12.1759881973267,12.1521921157837,12.120659828186,12.0879516601562,12.055419921875,12.0230627059937,11.9908790588379,11.9588670730591,11.9270248413086,11.8953533172607,11.8638486862183,11.8325099945068,11.8013372421265,11.7703275680542,11.73948097229,11.7087955474854,11.6782703399658,11.6479034423828,11.6176948547363,11.5876417160034,11.5577440261841,11.5279998779297,11.4984083175659,11.4689693450928,11.4396800994873,11.4105396270752,11.3815479278564,11.3527030944824,11.3240032196045,11.1841316223145,11.0672512054443,10.952787399292,10.8406677246094,10.7843313217163,10.7808446884155,10.7773599624634,10.7738771438599,10.7703971862793,10.7669191360474,10.7634429931641,10.7599697113037,10.756498336792,10.7530298233032,10.7495622634888,10.7460975646973,10.7426357269287,10.7391757965088,10.7357177734375,10.7274198532104,10.6968870162964,10.6665277481079,10.6363391876221,10.6063222885132,10.5764741897583,10.5467929840088,10.5172786712646,10.4879283905029,10.4587411880493,10.4297161102295,10.4008531570435,10.3721475601196,10.3436012268066,10.3152112960815,10.2869758605957,10.2588958740234,10.2309684753418,10.2031927108765,10.1755666732788,10.1480903625488,10.1207618713379,10.0935802459717,10.0665445327759,10.0396537780762,10.0129051208496,9.98629856109619,9.95983409881592,9.93350887298584,9.90732288360596,9.88127422332764,9.86525821685791,9.85404777526855,9.84286403656006,9.83170413970947,9.82056999206543,9.80946159362793,9.79837799072266,9.78731918334961,9.77628612518311,9.76527690887451,9.75429248809814,9.74333381652832,9.73239898681641,9.7214879989624,9.71060276031494,9.69974136352539,9.68890380859375,9.67809104919434,9.66730213165283,9.65653705596924,9.64579582214355,9.63507843017578,9.62438583374023,9.61371612548828,9.60307025909424,9.59244728088379,9.58184814453125,9.57127285003662,9.56072044372559,9.55019187927246,9.53968620300293,9.52920341491699,9.51874351501465,9.5083065032959,9.49789333343506,9.4875020980835,9.47713375091553,9.46678733825684,9.45646476745605,9.44616317749023,9.43588542938232,9.42562961578369,9.41539573669434,9.40518379211426,9.39499473571777,9.38482761383057,9.37468242645264,9.36455917358398,9.35445690155029,9.3443775177002,9.33431911468506,9.3242826461792,9.31426811218262,9.304274559021,9.29430294036865,9.28435134887695,9.27442264556885,9.26451396942139,9.2546272277832,9.24476146697998,9.23491668701172,9.22509288787842,9.21528911590576,9.20550727844238,9.19574546813965,9.18600463867188,9.17628479003906,9.16658496856689,9.15690517425537,9.14724636077881,9.13760852813721,9.12799072265625,9.11839199066162,9.10881423950195,9.09925651550293,9.08971881866455,9.08020114898682,9.07070350646973,9.06122589111328,9.05176830291748,9.04232978820801,9.03291130065918,9.02351188659668,9.01413249969482,9.0047721862793,8.9954309463501,8.98610973358154,8.97680759429932,8.96752548217773,8.95826148986816,8.94901752471924,8.93979167938232,8.93058490753174,8.9213981628418,8.91222953796387,8.90307903289795,8.89394855499268,8.88483619689941,8.87574291229248,8.86666774749756,8.85761070251465,8.84857273101807,8.8395528793335,8.83055210113525,8.82156944274902,8.8126049041748,8.8036584854126,8.7947301864624,8.78582000732422,8.77712726593018,8.77092361450195,8.76472759246826,8.75854110717773,8.75236320495605,8.74619388580322,8.74003314971924,8.73388195037842,8.72773838043213,8.72160339355469,8.71547794342041,8.70936012268066,8.70325183868408,8.69715118408203,8.69105911254883,8.68497562408447,8.67890167236328,8.67283535003662,8.66677761077881,8.66072845458984,8.65468692779541,8.64865493774414,8.6426305770874,8.63661575317383,8.63060855865479
17.8652076721191,17.8664855957031,17.8677597045898,17.8690395355225,17.8703155517578,17.8715972900391,17.8728713989258,17.8741512298584,17.8754291534424,17.876708984375,17.877986907959,17.8792667388916,17.8805408477783,17.8818225860596,17.8831024169922,17.8843841552734,17.8856582641602,17.88694190979,17.8882274627686,17.8895053863525,17.8907833099365,17.8920669555664,17.893346786499,17.8946266174316,17.8959083557129,17.8971920013428,17.8984718322754,17.8997573852539,17.9010372161865,17.9023170471191,17.903600692749,17.9048824310303,17.9061641693115,17.90744972229,17.9087295532227,17.9100131988525,17.9113006591797,17.9125843048096,17.9138660430908,17.9151496887207,17.9164352416992,17.9177207946777,17.9190063476562,17.9202899932861,17.9215755462646,17.9228572845459,17.9241428375244,17.9254302978516,17.9267139434814,17.9280014038086,17.9292888641357,17.9305744171143,17.93186378479,17.9331455230713,17.9344329833984,17.9357242584229,17.9370079040527,17.9382972717285,17.9395847320557,17.9408721923828,17.94215965271,17.9434490203857,17.9447364807129,17.9460258483887,17.9473114013672,17.9486026763916,17.9498901367188,17.9511814117432,17.9524707794189,17.9537601470947,17.9550495147705,17.9563388824463,17.9576301574707,17.9589214324951,17.9602088928223,17.9615001678467,17.9627914428711,17.9640846252441,17.9653739929199,17.9666652679443,17.9679584503174,17.9692478179932,17.9705410003662,17.9718341827393,16.3650989532471,16.3442153930664,16.3233833312988,16.3026065826416,16.2818794250488,16.2612075805664,16.2405872344971,16.2200183868408,13.6442270278931,13.6150493621826,13.585994720459,13.5570650100708,13.5282573699951,13.4995727539062,13.4710092544556,13.4425659179688,13.4142427444458,13.3860387802124,13.3579530715942,13.329984664917,13.3021335601807,13.2743988037109,13.2467784881592,13.2192735671997,13.1918830871582,13.164605140686,13.1374397277832,13.1103868484497,13.0834445953369,13.0566129684448,13.0298910140991,13.0032787322998,12.9767742156982,12.9501829147339,12.9232683181763,12.8964653015137,12.8697738647461,12.8431921005249,12.8167200088501,12.7903566360474,12.7641019821167,12.7379541397095,12.7119140625,12.6859798431396,12.6601514816284,12.6344270706177,12.6088085174561,12.5832920074463,12.557879447937,12.5325698852539,12.5073614120483,12.4822540283203,12.4572477340698,12.4323406219482,12.4075336456299,12.3828258514404,12.3582153320312,12.3337030410767,12.309287071228,12.2849683761597,12.2607450485229,12.2366170883179,12.2125844955444,12.1886463165283,12.1648006439209,12.1410484313965,12.1173896789551,12.0938215255737,12.0703458786011,12.040132522583,12.0078573226929,11.975754737854,11.9438238143921,11.9120616912842,11.8804683685303,11.8490428924561,11.8177824020386,11.7866868972778,11.7557544708252,11.7249841690063,11.694375038147,11.6639242172241,11.6336317062378,11.6034965515137,11.5735168457031,11.5436925888062,11.5140199661255,11.4845008850098,11.455132484436,11.4259128570557,11.396842956543,11.3679208755493,11.3391447067261,11.3105134963989,11.2820272445679,11.2536840438843,11.1061391830444,10.9908742904663,10.8779773712158,10.7723655700684,10.7688884735107,10.7654113769531,10.7619361877441,10.7584638595581,10.7549934387207,10.7515258789062,10.7480602264404,10.7445964813232,10.7411346435547,10.7376756668091,10.7342185974121,10.7307643890381,10.7273120880127,10.7188348770142,10.6883506774902,10.6580390930176,10.6279001235962,10.5979299545288,10.5681285858154,10.5384950637817,10.5090265274048,10.4797220230103,10.4505805969238,10.4216012954712,10.3927822113037,10.3641223907471,10.3356189727783,10.3072729110718,10.2790822982788,10.2510442733765,10.2231597900391,10.1954259872437,10.1678419113159,10.1404075622559,10.1131210327148,10.0859794616699,10.0589847564697,10.032133102417,10.005425453186,9.97885894775391,9.95243263244629,9.92614650726318,9.89999961853027,9.87398910522461,9.85748958587646,9.84629726409912,9.835129737854,9.82398796081543,9.8128719329834,9.80178070068359,9.79071426391602,9.77967262268066,9.76865673065186,9.75766468048096,9.74669742584229,9.73575592041016,9.72483730316162,9.71394443511963,9.70307540893555,9.69223022460938,9.68140983581543,9.67061424255371,9.65984153747559,9.64909362792969,9.63836860656738,9.6276683807373,9.61699104309082,9.60633850097656,9.5957088470459,9.58510208129883,9.57452011108398,9.56396007537842,9.55342388153076,9.54291152954102,9.53242111206055,9.52195453643799,9.51151084899902,9.50109004974365,9.49069213867188,9.48031616210938,9.46996402740479,9.45963382720947,9.44932556152344,9.43904113769531,9.42877769470215,9.41853713989258,9.4083194732666,9.39812278747559,9.38794898986816,9.37779712677002,9.36766624450684,9.35755825042725,9.34747219085693,9.33740711212158,9.32736396789551,9.31734275817871,9.30734252929688,9.29736423492432,9.28740692138672,9.27747058868408,9.26755619049072,9.25766277313232,9.24779033660889,9.23793888092041,9.22810840606689,9.21829891204834,9.20851039886475,9.1987419128418,9.18899536132812,9.1792688369751,9.16956233978271,9.15987682342529,9.15021228790283,9.14056777954102,9.13094329833984,9.12133884429932,9.11175441741943,9.10219097137451,9.09264755249023,9.08312320709229,9.0736198425293,9.06413555145264,9.05467128753662,9.04522705078125,9.03580284118652,9.02639770507812,9.01701164245605,9.00764560699463,8.99829864501953,8.98897171020508,8.97966384887695,8.97037506103516,8.96110534667969,8.95185565948486,8.94262409210205,8.93341159820557,8.92421817779541,8.91504383087158,8.90588855743408,8.89675140380859,8.88763427734375,8.8785343170166,8.86945343017578,8.86039161682129,8.85134792327881,8.84232234954834,8.8333158493042,8.82432746887207,8.81535720825195,8.80640506744385,8.79747104644775,8.78855514526367,8.7796573638916,8.77077770233154,8.7619161605835,8.75307178497314,8.74687385559082,8.74071216583252,8.73455905914307,8.72841548919678,8.72227954864502,8.71615219116211,8.71003437042236,8.70392417907715,8.69782257080078,8.69173049926758,8.68564605712891,8.67957019805908,8.67350387573242,8.66744518280029,8.6613941192627,8.65535259246826,8.64931964874268,8.64329433441162,8.63727760314941,8.63127040863037,8.62526988983154,8.61927890777588,8.61329555511475
17.7000427246094,17.7012977600098,17.7025547027588,17.7038040161133,17.7050609588623,17.7063179016113,17.7075691223145,17.7088222503662,17.7100791931152,17.7113342285156,17.7125873565674,17.7138442993164,17.7150974273682,17.7163562774658,17.7176074981689,17.7188663482666,17.7201232910156,17.7213821411133,17.7226371765137,17.7238941192627,17.7251491546631,17.7264041900635,17.7276668548584,17.7289237976074,17.7301807403564,17.7314376831055,17.7326965332031,17.7339553833008,17.7352142333984,17.7364730834961,17.7377300262451,17.7389907836914,17.7402477264404,17.7415065765381,17.742769241333,17.7440280914307,17.745288848877,17.7465476989746,17.7478065490723,17.7490711212158,17.7503299713135,17.7515888214111,17.7528514862061,17.7541122436523,17.7553730010986,17.7566337585449,17.7578964233398,17.7591552734375,17.7604179382324,17.7616844177246,17.7629413604736,17.7642021179199,17.7654705047607,17.7667331695557,17.7679958343506,17.7692623138428,17.7705211639404,17.771785736084,17.7730503082275,17.7743167877197,17.7755756378174,17.7768421173096,17.7781047821045,17.779369354248,17.7806358337402,17.7818984985352,17.7831630706787,17.7844295501709,17.7856960296631,17.7869606018066,17.7882308959961,17.789493560791,17.7907619476318,17.7920265197754,17.7932929992676,17.7945613861084,17.7958278656006,17.7970962524414,17.798360824585,17.7996311187744,16.368673324585,16.3477802276611,16.326940536499,16.30615234375,16.2854175567627,16.2647361755371,16.2441062927246,16.2235298156738,16.2030048370361,14.5061893463135,13.6294288635254,13.6003131866455,13.5713224411011,13.5424547195435,13.5137090682983,13.4850854873657,13.4565830230713,13.4282007217407,13.399938583374,13.3717947006226,13.343768119812,13.3158597946167,13.2880668640137,13.2603902816772,13.2328290939331,13.2053823471069,13.1780481338501,13.1508283615112,13.1237192153931,13.0967226028442,13.0698366165161,13.0430612564087,13.0163946151733,12.9898366928101,12.9633874893188,12.9370460510254,12.9106674194336,12.8839159011841,12.8572759628296,12.8307456970215,12.8043251037598,12.7780132293701,12.7518081665039,12.7257118225098,12.6997213363647,12.6738367080688,12.6480569839478,12.6223821640015,12.59681224823,12.5713443756104,12.5459804534912,12.5207185745239,12.4955577850342,12.4704971313477,12.445538520813,12.4206781387329,12.3959178924561,12.3712558746338,12.3466911315918,12.3222246170044,12.2978544235229,12.2735805511475,12.2494020462036,12.2253189086914,12.2013301849365,12.177435874939,12.1536340713501,12.1299257278442,12.1063098907471,12.0827856063843,12.0593519210815,12.0373430252075,12.0175247192383,11.9926900863647,11.9606685638428,11.9288177490234,11.8971357345581,11.8656215667725,11.8342742919922,11.8030920028687,11.7720737457275,11.7412176132202,11.7105236053467,11.679988861084,11.6496133804321,11.6193952560425,11.5893335342407,11.5594272613525,11.5296745300293,11.5000743865967,11.4706268310547,11.4413290023804,11.4121799468994,11.3831796646118,11.3543262481689,11.3256187438965,11.2970561981201,11.2686376571655,11.2403612136841,11.2122259140015,11.1453008651733,11.0292263031006,10.9155445098877,10.8041820526123,10.7569580078125,10.7534894943237,10.7500219345093,10.7465572357178,10.7430944442749,10.739634513855,10.7361764907837,10.732720375061,10.7292671203613,10.7258148193359,10.7223663330078,10.718918800354,10.7102642059326,10.6798286437988,10.6495656967163,10.6194734573364,10.5895509719849,10.559796333313,10.5302095413208,10.500786781311,10.471529006958,10.4424324035645,10.413498878479,10.3847246170044,10.3561086654663,10.3276500701904,10.2993469238281,10.2711992263794,10.2432050704956,10.2153625488281,10.1876707077026,10.1601285934448,10.1327362060547,10.105489730835,10.07839012146,10.0514354705811,10.0246248245239,9.99795627593994,9.9714298248291,9.94504356384277,9.91879558563232,9.89268779754639,9.86671543121338,9.84973335266113,9.83855819702148,9.82740879058838,9.8162841796875,9.80518531799316,9.79411125183105,9.78306293487549,9.77203845977783,9.7610387802124,9.75006484985352,9.73911476135254,9.72818946838379,9.71728801727295,9.70641231536865,9.69555950164795,9.68473148345947,9.67392826080322,9.66314888000488,9.65239334106445,9.64166069030762,9.63095283508301,9.62026882171631,9.60960865020752,9.59897136688232,9.58835792541504,9.57776832580566,9.56720161437988,9.55665874481201,9.54613876342773,9.53564167022705,9.52516841888428,9.51471710205078,9.50428867340088,9.49388408660889,9.48350143432617,9.47314167022705,9.46280479431152,9.45248985290527,9.44219875335693,9.43192863464355,9.42168140411377,9.41145610809326,9.40125274658203,9.39107227325439,9.38091373443604,9.37077617645264,9.36066150665283,9.3505687713623,9.34049701690674,9.33044719696045,9.32041931152344,9.31041240692139,9.30042743682861,9.2904634475708,9.28052139282227,9.27059936523438,9.26070022583008,9.25082111358643,9.24096298217773,9.231125831604,9.22131061553955,9.21151542663574,9.20174121856689,9.19198703765869,9.18225479125977,9.17254257202148,9.16285037994385,9.15317916870117,9.14352798461914,9.13389778137207,9.12428760528564,9.11469745635986,9.10512733459473,9.09557723999023,9.08604717254639,9.07653713226318,9.06704711914062,9.05757713317871,9.04812622070312,9.0386962890625,9.02928447723389,9.01989269256592,9.01052093505859,9.0011682510376,8.99183559417725,8.98252105712891,8.97322654724121,8.96395111083984,8.9546947479248,8.94545841217041,8.93624019622803,8.92704105377197,8.91786098480225,8.90869903564453,8.89955711364746,8.8904333114624,8.88132762908936,8.87224102020264,8.86317348480225,8.85412406921387,8.8450927734375,8.83608055114746,8.82708644866943,8.81811046600342,8.80915355682373,8.80021381378174,8.79129219055176,8.78238868713379,8.77350425720215,8.7646369934082,8.75578689575195,8.74695587158203,8.7381420135498,8.72934627532959,8.72295570373535,8.71682739257812,8.71070766448975,8.70459747314453,8.69849491119385,8.69240093231201,8.68631649017334,8.6802396774292,8.67417144775391,8.66811180114746,8.66206073760986,8.65601825714111,8.64998435974121,8.64395809173584,8.63794040679932,8.63193130493164,8.62593078613281,8.61993885040283,8.61395454406738,8.60797882080078,8.60201072692871,8.5960521697998
17.5379085540771,17.5391368865967,17.5403671264648,17.5416030883789,17.5428295135498,17.5440635681152,17.5452938079834,17.5465240478516,17.5477561950684,17.5489883422852,17.550220489502,17.5514545440674,17.5526885986328,17.5539207458496,17.555154800415,17.5563869476318,17.5576210021973,17.5588531494141,17.5600872039795,17.5613193511963,17.5625534057617,17.5637893676758,17.5650253295898,17.5662574768066,17.5674915313721,17.5687294006348,17.5699634552002,17.5711994171143,17.5724315643311,17.5736675262451,17.5749034881592,17.5761413574219,17.5773792266846,17.57861328125,17.5798530578613,17.5810890197754,17.5823249816895,17.5835590362549,17.5847949981689,17.5860366821289,17.5872745513916,17.5885105133057,17.5897464752197,17.5909843444824,17.592227935791,17.5934619903564,17.5946998596191,17.5959415435791,17.5971775054932,17.5984172821045,17.5996570587158,17.6008987426758,17.6021404266357,17.6033782958984,17.6046180725098,17.6058559417725,17.6070976257324,17.6083374023438,17.6095790863037,17.6108169555664,17.6120586395264,17.6133003234863,17.6145439147949,17.6157817840576,17.6170253753662,17.6182670593262,17.6195106506348,17.6207504272461,17.6219940185547,17.6232357025146,17.6244812011719,17.6257209777832,17.6269664764404,17.6282081604004,17.6294536590576,17.6306972503662,16.3722496032715,16.3513469696045,16.3304977416992,16.3097019195557,16.2889575958252,16.2682666778564,16.2476291656494,16.2270431518555,16.2065086364746,16.1860275268555,16.1655960083008,13.9976806640625,13.6146621704102,13.5856094360352,13.5566806793213,13.5278759002686,13.499192237854,13.4706296920776,13.4421882629395,13.4138669967651,13.3856649398804,13.3575801849365,13.3296136856079,13.3017644882202,13.2740306854248,13.2464122772217,13.2189092636108,13.1915197372437,13.1642427444458,13.1370792388916,13.1100282669067,13.0830869674683,13.0562572479248,13.0295372009277,13.0029258728027,12.9764232635498,12.9500284194946,12.9237403869629,12.8975591659546,12.8713912963867,12.8448028564453,12.8183240890503,12.7919540405273,12.7656927108765,12.7395391464233,12.7134923934937,12.6875514984131,12.6617164611816,12.635986328125,12.6103610992432,12.5848388671875,12.559419631958,12.5341033935547,12.5088891983032,12.483775138855,12.4587631225586,12.4338502883911,12.4090375900269,12.3843231201172,12.3597068786621,12.3351888656616,12.3107671737671,12.2864418029785,12.2622137069702,12.2380800247192,12.2140407562256,12.1900968551636,12.1662454605103,12.1424884796143,12.1188230514526,12.0952501296997,12.0717687606812,12.048378944397,12.0255632400513,12.005784034729,11.9860687255859,11.9664192199707,11.9456205368042,11.9138498306274,11.8822469711304,11.850811958313,11.8195419311523,11.7884378433228,11.757495880127,11.7267160415649,11.6960973739624,11.6656379699707,11.6353368759155,11.6051931381226,11.5752048492432,11.545371055603,11.5156908035278,11.4861621856689,11.4567852020264,11.4275579452515,11.3984794616699,11.3695487976074,11.3407649993896,11.3121252059937,11.2836313247681,11.2552795410156,11.2270698547363,11.1990013122559,11.1710729598999,11.1432838439941,11.0678472518921,10.9533710479736,10.8412399291992,10.7450504302979,10.7415943145752,10.7381343841553,10.7346773147583,10.73122215271,10.7277698516846,10.7243194580078,10.7208709716797,10.7174243927002,10.7139806747437,10.7105388641357,10.7017059326172,10.6713190078735,10.6411046981812,10.6110601425171,10.5811853408813,10.551477432251,10.521936416626,10.492561340332,10.4633483886719,10.4342985153198,10.4054088592529,10.3766784667969,10.3481073379517,10.3196926116943,10.2914333343506,10.2633285522461,10.2353763580322,10.207576751709,10.1799278259277,10.1524276733398,10.1250762939453,10.0978708267212,10.0708122253418,10.0438985824585,10.0171279907227,9.99049949645996,9.96401214599609,9.93766498565674,9.91145610809326,9.88538646697998,9.85945224761963,9.8419885635376,9.83083152770996,9.81969928741455,9.80859279632568,9.79751110076904,9.78645420074463,9.77542209625244,9.7644157409668,9.75343322753906,9.74247646331787,9.73154354095459,9.72063446044922,9.70975112915039,9.69889163970947,9.68805599212646,9.67724514007568,9.66645812988281,9.65569496154785,9.6449556350708,9.63424015045166,9.62354946136475,9.61288166046143,9.6022367477417,9.5916166305542,9.58101940155029,9.5704460144043,9.55989551544189,9.54936790466309,9.53886413574219,9.52838325500488,9.51792526245117,9.50749015808105,9.49707794189453,9.4866886138916,9.47632217407227,9.46597862243652,9.45565700531006,9.44535827636719,9.43508148193359,9.42482662200928,9.41459465026855,9.40438556671143,9.39419746398926,9.38403224945068,9.37388896942139,9.36376667022705,9.35366725921631,9.34358882904053,9.33353233337402,9.3234977722168,9.31348419189453,9.30349254608154,9.29352188110352,9.28357315063477,9.27364540100098,9.26373958587646,9.2538537979126,9.24398994445801,9.23414611816406,9.22432422637939,9.21452236175537,9.20474147796631,9.19498157501221,9.18524265289307,9.17552375793457,9.16582584381104,9.15614795684814,9.14649105072021,9.13685417175293,9.12723731994629,9.11764144897461,9.10806560516357,9.09850883483887,9.08897304534912,9.07945728302002,9.06996059417725,9.06048488616943,9.05102825164795,9.04159069061279,9.0321741104126,9.02277660369873,9.01339817047119,9.0040397644043,8.99470043182373,8.98538112640381,8.9760799407959,8.96679878234863,8.9575366973877,8.94829368591309,8.9390697479248,8.92986488342285,8.92067909240723,8.91151142120361,8.90236377716064,8.89323425292969,8.88412284851074,8.87503051757812,8.86595726013184,8.85690212249756,8.84786605834961,8.83884716033936,8.82984828948975,8.82086658477783,8.81190299987793,8.80295848846436,8.79403114318848,8.78512287139893,8.77623176574707,8.76735877990723,8.75850391387939,8.74966716766357,8.74084758758545,8.73204612731934,8.72326278686523,8.71449661254883,8.70574855804443,8.69916725158691,8.69307231903076,8.68698692321777,8.68090915679932,8.67483997344971,8.66877937316895,8.66272735595703,8.65668392181396,8.65064907073975,8.64462184906006,8.63860321044922,8.63259315490723,8.62659168243408,8.62059879302979,8.61461353302002,8.6086368560791,8.60266876220703,8.59670829772949,8.5907564163208,8.58481311798096,8.57887744903564
17.3787155151367,17.3799228668213,17.3811321258545,17.3823394775391,17.3835506439209,17.3847618103027,17.3859691619873,17.3871784210205,17.3883857727051,17.3895950317383,17.3908061981201,17.3920192718506,17.3932285308838,17.3944396972656,17.3956451416016,17.396858215332,17.3980731964111,17.3992824554443,17.4004917144775,17.4017028808594,17.4029178619385,17.4041271209717,17.4053382873535,17.406551361084,17.4077644348145,17.4089756011963,17.4101886749268,17.4114036560059,17.4126129150391,17.4138278961182,17.4150466918945,17.4162578582764,17.4174690246582,17.4186859130859,17.4198970794678,17.4211139678955,17.422327041626,17.4235420227051,17.4247570037842,17.4259719848633,17.4271869659424,17.4284019470215,17.4296169281006,17.4308338165283,17.4320468902588,17.4332618713379,17.4344806671143,17.4356956481934,17.4369163513184,17.4381332397461,17.4393463134766,17.4405632019043,17.4417819976807,17.4429969787598,17.4442138671875,17.4454326629639,17.4466495513916,17.447868347168,17.4490852355957,17.4503040313721,17.4515228271484,17.4527416229248,17.4539623260498,17.4551792144775,17.4563980102539,17.4576187133789,17.4588413238525,17.4600601196289,17.4612789154053,17.4624996185303,17.463716506958,17.464937210083,17.4661598205566,16.3549156188965,16.334056854248,16.3132514953613,16.2924995422363,16.2717990875244,16.2511520385742,16.2305564880371,16.2100143432617,16.1895236968994,16.1690845489502,16.1486968994141,16.128360748291,13.6290407180786,13.5999269485474,13.5709381103516,13.5420713424683,13.5133275985718,13.4847059249878,13.456205368042,13.4278249740601,13.3995637893677,13.3714208602905,13.3433961868286,13.3154897689819,13.2876987457275,13.2600231170654,13.2324638366699,13.2050180435181,13.1776857376099,13.1504669189453,13.1233596801758,13.0963649749756,13.0694799423218,13.0427055358887,13.016040802002,12.9894847869873,12.9630365371704,12.9366960525513,12.9104623794556,12.884334564209,12.8583135604858,12.8323535919189,12.805926322937,12.7796077728271,12.7533960342407,12.7272930145264,12.7012958526611,12.675404548645,12.649619102478,12.6239385604858,12.5983610153198,12.5728883743286,12.5475177764893,12.5222492218018,12.4970817565918,12.4720163345337,12.4470500946045,12.4221849441528,12.3974180221558,12.3727502822876,12.3481798171997,12.3237066268921,12.2993307113647,12.2750511169434,12.2508678436279,12.2267780303955,12.2027835845947,12.1788835525513,12.1550769805908,12.1313629150391,12.107741355896,12.0842113494873,12.060772895813,12.0374250411987,12.0141668319702,11.9940662384033,11.9743900299072,11.9547777175903,11.935230255127,11.9157466888428,11.8963270187378,11.867395401001,11.8360385894775,11.8048467636108,11.7738189697266,11.7429542541504,11.7122507095337,11.6817073822021,11.6513233184814,11.6210966110229,11.5910263061523,11.561110496521,11.5313491821289,11.5017414093018,11.4722843170166,11.4429779052734,11.4138212203979,11.3848123550415,11.3559503555298,11.3272352218628,11.2986640930176,11.2702369689941,11.2419528961182,11.213809967041,11.1858081817627,11.1579456329346,11.1302213668823,11.1026344299316,11.0751838684082,10.9914617538452,10.8785533905029,10.7679405212402,10.7297210693359,10.7262725830078,10.7228231430054,10.7193756103516,10.7159309387207,10.7124881744385,10.7090473175049,10.7056083679199,10.7021722793579,10.6931629180908,10.662823677063,10.6326570510864,10.6026601791382,10.5728330612183,10.5431718826294,10.5136775970459,10.4843473434448,10.4551811218262,10.426176071167,10.397331237793,10.3686456680298,10.3401184082031,10.3117475509644,10.2835311889648,10.2554702758789,10.2275609970093,10.199803352356,10.1721963882446,10.1447381973267,10.1174278259277,10.0902643203735,10.0632457733154,10.0363721847534,10.0096416473389,9.98305225372314,9.95660400390625,9.93029689788818,9.90412712097168,9.87809562683105,9.85219955444336,9.83425617218018,9.82311725616455,9.81200218200684,9.80091285705566,9.78984832763672,9.77880954742432,9.76779460906982,9.75680541992188,9.74584007263184,9.73489952087402,9.72398376464844,9.71309185028076,9.70222473144531,9.69138240814209,9.68056392669678,9.66976928710938,9.65899848937988,9.64825248718262,9.63752937316895,9.6268310546875,9.61615657806396,9.60550498962402,9.59487724304199,9.58427238464355,9.57369232177734,9.56313419342041,9.55259990692139,9.54208850860596,9.53160095214844,9.52113628387451,9.51069355010986,9.50027465820312,9.48987865447998,9.47950458526611,9.46915435791016,9.45882511138916,9.44851970672607,9.43823623657227,9.42797470092773,9.4177360534668,9.40751934051514,9.39732551574707,9.38715267181396,9.37700271606445,9.3668737411499,9.35676765441895,9.34668254852295,9.33661937713623,9.32657814025879,9.31655883789062,9.30656051635742,9.29658317565918,9.28662776947021,9.27669334411621,9.26678085327148,9.2568883895874,9.2470178604126,9.23716831207275,9.22733974456787,9.21753120422363,9.20774459838867,9.19797801971436,9.188232421875,9.17850780487061,9.16880321502686,9.15911960601807,9.14945602416992,9.13981246948242,9.13018989562988,9.12058734893799,9.11100482940674,9.10144329071045,9.09190082550049,9.08237838745117,9.0728759765625,9.06339359283447,9.05393123626709,9.04448795318604,9.03506469726562,9.02566146850586,9.01627731323242,9.00691318511963,8.99756813049316,8.98824214935303,8.97893524169922,8.96964836120605,8.96038055419922,8.95113182067871,8.94190216064453,8.93269062042236,8.92349910736084,8.91432666778564,8.90517234802246,8.89603710174561,8.88691997528076,8.87782192230225,8.86874294281006,8.85968208312988,8.85064029693604,8.8416166305542,8.83261108398438,8.82362365722656,8.81465530395508,8.80570411682129,8.79677200317383,8.78785800933838,8.77896118164062,8.7700834274292,8.76122283935547,8.75238037109375,8.74355506896973,8.73474884033203,8.72595977783203,8.71718788146973,8.70843410491943,8.69969749450684,8.69097900390625,8.68227767944336,8.67550849914551,8.66944694519043,8.6633939743042,8.65734958648682,8.65131378173828,8.64528560638428,8.63926696777344,8.63325595855713,8.62725257873535,8.62125873565674,8.61527252197266,8.60929489135742,8.60332584381104,8.59736442565918,8.59141254425049,8.58546733856201,8.57953071594238,8.5736026763916,8.56768321990967,8.56177139282227
17.2223834991455,17.2235679626465,17.2247619628906,17.2259464263916,17.2271327972412,17.2283191680908,17.2295093536377,17.2306995391846,17.2318840026855,17.2330741882324,17.2342624664307,17.2354488372803,17.2366409301758,17.2378273010254,17.2390174865723,17.2402019500732,17.2413940429688,17.2425861358643,17.2437744140625,17.2449645996094,17.2461547851562,17.2473411560059,17.24853515625,17.2497234344482,17.2509136199951,17.2521018981934,17.2532958984375,17.2544918060303,17.2556781768799,17.2568702697754,17.2580623626709,17.2592506408691,17.2604465484619,17.2616367340088,17.2628307342529,17.2640247344971,17.2652187347412,17.2664108276367,17.2676029205322,17.2687950134277,17.2699890136719,17.271183013916,17.2723770141602,17.273567199707,17.2747631072998,17.2759552001953,17.2771549224854,17.2783489227295,17.279541015625,17.2807331085205,17.2819271087646,17.2831268310547,17.2843227386475,17.285514831543,17.2867088317871,17.2879028320312,17.2891044616699,17.2902984619141,17.2914981842041,17.2926902770996,17.2938861846924,17.2950839996338,17.2962818145752,17.2974796295166,17.298677444458,17.2998752593994,17.3010692596436,17.3022651672363,17.303466796875,16.3584842681885,16.3376178741455,16.3168029785156,16.2960414886475,16.275333404541,16.2546768188477,16.2340717315674,16.2135200500488,16.193021774292,16.1725730895996,16.1521778106689,16.1318321228027,16.1115379333496,14.5215606689453,13.6142749786377,13.5852241516113,13.5562973022461,13.5274934768677,13.4988117218018,13.470251083374,13.4418115615845,13.4134912490845,13.385290145874,13.3572082519531,13.3292427062988,13.3013944625854,13.2736625671387,13.2460460662842,13.2185440063477,13.1911563873291,13.1638813018799,13.13671875,13.1096687316895,13.0827293395996,13.0559015274048,13.029182434082,13.0025730133057,12.9760713577271,12.9496774673462,12.9233913421631,12.8972120285034,12.8711376190186,12.8451690673828,12.8193054199219,12.7935447692871,12.7672843933105,12.7411241531372,12.7150707244873,12.6891231536865,12.6632814407349,12.6375455856323,12.6119136810303,12.5863847732544,12.560959815979,12.5356378555298,12.5104169845581,12.485297203064,12.4602785110474,12.435359954834,12.4105405807495,12.3858203887939,12.361198425293,12.3366746902466,12.3122472763062,12.2879161834717,12.2636814117432,12.2395420074463,12.2154979705811,12.1915473937988,12.1676912307739,12.1439275741577,12.1202573776245,12.0966787338257,12.0731916427612,12.0497961044312,12.0264902114868,12.0032749176025,11.9823713302612,11.9627332687378,11.9431600570679,11.9236497879028,11.9042043685913,11.8848218917847,11.8655014038086,11.8462448120117,11.8213024139404,11.7901887893677,11.7592372894287,11.7284488677979,11.6978216171265,11.6673526763916,11.6370429992676,11.6068897247314,11.5768928527832,11.5470504760742,11.5173616409302,11.4878244400024,11.458438873291,11.4292039871216,11.4001169204712,11.3711776733398,11.3423852920532,11.3137378692627,11.2852344512939,11.256875038147,11.2286577224731,11.2005815505981,11.1726455688477,11.144847869873,11.1171894073486,11.0896663665771,11.0622806549072,11.0350294113159,11.0079116821289,10.9161243438721,10.8047494888306,10.7178735733032,10.7144346237183,10.7109956741333,10.707555770874,10.7041177749634,10.7006826400757,10.6972494125366,10.6938190460205,10.6846323013306,10.6543416976929,10.6242227554321,10.5942735671997,10.5644931793213,10.5348796844482,10.5054311752319,10.476146697998,10.4470252990723,10.4180660247803,10.3892660140991,10.3606252670288,10.3321418762207,10.3038148880005,10.2756423950195,10.2476234436035,10.2197570800781,10.192042350769,10.1644773483276,10.1370601654053,10.1097917556763,10.0826683044434,10.0556907653809,10.0288572311401,10.0021667480469,9.97561740875244,9.94920921325684,9.92293930053711,9.89680862426758,9.87081527709961,9.84495830535889,9.82653617858887,9.81541442871094,9.80431747436523,9.79324531555176,9.78219795227051,9.7711763381958,9.760178565979,9.74920558929443,9.73825836181641,9.72733497619629,9.71643543243408,9.7055606842041,9.69471073150635,9.6838846206665,9.67308330535889,9.66230487823486,9.65155124664307,9.64082145690918,9.6301155090332,9.61943340301514,9.60877418518066,9.59813976287842,9.58752822875977,9.57694053649902,9.56637573242188,9.55583381652832,9.54531574249268,9.53482055664062,9.52434825897217,9.51389980316162,9.50347328186035,9.49306964874268,9.48268985748291,9.47233104705811,9.46199607849121,9.45168304443359,9.44139289855957,9.43112468719482,9.42087936401367,9.4106559753418,9.4004545211792,9.3902759552002,9.38011837005615,9.3699836730957,9.35986995697021,9.34977912902832,9.33970928192139,9.32966136932373,9.31963443756104,9.30962944030762,9.29964637756348,9.2896842956543,9.27974319458008,9.26982402801514,9.25992488861084,9.25004768371582,9.24019145965576,9.23035717010498,9.22054195404053,9.21074867248535,9.20097637176514,9.19122409820557,9.18149280548096,9.17178249359131,9.1620922088623,9.15242290496826,9.14277362823486,9.13314437866211,9.12353515625,9.11394691467285,9.10437870025635,9.09483051300049,9.08530139923096,9.07579326629639,9.06630516052246,9.05683612823486,9.04738712310791,9.0379581451416,9.02854824066162,9.01915836334229,9.00978755950928,9.00043678283691,8.99110507965088,8.98179244995117,8.97249984741211,8.96322536468506,8.95397090911865,8.94473552703857,8.93551921844482,8.92632102966309,8.91714191436768,8.90798282623291,8.89884185791016,8.88971900939941,8.880615234375,8.87153053283691,8.86246395111084,8.85341644287109,8.84438705444336,8.83537578582764,8.82638263702393,8.81740856170654,8.80845260620117,8.79951477050781,8.79059410095215,8.78169250488281,8.77280902862549,8.76394271850586,8.75509452819824,8.74626445770264,8.73745250701904,8.72865772247314,8.71988105773926,8.71112155914307,8.70238018035889,8.6936559677124,8.68494892120361,8.67625999450684,8.66758823394775,8.65893363952637,8.65197849273682,8.6459493637085,8.63992977142334,8.63391780853271,8.62791442871094,8.62191867828369,8.61593246459961,8.60995388031006,8.60398292541504,8.59802150726318,8.59206771850586,8.58612251281738,8.58018493652344,8.57425594329834,8.56833457946777,8.56242275238037,8.55651760101318,8.55062198638916,8.54473304748535
17.0688438415527,17.0700092315674,17.0711727142334,17.0723400115967,17.07350730896,17.0746746063232,17.0758399963379,17.0770053863525,17.0781707763672,17.0793418884277,17.0805072784424,17.0816764831543,17.0828437805176,17.0840091705322,17.0851802825928,17.0863475799561,17.0875129699707,17.0886840820312,17.0898513793945,17.0910186767578,17.0921878814697,17.0933570861816,17.0945262908936,17.0956954956055,17.096866607666,17.0980377197266,17.0992050170898,17.1003742218018,17.1015453338623,17.1027164459229,17.103889465332,17.1050586700439,17.1062278747559,17.1073989868164,17.108570098877,17.1097393035889,17.1109085083008,17.11208152771,17.1132564544678,17.1144275665283,17.1155986785889,17.1167697906494,17.1179428100586,17.119119644165,17.1202926635742,17.1214637756348,17.1226367950439,17.1238098144531,17.1249847412109,17.1261577606201,17.127326965332,17.1285037994385,17.129674911499,17.1308517456055,17.132022857666,17.1331996917725,17.134370803833,17.1355476379395,17.1367244720459,17.1378993988037,17.1390743255615,17.140251159668,17.1414241790771,17.1426029205322,17.1437797546387,16.3620567321777,16.341178894043,16.3203563690186,16.2995853424072,16.2788677215576,16.2582015991211,16.2375888824463,16.2170295715332,16.1965198516846,16.1760635375977,16.1556587219238,16.1353054046631,16.1150016784668,16.0947513580322,16.0745506286621,14.0119934082031,13.5995407104492,13.5705528259277,13.5416889190674,13.5129470825195,13.4843263626099,13.4558267593384,13.4274482727051,13.3991889953613,13.3710479736328,13.3430252075195,13.3151187896729,13.2873296737671,13.2596559524536,13.2320976257324,13.2046537399292,13.1773233413696,13.1501054763794,13.1230001449585,13.0960063934326,13.0691232681274,13.042350769043,13.0156869888306,12.9891319274902,12.962685585022,12.9363470077515,12.9101142883301,12.8839883804321,12.8579683303833,12.832052230835,12.8062410354614,12.7805328369141,12.7549285888672,12.728874206543,12.7028713226318,12.6769742965698,12.6511821746826,12.6254949569702,12.5999116897583,12.5744314193726,12.5490550994873,12.5237798690796,12.498607635498,12.4735355377197,12.4485635757446,12.4236917495728,12.3989191055298,12.3742446899414,12.3496685028076,12.3251905441284,12.3008079528809,12.2765226364136,12.2523326873779,12.2282381057739,12.2042379379272,12.1803321838379,12.1565198898315,12.1328001022339,12.1091728210449,12.0856370925903,12.0621929168701,12.03883934021,12.0155763626099,11.9924030303955,11.9706983566284,11.951099395752,11.9315633773804,11.9120922088623,11.8926839828491,11.8733386993408,11.8540563583374,11.8348360061646,11.8156785964966,11.7965831756592,11.7755661010742,11.7446918487549,11.7139797210693,11.6834268569946,11.6530332565308,11.6227979660034,11.5927181243896,11.5627946853638,11.5330247879028,11.5034074783325,11.4739427566528,11.4446277618408,11.4154624938965,11.3864450454712,11.3575754165649,11.3288516998291,11.3002729415894,11.2718372344971,11.2435455322266,11.2153949737549,11.1873846054077,11.1595134735107,11.1317825317383,11.1041870117188,11.0767297744751,11.0494070053101,11.0222187042236,10.9951639175415,10.9682416915894,10.9414510726929,10.8418111801147,10.7319412231445,10.7026214599609,10.6991920471191,10.695761680603,10.6923313140869,10.6889038085938,10.6854782104492,10.6761159896851,10.6458740234375,10.6158027648926,10.5859003067017,10.5561666488647,10.5265989303589,10.4971981048584,10.4679594039917,10.4388828277588,10.4099683761597,10.3812131881714,10.3526172637939,10.3241777420044,10.2958936691284,10.267765045166,10.2397890090942,10.2119655609131,10.1842927932739,10.1567687988281,10.1293935775757,10.1021661758423,10.075083732605,10.0481472015381,10.0213537216187,9.99470233917236,9.96819305419922,9.94182395935059,9.91559410095215,9.88950157165527,9.86354637145996,9.83772754669189,9.81882858276367,9.80772399902344,9.79664421081543,9.78558921813965,9.77455997467041,9.76355457305908,9.7525749206543,9.74161911010742,9.73068809509277,9.71978187561035,9.70889949798584,9.69804191589355,9.68720817565918,9.67639923095703,9.66561412811279,9.65485286712646,9.64411544799805,9.63340187072754,9.62271308898926,9.61204624176025,9.60140419006348,9.59078598022461,9.58019065856934,9.56961822509766,9.55906963348389,9.54854488372803,9.53804206848145,9.52756309509277,9.5171070098877,9.50667381286621,9.49626350402832,9.48587608337402,9.47551155090332,9.46516895294189,9.45484924316406,9.44455242156982,9.43427753448486,9.42402458190918,9.41379451751709,9.40358638763428,9.39340114593506,9.3832368850708,9.37309455871582,9.36297512054443,9.35287666320801,9.34280014038086,9.33274555206299,9.32271289825439,9.31270122528076,9.30271148681641,9.2927417755127,9.28279495239258,9.27286911010742,9.26296424865723,9.25308036804199,9.24321746826172,9.23337650299072,9.22355556488037,9.21375560760498,9.20397663116455,9.19421863555908,9.18448066711426,9.17476367950439,9.16506671905518,9.15539073944092,9.14573574066162,9.13609981536865,9.12648487091064,9.1168909072876,9.10731601715088,9.0977611541748,9.08822727203369,9.07871246337891,9.06921768188477,9.05974292755127,9.05028820037842,9.04085254669189,9.03143692016602,9.02204132080078,9.01266479492188,9.0033073425293,8.99396991729736,8.98465156555176,8.97535228729248,8.96607303619385,8.95681190490723,8.94757080078125,8.9383487701416,8.92914485931396,8.91996002197266,8.91079521179199,8.90164756774902,8.8925199508667,8.88341045379639,8.8743200302124,8.86524772644043,8.85619354248047,8.84715843200684,8.83814239501953,8.82914352416992,8.82016372680664,8.81120204925537,8.80225849151611,8.79333305358887,8.78442573547363,8.77553653717041,8.76666450500488,8.75781154632568,8.74897575378418,8.74015808105469,8.73135757446289,8.72257518768311,8.71381092071533,8.70506381988525,8.69633388519287,8.6876220703125,8.67892742156982,8.67024993896484,8.66159057617188,8.65294742584229,8.64432239532471,8.63571453094482,8.62857532501221,8.62257957458496,8.61659145355225,8.61061191558838,8.60464096069336,8.59867858886719,8.59272384643555,8.58677673339844,8.58083915710449,8.57490921020508,8.5689868927002,8.56307411193848,8.55716800689697,8.55127143859863,8.54538154602051,8.53950119018555,8.5336275100708,8.52776336669922
16.9180107116699,16.9191627502441,16.9203052520752,16.9214496612549,16.9225940704346,16.9237442016602,16.9248905181885,16.9260368347168,16.9271850585938,16.9283294677734,16.9294719696045,16.9306221008301,16.9317665100098,16.9329166412354,16.934061050415,16.935209274292,16.9363594055176,16.9375057220459,16.9386520385742,16.9397983551025,16.9409465789795,16.9420967102051,16.943244934082,16.9443969726562,16.9455432891846,16.9466934204102,16.9478435516357,16.94899559021,16.9501399993896,16.9512920379639,16.9524440765381,16.953592300415,16.9547424316406,16.9558925628662,16.9570407867432,16.958194732666,16.959342956543,16.9604949951172,16.9616451263428,16.9627952575684,16.9639472961426,16.9650993347168,16.9662494659424,16.9674015045166,16.9685535430908,16.9697074890137,16.9708595275879,16.9720096588135,16.9731636047363,16.9743156433105,16.975471496582,16.9766235351562,16.9777755737305,16.9789295196533,16.9800815582275,16.9812393188477,16.9823913574219,16.9835453033447,16.9846992492676,16.9858551025391,16.9870109558105,16.9881649017334,16.3447437286377,16.3239097595215,16.3031311035156,16.2824039459229,16.2617301940918,16.2411079406738,16.2205390930176,16.2000217437744,16.1795558929443,16.1591415405273,16.1387786865234,16.1184692382812,16.0982074737549,16.0779991149902,16.05784034729,16.0377330780029,13.6138877868652,13.5848388671875,13.5559139251709,13.5271110534668,13.4984312057495,13.4698724746704,13.4414339065552,13.4131155014038,13.384916305542,13.3568353652954,13.3288717269897,13.301025390625,13.2732944488525,13.2456798553467,13.2181797027588,13.1907930374146,13.163519859314,13.1363592147827,13.1093101501465,13.0823726654053,13.0555448532104,13.0288276672363,13.0022192001343,12.9757194519043,12.9493274688721,12.9230432510376,12.8968648910522,12.870792388916,12.8448247909546,12.818962097168,12.7932033538818,12.7675476074219,12.7419948577881,12.7165441513062,12.6906957626343,12.6648473739624,12.6391048431396,12.6134672164917,12.5879325866699,12.5625009536743,12.5371723175049,12.5119457244873,12.4868202209473,12.4617948532104,12.4368705749512,12.4120454788208,12.387318611145,12.3626909255981,12.3381605148315,12.3137273788452,12.2893905639648,12.2651500701904,12.2410049438477,12.2169551849365,12.1929988861084,12.1691370010376,12.1453685760498,12.1216917037964,12.0981073379517,12.0746154785156,12.0512142181396,12.0279035568237,12.0046825408936,11.9815502166748,11.9590492248535,11.9394874572754,11.9199905395508,11.9005565643311,11.8811855316162,11.8618774414062,11.8426322937012,11.823450088501,11.804328918457,11.7852697372437,11.7662725448608,11.7473363876343,11.7284603118896,11.6995449066162,11.6690683364868,11.6387491226196,11.6085872650146,11.5785818099976,11.5487298965454,11.5190324783325,11.4894876480103,11.46009349823,11.4308490753174,11.4017543792725,11.3728065490723,11.3440055847168,11.3153505325317,11.2868394851685,11.258472442627,11.2302465438843,11.2021627426147,11.1742181777954,11.1464128494263,11.118745803833,11.0912160873413,11.0638217926025,11.0365629196167,11.0094385147095,10.9824457168579,10.9555864334106,10.9288568496704,10.9022579193115,10.8757886886597,10.7685041427612,10.6908340454102,10.6874122619629,10.6839923858643,10.680570602417,10.6771507263184,10.6676120758057,10.6374187469482,10.6073951721191,10.577540397644,10.5478534698486,10.5183334350586,10.4889764785767,10.4597845077515,10.4307537078857,10.4018840789795,10.3731737136841,10.3446216583252,10.3162260055542,10.2879858016968,10.2598991394043,10.2319660186768,10.2041854858398,10.1765546798706,10.1490726470947,10.1217393875122,10.0945520401001,10.0675115585327,10.0406141281128,10.013861656189,9.98725032806396,9.96078014373779,9.93445014953613,9.90825843811035,9.88220500946045,9.85628795623779,9.83050632476807,9.81113243103027,9.80004501342773,9.78898334503174,9.77794551849365,9.76693344116211,9.75594520568848,9.74498176574707,9.73404407501221,9.72312927246094,9.71224021911621,9.70137500762939,9.69053363800049,9.67971706390381,9.66892528533936,9.6581563949585,9.64741134643555,9.63669109344482,9.62599468231201,9.61532115936279,9.60467147827148,9.59404563903809,9.58344268798828,9.5728645324707,9.5623083114624,9.55177593231201,9.54126644134521,9.53078079223633,9.52031707763672,9.50987720489502,9.4994592666626,9.48906517028809,9.47869300842285,9.46834373474121,9.45801734924316,9.44771385192871,9.43743133544922,9.42717266082764,9.41693496704102,9.40672016143799,9.39652824401855,9.38635730743408,9.37620830535889,9.36608219146729,9.35597705841064,9.34589385986328,9.3358325958252,9.32579231262207,9.31577491760254,9.30577754974365,9.29580307006836,9.28584861755371,9.27591609954834,9.26600456237793,9.2561149597168,9.24624538421631,9.2363977432251,9.22657012939453,9.21676445007324,9.2069787979126,9.19721412658691,9.18747043609619,9.17774677276611,9.168044090271,9.15836143493652,9.14869976043701,9.13905811309814,9.12943744659424,9.11983585357666,9.11025524139404,9.10069465637207,9.09115409851074,9.08163356781006,9.07213306427002,9.06265163421631,9.05319118499756,9.04374980926514,9.03432750701904,9.02492618560791,9.01554298400879,9.00618076324463,8.99683666229248,8.98751258850098,8.9782075881958,8.96892166137695,8.95965480804443,8.95040798187256,8.9411792755127,8.93197059631348,8.92278003692627,8.91360855102539,8.90445613861084,8.89532279968262,8.88620662689209,8.87711048126221,8.86803245544434,8.85897350311279,8.84993267059326,8.84090995788574,8.83190631866455,8.82292079925537,8.8139533996582,8.80500411987305,8.7960729598999,8.78715991973877,8.77826499938965,8.76938819885254,8.76052951812744,8.75168895721436,8.74286556243896,8.73405933380127,8.7252721786499,8.71650218963623,8.70774936676025,8.69901371002197,8.69029712677002,8.68159675598145,8.67291450500488,8.66424942016602,8.65560150146484,8.64697074890137,8.63835716247559,8.6297607421875,8.62118148803711,8.61261940002441,8.60529804229736,8.59933471679688,8.59337902069092,8.58743190765381,8.58149337768555,8.57556247711182,8.56963920593262,8.56372547149658,8.55781841278076,8.55192089080811,8.54603099822998,8.54014873504639,8.53427505493164,8.52840900421143,8.52255153656006,8.51670169830322,8.51085948944092
16.7698268890381,16.7709503173828,16.7720794677734,16.7732086181641,16.7743320465088,16.7754554748535,16.7765846252441,16.7777061462402,16.7788372039795,16.7799625396729,16.7810878753662,16.7822151184082,16.7833385467529,16.7844676971436,16.7855968475342,16.7867240905762,16.7878494262695,16.7889785766602,16.7901077270508,16.7912330627441,16.7923641204834,16.7934913635254,16.7946224212646,16.7957515716553,16.7968807220459,16.7980060577393,16.7991352081299,16.8002662658691,16.8013973236084,16.8025245666504,16.803653717041,16.804780960083,16.8059139251709,16.8070430755615,16.8081741333008,16.80930519104,16.8104362487793,16.8115634918213,16.8127002716064,16.8138294219971,16.8149585723877,16.816089630127,16.8172225952148,16.8183574676514,16.8194847106934,16.8206176757812,16.8217487335205,16.8228855133057,16.8240165710449,16.8251457214355,16.8262805938721,16.8274116516113,16.8285465240479,16.8296794891357,16.8308124542236,16.8319435119629,16.8330764770508,16.8342170715332,16.3483085632324,16.3274669647217,16.3066787719727,16.2859420776367,16.2652587890625,16.24462890625,16.2240505218506,16.2035236358643,16.1830501556396,16.1626262664795,16.1422557830811,16.1219348907471,16.1016674041748,16.081449508667,16.0612812042236,16.0411643981934,16.0210990905762,14.5369653701782,13.5991544723511,13.5701684951782,13.5413055419922,13.512565612793,13.4839468002319,13.4554491043091,13.4270715713501,13.3988132476807,13.3706741333008,13.3426532745361,13.3147487640381,13.286961555481,13.2592887878418,13.2317323684692,13.2042894363403,13.1769609451294,13.1497449874878,13.1226406097412,13.095648765564,13.0687665939331,13.0419950485229,13.0153331756592,12.9887800216675,12.9623346328735,12.9359970092773,12.9097661972046,12.8836421966553,12.8576221466064,12.8317079544067,12.8058986663818,12.7801923751831,12.7545890808105,12.7290878295898,12.703688621521,12.6783905029297,12.6527452468872,12.6270513534546,12.6014614105225,12.5759754180908,12.5505924224854,12.5253114700317,12.50013256073,12.4750547409058,12.4500770568848,12.4251985549927,12.4004201889038,12.3757400512695,12.3511581420898,12.3266735076904,12.3022861480713,12.2779951095581,12.2537984848022,12.2296981811523,12.2056922912598,12.1817808151245,12.1579627990723,12.1342372894287,12.1106042861938,12.0870637893677,12.0636138916016,12.0402545928955,12.0169858932495,11.9938077926636,11.9707183837891,11.9477167129517,11.9278993606567,11.9084396362305,11.8890428543091,11.8697090148926,11.8504390716553,11.8312311172485,11.8120851516724,11.7930011749268,11.7739782333374,11.7550172805786,11.7361173629761,11.7172775268555,11.6984977722168,11.6797790527344,11.6547441482544,11.6244993209839,11.5944118499756,11.5644788742065,11.5347003936768,11.5050745010376,11.4756011962891,11.4462776184082,11.417103767395,11.3880786895752,11.3592004776001,11.3304681777954,11.3018817901611,11.2734384536743,11.245138168335,11.2169790267944,11.1889610290527,11.1610832214355,11.1333427429199,11.1057405471802,11.0782747268677,11.0509452819824,11.0237493515015,10.9966869354248,10.9697580337524,10.9429597854614,10.9162921905518,10.8897542953491,10.8633451461792,10.8370637893677,10.8053178787231,10.6961812973022,10.6756582260132,10.6722459793091,10.6688356399536,10.659122467041,10.6289768218994,10.5990009307861,10.5691938400269,10.5395536422729,10.5100793838501,10.4807691574097,10.4516220092773,10.4226369857788,10.3938121795654,10.3651456832886,10.3366374969482,10.3082857131958,10.2800893783569,10.252046585083,10.2241554260254,10.1964168548584,10.1688280105591,10.1413879394531,10.1140956878662,10.086950302124,10.0599498748779,10.0330934524536,10.0063800811768,9.97980880737305,9.95337772369385,9.92708683013916,9.90093421936035,9.87491893768311,9.84904003143311,9.82329654693604,9.80344867706299,9.79237937927246,9.78133392333984,9.77031421661377,9.75931835174561,9.74834728240967,9.73740196228027,9.72648048400879,9.71558284759521,9.70471000671387,9.69386196136475,9.68303775787354,9.67223834991455,9.66146183013916,9.650710105896,9.63998222351074,9.6292781829834,9.61859798431396,9.60794067382812,9.59730815887451,9.58669757843018,9.57611179351807,9.56554889678955,9.55500888824463,9.54449272155762,9.5339994430542,9.52352905273438,9.51308250427246,9.50265789031982,9.49225616455078,9.48187732696533,9.47152137756348,9.4611873626709,9.45087623596191,9.44058799743652,9.43032169342041,9.42007827758789,9.40985679626465,9.39965724945068,9.389479637146,9.37932395935059,9.36919116973877,9.35907936096191,9.34898948669434,9.33892154693604,9.3288745880127,9.31885051727295,9.30884647369385,9.29886531829834,9.28890419006348,9.27896595001221,9.26904773712158,9.25915050506592,9.24927520751953,9.23942089080811,9.22958755493164,9.21977424621582,9.20998287200928,9.20021152496338,9.19046115875244,9.18073177337646,9.17102241516113,9.16133403778076,9.15166568756104,9.14201831817627,9.13239097595215,9.12278366088867,9.11319637298584,9.10363006591797,9.09408283233643,9.08455657958984,9.07504940032959,9.06556224822998,9.05609512329102,9.0466480255127,9.0372200012207,9.02781200408936,9.01842403411865,9.00905418395996,8.99970531463623,8.99037456512451,8.98106384277344,8.97177219390869,8.96250057220459,8.9532470703125,8.94401264190674,8.9347972869873,8.92560195922852,8.91642475128174,8.90726566314697,8.89812660217285,8.88900566101074,8.87990283966064,8.87082004547119,8.86175441741943,8.852707862854,8.8436803817749,8.83467102050781,8.82567882537842,8.81670665740967,8.80775165557861,8.79881477355957,8.78989696502686,8.78099632263184,8.77211380004883,8.76324939727783,8.75440311431885,8.74557399749756,8.73676300048828,8.72797012329102,8.71919441223145,8.71043682098389,8.70169544219971,8.69297313690186,8.6842679977417,8.67558002471924,8.66690921783447,8.65825653076172,8.64962005615234,8.64100170135498,8.632399559021,8.62381553649902,8.61524772644043,8.60669803619385,8.59816455841064,8.58964729309082,8.58214664459229,8.57621574401855,8.57029151916504,8.56437683105469,8.55846977233887,8.55257034301758,8.54667949676514,8.54079627990723,8.53492164611816,8.52905464172363,8.52319622039795,8.5173454284668,8.51150321960449,8.50566864013672,8.49984264373779,8.49402332305908
