13.2628002166748,13.2439985275269,13.2160091400146,13.1881370544434,13.160382270813,13.1327438354492,13.1052217483521,13.0778150558472,13.0505218505859,13.0233430862427,12.9962768554688,12.9693231582642,12.9424810409546,12.9157495498657,12.8891286849976,12.8626165390015,12.8362140655518,12.8099193572998,12.7837324142456,12.7576522827148,12.7316780090332,12.7058095932007,12.680046081543,12.6543865203857,12.628830909729,12.6033782958984,12.5780277252197,12.5527791976929,12.5276317596436,12.5025854110718,12.4776382446289,12.4527902603149,12.4280414581299,12.4033908843994,12.3788385391235,12.3543825149536,12.3300228118896,12.3057594299316,12.281590461731,12.2575168609619,12.2335376739502,12.2096519470215,12.1858596801758,12.1616926193237,12.1375255584717,12.1134548187256,12.0894784927368,12.0655965805054,12.0418100357056,12.0181159973145,11.9945154190063,11.9710073471069,11.9475908279419,11.9242668151855,11.9010324478149,11.8778886795044,11.8548355102539,11.8318719863892,11.8089962005615,11.786208152771,11.7635087966919,11.7408971786499,11.7198839187622,11.700756072998,11.6816911697388,11.6626873016357,11.6437454223633,11.6248655319214,11.6060466766357,11.587287902832,11.5685901641846,11.549952507019,11.5313749313354,11.5128574371338,11.4943981170654,11.475998878479,11.4576587677002,11.4393768310547,11.4211521148682,11.4029865264893,11.3848781585693,11.3668279647827,11.3488340377808,11.3308973312378,11.3130168914795,11.2951936721802,11.2774257659912,11.2597141265869,11.242057800293,11.2244558334351,11.2069101333618,11.1894187927246,11.1719818115234,11.1546001434326,11.1372709274292,11.1199960708618,11.1027755737305,11.0856075286865,11.06849193573,11.0514297485352,11.0344200134277,11.0174627304077,10.9962816238403,10.969069480896,10.9419918060303,10.9150485992432,10.8882369995117,10.8615560531616,10.8350057601929,10.8085861206055,10.7822942733765,10.7561302185059,10.7300930023193,10.7041807174683,10.6783933639526,10.6527299880981,10.6271905899048,10.6017732620239,10.5764760971069,10.5513000488281,10.5262441635132,10.5013065338135,10.4764862060547,10.4517831802368,10.4271965026855,10.4018154144287,10.3728284835815,10.3440036773682,10.3153381347656,10.2868309020996,10.2584810256958,10.2302875518799,10.2022476196289,10.1743612289429,10.1466264724731,10.119044303894,10.091609954834,10.0643243789673,10.0371856689453,10.0101938247681,9.9833459854126,9.95664215087891,9.93008041381836,9.90366077423096,9.87738037109375,9.85124015808105,9.82523632049561,9.79937076568604,9.77364063262939,9.74804496765137,9.72258377075195,9.69725513458252,9.68571186065674,9.67482089996338,9.66395378112793,9.65311241149902,9.64229393005371,9.63150024414062,9.62073135375977,9.6099853515625,9.59926414489746,9.58856678009033,9.57789325714111,9.5672435760498,9.55661678314209,9.54601383209229,9.53543472290039,9.52487945556641,9.5143461227417,9.50383758544922,9.49335098266602,9.48288822174072,9.47244834899902,9.46203136444092,9.45163726806641,9.44126605987549,9.43091773986816,9.42059230804443,9.41028881072998,9.40000820159912,9.38974952697754,9.37951374053955,9.36930084228516,9.35910892486572,9.34893989562988,9.33879280090332,9.32866764068604,9.31856441497803,9.3084831237793,9.29842281341553,9.28838539123535,9.27836894989014,9.2683744430542,9.25840091705322,9.24844932556152,9.2385196685791,9.22861003875732,9.21872234344482,9.20885562896729,9.19900989532471,9.18918609619141,9.17938232421875,9.16959953308105,9.15983772277832,9.15009689331055,9.14037609100342,9.13067626953125,9.12099742889404,9.11133861541748,9.10170078277588,9.09208297729492,9.08248519897461,9.07290840148926,9.06335067749023,9.05381393432617,9.04429721832275,9.03479957580566,9.02532291412354,9.01586627960205,9.00642871856689,8.99701118469238,8.9876127243042,8.97823429107666,8.96887588500977,8.9595365524292,8.95021629333496,8.94091606140137,8.9316349029541,8.92237281799316,8.91312980651855,8.90390586853027,8.89470195770264,8.88551616668701,8.87634944915771,8.86720180511475,8.85807323455811,8.84896278381348,8.83987140655518,8.83079814910889,8.82174396514893,8.81270885467529,8.80369186401367,8.79469299316406,8.78571319580078,8.7767505645752,8.76780700683594,8.75888156890869,8.74997425079346,8.74108505249023,8.73221397399902,8.72336101531982,8.71452522277832,8.70570850372314,8.69690799713135,8.68812656402588,8.67936325073242,8.67061614990234,8.66188716888428,8.65317630767822,8.64448261260986,8.6358060836792,8.62714767456055,8.61850547790527,8.60988140106201,8.60127449035645,8.59268474578857,8.5841121673584,8.57555675506592,8.56701755523682,8.55849647521973,8.54999160766602,8.54150390625,8.53303337097168,8.52457904815674,8.51614189147949,8.50772094726562,8.49931621551514,8.49092960357666,8.48255825042725,8.47420406341553,8.46586608886719,8.45754432678223,8.44923877716064,8.44095039367676,8.43267726898193,8.42442035675049,8.41618061065674,8.40795612335205,8.39974784851074,8.39155578613281,8.38337993621826,8.37521934509277,8.36707496643066,8.35894584655762,8.35083389282227,8.34273624420166,8.33465480804443,8.32658863067627,8.31853866577148,8.31050395965576,8.3024845123291,8.29448127746582,8.2864933013916,8.27851963043213,8.27056312561035,8.262619972229,8.25632286071777,8.25075531005859,8.24519538879395,8.23964309692383,8.23409843444824,8.22856044769287,8.22303009033203,8.21750831604004,8.21199226379395,8.2064847946167,8.20098400115967,8.19549179077148,8.19000625610352,8.18452739715576,8.17905712127686,8.17359256744385,8.16813659667969,8.16268730163574,8.15724563598633,8.15181064605713,8.14638328552246,8.14096355438232,8.1355504989624,8.13014507293701,8.12474632263184,8.11935424804688,8.11397075653076,8.10859298706055,8.10322380065918,8.09786033630371,8.09250450134277,8.08715629577637,8.08181381225586,8.0764799118042,8.07115173339844,8.06583213806152,8.06051826477051,8.05521202087402,0,0,0,0,0,0,0,0,0,0,0,0,0,0,0,0,0,0,0,0,0,0,0,0,0,0,0
13.1831350326538,13.1683712005615,13.1477298736572,13.1201448440552,13.0926752090454,13.0653200149536,13.0380802154541,13.0109529495239,12.9839382171631,12.9570350646973,12.9302434921265,12.9035625457764,12.876992225647,12.8505296707153,12.8241767883301,12.7979316711426,12.7717933654785,12.7457618713379,12.7198362350464,12.6940155029297,12.6682996749878,12.6426877975464,12.6171789169312,12.5917730331421,12.5664701461792,12.5412673950195,12.5161657333374,12.4911651611328,12.4662637710571,12.4414615631104,12.4167575836182,12.3921518325806,12.3676433563232,12.3432312011719,12.3189153671265,12.294695854187,12.2705707550049,12.2465400695801,12.2226037979126,12.1987609863281,12.1750106811523,12.1513528823853,12.1273765563965,12.1033458709717,12.0794095993042,12.055567741394,12.0318202972412,12.0081653594971,11.9846038818359,11.9611349105835,11.9377574920654,11.9144706726074,11.8912754058838,11.8681697845459,11.8451538085938,11.822226524353,11.799388885498,11.7766380310059,11.7539758682251,11.7314004898071,11.7094802856445,11.6903867721558,11.6713552474976,11.6523847579956,11.6334762573242,11.6146297454834,11.5958433151245,11.5771179199219,11.5584535598755,11.5398483276367,11.5213031768799,11.5028171539307,11.4843912124634,11.4660234451294,11.447714805603,11.42946434021,11.4112720489502,11.3931379318237,11.3750610351562,11.3570413589478,11.3390789031982,11.3211727142334,11.3033227920532,11.285530090332,11.2677927017212,11.2501106262207,11.2324848175049,11.2149133682251,11.1973972320557,11.1799354553223,11.1625280380249,11.1451749801636,11.1278762817383,11.1106300354004,11.0934381484985,11.0762987136841,11.0592126846313,11.042179107666,11.0251979827881,11.0082683563232,10.9913911819458,10.9745655059814,10.9568424224854,10.9298257827759,10.9029407501221,10.8761882781982,10.8495674133301,10.8230762481689,10.7967138290405,10.7704792022705,10.7443723678589,10.718391418457,10.6925363540649,10.666805267334,10.6411981582642,10.6157131195068,10.590350151062,10.5651082992554,10.5399866104126,10.5149831771851,10.4900989532471,10.46533203125,10.4406814575195,10.4161472320557,10.3917274475098,10.3652448654175,10.336462020874,10.3078384399414,10.279372215271,10.2510643005371,10.2229099273682,10.1949110031128,10.167064666748,10.1393699645996,10.1118268966675,10.0844316482544,10.0571851730347,10.0300846099854,10.0031309127808,9.97632122039795,9.9496545791626,9.92313003540039,9.89674758911133,9.87050437927246,9.84439945220947,9.81843280792236,9.7926025390625,9.76690769195557,9.74134731292725,9.71592044830322,9.6906270980835,9.67833518981934,9.66746044158936,9.6566104888916,9.64578437805176,9.63498306274414,9.62420654296875,9.61345291137695,9.60272407531738,9.59201812744141,9.58133697509766,9.57067966461182,9.56004524230957,9.54943561553955,9.53884792327881,9.52828502655029,9.51774501800537,9.50722789764404,9.49673461914062,9.4862642288208,9.47581672668457,9.46539306640625,9.45499134063721,9.44461250305176,9.4342565536499,9.42392349243164,9.41361331939697,9.40332508087158,9.39305973052979,9.38281631469727,9.37259578704834,9.36239719390869,9.35222148895264,9.34206676483154,9.33193492889404,9.3218240737915,9.31173515319824,9.30166912078857,9.29162406921387,9.28160095214844,9.27159976959229,9.26161956787109,9.25166034698486,9.24172306060791,9.23180770874023,9.22191333770752,9.21203899383545,9.20218753814697,9.19235610961914,9.18254566192627,9.17275619506836,9.16298770904541,9.15324020385742,9.14351272583008,9.1338062286377,9.12412071228027,9.1144552230835,9.10481071472168,9.09518623352051,9.0855827331543,9.07599830627441,9.06643486022949,9.05689144134521,9.04736804962158,9.03786468505859,9.02838134765625,9.01891708374023,9.00947380065918,9.00004959106445,8.99064540863037,8.98126029968262,8.97189521789551,8.96255016326904,8.95322322845459,8.94391632080078,8.93462944030762,8.92536163330078,8.91611194610596,8.90688228607178,8.89767169952393,8.8884801864624,8.87930679321289,8.87015342712402,8.86101818084717,8.85190200805664,8.84280490875244,8.83372592926025,8.82466602325439,8.81562423706055,8.80660152435303,8.79759693145752,8.78861045837402,8.77964305877686,8.77069282531738,8.76176166534424,8.75284862518311,8.74395370483398,8.73507595062256,8.72621726989746,8.71737670898438,8.70855331420898,8.69974803924561,8.69095993041992,8.68219089508057,8.67343902587891,8.66470432281494,8.65598678588867,8.64728736877441,8.63860607147217,8.6299409866333,8.62129402160645,8.61266422271729,8.60405158996582,8.59545612335205,8.58687877655029,8.57831764221191,8.56977272033691,8.56124591827393,8.55273628234863,8.54424285888672,8.5357666015625,8.52730751037598,8.51886463165283,8.51043796539307,8.502028465271,8.49363613128662,8.48526000976562,8.47690010070801,8.46855640411377,8.46022987365723,8.45191955566406,8.44362449645996,8.43534660339355,8.42708492279053,8.41883945465088,8.41061019897461,8.40239715576172,8.39419937133789,8.38601779937744,8.37785243988037,8.36970233917236,8.36156940460205,8.3534517288208,8.34534931182861,8.33726215362549,8.32919120788574,8.32113647460938,8.31309700012207,8.30507278442383,8.29706382751465,8.28907108306885,8.28109264373779,8.27313041687012,8.26518249511719,8.25725078582764,8.24933433532715,8.24143314361572,8.23492908477783,8.22939014434814,8.22385883331299,8.21833610534668,8.21281909942627,8.20731067657471,8.20180892944336,8.19631481170654,8.19082832336426,8.18534851074219,8.17987632751465,8.17441177368164,8.16895389556885,8.16350364685059,8.15806102752686,8.15262508392334,8.14719676971436,8.14177513122559,8.13636112213135,8.13095474243164,8.12555503845215,8.12016296386719,8.11477756500244,8.10939884185791,8.10402870178223,8.09866428375244,8.09330749511719,8.08795738220215,8.08261489868164,8.07727909088135,8.07195091247559,8.06662940979004,8.06131458282471,8.05600738525391,8.050705909729,8.04541206359863,8.04012584686279,8.03484630584717,8.02957344055176,8.02430725097656,8.0190486907959,8.01379680633545,8.00855159759521,8.0033130645752,7.99808120727539,7.99285697937012,0,0,0,0,0,0,0,0,0,0,0,0,0,0,0,0,0,0
13.1044206619263,13.0898332595825,13.0752782821655,13.0528497695923,13.0256614685059,12.9985857009888,12.971622467041,12.9447708129883,12.9180297851562,12.8913993835449,12.86487865448,12.8384656906128,12.812162399292,12.7859659194946,12.7598762512207,12.7338933944702,12.7080163955688,12.682243347168,12.6565752029419,12.6310110092163,12.6055488586426,12.580189704895,12.5549325942993,12.5297765731812,12.5047216415405,12.4797658920288,12.4549102783203,12.4301528930664,12.4054937362671,12.3809328079224,12.3564682006836,12.3321008682251,12.3078289031982,12.283652305603,12.2595710754395,12.2355833053589,12.2116899490356,12.1878890991211,12.1641807556152,12.1405649185181,12.1170406341553,12.0932540893555,12.069356918335,12.0455551147461,12.0218467712402,11.9982318878174,11.9747085571289,11.9512786865234,11.927939414978,11.904691696167,11.8815336227417,11.8584661483765,11.8354873657227,11.8125982284546,11.7897968292236,11.7670841217041,11.7444581985474,11.7219190597534,11.6994667053223,11.6800355911255,11.6610374450684,11.6421003341675,11.6232261657715,11.6044120788574,11.5856590270996,11.5669660568237,11.5483341217041,11.5297613143921,11.511248588562,11.4927959442139,11.474401473999,11.4560661315918,11.4377889633179,11.4195699691772,11.4014091491699,11.3833055496216,11.3652601242065,11.3472709655762,11.3293399810791,11.3114643096924,11.2936458587646,11.2758827209473,11.2581758499146,11.2405242919922,11.2229280471802,11.2053861618042,11.1878995895386,11.1704683303833,11.1530904769897,11.1357660293579,11.1184959411621,11.101279258728,11.0841159820557,11.067006111145,11.0499486923218,11.0329427719116,11.0159902572632,10.9990892410278,10.9822406768799,10.9654426574707,10.9486970901489,10.9320011138916,10.9153575897217,10.8908605575562,10.8641672134399,10.8376054763794,10.8111715316772,10.7848672866821,10.7586908340454,10.7326412200928,10.7067165374756,10.6809177398682,10.6552419662476,10.6296901702881,10.6042604446411,10.5789527893066,10.5537643432617,10.5286960601807,10.5037469863892,10.4789152145386,10.4542007446289,10.4296035766602,10.4051208496094,10.3807525634766,10.3564987182617,10.3289308547974,10.3003492355347,10.2719249725342,10.2436571121216,10.2155437469482,10.1875858306885,10.159779548645,10.1321249008179,10.1046199798584,10.0772638320923,10.0500555038452,10.0229940414429,9.99607849121094,9.96930599212646,9.94267654418945,9.9161901473999,9.88984394073486,9.86363697052002,9.83756828308105,9.81163787841797,9.78584384918213,9.7601842880249,9.73465919494629,9.70926761627197,9.68400764465332,9.67096900939941,9.66011142730713,9.64927768707275,9.63846874237061,9.62768363952637,9.61692237854004,9.60618591308594,9.59547233581543,9.58478355407715,9.57411861419678,9.5634765625,9.55285835266113,9.54226398468018,9.53169345855713,9.52114582061768,9.51062107086182,9.50012016296387,9.48964309692383,9.47918796539307,9.46875667572021,9.45834732055664,9.44796180725098,9.43759822845459,9.4272575378418,9.4169397354126,9.40664482116699,9.39637184143066,9.38612174987793,9.37589359283447,9.36568832397461,9.35550403594971,9.34534358978271,9.33520412445068,9.32508659362793,9.31499099731445,9.30491733551025,9.29486560821533,9.28483486175537,9.274827003479,9.26483917236328,9.25487422943115,9.24493026733398,9.23500728607178,9.22510528564453,9.21522521972656,9.20536613464355,9.19552803039551,9.18571090698242,9.1759147644043,9.16613960266113,9.15638542175293,9.14665126800537,9.13693809509277,9.12724590301514,9.11757373809814,9.10792255401611,9.09829139709473,9.0886812210083,9.07909107208252,9.06952095031738,9.05997085571289,9.05044078826904,9.04093074798584,9.03144073486328,9.02197074890137,9.0125207901001,9.00308990478516,8.99368000030518,8.98428821563721,8.9749174118042,8.96556568145752,8.95623302459717,8.94691944122314,8.93762588500977,8.92835235595703,8.91909694671631,8.90986061096191,8.90064334869385,8.89144611358643,8.88226699829102,8.87310695648193,8.86396598815918,8.85484409332275,8.84574031829834,8.83665561676025,8.82758903503418,8.81854152679443,8.80951309204102,8.80050277709961,8.7915096282959,8.78253650665283,8.77358055114746,8.76464366912842,8.75572490692139,8.74682426452637,8.73794078826904,8.72907638549805,8.72022914886475,8.71140003204346,8.70258903503418,8.69379615783691,8.68502044677734,8.67626285552979,8.66752243041992,8.65880012512207,8.65009498596191,8.64140701293945,8.632737159729,8.62408447265625,8.61544895172119,8.60683059692383,8.59823036193848,8.5896463394165,8.58107948303223,8.57252979278564,8.56399822235107,8.55548191070557,8.54698371887207,8.53850173950195,8.53003692626953,8.52158832550049,8.51315689086914,8.50474166870117,8.49634456634521,8.48796272277832,8.4795970916748,8.47124862670898,8.46291637420654,8.4546012878418,8.44630146026611,8.43801784515381,8.4297513961792,8.42150020599365,8.41326522827148,8.40504741668701,8.3968448638916,8.38865756988525,8.3804874420166,8.37233257293701,8.3641939163208,8.35607051849365,8.34796333312988,8.33987236022949,8.33179569244385,8.3237361907959,8.3156909942627,8.30766201019287,8.29964828491211,8.29164981842041,8.28366756439209,8.27569961547852,8.26774787902832,8.25981044769287,8.2518892288208,8.24398231506348,8.23609161376953,8.22821521759033,8.2203540802002,8.21364593505859,8.2081356048584,8.20263290405273,8.1971378326416,8.191650390625,8.18616962432861,8.18069648742676,8.17523097991943,8.16977214813232,8.16432094573975,8.15887641906738,8.15343952178955,8.14801025390625,8.14258766174316,8.13717269897461,8.13176536560059,8.12636470794678,8.12097072601318,8.11558437347412,8.11020469665527,8.10483264923096,8.09946823120117,8.09410953521729,8.08875942230225,8.08341503143311,8.07807922363281,8.07274913787842,8.06742668151855,8.06211090087891,8.05680274963379,8.05150032043457,8.0462064743042,8.04091835021973,8.03563690185547,8.03036403656006,8.02509689331055,8.01983642578125,8.01458358764648,8.00933742523193,8.0040979385376,7.99886560440063,7.99363946914673,7.98842096328735,7.98320865631104,7.97800350189209,7.97280502319336,7.967613697052,7.96242809295654,7.95725011825562,7.9520788192749,7.94691371917725,7.94175577163696,7.93660449981689,7.93145990371704,0,0,0,0,0,0,0,0,0
13.0266418457031,13.0122261047363,12.9978437423706,12.9834928512573,12.9593296051025,12.9325284957886,12.9058389663696,12.8792581558228,12.8527870178223,12.8264245986938,12.8001699447632,12.7740230560303,12.7479820251465,12.7220468521118,12.6962175369263,12.6704931259155,12.6448726654053,12.6193552017212,12.5939407348633,12.5686283111572,12.5434169769287,12.5183076858521,12.4932975769043,12.4683876037598,12.4435768127441,12.4188652038574,12.394250869751,12.3697338104248,12.3453140258789,12.3209896087646,12.2967624664307,12.2726287841797,12.2485904693604,12.224645614624,12.200795173645,12.1770362854004,12.1533708572388,12.1297969818115,12.1063137054443,12.0829219818115,12.0593223571777,12.0355596542358,12.011890411377,11.9883136749268,11.9648303985596,11.9414386749268,11.918137550354,11.8949279785156,11.871808052063,11.8487777709961,11.8258371353149,11.8029851913452,11.7802209854126,11.7575445175171,11.7349557876587,11.7124528884888,11.6900358200073,11.6697025299072,11.6507377624512,11.6318349838257,11.6129932403564,11.5942125320435,11.5754919052124,11.5568323135376,11.5382328033447,11.5196924209595,11.5012121200562,11.4827909469604,11.4644289016724,11.4461250305176,11.4278793334961,11.4096927642822,11.391562461853,11.3734912872314,11.3554763793945,11.3375186920166,11.3196172714233,11.3017730712891,11.2839841842651,11.2662515640259,11.2485752105713,11.2309532165527,11.2133874893188,11.195876121521,11.1784191131592,11.1610164642334,11.1436681747437,11.1263732910156,11.1091327667236,11.091944694519,11.0748100280762,11.057728767395,11.0406999588013,11.0237226486206,11.0067977905273,10.9899253845215,10.9731044769287,10.956335067749,10.9396171569824,10.9229488372803,10.9063320159912,10.8897657394409,10.8732500076294,10.8521728515625,10.8256692886353,10.7992944717407,10.7730474472046,10.7469282150269,10.7209348678589,10.6950674057007,10.6693239212036,10.6437044143677,10.6182079315186,10.5928335189819,10.5675792694092,10.5424451828003,10.5174312591553,10.4925346374512,10.4677562713623,10.44309425354,10.4185485839844,10.394118309021,10.3698015213013,10.3455991744995,10.3214120864868,10.2928714752197,10.2644882202148,10.2362613677979,10.2081890106201,10.1802701950073,10.1525039672852,10.124888420105,10.0974225997925,10.0701065063477,10.0429372787476,10.0159139633179,9.98903560638428,9.96230030059814,9.93570899963379,9.90925884246826,9.88294982910156,9.85677909851074,9.8307466506958,9.80485248565674,9.77909278869629,9.75346946716309,9.72797966003418,9.70262241363525,9.67739772796631,9.66361427307129,9.65277290344238,9.6419563293457,9.63116359710693,9.62039470672607,9.60964965820312,9.5989294052124,9.58823204040527,9.57755947113037,9.56690979003906,9.55628490447998,9.54568290710449,9.5351037979126,9.52454853057861,9.51401710510254,9.50350856781006,9.49302387237549,9.4825611114502,9.47212219238281,9.46170616149902,9.45131301879883,9.44094181060791,9.4305944442749,9.42026901245117,9.40996646881104,9.39968681335449,9.38942909240723,9.37919425964355,9.36898136138916,9.35879039764404,9.3486213684082,9.33847522735596,9.32835102081299,9.3182487487793,9.30816745758057,9.29810905456543,9.28807163238525,9.27805614471436,9.26806163787842,9.25808906555176,9.24813842773438,9.23820877075195,9.22830009460449,9.21841335296631,9.20854759216309,9.19870281219482,9.18887901306152,9.17907619476318,9.16929340362549,9.15953254699707,9.1497917175293,9.1400728225708,9.13037395477295,9.12069511413574,9.1110372543335,9.10139942169189,9.09178256988525,9.08218574523926,9.07260894775391,9.0630521774292,9.05351543426514,9.04399967193604,9.03450298309326,9.02502632141113,9.01556968688965,9.00613307952881,8.99671649932861,8.98731899261475,8.97794151306152,8.96858310699463,8.95924472808838,8.94992446899414,8.94062519073486,8.9313440322876,8.92208290100098,8.91284084320068,8.90361785888672,8.89441394805908,8.88522911071777,8.87606239318848,8.86691570281982,8.85778713226318,8.84867763519287,8.83958721160889,8.83051490783691,8.82146167755127,8.81242656707764,8.80340957641602,8.79441165924072,8.78543186187744,8.77647113800049,8.76752758026123,8.7586030960083,8.74969577789307,8.74080753326416,8.73193645477295,8.72308444976807,8.71424961090088,8.7054328918457,8.69663333892822,8.68785190582275,8.6790885925293,8.67034244537354,8.66161441802979,8.65290355682373,8.64421081542969,8.63553524017334,8.62687683105469,8.61823558807373,8.60961151123047,8.60100555419922,8.59241580963135,8.58384418487549,8.57528877258301,8.56675052642822,8.55822944641113,8.54972553253174,8.54123878479004,8.53276824951172,8.52431488037109,8.51587772369385,8.5074577331543,8.49905395507812,8.49066734313965,8.48229694366455,8.47394275665283,8.46560478210449,8.45728397369385,8.44897937774658,8.4406909942627,8.43241882324219,8.42416286468506,8.41592311859131,8.40769863128662,8.39949131011963,8.3912992477417,8.38312339782715,8.37496376037598,8.36682033538818,8.35869216918945,8.35057926177979,8.3424825668335,8.33440208435059,8.32633686065674,8.31828689575195,8.31025314331055,8.3022346496582,8.29423141479492,8.2862434387207,8.27827072143555,8.27031326293945,8.26237201690674,8.25444507598877,8.24653339385986,8.23863792419434,8.23075675964355,8.22289085388184,8.21503925323486,8.20720386505127,8.19938278198242,8.19247245788574,8.18699073791504,8.18151664733887,8.17605018615723,8.17058944702148,8.16513729095459,8.15969276428223,8.15425491333008,8.14882373809814,8.14340019226074,8.13798427581787,8.13257503509521,8.12717342376709,8.12177848815918,8.1163911819458,8.11101150512695,8.105637550354,8.1002721786499,8.09491348266602,8.08956050872803,8.08421611785889,8.07887840270996,8.07354736328125,8.06822395324707,8.06290721893311,8.05759716033936,8.05229473114014,8.04699897766113,8.04171085357666,8.03642845153809,8.03115367889404,8.02588653564453,8.02062511444092,8.01537132263184,8.01012325286865,8.0048828125,7.99964904785156,7.99442291259766,7.98920297622681,7.98398971557617,7.97878360748291,7.97358417510986,7.96839141845703,7.96320533752441,7.95802640914917,7.95285367965698,7.94768810272217,7.94252920150757,7.93737649917603,7.93223094940186,7.92709159851074,7.921959400177,7.91683387756348,7.91171503067017,7.90660238265991,7.90149641036987,7.89639711380005,7.89130449295044,7.88621854782104,7.88113880157471,7.87606525421143,7.87429141998291
12.949779510498,12.9355344772339,12.9213199615479,12.9071378707886,12.8929862976074,12.8671398162842,12.8407192230225,12.8144054412842,12.788200378418,12.7621021270752,12.7361097335815,12.710223197937,12.6844415664673,12.6587648391724,12.6331911087036,12.6077213287354,12.5823526382446,12.5570869445801,12.5319223403931,12.5068588256836,12.481894493103,12.4570302963257,12.4322643280029,12.4075975418091,12.3830280303955,12.3585557937622,12.3341789245605,12.3098993301392,12.2857151031494,12.261625289917,12.2376298904419,12.2137279510498,12.1899194717407,12.1662034988403,12.1425790786743,12.119047164917,12.0956058502197,12.0722551345825,12.0489950180054,12.025580406189,12.0019502639771,11.9784126281738,11.9549674987793,11.9316148757935,11.9083518981934,11.8851804733276,11.8620986938477,11.8391056060791,11.8162021636963,11.7933874130249,11.7706604003906,11.7480211257935,11.7254686355591,11.7030019760132,11.6806211471558,11.659387588501,11.640456199646,11.6215867996216,11.6027784347534,11.5840301513672,11.5653429031372,11.5467157363892,11.528148651123,11.5096416473389,11.491192817688,11.472804069519,11.4544734954834,11.4362010955811,11.4179878234863,11.3998317718506,11.3817338943481,11.3636932373047,11.3457088470459,11.3277826309204,11.3099117279053,11.2920980453491,11.2743396759033,11.2566375732422,11.2389907836914,11.221399307251,11.2038631439209,11.1863813400269,11.1689538955688,11.1515808105469,11.1342620849609,11.1169967651367,11.0997848510742,11.0826253890991,11.0655202865601,11.0484666824341,11.0314664840698,11.0145177841187,10.9976215362549,10.9807767868042,10.9639835357666,10.9472427368164,10.9305515289307,10.913911819458,10.8973226547241,10.8807830810547,10.8642950057983,10.8478555679321,10.8314666748047,10.8137588500977,10.7874422073364,10.7612533569336,10.7351903915405,10.7092542648315,10.683443069458,10.6577558517456,10.63219165802,10.6067495346069,10.5814294815063,10.5562295913696,10.5311498641968,10.5061893463135,10.4813461303711,10.4566202163696,10.4320106506348,10.4075174331665,10.3831377029419,10.3588733673096,10.3347206115723,10.3106813430786,10.2854042053223,10.257061958313,10.2288761138916,10.2008438110352,10.172966003418,10.1452388763428,10.1176633834839,10.0902366638184,10.0629587173462,10.0358276367188,10.0088424682617,9.98200225830078,9.95530605316162,9.92875099182129,9.9023380279541,9.87606525421143,9.84993171691895,9.82393550872803,9.79807662963867,9.77235317230225,9.74676418304443,9.72130966186523,9.69598770141602,9.67079639434814,9.65627098083496,9.64544582366943,9.63464546203613,9.62386894226074,9.61311626434326,9.60238838195801,9.59168338775635,9.58100318908691,9.57034587860107,9.55971336364746,9.54910373687744,9.53851699829102,9.52795505523682,9.51741504669189,9.5068998336792,9.49640655517578,9.48593711853027,9.47549057006836,9.46506690979004,9.45466613769531,9.44428825378418,9.43393325805664,9.4236011505127,9.41329097747803,9.40300369262695,9.39273929595947,9.38249683380127,9.37227630615234,9.36207866668701,9.35190296173096,9.34174919128418,9.33161735534668,9.32150745391846,9.31142044067383,9.30135440826416,9.29131031036377,9.28128719329834,9.2712869644165,9.26130676269531,9.25134944915771,9.24141311645508,9.2314977645874,9.22160339355469,9.21173095703125,9.20187950134277,9.19204807281494,9.18223857879639,9.17245006561279,9.16268253326416,9.15293502807617,9.14320850372314,9.13350296020508,9.12381839752197,9.1141529083252,9.1045093536377,9.09488582611084,9.08528232574463,9.07569885253906,9.06613540649414,9.05659294128418,9.04706954956055,9.03756713867188,9.02808475494385,9.01862144470215,9.00917816162109,8.99975490570068,8.9903507232666,8.98096752166748,8.97160243988037,8.96225738525391,8.95293140411377,8.94362545013428,8.93433952331543,8.92507171630859,8.91582298278809,8.90659332275391,8.89738368988037,8.88819217681885,8.87902069091797,8.8698673248291,8.86073303222656,8.85161685943604,8.84252071380615,8.83344268798828,8.82438278198242,8.81534194946289,8.80631923675537,8.79731464385986,8.788330078125,8.77936267852783,8.77041339874268,8.76148223876953,8.75257015228271,8.74367523193359,8.7347993850708,8.7259407043457,8.71710014343262,8.70827770233154,8.69947242736816,8.6906852722168,8.68191623687744,8.6731653213501,8.66443061828613,8.6557149887085,8.64701557159424,8.63833427429199,8.62967014312744,8.6210241317749,8.61239433288574,8.60378265380859,8.59518814086914,8.58660984039307,8.578049659729,8.56950569152832,8.56097888946533,8.55247020721436,8.54397773742676,8.53550148010254,8.52704238891602,8.51860046386719,8.51017475128174,8.50176620483398,8.49337387084961,8.48499774932861,8.47663879394531,8.46829509735107,8.45996952056885,8.45165920257568,8.4433650970459,8.43508815765381,8.42682647705078,8.41858196258545,8.41035270690918,8.40213966369629,8.39394283294678,8.38576221466064,8.37759685516357,8.36944770812988,8.36131477355957,8.35319709777832,8.34509563446045,8.33700942993164,8.32893943786621,8.32088470458984,8.31284523010254,8.30482196807861,8.29681396484375,8.28882122039795,8.28084373474121,8.27288150787354,8.26493453979492,8.25700378417969,8.2490873336792,8.24118614196777,8.23330020904541,8.22542858123779,8.21757316589355,8.20973205566406,8.20190620422363,8.19409561157227,8.18629932403564,8.17851829528809,8.17140769958496,8.16595458984375,8.16050815582275,8.15506935119629,8.14963722229004,8.14421272277832,8.13879585266113,8.13338565826416,8.12798309326172,8.12258720397949,8.1171989440918,8.11181735992432,8.10644340515137,8.10107612609863,8.09571647644043,8.09036254882812,8.08501720428467,8.07967853546143,8.0743465423584,8.0690221786499,8.06370449066162,8.05839347839355,8.05309009552002,8.04779243469238,8.04250335693359,8.0372200012207,8.03194427490234,8.0266752243042,8.02141380310059,8.01615810394287,8.01091003417969,8.00566864013672,8.00043392181396,7.99520635604858,7.98998498916626,7.98477125167847,7.97956371307373,7.97436332702637,7.96916961669922,7.96398258209229,7.95880222320557,7.95362901687622,7.94846200942993,7.94330167770386,7.93814849853516,7.93300199508667,7.92786169052124,7.92272853851318,7.91760206222534,7.91248178482056,7.90736818313599,7.90226173400879,7.89716100692749,7.89206743240356,7.88698053359985,7.8818998336792,7.87682580947876,7.87175846099854,7.86669731140137,7.86283731460571,7.86163663864136
12.8738203048706,12.8597412109375,12.8456926345825,12.83167552948,12.8176889419556,12.8024091720581,12.776252746582,12.7502031326294,12.7242593765259,12.6984205245972,12.6726875305176,12.6470575332642,12.6215314865112,12.5961084365845,12.5707874298096,12.5455675125122,12.5204486846924,12.4954309463501,12.4705123901367,12.4456939697266,12.4209728240967,12.3963499069214,12.3718252182007,12.3473968505859,12.3230648040771,12.2988290786743,12.2746877670288,12.2506408691406,12.2266883850098,12.2028293609619,12.1790628433228,12.1553897857666,12.1318073272705,12.1083173751831,12.0849170684814,12.0616073608398,12.0383882522583,12.0152578353882,11.9920263290405,11.9685287475586,11.9451217651367,11.9218072891235,11.8985824584961,11.875449180603,11.8524045944214,11.8294496536255,11.806583404541,11.783805847168,11.761116027832,11.7385120391846,11.7159967422485,11.6935663223267,11.6712217330933,11.6490907669067,11.6301927566528,11.6113567352295,11.5925807952881,11.5738668441772,11.555212020874,11.5366172790527,11.5180826187134,11.4996070861816,11.4811916351318,11.4628343582153,11.4445352554321,11.4262952804565,11.4081125259399,11.3899879455566,11.3719215393066,11.3539113998413,11.335958480835,11.3180627822876,11.3002233505249,11.2824392318726,11.2647123336792,11.2470397949219,11.2294235229492,11.2118616104126,11.1943550109863,11.1769027709961,11.1595048904419,11.1421613693237,11.1248712539673,11.1076354980469,11.0904521942139,11.0733222961426,11.0562448501587,11.0392208099365,11.0222482681274,11.0053281784058,10.9884605407715,10.971643447876,10.9548788070679,10.9381647109985,10.921501159668,10.9048891067505,10.8883275985718,10.8718156814575,10.855354309082,10.8389415740967,10.8225793838501,10.806266784668,10.790002822876,10.7737874984741,10.7494840621948,10.7234792709351,10.6975994110107,10.6718435287476,10.6462125778198,10.6207036972046,10.5953168869019,10.5700511932373,10.5449056625366,10.5198793411255,10.4949712753296,10.4701814651489,10.4455089569092,10.4209508895874,10.3965091705322,10.372181892395,10.3479681015015,10.3238668441772,10.2998781204224,10.2759990692139,10.2496471405029,10.2215013504028,10.193510055542,10.1656713485718,10.1379842758179,10.110447883606,10.0830612182617,10.0558214187622,10.0287284851074,10.001781463623,9.97497940063477,9.94832038879395,9.92180252075195,9.89542675018311,9.86919021606445,9.843092918396,9.8171329498291,9.79130935668945,9.76562213897705,9.74006843566895,9.71464824676514,9.68936061859131,9.66420459747314,9.64893913269043,9.63813018798828,9.62734603881836,9.61658573150635,9.60585021972656,9.59513759613037,9.58444976806641,9.57378482818604,9.56314373016357,9.55252647399902,9.54193305969238,9.53136253356934,9.5208158493042,9.51029205322266,9.49979209899902,9.48931503295898,9.47886085510254,9.468430519104,9.45802211761475,9.44763660430908,9.43727397918701,9.42693424224854,9.41661739349365,9.40632343292236,9.39605140686035,9.38580131530762,9.37557411193848,9.36536884307861,9.35518646240234,9.34502506256104,9.33488655090332,9.32476997375488,9.31467533111572,9.30460262298584,9.29455089569092,9.28452110290527,9.27451324462891,9.26452732086182,9.25456237792969,9.24461936950684,9.23469734191895,9.22479629516602,9.21491622924805,9.20505809783936,9.19522094726562,9.18540382385254,9.17560863494873,9.16583347320557,9.15608024597168,9.14634704589844,9.13663482666016,9.12694263458252,9.11727142333984,9.10762119293213,9.09799098968506,9.08838081359863,9.07879066467285,9.06922149658203,9.05967235565186,9.05014228820801,9.04063320159912,9.03114414215088,9.02167510986328,9.01222515106201,9.00279521942139,8.99338531494141,8.98399543762207,8.97462463378906,8.96527290344238,8.95594120025635,8.94662857055664,8.93733596801758,8.92806148529053,8.91880702972412,8.90957164764404,8.90035533905029,8.89115810394287,8.88197994232178,8.87282085418701,8.86367988586426,8.85455894470215,8.84545612335205,8.83637142181396,8.82730579376221,8.81825923919678,8.80923080444336,8.80022048950195,8.79122924804688,8.78225612640381,8.77330112457275,8.76436424255371,8.75544548034668,8.74654579162598,8.73766326904297,8.72879886627197,8.71995258331299,8.71112442016602,8.70231342315674,8.69352149963379,8.68474578857422,8.67598915100098,8.66724872589111,8.65852737426758,8.64982223510742,8.64113616943359,8.63246631622314,8.62381362915039,8.61517906188965,8.6065616607666,8.59796142578125,8.58937835693359,8.58081150054932,8.57226276397705,8.56373023986816,8.55521583557129,8.54671764373779,8.53823661804199,8.52977180480957,8.52132415771484,8.51289367675781,8.50447940826416,8.49608135223389,8.48770046234131,8.47933578491211,8.47098731994629,8.46265602111816,8.45434093475342,8.44604110717773,8.43775844573975,8.42949199676514,8.42124176025391,8.41300773620605,8.40478992462158,8.39658737182617,8.38840198516846,8.3802318572998,8.37207794189453,8.36393928527832,8.35581684112549,8.34770965576172,8.33961868286133,8.33154392242432,8.32348346710205,8.31543922424316,8.30741024017334,8.29939746856689,8.29139995574951,8.28341770172119,8.27545070648193,8.26749897003174,8.25956249237061,8.25164127349854,8.24373531341553,8.23584461212158,8.2279691696167,8.22010803222656,8.21226215362549,8.20443153381348,8.19661617279053,8.18881416320801,8.18102836608887,8.17325687408447,8.16550064086914,8.15775871276855,8.15045166015625,8.14502620697021,8.13960742950439,8.13419628143311,8.12879276275635,8.1233959197998,8.11800575256348,8.112624168396,8.10724830627441,8.10188007354736,8.09651947021484,8.09116458892822,8.08581829071045,8.08047866821289,8.07514572143555,8.06981945037842,8.06450080871582,8.05918884277344,8.05388450622559,8.04858684539795,8.04329586029053,8.03801155090332,8.03273487091064,8.02746486663818,8.02220153808594,8.01694583892822,8.01169586181641,8.00645351409912,8.00121784210205,7.99598932266235,7.99076747894287,7.9855523109436,7.98034381866455,7.97514247894287,7.96994781494141,7.96475982666016,7.95957851409912,7.95440435409546,7.94923639297485,7.94407510757446,7.93892097473145,7.93377304077148,7.9286322593689,7.92349767684937,7.91837024688721,7.91324901580811,7.90813493728638,7.90302658081055,7.89792537689209,7.89283084869385,7.88774251937866,7.88266134262085,7.87758636474609,7.87251758575439,7.86745595932007,7.8624005317688,7.85735130310059,7.85230875015259,7.85021924972534,7.84902286529541
12.7987461090088,12.7848310470581,12.7709455490112,12.7570905685425,12.7432661056519,12.729471206665,12.7124309539795,12.6866407394409,12.6609544754028,12.6353721618652,12.6098937988281,12.5845165252686,12.5592422485352,12.5340690612793,12.508996963501,12.4840240478516,12.4591512680054,12.4343767166138,12.4097013473511,12.3851232528687,12.3606433868408,12.3362588882446,12.3119707107544,12.2877779006958,12.2636795043945,12.2396764755249,12.2157669067383,12.1919507980347,12.1682262420654,12.1445951461792,12.121054649353,12.0976057052612,12.0742473602295,12.0509786605835,12.0278005599976,12.0047101974487,11.9817094802856,11.9586601257324,11.9352912902832,11.9120149612427,11.8888292312622,11.8657331466675,11.8427267074585,11.8198089599609,11.7969799041748,11.7742395401001,11.7515859603882,11.7290201187134,11.7065401077271,11.6841459274292,11.6618375778198,11.6396141052246,11.619948387146,11.6011447906494,11.5824022293091,11.563720703125,11.5450983047485,11.526535987854,11.5080337524414,11.4895906448364,11.4712066650391,11.4528818130493,11.4346141815186,11.4164056777954,11.3982553482056,11.3801622390747,11.3621263504028,11.3441476821899,11.3262252807617,11.3083600997925,11.2905511856079,11.2727975845337,11.2551002502441,11.2374582290649,11.2198715209961,11.2023401260376,11.1848630905151,11.1674404144287,11.1500720977783,11.1327571868896,11.115496635437,11.0982894897461,11.0811357498169,11.0640344619751,11.0469856262207,11.029990196228,11.0130462646484,10.9961538314819,10.9793138504028,10.9625253677368,10.9457883834839,10.9291019439697,10.9124670028687,10.895881652832,10.8793468475342,10.8628625869751,10.8464279174805,10.8300428390503,10.8137073516846,10.7974214553833,10.7811841964722,10.7649955749512,10.7488555908203,10.7327632904053,10.7117929458618,10.6859693527222,10.6602697372437,10.6346940994263,10.6092405319214,10.5839080810547,10.5586967468262,10.5336055755615,10.5086326599121,10.4837779998779,10.4590406417847,10.434419631958,10.4099149703979,10.3855247497559,10.3612480163574,10.3370847702026,10.3130350112915,10.2890958786011,10.2652683258057,10.2415504455566,10.2141370773315,10.1861867904663,10.1583871841431,10.1307401657104,10.1032428741455,10.0758953094482,10.0486936569214,10.0216398239136,9.99473094940186,9.96796607971191,9.94134426116943,9.9148645401001,9.88852500915527,9.86232471466064,9.83626365661621,9.81033992767334,9.7845516204834,9.7588996887207,9.7333812713623,9.7079963684082,9.68274307250977,9.65762138366699,9.64161777496338,9.63082599639893,9.62005805969238,9.60931396484375,9.59859371185303,9.58789825439453,9.57722568511963,9.56657695770264,9.55595207214355,9.54535102844238,9.5347728729248,9.52421855926514,9.51368808746338,9.50318050384521,9.49269580841064,9.48223400115967,9.4717960357666,9.46138000488281,9.45098781585693,9.44061756134033,9.43027114868164,9.41994667053223,9.40964508056641,9.39936542510986,9.38910865783691,9.37887382507324,9.36866188049316,9.35847187042236,9.34830379486084,9.33815765380859,9.32803440093994,9.31793212890625,9.30785274505615,9.29779434204102,9.28775787353516,9.27774238586426,9.26774978637695,9.25777721405029,9.24782752990723,9.23789882659912,9.22799110412598,9.21810436248779,9.20823860168457,9.19839477539062,9.18857097625732,9.1787691116333,9.16898822784424,9.15922737121582,9.14948749542236,9.13976860046387,9.13007068634033,9.12039184570312,9.1107349395752,9.10109806060791,9.09148120880127,9.08188533782959,9.07230949401855,9.06275272369385,9.05321788787842,9.04370212554932,9.03420639038086,9.02473068237305,9.01527404785156,9.00583839416504,8.99642181396484,8.98702526092529,8.97764778137207,8.96829032897949,8.95895195007324,8.94963359832764,8.94033432006836,8.93105411529541,8.92179298400879,8.91255187988281,8.90332984924316,8.89412593841553,8.88494205474854,8.87577629089355,8.8666296005249,8.85750198364258,8.84839344024658,8.8393030166626,8.83023166656494,8.8211784362793,8.81214332580566,8.80312824249268,8.79413032531738,8.78515148162842,8.77619075775146,8.76724815368652,8.75832366943359,8.74941730499268,8.74052906036377,8.73165893554688,8.72280693054199,8.71397304534912,8.70515632629395,8.6963586807251,8.68757724761963,8.67881488800049,8.67006874084473,8.66134166717529,8.65263175964355,8.64393901824951,8.63526344299316,8.62660598754883,8.61796569824219,8.60934257507324,8.60073661804199,8.59214782714844,8.58357620239258,8.57502174377441,8.56648349761963,8.55796337127686,8.54946041107178,8.54097270965576,8.53250312805176,8.52404975891113,8.5156135559082,8.50719451904297,8.49879169464111,8.49040508270264,8.48203468322754,8.47368144989014,8.46534442901611,8.45702362060547,8.44871997833252,8.44043159484863,8.43216037750244,8.42390441894531,8.41566562652588,8.40744113922119,8.39923477172852,8.3910436630249,8.38286781311035,8.3747091293335,8.3665657043457,8.35843753814697,8.35032558441162,8.34222984313965,8.33414936065674,8.32608413696289,8.31803512573242,8.31000137329102,8.30198383331299,8.29398059844971,8.2859935760498,8.27802181243896,8.27006435394287,8.26212310791016,8.2541971206665,8.24628639221191,8.23839092254639,8.23051071166992,8.2226448059082,8.21479415893555,8.20695877075195,8.19913768768311,8.19133186340332,8.1835412979126,8.17576503753662,8.16800403594971,8.16025733947754,8.15252494812012,8.14480781555176,8.13710498809814,8.12960243225098,8.12420463562012,8.11881446838379,8.11343097686768,8.10805416107178,8.10268497467041,8.09732246398926,8.09196758270264,8.08661937713623,8.08127880096436,8.0759449005127,8.07061767578125,8.06529808044434,8.05998516082764,8.05467987060547,8.0493803024292,8.04408836364746,8.03880405426025,8.03352546691895,8.02825450897217,8.02299022674561,8.01773357391357,8.01248264312744,8.00723934173584,8.00200271606445,7.99677276611328,7.99154996871948,7.9863338470459,7.98112440109253,7.97592210769653,7.97072601318359,7.96553754806519,7.96035528182983,7.9551796913147,7.95001077651978,7.94484853744507,7.93969345092773,7.93454456329346,7.92940282821655,7.92426729202271,7.91913843154907,7.91401672363281,7.90890121459961,7.90379238128662,7.89869022369385,7.89359426498413,7.88850545883179,7.8834228515625,7.87834644317627,7.87327718734741,7.86821413040161,7.86315774917603,7.85810804367065,7.85306453704834,7.84802722930908,7.8429970741272,7.8388352394104,7.83764171600342,7.83644914627075
12.7245426177979,12.7107877731323,12.6970634460449,12.6833686828613,12.6697025299072,12.6560668945312,12.6424598693848,12.6237087249756,12.59827709198,12.5729465484619,12.54771900177,12.5225915908813,12.4975652694702,12.472638130188,12.4478101730347,12.4230813980103,12.3984508514404,12.3739175796509,12.3494806289673,12.325140953064,12.300895690918,12.2767467498779,12.2526922225952,12.2287321090698,12.2048645019531,12.1810903549194,12.1574087142944,12.1338195800781,12.1103210449219,12.0869131088257,12.0635957717896,12.0403690338135,12.0172309875488,11.9941816329956,11.9712200164795,11.9483470916748,11.9254779815674,11.9022397994995,11.8790912628174,11.8560333251953,11.8330640792847,11.8101844787598,11.787392616272,11.7646884918213,11.7420721054077,11.7195415496826,11.6970987319946,11.6747407913208,11.6524677276611,11.6302804946899,11.6097211837769,11.5909509658813,11.5722408294678,11.5535917282104,11.5350027084351,11.5164728164673,11.4980030059814,11.4795923233032,11.4612398147583,11.442946434021,11.424711227417,11.4065341949463,11.3884143829346,11.3703527450562,11.3523473739624,11.334400177002,11.3165082931519,11.2986736297607,11.2808952331543,11.2631721496582,11.2455053329468,11.2278928756714,11.2103366851807,11.192834854126,11.1753873825073,11.1579942703247,11.1406555175781,11.1233701705933,11.1061382293701,11.0889596939087,11.071834564209,11.0547618865967,11.0377416610718,11.0207748413086,11.0038585662842,10.9869956970215,10.9701833724976,10.9534225463867,10.936713218689,10.92005443573,10.9034461975098,10.8868885040283,10.8703813552856,10.8539237976074,10.837516784668,10.8211584091187,10.8048496246338,10.7885904312134,10.7723789215088,10.7562170028687,10.7401037216187,10.7240381240845,10.7080202102661,10.6920509338379,10.6743650436401,10.648720741272,10.6232004165649,10.5978021621704,10.5725240707397,10.5473670959473,10.5223293304443,10.4974098205566,10.4726085662842,10.4479236602783,10.4233551025391,10.3989019393921,10.3745632171631,10.3503379821777,10.326226234436,10.3022260665894,10.2783374786377,10.2545595169067,10.2308902740479,10.2067842483521,10.1788730621338,10.1511144638062,10.1235065460205,10.0960483551025,10.0687389373779,10.0415773391724,10.0145606994629,9.98768997192383,9.96096324920654,9.9343786239624,9.90793514251709,9.88163280487061,9.85546970367432,9.82944393157959,9.80355644226074,9.77780437469482,9.75218677520752,9.72670364379883,9.70135307312012,9.67613506317139,9.65104675292969,9.63430786132812,9.62353229522705,9.61278057098389,9.60205268859863,9.59134864807129,9.58066940307617,9.57001304626465,9.55938053131104,9.54877185821533,9.53818607330322,9.52762413024902,9.51708602905273,9.50657081604004,9.49607849121094,9.48561000823975,9.47516345977783,9.46474075317383,9.45434093475342,9.4439640045166,9.43360900878906,9.42327785491943,9.41296863555908,9.40268230438232,9.39241790771484,9.38217639923096,9.37195682525635,9.36175918579102,9.35158443450928,9.34143161773682,9.33130073547363,9.32119178771973,9.3111047744751,9.30103969573975,9.29099559783936,9.28097438812256,9.27097415924072,9.26099491119385,9.25103759765625,9.24110221862793,9.23118782043457,9.22129440307617,9.21142196655273,9.20157146453857,9.19174098968506,9.18193244934082,9.17214393615723,9.16237735748291,9.15263080596924,9.14290428161621,9.13319969177246,9.12351512908936,9.11385059356689,9.10420799255371,9.09458446502686,9.08498191833496,9.07539939880371,9.06583690643311,9.05629444122314,9.04677200317383,9.03727054595947,9.02778816223145,9.01832580566406,9.00888252258301,8.99946022033691,8.99005699157715,8.98067378997803,8.97130966186523,8.96196556091309,8.95264053344727,8.94333457946777,8.93404865264893,8.92478179931641,8.91553401947021,8.90630531311035,8.89709568023682,8.88790512084961,8.87873363494873,8.86958122253418,8.86044692993164,8.85133266448975,8.84223556518555,8.83315849304199,8.82409954071045,8.81505870819092,8.80603694915771,8.79703330993652,8.78804874420166,8.77908229827881,8.77013301849365,8.76120281219482,8.75229072570801,8.7433967590332,8.73452186584473,8.72566318511963,8.71682357788086,8.70800113677979,8.69919776916504,8.69041061401367,8.68164253234863,8.67289066314697,8.66415786743164,8.655442237854,8.64674377441406,8.63806343078613,8.62939929962158,8.62075328826904,8.6121244430542,8.60351371765137,8.59491920471191,8.58634185791016,8.57778167724609,8.56923866271973,8.56071281433105,8.55220413208008,8.54371166229248,8.53523635864258,8.52677822113037,8.51833629608154,8.50991153717041,8.50150299072266,8.49311065673828,8.4847354888916,8.4763765335083,8.4680347442627,8.45970916748047,8.45139980316162,8.44310569763184,8.43482875823975,8.42656803131104,8.4183235168457,8.41009521484375,8.40188312530518,8.39368629455566,8.38550662994385,8.37734222412109,8.3691930770874,8.36106014251709,8.35294342041016,8.34484195709229,8.33675670623779,8.32868671417236,8.32063293457031,8.31259346008301,8.3045711517334,8.29656314849854,8.28857135772705,8.28059387207031,8.27263259887695,8.26468563079834,8.25675487518311,8.24883937835693,8.24093914031982,8.23305320739746,8.22518253326416,8.21732711791992,8.20948696136475,8.20166206359863,8.19385051727295,8.18605518341064,8.17827415466309,8.17050838470459,8.16275691986084,8.15502071380615,8.14729785919189,8.13959121704102,8.13189792633057,8.12421989440918,8.11655616760254,8.10890674591064,8.10348987579346,8.09812641143799,8.09276962280273,8.08742046356201,8.08207893371582,8.07674407958984,8.07141590118408,8.06609535217285,8.06078147888184,8.05547428131104,8.05017471313477,8.04488182067871,8.03959560394287,8.03431606292725,8.02904415130615,8.02377986907959,8.01852130889893,8.01326942443848,8.00802516937256,8.00278759002686,7.99755668640137,7.99233245849609,7.98711538314819,7.98190498352051,7.9767017364502,7.97150468826294,7.96631479263306,7.96113157272339,7.95595502853394,7.95078563690186,7.94562196731567,7.94046592712402,7.93531608581543,7.93017292022705,7.92503690719604,7.9199070930481,7.91478395462036,7.90966749191284,7.9045581817627,7.89945459365845,7.89435815811157,7.88926792144775,7.88418436050415,7.87910747528076,7.87403726577759,7.86897277832031,7.86391544342041,7.85886478424072,7.85382032394409,7.84878253936768,7.84375095367432,7.83872556686401,7.83370733261108,7.82869529724121,7.8262939453125,7.82510471343994,7.82391548156738
12.6511945724487,12.6375980377197,12.6240310668945,12.6104927062988,12.5969839096069,12.5835037231445,12.5700521469116,12.5566301345825,12.5362167358398,12.5111351013184,12.4861545562744,12.4612731933594,12.4364900588989,12.4118061065674,12.3872203826904,12.3627309799194,12.3383388519287,12.3140420913696,12.2898416519165,12.2657356262207,12.2417240142822,12.2178058624268,12.1939821243286,12.1702499389648,12.1466112136841,12.1230630874634,12.0996065139771,12.0762395858765,12.0529642105103,12.0297775268555,12.0066804885864,11.9836711883545,11.960750579834,11.9379167556763,11.9151706695557,11.8924798965454,11.8693695068359,11.8463497161865,11.8234176635742,11.8005752563477,11.7778205871582,11.7551536560059,11.7325735092163,11.7100801467896,11.6876726150513,11.6653499603271,11.6431140899658,11.62096118927,11.5995121002197,11.580774307251,11.5620975494385,11.5434808731079,11.5249242782593,11.5064268112183,11.4879894256592,11.4696102142334,11.4512901306152,11.4330282211304,11.4148244857788,11.3966789245605,11.3785905838013,11.360559463501,11.3425855636597,11.3246688842773,11.3068084716797,11.2890043258667,11.2712564468384,11.2535638809204,11.2359266281128,11.2183446884155,11.2008171081543,11.1833448410034,11.1659269332886,11.1485633850098,11.131254196167,11.1139974594116,11.0967950820923,11.0796461105347,11.0625486373901,11.0455055236816,11.0285139083862,11.0115747451782,10.9946870803833,10.9778518676758,10.961067199707,10.9443349838257,10.9276523590088,10.911021232605,10.8944416046143,10.8779106140137,10.8614311218262,10.8450002670288,10.8286199569702,10.8122882843018,10.7960062026978,10.7797737121582,10.7635889053345,10.7474536895752,10.7313661575317,10.7153263092041,10.6993350982666,10.6833915710449,10.6674947738647,10.6516456604004,10.6358432769775,10.6117315292358,10.5863876342773,10.561164855957,10.5360612869263,10.5110769271851,10.4862108230591,10.461462020874,10.4368305206299,10.4123134613037,10.3879117965698,10.3636245727539,10.3394508361816,10.3153886795044,10.2914390563965,10.2676000595093,10.2438716888428,10.2202529907227,10.1967420578003,10.1715698242188,10.1438512802124,10.116283416748,10.0888633728027,10.0615930557251,10.0344696044922,10.0074920654297,9.98065853118896,9.95396900177002,9.92742156982422,9.90101623535156,9.8747501373291,9.84862327575684,9.82263469696045,9.79678153991699,9.7710657119751,9.7454833984375,9.7200345993042,9.6947193145752,9.66953563690186,9.64448165893555,9.62700843811035,9.61624908447266,9.60551452636719,9.59480285644531,9.58411502838135,9.57345104217529,9.56281089782715,9.55219459533691,9.54160213470459,9.53103256225586,9.52048587799072,9.5099630355835,9.49946403503418,9.48898792266846,9.47853469848633,9.46810436248779,9.45769691467285,9.4473123550415,9.43695068359375,9.42661094665527,9.41629505157471,9.40600109100342,9.39573001861572,9.3854808807373,9.37525463104248,9.36505031585693,9.35486793518066,9.34470748901367,9.33456993103027,9.32445335388184,9.31435966491699,9.30428695678711,9.2942361831665,9.28420734405518,9.27420043945312,9.26421546936035,9.25425052642822,9.24430847167969,9.2343864440918,9.22448635101318,9.21460723876953,9.20475006103516,9.19491291046143,9.18509674072266,9.17530250549316,9.16552829742432,9.15577507019043,9.1460428237915,9.13633060455322,9.12664031982422,9.11696910858154,9.10731887817383,9.09768962860107,9.08808040618896,9.0784912109375,9.06892204284668,9.05937385559082,9.04984474182129,9.04033660888672,9.03084754943848,9.02137851715088,9.01192951202393,9.00250053405762,8.99309158325195,8.98370170593262,8.97433090209961,8.96498012542725,8.95564937591553,8.94633769989014,8.93704509735107,8.92777156829834,8.91851806640625,8.90928268432617,8.90006732940674,8.89087104797363,8.88169288635254,8.87253379821777,8.86339473724365,8.85427379608154,8.84517097473145,8.83608722686768,8.82702255249023,8.8179759979248,8.8089485168457,8.79993915557861,8.79094791412354,8.78197479248047,8.77302074432373,8.764084815979,8.75516700744629,8.74626731872559,8.73738574981689,8.7285213470459,8.71967601776123,8.71084785461426,8.70203876495361,8.69324588775635,8.68447113037109,8.67571449279785,8.66697597503662,8.65825462341309,8.64955043792725,8.64086437225342,8.63219451904297,8.62354373931885,8.61490917205811,8.60629177093506,8.59769248962402,8.58910942077637,8.58054351806641,8.57199573516846,8.56346416473389,8.55494976043701,8.54645156860352,8.53797149658203,8.52950763702393,8.5210599899292,8.51262950897217,8.50421619415283,8.49581909179688,8.4874382019043,8.47907447814941,8.47072696685791,8.46239566802979,8.45408058166504,8.44578170776367,8.4375,8.42923355102539,8.42098426818848,8.41275024414062,8.40453243255615,8.39633178710938,8.38814544677734,8.37997627258301,8.37182235717773,8.36368465423584,8.35556221008301,8.34745597839355,8.33936595916748,8.33129119873047,8.32323169708252,8.31518745422363,8.30715942382812,8.29914665222168,8.29115009307861,8.28316783905029,8.27520179748535,8.26725006103516,8.25931453704834,8.25139427185059,8.24348831176758,8.23559761047363,8.22772216796875,8.21986198425293,8.21201705932617,8.20418643951416,8.19637107849121,8.18857097625732,8.18078517913818,8.17301464080811,8.16525840759277,8.1575174331665,8.14978981018066,8.14207744598389,8.13438034057617,8.1266975402832,8.11902904510498,8.1113748550415,8.10373497009277,8.09611034393311,8.08849906921387,8.0828800201416,8.07754325866699,8.07221508026123,8.06689262390137,8.06157779693604,8.05626964569092,8.05096912384033,8.04567527770996,8.0403881072998,8.03510761260986,8.02983474731445,8.02456855773926,8.01930904388428,8.01405715942383,8.00881099700928,8.00357246398926,7.99834060668945,7.99311542510986,7.98789739608765,7.98268556594849,7.97748136520386,7.97228384017944,7.96709251403809,7.9619083404541,7.95673084259033,7.95156002044678,7.94639587402344,7.94123888015747,7.9360876083374,7.93094396591187,7.92580652236938,7.92067575454712,7.91555166244507,7.91043424606323,7.90532350540161,7.90021944046021,7.89512205123901,7.89003038406372,7.88494634628296,7.87986850738525,7.87479639053345,7.86973190307617,7.86467361450195,7.85962152481079,7.85457611083984,7.84953737258911,7.84450483322144,7.83947896957397,7.83445930480957,7.82944583892822,7.82443952560425,7.81943893432617,7.8149790763855,7.81379318237305,7.81260776519775,7.81142234802246
12.5786876678467,12.5652465820312,12.5518341064453,12.5384502410889,12.5250949859619,12.5117683410645,12.4984693527222,12.4851999282837,12.4719572067261,12.4499282836914,12.4251909255981,12.4005517959595,12.3760099411011,12.3515653610229,12.3272171020508,12.3029642105103,12.2788066864014,12.2547445297241,12.2307758331299,12.2069005966187,12.1831188201904,12.1594295501709,12.1358318328857,12.112325668335,12.0889101028442,12.0655851364136,12.0423498153687,12.0192050933838,11.996148109436,11.9731788635254,11.9502983093262,11.9275045394897,11.9047985076904,11.8821773529053,11.8596429824829,11.8366813659668,11.8137874603271,11.7909812927246,11.7682638168335,11.7456331253052,11.723090171814,11.7006330490112,11.678261756897,11.6559753417969,11.6337738037109,11.6116580963135,11.5896253585815,11.5706167221069,11.5519723892212,11.5333881378174,11.5148639678955,11.4963989257812,11.4779930114746,11.4596462249756,11.4413576126099,11.4231271743774,11.4049549102783,11.3868408203125,11.3687839508057,11.3507843017578,11.3328409194946,11.3149547576904,11.2971248626709,11.279351234436,11.2616329193115,11.2439708709717,11.2263641357422,11.2088117599487,11.1913146972656,11.1738719940186,11.1564836502075,11.1391487121582,11.1218690872192,11.1046419143677,11.0874681472778,11.0703468322754,11.0532789230347,11.0362634658813,11.0193004608154,11.0023899078369,10.9855308532715,10.9687232971191,10.9519672393799,10.9352617263794,10.918607711792,10.9020042419434,10.8854503631592,10.8689479827881,10.8524951934814,10.8360910415649,10.8197374343872,10.8034334182739,10.7871780395508,10.7709712982178,10.7548131942749,10.7387037277222,10.7226428985596,10.7066287994385,10.6906633377075,10.6747455596924,10.6588745117188,10.6430511474609,10.6272745132446,10.6115446090698,10.5958614349365,10.5749988555908,10.5498294830322,10.5247802734375,10.499849319458,10.4750356674194,10.4503402709961,10.425760269165,10.4012956619263,10.3769454956055,10.3527097702026,10.3285865783691,10.3045749664307,10.2806758880615,10.2568864822388,10.2332067489624,10.2096366882324,10.1861743927002,10.16282081604,10.1365985870361,10.1090698242188,10.0816898345947,10.0544576644897,10.0273723602295,10.0004329681396,9.97363758087158,9.94698524475098,9.92047595977783,9.8941068649292,9.86787700653076,9.84178638458252,9.81583309173584,9.79001712799072,9.76433563232422,9.73878955841064,9.71337604522705,9.68809509277344,9.66294479370117,9.63792514801025,9.61972141265869,9.60897827148438,9.59825897216797,9.58756351470947,9.57689189910889,9.56624412536621,9.55562019348145,9.54501914978027,9.53444290161133,9.52388858795166,9.5133581161499,9.50285148620605,9.4923677444458,9.48190689086914,9.47146892547607,9.46105480194092,9.45066261291504,9.44029331207275,9.42994785308838,9.41962337493896,9.40932273864746,9.39904403686523,9.3887882232666,9.37855434417725,9.36834239959717,9.35815334320068,9.34798622131348,9.33784103393555,9.32771778106689,9.31761646270752,9.30753707885742,9.2974796295166,9.28744411468506,9.27742958068848,9.26743698120117,9.25746631622314,9.24751663208008,9.23758792877197,9.22768115997314,9.21779537200928,9.20793056488037,9.19808673858643,9.18826389312744,9.17846298217773,9.16868209838867,9.15892219543457,9.14918327331543,9.13946437835693,9.1297664642334,9.12008953094482,9.11043262481689,9.10079669952393,9.0911808013916,9.08158493041992,9.0720100402832,9.06245422363281,9.05291938781738,9.0434045791626,9.03390884399414,9.02443408966064,9.01497840881348,9.00554275512695,8.99612712860107,8.98673057556152,8.97735500335693,8.96799755096436,8.95866012573242,8.94934177398682,8.94004344940186,8.93076419830322,8.92150402069092,8.91226291656494,8.90304088592529,8.89383792877197,8.88465404510498,8.87548923492432,8.86634349822998,8.85721683502197,8.84810829162598,8.83901882171631,8.82994747161865,8.82089519500732,8.81186103820801,8.80284595489502,8.79384899139404,8.78487014770508,8.77591037750244,8.76696872711182,8.75804424285889,8.74913883209229,8.7402515411377,8.7313814163208,8.72253036499023,8.71369647979736,8.7048807144165,8.69608306884766,8.6873025894165,8.67854022979736,8.66979598999023,8.6610689163208,8.65235900878906,8.64366722106934,8.6349925994873,8.62633514404297,8.61769485473633,8.6090726852417,8.60046768188477,8.59187889099121,8.58330821990967,8.5747537612915,8.56621742248535,8.55769729614258,8.54919338226318,8.5407075881958,8.5322380065918,8.52378559112549,8.51535034179688,8.50693035125732,8.49852848052979,8.49014282226562,8.48177337646484,8.47342014312744,8.46508407592773,8.45676326751709,8.44845962524414,8.44017219543457,8.43190097808838,8.42364597320557,8.41540718078613,8.40718460083008,8.3989782333374,8.39078712463379,8.38261222839355,8.3744535446167,8.36631011962891,8.35818386077881,8.35007190704346,8.34197616577148,8.33389663696289,8.32583236694336,8.31778335571289,8.3097505569458,8.30173301696777,8.29373073577881,8.28574371337891,8.27777194976807,8.26981639862061,8.26187515258789,8.25395011901855,8.24603939056396,8.23814392089844,8.23026371002197,8.22239875793457,8.21454906463623,8.20671367645264,8.19889354705811,8.19108772277832,8.18329811096191,8.17552185058594,8.16776084899902,8.16001510620117,8.15228366851807,8.14456653594971,8.13686466217041,8.12917709350586,8.12150382995605,8.113844871521,8.10620021820068,8.09857082366943,8.09095478057861,8.08335399627686,8.07576751708984,8.06819438934326,8.06237411499023,8.0570650100708,8.0517635345459,8.04646778106689,8.04117965698242,8.03589916229248,8.03062438964844,8.02535724639893,8.02009677886963,8.01484394073486,8.009596824646,8.00435733795166,7.99912452697754,7.99389839172363,7.9886794090271,7.98346710205078,7.97826147079468,7.97306251525879,7.96787023544312,7.96268510818481,7.95750665664673,7.95233488082886,7.9471697807312,7.94201135635376,7.93685960769653,7.93171501159668,7.92657613754272,7.9214448928833,7.91631984710693,7.91120100021362,7.90608930587769,7.90098428726196,7.8958854675293,7.890793800354,7.88570833206177,7.88062906265259,7.87555646896362,7.87049102783203,7.86543130874634,7.86037874221802,7.85533237457275,7.85029220581055,7.84525918960571,7.84023237228394,7.83521127700806,7.83019733428955,7.8251895904541,7.82018852233887,7.81519365310669,7.81020498275757,7.8052225112915,7.80251407623291,7.80133199691772,7.8001503944397,7.79896879196167
12.5070066452026,12.4937181472778,12.4804582595825,12.4672260284424,12.4540214538574,12.440845489502,12.4276971817017,12.4145774841309,12.4014844894409,12.3884191513062,12.3648204803467,12.3404197692871,12.3161153793335,12.2919054031372,12.2677917480469,12.2437725067139,12.2198467254639,12.1960144042969,12.1722745895386,12.148627281189,12.1250715255737,12.1016073226929,12.0782327651978,12.054949760437,12.0317554473877,12.0086507797241,11.9856338500977,11.9627056121826,11.9398641586304,11.9171104431152,11.8944435119629,11.871862411499,11.8493671417236,11.8269557952881,11.8041725158691,11.7814035415649,11.7587223052979,11.7361288070679,11.7136220932007,11.691201210022,11.6688652038574,11.6466150283813,11.6244497299194,11.6023683547974,11.5803718566895,11.5604763031006,11.5418643951416,11.5233125686646,11.5048208236694,11.4863882064819,11.4680137634277,11.4496994018555,11.4314422607422,11.4132432937622,11.3951025009155,11.3770198822021,11.3589935302734,11.341025352478,11.323112487793,11.3052577972412,11.2874584197998,11.2697143554688,11.2520265579224,11.2343940734863,11.216817855835,11.1992950439453,11.181827545166,11.1644144058228,11.1470556259155,11.12975025177,11.1124992370605,11.0953016281128,11.0781564712524,11.0610637664795,11.0440244674683,11.0270385742188,11.010103225708,10.9932203292847,10.9763898849487,10.9596099853516,10.9428815841675,10.9262037277222,10.9095773696899,10.8930015563965,10.8764753341675,10.8599996566772,10.8435735702515,10.8271970748901,10.8108701705933,10.7945928573608,10.7783632278442,10.7621831893921,10.7460517883301,10.7299690246582,10.7139329910278,10.6979455947876,10.6820058822632,10.6661138534546,10.6502685546875,10.6344709396362,10.6187191009521,10.6030149459839,10.5873565673828,10.5717439651489,10.5561780929565,10.5385179519653,10.5135231018066,10.4886455535889,10.463885307312,10.4392414093018,10.4147138595581,10.3903007507324,10.3660020828247,10.3418169021606,10.3177442550659,10.2937841415405,10.2699337005615,10.2461948394775,10.2225646972656,10.1990432739258,10.175630569458,10.1523246765137,10.1291246414185,10.1018667221069,10.0745258331299,10.0473327636719,10.0202856063843,9.99338436126709,9.96662616729736,9.94001197814941,9.91353893280029,9.88720607757568,9.86101341247559,9.83495903015137,9.80904197692871,9.7832612991333,9.75761604309082,9.73210430145264,9.70672512054443,9.68147945404053,9.65636348724365,9.63137817382812,9.6124439239502,9.60171699523926,9.59101486206055,9.58033561706543,9.56968021392822,9.55904769897461,9.54843997955322,9.53785514831543,9.52729415893555,9.51675605773926,9.50624179840088,9.49575042724609,9.4852819442749,9.47483730316162,9.46441459655762,9.45401573181152,9.44363975524902,9.4332857131958,9.42295455932617,9.41264629364014,9.40235996246338,9.39209747314453,9.38185596466064,9.37163734436035,9.36144065856934,9.3512659072876,9.34111404418945,9.33098411560059,9.320876121521,9.31078910827637,9.30072498321533,9.29068183898926,9.28066062927246,9.27066135406494,9.26068305969238,9.2507266998291,9.24079132080078,9.23087787628174,9.22098445892334,9.21111392974854,9.20126342773438,9.19143390655518,9.18162536621094,9.17183780670166,9.16207122802734,9.15232563018799,9.14260005950928,9.13289642333984,9.12321186065674,9.11354923248291,9.10390567779541,9.09428405761719,9.08468151092529,9.07509899139404,9.06553745269775,9.05599594116211,9.04647445678711,9.03697299957275,9.02749156951904,9.01802921295166,9.00858783721924,8.99916553497314,8.9897632598877,8.98038005828857,8.9710168838501,8.96167278289795,8.95234870910645,8.94304370880127,8.93375778198242,8.92449188232422,8.91524505615234,8.90601634979248,8.89680767059326,8.88761806488037,8.87844657897949,8.86929512023926,8.86016178131104,8.85104751586914,8.84195137023926,8.8328742980957,8.82381629943848,8.81477642059326,8.80575466156006,8.79675197601318,8.78776741027832,8.77880191802979,8.76985359191895,8.76092433929443,8.75201225280762,8.74311923980713,8.73424339294434,8.72538661956787,8.7165470123291,8.70772552490234,8.6989221572876,8.69013595581055,8.68136787414551,8.67261791229248,8.66388511657715,8.65516948699951,8.64647197723389,8.63779163360596,8.62912845611572,8.6204833984375,8.61185455322266,8.60324382781982,8.59465026855469,8.58607387542725,8.57751369476318,8.56897163391113,8.56044578552246,8.55193710327148,8.54344654083252,8.53497123718262,8.52651309967041,8.5180721282959,8.50964736938477,8.50123977661133,8.49284839630127,8.48447418212891,8.47611522674561,8.46777439117432,8.45944881439209,8.45113945007324,8.44284629821777,8.4345703125,8.42630958557129,8.41806602478027,8.40983772277832,8.40162658691406,8.39343070983887,8.38525009155273,8.3770866394043,8.36893844604492,8.36080646514893,8.35268974304199,8.34458923339844,8.33650398254395,8.32843494415283,8.32038021087646,8.31234264373779,8.30432033538818,8.29631233215332,8.28832054138184,8.28034496307373,8.27238368988037,8.26443767547607,8.25650691986084,8.24859237670898,8.24069213867188,8.23280715942383,8.22493648529053,8.21708202362061,8.20924186706543,8.20141696929932,8.19360637664795,8.18581199645996,8.1780309677124,8.17026519775391,8.16251468658447,8.15477848052979,8.14705657958984,8.13934993743896,8.13165760040283,8.12397956848145,8.1163158416748,8.10866737365723,8.10103321075439,8.09341239929199,8.08580684661865,8.07821559906006,8.07063770294189,8.06307506561279,8.05552577972412,8.0479907989502,8.04197216033936,8.0366907119751,8.03141498565674,8.02614688873291,8.0208854675293,8.0156307220459,8.01038360595703,8.00514221191406,7.99990892410278,7.9946813583374,7.98946142196655,7.98424816131592,7.97904109954834,7.97384166717529,7.9686484336853,7.96346187591553,7.95828294754028,7.95310974121094,7.94794368743896,7.94278478622437,7.93763160705566,7.93248558044434,7.92734622955322,7.92221355438232,7.91708755493164,7.91196823120117,7.90685558319092,7.90174913406372,7.8966498374939,7.89155673980713,7.88647031784058,7.88139057159424,7.87631702423096,7.87124967575073,7.86618947982788,7.86113595962524,7.85608863830566,7.85104751586914,7.84601354598999,7.84098529815674,7.8359637260437,7.83094882965088,7.82594013214111,7.82093811035156,7.81594228744507,7.81095218658447,7.80596923828125,7.80099296569824,7.79602193832397,7.79126787185669,7.79008913040161,7.78891086578369,7.78773260116577,7.78655481338501
12.4361381530762,12.422999382019,12.4098892211914,12.3968057632446,12.3837509155273,12.3707227706909,12.3577222824097,12.3447494506836,12.3318033218384,12.3188848495483,12.3050327301025,12.2808675765991,12.256796836853,12.2328205108643,12.2089376449585,12.1851472854614,12.161449432373,12.1378440856934,12.114330291748,12.0909080505371,12.0675754547119,12.0443325042725,12.0211791992188,11.9981145858765,11.9751386642456,11.9522504806519,11.9294490814209,11.9067354202271,11.8841066360474,11.8615655899048,11.8391084671021,11.8167362213135,11.7944488525391,11.7718410491943,11.7491970062256,11.7266397476196,11.7041692733765,11.6817846298218,11.6594848632812,11.6372699737549,11.615140914917,11.5930948257446,11.5711326599121,11.5503530502319,11.531774520874,11.5132551193237,11.4947948455811,11.4763946533203,11.4580526351929,11.439769744873,11.4215440750122,11.4033765792847,11.3852672576904,11.3672161102295,11.3492212295532,11.3312826156616,11.313401222229,11.2955760955811,11.2778072357178,11.2600946426392,11.2424373626709,11.2248344421387,11.2072877883911,11.1897945404053,11.1723566055298,11.1549730300903,11.1376438140869,11.1203680038452,11.1031455993652,11.085976600647,11.0688600540161,11.051796913147,11.0347862243652,11.0178279876709,11.0009212493896,10.9840660095215,10.9672632217407,10.950511932373,10.9338111877441,10.917160987854,10.900562286377,10.8840131759644,10.8675146102905,10.8510656356812,10.8346672058105,10.8183174133301,10.8020172119141,10.7857666015625,10.7695636749268,10.7534103393555,10.7373046875,10.7212476730347,10.7052383422852,10.6892766952515,10.6733627319336,10.6574964523315,10.641676902771,10.625904083252,10.6101779937744,10.5944986343384,10.5788660049438,10.5632781982422,10.547737121582,10.5322418212891,10.516791343689,10.5013866424561,10.4774646759033,10.4527568817139,10.4281663894653,10.4036903381348,10.3793296813965,10.3550815582275,10.3309478759766,10.3069257736206,10.2830152511597,10.2592153549194,10.2355251312256,10.2119436264038,10.1884717941284,10.1651067733765,10.1418485641479,10.1186971664429,10.0946741104126,10.0673723220825,10.0402173995972,10.0132083892822,9.9863452911377,9.95962429046631,9.9330472946167,9.90661144256592,9.88031578063965,9.85415935516357,9.82814121246338,9.80226039886475,9.77651500701904,9.75090503692627,9.72542762756348,9.70008373260498,9.67487239837646,9.64979076385498,9.62483978271484,9.60517883300781,9.59446811676025,9.58378124237061,9.57311820983887,9.56247806549072,9.5518627166748,9.54127025604248,9.53070163726807,9.52015590667725,9.50963401794434,9.49913597106934,9.48865985870361,9.4782075881958,9.46777820587158,9.45737075805664,9.44698715209961,9.43662643432617,9.42628765106201,9.41597270965576,9.40567970275879,9.39540863037109,9.38516044616699,9.37493419647217,9.36473083496094,9.35454940795898,9.34438991546631,9.33425235748291,9.32413768768311,9.31404399871826,9.3039722442627,9.29392242431641,9.28389453887939,9.27388763427734,9.26390266418457,9.25393962860107,9.24399662017822,9.23407649993896,9.22417640686035,9.21429824829102,9.20444107055664,9.19460487365723,9.18479061126709,9.1749963760376,9.16522312164307,9.15546989440918,9.14573860168457,9.13602733612061,9.1263370513916,9.11666679382324,9.10701751708984,9.09738826751709,9.0877799987793,9.07819080352783,9.06862258911133,9.05907440185547,9.04954719543457,9.0400390625,9.03055095672607,9.02108287811279,9.01163482666016,9.00220584869385,8.99279689788818,8.98340797424316,8.97403812408447,8.96468830108643,8.95535755157471,8.94604587554932,8.93675422668457,8.92748165130615,8.91822814941406,8.9089937210083,8.89977931976318,8.89058303833008,8.8814058303833,8.87224769592285,8.86310863494873,8.85398864746094,8.84488677978516,8.83580303192139,8.82673931121826,8.81769275665283,8.80866622924805,8.79965686798096,8.7906665802002,8.78169441223145,8.77274131774902,8.7638053894043,8.75488758087158,8.7459888458252,8.7371072769165,8.72824478149414,8.71939945220947,8.71057224273682,8.70176315307617,8.69297122955322,8.68419742584229,8.67544078826904,8.66670227050781,8.65798187255859,8.64927864074707,8.64059257507324,8.63192367553711,8.62327289581299,8.61463928222656,8.60602283477783,8.59742259979248,8.58884143829346,8.58027648925781,8.57172775268555,8.56319713592529,8.55468273162842,8.54618644714355,8.53770637512207,8.52924251556396,8.52079582214355,8.51236629486084,8.5039529800415,8.49555587768555,8.48717594146729,8.4788122177124,8.47046566009521,8.46213436126709,8.45382118225098,8.44552230834961,8.43724060058594,8.42897510528564,8.42072582244873,8.4124927520752,8.40427589416504,8.39607524871826,8.38788986206055,8.37972068786621,8.37156772613525,8.36343002319336,8.35530853271484,8.34720325469971,8.33911323547363,8.33103847503662,8.32297992706299,8.31493663787842,8.30690860748291,8.29889678955078,8.2908992767334,8.28291797637939,8.27495288848877,8.26700210571289,8.25906658172607,8.25114631652832,8.24324035644531,8.2353515625,8.22747611999512,8.2196159362793,8.21177196502686,8.20394134521484,8.19612693786621,8.18832683563232,8.1805419921875,8.17277145385742,8.16501617431641,8.15727424621582,8.14954853057861,8.14183712005615,8.13414001464844,8.12645721435547,8.11878871917725,8.11113548278809,8.10349655151367,8.095871925354,8.08826065063477,8.08066558837891,8.07308292388916,8.06551551818848,8.05796146392822,8.05042266845703,8.04289722442627,8.03538608551025,8.02788925170898,8.02167415618896,8.01641845703125,8.01116943359375,8.00592803955078,8.00069332122803,7.99546527862549,7.99024391174316,7.98502922058105,7.97982168197632,7.9746208190918,7.96942663192749,7.96423959732056,7.95905876159668,7.95388507843018,7.94871807098389,7.94355773925781,7.93840360641479,7.93325662612915,7.92811679840088,7.92298269271851,7.91785573959351,7.91273546218872,7.90762138366699,7.90251445770264,7.8974142074585,7.89231967926025,7.88723230361938,7.88215160369873,7.87707710266113,7.87200927734375,7.86694812774658,7.86189317703247,7.85684490203857,7.85180330276489,7.84676790237427,7.8417387008667,7.8367166519165,7.83170032501221,7.82669067382812,7.82168769836426,7.81669044494629,7.81170034408569,7.806715965271,7.80173826217651,7.79676723480225,7.79180192947388,7.78684329986572,7.78189086914062,7.7788782119751,7.77770328521729,7.77652883529663,7.77535438537598,7.77418041229248
12.3660678863525,12.3530769348145,12.3401136398315,12.3271770477295,12.3142681121826,12.3013858795166,12.2885313034058,12.2757024765015,12.2629013061523,12.2501258850098,12.237377166748,12.221887588501,12.1980476379395,12.1742992401123,12.1506443023682,12.1270809173584,12.103609085083,12.0802268981934,12.0569353103638,12.0337343215942,12.0106210708618,11.9875974655151,11.9646615982056,11.9418134689331,11.9190521240234,11.8963775634766,11.8737888336182,11.8512859344482,11.8288679122925,11.8065347671509,11.7842855453491,11.7621202468872,11.7396869659424,11.7171659469604,11.6947317123413,11.6723823547363,11.6501188278198,11.6279401779175,11.6058464050293,11.5838356018066,11.5619077682495,11.5402479171753,11.5217018127441,11.5032148361206,11.4847869873047,11.4664182662964,11.4481086730957,11.4298572540283,11.4116630554199,11.3935270309448,11.375449180603,11.3574285507202,11.3394641876221,11.3215570449829,11.3037071228027,11.2859125137329,11.2681732177734,11.2504911422729,11.2328634262085,11.2152910232544,11.1977739334106,11.1803112030029,11.1629018783569,11.1455478668213,11.1282472610474,11.1110010147095,11.093807220459,11.0766668319702,11.0595798492432,11.0425453186035,11.025562286377,11.0086326599121,10.9917545318604,10.9749279022217,10.9581527709961,10.9414281845093,10.9247550964355,10.9081335067749,10.8915615081787,10.8750400543213,10.8585681915283,10.8421468734741,10.8257751464844,10.8094520568848,10.7931785583496,10.7769536972046,10.760778427124,10.7446508407593,10.7285718917847,10.7125406265259,10.6965570449829,10.6806221008301,10.6647338867188,10.6488924026489,10.6330986022949,10.6173515319824,10.6016502380371,10.5859966278076,10.5703887939453,10.5548257827759,10.5393095016479,10.5238389968872,10.5084133148193,10.4930334091187,10.4776973724365,10.4624071121216,10.4416532516479,10.4171142578125,10.3926906585693,10.3683805465698,10.3441848754883,10.3201007843018,10.2961292266846,10.2722692489624,10.2485189437866,10.2248773574829,10.2013463973999,10.1779222488403,10.1546058654785,10.1313953399658,10.1082916259766,10.0852928161621,10.0602283477783,10.0331115722656,10.0061416625977,9.97931575775146,9.95263385772705,9.92609310150146,9.89969444274902,9.87343502044678,9.84731483459473,9.82133293151855,9.79548740386963,9.76977825164795,9.74420356750488,9.7187614440918,9.69345188140869,9.66827487945557,9.64322757720947,9.61830997467041,9.59792327880859,9.58722877502441,9.57655811309814,9.56591129302979,9.55528831481934,9.54468822479248,9.53411197662354,9.52355861663818,9.51302909851074,9.50252342224121,9.49203968048096,9.48157978057861,9.47114276885986,9.46072864532471,9.45033740997314,9.43996906280518,9.4296236038208,9.41930103302002,9.40900039672852,9.39872264862061,9.38846683502197,9.37823390960693,9.36802291870117,9.357834815979,9.3476676940918,9.33752346038818,9.32740116119385,9.31730079650879,9.30722236633301,9.29716491699219,9.28713035583496,9.2771167755127,9.26712417602539,9.25715446472168,9.24720478057861,9.23727703094482,9.22737121582031,9.21748542785645,9.20762157440186,9.19777870178223,9.18795680999756,9.17815589904785,9.16837596893311,9.15861701965332,9.14887809753418,9.13916110992432,9.1294641494751,9.11978721618652,9.11013126373291,9.10049533843994,9.09088039398193,9.08128547668457,9.07171058654785,9.06215572357178,9.05262088775635,9.04310703277588,9.03361225128174,9.02413749694824,9.01468276977539,9.00524806976318,8.9958324432373,8.98643684387207,8.97706127166748,8.96770477294922,8.9583683013916,8.94905090332031,8.93975257873535,8.93047428131104,8.92121410369873,8.91197395324707,8.90275287628174,8.89354991912842,8.88436698913574,8.87520313262939,8.86605739593506,8.85693073272705,8.84782314300537,8.8387336730957,8.82966423034668,8.82061195373535,8.81157875061035,8.80256366729736,8.7935676574707,8.78458976745605,8.77562999725342,8.76668834686279,8.7577657699585,8.74886035919189,8.7399730682373,8.73110485076904,8.72225379943848,8.71342086791992,8.70460510253906,8.69580745697021,8.68702793121338,8.67826652526855,8.66952228546143,8.66079521179199,8.65208625793457,8.64339542388916,8.63472080230713,8.62606430053711,8.61742496490479,8.60880279541016,8.60019779205322,8.59160995483398,8.58304023742676,8.57448673248291,8.56595039367676,8.55743026733398,8.54892826080322,8.54044246673584,8.53197383880615,8.52352142333984,8.51508617401123,8.506667137146,8.49826622009277,8.48988056182861,8.48151111602783,8.47315883636475,8.46482276916504,8.45650386810303,8.44820022583008,8.43991374969482,8.43164253234863,8.42338752746582,8.4151496887207,8.40692806243896,8.39872169494629,8.39053153991699,8.38235664367676,8.3741979598999,8.36605644226074,8.35792922973633,8.34981822967529,8.34172344207764,8.33364391326904,8.32558059692383,8.31753158569336,8.30949878692627,8.30148220062256,8.29347991943359,8.28549385070801,8.27752304077148,8.26956748962402,8.26162719726562,8.25370216369629,8.2457914352417,8.23789691925049,8.23001766204834,8.22215270996094,8.2143030166626,8.20646858215332,8.19864845275879,8.19084453582764,8.18305397033691,8.17527866363525,8.16751861572266,8.1597728729248,8.1520414352417,8.14432525634766,8.13662338256836,8.12893581390381,8.12126350402832,8.11360549926758,8.10596179962158,8.09833240509033,8.09071731567383,8.08311653137207,8.07552909851074,8.06795787811279,8.06039905548096,8.05285549163818,8.04532527923584,8.03780937194824,8.03030776977539,8.02282047271729,8.01534652709961,8.00788688659668,8.00147724151611,7.99624872207642,7.99102592468262,7.98581075668335,7.9806022644043,7.9753999710083,7.97020483016968,7.96501684188843,7.95983505249023,7.95466041564941,7.94949245452881,7.94433069229126,7.93917608261108,7.93402814865112,7.92888689041138,7.92375230789185,7.91862440109253,7.91350269317627,7.90838766098022,7.90328025817871,7.89817810058594,7.89308309555054,7.88799476623535,7.88291263580322,7.87783765792847,7.87276887893677,7.86770629882812,7.8626503944397,7.85760164260864,7.85255861282349,7.84752225875854,7.84249258041382,7.83746910095215,7.83245229721069,7.82744169235229,7.82243728637695,7.81743955612183,7.81244802474976,7.80746269226074,7.8024845123291,7.79751205444336,7.79254579544067,7.7875862121582,7.78263282775879,7.77768611907959,7.77274513244629,7.7678108215332,7.76652812957764,7.76535701751709,7.7641863822937,7.76301574707031,7.76184511184692
12.2967834472656,12.2839374542236,12.2711191177368,12.2583265304565,12.2455606460571,12.2328224182129,12.2201099395752,12.2074241638184,12.1947641372681,12.1821308135986,12.1695232391357,12.1569423675537,12.1398582458496,12.1163368225098,12.09290599823,12.0695657730103,12.0463151931763,12.023154258728,12.0000820159912,11.9770984649658,11.9542026519775,11.9313945770264,11.9086723327637,11.8860368728638,11.8634881973267,11.8410243988037,11.8186454772949,11.796350479126,11.7741403579712,11.7520132064819,11.7299690246582,11.7077074050903,11.6853094100952,11.6629962921143,11.6407690048218,11.6186256408691,11.5965662002563,11.5745906829834,11.552698135376,11.5308885574341,11.5116472244263,11.4931917190552,11.474796295166,11.4564599990845,11.4381818771362,11.4199619293213,11.4017992019653,11.3836946487427,11.3656482696533,11.3476581573486,11.3297252655029,11.3118486404419,11.2940282821655,11.2762641906738,11.2585563659668,11.2409029006958,11.2233057022095,11.2057638168335,11.1882753372192,11.1708421707153,11.1534633636475,11.1361389160156,11.1188669204712,11.1016492843628,11.0844850540161,11.0673732757568,11.0503149032593,11.0333089828491,11.0163545608521,10.9994525909424,10.9826021194458,10.9658041000366,10.9490566253662,10.9323606491089,10.9157152175903,10.8991203308105,10.8825759887695,10.866081237793,10.8496370315552,10.8332424163818,10.8168973922729,10.8006019592285,10.7843542098999,10.7681570053101,10.752007484436,10.7359056472778,10.7198534011841,10.7038478851318,10.6878910064697,10.6719808578491,10.6561183929443,10.6403026580811,10.6245346069336,10.6088123321533,10.5931367874146,10.5775079727173,10.5619249343872,10.5463876724243,10.5308961868286,10.5154495239258,10.5000486373901,10.4846925735474,10.4693813323975,10.4541149139404,10.4388933181763,10.4237155914307,10.4060859680176,10.3817138671875,10.3574552536011,10.3333101272583,10.3092765808105,10.2853555679321,10.2615451812744,10.2378444671631,10.2142524719238,10.1907691955566,10.1673936843872,10.1441259384155,10.120964050293,10.0979070663452,10.0749559402466,10.0521078109741,10.0260171890259,9.99908447265625,9.97229671478271,9.94565200805664,9.91914844512939,9.89278697967529,9.86656379699707,9.84047985076904,9.81453418731689,9.78872489929199,9.76305103302002,9.73751068115234,9.71210384368896,9.68682956695557,9.66168594360352,9.63667297363281,9.61178874969482,9.59068012237549,9.58000087738037,9.56934642791748,9.5587158203125,9.54810810089111,9.53752422332764,9.52696418762207,9.5164270401001,9.50591278076172,9.49542236328125,9.48495483398438,9.47451019287109,9.46408939361572,9.45369052886963,9.44331455230713,9.43296241760254,9.42263126373291,9.41232395172119,9.40203857421875,9.3917760848999,9.38153553009033,9.37131786346436,9.36112213134766,9.35094833374023,9.34079647064209,9.33066749572754,9.32055950164795,9.31047439575195,9.30041027069092,9.29036808013916,9.28034782409668,9.27034854888916,9.26037120819092,9.25041484832764,9.24048042297363,9.23056793212891,9.22067546844482,9.21080493927002,9.20095539093018,9.19112682342529,9.18131923675537,9.17153167724609,9.16176605224609,9.15202045440674,9.14229679107666,9.13259220123291,9.12290954589844,9.11324691772461,9.10360431671143,9.0939826965332,9.08438110351562,9.07479953765869,9.06523895263672,9.05569744110107,9.04617691040039,9.03667545318604,9.02719497680664,9.01773357391357,9.00829219818115,8.99887084960938,8.98946857452393,8.98008728027344,8.97072410583496,8.96138095855713,8.95205688476562,8.94275283813477,8.93346786499023,8.92420196533203,8.91495513916016,8.90572834014893,8.89651966094971,8.88733005523682,8.87816047668457,8.86900806427002,8.85987567901611,8.85076236724854,8.84166717529297,8.83259105682373,8.8235330581665,8.81449413299561,8.80547332763672,8.79647064208984,8.7874870300293,8.77852153778076,8.76957416534424,8.76064491271973,8.75173377990723,8.74284076690674,8.73396587371826,8.7251091003418,8.71627044677734,8.7074499130249,8.69864654541016,8.68986129760742,8.6810941696167,8.67234420776367,8.66361141204834,8.65489673614502,8.64620018005371,8.63751983642578,8.62885761260986,8.62021255493164,8.61158561706543,8.6029748916626,8.59438133239746,8.58580589294434,8.57724666595459,8.56870460510254,8.56017971038818,8.55167198181152,8.54318046569824,8.53470611572266,8.52624893188477,8.51780796051025,8.50938415527344,8.5009765625,8.49258613586426,8.48421192169189,8.47585391998291,8.46751308441162,8.45918846130371,8.45087909698486,8.44258785247803,8.43431186676025,8.42605113983154,8.41780853271484,8.40958118438721,8.40136909484863,8.39317417144775,8.38499450683594,8.3768310546875,8.36868381500244,8.36055183410645,8.35243606567383,8.34433555603027,8.3362512588501,8.32818222045898,8.32012939453125,8.31209087371826,8.30406951904297,8.29606246948242,8.28807067871094,8.28009510040283,8.27213478088379,8.26418876647949,8.25625896453857,8.24834442138672,8.24044513702393,8.23256015777588,8.22469043731689,8.21683597564697,8.20899677276611,8.201171875,8.19336223602295,8.18556785583496,8.17778778076172,8.17002296447754,8.16227245330811,8.15453624725342,8.14681529998779,8.13910865783691,8.13141632080078,8.12373924255371,8.11607646942139,8.10842800140381,8.10079383850098,8.09317398071289,8.08556842803955,8.07797813415527,8.07040119171143,8.06283855438232,8.05529022216797,8.04775524139404,8.04023456573486,8.03272819519043,8.02523708343506,8.0177583694458,8.01029396057129,8.00284385681152,7.99540662765503,7.98798418045044,7.98138236999512,7.97617959976196,7.97098398208618,7.9657940864563,7.96061182022095,7.95543622970581,7.95026683807373,7.94510412216187,7.93994855880737,7.9347996711731,7.92965745925903,7.92452192306519,7.91939258575439,7.91426992416382,7.90915441513062,7.90404510498047,7.8989429473877,7.89384698867798,7.88875722885132,7.88367462158203,7.8785982131958,7.87352800369263,7.86846494674683,7.86340856552124,7.85835790634155,7.85331439971924,7.84827709197998,7.84324598312378,7.83822202682495,7.83320379257202,7.82819223403931,7.82318735122681,7.81818866729736,7.81319570541382,7.80820989608765,7.80323076248169,7.79825687408447,7.79329013824463,7.78832960128784,7.78337526321411,7.77842712402344,7.77348613739014,7.76854991912842,7.76362085342407,7.75869798660278,7.75538539886475,7.75421762466431,7.75304985046387,7.75188255310059,7.75071573257446,7.7495493888855
12.2282705307007,12.2155675888062,12.2028913497925,12.1902408599854,12.1776161193848,12.165018081665,12.1524467468262,12.1399002075195,12.1273803710938,12.1148862838745,12.1024179458618,12.0899744033813,12.0775575637817,12.0589227676392,12.0357131958008,12.0125932693481,11.9895610809326,11.9666175842285,11.9437618255615,11.9209938049316,11.8983116149902,11.8757152557373,11.8532056808472,11.8307800292969,11.8084402084351,11.7861843109131,11.7640113830566,11.74192237854,11.719916343689,11.6979923248291,11.6759023666382,11.6536254882812,11.6314325332642,11.6093254089355,11.5873012542725,11.5653610229492,11.5435037612915,11.521728515625,11.5016098022461,11.4831867218018,11.4648237228394,11.4465179443359,11.4282712936401,11.4100828170776,11.3919525146484,11.3738794326782,11.355863571167,11.3379049301147,11.3200025558472,11.3021564483643,11.284366607666,11.2666330337524,11.2489547729492,11.2313327789307,11.2137651443481,11.1962518692017,11.1787939071655,11.1613903045654,11.1440410614014,11.126745223999,11.1095027923584,11.0923147201538,11.0751791000366,11.0580959320068,11.0410652160645,11.0240879058838,11.0071620941162,10.990288734436,10.9734659194946,10.9566955566406,10.9399757385254,10.9233074188232,10.9066896438599,10.8901224136353,10.8736047744751,10.8571376800537,10.8407201766968,10.8243532180786,10.8080348968506,10.7917652130127,10.7755451202393,10.759373664856,10.7432498931885,10.7271757125854,10.7111482620239,10.6951694488525,10.679238319397,10.6633539199829,10.6475172042847,10.6317272186279,10.6159839630127,10.600287437439,10.5846366882324,10.5690326690674,10.5534744262695,10.5379619598389,10.5224952697754,10.5070734024048,10.4916973114014,10.4763660430908,10.4610786437988,10.445837020874,10.4306392669678,10.4154853820801,10.4003753662109,10.3853092193604,10.3702869415283,10.3465528488159,10.3224582672119,10.2984762191772,10.2746047973633,10.2508430480957,10.2271919250488,10.203649520874,10.180214881897,10.1568880081177,10.1336679458618,10.1105527877808,10.0875444412231,10.0646390914917,10.0418386459351,10.0189323425293,9.99203777313232,9.96528720855713,9.93867969512939,9.9122142791748,9.88588809967041,9.85970211029053,9.83365440368652,9.8077449798584,9.7819709777832,9.75633239746094,9.73082637786865,9.7054557800293,9.68021583557129,9.65510654449463,9.630126953125,9.6052770614624,9.58344650268555,9.57278442382812,9.56214618682861,9.5515308380127,9.54093933105469,9.53037166595459,9.51982688903809,9.50930500030518,9.49880695343018,9.48833274841309,9.47788047790527,9.46745204925537,9.45704555511475,9.44666290283203,9.43630218505859,9.42596435546875,9.4156494140625,9.40535736083984,9.39508724212646,9.38484001159668,9.37461471557617,9.36441135406494,9.3542308807373,9.34407234191895,9.33393573760986,9.32382106781006,9.31372833251953,9.30365753173828,9.29360866546631,9.2835807800293,9.27357482910156,9.26359081268311,9.25362777709961,9.24368667602539,9.23376655578613,9.22386741638184,9.2139892578125,9.20413303375244,9.19429779052734,9.18448352813721,9.17468929290771,9.1649169921875,9.15516567230225,9.14543437957764,9.13572406768799,9.12603378295898,9.11636447906494,9.10671615600586,9.09708690643311,9.08747959136963,9.07789134979248,9.06832408905029,9.05877590179443,9.04924869537354,9.03974151611328,9.03025436401367,9.02078628540039,9.01133918762207,9.00191116333008,8.99250221252441,8.98311424255371,8.97374534606934,8.96439552307129,8.95506572723389,8.94575500488281,8.93646430969238,8.92719173431396,8.91793918609619,8.90870571136475,8.89949131011963,8.89029598236084,8.88111877441406,8.87196159362793,8.86282253265381,8.85370254516602,8.84460163116455,8.83551979064941,8.82645511627197,8.81741046905518,8.80838394165039,8.79937553405762,8.79038524627686,8.78141403198242,8.7724609375,8.76352596282959,8.75460910797119,8.7457103729248,8.73682975769043,8.72796726226807,8.71912288665771,8.71029567718506,8.70148754119873,8.6926965713501,8.68392276763916,8.67516708374023,8.66642951965332,8.6577091217041,8.64900588989258,8.64032077789307,8.63165283203125,8.62300205230713,8.61436939239502,8.60575294494629,8.59715461730957,8.58857250213623,8.5800085067749,8.57146072387695,8.5629301071167,8.55441665649414,8.54592037200928,8.53744125366211,8.528977394104,8.52053165435791,8.5121021270752,8.50368976593018,8.49529361724854,8.48691463470459,8.47855091094971,8.47020435333252,8.46187496185303,8.4535608291626,8.44526290893555,8.43698215484619,8.4287166595459,8.4204683303833,8.41223526000977,8.40401935577393,8.39581871032715,8.38763427734375,8.37946510314941,8.37131309509277,8.36317539215088,8.35505485534668,8.34694957733154,8.33885955810547,8.33078575134277,8.32272815704346,8.31468486785889,8.3066577911377,8.29864597320557,8.2906494140625,8.28266906738281,8.27470302581787,8.26675319671631,8.25881767272949,8.25089836120605,8.24299430847168,8.23510456085205,8.22723007202148,8.21937084197998,8.21152591705322,8.20369720458984,8.19588279724121,8.18808269500732,8.18029880523682,8.17252826690674,8.16477298736572,8.15703296661377,8.14930725097656,8.1415958404541,8.13389873504639,8.12621688842773,8.11854934692383,8.11089611053467,8.10325717926025,8.0956335067749,8.08802318572998,8.0804271697998,8.07284641265869,8.06527900695801,8.05772590637207,8.05018615722656,8.04266166687012,8.0351505279541,8.02765464782715,8.02017116546631,8.01270294189453,8.00524806976318,7.99780654907227,7.99037933349609,7.98296594619751,7.97556591033936,7.96817970275879,7.96138858795166,7.95621156692505,7.95104169845581,7.94587802886963,7.94072103500366,7.93557119369507,7.93042802810669,7.92529106140137,7.92016124725342,7.91503763198853,7.90992116928101,7.90481090545654,7.89970731735229,7.89461040496826,7.88952016830444,7.88443613052368,7.87935876846313,7.8742880821228,7.86922407150269,7.86416625976562,7.85911464691162,7.85407018661499,7.84903144836426,7.84400033950806,7.83897495269775,7.83395576477051,7.82894325256348,7.82393741607666,7.81893730163574,7.8139443397522,7.80895709991455,7.80397653579712,7.79900217056274,7.79403448104858,7.78907299041748,7.78411769866943,7.7791690826416,7.77422618865967,7.76928997039795,7.76435995101929,7.75943565368652,7.75451803207397,7.74960708618164,7.74470138549805,7.74310970306396,7.74194574356079,7.74078178405762,7.7396183013916,7.73845481872559,7.73729228973389
