15.1240272521973,15.1243267059326,15.1246271133423,15.124927520752,15.1252250671387,15.1255226135254,15.1258239746094,15.126124382019,15.1264200210571,15.1267213821411,15.1270189285278,15.1273202896118,15.1276159286499,15.1279182434082,15.1282167434692,15.1285190582275,15.1288175582886,15.1291170120239,15.129412651062,15.1297121047974,15.1300115585327,15.1303148269653,15.1306114196777,15.1309108734131,15.1312112808228,15.1315116882324,15.1318082809448,15.1321086883545,15.1324062347412,15.1327104568481,15.1330051422119,15.1333026885986,15.1336040496826,15.1339054107666,15.1342029571533,15.1345014572144,15.1348028182983,15.1351013183594,15.1354036331177,15.1357021331787,15.1360006332397,15.1363000869751,15.1366024017334,15.1368989944458,15.1371984481812,15.1374979019165,15.1377973556519,15.1380968093872,15.1384000778198,15.1386976242065,15.1389970779419,15.1392974853516,15.1395978927612,15.1398954391479,15.1401968002319,15.1404943466187,15.1407985687256,15.1410961151123,15.1413946151733,15.1416931152344,15.1419973373413,15.1422958374023,15.1425943374634,15.1428928375244,15.1431922912598,15.1434936523438,15.1437959671021,15.1440925598145,15.1443948745728,15.1446943283081,15.1449937820435,15.1452903747559,15.1455936431885,15.1458940505981,15.1461935043335,15.1464939117432,15.1467943191528,15.1470918655396,15.1473960876465,15.1476936340332,15.1479940414429,15.1482925415039,15.1485929489136,15.1488943099976,15.1491956710815,15.1494941711426,15.1497926712036,15.1500949859619,15.1503963470459,15.1506958007812,15.1509914398193,15.1512937545776,15.151593208313,15.1518955230713,15.1521921157837,15.1524953842163,15.1527948379517,15.1530981063843,15.1533946990967,15.1536951065063,15.1539926528931,15.1542959213257,15.1545963287354,15.1548976898193,15.1551952362061,15.1554956436157,15.1557970046997,15.1560983657837,15.1563968658447,15.1566982269287,15.1569995880127,15.1572980880737,15.157600402832,15.1578989028931,15.1581983566284,15.1585035324097,15.158802986145,15.1591024398804,15.1594018936157,15.159704208374,15.1600036621094,15.160304069519,15.1606035232544,15.1609039306641,15.1612071990967,13.5007591247559,13.4855194091797,13.4703130722046,13.4551410675049,13.4400043487549,13.4249000549316,13.4098310470581,13.3947944641113,13.3797931671143,13.3648242950439,13.3498888015747,13.3349866867065,13.3201189041138,13.3052835464478,13.2904806137085,13.2757110595703,13.2609739303589,13.2462701797485,13.2315988540649,13.2135820388794,13.1858997344971,13.158332824707,13.1308813095093,13.1035442352295,13.0763206481934,13.0492095947266,13.0222110748291,12.9953231811523,12.9685468673706,12.9418802261353,12.9153242111206,12.8888759613037,12.8625354766846,12.8363027572632,12.8101778030396,12.7841577529907,12.758243560791,12.7324342727661,12.7067289352417,12.6811275482178,12.65562915802,12.6302328109741,12.6049385070801,12.5797443389893,12.5546522140503,12.5296592712402,12.5047655105591,12.4799699783325,12.4552736282349,12.4306745529175,12.4061717987061,12.3817663192749,12.3574562072754,12.3332414627075,12.309121131897,12.2850952148438,12.2611627578735,12.2373237609863,12.2134647369385,12.1892490386963,12.1651306152344,12.1411066055298,12.1171770095825,12.0933418273926,12.0696001052856,12.0459518432617,12.0223960876465,11.9989318847656,11.9755592346191,11.952278137207,11.9290866851807,11.90598487854,11.8829727172852,11.8600492477417,11.8372144699097,11.8144664764404,11.7918062210083,11.7721586227417,11.7530040740967,11.7339124679565,11.7148818969727,11.6959133148193,11.6770057678223,11.6581592559814,11.6393737792969,11.6206483840942,11.6019830703735,11.5833778381348,11.5648326873779,11.5463457107544,11.5279188156128,11.5095500946045,11.4912395477295,11.4729881286621,11.4547939300537,11.4366569519043,11.4185781478882,11.4005556106567,11.3825912475586,11.3646821975708,11.3468294143677,11.3290328979492,11.3112926483154,11.2936067581177,11.2759771347046,11.2584018707275,11.2408809661865,11.2234153747559,11.2060041427612,11.188645362854,11.1713418960571,11.1540908813477,11.1368932723999,11.1197490692139,11.1026573181152,11.085618019104,11.0686302185059,11.0516948699951,11.0348119735718,11.008900642395,10.9817037582397,10.9546413421631,10.9277114868164,10.9009141921997,10.8742475509644,10.8477115631104,10.8213043212891,10.7950258255005,10.768874168396,10.7428493499756,10.7169494628906,10.6911745071411,10.6655225753784,10.6399946212769,10.6145877838135,10.5893020629883,10.564136505127,10.5390911102295,10.5141630172729,10.4893531799316,10.4646596908569,10.4378051757812,10.4086675643921,10.3796911239624,10.3508768081665,10.3222208023071,10.2937240600586,10.2653837203979,10.2371997833252,10.2091693878174,10.1812925338745,10.1535663604736,10.1259918212891,10.0985670089722,10.0712900161743,10.0441598892212,10.0171747207642,9.99033546447754,9.96363830566406,9.93708419799805,9.91067123413086,9.88439846038818,9.8582649230957,9.83226871490479,9.80640888214111,9.78068542480469,9.75721740722656,9.74624633789062,9.73530006408691,9.72437858581543,9.71348190307617,9.70260906219482,9.6917610168457,9.68093681335449,9.67013645172119,9.6593599319458,9.64860820770264,9.63788032531738,9.62717628479004,9.61649513244629,9.60583877563477,9.59520530700684,9.58459568023682,9.57400989532471,9.56344699859619,9.55290699005127,9.54239082336426,9.53189754486084,9.52142715454102,9.51097965240479,9.50055503845215,9.49015426635742,9.47977447509766,9.4694185256958,9.45908546447754,9.44877433776855,9.43848609924316
15.0054883956909,15.0057849884033,15.0060787200928,15.0063734054565,15.006664276123,15.0069646835327,15.0072565078735,15.007550239563,15.0078449249268,15.0081396102905,15.0084352493286,15.0087299346924,15.0090217590332,15.0093173980713,15.0096130371094,15.0099086761475,15.0102014541626,15.0104970932007,15.0107898712158,15.0110855102539,15.0113792419434,15.0116748809814,15.0119686126709,15.0122652053833,15.0125589370728,15.0128526687622,15.0131464004517,15.0134401321411,15.0137367248535,15.0140314102173,15.014328956604,15.0146198272705,15.0149173736572,15.015209197998,15.0155076980591,15.0157995223999,15.0160942077637,15.0163888931274,15.0166873931885,15.0169801712036,15.0172758102417,15.0175647735596,15.0178642272949,15.018159866333,15.0184526443481,15.0187463760376,15.0190458297729,15.0193386077881,15.0196352005005,15.0199289321899,15.0202226638794,15.0205192565918,15.0208139419556,15.021107673645,15.0214052200317,15.0216989517212,15.0219964981079,15.0222883224487,15.0225858688354,15.0228776931763,15.0231761932373,15.0234680175781,15.0237655639648,15.02405834198,15.024356842041,15.0246496200562,15.0249481201172,15.0252380371094,15.0255365371704,15.0258293151855,15.0261287689209,15.0264186859131,15.0267152786255,15.0270118713379,15.0273084640503,15.0276021957397,15.0278959274292,15.028190612793,15.0284900665283,15.0287847518921,15.0290794372559,15.0293731689453,15.0296716690063,15.0299663543701,15.0302572250366,15.0305557250977,15.0308475494385,15.0311460494995,15.0314416885376,15.0317363739014,15.0320320129395,15.0323314666748,15.0326242446899,15.032919883728,15.0332126617432,15.0335092544556,15.0338048934937,15.0341014862061,15.0343952178955,15.0346918106079,15.0349884033203,15.0352830886841,15.0355796813965,15.0358734130859,15.0361680984497,15.0364656448364,15.0367603302002,15.0370578765869,15.0373525619507,15.0376501083374,15.0379457473755,15.0382404327393,15.038535118103,15.0388307571411,15.0391263961792,15.0394248962402,15.0397176742554,15.0400133132935,15.0403099060059,15.0406084060669,15.0409021377563,13.4789276123047,13.4637365341187,13.448579788208,13.4334564208984,13.4183673858643,13.4033126831055,13.3882913589478,13.3733034133911,13.3583498001099,13.3434286117554,13.3285417556763,13.3136873245239,13.2988662719727,13.2840785980225,13.2693223953247,13.2546005249023,13.2399101257324,13.2252531051636,13.2106275558472,13.1960353851318,13.1814746856689,13.1669464111328,13.1524496078491,13.1379852294922,13.1181325912476,13.0908479690552,13.0636768341064,13.0366182327271,13.0096712112427,12.9828357696533,12.9561109542847,12.9294958114624,12.9029893875122,12.8765916824341,12.8503017425537,12.8241195678711,12.7980432510376,12.7720727920532,12.7462072372437,12.7204465866089,12.6947898864746,12.6692361831665,12.6437854766846,12.6184368133545,12.593189239502,12.568042755127,12.5429964065552,12.5180501937866,12.4932022094727,12.4684534072876,12.4438018798828,12.4192476272583,12.3947906494141,12.3704290390015,12.3461637496948,12.3219928741455,12.2979173660278,12.2739343643188,12.2500457763672,12.2262496948242,12.2025461196899,12.1788692474365,12.1547908782959,12.1308078765869,12.1069192886353,12.0831251144409,12.0594234466553,12.0358142852783,12.0122985839844,11.9888734817505,11.965539932251,11.9422969818115,11.9191446304321,11.8960819244385,11.8731079101562,11.8502225875854,11.8274250030518,11.8047151565552,11.7820920944214,11.7616004943848,11.7424802780151,11.7234220504761,11.7044258117676,11.6854906082153,11.6666173934937,11.6478042602539,11.6290521621704,11.6103601455688,11.5917282104492,11.5731554031372,11.5546426773071,11.5361890792847,11.5177936553955,11.499457359314,11.4811792373657,11.4629592895508,11.4447965621948,11.4266920089722,11.4086446762085,11.3906536102295,11.3727197647095,11.3548412322998,11.3370199203491,11.3192539215088,11.3015441894531,11.2838888168335,11.2662897109985,11.2487449645996,11.2312545776367,11.2138185501099,11.1964359283447,11.1791076660156,11.1618328094482,11.1446113586426,11.1274433135986,11.1103277206421,11.0932655334473,11.0762548446655,11.0592956542969,11.0423889160156,11.0255346298218,11.0087308883667,10.9919776916504,10.9695167541504,10.9425144195557,10.9156446456909,10.8889055252075,10.8622980117798,10.8358201980591,10.8094711303711,10.7832489013672,10.7571544647217,10.7311868667603,10.7053422927856,10.6796236038208,10.6540269851685,10.6285543441772,10.6032018661499,10.5779705047607,10.5528583526611,10.5278663635254,10.5029916763306,10.4782342910767,10.4535932540894,10.4290676116943,10.4010581970215,10.372124671936,10.3433513641357,10.3147382736206,10.2862825393677,10.2579832077026,10.2298383712769,10.2018489837646,10.1740121841431,10.1463260650635,10.1187906265259,10.0914039611816,10.0641651153564,10.037073135376,10.0101270675659,9.98332500457764,9.95666599273682,9.93014907836914,9.90377330780029,9.87753677368164,9.85143852233887,9.82547855377197,9.79965496063232,9.77396678924561,9.74999141693115,9.73903751373291,9.72810745239258,9.71720218658447,9.70632076263428,9.69546413421631,9.68463134765625,9.67382335662842,9.6630392074585,9.65227890014648,9.64154243469238,9.63082981109619,9.62014198303223,9.60947704315186,9.59883594512939,9.58821773529053,9.57762336730957,9.56705284118652,9.55650520324707,9.54598045349121,9.53547954559326,9.52500152587891,9.51454639434814,9.50411415100098,9.4937047958374,9.48331832885742,9.47295379638672,9.46261310577393,9.45229434967041,9.44199848175049,9.43172454833984,9.42147254943848
14.8887939453125,14.889084815979,14.8893728256226,14.8896636962891,14.8899526596069,14.8902435302734,14.8905324935913,14.8908233642578,14.8911123275757,14.8914041519165,14.8916931152344,14.8919820785522,14.8922710418701,14.8925609588623,14.8928527832031,14.8931427001953,14.8934326171875,14.8937215805054,14.8940153121948,14.8943014144897,14.8945922851562,14.8948793411255,14.8951692581177,14.8954629898071,14.8957538604736,14.8960409164429,14.8963317871094,14.8966236114502,14.8969144821167,14.8972024917603,14.8974933624268,14.8977823257446,14.8980770111084,14.898365020752,14.8986539840698,14.8989429473877,14.8992347717285,14.8995237350464,14.8998165130615,14.9001054763794,14.9003953933716,14.9006881713867,14.9009771347046,14.9012641906738,14.901556968689,14.9018478393555,14.9021406173706,14.9024276733398,14.9027185440063,14.9030055999756,14.9033031463623,14.9035902023315,14.903881072998,14.9041690826416,14.9044637680054,14.9047517776489,14.9050436019897,14.9053316116333,14.9056234359741,14.9059152603149,14.9062070846558,14.9064960479736,14.9067850112915,14.9070768356323,14.9073667526245,14.9076557159424,14.9079484939575,14.9082384109497,14.9085311889648,14.908821105957,14.9091110229492,14.9094009399414,14.9096946716309,14.9099817276001,14.9102754592896,14.9105634689331,14.9108505249023,14.9111480712891,14.9114360809326,14.9117250442505,14.9120149612427,14.9123067855835,14.91259765625,14.9128894805908,14.9131784439087,14.9134702682495,14.9137620925903,14.9140539169312,14.9143419265747,14.9146337509155,14.9149236679077,14.9152173995972,14.9155054092407,14.9157981872559,14.9160871505737,14.9163818359375,14.9166698455811,14.9169616699219,14.9172506332397,14.9175424575806,14.9178352355957,14.9181270599365,14.9184150695801,14.9187078475952,14.9189987182617,14.9192895889282,14.919581413269,14.9198722839355,14.9201612472534,14.9204559326172,14.9207429885864,14.9210367202759,14.9213256835938,14.9216213226318,14.9219102859497,14.9222030639648,14.9224901199341,13.4571657180786,13.4420232772827,13.4269151687622,13.4118413925171,13.396800994873,13.3817939758301,13.3668212890625,13.351881980896,13.3369750976562,13.3221025466919,13.3072624206543,13.2924556732178,13.277681350708,13.2629404067993,13.2482318878174,13.2335567474365,13.2189130783081,13.2043018341064,13.1897230148315,13.1751766204834,13.160662651062,13.1461791992188,13.1317291259766,13.1173095703125,13.1029224395752,13.0885667800903,13.0742425918579,13.0599489212036,13.0456876754761,13.0240516662598,12.9971561431885,12.9703722000122,12.9436988830566,12.9171342849731,12.8906784057617,12.8643312454224,12.8380918502808,12.8119583129883,12.7859315872192,12.760009765625,12.7341938018799,12.7084817886353,12.6828727722168,12.6573677062988,12.6319637298584,12.6066627502441,12.5814628601074,12.5563631057739,12.5313625335693,12.506462097168,12.4816608428955,12.4569568634033,12.4323511123657,12.4078426361084,12.3834295272827,12.3591136932373,12.3348922729492,12.3107652664185,12.2867336273193,12.2627944946289,12.2389488220215,12.2151956558228,12.1915349960327,12.1679658889771,12.1444702148438,12.1205272674561,12.0966796875,12.0729246139526,12.0492630004883,12.0256938934326,12.0022172927856,11.978832244873,11.9555377960205,11.932333946228,11.9092197418213,11.8861951828003,11.8632593154907,11.8404111862183,11.8176517486572,11.794979095459,11.7723941802979,11.7510614395142,11.7319755554199,11.7129507064819,11.6939888000488,11.6750869750977,11.6562471389771,11.6374673843384,11.618748664856,11.6000900268555,11.5814905166626,11.5629510879517,11.5444707870483,11.5260496139526,11.5076866149902,11.4893817901611,11.4711360931396,11.4529476165771,11.4348173141479,11.4167442321777,11.3987274169922,11.3807678222656,11.362865447998,11.3450183868408,11.3272275924683,11.3094921112061,11.2918128967285,11.274188041687,11.2566184997559,11.2391042709351,11.221643447876,11.2042369842529,11.1868848800659,11.1695861816406,11.1523408889771,11.1351490020752,11.1180095672607,11.100923538208,11.0838890075684,11.0669069290161,11.0499773025513,11.0330991744995,11.0162725448608,10.9994964599609,10.9827728271484,10.9660987854004,10.9494752883911,10.9304141998291,10.903603553772,10.8769245147705,10.8503751754761,10.8239545822144,10.7976636886597,10.7714986801147,10.7454614639282,10.7195491790771,10.6937618255615,10.6680974960327,10.642557144165,10.6171379089355,10.5918397903442,10.5666627883911,10.5416049957275,10.5166654586792,10.4918441772461,10.4671382904053,10.4425506591797,10.4180765151978,10.3934602737427,10.3645696640015,10.3358383178711,10.3072662353516,10.2788515090942,10.2505922317505,10.2224893569946,10.1945390701294,10.1667413711548,10.1390953063965,10.1115989685059,10.0842514038086,10.0570516586304,10.0299978256226,10.0030899047852,9.97632503509521,9.94970321655273,9.9232234954834,9.89688396453857,9.87068367004395,9.84462261199951,9.81869792938232,9.79290962219238,9.76725673675537,9.74277687072754,9.73183822631836,9.72092437744141,9.71003532409668,9.69917011260986,9.68832969665527,9.67751312255859,9.66672039031982,9.65595245361328,9.64520740509033,9.63448715209961,9.6237907409668,9.61311721801758,9.60246849060059,9.59184265136719,9.58123970031738,9.5706615447998,9.5601053237915,9.54957294464111,9.53906440734863,9.52857780456543,9.51811504364014,9.50767517089844,9.49725818634033,9.48686408996582,9.47649192810059,9.46614360809326,9.45581722259521,9.44551277160645,9.43523120880127,9.42497253417969,9.41473579406738,9.40452098846436
14.7738971710205,14.7741861343384,14.774468421936,14.7747535705566,14.7750396728516,14.7753248214722,14.7756109237671,14.775897026062,14.7761831283569,14.7764692306519,14.7767524719238,14.7770357131958,14.7773218154907,14.77760887146,14.7778959274292,14.7781763076782,14.7784662246704,14.7787475585938,14.7790384292603,14.7793226242065,14.7796096801758,14.7798910140991,14.7801818847656,14.7804641723633,14.7807521820068,14.7810335159302,14.781322479248,14.7816076278687,14.7818927764893,14.7821788787842,14.7824640274048,14.7827501296997,14.7830352783203,14.7833213806152,14.7836074829102,14.7838907241821,14.7841806411743,14.7844638824463,14.7847537994385,14.7850341796875,14.7853240966797,14.7856092453003,14.7858953475952,14.7861785888672,14.7864665985107,14.7867527008057,14.7870397567749,14.7873239517212,14.7876091003418,14.7878952026367,14.7881832122803,14.7884674072266,14.7887535095215,14.7890386581421,14.78932762146,14.7896099090576,14.7898969650269,14.7901811599731,14.7904720306396,14.7907552719116,14.7910423278809,14.7913274765015,14.7916135787964,14.7919006347656,14.7921867370605,14.7924718856812,14.7927589416504,14.7930459976196,14.7933330535889,14.7936153411865,14.7939004898071,14.7941875457764,14.7944755554199,14.7947626113892,14.7950458526611,14.7953329086304,14.7956190109253,14.7959070205688,14.7961912155151,14.7964792251587,14.796763420105,14.7970533370972,14.7973356246948,14.7976236343384,14.7979097366333,14.7981986999512,14.7984819412231,14.7987699508667,14.799054145813,14.7993412017822,14.7996273040771,14.799916267395,14.800199508667,14.8004865646362,14.8007755279541,14.801061630249,14.8013458251953,14.8016347885132,14.8019180297852,14.8022089004517,14.8024921417236,14.8027801513672,14.8030643463135,14.8033542633057,14.8036394119263,14.8039264678955,14.8042106628418,14.804497718811,14.8047847747803,14.8050727844238,14.8053569793701,14.8056449890137,14.8059320449829,13.435474395752,13.4203805923462,13.4053211212158,13.3902959823608,13.3753032684326,13.3603448867798,13.345419883728,13.3305282592773,13.3156690597534,13.3008441925049,13.2860517501831,13.2712917327881,13.2565650939941,13.2418699264526,13.2272081375122,13.2125797271729,13.1979818344116,13.1834173202515,13.1688852310181,13.1543846130371,13.1399154663086,13.1254787445068,13.1110734939575,13.0966997146606,13.0823574066162,13.0680465698242,13.0537672042847,13.0395183563232,13.0253009796143,13.0111150741577,12.996958732605,12.982834815979,12.9687404632568,12.9546766281128,12.9313097000122,12.9047966003418,12.8783912658691,12.8520946502686,12.8259038925171,12.7998208999634,12.7738428115845,12.7479705810547,12.7222023010254,12.6965389251709,12.6709785461426,12.6455202102661,12.6201648712158,12.5949106216431,12.5697574615479,12.5447044372559,12.5197505950928,12.4948959350586,12.4701404571533,12.4454822540283,12.4209213256836,12.3964576721191,12.3720903396606,12.3478183746338,12.3236408233643,12.2995586395264,12.2755699157715,12.2516746520996,12.2278718948364,12.2041616439819,12.1805438995361,12.1570167541504,12.1335802078247,12.1102342605591,12.0864562988281,12.0627412796021,12.039119720459,12.0155906677246,11.9921531677246,11.968807220459,11.9455518722534,11.9223861694336,11.8993110656738,11.8763236999512,11.8534269332886,11.8306169509888,11.8078947067261,11.7852592468262,11.7627115249634,11.7405405044556,11.7214889526367,11.7024984359741,11.6835699081421,11.6647024154663,11.6458959579468,11.6271495819092,11.6084632873535,11.5898370742798,11.571270942688,11.5527639389038,11.5343160629272,11.5159273147583,11.4975967407227,11.4793252944946,11.4611110687256,11.4429540634155,11.4248552322388,11.406813621521,11.3888282775879,11.3709001541138,11.3530282974243,11.3352117538452,11.3174514770508,11.299747467041,11.2820978164673,11.2645034790039,11.2469644546509,11.2294797897339,11.2120494842529,11.1946725845337,11.1773500442505,11.160080909729,11.1428642272949,11.1257019042969,11.1085910797119,11.0915336608887,11.0745286941528,11.0575752258301,11.0406742095947,11.0238246917725,11.007025718689,10.9902782440186,10.9735822677612,10.9569358825684,10.9403409957886,10.9237957000732,10.9072999954224,10.8908548355103,10.86496925354,10.8384780883789,10.8121156692505,10.7858810424805,10.7597742080688,10.733793258667,10.7079372406006,10.6822052001953,10.6565961837769,10.6311111450195,10.6057462692261,10.5805034637451,10.5553798675537,10.5303745269775,10.5054893493652,10.4807195663452,10.4560670852661,10.4315299987793,10.4071073532104,10.3828001022339,10.3570241928101,10.3283348083496,10.2998046875,10.271430015564,10.2432126998901,10.2151498794556,10.1872396469116,10.1594820022583,10.1318759918213,10.1044178009033,10.077109336853,10.0499477386475,10.0229320526123,9.99606132507324,9.96933460235596,9.94274997711182,9.91630744934082,9.89000511169434,9.86384105682373,9.837815284729,9.81192684173584,9.78617382049561,9.7605562210083,9.73557281494141,9.72465038299561,9.71375274658203,9.70287895202637,9.69202995300293,9.68120574951172,9.6704044342041,9.65962791442871,9.64887523651123,9.63814735412598,9.62744235992432,9.61676120758057,9.60610389709473,9.59546947479248,9.58485984802246,9.57427215576172,9.5637092590332,9.55316925048828,9.54265213012695,9.53215789794922,9.52168750762939,9.51123905181885,9.50081443786621,9.49041271209717,9.4800329208374,9.46967601776123,9.45934200286865,9.44903087615967,9.43874168395996,9.42847442626953,9.4182300567627,9.40800857543945,9.39780807495117,9.38763046264648
14.6607627868652,14.6610460281372,14.6613245010376,14.6616086959839,14.6618881225586,14.662166595459,14.6624488830566,14.6627283096313,14.6630115509033,14.663290977478,14.66357421875,14.6638536453247,14.664137840271,14.66441822052,14.6646976470947,14.6649780273438,14.6652593612671,14.6655416488647,14.6658248901367,14.6661043167114,14.6663866043091,14.6666688919067,14.6669511795044,14.6672286987305,14.6675119400024,14.6677913665771,14.6680746078491,14.6683559417725,14.6686363220215,14.6689157485962,14.6692008972168,14.6694812774658,14.6697635650635,14.6700429916382,14.6703252792358,14.6706056594849,14.6708889007568,14.6711683273315,14.6714496612549,14.6717338562012,14.6720151901245,14.6722936630249,14.6725769042969,14.6728563308716,14.6731414794922,14.6734218597412,14.6737041473389,14.6739835739136,14.6742668151855,14.6745481491089,14.6748304367065,14.6751089096069,14.6753921508789,14.6756753921509,14.6759567260742,14.6762351989746,14.6765184402466,14.6768007278442,14.6770830154419,14.6773633956909,14.6776456832886,14.6779251098633,14.6782102584839,14.6784906387329,14.6787700653076,14.6790533065796,14.6793327331543,14.6796178817749,14.6798973083496,14.6801795959473,14.6804599761963,14.6807451248169,14.6810255050659,14.6813077926636,14.6815891265869,14.6818704605103,14.6821527481079,14.6824350357056,14.6827154159546,14.6829986572266,14.6832818984985,14.6835651397705,14.6838436126709,14.6841268539429,14.6844072341919,14.6846914291382,14.6849718093872,14.6852540969849,14.6855335235596,14.6858196258545,14.6861009597778,14.6863822937012,14.6866626739502,14.6869468688965,14.6872282028198,14.6875104904175,14.6877908706665,14.6880741119385,14.6883583068848,14.6886405944824,14.6889209747314,14.6892023086548,14.6894836425781,14.689769744873,14.6900491714478,14.6903324127197,14.6906118392944,14.690896987915,14.6911792755127,14.691460609436,13.3988075256348,13.3837966918945,13.3688192367554,13.3538751602173,13.3389644622803,13.3240871429443,13.3092422485352,13.2944316864014,13.27965259552,13.2649078369141,13.2501945495605,13.2355146408081,13.2208671569824,13.2062511444092,13.191668510437,13.1771173477173,13.1625986099243,13.1481122970581,13.1336574554443,13.119234085083,13.1048421859741,13.0904817581177,13.076153755188,13.0618562698364,13.0475902557373,13.0333557128906,13.0191516876221,13.0049781799316,12.9908361434937,12.9767246246338,12.9626436233521,12.9485940933228,12.9345741271973,12.9205846786499,12.9066247940063,12.8926963806152,12.8787965774536,12.8649272918701,12.839879989624,12.8137397766113,12.7877063751221,12.7617778778076,12.735954284668,12.7102346420288,12.6846189498901,12.6591062545776,12.633695602417,12.6083879470825,12.5831804275513,12.5580739974976,12.5330677032471,12.5081605911255,12.4833517074585,12.4586410522461,12.4340286254883,12.4095134735107,12.3850946426392,12.3607711791992,12.3365430831909,12.3124103546143,12.2883720397949,12.2644262313843,12.240574836731,12.2168159484863,12.1931486129761,12.1695718765259,12.1460876464844,12.1226930618286,12.0993890762329,12.0761737823486,12.0525760650635,12.0289945602417,12.0055046081543,11.9821062088013,11.9587993621826,11.9355821609497,11.9124555587769,11.8894186019897,11.8664703369141,11.8436107635498,11.8208379745483,11.7981538772583,11.7755556106567,11.7530450820923,11.730619430542,11.7110214233398,11.6920652389526,11.6731700897217,11.654335975647,11.6355619430542,11.616849899292,11.5981969833374,11.5796031951904,11.5610704421997,11.5425958633423,11.5241804122925,11.505823135376,11.4875249862671,11.4692850112915,11.4511022567749,11.4329776763916,11.4149103164673,11.396900177002,11.3789463043213,11.3610486984253,11.343207359314,11.3254222869873,11.3076934814453,11.2900190353394,11.2723999023438,11.2548360824585,11.2373266220093,11.2198724746704,11.2024707794189,11.1851243972778,11.1678314208984,11.1505908966064,11.1334047317505,11.1162710189819,11.0991897583008,11.082160949707,11.0651845932007,11.0482597351074,11.0313863754272,11.0145654678345,10.9977951049805,10.9810752868652,10.9644069671631,10.9477891921997,10.9312210083008,10.9147033691406,10.8982362747192,10.881817817688,10.8654489517212,10.8491296768188,10.8266067504883,10.8003015518188,10.7741250991821,10.7480745315552,10.722149848938,10.6963500976562,10.6706743240356,10.6451206207275,10.6196889877319,10.5943794250488,10.5691900253296,10.5441198348999,10.5191688537598,10.4943351745605,10.4696187973022,10.4450178146362,10.4205331802368,10.3961629867554,10.3719053268433,10.3477621078491,10.3208427429199,10.2923536300659,10.2640209197998,10.2358436584473,10.207820892334,10.1799507141113,10.1522331237793,10.1246652603149,10.0972471237183,10.0699777603149,10.042854309082,10.0158767700195,9.98904323577881,9.96235466003418,9.93580627441406,9.90940093994141,9.88313484191895,9.85700702667236,9.83101749420166,9.80516529083252,9.77944755554199,9.75386524200439,9.72841548919678,9.71747303009033,9.70659160614014,9.69573402404785,9.68490123748779,9.67409229278564,9.66330718994141,9.65254592895508,9.64180946350098,9.63109683990479,9.62040710449219,9.60974216461182,9.59910011291504,9.58848190307617,9.5778865814209,9.56731510162354,9.55676746368408,9.54624271392822,9.53574085235596,9.52526187896729,9.51480579376221,9.50437355041504,9.49396324157715,9.48357677459717,9.47321224212646,9.46286964416504,9.45255088806152,9.44225406646729,9.43198013305664,9.42172813415527,9.41149806976318,9.40129089355469,9.39110469818115,9.38094139099121,9.37080001831055
14.5493478775024,14.5496215820312,14.5499000549316,14.550178527832,14.5504550933838,14.5507287979126,14.5510063171387,14.5512857437134,14.5515623092651,14.5518369674683,14.552116394043,14.5523900985718,14.5526704788208,14.5529451370239,14.5532236099243,14.5534992218018,14.5537786483765,14.5540523529053,14.5543308258057,14.5546054840088,14.5548839569092,14.5551614761353,14.55544090271,14.5557155609131,14.5559930801392,14.5562705993652,14.5565490722656,14.5568218231201,14.5571022033691,14.5573759078979,14.5576572418213,14.5579328536987,14.5582094192505,14.5584859848022,14.5587663650513,14.5590419769287,14.5593185424805,14.5595941543579,14.559871673584,14.560152053833,14.5604286193848,14.5607032775879,14.5609817504883,14.56125831604,14.5615386962891,14.5618124008179,14.5620899200439,14.5623655319214,14.562647819519,14.5629224777222,14.5631999969482,14.5634746551514,14.563756942749,14.5640325546265,14.5643100738525,14.56458568573,14.5648641586304,14.5651407241821,14.5654163360596,14.56569480896,14.5659704208374,14.5662517547607,14.5665273666382,14.5668067932129,14.567081451416,14.5673589706421,14.5676383972168,14.5679168701172,14.5681924819946,14.5684700012207,14.5687484741211,14.5690279006958,14.5693016052246,14.569580078125,14.5698566436768,14.5701370239258,14.5704126358032,14.5706911087036,14.5709657669067,14.5712480545044,14.5715246200562,14.5718030929565,14.5720777511597,14.5723562240601,14.5726346969604,14.5729122161865,14.5731897354126,14.573468208313,14.5737457275391,14.5740251541138,14.5742998123169,14.574577331543,14.5748538970947,14.5751352310181,14.5754098892212,14.5756912231445,14.5759649276733,14.576247215271,14.5765237808228,14.5768013000488,14.5770769119263,14.577356338501,14.5776357650757,14.5779132843018,14.5781888961792,14.5784683227539,13.3773040771484,13.362340927124,13.3474111557007,13.3325147628784,13.3176517486572,13.3028221130371,13.2880249023438,13.2732610702515,13.2585296630859,13.2438306808472,13.2291650772095,13.2145309448242,13.19993019104,13.1853609085083,13.1708240509033,13.1563186645508,13.141845703125,13.1274042129517,13.1129951477051,13.0986175537109,13.0842704772949,13.0699558258057,13.0556716918945,13.0414199829102,13.0271978378296,13.0130071640015,12.9988479614258,12.9847192764282,12.9706211090088,12.9565534591675,12.9425163269043,12.9285097122192,12.9145336151123,12.9005870819092,12.8866710662842,12.872784614563,12.8589286804199,12.8451023101807,12.8313055038452,12.8175382614136,12.8038005828857,12.7900924682617,12.77561378479,12.74973487854,12.7239599227905,12.6982889175415,12.6727209091187,12.647255897522,12.6218938827515,12.5966320037842,12.5714721679688,12.5464124679565,12.5214519500732,12.4965906143188,12.4718284606934,12.4471635818481,12.4225969314575,12.3981256484985,12.3737516403198,12.3494729995728,12.3252897262573,12.3012008666992,12.2772054672241,12.253303527832,12.2294950485229,12.2057790756226,12.1821537017822,12.1586208343506,12.135178565979,12.1118259429932,12.0885629653931,12.0653896331787,12.0423049926758,12.0188846588135,11.9954347610474,11.9720754623413,11.9488077163696,11.9256296157837,11.9025411605835,11.879542350769,11.856632232666,11.8338098526001,11.8110761642456,11.7884292602539,11.7658681869507,11.7433938980103,11.7210054397583,11.700572013855,11.6816492080688,11.6627883911133,11.6439876556396,11.6252479553223,11.6065673828125,11.587947845459,11.5693874359131,11.5508871078491,11.5324449539185,11.5140619277954,11.4957370758057,11.4774713516235,11.4592628479004,11.4411125183105,11.4230194091797,11.4049825668335,11.3870038986206,11.3690805435181,11.3512144088745,11.3334045410156,11.3156499862671,11.2979507446289,11.2803077697754,11.2627191543579,11.2451848983765,11.2277059555054,11.210280418396,11.1929092407227,11.1755924224854,11.1583280563354,11.1411180496216,11.1239604949951,11.1068553924561,11.0898036956787,11.0728034973145,11.0558557510376,11.0389595031738,11.0221147537231,11.0053215026855,10.9885787963867,10.971887588501,10.9552478790283,10.9386568069458,10.9221172332764,10.9056272506714,10.8891859054565,10.8727951049805,10.8564538955688,10.8401613235474,10.823917388916,10.8077220916748,10.7885141372681,10.7623949050903,10.736400604248,10.7105321884155,10.6847877502441,10.6591672897339,10.6336688995361,10.6082925796509,10.5830373764038,10.5579013824463,10.5328845977783,10.5079860687256,10.4832057952881,10.4585409164429,10.4339933395386,10.4095592498779,10.3852405548096,10.3610343933105,10.3369407653809,10.3129596710205,10.2849130630493,10.2566213607788,10.2284851074219,10.2005023956299,10.1726722717285,10.1449947357178,10.1174659729004,10.0900869369507,10.06285572052,10.0357704162598,10.0088310241699,9.98203563690186,9.95538330078125,9.92887306213379,9.90250396728516,9.87627410888672,9.85018253326416,9.82422924041748,9.79841232299805,9.77273082733154,9.74718284606934,9.72176837921143,9.71030616760254,9.69944000244141,9.6885986328125,9.67778205871582,9.66698837280273,9.65621948242188,9.64547443389893,9.63475322723389,9.62405681610107,9.61338233947754,9.60273265838623,9.59210681915283,9.58150386810303,9.57092380523682,9.56036853790283,9.54983520507812,9.53932571411133,9.52883911132812,9.51837539672852,9.5079345703125,9.49751758575439,9.48712253570557,9.47675037384033,9.46640110015869,9.45607376098633,9.44576930999756,9.43548774719238,9.42522811889648,9.41499042510986,9.40477561950684,9.39458179473877,9.3844108581543,9.3742618560791,9.3641357421875,9.35403060913086
14.4396123886108,14.4398832321167,14.4401588439941,14.4404296875,14.4407033920288,14.4409742355347,14.4412498474121,14.4415216445923,14.4417943954468,14.4420652389526,14.4423389434814,14.4426116943359,14.4428863525391,14.4431571960449,14.4434309005737,14.4437046051025,14.4439783096313,14.4442472457886,14.4445209503174,14.4447927474976,14.445068359375,14.4453411102295,14.4456129074097,14.4458837509155,14.4461622238159,14.4464321136475,14.4467058181763,14.4469757080078,14.4472494125366,14.4475250244141,14.4477987289429,14.4480676651001,14.4483423233032,14.448616027832,14.4488906860352,14.4491605758667,14.4494352340698,14.4497060775757,14.4499826431274,14.450252532959,14.4505262374878,14.450798034668,14.4510717391968,14.4513444900513,14.4516201019287,14.4518909454346,14.4521636962891,14.4524393081665,14.452712059021,14.4529838562012,14.45325756073,14.4535293579102,14.453803062439,14.4540767669678,14.4543485641479,14.4546203613281,14.4548959732056,14.4551696777344,14.4554405212402,14.455714225769,14.4559860229492,14.4562635421753,14.4565343856812,14.4568071365356,14.4570789337158,14.4573564529419,14.4576272964478,14.4579019546509,14.4581737518311,14.4584474563599,14.458722114563,14.4589958190918,14.4592666625977,14.4595422744751,14.4598150253296,14.4600896835327,14.4603605270386,14.4606351852417,14.4609069824219,14.4611835479736,14.4614553451538,14.4617290496826,14.4620008468628,14.4622774124146,14.462550163269,14.4628229141235,14.4630947113037,14.4633693695068,14.46364402771,14.4639177322388,14.4641914367676,14.4644641876221,14.4647378921509,14.465012550354,14.4652843475342,14.4655590057373,14.4658298492432,14.4661083221436,14.4663791656494,14.4666547775269,14.4669256210327,14.4672031402588,13.3558692932129,13.3409538269043,13.3260717391968,13.3112230300903,13.296407699585,13.2816247940063,13.2668752670288,13.252158164978,13.237473487854,13.2228212356567,13.2082014083862,13.1936140060425,13.1790590286255,13.1645364761353,13.1500453948975,13.1355857849121,13.1211585998535,13.1067628860474,13.0923986434937,13.0780658721924,13.0637636184692,13.0494937896729,13.0352544784546,13.0210466384888,13.0068693161011,12.9927234649658,12.9786081314087,12.9645233154297,12.9504680633545,12.9364442825317,12.9224510192871,12.9084882736206,12.8945541381836,12.880651473999,12.8667783737183,12.8529348373413,12.8391218185425,12.8253374099731,12.8115835189819,12.7978582382202,12.7841625213623,12.7704963684082,12.7568597793579,12.7432518005371,12.7296724319458,12.7161226272583,12.7026014328003,12.6863651275635,12.6608457565308,12.6354284286499,12.6101131439209,12.5848989486694,12.5597858428955,12.5347719192505,12.5098581314087,12.4850435256958,12.4603261947632,12.4357070922852,12.4111852645874,12.3867597579956,12.3624296188354,12.3381958007812,12.3140554428101,12.2900104522705,12.266058921814,12.2422008514404,12.2184352874756,12.1947622299194,12.1711797714233,12.1476888656616,12.12428855896,12.100977897644,12.0777568817139,12.0546245574951,12.0315809249878,12.0086259841919,11.9853820800781,11.962061882019,11.9388332366943,11.9156932830811,11.8926439285278,11.869683265686,11.8468112945557,11.8240270614624,11.8013296127319,11.7787199020386,11.756196975708,11.7337589263916,11.711407661438,11.6901416778564,11.6712532043457,11.6524248123169,11.6336574554443,11.614951133728,11.5963039398193,11.5777168273926,11.5591897964478,11.5407209396362,11.5223121643066,11.5039615631104,11.4856691360474,11.4674348831177,11.449257850647,11.4311389923096,11.4130773544312,11.3950729370117,11.377124786377,11.3592329025269,11.3413972854614,11.3236179351807,11.3058938980103,11.2882261276245,11.2706127166748,11.2530546188354,11.2355508804321,11.2181005477905,11.2007055282593,11.1833639144897,11.1660766601562,11.1488418579102,11.1316604614258,11.1145324707031,11.0974569320679,11.0804328918457,11.0634613037109,11.0465421676636,11.0296745300293,11.0128583908081,10.99609375,10.9793787002563,10.9627161026001,10.9461030960083,10.9295406341553,10.9130277633667,10.8965654373169,10.8801517486572,10.8637886047363,10.8474731445312,10.8312082290649,10.8149909973145,10.7988224029541,10.7827024459839,10.7666301727295,10.7506055831909,10.7247524261475,10.6989393234253,10.6732511520386,10.6476850509644,10.622241973877,10.5969200134277,10.5717182159424,10.5466365814209,10.5216732025146,10.4968280792236,10.4721002578735,10.4474878311157,10.4229907989502,10.398609161377,10.3743410110474,10.3501853942871,10.3261423110962,10.3022108078003,10.2774839401245,10.2492332458496,10.221137046814,10.1931943893433,10.1654043197632,10.1377658843994,10.1102771759033,10.0829362869263,10.0557432174683,10.028697013855,10.0017948150635,9.97503662109375,9.9484224319458,9.92194938659668,9.89561653137207,9.86942291259766,9.84336853027344,9.81745052337646,9.79166889190674,9.76602172851562,9.74050903320312,9.71512985229492,9.70314979553223,9.69229984283447,9.68147468566895,9.67067337036133,9.65989589691162,9.64914321899414,9.63841342926025,9.62770843505859,9.61702632904053,9.60636901855469,9.59573459625244,9.58512306213379,9.57453632354736,9.56397151947021,9.55343055725098,9.54291343688965,9.53241920471191,9.52194786071777,9.51149940490723,9.50107383728027,9.49067115783691,9.48029136657715,9.46993350982666,9.45959949493408,9.44928741455078,9.43899726867676,9.42873001098633,9.41848468780518,9.40826225280762,9.39806175231934,9.38788318634033,9.37772655487061,9.36759281158447,9.3574800491333,9.34738922119141,9.33732032775879
14.3315200805664,14.3317890167236,14.3320589065552,14.3323249816895,14.3325929641724,14.332859992981,14.3331336975098,14.3334007263184,14.3336687088013,14.3339366912842,14.3342094421387,14.3344755172729,14.3347444534302,14.3350105285645,14.3352813720703,14.3355512619019,14.3358192443848,14.3360862731934,14.3363571166992,14.3366250991821,14.3368940353394,14.3371610641479,14.3374309539795,14.3376989364624,14.3379707336426,14.3382377624512,14.3385076522827,14.338773727417,14.3390455245972,14.3393125534058,14.3395833969116,14.3398504257202,14.3401203155518,14.3403882980347,14.3406581878662,14.3409252166748,14.3411960601807,14.3414649963379,14.3417348861694,14.3420028686523,14.3422718048096,14.3425378799438,14.3428106307983,14.3430786132812,14.3433446884155,14.3436145782471,14.3438863754272,14.3441543579102,14.3444213867188,14.3446922302246,14.3449592590332,14.3452310562134,14.3454971313477,14.3457679748535,14.3460350036621,14.3463077545166,14.3465757369995,14.3468456268311,14.347113609314,14.3473834991455,14.3476514816284,14.34792137146,14.3481903076172,14.3484601974487,14.348729133606,14.3489999771118,14.3492670059204,14.3495359420776,14.3498020172119,14.3500776290894,14.3503446578979,14.3506135940552,14.3508825302124,14.3511533737183,14.3514223098755,14.351692199707,14.3519592285156,14.3522291183472,14.3524980545044,14.3527688980103,14.3530359268188,14.3533058166504,14.3535766601562,14.3538475036621,14.354115486145,14.3543844223022,14.3546514511108,14.3549242019653,14.3551931381226,14.3554649353027,14.3557300567627,14.3560018539429,14.3562707901001,14.356541633606,14.3568086624146,14.3570795059204,14.357349395752,14.3576183319092,13.3345022201538,13.3196353912354,13.3048009872437,13.2899990081787,13.2752313613892,13.2604951858521,13.245792388916,13.2311220169067,13.2164840698242,13.2018785476685,13.1873044967651,13.1727638244629,13.1582546234131,13.1437768936157,13.1293315887451,13.114917755127,13.1005353927612,13.0861854553223,13.0718660354614,13.057578086853,13.0433216094971,13.0290956497192,13.0149011611938,13.0007371902466,12.9866046905518,12.9725017547607,12.9584302902222,12.9443893432617,12.9303789138794,12.9163980484009,12.9024477005005,12.8885278701782,12.8746376037598,12.8607778549194,12.8469467163086,12.8331460952759,12.819375038147,12.8056335449219,12.7919216156006,12.7782382965088,12.7645854949951,12.7509603500366,12.7373657226562,12.7237987518311,12.7102613449097,12.6967525482178,12.6832723617554,12.6698207855225,12.656397819519,12.6430034637451,12.6296367645264,12.6162986755371,12.5983543395996,12.573187828064,12.5481204986572,12.523154258728,12.4982862472534,12.4735164642334,12.448844909668,12.4242715835571,12.3997945785522,12.3754138946533,12.351128578186,12.3269386291504,12.3028430938721,12.2788410186768,12.2549333572388,12.2311182022095,12.2073955535889,12.1837644577026,12.1602258682251,12.1367769241333,12.1134185791016,12.0901498794556,12.066969871521,12.0438795089722,12.0208759307861,11.9979619979858,11.975133895874,11.9520654678345,11.9288749694824,11.9057741165161,11.8827629089355,11.8598403930664,11.8370056152344,11.8142585754395,11.7915992736816,11.7690267562866,11.7465410232544,11.7241401672363,11.7018251419067,11.6797304153442,11.6608743667603,11.6420803070068,11.6233463287354,11.6046724319458,11.5860586166382,11.5675048828125,11.5490102767944,11.5305738449097,11.5121965408325,11.493878364563,11.4756183624268,11.4574155807495,11.4392709732056,11.4211835861206,11.4031534194946,11.3851795196533,11.367262840271,11.3494024276733,11.331597328186,11.3138484954834,11.2961549758911,11.2785177230835,11.2609348297119,11.2434062957764,11.2259321212769,11.2085123062134,11.1911468505859,11.1738357543945,11.1565771102905,11.1393718719482,11.1222200393677,11.1051197052002,11.0880727767944,11.0710783004761,11.0541362762451,11.0372447967529,11.0204057693481,11.0036172866821,10.9868803024292,10.9701948165894,10.953558921814,10.9369735717773,10.9204387664795,10.9039535522461,10.8875179290771,10.871132850647,10.8547954559326,10.8385076522827,10.8222694396973,10.8060789108276,10.7899370193481,10.7738437652588,10.7577972412109,10.7417993545532,10.7258491516113,10.7099456787109,10.6873722076416,10.6617393493652,10.6362285614014,10.61083984375,10.5855722427368,10.5604238510132,10.5353956222534,10.5104856491089,10.4856929779053,10.4610176086426,10.4364566802979,10.4120121002197,10.3876810073853,10.3634643554688,10.3393592834473,10.3153667449951,10.2914848327637,10.2677135467529,10.2418556213379,10.2137994766235,10.1858968734741,10.1581468582153,10.1305475234985,10.1030969619751,10.075795173645,10.048641204834,10.021632194519,9.99476909637451,9.96804904937744,9.94147109985352,9.91503524780273,9.88873863220215,9.86258220672607,9.83656311035156,9.81068134307861,9.78493499755859,9.75932312011719,9.73384571075439,9.70850086212158,9.69600391387939,9.68517017364502,9.67436027526855,9.66357517242432,9.65281391143799,9.64207649230957,9.63136291503906,9.62067317962646,9.61000728607178,9.59936428070068,9.58874607086182,9.57815074920654,9.56757831573486,9.55702972412109,9.54650402069092,9.53600120544434,9.52552223205566,9.51506614685059,9.5046329498291,9.49422264099121,9.4838342666626,9.47346973419189,9.46312713623047,9.45280742645264,9.4425106048584,9.43223476409912,9.42198276519775,9.41175270080566,9.40154457092285,9.39135837554932,9.38119411468506,9.37105274200439,9.36093235015869,9.35083389282227,9.34075736999512,9.33070278167725,9.32066917419434
14.2250375747681,14.2252998352051,14.225564956665,14.2258262634277,14.2260942459106,14.2263584136963,14.2266244888306,14.2268857955933,14.2271528244019,14.2274169921875,14.2276840209961,14.2279443740845,14.2282114028931,14.2284746170044,14.228741645813,14.2290058135986,14.2292699813843,14.2295331954956,14.2298002243042,14.2300634384155,14.2303304672241,14.2305927276611,14.2308588027954,14.2311239242554,14.2313890457153,14.2316522598267,14.2319173812866,14.2321815490723,14.2324485778809,14.2327127456665,14.2329778671265,14.2332410812378,14.2335081100464,14.2337713241577,14.234037399292,14.2343006134033,14.2345657348633,14.2348318099976,14.2350940704346,14.2353601455688,14.2356243133545,14.2358922958374,14.2361555099487,14.2364206314087,14.2366847991943,14.23694896698,14.2372150421143,14.2374811172485,14.2377443313599,14.2380104064941,14.2382764816284,14.238543510437,14.2388048171997,14.2390718460083,14.2393341064453,14.2396039962769,14.2398662567139,14.2401323318481,14.2403945922852,14.2406635284424,14.2409267425537,14.241192817688,14.241455078125,14.2417221069336,14.2419900894165,14.2422533035278,14.2425184249878,14.2427835464478,14.2430505752563,14.2433156967163,14.2435779571533,14.2438449859619,14.2441091537476,14.2443780899048,14.2446393966675,14.2449054718018,14.2451686859131,14.2454395294189,14.245701789856,14.2459678649902,14.2462310791016,14.2464981079102,14.2467632293701,14.2470302581787,14.2472944259644,14.2475605010986,14.2478256225586,14.2480916976929,14.2483558654785,14.2486219406128,14.2488851547241,14.2491550445557,14.2494163513184,14.2496843338013,14.2499465942383,13.2983846664429,13.2835969924927,13.2688426971436,13.2541217803955,13.2394323348999,13.2247762680054,13.2101526260376,13.1955604553223,13.181001663208,13.1664743423462,13.1519784927368,13.1375150680542,13.123083114624,13.1086835861206,13.0943145751953,13.0799779891968,13.0656719207764,13.0513982772827,13.0371541976929,13.0229425430298,13.0087614059448,12.994610786438,12.9804916381836,12.966402053833,12.9523439407349,12.9383153915405,12.9243183135986,12.9103507995605,12.8964138031006,12.8825063705444,12.8686294555664,12.8547821044922,12.8409643173218,12.8271770477295,12.8134183883667,12.7996892929077,12.7859897613525,12.7723197937012,12.7586793899536,12.7450675964355,12.731484413147,12.7179307937622,12.7044057846069,12.6909093856812,12.6774415969849,12.6640024185181,12.6505918502808,12.6372098922729,12.6238555908203,12.6105298995972,12.5972318649292,12.5839624404907,12.5707206726074,12.5575065612793,12.5443201065063,12.5311613082886,12.5115566253662,12.4867353439331,12.4620113372803,12.437385559082,12.4128570556641,12.3884248733521,12.3640880584717,12.3398475646973,12.3157014846802,12.2916498184204,12.267692565918,12.2438278198242,12.2200555801392,12.1963758468628,12.1727876663208,12.1492910385132,12.1258840560913,12.1025676727295,12.0793399810791,12.0562019348145,12.0331525802612,12.0101909637451,11.9873170852661,11.9645290374756,11.9418287277222,11.9189329147339,11.8958711624146,11.8728981018066,11.8500137329102,11.8272161483765,11.8045072555542,11.781886100769,11.759349822998,11.7369003295898,11.7145366668701,11.6922578811646,11.6700639724731,11.6505146026611,11.6317539215088,11.6130533218384,11.5944128036499,11.575831413269,11.5573101043701,11.5388479232788,11.5204439163208,11.5020990371704,11.4838132858276,11.4655847549438,11.4474143981934,11.4293012619019,11.411244392395,11.3932456970215,11.3753032684326,11.3574180603027,11.3395881652832,11.3218145370483,11.3040962219238,11.2864332199097,11.2688255310059,11.2512731552124,11.2337741851807,11.2163305282593,11.1989412307739,11.181604385376,11.1643228530884,11.1470937728882,11.1299171447754,11.1127948760986,11.095724105835,11.0787057876587,11.0617399215698,11.044825553894,11.0279636383057,11.0111522674561,10.9943923950195,10.9776830673218,10.9610252380371,10.9444179534912,10.9278602600098,10.9113521575928,10.8948945999146,10.8784866333008,10.8621282577515,10.8458185195923,10.8295574188232,10.8133459091187,10.7971820831299,10.7810668945312,10.7649993896484,10.7489795684814,10.7330074310303,10.7170839309692,10.7012062072754,10.6853761672974,10.6695928573608,10.6502513885498,10.6247959136963,10.599461555481,10.5742483139038,10.5491542816162,10.5241794586182,10.499321937561,10.4745817184448,10.4499578475952,10.4254493713379,10.4010562896729,10.3767766952515,10.3526096343994,10.328556060791,10.3046131134033,10.2807807922363,10.25705909729,10.2334470748901,10.2064723968506,10.1786098480225,10.150899887085,10.1233396530151,10.0959281921387,10.0686655044556,10.0415487289429,10.0145778656006,9.98775196075439,9.96107006072998,9.93452930450439,9.90813064575195,9.88187122344971,9.85575008392334,9.82976722717285,9.80392074584961,9.77821063995361,9.75263404846191,9.72719097137451,9.70188045501709,9.68886852264404,9.67805099487305,9.66725730895996,9.65648746490479,9.64574241638184,9.63502025604248,9.62432193756104,9.61364841461182,9.60299777984619,9.59237098693848,9.58176708221436,9.57118701934814,9.56063079833984,9.55009746551514,9.53958702087402,9.5290994644165,9.51863574981689,9.50819492340088,9.49777603149414,9.48738098144531,9.47700786590576,9.4666576385498,9.45633029937744,9.44602584838867,9.43574237823486,9.42548274993896,9.41524505615234,9.405029296875,9.39483547210693,9.38466453552246,9.37451457977295,9.36438751220703,9.35428142547607,9.34419727325439,9.33413505554199,9.32409477233887,9.3140754699707,9.30407810211182
14.1201210021973,14.120379447937,14.120641708374,14.1209011077881,14.1211652755737,14.1214246749878,14.1216850280762,14.1219434738159,14.1222057342529,14.1224660873413,14.122727394104,14.1229877471924,14.1232471466064,14.1235113143921,14.1237716674805,14.1240301132202,14.1242923736572,14.1245517730713,14.1248149871826,14.1250743865967,14.125337600708,14.1255950927734,14.1258592605591,14.1261196136475,14.1263809204102,14.1266393661499,14.1269006729126,14.1271629333496,14.127423286438,14.1276836395264,14.1279458999634,14.1282081604004,14.1284675598145,14.1287279129028,14.1289873123169,14.1292486190796,14.1295099258423,14.1297731399536,14.1300315856934,14.1302928924561,14.1305541992188,14.1308174133301,14.1310768127441,14.1313371658325,14.1315956115723,14.1318607330322,14.1321201324463,14.1323833465576,14.1326427459717,14.1329069137573,14.1331663131714,14.1334276199341,14.1336870193481,14.1339492797852,14.1342105865479,14.1344738006592,14.1347322463989,14.1349945068359,14.1352567672729,14.13551902771,14.135778427124,14.1360387802124,14.1363000869751,14.1365623474121,14.1368236541748,14.1370849609375,14.1373453140259,14.1376085281372,14.1378698348999,14.1381311416626,14.1383905410767,14.138653755188,14.1389141082764,14.1391763687134,14.1394357681274,14.1396980285645,14.1399593353271,14.1402235031128,14.1404829025269,14.1407461166382,14.1410045623779,14.1412687301636,14.1415300369263,14.1417922973633,14.142050743103,14.14231300354,14.1425752639771,14.1428375244141,14.1430978775024,14.1433601379395,14.1436214447021,13.2772016525269,13.2624616622925,13.2477540969849,13.233078956604,13.2184371948242,13.2038269042969,13.1892490386963,13.1747035980225,13.1601905822754,13.1457090377808,13.1312589645386,13.1168413162231,13.1024551391602,13.0880994796753,13.0737762451172,13.0594844818115,13.045223236084,13.0309934616089,13.0167951583862,13.0026273727417,12.9884901046753,12.9743843078613,12.9603080749512,12.9462633132935,12.9322481155396,12.9182634353638,12.9043092727661,12.8903856277466,12.8764905929565,12.8626270294189,12.8487920761108,12.8349876403809,12.8212127685547,12.8074674606323,12.7937507629395,12.7800645828247,12.7664070129395,12.752779006958,12.7391796112061,12.7256088256836,12.7120676040649,12.6985549926758,12.6850709915161,12.6716156005859,12.6581888198853,12.6447906494141,12.631420135498,12.6180791854858,12.6047649383545,12.5914793014526,12.5782222747803,12.5649919509888,12.5517902374268,12.5386161804199,12.5254697799683,12.5123510360718,12.4992589950562,12.4861946105957,12.4731578826904,12.460147857666,12.4471654891968,12.4259471893311,12.401463508606,12.3770761489868,12.3527841567993,12.3285875320435,12.3044853210449,12.280478477478,12.2565631866455,12.2327423095703,12.2090129852295,12.1853761672974,12.1618299484253,12.1383752822876,12.11501121521,12.0917358398438,12.0685501098633,12.0454540252686,12.0224447250366,11.9995241165161,11.9766902923584,11.9539432525635,11.9312829971313,11.9087076187134,11.8859844207764,11.8630495071411,11.8402032852173,11.8174438476562,11.7947721481323,11.7721872329712,11.7496891021729,11.727276802063,11.7049493789673,11.6827068328857,11.6605491638184,11.6401739120483,11.6214456558228,11.6027784347534,11.5841703414917,11.5656223297119,11.5471334457397,11.5287036895752,11.5103321075439,11.4920196533203,11.47376537323,11.4555683135986,11.4374294281006,11.4193487167358,11.4013233184814,11.3833560943604,11.3654451370239,11.3475904464722,11.3297910690308,11.312047958374,11.2943601608276,11.2767276763916,11.2591505050659,11.2416276931763,11.2241592407227,11.2067451477051,11.1893854141235,11.1720790863037,11.1548261642456,11.1376256942749,11.1204795837402,11.1033849716187,11.0863437652588,11.069354057312,11.0524168014526,11.0355310440063,11.0186967849731,11.001914024353,10.985182762146,10.9685010910034,10.9518709182739,10.9352912902832,10.9187612533569,10.9022808074951,10.8858509063721,10.8694696426392,10.8531379699707,10.8368558883667,10.8206214904785,10.8044366836548,10.7882995605469,10.7722101211548,10.7561693191528,10.7401762008667,10.7242307662964,10.7083320617676,10.6924810409546,10.6766757965088,10.6609182357788,10.645206451416,10.6295413970947,10.6133880615234,10.5881080627441,10.5629482269287,10.5379085540771,10.5129861831665,10.4881820678711,10.4634943008423,10.4389219284058,10.4144659042358,10.3901233673096,10.3658952713013,10.341778755188,10.317774772644,10.2938823699951,10.2700996398926,10.2464275360107,10.2228631973267,10.1991567611694,10.1713333129883,10.1436624526978,10.1161413192749,10.0887699127197,10.0615453720093,10.0344667434692,10.0075349807739,9.98074626922607,9.9541015625,9.92759799957275,9.90123462677002,9.8750114440918,9.84892749786377,9.8229808807373,9.79716968536377,9.77149486541748,9.74595355987549,9.72054576873779,9.69526958465576,9.68174362182617,9.67094230651855,9.66016387939453,9.64941024780273,9.63868045806885,9.62797451019287,9.6172924041748,9.60663318634033,9.59599876403809,9.58538722991943,9.57479953765869,9.56423473358154,9.55369281768799,9.54317474365234,9.53267955780029,9.52220821380615,9.51175880432129,9.50133323669434,9.49092960357666,9.48054885864258,9.47019100189209,9.4598560333252,9.44954299926758,9.43925285339355,9.42898559570312,9.41874027252197,9.4085168838501,9.3983154296875,9.3881368637085,9.37797927856445,9.367844581604,9.35773086547852,9.34764003753662,9.33757019042969,9.32752227783203,9.31749629974365,9.30749130249023,9.29750823974609,9.28754615783691
14.0167436599731,14.0169973373413,14.0172548294067,14.0175104141235,14.0177717208862,14.018027305603,14.0182838439941,14.0185384750366,14.0187997817993,14.0190534591675,14.0193128585815,14.0195665359497,14.0198249816895,14.0200824737549,14.0203409194946,14.0205955505371,14.0208539962769,14.0211095809937,14.0213689804077,14.0216236114502,14.0218830108643,14.0221376419067,14.0223970413208,14.0226535797119,14.022910118103,14.0231657028198,14.0234241485596,14.0236806869507,14.0239362716675,14.0241956710815,14.0244493484497,14.0247097015381,14.0249662399292,14.0252237319946,14.0254783630371,14.0257406234741,14.0259952545166,14.0262517929077,14.0265092849731,14.0267667770386,14.0270252227783,14.0272827148438,14.0275382995605,14.0277948379517,14.0280523300171,14.0283117294312,14.0285673141479,14.0288248062134,14.0290813446045,14.0293407440186,14.029595375061,14.0298547744751,14.0301103591919,14.0303716659546,14.0306262969971,14.0308847427368,14.0311403274536,14.0313987731934,14.0316562652588,14.0319137573242,14.0321712493896,14.0324268341064,14.0326881408691,14.0329446792603,14.0332002639771,14.0334587097168,14.0337152481079,14.033974647522,14.0342321395874,14.0344905853271,14.0347452163696,14.035005569458,14.0352611541748,14.0355205535889,14.0357751846313,14.0360336303711,14.0362911224365,14.0365495681763,14.0368070602417,14.0370645523071,14.0373229980469,14.0375814437866,14.0378360748291,14.0380935668945,14.0383520126343,14.0386095046997,14.0388679504395,13.256085395813,13.2413921356201,13.2267322540283,13.212103843689,13.1975078582764,13.1829442977905,13.1684122085571,13.1539125442505,13.1394453048706,13.1250085830688,13.1106042861938,13.0962324142456,13.0818910598755,13.0675811767578,13.0533027648926,13.0390548706055,13.0248384475708,13.0106534957886,12.9964990615845,12.9823751449585,12.9682817459106,12.9542198181152,12.9401874542236,12.9261856079102,12.9122142791748,12.8982734680176,12.8843622207642,12.8704814910889,12.8566293716431,12.8428087234497,12.8290166854858,12.8152542114258,12.8015213012695,12.7878179550171,12.7741441726685,12.7604990005493,12.746883392334,12.7332963943481,12.7197389602661,12.7062101364136,12.6927099227905,12.679238319397,12.6657953262329,12.6523809432983,12.6389951705933,12.6256370544434,12.6123075485229,12.599006652832,12.585732460022,12.5724868774414,12.5592699050903,12.5460796356201,12.5329179763794,12.5197830200195,12.5066757202148,12.4935960769653,12.480544090271,12.4675188064575,12.4545202255249,12.4415493011475,12.4286060333252,12.4156885147095,12.4027986526489,12.3899354934692,12.3770980834961,12.3642883300781,12.3415002822876,12.3173484802246,12.2932901382446,12.2693252563477,12.245454788208,12.2216768264771,12.1979904174805,12.1743955612183,12.1508932113647,12.1274795532227,12.1041574478149,12.0809240341187,12.0577802658081,12.0347242355347,12.0117568969727,11.9888763427734,11.9660835266113,11.9433765411377,11.9207563400269,11.8982210159302,11.8757705688477,11.853217124939,11.8304080963135,11.8076868057251,11.7850532531738,11.762505531311,11.7400436401367,11.7176685333252,11.6953773498535,11.673171043396,11.6510496139526,11.6298503875732,11.611156463623,11.5925216674805,11.5739469528198,11.5554313659668,11.5369749069214,11.5185775756836,11.5002384185791,11.4819574356079,11.4637355804443,11.4455709457397,11.4274635314941,11.4094133377075,11.3914194107056,11.3734836578369,11.3556032180786,11.337779045105,11.320011138916,11.3022985458374,11.2846412658691,11.2670392990112,11.2494916915894,11.2319993972778,11.214560508728,11.1971769332886,11.1798458099365,11.1625690460205,11.1453456878662,11.1281747817993,11.1110572814941,11.0939922332764,11.076979637146,11.0600185394287,11.0431098937988,11.026252746582,11.009446144104,10.9926919937134,10.9759883880615,10.9593353271484,10.9427328109741,10.9261798858643,10.9096775054932,10.8932247161865,10.8768215179443,10.8604679107666,10.8441638946533,10.8279075622559,10.8117008209229,10.7955417633057,10.7794313430786,10.7633686065674,10.7473545074463,10.7313871383667,10.7154674530029,10.699595451355,10.6837692260742,10.6679906845093,10.6522588729858,10.6365728378296,10.6209325790405,10.605339050293,10.5897912979126,10.5742883682251,10.5516729354858,10.5266857147217,10.5018167495728,10.4770650863647,10.4524297714233,10.4279098510742,10.4035053253174,10.3792142868042,10.3550357818604,10.3309707641602,10.3070163726807,10.2831735610962,10.2594404220581,10.2358169555664,10.2123012542725,10.1888942718506,10.1640672683716,10.1364364624023,10.1089544296265,10.0816211700439,10.0544347763062,10.0273952484131,10.0005006790161,9.97375011444092,9.94714164733887,9.92067527770996,9.89434909820557,9.86816310882568,9.84211444854736,9.81620311737061,9.79042816162109,9.76478862762451,9.73928260803223,9.71390914916992,9.68866729736328,9.67462921142578,9.66384315490723,9.65308094024658,9.64234352111816,9.63162899017334,9.62093925476074,9.61027240753174,9.59962940216064,9.58900928497314,9.57841396331787,9.56784057617188,9.55729198455811,9.54676532745361,9.53626251220703,9.52578258514404,9.51532554626465,9.50489234924316,9.49448108673096,9.48409271240234,9.47372722625732,9.4633846282959,9.45306396484375,9.4427661895752,9.43249034881592,9.42223739624023,9.41200637817383,9.40179824829102,9.39161109924316,9.38144683837891,9.37130451202393,9.36118412017822,9.35108470916748,9.34100818634033,9.33095264434814,9.32091903686523,9.3109073638916,9.30091667175293,9.29094696044922,9.28099918365479,9.27107238769531
13.9148683547974,13.9151172637939,13.9153718948364,13.9156255722046,13.9158802032471,13.916130065918,13.9163846969604,13.9166383743286,13.9168930053711,13.9171457290649,13.9173974990845,13.9176502227783,13.9179058074951,13.918158531189,13.9184112548828,13.9186639785767,13.9189195632935,13.919171333313,13.9194259643555,13.919677734375,13.9199275970459,13.9201860427856,13.9204359054565,13.9206895828247,13.9209423065186,13.9211988449097,13.9214515686035,13.9217042922974,13.9219570159912,13.9222106933594,13.9224653244019,13.9227180480957,13.9229698181152,13.9232244491577,13.9234790802002,13.9237327575684,13.9239845275879,13.9242391586304,13.9244899749756,13.9247484207153,13.9249992370605,13.9252529144287,13.9255046844482,13.9257583618164,13.9260129928589,13.9262685775757,13.9265203475952,13.9267749786377,13.9270277023315,13.9272832870483,13.9275350570679,13.927788734436,13.9280405044556,13.9282970428467,13.9285497665405,13.9288034439087,13.9290561676025,13.9293117523193,13.9295644760132,13.929817199707,13.9300718307495,13.930326461792,13.9305791854858,13.9308338165283,13.9310865402222,13.9313411712646,13.9315948486328,13.9318494796753,13.9321002960205,13.9323558807373,13.9326086044312,13.9328660964966,13.9331169128418,13.9333715438843,13.9336223602295,13.9338798522949,13.9341335296631,13.9343852996826,13.9346399307251,13.9348917007446,13.9351501464844,13.9354000091553,13.9356555938721,13.2350368499756,13.2203903198242,13.2057762145996,13.1911945343018,13.1766443252563,13.1621265411377,13.1476411819458,13.1331872940063,13.1187648773193,13.1043739318848,13.090015411377,13.0756874084473,13.0613918304443,13.0471267700195,13.0328922271729,13.0186891555786,13.0045175552368,12.9903764724731,12.9762659072876,12.9621858596802,12.9481372833252,12.934118270874,12.920129776001,12.9061708450317,12.8922433853149,12.8783445358276,12.8644762039185,12.8506383895874,12.8368301391602,12.8230504989624,12.8093013763428,12.7955808639526,12.7818908691406,12.7682294845581,12.7545967102051,12.7409934997559,12.7274198532104,12.7138748168945,12.7003583908081,12.6868705749512,12.6734113693237,12.6599807739258,12.6465787887573,12.633204460144,12.6198587417603,12.606541633606,12.5932521820068,12.5799913406372,12.5667581558228,12.5535516738892,12.5403738021851,12.5272235870361,12.5141010284424,12.5010061264038,12.4879379272461,12.4748973846436,12.4618844985962,12.4488983154297,12.435938835144,12.4230070114136,12.4101009368896,12.3972225189209,12.384370803833,12.371545791626,12.3587465286255,12.3459749221802,12.3332281112671,12.3205089569092,12.3078155517578,12.295147895813,12.282114982605,12.2581939697266,12.2343664169312,12.2106313705444,12.1869878768921,12.1634359359741,12.1399745941162,12.1166038513184,12.0933227539062,12.0701313018799,12.0470285415649,12.0240135192871,12.0010871887207,11.9782476425171,11.9554948806763,11.9328279495239,11.9102468490601,11.8877515792847,11.8653411865234,11.8430147171021,11.8206300735474,11.7979469299316,11.7753496170044,11.7528390884399,11.730414390564,11.7080755233765,11.6858215332031,11.6636514663696,11.641565322876,11.6195631027222,11.600884437561,11.5822830200195,11.5637407302856,11.5452575683594,11.5268335342407,11.5084686279297,11.490161895752,11.4719133377075,11.4537229537964,11.4355897903442,11.4175138473511,11.3994951248169,11.3815336227417,11.3636274337769,11.345778465271,11.3279857635498,11.3102474212646,11.2925662994385,11.274938583374,11.2573671340942,11.2398500442505,11.2223873138428,11.2049789428711,11.1876239776611,11.1703233718872,11.1530752182007,11.1358814239502,11.1187400817871,11.1016511917114,11.0846147537231,11.0676307678223,11.0506982803345,11.0338182449341,11.0169887542725,11.0002117156982,10.9834852218628,10.9668092727661,10.9501838684082,10.9336090087891,10.9170837402344,10.9006090164185,10.884183883667,10.86780834198,10.8514814376831,10.8352031707764,10.8189744949341,10.8027944564819,10.7866621017456,10.7705783843994,10.754542350769,10.7385540008545,10.7226123809814,10.7067193984985,10.6908721923828,10.6750726699829,10.6593198776245,10.6436128616333,10.6279525756836,10.6123380661011,10.5967693328857,10.5812463760376,10.5657682418823,10.5503358840942,10.534948348999,10.5154876708984,10.4906721115112,10.4659719467163,10.4413890838623,10.4169206619263,10.3925676345825,10.3683271408081,10.3442001342773,10.3201847076416,10.2962808609009,10.2724876403809,10.2488040924072,10.2252283096313,10.2017612457275,10.1784029006958,10.1551504135132,10.1292190551758,10.1017761230469,10.0744819641113,10.0473346710205,10.0203332901001,9.99347686767578,9.96676349639893,9.94019317626953,9.91376304626465,9.88747406005859,9.86132335662842,9.83531093597412,9.80943584442139,9.78369617462158,9.75809192657471,9.73262023925781,9.7072811126709,9.68207454681396,9.66752529144287,9.6567554473877,9.64600944519043,9.63528728485107,9.62458801269531,9.61391353607178,9.60326290130615,9.59263515472412,9.58203125,9.57145023345947,9.56089305877686,9.55035877227783,9.53984832763672,9.5293607711792,9.51889610290527,9.50845432281494,9.4980354309082,9.48763942718506,9.47726631164551,9.46691513061523,9.45658683776855,9.44628143310547,9.43599891662598,9.42573738098145,9.41549968719482,9.40528297424316,9.3950891494751,9.38491725921631,9.3747673034668,9.36463928222656,9.35453319549561,9.34444808959961,9.33438587188721,9.32434463500977,9.3143253326416,9.3043270111084,9.29435062408447,9.28439521789551,9.27446174621582,9.26454925537109,9.25465774536133
13.8144617080688,13.8147068023682,13.814962387085,13.8152093887329,13.8154582977295,13.8157062530518,13.8159580230713,13.8162078857422,13.8164567947388,13.816704750061,13.8169565200806,13.8172073364258,13.8174543380737,13.8177042007446,13.8179512023926,13.8182029724121,13.818452835083,13.8187017440796,13.8189506530762,13.8192014694214,13.8194522857666,13.8197031021118,13.8199510574341,13.820200920105,13.8204498291016,13.8207015991211,13.8209495544434,13.8212013244629,13.8214483261108,13.8217010498047,13.8219499588013,13.8221998214722,13.8224477767944,13.822699546814,13.8229484558105,13.8232011795044,13.8234481811523,13.8236989974976,13.8239488601685,13.8241996765137,13.8244485855103,13.8246984481812,13.8249464035034,13.8251991271973,13.8254461288452,13.8256978988647,13.825945854187,13.8261995315552,13.8264465332031,13.8266973495483,13.8269462585449,13.8271970748901,13.8274478912354,13.8276996612549,13.8279457092285,13.828197479248,13.8284482955933,13.8287000656128,13.8289470672607,13.8291969299316,13.8294458389282,13.8296995162964,13.829948425293,13.8301992416382,13.8304462432861,13.83069896698,13.8309478759766,13.8311986923218,13.831446647644,13.8316993713379,13.8319492340088,13.8321981430054,13.8324499130249,13.8326969146729,13.8329496383667,13.8331985473633,13.8334493637085,13.8336982727051,13.833948135376,13.2140550613403,13.1994552612305,13.184886932373,13.1703510284424,13.1558475494385,13.141375541687,13.126935005188,13.1125268936157,13.0981492996216,13.0838041305542,13.0694904327393,13.0552072525024,13.0409564971924,13.0267353057861,13.0125465393066,12.998387336731,12.9842596054077,12.9701623916626,12.9560956954956,12.9420595169067,12.928053855896,12.9140787124634,12.9001331329346,12.8862180709839,12.8723335266113,12.8584775924683,12.8446521759033,12.8308563232422,12.8170900344849,12.8033533096313,12.7896461486816,12.7759685516357,12.7623195648193,12.7487001419067,12.7351093292236,12.7215480804443,12.7080154418945,12.6945114135742,12.6810359954834,12.6675891876221,12.6541709899902,12.6407814025879,12.6274194717407,12.614086151123,12.6007814407349,12.5875043869019,12.574254989624,12.5610332489014,12.5478401184082,12.5346736907959,12.5215358734131,12.5084247589111,12.4953413009644,12.4822854995728,12.469256401062,12.4562549591064,12.4432802200317,12.4303331375122,12.4174127578735,12.4045190811157,12.3916521072388,12.3788108825684,12.3659973144531,12.3532104492188,12.3404493331909,12.3277149200439,12.3150062561035,12.3023242950439,12.2896690368652,12.2770385742188,12.2644348144531,12.251856803894,12.2393035888672,12.2267770767212,12.2142763137817,12.1996059417725,12.17600440979,12.1524953842163,12.1290760040283,12.1057472229004,12.0825080871582,12.0593576431274,12.0362958908081,12.0133228302002,11.9904365539551,11.9676370620728,11.9449243545532,11.9222984313965,11.8997573852539,11.8773012161255,11.8549299240112,11.8326425552368,11.8104391098022,11.7882223129272,11.7656621932983,11.7431888580322,11.7208013534546,11.6984977722168,11.6762809753418,11.6541471481323,11.6320962905884,11.6101303100586,11.590630531311,11.5720624923706,11.5535526275635,11.535101890564,11.5167112350464,11.4983777999878,11.4801034927368,11.4618864059448,11.4437274932861,11.4256258010864,11.40758228302,11.389594078064,11.3716640472412,11.3537893295288,11.3359708786011,11.318208694458,11.3005018234253,11.2828502655029,11.2652530670166,11.2477121353149,11.230224609375,11.2127914428711,11.1954126358032,11.1780872344971,11.160816192627,11.1435976028442,11.1264324188232,11.109320640564,11.0922603607178,11.0752534866333,11.0582981109619,11.0413942337036,11.0245418548584,11.0077419281006,10.9909915924072,10.9742937088013,10.9576454162598,10.941047668457,10.9245004653931,10.9080028533936,10.8915557861328,10.8751573562622,10.8588085174561,10.8425092697144,10.8262586593628,10.8100566864014,10.7939023971558,10.7777967453003,10.761739730835,10.7457294464111,10.7297677993774,10.7138519287109,10.6979846954346,10.6821641921997,10.666389465332,10.6506624221802,10.6349811553955,10.619345664978,10.6037569046021,10.5882129669189,10.572714805603,10.5572624206543,10.5418548583984,10.5264921188354,10.5111742019653,10.4959011077881,10.479549407959,10.4549026489258,10.4303712844849,10.4059543609619,10.3816518783569,10.3574628829956,10.3333864212036,10.3094215393066,10.2855672836304,10.2618227005005,10.238187789917,10.2146615982056,10.1912441253662,10.1679334640503,10.1447277069092,10.1216287612915,10.0946092605591,10.0673532485962,10.040244102478,10.0132808685303,9.9864616394043,9.9597864151001,9.93325233459473,9.9068603515625,9.88060760498047,9.85449314117432,9.82851696014404,9.80267715454102,9.77697277069092,9.75140285491943,9.72596740722656,9.70066261291504,9.6754903793335,9.66043186187744,9.64967727661133,9.63894748687744,9.62824058532715,9.61755752563477,9.60689830780029,9.59626293182373,9.58565044403076,9.5750617980957,9.56449699401855,9.553955078125,9.54343605041504,9.53294086456299,9.52246856689453,9.51201915740967,9.50159168243408,9.49118804931641,9.48080730438232,9.47044849395752,9.46011352539062,9.44979953765869,9.43950939178467,9.42924022674561,9.41899490356445,9.40877056121826,9.39856910705566,9.38838958740234,9.3782320022583,9.36809635162354,9.35798263549805,9.34789085388184,9.3378210067749,9.32777214050293,9.31774520874023,9.30774021148682,9.29775619506836,9.28779411315918,9.27785301208496,9.2679328918457,9.25803470611572,9.24815654754639,9.23830032348633
13.7154932022095,13.7157402038574,13.7159862518311,13.7162303924561,13.7164783477783,13.716721534729,13.7169675827026,13.7172145843506,13.7174587249756,13.7177057266235,13.7179527282715,13.7181987762451,13.7184438705444,13.7186908721924,13.7189340591431,13.719183921814,13.7194299697876,13.7196750640869,13.7199201583862,13.7201700210571,13.7204141616821,13.7206611633301,13.7209043502808,13.721152305603,13.7213973999023,13.7216453552246,13.7218914031982,13.7221364974976,13.7223815917969,13.7226305007935,13.7228736877441,13.7231206893921,13.7233667373657,13.7236166000366,13.7238607406616,13.7241077423096,13.7243528366089,13.7245998382568,13.7248458862305,13.7250928878784,13.7253370285034,13.7255840301514,13.725830078125,13.7260799407959,13.7263231277466,13.7265691757202,13.7268152236938,13.7270650863647,13.7273101806641,13.727557182312,13.7277994155884,13.7280492782593,13.7282953262329,13.7285423278809,13.7287864685059,13.7290334701538,13.7292814254761,13.729528427124,13.7297735214233,13.730019569397,13.7302675247192,13.7305154800415,13.7307605743408,13.7310075759888,13.7312526702881,13.7314977645874,13.7317457199097,13.7319898605347,13.7322387695312,13.7324848175049,13.7327318191528,13.7329778671265,13.7332239151001,13.7334699630737,13.7337198257446,13.7339639663696,13.1785860061646,13.1640634536743,13.1495742797852,13.1351156234741,13.1206893920898,13.106294631958,13.0919313430786,13.0775995254517,13.0632991790771,13.0490293502808,13.0347919464111,13.0205850601196,13.0064086914062,12.9922637939453,12.9781484603882,12.9640645980835,12.9500112533569,12.9359884262085,12.9219961166382,12.9080333709717,12.8941011428833,12.880199432373,12.8663272857666,12.852484703064,12.8386716842651,12.8248891830444,12.8111362457275,12.7974119186401,12.7837171554565,12.7700519561768,12.7564163208008,12.7428092956543,12.7292308807373,12.7156820297241,12.7021617889404,12.6886701583862,12.6752071380615,12.6617727279663,12.6483669281006,12.63498878479,12.6216402053833,12.6083183288574,12.5950260162354,12.5817604064941,12.5685234069824,12.5553140640259,12.5421323776245,12.5289783477783,12.5158519744873,12.5027532577515,12.4896821975708,12.476637840271,12.4636201858521,12.4506311416626,12.4376678466797,12.424732208252,12.4118232727051,12.3989410400391,12.3860855102539,12.3732566833496,12.3604545593262,12.3476791381836,12.3349294662476,12.3222064971924,12.3095092773438,12.296838760376,12.2841939926147,12.2715749740601,12.2589826583862,12.2464151382446,12.2338743209839,12.2213582992554,12.2088680267334,12.196403503418,12.1839647293091,12.1715507507324,12.1591625213623,12.1467990875244,12.1344614028931,12.1181974411011,12.0949106216431,12.0717124938965,12.0486040115356,12.0255832672119,12.0026502609253,11.9798049926758,11.9570465087891,11.9343738555908,11.9117870330811,11.8892850875854,11.8668689727783,11.8445377349854,11.8222885131836,11.800124168396,11.7780427932739,11.7559909820557,11.7335548400879,11.7112035751343,11.6889371871948,11.6667556762695,11.6446580886841,11.6226434707642,11.6007127761841,11.5803956985474,11.5618591308594,11.5433826446533,11.5249643325806,11.5066051483154,11.4883050918579,11.4700622558594,11.4518775939941,11.4337501525879,11.4156799316406,11.3976669311523,11.379711151123,11.3618106842041,11.3439674377441,11.3261804580688,11.3084487915039,11.290771484375,11.2731504440308,11.2555847167969,11.2380723953247,11.2206153869629,11.2032127380371,11.185863494873,11.1685676574707,11.1513252258301,11.1341361999512,11.117000579834,11.0999174118042,11.0828857421875,11.0659074783325,11.0489807128906,11.0321054458618,11.0152816772461,10.9985094070435,10.9817876815796,10.9651174545288,10.9484968185425,10.9319276809692,10.9154071807861,10.8989372253418,10.8825168609619,10.8661460876465,10.8498249053955,10.8335523605347,10.8173274993896,10.8011522293091,10.7850255966187,10.7689456939697,10.7529144287109,10.7369318008423,10.7209949493408,10.7051067352295,10.6892642974854,10.673469543457,10.6577205657959,10.6420192718506,10.6263628005981,10.6107530593872,10.5951890945435,10.5796709060669,10.5641975402832,10.5487699508667,10.5333871841431,10.5180492401123,10.5027561187744,10.4875068664551,10.4723014831543,10.4571409225464,10.442024230957,10.4193773269653,10.3950119018555,10.3707599639893,10.3466215133667,10.3225955963135,10.298680305481,10.2748756408691,10.2511806488037,10.2275953292847,10.2041177749634,10.1807470321655,10.1574850082397,10.1343269348145,10.1112756729126,10.0874519348145,10.0602350234985,10.033164024353,10.0062389373779,9.97945785522461,9.95281887054443,9.9263219833374,9.8999662399292,9.87375068664551,9.84767246246338,9.82173252105713,9.79592800140381,9.77025890350342,9.74472427368164,9.71932315826416,9.69405364990234,9.66891479492188,9.65334892272949,9.64261054992676,9.63189601898193,9.6212043762207,9.6105375289917,9.59989356994629,9.58927345275879,9.5786771774292,9.5681037902832,9.55755424499512,9.54702758789062,9.53652381896973,9.52604293823242,9.51558589935303,9.50515174865723,9.4947395324707,9.48435115814209,9.47398471832275,9.46364116668701,9.45332050323486,9.44302177429199,9.43274593353271,9.42249202728271,9.41226100921631,9.40205192565918,9.39186477661133,9.38169956207275,9.37155628204346,9.36143493652344,9.35133647918701,9.34125900268555,9.33120250701904,9.32116889953613,9.31115627288818,9.3011646270752,9.29119491577148,9.28124618530273,9.27131938934326,9.26141357421875,9.2515287399292,9.24166488647461,9.23182201385498,9.22200012207031
13.6179304122925,13.6181764602661,13.6184177398682,13.6186609268188,13.6189031600952,13.6191473007202,13.6193876266479,13.6196317672729,13.6198720932007,13.6201152801514,13.6203594207764,13.6206016540527,13.6208410263062,13.6210851669312,13.6213293075562,13.6215724945068,13.6218137741089,13.6220569610596,13.6222982406616,13.6225433349609,13.622784614563,13.6230278015137,13.6232671737671,13.6235151290894,13.6237545013428,13.6239995956421,13.6242389678955,13.6244831085205,13.6247253417969,13.6249694824219,13.6252107620239,13.6254539489746,13.6256980895996,13.6259412765503,13.6261835098267,13.6264247894287,13.6266670227051,13.6269121170044,13.6271533966064,13.6273956298828,13.6276378631592,13.6278848648071,13.6281261444092,13.6283683776855,13.6286096572876,13.6288528442383,13.6290969848633,13.6293411254883,13.6295824050903,13.629825592041,13.630069732666,13.630313873291,13.6305541992188,13.6307983398438,13.6310386657715,13.6312856674194,13.6315259933472,13.6317701339722,13.6320114135742,13.6322536468506,13.6324977874756,13.632740020752,13.6329822540283,13.633225440979,13.6334705352783,13.6337118148804,13.6339569091797,13.6341972351074,13.6344423294067,13.6346855163574,13.6349277496338,13.6351699829102,13.1577825546265,13.1433067321777,13.1288623809814,13.1144495010376,13.1000680923462,13.0857181549072,13.071400642395,13.0571136474609,13.0428581237793,13.0286331176758,13.0144395828247,13.0002765655518,12.9861450195312,12.9720439910889,12.9579725265503,12.9439325332642,12.9299230575562,12.915943145752,12.9019947052002,12.8880748748779,12.8741855621338,12.8603267669678,12.8464975357056,12.8326978683472,12.8189277648926,12.8051862716675,12.7914752960205,12.7777938842773,12.7641410827637,12.7505178451538,12.7369232177734,12.7233581542969,12.7098207473755,12.6963129043579,12.6828336715698,12.6693840026855,12.6559610366821,12.6425676345825,12.6292028427124,12.6158657073975,12.6025562286377,12.5892753601074,12.5760221481323,12.5627975463867,12.5496006011963,12.5364303588867,12.5232887268066,12.5101737976074,12.4970874786377,12.4840278625488,12.4709949493408,12.457989692688,12.4450120925903,12.4320602416992,12.4191360473633,12.4062395095825,12.3933687210083,12.3805246353149,12.3677072525024,12.3549165725708,12.34215259552,12.3294143676758,12.3167028427124,12.3040170669556,12.2913570404053,12.2787237167358,12.2661161422729,12.2535343170166,12.2409791946411,12.2284488677979,12.2159442901611,12.203465461731,12.191011428833,12.1785840988159,12.1661806106567,12.1538038253784,12.141450881958,12.1291236877441,12.1168212890625,12.1045436859131,12.0922918319702,12.0800638198853,12.0678606033325,12.055682182312,12.0378684997559,12.0148887634277,11.9919967651367,11.9691915512085,11.9464731216431,11.9238414764404,11.9012937545776,11.8788328170776,11.8564558029175,11.8341627120972,11.8119535446167,11.7898273468018,11.7677841186523,11.7458229064941,11.7239360809326,11.701621055603,11.6793918609619,11.6572456359863,11.6351842880249,11.613205909729,11.5913105010986,11.5701780319214,11.5516748428345,11.5332307815552,11.5148448944092,11.4965181350708,11.4782495498657,11.4600381851196,11.4418849945068,11.4237899780273,11.4057512283325,11.3877696990967,11.3698444366455,11.351975440979,11.3341627120972,11.31640625,11.2987051010132,11.2810592651367,11.2634677886963,11.2459316253662,11.2284507751465,11.2110233306885,11.1936492919922,11.1763296127319,11.1590642929077,11.1418514251709,11.1246910095215,11.1075839996338,11.0905294418335,11.0735273361206,11.0565776824951,11.0396785736084,11.0228319168091,11.0060367584229,10.9892921447754,10.972599029541,10.9559564590454,10.9393634796143,10.9228219985962,10.9063291549683,10.8898868560791,10.8734941482544,10.8571500778198,10.8408555984497,10.8246097564697,10.8084125518799,10.7922630310059,10.7761631011963,10.7601099014282,10.7441053390503,10.7281475067139,10.7122373580933,10.6963748931885,10.6805582046509,10.6647891998291,10.6490659713745,10.6333904266357,10.6177597045898,10.6021747589111,10.5866355895996,10.5711431503296,10.5556945800781,10.5402917861938,10.5249338150024,10.5096197128296,10.4943513870239,10.4791259765625,10.4639453887939,10.4488096237183,10.4337158203125,10.4186668395996,10.403660774231,10.3840923309326,10.3598909378052,10.3358030319214,10.3118267059326,10.2879619598389,10.2642059326172,10.2405605316162,10.2170238494873,10.1935949325562,10.1702728271484,10.1470575332642,10.123948097229,10.1009435653687,10.0780429840088,10.053126335144,10.0260944366455,9.99920654296875,9.97246265411377,9.94586181640625,9.91940212249756,9.89308261871338,9.86690330505371,9.84086132049561,9.81495666503906,9.78918838500977,9.76355457305908,9.73805522918701,9.71268844604492,9.6874532699585,9.66234874725342,9.64627647399902,9.63555335998535,9.62485408782959,9.61417865753174,9.6035270690918,9.59289932250977,9.58229446411133,9.5717134475708,9.56115531921387,9.55062103271484,9.54010963439941,9.52962112426758,9.51915550231934,9.508713722229,9.49829387664795,9.4878978729248,9.47752380371094,9.46717262268066,9.45684432983398,9.44653797149658,9.43625450134277,9.42599296569824,9.4157543182373,9.40553665161133,9.39534282684326,9.38516998291016,9.37501907348633,9.36489105224609,9.35478401184082,9.34469890594482,9.33463573455811,9.32459449768066,9.31457424163818,9.30457592010498,9.29459857940674,9.28464317321777,9.27470874786377,9.26479530334473,9.25490283966064,9.24503231048584,9.235182762146,9.22535419464111,9.21554565429688,9.20575904846191
13.5217523574829,13.5219926834106,13.5222301483154,13.5224685668945,13.5227069854736,13.52294921875,13.5231866836548,13.5234251022339,13.5236625671387,13.5239067077637,13.5241441726685,13.5243825912476,13.524619102478,13.5248603820801,13.5251007080078,13.5253391265869,13.5255765914917,13.5258169174194,13.5260562896729,13.5262985229492,13.5265350341797,13.5267734527588,13.5270118713379,13.5272541046143,13.527491569519,13.5277318954468,13.5279693603516,13.5282115936279,13.528450012207,13.5286903381348,13.5289268493652,13.5291681289673,13.5294075012207,13.5296478271484,13.5298843383789,13.530125617981,13.5303640365601,13.5306062698364,13.5308437347412,13.5310840606689,13.5313196182251,13.5315637588501,13.5318012237549,13.5320415496826,13.5322780609131,13.5325202941895,13.5327587127686,13.532998085022,13.5332384109497,13.5334758758545,13.5337181091309,13.5339546203613,13.5341949462891,13.5344333648682,13.5346736907959,13.5349130630493,13.5351533889771,13.5353908538818,13.5356321334839,13.5358724594116,13.536111831665,13.5363502502441,13.5365896224976,13.5368309020996,13.5370712280273,13.5373096466064,13.5375490188599,13.537787437439,13.1370449066162,13.1226139068604,13.1082153320312,13.0938472747803,13.0795116424561,13.0652074813843,13.0509338378906,13.0366916656494,13.0224800109863,13.0082998275757,12.9941511154175,12.9800319671631,12.9659442901611,12.9518871307373,12.9378595352173,12.9238634109497,12.9098968505859,12.8959608078003,12.8820543289185,12.8681783676147,12.8543319702148,12.8405151367188,12.8267288208008,12.8129711151123,12.7992429733276,12.7855443954468,12.7718753814697,12.7582359313965,12.7446250915527,12.7310428619385,12.717490196228,12.7039651870728,12.6904706954956,12.6770038604736,12.6635656356812,12.6501560211182,12.6367740631104,12.623420715332,12.6100959777832,12.5967988967896,12.5835304260254,12.5702896118164,12.5570764541626,12.5438919067383,12.5307340621948,12.5176038742065,12.5045013427734,12.4914264678955,12.4783782958984,12.4653577804565,12.4523639678955,12.4393978118896,12.4264583587646,12.4135456085205,12.4006595611572,12.3878011703491,12.3749685287476,12.3621625900269,12.349383354187,12.336630821228,12.3239040374756,12.311203956604,12.298529624939,12.2858810424805,12.2732591629028,12.2606630325317,12.2480916976929,12.2355470657349,12.2230281829834,12.2105350494385,12.1980667114258,12.1856250762939,12.17320728302,12.1608152389526,12.1484489440918,12.1361074447632,12.1237907409668,12.111499786377,12.099232673645,12.0869913101196,12.0747737884521,12.0625820159912,12.0504140853882,12.0382709503174,12.0261516571045,12.0140571594238,12.0019874572754,11.9899415969849,11.9779195785522,11.9585981369019,11.9359197616577,11.9133272171021,11.8908195495605,11.8683977127075,11.8460597991943,11.823805809021,11.8016357421875,11.7795476913452,11.7575435638428,11.7356204986572,11.7137794494629,11.6920185089111,11.6698608398438,11.6477518081665,11.6257257461548,11.6037836074829,11.5819234848022,11.5601463317871,11.5415077209473,11.5230960845947,11.5047426223755,11.4864482879639,11.4682111740112,11.4500322341919,11.4319105148315,11.4138469696045,11.3958396911621,11.3778886795044,11.3599948883057,11.3421573638916,11.3243751525879,11.3066492080688,11.2889785766602,11.2713632583618,11.2538022994995,11.2362957000732,11.2188444137573,11.2014465332031,11.184103012085,11.1668128967285,11.1495761871338,11.1323928833008,11.1152620315552,11.098183631897,11.0811586380005,11.0641851425171,11.0472631454468,11.0303936004639,11.0135746002197,10.9968070983887,10.9800910949707,10.9634256362915,10.9468107223511,10.9302463531494,10.9137315750122,10.8972663879395,10.8808507919312,10.8644857406616,10.8481683731079,10.8319005966187,10.8156814575195,10.7995109558105,10.7833890914917,10.7673149108887,10.7512884140015,10.7353096008301,10.7193784713745,10.7034940719604,10.6876573562622,10.6718673706055,10.6561231613159,10.6404256820679,10.6247749328613,10.609169960022,10.5936098098755,10.5780963897705,10.5626277923584,10.5472049713135,10.5318260192871,10.5164928436279,10.5012044906616,10.4859590530396,10.4707593917847,10.455602645874,10.4404897689819,10.4254217147827,10.4103956222534,10.3954133987427,10.3804750442505,10.3655786514282,10.3490447998047,10.3250064849854,10.3010807037354,10.2772655487061,10.2535591125488,10.229962348938,10.2064743041992,10.1830940246582,10.1598196029663,10.1366519927979,10.1135902404785,10.0906324386597,10.0677785873413,10.0450286865234,10.0190343856812,9.99218463897705,9.96547794342041,9.93891334533691,9.91249084472656,9.88620853424072,9.86006546020508,9.834059715271,9.80819034576416,9.78245735168457,9.75685977935791,9.73139381408691,9.70606231689453,9.6808614730835,9.65579128265381,9.63921356201172,9.62850666046143,9.61782360076904,9.60716342926025,9.59652709960938,9.58591461181641,9.57532596588135,9.56476020812988,9.55421733856201,9.54369735717773,9.53320121765137,9.52272891998291,9.51227855682373,9.50185108184814,9.49144649505615,9.48106575012207,9.47070598602295,9.46037006378174,9.4500560760498,9.43976497650146,9.4294958114624,9.41924953460693,9.40902519226074,9.39882278442383,9.38864231109619,9.37848472595215,9.36834812164307,9.35823440551758,9.34814167022705,9.3380708694458,9.32802200317383,9.31799507141113,9.3079891204834,9.29800415039062,9.28804111480713,9.27810001373291,9.26817989349365,9.25827980041504,9.24840259552002,9.23854541778564,9.22870922088623,9.21889400482178,9.20909976959229,9.19932651519775,9.18957328796387
13.4269208908081,13.4271564483643,13.4273900985718,13.4276266098022,13.427864074707,13.4281005859375,13.4283332824707,13.4285707473755,13.4288082122803,13.4290428161621,13.4292774200439,13.4295129776001,13.4297485351562,13.4299879074097,13.4302206039429,13.4304571151733,13.4306907653809,13.4309310913086,13.4311666488647,13.4314012527466,13.4316358566284,13.4318714141846,13.4321088790894,13.4323453903198,13.4325799942017,13.4328165054321,13.4330539703369,13.4332904815674,13.4335231781006,13.4337615966797,13.4339942932129,13.434232711792,13.4344682693481,13.4347047805786,13.4349384307861,13.4351768493652,13.4354124069214,13.4356479644775,13.4358825683594,13.4361200332642,13.4363574981689,13.4365930557251,13.4368276596069,13.437066078186,13.4373006820679,13.4375352859497,13.4377737045288,13.4380054473877,13.4382438659668,13.4384803771973,13.4387178421021,13.4389514923096,13.4391889572144,13.4394226074219,13.4396619796753,13.4398956298828,13.4401330947876,13.4403676986694,13.4406070709229,13.4408416748047,13.4410800933838,13.4413137435913,13.4415502548218,13.4417867660522,13.1163721084595,13.1019868850708,13.0876331329346,13.0733108520508,13.0590200424194,13.0447597503662,13.0305309295654,13.0163335800171,13.0021667480469,12.9880304336548,12.9739255905151,12.9598503112793,12.9458065032959,12.9317922592163,12.9178085327148,12.9038553237915,12.8899326324463,12.8760395050049,12.8621759414673,12.8483428955078,12.8345384597778,12.820764541626,12.8070201873779,12.7933053970337,12.7796192169189,12.765962600708,12.7523355484009,12.7387371063232,12.7251672744751,12.7116270065308,12.6981153488159,12.6846323013306,12.6711778640747,12.6577520370483,12.6443548202515,12.6309862136841,12.6176452636719,12.6043319702148,12.5910472869873,12.5777912139893,12.5645618438721,12.5513610839844,12.5381879806519,12.5250425338745,12.511923789978,12.498833656311,12.4857702255249,12.4727344512939,12.4597253799438,12.4467439651489,12.4337882995605,12.4208612442017,12.4079599380493,12.3950862884521,12.3822383880615,12.3694171905518,12.3566236495972,12.3438558578491,12.3311138153076,12.318398475647,12.3057098388672,12.2930469512939,12.2804098129272,12.2677984237671,12.2552137374878,12.242654800415,12.2301206588745,12.2176132202148,12.2051305770874,12.1926736831665,12.1802425384521,12.16783618927,12.1554546356201,12.1430988311768,12.1307687759399,12.1184635162354,12.1061820983887,12.0939264297485,12.0816955566406,12.0694885253906,12.0573072433472,12.0451498031616,12.0330171585083,12.0209093093872,12.008825302124,11.9967660903931,11.98473072052,11.9727191925049,11.9607315063477,11.9487686157227,11.9368295669556,11.9249134063721,11.9130220413208,11.9011535644531,11.8803634643555,11.8579816818237,11.8356828689575,11.8134679794312,11.7913360595703,11.769287109375,11.7473201751709,11.725435256958,11.7036323547363,11.6819095611572,11.660267829895,11.6382732391357,11.616283416748,11.5943765640259,11.5725517272949,11.5508089065552,11.5313596725464,11.5129795074463,11.4946584701538,11.4763956069946,11.4581909179688,11.4400434494019,11.4219541549683,11.4039211273193,11.3859453201294,11.3680257797241,11.3501625061035,11.3323554992676,11.3146047592163,11.2969093322754,11.2792692184448,11.2616834640503,11.2441530227661,11.226676940918,11.2092552185059,11.1918869018555,11.1745729446411,11.1573123931885,11.1401042938232,11.122950553894,11.1058483123779,11.0887994766235,11.0718021392822,11.0548572540283,11.0379648208618,11.0211229324341,11.0043325424194,10.9875936508179,10.9709053039551,10.9542675018311,10.9376802444458,10.9211435317993,10.904655456543,10.8882188796997,10.8718309402466,10.8554916381836,10.8392019271851,10.8229608535767,10.8067684173584,10.7906246185303,10.774528503418,10.7584810256958,10.7424812316895,10.7265291213989,10.7106227874756,10.6947650909424,10.6789541244507,10.6631889343262,10.6474714279175,10.6317987442017,10.6161737442017,10.6005935668945,10.5850591659546,10.5695705413818,10.554126739502,10.5387287139893,10.5233745574951,10.5080661773682,10.4928016662598,10.4775810241699,10.4624052047729,10.4472732543945,10.4321842193604,10.417140007019,10.4021377563477,10.3871793746948,10.3722639083862,10.3573913574219,10.3425607681274,10.3277740478516,10.3130283355713,10.2903566360474,10.2665910720825,10.2429342269897,10.219386100769,10.1959466934204,10.1726140975952,10.1493883132935,10.1262674331665,10.1032524108887,10.0803422927856,10.0575351715088,10.0348310470581,10.0119829177856,9.9851713180542,9.95850276947021,9.93197631835938,9.90559005737305,9.87934398651123,9.85323619842529,9.82726669311523,9.80143356323242,9.77573585510254,9.75017261505127,9.7247428894043,9.6994457244873,9.67427921295166,9.64924335479736,9.63216209411621,9.62147045135498,9.61080265045166,9.60015869140625,9.58953762054443,9.57894039154053,9.56836700439453,9.55781650543213,9.54728889465332,9.53678512573242,9.52630424499512,9.51584625244141,9.50541114807129,9.49499893188477,9.48460960388184,9.4742431640625,9.46389865875244,9.45357704162598,9.44327831268311,9.43300151824951,9.42274761199951,9.41251564025879,9.40230560302734,9.39211845397949,9.3819522857666,9.3718090057373,9.36168670654297,9.35158729553223,9.34150886535645,9.33145236968994,9.32141780853271,9.31140518188477,9.30141353607178,9.29144287109375,9.281494140625,9.27156639099121,9.26165962219238,9.25177478790283,9.24190998077393,9.2320671081543,9.22224521636963,9.21244335174561,9.20266246795654,9.19290256500244,9.1831636428833,9.17344570159912
