12.0086040496826,12.008994102478,12.0093822479248,12.0097694396973,12.0101566314697,12.0105476379395,12.0109357833862,12.0113258361816,12.0117130279541,12.0121030807495,12.0124931335449,12.0128803253174,12.0132694244385,12.0136585235596,12.0140495300293,12.0144376754761,12.0148258209229,12.0152149200439,12.0156059265137,12.0159950256348,12.0163822174072,12.0167713165283,12.017162322998,12.0175533294678,12.0179395675659,12.0183277130127,12.0187196731567,12.0191078186035,12.0194988250732,12.0198841094971,12.0202760696411,12.0206670761108,12.0210571289062,12.0214433670044,12.0218343734741,12.0222234725952,12.0226144790649,12.0230016708374,12.0233926773071,12.0237827301025,12.0241718292236,12.0245628356934,12.0249500274658,12.0253410339355,12.025731086731,12.026123046875,12.0265102386475,12.0269002914429,12.0272912979126,12.0276823043823,12.0280704498291,12.0284576416016,12.0288505554199,12.029242515564,12.0296297073364,12.0300188064575,12.0304117202759,12.0289535522461,12.0171604156494,12.0053901672363,11.9936428070068,11.9819192886353,11.9702177047729,11.9585399627686,11.9468841552734,11.9352512359619,11.923641204834,11.9120531082153,11.9004878997803,11.8889455795288,11.8774251937866,11.8659267425537,11.8544511795044,11.8429975509644,11.8315658569336,11.8201570510864,11.8087692260742,11.7974033355713,11.7860593795776,11.7747383117676,11.7634372711182,11.7521591186523,11.7409019470215,11.7296667098999,11.7184534072876,11.7072601318359,11.6960897445679,11.6849393844604,11.6738109588623,11.6627035140991,11.6516170501709,11.640552520752,11.6295080184937,11.6184844970703,11.6074819564819,11.5965003967285,11.5855398178101,11.5745992660522,11.5636796951294,11.5527811050415,11.5419025421143,11.531044960022,11.5202074050903,11.5093898773193,11.4985933303833,11.4878168106079,11.4770603179932,11.4663238525391,11.4556074142456,11.4449110031128,11.4342355728149,11.4235792160034,11.4129419326782,11.402325630188,11.3917284011841,11.3811511993408,11.3705930709839,11.3600549697876,11.349536895752,11.3390378952026,11.3285579681396,11.318097114563,11.307656288147,11.2972345352173,11.2868318557739,11.2764482498169,11.2660837173462,11.2557382583618,11.2454118728638,11.2351045608521,11.2189016342163,11.2012643814087,11.1836833953857,11.1661577224731,11.1486864089966,11.1312694549561,11.1139068603516,11.0965986251831,11.0793447494507,11.0621433258057,11.0449962615967,11.0279016494751,11.0108594894409,10.9938707351685,10.9769334793091,10.9600496292114,10.9439353942871,10.9306049346924,10.9173078536987,10.9040422439575,10.8908090591431,10.8776073455811,10.8644380569458,10.851300239563,10.8381948471069,10.8251209259033,10.8120784759521,10.7990665435791,10.7860870361328,10.7731380462646,10.7602205276489,10.7473335266113,10.7344779968262,10.7216529846191,10.7088584899902,10.6960935592651,10.6833600997925,10.6706571578979,10.6579837799072,10.6453399658203,10.6327266693115,10.6201438903809,10.6075897216797,10.5950660705566,10.5825719833374,10.5701065063477,10.5576705932617,10.5452642440796,10.5328874588013,10.5205392837524,10.5082197189331,10.4959287643433,10.4836673736572,10.4714336395264,10.4592294692993,10.4470529556274,10.4349050521851,10.4227848052979,10.4106931686401,10.3986301422119,10.3865938186646,10.3745861053467,10.362606048584,10.3506536483765,10.3387289047241,10.3268308639526,10.3149604797363,10.3031177520752,10.2913026809692,10.2795133590698,10.2677516937256,10.2560167312622,10.244309425354,10.2326278686523,10.2209730148315,10.2093448638916,10.1970691680908,10.1827383041382,10.1684484481812,10.1541986465454,10.139988899231,10.1258182525635,10.1116876602173,10.0975961685181,10.0835437774658,10.0695304870605,10.0555562973022,10.0416212081909,10.0277242660522,10.0138654708862,10.0000448226929,9.98626327514648,9.97251796722412,9.95881175994873,9.94514274597168,9.93151187896729,9.91791725158691,9.9043607711792,9.89084053039551,9.87735748291016,9.86391162872314,9.85050106048584,9.83712863922119,9.82379150390625,9.81048965454102,9.79722499847412,9.78399562835693,9.77080249786377,9.75764465332031,9.74452209472656,9.73143482208252,9.71838188171387,9.70536518096924,9.6923828125,9.67943477630615,9.66652202606201,9.65364265441895,9.64079856872559,9.6279878616333,9.61169624328613,9.59089374542236,9.57018280029297,9.549560546875,9.52902603149414,9.50505828857422,9.48078060150146,9.45662689208984,9.43259525299072,9.40868663787842,9.39445209503174,9.38428688049316,9.37414360046387,9.36402225494385,9.35392189025879,9.34384441375732,9.33378791809082,9.32375335693359,9.31374073028564,9.30374908447266,9.29377841949463,9.28382968902588,9.27390193939209,9.26399612426758,9.25411033630371,9.24424648284912,9.23440361022949,9.22458171844482,9.2147798538208,9.20499992370605,9.19524002075195,9.18550109863281,9.17578220367432,9.16608428955078,9.15640640258789,9.14674949645996,9.13711261749268,9.12749671936035,9.11790084838867,9.10832500457764,9.09876823425293,9.08923244476318,9.07971668243408,9.07022094726562,9.0607442855835,9.05128765106201,9.04185104370117,9.03243446350098,9.02303695678711,9.01365947723389,9.00430011749268,8.99496173858643,8.98564147949219,8.97634124755859,8.96706008911133,8.95779800415039,8.9485559463501,8.93933200836182,8.93012714385986,8.92094135284424,8.91177368164062,8.90262603759766,8.8934965133667,8.88438606262207,8.87529373168945,8.86622047424316,8.85716533660889,8.84812927246094,8.83911037445068,8.83011150360107,8.82112979888916,8.81216621398926,8.80322170257568,8.79429531097412,8.78538608551025,8.77649593353271,8.76762294769287,8.75876808166504
11.9338912963867,11.9342737197876,11.9346570968628,11.935040473938,11.9354257583618,11.9358100891113,11.9361925125122,11.9365768432617,11.9369592666626,11.9373455047607,11.9377279281616,11.9381132125854,11.9384965896606,11.9388809204102,11.9392652511597,11.9396505355835,11.9400358200073,11.9404182434082,11.9408044815063,11.9411888122559,11.9415731430054,11.9419546127319,11.9423398971558,11.9427251815796,11.9431085586548,11.9434957504272,11.9438781738281,11.9442615509033,11.9446477890015,11.945032119751,11.9454164505005,11.9457998275757,11.9461851119995,11.946572303772,11.9469566345215,11.9473390579224,11.9477233886719,11.9481105804443,11.9484968185425,11.9488801956177,11.9492616653442,11.9496488571167,11.9500350952148,11.950421333313,11.9508037567139,11.9511890411377,11.9515752792358,11.951961517334,11.9523429870605,11.9527292251587,11.9531145095825,11.953501701355,11.9538850784302,11.9542694091797,11.9546556472778,11.955041885376,11.9554243087769,11.955810546875,11.9561958312988,11.9551267623901,11.9434776306152,11.9318513870239,11.9202480316162,11.9086666107178,11.8971080780029,11.8855724334717,11.8740587234497,11.862566947937,11.8510971069336,11.8396501541138,11.8282251358032,11.816822052002,11.80544090271,11.7940816879272,11.7827444076538,11.7714290618896,11.7601346969604,11.7488632202148,11.7376127243042,11.7263832092285,11.7151756286621,11.7039890289307,11.6928243637085,11.6816806793213,11.6705589294434,11.6594572067261,11.6483774185181,11.637318611145,11.6262798309326,11.6152629852295,11.604266166687,11.5932912826538,11.5823364257812,11.5714025497437,11.5604887008667,11.5495958328247,11.5387229919434,11.527871131897,11.5170402526855,11.5062284469604,11.4954376220703,11.4846668243408,11.473916053772,11.4631862640381,11.4524755477905,11.4417848587036,11.4311151504517,11.420464515686,11.4098339080811,11.3992223739624,11.3886308670044,11.378059387207,11.3675079345703,11.3569755554199,11.3464622497559,11.3359689712524,11.3254947662354,11.3150396347046,11.3046045303345,11.2941884994507,11.2837915420532,11.2734136581421,11.2630548477173,11.2527141571045,11.2423934936523,11.2320919036865,11.2198581695557,11.2022190093994,11.1846342086792,11.1671056747437,11.1496315002441,11.1322116851807,11.1148462295532,11.0975351333618,11.0802774429321,11.0630741119385,11.0459232330322,11.0288257598877,11.0117816925049,10.9947900772095,10.9778499603271,10.9609622955322,10.9441270828247,10.9273433685303,10.9106111526489,10.8961610794067,10.8829469680786,10.8697652816772,10.856614112854,10.8434963226318,10.8304090499878,10.8173542022705,10.8043298721313,10.7913370132446,10.7783756256104,10.7654457092285,10.7525463104248,10.7396783828735,10.7268400192261,10.7140331268311,10.7012567520142,10.6885108947754,10.6757955551147,10.6631097793579,10.6504545211792,10.6378288269043,10.6252336502075,10.6126680374146,10.6001319885254,10.58762550354,10.5751485824585,10.5627012252808,10.5502824783325,10.5378932952881,10.5255336761475,10.5132026672363,10.5009002685547,10.4886264801025,10.4763822555542,10.464165687561,10.4519777297974,10.4398183822632,10.4276876449585,10.415584564209,10.4035091400146,10.3914623260498,10.3794431686401,10.3674516677856,10.3554887771606,10.3435525894165,10.3316431045532,10.3197622299194,10.3079080581665,10.2960815429688,10.2842817306519,10.2725095748901,10.2607641220093,10.2490453720093,10.2373523712158,10.2256870269775,10.2140483856201,10.2024354934692,10.1908502578735,10.1792898178101,10.1677560806274,10.1562490463257,10.1447677612305,10.1333122253418,10.1218824386597,10.1104784011841,10.099100112915,10.0877475738525,10.0753946304321,10.0614042282104,10.0474519729614,10.0335388183594,10.01966381073,10.0058279037476,9.99203014373779,9.97826957702637,9.9645471572876,9.95086288452148,9.93721580505371,9.92360591888428,9.91003322601318,9.89649868011475,9.88299942016602,9.86953830718994,9.85611343383789,9.84272480010986,9.82937240600586,9.81605625152588,9.80277633666992,9.78953170776367,9.77632331848145,9.76315021514893,9.75001335144043,9.73691082000732,9.72384357452393,9.71081256866455,9.69781494140625,9.68485260009766,9.67192554473877,9.65903186798096,9.64617347717285,9.63334846496582,9.62055778503418,9.60780143737793,9.59507846832275,9.58131504058838,9.56064414978027,9.54006290435791,9.51956939697266,9.49845218658447,9.47420787811279,9.45008754730225,9.42609024047852,9.40221405029297,9.3875093460083,9.37735939025879,9.36723041534424,9.35712337493896,9.34703922271729,9.33697605133057,9.32693481445312,9.31691455841064,9.30691623687744,9.2969388961792,9.28698348999023,9.27704906463623,9.2671365737915,9.25724411010742,9.24737358093262,9.23752403259277,9.22769546508789,9.21788692474365,9.20810031890869,9.19833374023438,9.18858814239502,9.17886257171631,9.16915893554688,9.15947437286377,9.14981079101562,9.14016819000244,9.1305456161499,9.12094211578369,9.11136054992676,9.10179805755615,9.09225559234619,9.08273315429688,9.0732307434082,9.06374835968018,9.05428600311279,9.04484272003174,9.03541946411133,9.02601623535156,9.01663208007812,9.00726699829102,8.99792194366455,8.98859596252441,8.97929000854492,8.97000312805176,8.96073436737061,8.9514856338501,8.94225597381592,8.93304538726807,8.92385292053223,8.91468048095703,8.90552616119385,8.89639091491699,8.88727378845215,8.87817573547363,8.86909675598145,8.86003589630127,8.85099315643311,8.84196949005127,8.83296394348145,8.82397747039795,8.81500816345215,8.80605792999268,8.7971248626709,8.78821086883545,8.7793140411377,8.77043533325195,8.76157569885254,8.75273323059082,8.7439079284668
11.8600978851318,11.8604774475098,11.860857963562,11.8612384796143,11.8616132736206,11.8619928359985,11.8623733520508,11.8627529144287,11.8631315231323,11.8635120391846,11.8638906478882,11.8642711639404,11.8646488189697,11.8650283813477,11.8654098510742,11.8657894134521,11.8661689758301,11.8665475845337,11.8669261932373,11.8673067092896,11.8676872253418,11.8680648803711,11.868447303772,11.8688259124756,11.8692054748535,11.8695850372314,11.8699636459351,11.8703451156616,11.8707246780396,11.8711032867432,11.8714838027954,11.871865272522,11.8722429275513,11.8726224899292,11.8730039596558,11.873384475708,11.8737659454346,11.8741436004639,11.8745222091675,11.8749046325684,11.8752851486206,11.8756647109985,11.8760442733765,11.876425743103,11.8768072128296,11.8771858215332,11.8775634765625,11.8779449462891,11.8783254623413,11.8787069320679,11.8790845870972,11.8794660568237,11.8798484802246,11.8802299499512,11.8806085586548,11.8809871673584,11.8813695907593,11.8817520141602,11.8821306228638,11.8825092315674,11.8828897476196,11.8822002410889,11.8706932067871,11.8592081069946,11.8477449417114,11.8363046646118,11.8248863220215,11.8134899139404,11.8021144866943,11.7907619476318,11.7794313430786,11.7681217193604,11.7568340301514,11.7455682754517,11.7343244552612,11.7231016159058,11.7118997573853,11.700719833374,11.6895618438721,11.6784238815308,11.6673078536987,11.6562128067017,11.6451387405396,11.6340856552124,11.6230535507202,11.6120433807373,11.6010522842407,11.5900831222534,11.5791349411011,11.5682067871094,11.5572986602783,11.5464124679565,11.5355453491211,11.5247001647949,11.5138740539551,11.5030689239502,11.492283821106,11.4815187454224,11.4707746505737,11.4600496292114,11.4493455886841,11.4386606216431,11.427996635437,11.4173517227173,11.4067268371582,11.3961210250854,11.3855361938477,11.3749694824219,11.3644237518311,11.3538970947266,11.3433895111084,11.3329019546509,11.3224334716797,11.3119840621948,11.3015546798706,11.2911443710327,11.2807521820068,11.2703800201416,11.2600269317627,11.2496929168701,11.2393770217896,11.2290811538696,11.2188034057617,11.2031726837158,11.185585975647,11.1680536270142,11.1505765914917,11.1331539154053,11.1157855987549,11.0984716415405,11.0812110900879,11.064003944397,11.0468511581421,11.0297508239746,11.0127038955688,10.9957084655762,10.9787664413452,10.9618759155273,10.9450378417969,10.9282512664795,10.9115161895752,10.8948316574097,10.8781986236572,10.8619337081909,10.8488025665283,10.8357028961182,10.8226346969604,10.8095979690552,10.7965927124023,10.783618927002,10.7706756591797,10.7577638626099,10.7448835372925,10.7320327758789,10.7192134857178,10.7064247131348,10.6936664581299,10.6809387207031,10.6682405471802,10.6555738449097,10.6429357528687,10.6303281784058,10.617751121521,10.6052026748657,10.5926847457886,10.5801954269409,10.5677366256714,10.5553064346313,10.5429048538208,10.5305337905884,10.5181903839111,10.5058765411377,10.4935913085938,10.4813346862793,10.4691076278687,10.4569082260132,10.4447374343872,10.4325942993164,10.4204797744751,10.4083938598633,10.3963356018066,10.3843050003052,10.3723030090332,10.3603277206421,10.3483800888062,10.3364610671997,10.3245687484741,10.3127031326294,10.3008661270142,10.2890548706055,10.277271270752,10.2655153274536,10.2537851333618,10.2420825958252,10.2304058074951,10.2187566757202,10.2071332931519,10.1955366134644,10.1839666366577,10.1724224090576,10.1609039306641,10.1494121551514,10.1379461288452,10.1265058517456,10.1150913238525,10.103702545166,10.092339515686,10.0810022354126,10.0696897506714,10.0584030151367,10.0471420288086,10.0359058380127,10.024694442749,10.0135087966919,10.0023469924927,9.9912109375,9.98009967803955,9.96901226043701,9.95658874511719,9.94292640686035,9.92930126190186,9.9157133102417,9.90216255187988,9.88864803314209,9.87517166137695,9.86173057556152,9.84832668304443,9.83495903015137,9.82162857055664,9.80833339691162,9.79507350921631,9.78185081481934,9.76866340637207,9.7555103302002,9.74239349365234,9.7293119430542,9.71626567840576,9.70325374603271,9.69027709960938,9.67733478546143,9.66442775726318,9.65155410766602,9.63871479034424,9.62591075897217,9.61313915252686,9.60040283203125,9.5876989364624,9.57502937316895,9.56239318847656,9.54979038238525,9.53058433532715,9.51013278961182,9.48976802825928,9.46764469146729,9.44355773925781,9.41959285736084,9.39575004577637,9.38057708740234,9.37044143676758,9.36032772064209,9.35023593902588,9.34016609191895,9.33011817932129,9.32009124755859,9.31008529663086,9.30010223388672,9.29013919830322,9.28019905090332,9.27027893066406,9.26038074493408,9.25050258636475,9.24064636230469,9.23081111907959,9.22099590301514,9.21120262145996,9.20142936706543,9.19167709350586,9.18194580078125,9.1722354888916,9.16254425048828,9.15287494659424,9.14322471618652,9.13359546661377,9.12398719787598,9.11439800262451,9.10482883453369,9.09528064727783,9.08575248718262,9.07624340057373,9.06675434112549,9.05728530883789,9.04783630371094,9.03840732574463,9.02899742126465,9.019606590271,9.01023578643799,9.00088500976562,8.99155235290527,8.98223972320557,8.9729471206665,8.96367263793945,8.95441818237305,8.94518184661865,8.93596458435059,8.92676734924316,8.91758823394775,8.90842819213867,8.8992862701416,8.89016437530518,8.88106060028076,8.87197494506836,8.86290836334229,8.85385990142822,8.84483051300049,8.83581924438477,8.82682609558105,8.81785106658936,8.80889511108398,8.79995632171631,8.79103660583496,8.78213405609131,8.77325057983398,8.76438426971436,8.75553607940674,8.74670600891113,8.73789310455322,8.72909832000732
11.7872152328491,11.7875919342041,11.7879657745361,11.7883367538452,11.7887134552002,11.7890892028809,11.7894620895386,11.7898368835449,11.7902116775513,11.7905883789062,11.7909603118896,11.791335105896,11.791708946228,11.7920866012573,11.792462348938,11.7928352355957,11.7932081222534,11.7935857772827,11.7939605712891,11.7943353652954,11.7947111129761,11.7950849533081,11.7954616546631,11.7958345413208,11.7962102890015,11.7965841293335,11.7969608306885,11.7973337173462,11.7977104187012,11.7980871200562,11.7984609603882,11.7988348007202,11.7992115020752,11.7995872497559,11.7999601364136,11.8003349304199,11.8007125854492,11.8010892868042,11.8014659881592,11.8018379211426,11.8022117614746,11.8025894165039,11.8029670715332,11.8033409118652,11.8037157058716,11.8040914535522,11.8044681549072,11.8048448562622,11.8052167892456,11.8055953979492,11.8059711456299,11.8063478469849,11.8067197799683,11.8070955276489,11.8074750900269,11.8078498840332,11.8082246780396,11.8085994720459,11.8089761734009,11.8093519210815,11.8097276687622,11.8101015090942,11.8104810714722,11.8101587295532,11.7987909317017,11.7874441146851,11.7761192321777,11.7648162841797,11.7535352706909,11.7422761917114,11.7310380935669,11.7198209762573,11.7086267471313,11.697452545166,11.68630027771,11.6751689910889,11.6640586853027,11.6529703140259,11.6419019699097,11.6308555603027,11.6198301315308,11.6088247299194,11.5978403091431,11.5868768692017,11.5759344100952,11.5650129318237,11.5541114807129,11.5432300567627,11.5323696136475,11.5215301513672,11.5107107162476,11.4999113082886,11.4891319274902,11.4783725738525,11.4676342010498,11.4569158554077,11.446216583252,11.4355382919312,11.4248790740967,11.4142398834229,11.4036207199097,11.3930215835571,11.3824415206909,11.3718814849854,11.3613414764404,11.3508205413818,11.3403186798096,11.3298368453979,11.3193740844727,11.3089303970337,11.2985057830811,11.2881011962891,11.2777156829834,11.2673482894897,11.2570009231567,11.2466716766357,11.2363624572754,11.2260713577271,11.215799331665,11.2041273117065,11.1865367889404,11.1690015792847,11.1515216827393,11.1340961456299,11.1167249679565,11.0994081497192,11.0821447372437,11.0649347305298,11.047779083252,11.0306758880615,11.0136251449585,10.9966278076172,10.9796829223633,10.9627895355225,10.945948600769,10.9291591644287,10.9124212265015,10.895733833313,10.8790979385376,10.862512588501,10.8459787368774,10.829493522644,10.8148708343506,10.8018531799316,10.7888669967651,10.7759113311768,10.7629871368408,10.750093460083,10.7372312545776,10.7243986129761,10.711597442627,10.6988277435303,10.6860866546631,10.6733770370483,10.6606969833374,10.6480474472046,10.6354284286499,10.6228380203247,10.6102781295776,10.5977478027344,10.5852470397949,10.5727758407593,10.5603342056274,10.5479211807251,10.5355377197266,10.5231828689575,10.5108575820923,10.4985609054565,10.4862928390503,10.4740533828735,10.4618425369263,10.4496603012085,10.4375066757202,10.4253807067871,10.4132823944092,10.4012126922607,10.3891716003418,10.3771572113037,10.3651714324951,10.3532133102417,10.3412818908691,10.3293790817261,10.3175029754639,10.3056545257568,10.2938327789307,10.2820377349854,10.2702703475952,10.2585296630859,10.2468166351318,10.2351293563843,10.2234687805176,10.2118349075317,10.2002277374268,10.1886463165283,10.1770915985107,10.165563583374,10.1540603637695,10.1425838470459,10.1311330795288,10.1197090148926,10.1083097457886,10.0969362258911,10.0855884552002,10.0742654800415,10.0629692077637,10.0516977310181,10.0404510498047,10.0292301177979,10.0180330276489,10.0068626403809,9.9957160949707,9.98459434509277,9.97349739074707,9.96242523193359,9.95137786865234,9.940354347229,9.92935562133789,9.91838073730469,9.90743064880371,9.89650440216064,9.88560199737549,9.87472438812256,9.86387062072754,9.85303974151611,9.84055328369141,9.8272066116333,9.81389617919922,9.80062198638916,9.78738403320312,9.7741813659668,9.76101398468018,9.74788284301758,9.73478603363037,9.72172451019287,9.70869827270508,9.69570732116699,9.6827507019043,9.66982841491699,9.65694141387939,9.64408779144287,9.63126850128174,9.618483543396,9.60573291778564,9.59301471710205,9.58033084869385,9.56768035888672,9.55506420135498,9.54248046875,9.52992916107178,9.51741218566895,9.50071334838867,9.48038959503174,9.46015167236328,9.43703746795654,9.41310501098633,9.38929462432861,9.37365436553955,9.36353397369385,9.35343551635742,9.34335803985596,9.33330345153809,9.32326984405518,9.31325721740723,9.30326652526855,9.29329776763916,9.28334999084473,9.27342319488525,9.26351833343506,9.25363445281982,9.24377059936523,9.23392868041992,9.22410774230957,9.21430778503418,9.20452785491943,9.19476890563965,9.18503093719482,9.17531394958496,9.16561698913574,9.15594005584717,9.14628410339355,9.13664817810059,9.12703323364258,9.11743831634521,9.10786247253418,9.09830760955811,9.08877277374268,9.07925796508789,9.06976318359375,9.06028747558594,9.05083179473877,9.04139614105225,9.03198051452637,9.02258396148682,9.01320648193359,9.00384902954102,8.99451160430908,8.98519229888916,8.97589302062988,8.96661281585693,8.95735168457031,8.94810962677002,8.93888664245605,8.92968273162842,8.92049789428711,8.91133213043213,8.90218448638916,8.89305591583252,8.88394641876221,8.87485504150391,8.86578273773193,8.85672855377197,8.84769344329834,8.8386754989624,8.82967758178711,8.82069683074951,8.81173419952393,8.80279064178467,8.79386425018311,8.78495693206787,8.77606678009033,8.7671947479248,8.75834083557129,8.74950504302979,8.74068737030029,8.7318868637085,8.72310352325439,8.7143383026123
11.7152214050293,11.7155914306641,11.7159614562988,11.7163333892822,11.716700553894,11.7170705795288,11.7174415588379,11.717812538147,11.7181825637817,11.7185506820679,11.718921661377,11.7192935943604,11.7196617126465,11.7200336456299,11.7204027175903,11.7207727432251,11.7211446762085,11.7215137481689,11.7218837738037,11.7222547531128,11.7226247787476,11.7229948043823,11.7233667373657,11.7237358093262,11.7241086959839,11.7244777679443,11.7248497009277,11.7252178192139,11.7255897521973,11.7259588241577,11.7263307571411,11.7267026901245,11.7270727157593,11.7274417877197,11.7278127670288,11.7281837463379,11.7285528182983,11.7289228439331,11.7292976379395,11.7296686172485,11.7300405502319,11.7304096221924,11.7307786941528,11.7311506271362,11.7315216064453,11.7318935394287,11.7322635650635,11.7326345443726,11.7330074310303,11.7333793640137,11.7337465286255,11.7341203689575,11.7344903945923,11.7348613739014,11.7352313995361,11.7356023788452,11.7359762191772,11.736346244812,11.7367181777954,11.7370862960815,11.7374601364136,11.7378339767456,11.7382040023804,11.7385740280151,11.7389459609985,11.7389850616455,11.7277536392212,11.7165431976318,11.7053546905518,11.6941871643066,11.6830406188965,11.6719160079956,11.6608123779297,11.6497297286987,11.6386680603027,11.6276273727417,11.6166076660156,11.6056079864502,11.594630241394,11.5836734771729,11.5727367401123,11.5618200302124,11.5509252548218,11.5400505065918,11.5291957855225,11.5183620452881,11.5075483322144,11.4967546463013,11.4859809875488,11.4752283096313,11.4644956588745,11.4537830352783,11.4430894851685,11.4324169158936,11.4217643737793,11.4111309051514,11.4005174636841,11.3899240493774,11.3793497085571,11.3687953948975,11.3582601547241,11.3477449417114,11.3372497558594,11.3267726898193,11.3163156509399,11.3058776855469,11.2954597473145,11.285059928894,11.2746801376343,11.2643184661865,11.2539768218994,11.2436532974243,11.2333488464355,11.2230634689331,11.212797164917,11.2025489807129,11.1874885559082,11.1699504852295,11.1524667739868,11.1350383758545,11.1176643371582,11.1003446578979,11.0830783843994,11.0658655166626,11.0487070083618,11.0316009521484,11.0145483016968,10.9975471496582,10.9805994033813,10.9637031555176,10.9468593597412,10.9300670623779,10.9133262634277,10.8966369628906,10.8799982070923,10.8634099960327,10.8468723297119,10.8303852081299,10.8139486312866,10.7975606918335,10.7812232971191,10.768214225769,10.7553091049194,10.7424335479736,10.7295894622803,10.716775894165,10.7039928436279,10.6912403106689,10.6785182952881,10.665825843811,10.6531648635864,10.6405324935913,10.6279306411743,10.6153583526611,10.6028165817261,10.5903034210205,10.5778207778931,10.5653667449951,10.552942276001,10.5405464172363,10.5281810760498,10.5158433914185,10.5035352706909,10.4912548065186,10.47900390625,10.4667816162109,10.4545879364014,10.4424228668213,10.4302854537964,10.418176651001,10.4060955047607,10.3940420150757,10.3820171356201,10.3700199127197,10.3580503463745,10.3461084365845,10.3341941833496,10.3223066329956,10.3104467391968,10.2986145019531,10.2868089675903,10.2750301361084,10.2632789611816,10.2515544891357,10.2398567199707,10.2281856536865,10.2165412902832,10.2049226760864,10.1933307647705,10.1817655563354,10.1702260971069,10.1587133407593,10.1472263336182,10.1357650756836,10.1243295669556,10.1129207611084,10.1015367507935,10.0901784896851,10.0788459777832,10.0675382614136,10.0562572479248,10.0450000762939,10.0337686538696,10.0225620269775,10.011381149292,10.0002241134644,9.98909282684326,9.97798633575439,9.96690368652344,9.95584583282471,9.9448127746582,9.93380451202393,9.92282009124756,9.91186046600342,9.90092468261719,9.89001274108887,9.87912464141846,9.86826133728027,9.85742092132568,9.84660530090332,9.83581256866455,9.82504367828369,9.81429862976074,9.80357646942139,9.79287910461426,9.78220367431641,9.77155208587646,9.76092338562012,9.75031757354736,9.7397346496582,9.7271900177002,9.71414947509766,9.70114421844482,9.68817234039307,9.67523574829102,9.66233444213867,9.6494665145874,9.63663291931152,9.62383365631104,9.61106777191162,9.5983362197876,9.58563899993896,9.57297420501709,9.56034374237061,9.54774570465088,9.53518199920654,9.52264976501465,9.51015186309814,9.49768543243408,9.48525238037109,9.47102928161621,9.45083141326904,9.4305248260498,9.40662574768066,9.38284778594971,9.36674213409424,9.35663604736328,9.34655284881592,9.33649063110352,9.32645034790039,9.31643104553223,9.30643367767334,9.29645824432373,9.28650379180908,9.27657032012939,9.26665782928467,9.25676727294922,9.24689769744873,9.2370491027832,9.22722148895264,9.21741390228271,9.20762825012207,9.19786262512207,9.18811798095703,9.17839431762695,9.16869068145752,9.15900802612305,9.14934539794922,9.13970279693604,9.13008117675781,9.12047958374023,9.1108980178833,9.10133647918701,9.09179592132568,9.08227443695068,9.07277297973633,9.06329154968262,9.05382919311523,9.04438781738281,9.03496551513672,9.02556228637695,9.01617908477783,9.00681591033936,8.99747180938721,8.98814678192139,8.97884082794189,8.96955490112305,8.96028804779053,8.95103931427002,8.94181060791016,8.93260097503662,8.9234094619751,8.91423797607422,8.90508460998535,8.89595031738281,8.88683414459229,8.87773704528809,8.86865901947021,8.85959911346436,8.85055732727051,8.84153461456299,8.83253002166748,8.82354354858398,8.81457614898682,8.80562591552734,8.79669380187988,8.78778076171875,8.77888488769531,8.77000713348389,8.76114845275879,8.75230598449707,8.74348258972168,8.73467636108398,8.7258882522583,8.71711730957031,8.70836448669434,8.69962882995605
11.6441049575806,11.6444692611694,11.6448316574097,11.6451988220215,11.6455640792847,11.6459312438965,11.6462965011597,11.6466598510742,11.647027015686,11.6473922729492,11.6477575302124,11.6481237411499,11.6484909057617,11.6488561630249,11.6492233276367,11.6495866775513,11.6499528884888,11.6503190994263,11.6506853103638,11.6510496139526,11.6514148712158,11.6517820358276,11.6521501541138,11.6525135040283,11.6528806686401,11.6532468795776,11.6536130905151,11.653977394104,11.6543455123901,11.654709815979,11.6550769805908,11.6554431915283,11.6558084487915,11.6561756134033,11.6565418243408,11.656907081604,11.6572732925415,11.6576414108276,11.6580076217651,11.6583738327026,11.6587390899658,11.659107208252,11.6594724655151,11.659839630127,11.6602039337158,11.6605730056763,11.6609392166138,11.6613054275513,11.6616687774658,11.6620388031006,11.6624050140381,11.6627721786499,11.6631364822388,11.6635046005249,11.6638708114624,11.6642389297485,11.6646032333374,11.6649713516235,11.665337562561,11.6657056808472,11.6660709381104,11.6664381027222,11.666805267334,11.6671743392944,11.6675415039062,11.6679048538208,11.6682720184326,11.6686639785767,11.657567024231,11.6464900970459,11.6354351043701,11.624400138855,11.6133871078491,11.6023941040039,11.5914220809937,11.5804710388184,11.5695400238037,11.558629989624,11.5477409362793,11.5368719100952,11.5260229110718,11.5151948928833,11.5043878555298,11.4935998916626,11.4828329086304,11.4720859527588,11.4613590240479,11.4506521224976,11.4399642944336,11.4292974472046,11.4186506271362,11.4080228805542,11.3974151611328,11.3868274688721,11.3762588500977,11.3657102584839,11.3551816940308,11.344672203064,11.3341817855835,11.3237113952637,11.3132591247559,11.302827835083,11.2924146652222,11.2820205688477,11.2716455459595,11.2612905502319,11.2509536743164,11.2406358718872,11.2303371429443,11.2200574874878,11.2097959518433,11.1995544433594,11.188440322876,11.1708993911743,11.1534128189087,11.1359815597534,11.1186046600342,11.1012811660767,11.0840120315552,11.0667972564697,11.0496349334717,11.0325260162354,11.0154705047607,10.9984674453735,10.9815158843994,10.964617729187,10.9477710723877,10.9309759140015,10.9142322540283,10.8975391387939,10.880898475647,10.8643074035645,10.8477668762207,10.83127784729,10.8148374557495,10.7984476089478,10.7821073532104,10.7658166885376,10.7495746612549,10.7347850799561,10.7219591140747,10.7091636657715,10.6963987350464,10.6836643218994,10.6709604263306,10.6582860946655,10.6456422805786,10.6330280303955,10.6204442977905,10.6078901290894,10.595365524292,10.5828695297241,10.5704040527344,10.5579681396484,10.545560836792,10.5331830978394,10.5208339691162,10.5085134506226,10.4962224960327,10.4839601516724,10.4717254638672,10.4595203399658,10.4473438262939,10.4351949691772,10.42307472229,10.410982131958,10.3989181518555,10.3868818283081,10.3748731613159,10.3628921508789,10.3509387969971,10.3390130996704,10.3271150588989,10.3152446746826,10.3034009933472,10.2915840148926,10.2797946929932,10.2680330276489,10.2562971115112,10.2445888519287,10.2329063415527,10.2212514877319,10.2096223831177,10.1980199813843,10.1864442825317,10.1748943328857,10.1633701324463,10.1518726348877,10.14040184021,10.1289558410645,10.1175355911255,10.1061420440674,10.0947732925415,10.0834302902222,10.0721130371094,10.0608205795288,10.0495538711548,10.038311958313,10.0270957946777,10.0159044265747,10.0047378540039,9.99359607696533,9.98247909545898,9.97138690948486,9.96031951904297,9.94927597045898,9.93825817108154,9.9272632598877,9.91629409790039,9.90534782409668,9.8944263458252,9.88352870941162,9.87265586853027,9.86180591583252,9.85098075866699,9.84017848968506,9.82940006256104,9.81864547729492,9.8079137802124,9.79720592498779,9.78652191162109,9.77586078643799,9.76522254943848,9.75460815429688,9.74401569366455,9.73344707489014,9.72290134429932,9.71237754821777,9.70187759399414,9.69139957427979,9.68094539642334,9.67051219940186,9.66010284423828,9.64971446990967,9.63934898376465,9.62900638580322,9.61641025543213,9.60366439819336,9.59095191955566,9.57827377319336,9.56562900543213,9.55301761627197,9.54043960571289,9.52789402008057,9.51538181304932,9.50290203094482,9.49045562744141,9.47804164886475,9.46565914154053,9.45331001281738,9.44099235534668,9.42145729064941,9.40015602111816,9.37641048431396,9.35984039306641,9.34974956512451,9.33968067169189,9.32963275909424,9.31960773468018,9.30960369110107,9.29962062835693,9.28965950012207,9.27971935272217,9.26980018615723,9.25990295410156,9.25002670288086,9.24017143249512,9.23033618927002,9.2205228805542,9.21073055267334,9.20095825195312,9.19120693206787,9.18147659301758,9.17176628112793,9.16207695007324,9.15240859985352,9.14275932312012,9.13313102722168,9.1235237121582,9.11393547058105,9.10436820983887,9.09482002258301,9.08529281616211,9.07578468322754,9.06629657745361,9.05682945251465,9.0473804473877,9.0379524230957,9.02854347229004,9.0191535949707,9.00978469848633,9.00043392181396,8.99110317230225,8.98179149627686,8.97249889373779,8.96322536468506,8.95397186279297,8.94473648071289,8.93552017211914,8.92632389068604,8.91714572906494,8.90798664093018,8.89884567260742,8.889723777771,8.8806209564209,8.87153720855713,8.86247158050537,8.85342407226562,8.84439468383789,8.83538436889648,8.82639217376709,8.81741905212402,8.80846309661865,8.79952526092529,8.79060649871826,8.78170490264893,8.77282238006592,8.76395702362061,8.75510883331299,8.7462797164917,8.73746776580811,8.72867393493652,8.71989822387695,8.71113872528076,8.7023983001709,8.69367408752441,8.68496799468994
11.5738410949707,11.5742025375366,11.5745639801025,11.5749263763428,11.5752840042114,11.575644493103,11.5760068893433,11.5763702392578,11.5767297744751,11.5770893096924,11.5774526596069,11.5778160095215,11.5781764984131,11.5785360336304,11.5788984298706,11.5792608261108,11.5796232223511,11.5799837112427,11.5803442001343,11.5807056427002,11.5810670852661,11.5814294815063,11.5817899703979,11.5821514129639,11.5825157165527,11.58287525177,11.5832376480103,11.5835971832275,11.5839605331421,11.584321975708,11.5846853256226,11.5850439071655,11.5854082107544,11.5857667922974,11.5861310958862,11.5864953994751,11.5868549346924,11.587215423584,11.5875787734985,11.5879402160645,11.5883026123047,11.5886659622192,11.5890264511108,11.5893898010254,11.5897512435913,11.5901126861572,11.5904731750488,11.5908365249634,11.5911998748779,11.5915613174438,11.5919218063354,11.59228515625,11.5926485061646,11.5930109024048,11.5933704376221,11.5937328338623,11.5940980911255,11.5944604873657,11.5948190689087,11.5951824188232,11.5955457687378,11.595911026001,11.5962734222412,11.5966329574585,11.596996307373,11.5973596572876,11.5977220535278,11.5980825424194,11.598445892334,11.5988101959229,11.5882148742676,11.5772695541382,11.5663452148438,11.5554418563843,11.5445585250854,11.5336952209473,11.522852897644,11.5120306015015,11.5012283325195,11.4904470443726,11.4796857833862,11.4689445495605,11.4582233428955,11.4475221633911,11.4368410110474,11.4261798858643,11.4155387878418,11.4049167633057,11.3943147659302,11.3837327957153,11.3731708526611,11.3626279830933,11.3521041870117,11.3416004180908,11.3311157226562,11.3206510543823,11.3102045059204,11.2997779846191,11.2893705368042,11.2789831161499,11.2686138153076,11.2582635879517,11.247932434082,11.2376203536987,11.2273273468018,11.2170524597168,11.2067975997925,11.1965608596802,11.1863422393799,11.1718473434448,11.1543588638306,11.136923789978,11.1195440292358,11.1022186279297,11.0849466323853,11.0677280426025,11.0505638122559,11.0334520339966,11.0163927078247,10.9993867874146,10.9824333190918,10.9655313491821,10.9486818313599,10.9318838119507,10.9151372909546,10.8984422683716,10.8817987442017,10.8652048110962,10.8486623764038,10.8321695327759,10.8157272338867,10.799334526062,10.7829914093018,10.766697883606,10.7504529953003,10.7342576980591,10.7181100845337,10.7020120620728,10.6888151168823,10.6760988235474,10.6634130477905,10.6507568359375,10.6381301879883,10.6255340576172,10.6129684448242,10.6004314422607,10.5879240036011,10.5754470825195,10.5629987716675,10.5505790710449,10.5381898880005,10.5258293151855,10.5134973526001,10.5011940002441,10.488920211792,10.476674079895,10.4644575119019,10.4522695541382,10.4401092529297,10.4279775619507,10.4158735275269,10.4037981033325,10.3917503356934,10.3797302246094,10.3677387237549,10.3557739257812,10.3438367843628,10.3319282531738,10.3200464248657,10.3081912994385,10.2963638305664,10.2845640182495,10.2727909088135,10.2610445022583,10.249324798584,10.2376317977905,10.2259654998779,10.2143268585205,10.2027130126953,10.1911268234253,10.1795663833618,10.1680316925049,10.1565237045288,10.1450414657593,10.1335859298706,10.1221551895142,10.1107511520386,10.0993719100952,10.0880184173584,10.0766906738281,10.0653886795044,10.0541114807129,10.0428590774536,10.0316324234009,10.0204315185547,10.0092544555664,9.99810314178467,9.98697566986084,9.97587394714355,9.96479606628418,9.95374298095703,9.94271469116211,9.93171119689941,9.92073154449463,9.90977573394775,9.89884471893311,9.88793754577637,9.87705421447754,9.86619472503662,9.85536003112793,9.84454822540283,9.83376026153564,9.82299613952637,9.81225490570068,9.80153751373291,9.79084396362305,9.78017330169678,9.7695255279541,9.75890159606934,9.74830055236816,9.73772239685059,9.7271671295166,9.71663475036621,9.70612525939941,9.69563865661621,9.68517398834229,9.67473220825195,9.66431331634521,9.65391635894775,9.64354228973389,9.6331901550293,9.62285995483398,9.61255264282227,9.60226631164551,9.59200286865234,9.58176136016846,9.57154178619385,9.5613431930542,9.55116653442383,9.54101181030273,9.5308780670166,9.52061748504639,9.50812435150146,9.49566459655762,9.48323631286621,9.47084045410156,9.45847797393799,9.44614696502686,9.43384838104248,9.42158126831055,9.40934658050537,9.39226531982422,9.36998176574707,9.35294818878174,9.34287261962891,9.33281803131104,9.32278537750244,9.31277465820312,9.30278491973877,9.29281711578369,9.28287029266357,9.27294445037842,9.26304054260254,9.25315761566162,9.24329566955566,9.23345375061035,9.22363376617432,9.21383476257324,9.20405673980713,9.19429874420166,9.18456172943115,9.17484474182129,9.16514873504639,9.15547370910645,9.14581871032715,9.1361837387085,9.12656879425049,9.11697483062744,9.10740089416504,9.09784698486328,9.08831310272217,9.0787992477417,9.06930446624756,9.05983066558838,9.05037593841553,9.04094123840332,9.03152656555176,9.02213096618652,9.01275444030762,9.00339794158936,8.99406051635742,8.98474311828613,8.97544479370117,8.96616554260254,8.95690536499023,8.94766426086426,8.93844223022461,8.92923927307129,8.9200553894043,8.91088962554932,8.90174388885498,8.89261627197266,8.88350677490234,8.87441635131836,8.8653450012207,8.85629177093506,8.84725761413574,8.83824062347412,8.82924270629883,8.82026386260986,8.81130218505859,8.80235958099365,8.79343414306641,8.78452682495117,8.77563762664795,8.76676750183105,8.75791454315186,8.74907875061035,8.74026203155518,8.7314624786377,8.72268009185791,8.71391582489014,8.70516872406006,8.69643974304199,8.68772792816162,8.67903423309326,8.6703577041626
11.5044240951538,11.5047826766968,11.5051355361938,11.5054931640625,11.5058517456055,11.5062084197998,11.5065631866455,11.5069198608398,11.5072793960571,11.5076360702515,11.5079936981201,11.5083475112915,11.5087060928345,11.5090637207031,11.5094213485718,11.5097761154175,11.5101327896118,11.5104923248291,11.5108509063721,11.5112056732178,11.5115613937378,11.5119199752808,11.512279510498,11.5126352310181,11.5129899978638,11.5133495330811,11.5137071609497,11.514063835144,11.514422416687,11.5147771835327,11.51513671875,11.5154933929443,11.515851020813,11.516206741333,11.5165662765503,11.5169229507446,11.5172805786133,11.5176401138306,11.5179967880249,11.5183544158936,11.5187110900879,11.5190687179565,11.5194272994995,11.5197849273682,11.5201416015625,11.5205011367798,11.5208587646484,11.5212154388428,11.5215721130371,11.5219306945801,11.5222902297974,11.5226469039917,11.5230045318604,11.523362159729,11.5237216949463,11.5240783691406,11.524435043335,11.5247926712036,11.5251531600952,11.5255117416382,11.5258655548096,11.5262260437012,11.5265855789185,11.5269441604614,11.5273008346558,11.5276575088501,11.5280170440674,11.5283765792847,11.5287351608276,11.5290908813477,11.5294513702393,11.5298099517822,11.5196838378906,11.5088672637939,11.4980716705322,11.4872961044312,11.4765405654907,11.4658050537109,11.4550895690918,11.4443950653076,11.4337196350098,11.4230642318726,11.412428855896,11.4018125534058,11.3912162780762,11.3806400299072,11.3700838088989,11.359546661377,11.3490285873413,11.3385305404663,11.3280515670776,11.3175916671753,11.3071517944336,11.2967309951782,11.2863292694092,11.2759466171265,11.2655830383301,11.25523853302,11.2449131011963,11.2346067428589,11.2243185043335,11.2140502929688,11.203800201416,11.1935682296753,11.1833553314209,11.1727962493896,11.1553049087524,11.137866973877,11.1204843521118,11.1031551361084,11.085880279541,11.0686597824097,11.0514917373657,11.0343770980835,11.017315864563,11.0003070831299,10.9833498001099,10.9664459228516,10.9495935440063,10.9327926635742,10.9160432815552,10.8993453979492,10.8826990127563,10.8661022186279,10.8495569229126,10.8330612182617,10.8166160583496,10.800220489502,10.7838754653931,10.7675790786743,10.7513313293457,10.7351331710815,10.7189836502075,10.7028827667236,10.6868305206299,10.670825958252,10.655876159668,10.643238067627,10.6306295394897,10.6180515289307,10.6055021286011,10.5929832458496,10.580493927002,10.5680332183838,10.5556030273438,10.5432014465332,10.5308284759521,10.5184850692749,10.5061702728271,10.4938850402832,10.4816274642944,10.4693994522095,10.4571990966797,10.4450273513794,10.4328842163086,10.4207696914673,10.4086828231812,10.3966236114502,10.3845920562744,10.3725891113281,10.360613822937,10.3486652374268,10.336745262146,10.3248519897461,10.3129863739014,10.3011484146118,10.2893371582031,10.2775526046753,10.2657957077026,10.2540655136108,10.2423620223999,10.2306852340698,10.2190341949463,10.2074108123779,10.1958131790161,10.1842422485352,10.1726980209351,10.1611785888672,10.1496858596802,10.138219833374,10.1267786026001,10.115364074707,10.1039743423462,10.0926113128662,10.0812730789185,10.0699605941772,10.0586729049683,10.0474109649658,10.0361738204956,10.0249624252319,10.0137758255005,10.0026140213013,9.99147701263428,9.98036479949951,9.96927738189697,9.95821475982666,9.94717597961426,9.93616199493408,9.92517280578613,9.91420745849609,9.90326595306396,9.89234924316406,9.88145637512207,9.87058734893799,9.85974311828613,9.84892177581787,9.83812427520752,9.82734966278076,9.81659984588623,9.80587291717529,9.79516983032227,9.78448963165283,9.77383327484131,9.76319980621338,9.75258922576904,9.7420015335083,9.73143672943115,9.72089576721191,9.71037673950195,9.69988059997559,9.68940734863281,9.67895603179932,9.66852855682373,9.65812206268311,9.64773941040039,9.63737773895264,9.62703895568848,9.61672210693359,9.60642719268799,9.59615516662598,9.58590412139893,9.57567596435547,9.56546878814697,9.55528354644775,9.54512023925781,9.53497791290283,9.52485752105713,9.51475811004639,9.50468063354492,9.49462413787842,9.48458957672119,9.47457599639893,9.4645824432373,9.45461177825928,9.44466018676758,9.43473052978516,9.4248218536377,9.41446685791016,9.40225028991699,9.39006614685059,9.3779125213623,9.36325359344482,9.34606647491455,9.33600521087646,9.32596588134766,9.31594848632812,9.30595207214355,9.29597663879395,9.28602313995361,9.27609157562256,9.26618003845215,9.25629043579102,9.24642181396484,9.23657417297363,9.22674751281738,9.21694087982178,9.20715618133545,9.19739151000977,9.18764781951904,9.17792510986328,9.16822242736816,9.15854072570801,9.1488790512085,9.13923835754395,9.12961673736572,9.12001609802246,9.11043643951416,9.10087585449219,9.09133529663086,9.08181476593018,9.07231426239014,9.06283378601074,9.05337333679199,9.04393196105957,9.03451061248779,9.02510929107666,9.01572704315186,9.00636386871338,8.99702072143555,8.98769664764404,8.97839260101318,8.96910667419434,8.95984077453613,8.95059394836426,8.94136524200439,8.93215656280518,8.92296695709229,8.91379547119141,8.90464305877686,8.89550971984863,8.88639450073242,8.87729835510254,8.86822128295898,8.85916233062744,8.85012149810791,8.84109973907471,8.83209609985352,8.82311058044434,8.81414318084717,8.80519390106201,8.79626369476318,8.78735065460205,8.77845573425293,8.76957988739014,8.76072120666504,8.75187969207764,8.74305725097656,8.73425197601318,8.7254638671875,8.71669387817383,8.70794200897217,8.6992073059082,8.69048976898193,8.68179035186768,8.67310810089111,8.66444301605225,8.65579509735107
11.4358329772949,11.436185836792,11.4365396499634,11.4368915557861,11.4372434616089,11.437596321106,11.4379501342773,11.4383039474487,11.4386529922485,11.4390068054199,11.4393606185913,11.4397134780884,11.4400634765625,11.4404163360596,11.440770149231,11.441123008728,11.441478729248,11.4418287277222,11.4421815872192,11.4425354003906,11.442889213562,11.4432392120361,11.4435920715332,11.4439477920532,11.4443016052246,11.4446535110474,11.4450054168701,11.4453592300415,11.4457130432129,11.4460639953613,11.4464178085327,11.4467706680298,11.4471254348755,11.4474782943726,11.4478321075439,11.4481840133667,11.4485368728638,11.4488925933838,11.4492444992065,11.4495973587036,11.4499502182007,11.4503059387207,11.4506568908691,11.4510116577148,11.4513654708862,11.4517183303833,11.4520711898804,11.4524240493774,11.4527788162231,11.4531326293945,11.4534854888916,11.453839302063,11.4541940689087,11.4545469284058,11.4548988342285,11.4552536010742,11.4556093215942,11.455961227417,11.4563140869141,11.4566698074341,11.4570236206055,11.4573783874512,11.4577312469482,11.4580841064453,11.4584379196167,11.4587936401367,11.4591464996338,11.4594984054565,11.4598541259766,11.4602079391479,11.4605655670166,11.4609155654907,11.4612712860107,11.4616241455078,11.451958656311,11.4412689208984,11.4305992126465,11.4199495315552,11.4093198776245,11.3987102508545,11.3881196975708,11.3775491714478,11.366997718811,11.356466293335,11.3459548950195,11.3354616165161,11.3249883651733,11.3145351409912,11.3041000366211,11.2936849594116,11.2832889556885,11.2729120254517,11.2625541687012,11.252215385437,11.2418947219849,11.2315940856934,11.2213115692139,11.2110481262207,11.2008037567139,11.1905784606934,11.1803703308105,11.1701822280884,11.1562509536743,11.1388101577759,11.1214246749878,11.1040925979614,11.0868148803711,11.0695915222168,11.0524206161499,11.0353031158447,11.018238067627,11.0012264251709,10.9842672348022,10.967360496521,10.9505052566528,10.9337015151978,10.9169492721558,10.9002485275269,10.883599281311,10.867000579834,10.8504514694214,10.8339538574219,10.8175058364868,10.8011074066162,10.7847595214844,10.7684602737427,10.7522106170654,10.7360095977783,10.7198572158813,10.7037544250488,10.6876983642578,10.6716918945312,10.6557321548462,10.639820098877,10.6239566802979,10.6105785369873,10.5980472564697,10.585545539856,10.573073387146,10.5606307983398,10.5482177734375,10.5358333587646,10.5234785079956,10.5111522674561,10.498854637146,10.4865856170654,10.4743461608887,10.4621343612671,10.449951171875,10.4377965927124,10.425669670105,10.4135713577271,10.4015016555786,10.389458656311,10.3774442672729,10.36545753479,10.3534984588623,10.3415670394897,10.3296632766724,10.3177862167358,10.3059368133545,10.2941150665283,10.282320022583,10.2705516815186,10.258810043335,10.2470960617065,10.2354078292847,10.223747253418,10.2121124267578,10.2005043029785,10.1889228820801,10.1773672103882,10.1658382415771,10.1543350219727,10.1428575515747,10.1314067840576,10.1199817657471,10.1085815429688,10.0972080230713,10.0858592987061,10.0745363235474,10.0632390975952,10.0519666671753,10.0407190322876,10.0294971466064,10.0183010101318,10.0071287155151,9.99598217010498,9.98485946655273,9.97376251220703,9.96268939971924,9.95164108276367,9.94061756134033,9.9296178817749,9.9186429977417,9.90769195556641,9.89676570892334,9.88586330413818,9.87498474121094,9.8641300201416,9.85329914093018,9.84249210357666,9.83170795440674,9.82094860076904,9.81021213531494,9.79949951171875,9.78880977630615,9.77814388275146,9.76750087738037,9.75688076019287,9.74628448486328,9.73571014404297,9.72515964508057,9.71463203430176,9.70412635803223,9.69364356994629,9.68318367004395,9.6727466583252,9.66233158111572,9.65193939208984,9.64156913757324,9.63122081756592,9.62089538574219,9.61059188842773,9.60031032562256,9.59005069732666,9.57981300354004,9.5695972442627,9.55940341949463,9.54923152923584,9.53908061981201,9.52895164489746,9.51884365081787,9.50875759124756,9.49869251251221,9.48864841461182,9.4786262512207,9.46862506866455,9.45864486694336,9.44868564605713,9.43874740600586,9.42883014678955,9.4189338684082,9.40905857086182,9.39920330047607,9.38936901092529,9.37955474853516,9.36976146697998,9.35998821258545,9.35023593902588,9.34198379516602,9.33319282531738,9.32349109649658,9.31381034851074,9.30414867401123,9.29450702667236,9.28488636016846,9.27528476715088,9.26570320129395,9.25614166259766,9.2465991973877,9.23707675933838,9.22757339477539,9.21809005737305,9.20862674713135,9.19918251037598,9.18975734710693,9.18035125732422,9.17096519470215,9.16159725189209,9.15194225311279,9.14229393005371,9.13266754150391,9.12306022644043,9.1134729385376,9.10390663146973,9.09435939788818,9.0848331451416,9.07532596588135,9.06583976745605,9.05637264251709,9.04692554473877,9.03749752044678,9.02808952331543,9.01870155334473,9.00933265686035,8.9999828338623,8.9906530380249,8.98134231567383,8.97205066680908,8.96277809143066,8.95352554321289,8.94429111480713,8.9350757598877,8.92588043212891,8.91670322418213,8.90754413604736,8.89840507507324,8.88928413391113,8.88018226623535,8.87109851837158,8.86203384399414,8.85298728942871,8.84395980834961,8.83495044708252,8.82595920562744,8.81698608398438,8.80803108215332,8.79909515380859,8.79017639160156,8.78127574920654,8.77239322662354,8.76352882385254,8.75468254089355,8.74585437774658,8.7370433807373,8.72824954986572,8.71947479248047,8.71071720123291,8.70197677612305,8.69325351715088,8.68454837799072,8.67586040496826,8.66719055175781,8.65853691101074,8.64990139007568,8.641282081604
11.3680572509766,11.3684043884277,11.3687515258789,11.3690996170044,11.3694505691528,11.369797706604,11.3701438903809,11.3704948425293,11.3708448410034,11.3711929321289,11.3715400695801,11.3718900680542,11.3722372055054,11.3725872039795,11.372935295105,11.3732824325562,11.3736333847046,11.3739814758301,11.3743305206299,11.3746776580811,11.3750276565552,11.3753757476807,11.3757257461548,11.3760719299316,11.3764219284058,11.3767709732056,11.3771209716797,11.3774690628052,11.3778162002563,11.3781661987305,11.3785161972046,11.3788633346558,11.3792133331299,11.3795623779297,11.3799114227295,11.3802585601807,11.3806114196777,11.3809595108032,11.3813076019287,11.3816585540771,11.3820066452026,11.3823537826538,11.3827056884766,11.3830547332764,11.3834028244019,11.383752822876,11.3841018676758,11.3844509124756,11.3848009109497,11.3851509094238,11.3854990005493,11.3858489990234,11.3861980438232,11.3865480422974,11.3868970870972,11.387246131897,11.3875951766968,11.3879461288452,11.3882961273193,11.3886442184448,11.3889923095703,11.3893442153931,11.3896942138672,11.3900461196899,11.3903942108154,11.3907432556152,11.391092300415,11.3914432525635,11.391791343689,11.3921394348145,11.3924922943115,11.3928442001343,11.3931941986084,11.3935403823853,11.3938903808594,11.3942413330078,11.3850240707397,11.3744592666626,11.3639144897461,11.3533887863159,11.3428821563721,11.3323955535889,11.321928024292,11.3114795684814,11.3010511398315,11.2906408309937,11.2802505493164,11.2698793411255,11.2595262527466,11.2491931915283,11.2388792037964,11.2285833358765,11.2183065414429,11.2080488204956,11.1978092193604,11.1875896453857,11.1773872375488,11.1672039031982,11.157039642334,11.1397533416748,11.1223649978638,11.1050300598145,11.0877494812012,11.0705223083496,11.0533494949341,11.036229133606,11.0191612243652,11.0021467208862,10.9851846694946,10.9682750701904,10.9514169692993,10.9346103668213,10.9178552627563,10.9011526107788,10.8844995498657,10.8678979873657,10.8513469696045,10.834846496582,10.818395614624,10.8019943237305,10.7856435775757,10.7693424224854,10.7530899047852,10.7368860244751,10.7207307815552,10.7046251296997,10.6885671615601,10.6725578308105,10.6565952301025,10.6406812667847,10.6248140335083,10.6089954376221,10.593222618103,10.5781183242798,10.5656642913818,10.5532388687134,10.5408430099487,10.5284757614136,10.5161380767822,10.5038290023804,10.491548538208,10.4792966842651,10.4670734405518,10.4548788070679,10.4427127838135,10.4305753707886,10.4184656143188,10.4063835144043,10.3943300247192,10.3823041915894,10.3703060150146,10.3583364486694,10.3463935852051,10.3344783782959,10.3225908279419,10.3107299804688,10.2988967895508,10.287091255188,10.2753114700317,10.263560295105,10.2518348693848,10.2401361465454,10.2284641265869,10.2168188095093,10.2052001953125,10.1936082839966,10.1820421218872,10.1705017089844,10.1589879989624,10.1475009918213,10.1360387802124,10.1246032714844,10.1131925582886,10.1018085479736,10.0904502868652,10.0791168212891,10.0678091049194,10.056526184082,10.0452690124512,10.0340366363525,10.0228300094604,10.0116481781006,10.0004911422729,9.98935890197754,9.97825145721436,9.9671688079834,9.95611095428467,9.94507694244385,9.93406772613525,9.92308235168457,9.91212177276611,9.90118598937988,9.89027309417725,9.87938499450684,9.86852073669434,9.85768032073975,9.84686374664307,9.83607006072998,9.82530117034912,9.81455516815186,9.8038330078125,9.79313373565674,9.78245830535889,9.77180576324463,9.76117706298828,9.75057125091553,9.73998737335205,9.72942733764648,9.71889019012451,9.70837593078613,9.69788455963135,9.68741512298584,9.67696857452393,9.66654491424561,9.65614318847656,9.64576435089111,9.63540744781494,9.62507247924805,9.61476039886475,9.60447025299072,9.59420108795166,9.58395481109619,9.57373046875,9.56352710723877,9.55334568023682,9.54318618774414,9.53304862976074,9.5229320526123,9.51283740997314,9.50276374816895,9.49271202087402,9.48268032073975,9.47267055511475,9.46268272399902,9.45271492004395,9.44276809692383,9.43284225463867,9.42293739318848,9.41305351257324,9.40318965911865,9.39334678649902,9.38352489471436,9.37372303009033,9.36394214630127,9.35418128967285,9.34444046020508,9.33472061157227,9.33067893981934,9.31959342956543,9.31585502624512,9.30685138702393,9.29661655426025,9.28699111938477,9.27738571166992,9.26779937744141,9.25823307037354,9.24868679046631,9.23916053771973,9.22965335845947,9.22016525268555,9.21069717407227,9.20124816894531,9.191819190979,9.18240928649902,9.17301845550537,9.16364669799805,9.15429496765137,9.1449613571167,9.13564682006836,9.12635135650635,9.11707496643066,9.10781764984131,9.09857845306396,9.08935832977295,9.08015632629395,9.07097339630127,9.06180953979492,9.05266380310059,9.04353618621826,9.03442764282227,9.02533626556396,9.01626396179199,9.00720977783203,8.99817371368408,8.98915576934814,8.98015594482422,8.9711742401123,8.9622106552124,8.9532642364502,8.9443359375,8.93542575836182,8.92653369903564,8.91765880584717,8.90880107879639,8.89996147155762,8.89113903045654,8.88233470916748,8.8735466003418,8.86477756500244,8.85602474212646,8.84728908538818,8.8385705947876,8.82987022399902,8.82118606567383,8.81251907348633,8.80386924743652,8.79523658752441,8.78662109375,8.77802181243896,8.76943969726562,8.76087379455566,8.7523250579834,8.74379348754883,8.73527812957764,8.72677898406982,8.71829605102539,8.70983028411865,8.70138072967529,8.69294834136963,8.68453121185303,8.6761302947998,8.66774654388428,8.65937805175781,8.65102672576904,8.64269065856934,8.63437080383301,8.62606716156006
11.3010768890381,11.3014211654663,11.3017673492432,11.3021106719971,11.302453994751,11.3027973175049,11.3031444549561,11.30348777771,11.3038301467896,11.3041763305664,11.3045206069946,11.3048677444458,11.3052082061768,11.305552482605,11.3058986663818,11.3062438964844,11.3065881729126,11.3069314956665,11.307276725769,11.3076229095459,11.3079671859741,11.3083095550537,11.3086557388306,11.3090009689331,11.30934715271,11.3096895217896,11.3100328445435,11.3103799819946,11.3107252120972,11.3110694885254,11.3114137649536,11.3117599487305,11.3121042251587,11.3124475479126,11.3127918243408,11.3131370544434,11.3134841918945,11.3138294219971,11.314172744751,11.3145170211792,11.3148632049561,11.3152103424072,11.3155546188354,11.3158979415894,11.3162441253662,11.3165912628174,11.3169364929199,11.3172817230225,11.3176250457764,11.3179712295532,11.3183155059814,11.3186626434326,11.3190059661865,11.3193521499634,11.3196964263916,11.3200435638428,11.3203897476196,11.3207340240479,11.3210773468018,11.3214244842529,11.3217706680298,11.322114944458,11.3224620819092,11.3228054046631,11.3231534957886,11.3234987258911,11.3238439559937,11.3241891860962,11.3245344161987,11.3248815536499,11.3252267837524,11.3255701065063,11.3259172439575,11.3262634277344,11.3266115188599,11.3269548416138,11.3273000717163,11.3276472091675,11.318868637085,11.3084259033203,11.298002243042,11.2875986099243,11.277214050293,11.2668476104736,11.2565011978149,11.2461729049683,11.2358646392822,11.2255744934082,11.2153034210205,11.2050504684448,11.1948165893555,11.1846017837524,11.1744060516357,11.1642274856567,11.1540689468384,11.140697479248,11.1233053207397,11.1059684753418,11.0886840820312,11.0714550018311,11.0542783737183,11.0371551513672,11.0200843811035,11.0030670166016,10.986102104187,10.9691896438599,10.9523286819458,10.9355192184448,10.9187622070312,10.9020557403564,10.8854007720947,10.8687963485718,10.8522424697876,10.8357391357422,10.8192853927612,10.802882194519,10.7865285873413,10.7702236175537,10.7539682388306,10.7377624511719,10.7216053009033,10.7054967880249,10.6894359588623,10.6734237670898,10.6574592590332,10.6415424346924,10.6256732940674,10.6098508834839,10.5940761566162,10.5783472061157,10.5626659393311,10.5470304489136,10.5334777832031,10.52112865448,10.5088081359863,10.4965162277222,10.4842529296875,10.4720182418823,10.4598121643066,10.4476337432861,10.4354848861694,10.4233636856079,10.4112710952759,10.399206161499,10.3871688842773,10.3751592636108,10.3631782531738,10.3512239456177,10.339298248291,10.3273992538452,10.3155279159546,10.3036832809448,10.2918663024902,10.2800760269165,10.2683134078979,10.2565774917603,10.2448682785034,10.2331857681274,10.2215299606323,10.2098999023438,10.1982975006104,10.1867208480835,10.1751699447632,10.1636457443237,10.1521472930908,10.1406755447388,10.1292285919189,10.11780834198,10.1064138412476,10.0950450897217,10.083701133728,10.0723829269409,10.0610904693604,10.049822807312,10.0385808944702,10.0273637771606,10.0161714553833,10.0050039291382,9.99386215209961,9.98274421691895,9.97165203094482,9.96058368682861,9.94954013824463,9.93852138519287,9.92752647399902,9.91655540466309,9.90560913085938,9.89468765258789,9.8837890625,9.87291526794434,9.86206531524658,9.85123920440674,9.84043598175049,9.82965755462646,9.81890201568604,9.80817031860352,9.79746150970459,9.78677654266357,9.77611541748047,9.76547622680664,9.75486087799072,9.7442684173584,9.73369979858398,9.72315311431885,9.7126293182373,9.70212841033936,9.691650390625,9.68119430541992,9.67076110839844,9.66035079956055,9.64996242523193,9.63959693908691,9.62925338745117,9.61893177032471,9.60863208770752,9.59835529327393,9.58809947967529,9.57786655426025,9.56765460968018,9.55746459960938,9.54729652404785,9.53714942932129,9.527024269104,9.516921043396,9.50683879852295,9.49677753448486,9.48673820495605,9.47671985626221,9.46672248840332,9.45674705505371,9.44679164886475,9.43685722351074,9.4269437789917,9.41705131530762,9.4071798324585,9.39732837677002,9.3874979019165,9.37768840789795,9.36789894104004,9.35812950134277,9.34838104248047,9.33865261077881,9.32894420623779,9.32337284088135,9.31940174102783,9.30675411224365,9.2990083694458,9.29528617858887,9.29156684875488,9.28151988983154,9.26989650726318,9.26032638549805,9.25077533721924,9.24124431610107,9.23173332214355,9.22224140167236,9.2127685546875,9.20331573486328,9.19388198852539,9.18446826934814,9.17507362365723,9.16569709777832,9.15634059906006,9.14700317382812,9.13768482208252,9.12838554382324,9.11910438537598,9.10984325408936,9.10060024261475,9.09137535095215,9.08216953277588,9.07298278808594,9.06381416320801,9.05466461181641,9.04553318023682,9.03641986846924,9.02732563018799,9.01824951171875,9.00919055938721,9.00015068054199,8.99112892150879,8.9821252822876,8.97313976287842,8.96417140960693,8.95522212982178,8.94629001617432,8.93737602233887,8.92847919464111,8.91960048675537,8.91073894500732,8.90189552307129,8.89306926727295,8.88426113128662,8.87547016143799,8.86669635772705,8.85793972015381,8.84920024871826,8.84047889709473,8.83177375793457,8.82308578491211,8.81441593170166,8.80576229095459,8.79712581634521,8.78850650787354,8.77990341186523,8.77131748199463,8.7627477645874,8.75419616699219,8.74565982818604,8.73714065551758,8.72863864898682,8.72015285491943,8.71168327331543,8.7032299041748,8.69479274749756,8.68637275695801,8.67796897888184,8.66958141326904,8.66120910644531,8.65285396575928,8.64451503753662,8.63619136810303,8.62788391113281,8.61959266662598,8.61131763458252,8.60305786132812,8.59481430053711
11.234881401062,11.2352237701416,11.2355632781982,11.2359037399292,11.2362451553345,11.2365856170654,11.2369241714478,11.237265586853,11.2376070022583,11.2379465103149,11.2382850646973,11.2386255264282,11.2389688491821,11.2393102645874,11.2396478652954,11.2399873733521,11.240330696106,11.2406702041626,11.2410106658936,11.2413511276245,11.2416915893555,11.2420349121094,11.2423753738403,11.242712020874,11.2430543899536,11.2433948516846,11.2437381744385,11.2440767288208,11.2444162368774,11.2447595596313,11.2451000213623,11.2454404830933,11.2457809448242,11.2461223602295,11.2464647293091,11.2468042373657,11.2471418380737,11.2474851608276,11.2478284835815,11.2481698989868,11.2485103607178,11.2488489151001,11.2491912841797,11.2495336532593,11.2498722076416,11.2502136230469,11.2505550384521,11.2508974075317,11.2512378692627,11.251579284668,11.2519197463989,11.2522611618042,11.2526025772095,11.2529439926147,11.2532835006714,11.253625869751,11.2539663314819,11.2543087005615,11.2546520233154,11.2549915313721,11.2553300857544,11.2556753158569,11.2560176849365,11.2563571929932,11.2567005157471,11.2570400238037,11.257381439209,11.2577257156372,11.2580652236938,11.2584075927734,11.2587490081787,11.2590923309326,11.2594308853149,11.2597732543945,11.2601137161255,11.2604579925537,11.2608022689819,11.2611389160156,11.2614822387695,11.2618265151978,11.2534770965576,11.2431545257568,11.2328510284424,11.2225666046143,11.2123012542725,11.2020540237427,11.1918258666992,11.1816167831421,11.171425819397,11.1612529754639,11.1510992050171,11.1409635543823,11.12424659729,11.1069059371948,11.0896196365356,11.0723867416382,11.0552072525024,11.0380811691284,11.0210084915161,11.0039873123169,10.9870195388794,10.9701042175293,10.9532403945923,10.9364290237427,10.9196681976318,10.9029598236084,10.8863010406494,10.8696947097778,10.8531379699707,10.8366317749023,10.8201751708984,10.8037691116333,10.7874126434326,10.7711057662964,10.7548475265503,10.7386388778687,10.7224788665771,10.7063674926758,10.6903047561646,10.6742897033691,10.6583223342896,10.6424036026001,10.6265316009521,10.6107063293457,10.5949287414551,10.5791988372803,10.5635147094727,10.5478763580322,10.5322856903076,10.5167398452759,10.5014877319336,10.4892129898071,10.4769668579102,10.4647493362427,10.4525604248047,10.4403991699219,10.4282665252686,10.4161624908447,10.4040861129761,10.3920383453369,10.3800172805786,10.3680248260498,10.3560600280762,10.3441219329834,10.3322124481201,10.3203296661377,10.3084745407104,10.2966461181641,10.2848453521729,10.2730712890625,10.2613248825073,10.2496042251587,10.2379112243652,10.2262449264526,10.2146043777466,10.2029905319214,10.1914033889771,10.1798419952393,10.1683073043823,10.1567983627319,10.1453161239624,10.1338586807251,10.1224279403687,10.1110229492188,10.0996437072754,10.0882892608643,10.076961517334,10.0656585693359,10.0543804168701,10.0431280136108,10.0319004058838,10.0206985473633,10.009521484375,9.99836921691895,9.98724174499512,9.97613906860352,9.96506118774414,9.95400714874268,9.94297885894775,9.93197345733643,9.92099380493164,9.91003704071045,9.8991060256958,9.88819789886475,9.8773136138916,9.86645412445068,9.85561847686768,9.84480571746826,9.83401775360107,9.82325267791748,9.8125114440918,9.80179309844971,9.79109954833984,9.78042793273926,9.76978015899658,9.7591552734375,9.74855327606201,9.73797512054443,9.72741889953613,9.71688652038574,9.70637607574463,9.69588851928711,9.68542385101318,9.67498207092285,9.6645622253418,9.65416526794434,9.64379024505615,9.63343715667725,9.62310695648193,9.6127986907959,9.60251235961914,9.59224796295166,9.58200550079346,9.57178592681885,9.56158638000488,9.55140972137451,9.5412540435791,9.53112030029297,9.52100849151611,9.51091766357422,9.50084781646729,9.49079990386963,9.48077297210693,9.4707670211792,9.46078300476074,9.45081901550293,9.44087600708008,9.43095397949219,9.42105293273926,9.41117286682129,9.40131378173828,9.39147472381592,9.38165664672852,9.37185859680176,9.36208152770996,9.35232448577881,9.3425874710083,9.33287143707275,9.32317543029785,9.31607913970947,9.31211376190186,9.3081521987915,9.29894638061523,9.28222370147705,9.27851486206055,9.27480888366699,9.27110576629639,9.26740646362305,9.25632667541504,9.24374771118164,9.23381423950195,9.2243185043335,9.21484184265137,9.20538425445557,9.19594669342041,9.18652820587158,9.17712879180908,9.16774845123291,9.15838813781738,9.14904594421387,9.139723777771,9.13041973114014,9.12113475799561,9.1118688583374,9.10262203216553,9.09339332580566,9.08418369293213,9.07499313354492,9.06582069396973,9.05666637420654,9.04753112792969,9.03841400146484,9.02931594848633,9.02023506164551,9.01117324829102,9.00212860107422,8.99310302734375,8.98409557342529,8.97510528564453,8.9661340713501,8.95718002319336,8.94824409484863,8.93932628631592,8.9304256439209,8.92154312133789,8.91267776489258,8.90383052825928,8.89500045776367,8.88618850708008,8.87739372253418,8.86861610412598,8.85985565185547,8.85111236572266,8.84238719940186,8.83367824554443,8.82498741149902,8.81631278991699,8.80765533447266,8.79901504516602,8.79039192199707,8.78178596496582,8.77319622039795,8.76462364196777,8.75606727600098,8.74752807617188,8.73900508880615,8.73049926757812,8.72200965881348,8.71353626251221,8.70507907867432,8.69663906097412,8.6882152557373,8.67980766296387,8.67141628265381,8.66304111480713,8.65468215942383,8.64633941650391,8.63801288604736,8.62970161437988,8.62140655517578,8.61312770843506,8.60486507415771,8.59661769866943,8.58838653564453,8.58017063140869,8.57197093963623,8.56378650665283
11.1694593429565,11.1697978973389,11.1701335906982,11.1704692840576,11.170804977417,11.171142578125,11.1714782714844,11.1718149185181,11.1721496582031,11.1724872589111,11.1728239059448,11.1731595993042,11.1734952926636,11.1738319396973,11.1741704940796,11.1745080947876,11.1748447418213,11.175178527832,11.1755170822144,11.1758546829224,11.1761894226074,11.1765251159668,11.1768617630005,11.1772022247314,11.1775379180908,11.1778717041016,11.1782112121582,11.1785469055176,11.1788854598999,11.1792182922363,11.1795568466187,11.1798944473267,11.1802320480347,11.1805686950684,11.1809024810791,11.1812419891357,11.1815805435181,11.1819181442261,11.1822528839111,11.1825895309448,11.1829271316528,11.1832656860352,11.1836023330688,11.1839380264282,11.1842765808105,11.1846151351929,11.1849508285522,11.1852855682373,11.1856231689453,11.185962677002,11.1862993240356,11.186637878418,11.1869745254517,11.187313079834,11.187647819519,11.1879873275757,11.1883230209351,11.1886615753174,11.1889982223511,11.1893358230591,11.1896734237671,11.1900100708008,11.1903486251831,11.1906843185425,11.1910238265991,11.1913614273071,11.1916980743408,11.1920375823975,11.1923751831055,11.1927127838135,11.1930494308472,11.1933870315552,11.1937255859375,11.1940622329712,11.1944007873535,11.1947364807129,11.1950769424438,11.1954145431519,11.1957530975342,11.1960878372192,11.1964273452759,11.1967649459839,11.1888360977173,11.1786327362061,11.1684465408325,11.1582803726196,11.1481313705444,11.1380014419556,11.125186920166,11.1078433990479,11.0905542373657,11.0733184814453,11.0561361312866,11.0390071868896,11.0219316482544,11.0049085617065,10.9879379272461,10.9710187911987,10.9541530609131,10.9373378753662,10.9205751419067,10.903862953186,10.8872022628784,10.8705921173096,10.8540334701538,10.8375244140625,10.82106590271,10.8046569824219,10.7882976531982,10.7719879150391,10.7557277679443,10.7395162582397,10.7233533859253,10.707239151001,10.6911735534668,10.6751556396484,10.6591863632202,10.6432638168335,10.6273899078369,10.6115627288818,10.5957822799683,10.5800495147705,10.5643625259399,10.5487222671509,10.5331287384033,10.5175809860229,10.5020790100098,10.4866228103638,10.4712114334106,10.4574909210205,10.4453182220459,10.4331741333008,10.4210586547852,10.4089708328247,10.3969116210938,10.384880065918,10.3728761672974,10.3608999252319,10.3489513397217,10.3370304107666,10.3251361846924,10.3132696151733,10.3014307022095,10.2896194458008,10.2778339385986,10.2660760879517,10.2543458938599,10.2426414489746,10.2309637069702,10.2193126678467,10.207688331604,10.1960906982422,10.1845188140869,10.1729736328125,10.1614542007446,10.1499605178833,10.1384935379028,10.1270523071289,10.1156368255615,10.1042470932007,10.0928821563721,10.0815439224243,10.0702304840088,10.0589427947998,10.047679901123,10.0364427566528,10.0252304077148,10.0140428543091,10.0028800964355,9.99174308776855,9.98062992095947,9.96954154968262,9.9584789276123,9.9474401473999,9.93642520904541,9.92543506622314,9.91446971893311,9.90352821350098,9.89261054992676,9.88171672821045,9.87084770202637,9.86000156402588,9.84918022155762,9.83838176727295,9.82760715484619,9.81685638427734,9.80612945556641,9.79542541503906,9.78474426269531,9.77408695220947,9.76345348358154,9.75284194946289,9.74225425720215,9.731689453125,9.72114753723145,9.71062755584717,9.7001314163208,9.68965721130371,9.67920589447021,9.66877746582031,9.65837097167969,9.64798736572266,9.6376256942749,9.62728595733643,9.61696910858154,9.60667324066162,9.59640026092529,9.58614921569824,9.57592010498047,9.56571197509766,9.55552673339844,9.54536247253418,9.5352201461792,9.52509880065918,9.51499938964844,9.50492095947266,9.49486446380615,9.48482894897461,9.47481441497803,9.46482181549072,9.45484924316406,9.44489765167236,9.43496799468994,9.42505836486816,9.41516971588135,9.40530204772949,9.3954553604126,9.38562774658203,9.37582206726074,9.3660364151001,9.35627174377441,9.34652709960938,9.33680152893066,9.32709789276123,9.31741333007812,9.30879592895508,9.30483722686768,9.30088138580322,9.29692935943604,9.29115295410156,9.27131271362305,9.26180362701416,9.25811100006104,9.25442123413086,9.25073528289795,9.24705123901367,9.24337005615234,9.23126888275146,9.21875858306885,9.20745372772217,9.19801139831543,9.18858909606934,9.17918491363525,9.16980075836182,9.16043663024902,9.15109062194824,9.14176368713379,9.13245582580566,9.12316703796387,9.11389636993408,9.10464572906494,9.09541320800781,9.0861988067627,9.07700443267822,9.06782722473145,9.05867004394531,9.04953002929688,9.04040908813477,9.03130626678467,9.02222156524658,9.01315593719482,9.00410747528076,8.99507808685303,8.9860668182373,8.97707271575928,8.96809673309326,8.95913887023926,8.95019912719727,8.94127750396729,8.932373046875,8.92348670959473,8.91461753845215,8.90576648712158,8.89693260192871,8.88811683654785,8.87931728363037,8.87053680419922,8.86177253723145,8.85302543640137,8.8442964553833,8.83558368682861,8.82688903808594,8.81821060180664,8.80955028533936,8.80090618133545,8.79227924346924,8.78366851806641,8.77507591247559,8.76649856567383,8.75793933868408,8.74939632415771,8.74086952209473,8.73235988616943,8.72386646270752,8.7153902053833,8.70693016052246,8.698486328125,8.69005870819092,8.68164730072021,8.67325210571289,8.66487407684326,8.6565113067627,8.64816474914551,8.6398344039917,8.63152027130127,8.62322235107422,8.61493968963623,8.60667324066162,8.59842300415039,8.59018802642822,8.58196830749512,8.57376575469971,8.56557750701904,8.55740547180176,8.54924869537354,8.54110813140869,8.53298282623291
11.1047954559326,11.1051273345947,11.1054592132568,11.1057929992676,11.1061239242554,11.1064577102661,11.1067905426025,11.1071214675903,11.1074542999268,11.1077871322632,11.1081171035767,11.1084518432617,11.1087856292725,11.1091156005859,11.1094493865967,11.1097822189331,11.1101140975952,11.1104497909546,11.1107816696167,11.1111125946045,11.1114473342896,11.111780166626,11.1121110916138,11.1124439239502,11.1127777099609,11.1131114959717,11.1134443283081,11.1137752532959,11.1141090393066,11.1144418716431,11.1147766113281,11.1151065826416,11.1154413223267,11.1157751083374,11.1161098480225,11.1164407730103,11.1167736053467,11.1171073913574,11.1174411773682,11.1177740097046,11.1181058883667,11.1184387207031,11.1187734603882,11.1191082000732,11.1194381713867,11.1197719573975,11.1201057434082,11.1204404830933,11.1207723617554,11.1211051940918,11.1214399337769,11.1217746734619,11.1221046447754,11.1224393844604,11.1227722167969,11.1231060028076,11.1234397888184,11.1237735748291,11.1241064071655,11.1244401931763,11.1247730255127,11.1251077651978,11.1254425048828,11.1257743835449,11.12610912323,11.1264410018921,11.1267757415771,11.1271085739136,11.1274442672729,11.1277761459351,11.1281108856201,11.1284446716309,11.1287784576416,11.129111289978,11.1294460296631,11.1297798156738,11.1301145553589,11.1304483413696,11.1307821273804,11.1311178207397,11.1314516067505,11.131781578064,11.1321182250977,11.1324520111084,11.1249341964722,11.1087818145752,11.0914897918701,11.0742511749268,11.0570659637451,11.0399341583252,11.0228548049927,11.0058288574219,10.9888553619385,10.9719343185425,10.9550647735596,10.9382476806641,10.9214820861816,10.904767036438,10.8881034851074,10.8714914321899,10.8549289703369,10.8384170532227,10.8219556808472,10.8055438995361,10.7891826629639,10.7728700637817,10.7566070556641,10.7403926849365,10.7242279052734,10.7081108093262,10.692042350769,10.6760225296021,10.6600503921509,10.6441259384155,10.6282482147217,10.612419128418,10.5966358184814,10.5809001922607,10.5652112960815,10.5495691299438,10.5339727401733,10.51842212677,10.5029172897339,10.4874582290649,10.4720449447632,10.4566764831543,10.4413537979126,10.4260749816895,10.4138603210449,10.4017896652222,10.3897466659546,10.3777313232422,10.365743637085,10.3537845611572,10.3418521881104,10.3299474716187,10.3180704116821,10.3062200546265,10.294397354126,10.2826013565063,10.2708330154419,10.259090423584,10.2473754882812,10.2356872558594,10.2240257263184,10.2123908996582,10.2007818222046,10.1891994476318,10.1776437759399,10.1661138534546,10.1546096801758,10.1431322097778,10.1316804885864,10.1202545166016,10.1088542938232,10.0974788665771,10.0861301422119,10.0748071670532,10.0635080337524,10.0522356033325,10.0409879684448,10.0297651290894,10.0185680389404,10.0073957443237,9.99624824523926,9.98512554168701,9.97402763366699,9.9629545211792,9.95190525054932,9.94088077545166,9.92988109588623,9.91890525817871,9.90795421600342,9.89702606201172,9.88612365722656,9.875244140625,9.86438846588135,9.85355758666992,9.84274959564209,9.83196544647217,9.82120513916016,9.81046867370605,9.79975509643555,9.78906536102295,9.77839851379395,9.76775455474854,9.75713443756104,9.74653720855713,9.73596286773682,9.7254114151001,9.71488285064697,9.70437717437744,9.6938943862915,9.68343353271484,9.67299556732178,9.6625804901123,9.65218734741211,9.64181709289551,9.63146877288818,9.62114238739014,9.61083793640137,9.60055637359619,9.59029579162598,9.58005809783936,9.5698413848877,9.55964660644531,9.54947376251221,9.53932285308838,9.52919292449951,9.51908493041992,9.50899791717529,9.49893283843994,9.48888874053955,9.47886562347412,9.46886444091797,9.45888328552246,9.44892406463623,9.43898487091064,9.42906665802002,9.41917037963867,9.40929412841797,9.39943885803223,9.38960361480713,9.37978935241699,9.3699951171875,9.36022186279297,9.35046863555908,9.34073543548584,9.33102321624756,9.32133102416992,9.31165885925293,9.30200672149658,9.29757213592529,9.29362297058105,9.28967666625977,9.28573322296143,9.28179359436035,9.26356506347656,9.24515247344971,9.24147319793701,9.23779678344727,9.23412322998047,9.23045349121094,9.22678565979004,9.22312068939209,9.21882343292236,9.20634651184082,9.19390296936035,9.18149375915527,9.17185401916504,9.16248512268066,9.15313529968262,9.1438045501709,9.13449192047119,9.12519931793213,9.11592483520508,9.10666942596436,9.09743309020996,9.08821487426758,9.07901573181152,9.0698356628418,9.06067371368408,9.05152988433838,9.042405128479,9.03329849243164,9.02420997619629,9.01513957977295,9.00608730316162,8.99705410003662,8.98803806304932,8.97904014587402,8.97006130218506,8.96109962463379,8.95215511322021,8.94322967529297,8.93432140350342,8.92543125152588,8.91655826568604,8.9077033996582,8.89886569976807,8.89004516601562,8.8812427520752,8.87245750427246,8.86369037628174,8.85493946075439,8.84620666503906,8.83749008178711,8.82879161834717,8.82010936737061,8.81144523620605,8.80279731750488,8.79416656494141,8.78555297851562,8.77695560455322,8.76837539672852,8.7598123550415,8.75126552581787,8.74273586273193,8.73422241210938,8.7257251739502,8.71724510192871,8.70878124237061,8.70033359527588,8.69190216064453,8.68348789215088,8.67508888244629,8.66670703887939,8.65834140777588,8.64999103546143,8.64165687561035,8.63333988189697,8.62503814697266,8.6167516708374,8.60848236083984,8.60022830963135,8.59198951721191,8.58376693725586,8.57556056976318,8.56736946105957,8.55919361114502,8.55103397369385,8.54288959503174,8.53476047515869,8.52664756774902,8.5185489654541,8.51046657562256,8.50239944458008
11.0408725738525,11.041202545166,11.0415315628052,11.0418586730957,11.0421876907349,11.042516708374,11.0428438186646,11.0431747436523,11.0435028076172,11.0438327789307,11.0441617965698,11.0444889068604,11.0448188781738,11.045147895813,11.0454769134521,11.0458040237427,11.0461349487305,11.046462059021,11.0467920303345,11.0471210479736,11.0474491119385,11.0477771759033,11.0481071472168,11.0484371185303,11.0487642288208,11.04909324646,11.0494241714478,11.0497531890869,11.0500822067261,11.0504102706909,11.0507383346558,11.0510692596436,11.051399230957,11.0517244338989,11.052056312561,11.0523853302002,11.0527172088623,11.0530462265015,11.0533723831177,11.0537014007568,11.0540332794189,11.0543642044067,11.0546894073486,11.0550203323364,11.0553522109985,11.0556812286377,11.0560092926025,11.0563383102417,11.0566673278809,11.0569982528687,11.0573282241821,11.057656288147,11.0579872131348,11.0583152770996,11.0586452484131,11.0589752197266,11.0593042373657,11.0596351623535,11.0599641799927,11.0602941513062,11.0606241226196,11.0609550476074,11.0612840652466,11.0616121292114,11.0619440078735,11.0622720718384,11.0626029968262,11.062931060791,11.0632638931274,11.0635929107666,11.0639228820801,11.0642509460449,11.0645818710327,11.0649147033691,11.0652437210083,11.0655717849731,11.0659036636353,11.0662336349487,11.0665626525879,11.0668926239014,11.0672216415405,11.0675525665283,11.0678844451904,11.068211555481,11.0579957962036,11.0408611297607,11.0237789154053,11.0067501068115,10.9897737503052,10.9728498458862,10.9559774398804,10.9391574859619,10.9223890304565,10.9056711196899,10.8890047073364,10.872389793396,10.85582447052,10.8393106460571,10.8228464126587,10.8064317703247,10.7900676727295,10.7737522125244,10.7574863433838,10.7412700653076,10.7251024246216,10.7089824676514,10.6929121017456,10.6768884658813,10.6609144210815,10.6449871063232,10.6291074752808,10.6132745742798,10.5974903106689,10.5817518234253,10.5660600662231,10.5504150390625,10.534815788269,10.5192632675171,10.5037565231323,10.4882946014404,10.4728784561157,10.4575080871582,10.4421825408936,10.4269018173218,10.4116659164429,10.3964738845825,10.3825912475586,10.3705930709839,10.35862159729,10.3466787338257,10.3347625732422,10.3228740692139,10.3110132217407,10.2991790771484,10.2873725891113,10.2755928039551,10.263840675354,10.2521142959595,10.2404155731201,10.2287425994873,10.2170972824097,10.2054777145386,10.1938848495483,10.1823177337646,10.1707773208618,10.1592636108398,10.1477746963501,10.1363124847412,10.1248760223389,10.1134653091431,10.1020803451538,10.0907211303711,10.0793876647949,10.068078994751,10.0567960739136,10.0455379486084,10.0343055725098,10.0230979919434,10.0119152069092,10.0007572174072,9.98962497711182,9.97851657867432,9.96743297576904,9.956374168396,9.94534015655518,9.93432998657227,9.92334461212158,9.91238403320312,9.90144634246826,9.89053344726562,9.87964534759521,9.8687801361084,9.85793876647949,9.8471212387085,9.83632850646973,9.82555770874023,9.81481170654297,9.8040885925293,9.79338932037354,9.78271293640137,9.77206039428711,9.76143074035645,9.75082397460938,9.74024105072021,9.72968006134033,9.71914196014404,9.70862674713135,9.69813442230225,9.68766498565674,9.67721843719482,9.66679382324219,9.65639209747314,9.64601230621338,9.63565444946289,9.625319480896,9.61500644683838,9.60471534729004,9.59444618225098,9.58419895172119,9.573974609375,9.56377124786377,9.5535888671875,9.54342937469482,9.53329086303711,9.52317428588867,9.5130786895752,9.503005027771,9.49295139312744,9.48292064666748,9.47290992736816,9.46292114257812,9.45295238494873,9.44300556182861,9.43307876586914,9.42317390441895,9.41328907012939,9.4034252166748,9.39358139038086,9.38375949859619,9.37395668029785,9.36417579650879,9.35441398620605,9.34467315673828,9.33495235443115,9.32525157928467,9.31557178497314,9.30591106414795,9.29627132415771,9.29031848907471,9.28637504577637,9.28243446350098,9.27849769592285,9.27456474304199,9.27063465118408,9.25583076477051,9.23614120483398,9.22489547729492,9.22123241424561,9.21757125854492,9.2139139175415,9.21026039123535,9.20660877227783,9.20296001434326,9.19931411743164,9.19396877288818,9.18155860900879,9.16918182373047,9.15683937072754,9.14584541320801,9.13652992248535,9.12723255157471,9.11795425415039,9.1086950302124,9.09945392608643,9.09023189544678,9.08102893829346,9.07184410095215,9.06267833709717,9.0535306930542,9.04440116882324,9.03529071807861,9.026198387146,9.01712417602539,9.0080680847168,8.99903011322021,8.99001121520996,8.9810094833374,8.97202587127686,8.96306037902832,8.95411205291748,8.94518280029297,8.93627071380615,8.92737579345703,8.91849994659424,8.90964031219482,8.90079879760742,8.89197540283203,8.88316917419434,8.87438011169434,8.86560821533203,8.85685443878174,8.84811687469482,8.83939743041992,8.83069515228271,8.82200908660889,8.81334114074707,8.80468940734863,8.79605484008789,8.78743743896484,8.77883720397949,8.77025318145752,8.76168632507324,8.75313568115234,8.74460220336914,8.73608493804932,8.72758483886719,8.71909999847412,8.71063327789307,8.70218181610107,8.69374752044678,8.68532943725586,8.676926612854,8.66854095458984,8.66017150878906,8.65181827545166,8.64348030090332,8.63515949249268,8.62685394287109,8.61856460571289,8.61029148101807,8.6020336151123,8.59379196166992,8.58556652069092,8.57735633850098,8.5691614151001,8.5609827041626,8.55281925201416,8.5446720123291,8.53653907775879,8.52842235565186,8.52032089233398,8.51223564147949,8.50416469573975,8.49610900878906,8.48806953430176,8.4800443649292,8.4720344543457
10.9776849746704,10.9780111312866,10.9783325195312,10.9786596298218,10.9789838790894,10.9793090820312,10.9796323776245,10.9799585342407,10.9802827835083,10.9806089401245,10.9809331893921,10.9812574386597,10.9815845489502,10.9819087982178,10.9822340011597,10.9825582504272,10.9828853607178,10.983208656311,10.9835348129272,10.9838590621948,10.9841842651367,10.9845123291016,10.9848356246948,10.9851598739624,10.9854850769043,10.9858121871948,10.9861364364624,10.98646068573,10.9867868423462,10.9871129989624,10.9874382019043,10.9877614974976,10.9880895614624,10.9884147644043,10.9887418746948,10.9890623092651,10.9893913269043,10.9897155761719,10.9900426864624,10.9903659820557,10.9906921386719,10.9910182952881,10.9913444519043,10.9916715621948,10.9919939041138,10.9923219680786,10.9926462173462,10.9929733276367,10.9932975769043,10.9936237335205,10.9939498901367,10.9942760467529,10.9946002960205,10.9949254989624,10.9952526092529,10.9955797195435,10.9959049224854,10.9962301254272,10.9965562820435,10.996883392334,10.9972105026245,10.9975357055664,10.997859954834,10.9981870651245,10.9985132217407,10.9988384246826,10.9991626739502,10.999490737915,10.9998178482056,11.0001420974731,11.000470161438,11.0007953643799,11.0011234283447,11.001446723938,11.0017728805542,11.0020999908447,11.0024261474609,11.0027523040771,11.0030794143677,11.0034065246582,11.0037317276001,11.004056930542,11.0043859481812,11.0047121047974,10.9906921386719,10.97376537323,10.9568901062012,10.9400672912598,10.9232959747314,10.9065752029419,10.8899068832397,10.8732881546021,10.8567209243774,10.8402042388916,10.8237371444702,10.8073196411133,10.7909526824951,10.7746353149414,10.7583665847778,10.7421474456787,10.7259769439697,10.7098550796509,10.6937808990479,10.677755355835,10.6617784500122,10.645848274231,10.6299667358398,10.6141319274902,10.5983438491821,10.5826025009155,10.5669088363647,10.5512609481812,10.5356597900391,10.5201044082642,10.5045948028564,10.4891309738159,10.4737129211426,10.4583396911621,10.4430122375488,10.4277286529541,10.4124898910522,10.3972959518433,10.3821468353271,10.3670406341553,10.3519792556763,10.3395824432373,10.3276834487915,10.3158111572266,10.3039665222168,10.2921485900879,10.2803583145142,10.2685947418213,10.2568578720093,10.2451477050781,10.2334642410278,10.2218074798584,10.2101783752441,10.1985740661621,10.1869964599609,10.1754455566406,10.1639204025269,10.1524219512939,10.1409492492676,10.1295022964478,10.1180810928345,10.1066856384277,10.0953159332275,10.0839719772339,10.0726528167725,10.0613594055176,10.0500917434692,10.0388488769531,10.0276308059692,10.0164384841919,10.0052709579468,9.99412822723389,9.98301029205322,9.97191619873047,9.96084785461426,9.94980335235596,9.93878364562988,9.92778873443604,9.9168176651001,9.90587043762207,9.89494800567627,9.88404941558838,9.8731746673584,9.86232376098633,9.85149765014648,9.84069442749023,9.82991504669189,9.81915855407715,9.80842685699463,9.7977180480957,9.78703212738037,9.77637004852295,9.76573085784912,9.75511455535889,9.74452209472656,9.73395156860352,9.72340488433838,9.71288108825684,9.70237922668457,9.6919002532959,9.68144416809082,9.67101097106934,9.66059970855713,9.6502103805542,9.63984394073486,9.62950038909912,9.61917781829834,9.60887813568115,9.59860038757324,9.58834457397461,9.57811069488525,9.56789875030518,9.55770778656006,9.54753875732422,9.53739166259766,9.52726650238037,9.51716232299805,9.507080078125,9.49701881408691,9.48697853088379,9.47695922851562,9.46696186065674,9.4569845199585,9.44702911376953,9.43709468841553,9.42718029022217,9.41728782653809,9.40741539001465,9.39756393432617,9.38773250579834,9.37792205810547,9.36813259124756,9.35836315155029,9.34861373901367,9.3388843536377,9.32917594909668,9.31948757171631,9.30981922149658,9.3001708984375,9.29054260253906,9.2830753326416,9.27913856506348,9.2752046585083,9.27127361297607,9.26734638214111,9.26342296600342,9.25950241088867,9.24810886383057,9.2284517288208,9.20887851715088,9.20472621917725,9.20107936859131,9.197434425354,9.19379329681396,9.19015502929688,9.18651962280273,9.18288612365723,9.17925643920898,9.17562961578369,9.16924667358398,9.15690422058105,9.14459419250488,9.13231658935547,9.12007236480713,9.11072063446045,9.10147571563721,9.09224987030029,9.08304214477539,9.07385349273682,9.06468391418457,9.05553150177002,9.04639911651611,9.0372838973999,9.02818775177002,9.01910972595215,9.01004981994629,9.00100803375244,8.99198436737061,8.98297882080078,8.97399139404297,8.96502208709717,8.95606994628906,8.94713687896729,8.9382209777832,8.92932224273682,8.92044162750244,8.91157913208008,8.90273380279541,8.89390563964844,8.88509559631348,8.87630271911621,8.86752796173096,8.85876941680908,8.85002899169922,8.84130573272705,8.83259868621826,8.82390975952148,8.8152379989624,8.8065824508667,8.79794406890869,8.78932285308838,8.78071880340576,8.77213096618652,8.76356029510498,8.75500679016113,8.74646949768066,8.73794841766357,8.72944450378418,8.72095680236816,8.71248531341553,8.70403099060059,8.69559288024902,8.68717098236084,8.67876529693604,8.67037582397461,8.66200256347656,8.65364551544189,8.64530467987061,8.6369800567627,8.62867164611816,8.6203784942627,8.61210155487061,8.60384082794189,8.59559535980225,8.58736610412598,8.57915210723877,8.57095432281494,8.56277275085449,8.55460548400879,8.54645442962646,8.5383186340332,8.53019905090332,8.52209377288818,8.51400470733643,8.50593090057373,8.4978723526001,8.48982810974121,8.4818000793457,8.47378730773926,8.46578979492188,8.45780658721924,8.44983863830566,8.44188594818115
10.9152135848999,10.9155330657959,10.9158554077148,10.9161777496338,10.9164972305298,10.9168167114258,10.917140007019,10.9174613952637,10.9177827835083,10.9181041717529,10.9184255599976,10.9187469482422,10.9190692901611,10.9193887710571,10.9197111129761,10.9200325012207,10.9203548431396,10.92067527771,10.9209976196289,10.9213180541992,10.9216394424438,10.9219617843628,10.9222841262817,10.9226045608521,10.922926902771,10.9232473373413,10.9235687255859,10.9238920211792,10.9242134094238,10.9245347976685,10.9248561859131,10.9251794815063,10.9254989624023,10.925820350647,10.9261417388916,10.9264650344849,10.9267892837524,10.9271106719971,10.9274282455444,10.9277534484863,10.9280767440796,10.9283952713013,10.9287166595459,10.9290399551392,10.9293622970581,10.9296865463257,10.9300060272217,10.930326461792,10.9306497573853,10.9309740066528,10.9312925338745,10.9316148757935,10.9319381713867,10.93226146698,10.9325819015503,10.9329032897949,10.9332265853882,10.9335489273071,10.9338712692261,10.9341926574707,10.934515953064,10.9348392486572,10.9351615905762,10.9354820251465,10.9358053207397,10.9361276626587,10.936450958252,10.9367723464966,10.9370946884155,10.9374170303345,10.9377403259277,10.9380626678467,10.9383859634399,10.9387073516846,10.9390306472778,10.9393510818481,10.93967628479,10.9399967193604,10.9403209686279,10.9406414031982,10.9409656524658,10.9412889480591,10.9416103363037,10.9409770965576,10.9242029190063,10.9074802398682,10.8908081054688,10.8741874694824,10.8576173782349,10.8410968780518,10.8246278762817,10.8082084655762,10.7918376922607,10.7755174636841,10.7592468261719,10.7430248260498,10.7268514633179,10.7107267379761,10.6946506500244,10.6786222457886,10.6626424789429,10.646710395813,10.6308250427246,10.6149883270264,10.5991973876953,10.5834541320801,10.5677576065063,10.5521078109741,10.5365037918091,10.5209455490112,10.5054340362549,10.4899673461914,10.4745473861694,10.459171295166,10.4438409805298,10.4285554885864,10.4133148193359,10.398118019104,10.3829660415649,10.3678579330444,10.3527936935425,10.3377733230591,10.3227968215942,10.3087577819824,10.296929359436,10.2851276397705,10.2733526229858,10.2616052627563,10.2498846054077,10.2381906509399,10.226523399353,10.2148818969727,10.2032680511475,10.1916799545288,10.180118560791,10.1685829162598,10.1570730209351,10.1455898284912,10.1341323852539,10.1227006912231,10.1112957000732,10.0999155044556,10.0885610580444,10.0772314071655,10.0659284591675,10.0546503067017,10.0433969497681,10.032169342041,10.0209665298462,10.0097885131836,9.99863529205322,9.98750686645508,9.97640419006348,9.96532535552979,9.95427131652832,9.94324207305908,9.93223667144775,9.92125511169434,9.91029930114746,9.89936637878418,9.88845825195312,9.87757396697998,9.86671352386475,9.85587692260742,9.84506416320801,9.8342752456665,9.82351016998291,9.81276798248291,9.80204963684082,9.79135417938232,9.78068256378174,9.77003479003906,9.75940895080566,9.74880695343018,9.73822784423828,9.72767162322998,9.71713829040527,9.70662689208984,9.69613933563232,9.68567371368408,9.67523097991943,9.66481113433838,9.6544132232666,9.64403820037842,9.63368511199951,9.62335395812988,9.61304473876953,9.60275840759277,9.59249305725098,9.58225059509277,9.57202911376953,9.56183052062988,9.5516529083252,9.54149723052979,9.53136253356934,9.52124977111816,9.51115894317627,9.50108814239502,9.49104022979736,9.48101234436035,9.4710054397583,9.46102046966553,9.45105648040771,9.44111347198486,9.43119144439697,9.42128944396973,9.41140937805176,9.40154933929443,9.39170932769775,9.38189125061035,9.37209224700928,9.36231517791748,9.35255718231201,9.3428201675415,9.33310317993164,9.32340717315674,9.31373023986816,9.30407333374023,9.29443740844727,9.28482055664062,9.27584457397461,9.27191352844238,9.26798534393311,9.26406097412109,9.26013946533203,9.25622177124023,9.2523078918457,9.24839687347412,9.24039936065674,9.22077560424805,9.20123481750488,9.1882791519165,9.184645652771,9.18101406097412,9.1773853302002,9.17376041412354,9.17013740539551,9.16651821136475,9.16290092468262,9.15928649902344,9.15567588806152,9.15206718444824,9.14465808868408,9.13238143920898,9.12013721466064,9.10792541503906,9.09574699401855,9.08505725860596,9.0758638381958,9.06669044494629,9.05753421783447,9.04839706420898,9.03927803039551,9.03017807006836,9.02109622955322,9.01203155517578,9.00298595428467,8.99395847320557,8.98494911193848,8.9759578704834,8.96698474884033,8.95802879333496,8.9490909576416,8.94017124176025,8.93126964569092,8.92238521575928,8.91351795196533,8.9046688079834,8.89583778381348,8.88702392578125,8.87822723388672,8.86944770812988,8.86068630218506,8.85194110870361,8.84321403503418,8.83450412750244,8.8258113861084,8.81713485717773,8.80847644805908,8.79983425140381,8.79120922088623,8.78260135650635,8.77401065826416,8.76543617248535,8.75687789916992,8.74833679199219,8.73981285095215,8.73130512237549,8.72281360626221,8.71433925628662,8.70588111877441,8.69743919372559,8.68901348114014,8.68060493469238,8.67221164703369,8.66383457183838,8.65547466278076,8.64713001251221,8.63880157470703,8.63048934936523,8.62219333648682,8.61391258239746,8.60564804077148,8.59739971160889,8.58916664123535,8.5809497833252,8.5727481842041,8.56456279754639,8.55639266967773,8.54823780059814,8.54009914398193,8.53197574615479,8.5238676071167,8.51577472686768,8.50769710540771,8.49963569641113,8.4915885925293,8.48355674743652,8.47554111480713,8.46753978729248,8.45955371856689,8.45158195495605,8.44362640380859,8.43568515777588,8.42775917053223,8.41984748840332,8.41195106506348
