0,0,0,0,0,0,0,0,0,0,0,0,0,0,0,0,0,0,0,0,0,0,0,0,0,0,0,0,0,0,0,0,0,0,0,0,0,0,0,0,0,0,0,0,0,0,0,0,0,0,0,0,0,0,0,0,0,0,0,0,0,0,0,0,0,0,0,0,0,0,0,0,0,0,0,0,0,0,0,0,0,0,0,0,0,0,0,0,0,0,0,0,0,0,0,0,0,0,0,0,0,0,14.2972269058228,14.1630220413208,14.0313138961792,13.9020318984985,13.7751121520996,13.650486946106,13.5280981063843,13.407883644104,13.2907257080078,13.2526054382324,13.2147026062012,13.1770162582397,13.1395444869995,13.1022853851318,13.0652370452881,13.0283975601196,12.9917650222778,12.9553375244141,12.919114112854,12.883092880249,12.8472719192505,12.8116502761841,12.6508655548096,12.5778017044067,12.5055770874023,12.4341773986816,12.3635873794556,12.2937812805176,12.2247591018677,12.1565074920654,12.078462600708,11.9960794448853,11.914813041687,11.8410797119141,11.775242805481,11.7101345062256,11.6457424163818,11.5820693969727,11.519416809082,11.4574394226074,11.3961248397827,11.3354625701904,11.2795534133911,11.2307786941528,11.1824235916138,11.1344833374023,11.086953163147,11.0398263931274,10.9909114837646,10.9357299804688,10.8811006546021,10.8270139694214,10.7734632492065,10.7204389572144,10.6679344177246,10.6159572601318,10.5644912719727,10.5135221481323,10.5182266235352,10.5273065567017,10.5364017486572,10.5455141067505,10.5546407699585,10.5637836456299,10.5729427337646,10.5821170806885,10.59130859375,10.6005153656006,10.6097373962402,10.6189746856689,10.6282291412354,10.6374988555908,10.6467847824097,10.6560878753662,10.6654062271118,10.6747417449951,10.6840925216675,10.6934604644775,10.702844619751,10.7122449874878,10.7216625213623,10.7214336395264,10.6916732788086,10.6620779037476,10.6326465606689,10.6033763885498,10.5742664337158,10.545316696167,10.5165252685547,10.4864501953125,10.4559812545776,10.4256896972656,10.3955726623535,10.365629196167,10.3358573913574,10.3062562942505,10.2837524414062,10.2618064880371,10.237024307251,10.2095413208008,10.1789407730103,10.1485242843628,10.1182880401611,10.0882320404053,10.0583534240723,10.0316734313965,10.0238981246948,9.99919986724854,9.98814964294434,9.97712421417236,9.9661226272583,9.95514583587646,9.94419288635254,9.93326377868652,9.92235851287842,9.91310024261475,9.90585517883301,9.89862155914307,9.89139842987061,9.88418579101562,9.87698364257812,9.86979198455811,9.86260986328125,9.85543918609619,9.84827899932861,9.84112930297852,9.83398914337158,9.82685947418213,9.81974124908447,9.81263256072998,9.80553436279297,9.79844570159912,9.79136753082275,9.78430557250977,9.77745723724365,9.77061939239502,9.76379013061523,9.75697135925293,9.75016117095947,9.7433614730835,9.73657035827637,9.72978973388672,9.72301769256592,9.71625518798828,9.70950222015381,9.7027587890625,9.69602489471436,9.68929958343506,9.68258380889893,9.67587757110596,9.66918087005615,9.6624927520752,9.6558141708374,9.64914512634277,9.64248466491699,9.63583374023438,9.62919235229492,9.62255954742432,9.61593627929688,9.60932159423828,9.60271739959717,9.59612083435059,9.58953380584717,9.5829553604126,9.57638645172119,9.56982612609863,9.56327533721924,9.55673313140869,9.55020046234131,9.54367542266846,9.53716087341309,9.53065395355225,9.52415657043457,9.51766777038574,9.51118850708008,9.50471687316895,9.49825477600098,9.49180126190186,9.48535633087158,9.47892093658447,9.47249317169189,9.46607494354248,9.45966529846191,9.4532642364502,9.44687175750732,9.4404878616333,9.43411254882812,9.4277458190918,9.42138767242432,9.41503810882568,9.4086971282959,9.40236473083496,9.39604091644287,9.38972568511963,9.38341903686523,9.37712001800537,9.37083053588867,9.3645486831665,9.35827541351318,9.35201072692871,9.34575462341309,9.33950614929199,9.33326721191406,9.32703590393066,9.3208122253418,9.31459808349609,9.30839157104492,9.3021936416626,9.2960033416748,9.28982162475586,9.28364849090576,9.2774829864502,9.27132606506348,9.26517772674561,9.25903701782227,9.25290393829346,9.2467794418335,9.24066352844238,9.23455429077148,9.22845458984375,9.22236251831055,9.21627807617188,9.21020221710205,9.20413398742676,9.19807434082031,9.19202136993408,9.18597793579102,9.17994117736816,9.17391300201416,9.16789245605469,9.16188049316406,9.15587615966797,9.14987850189209,9.14389038085938,9.13790893554688,9.13193607330322,9.12596988677979,9.1200122833252,9.11406230926514,9.10812091827393,9.10218620300293,9.09626007080078,9.09034061431885
0,0,0,0,0,0,0,0,0,0,0,0,0,0,0,0,0,0,0,0,0,0,0,0,0,0,0,0,0,0,0,0,0,0,0,0,0,0,0,0,0,0,0,0,0,0,0,0,0,0,0,0,0,0,0,0,0,0,0,0,0,0,0,0,0,0,0,0,0,0,0,0,0,0,0,0,0,0,0,0,0,0,0,0,0,0,0,0,0,0,0,0,0,0,0,0,0,0,0,0,14.3445720672607,14.2094812393188,14.0769109725952,13.9467926025391,13.8190565109253,13.693639755249,13.5704784393311,13.4495134353638,13.3306846618652,13.2691087722778,13.2311124801636,13.1933326721191,13.1557683944702,13.1184167861938,13.0812768936157,13.0443468093872,13.0076246261597,12.9711093902588,12.9347972869873,12.8986892700195,12.8627815246582,12.827073097229,12.7915630340576,12.7562494277954,12.579363822937,12.5071210861206,12.4357032775879,12.3650960922241,12.2952795028687,12.2262401580811,12.1579723358154,12.0864353179932,12.0039434432983,11.922571182251,11.8422937393188,11.7760963439941,11.7109785079956,11.6465768814087,11.5828800201416,11.5200929641724,11.4581079483032,11.396785736084,11.3361167907715,11.2768392562866,11.2280874252319,11.1797561645508,11.1318387985229,11.0843305587769,11.0372257232666,10.9905204772949,10.9369077682495,10.882266998291,10.8281688690186,10.7746067047119,10.7215709686279,10.6690549850464,10.61705493927,10.5655784606934,10.5145988464355,10.4913206100464,10.5003547668457,10.5094032287598,10.5184679031372,10.527548789978,10.5366449356079,10.5457563400269,10.5548839569092,10.5640277862549,10.5731868743896,10.5823621749878,10.591552734375,10.6007585525513,10.6099805831909,10.6192188262939,10.6284732818604,10.6377439498901,10.6470308303833,10.6563339233398,10.6656532287598,10.6749887466431,10.6843404769897,10.6937084197998,10.7030935287476,10.6810503005981,10.6515140533447,10.6221399307251,10.5929279327393,10.5638751983643,10.53062915802,10.4974918365479,10.4667568206787,10.4364032745361,10.4062242507935,10.3762197494507,10.3463869094849,10.316725730896,10.2897453308105,10.2677745819092,10.2458972930908,10.2192611694336,10.1886034011841,10.158127784729,10.1278352737427,10.0977220535278,10.0677881240845,10.0405673980713,10.0383911132812,10.0145597457886,9.99024486541748,9.97921371459961,9.96820831298828,9.95722675323486,9.94626903533936,9.93533515930176,9.92442607879639,9.91353988647461,9.90267848968506,9.89184093475342,9.88256931304932,9.87537002563477,9.86818027496338,9.86100101470947,9.85383319854736,9.84667491912842,9.83952713012695,9.83238983154297,9.82526302337646,9.81814575195312,9.81103992462158,9.8039436340332,9.7968578338623,9.78978252410889,9.78271675109863,9.77566146850586,9.76861667633057,9.76158142089844,9.75455665588379,9.74754238128662,9.74053764343262,9.73354339599609,9.72655868530273,9.71960163116455,9.7128438949585,9.70609569549561,9.69935703277588,9.692626953125,9.6859073638916,9.67919635772705,9.67249488830566,9.66580200195312,9.65911960601807,9.65244483947754,9.64578056335449,9.63912487030029,9.63247871398926,9.62584209442139,9.61921405792236,9.61259460449219,9.60598564147949,9.59938430786133,9.59279346466064,9.58621025085449,9.57963752746582,9.57307243347168,9.5665168762207,9.55997085571289,9.55343341827393,9.54690456390381,9.54038429260254,9.53387355804443,9.52737140655518,9.52087879180908,9.51439476013184,9.50791931152344,9.50145244598389,9.49499416351318,9.48854541778564,9.48210525512695,9.47567367553711,9.46925067901611,9.46283721923828,9.45643138885498,9.45003509521484,9.44364643096924,9.4372673034668,9.43089580535889,9.42453384399414,9.41818046569824,9.41183471679688,9.40549850463867,9.399169921875,9.39285087585449,9.38653945922852,9.3802375793457,9.37394237518311,9.36765766143799,9.36137962341309,9.35511112213135,9.34885025024414,9.3425989151001,9.33635425567627,9.33011913299561,9.32389163970947,9.3176736831665,9.31146240234375,9.30526065826416,9.2990665435791,9.29288101196289,9.28670310974121,9.28053379058838,9.27437305450439,9.26821994781494,9.26207542419434,9.25593852996826,9.24981021881104,9.24368953704834,9.23757743835449,9.23147296905518,9.22537708282471,9.21928882598877,9.21320915222168,9.20713710784912,9.20107269287109,9.19501686096191,9.18896865844727,9.18292808532715,9.17689609527588,9.17087173461914,9.16485500335693,9.15884685516357,9.15284633636475,9.14685344696045,9.140869140625,9.13489151000977,9.12892246246338,9.12296104431152,9.1170072555542,9.11106109619141,9.10512256622314,9.09919261932373,9.09326934814453,9.08735466003418,9.08144760131836,9.07554721832275,9.069655418396
0,0,0,0,0,0,0,0,0,0,0,0,0,0,0,0,0,0,0,0,0,0,0,0,0,0,0,0,0,0,0,0,0,0,0,0,0,0,0,0,0,0,0,0,0,0,0,0,0,0,0,0,0,0,0,0,0,0,0,0,0,0,0,0,0,0,0,0,0,0,0,0,0,0,0,0,0,0,0,0,0,0,0,0,0,0,0,0,0,0,0,0,0,0,0,0,0,0,0,14.2562456130981,14.1228055953979,13.9918413162231,13.8632822036743,13.7370653152466,13.6131248474121,13.4914016723633,13.3718357086182,13.2856540679932,13.2475624084473,13.2096891403198,13.1720314025879,13.1345882415771,13.0973567962646,13.0603361129761,13.0235242843628,12.9869184494019,12.9505186080933,12.9143228530884,12.8783273696899,12.8425331115723,12.8069372177124,12.7715377807617,12.7363348007202,12.580924987793,12.5086650848389,12.4372291564941,12.366605758667,12.296778678894,12.2277221679688,12.1594381332397,12.091911315918,12.0118179321289,11.9303388595581,11.8499574661255,11.7769498825073,11.7118225097656,11.6474113464355,11.5837049484253,11.5207691192627,11.458776473999,11.3974475860596,11.3367719650269,11.2767381668091,11.2253980636597,11.1770896911621,11.1291952133179,11.0817098617554,11.0346279144287,10.987943649292,10.9380855560303,10.8834323883057,10.8293237686157,10.775749206543,10.7227029800415,10.6701755523682,10.6181612014771,10.5666656494141,10.5156755447388,10.4651746749878,10.473539352417,10.4825429916382,10.4915609359741,10.5005950927734,10.5096445083618,10.5187101364136,10.5277910232544,10.5368871688843,10.5459995269775,10.5551280975342,10.5642719268799,10.5734310150146,10.5826053619385,10.5917959213257,10.6010026931763,10.6102247238159,10.6194639205933,10.6287183761597,10.6379890441895,10.6472768783569,10.6565799713135,10.6658992767334,10.675235748291,10.6704483032227,10.6409702301025,10.6116542816162,10.5762062072754,10.542781829834,10.5095682144165,10.4775552749634,10.4471387863159,10.4168977737427,10.3868312835693,10.3569383621216,10.3272171020508,10.2976655960083,10.2737493515015,10.2518463134766,10.2290000915527,10.1982831954956,10.1677503585815,10.1374006271362,10.1072301864624,10.0772399902344,10.0494775772095,10.0472974777222,10.0312967300415,10.0052394866943,9.98130512237549,9.97029399871826,9.95930767059326,9.94834613800049,9.93740749359131,9.92649364471436,9.91560363769531,9.90473747253418,9.89389514923096,9.88307666778564,9.87228107452393,9.86150932312012,9.85222721099854,9.84507083892822,9.83792591094971,9.83079051971436,9.82366561889648,9.81655120849609,9.80944728851318,9.80235385894775,9.79526996612549,9.7881965637207,9.7811336517334,9.77408123016357,9.76703834533691,9.76000595092773,9.75298309326172,9.74597072601318,9.73896884918213,9.73197650909424,9.72499370574951,9.71802139282227,9.7110595703125,9.7041072845459,9.69716453552246,9.6902322769165,9.68331050872803,9.6763973236084,9.66949462890625,9.66260242462158,9.65574741363525,9.64907836914062,9.64241886138916,9.63576793670654,9.62912654876709,9.62249374389648,9.61587047576904,9.60925579071045,9.60265064239502,9.59605503082275,9.58946800231934,9.58288955688477,9.57632064819336,9.56976127624512,9.56321048736572,9.55666828155518,9.55013561248779,9.54361057281494,9.53709602355957,9.53058910369873,9.52409172058105,9.51760292053223,9.51112365722656,9.50465202331543,9.49818992614746,9.49173736572266,9.48529243469238,9.47885608673096,9.4724292755127,9.46601104736328,9.45960140228271,9.453200340271,9.44680786132812,9.4404239654541,9.43404865264893,9.4276819229126,9.42132472991943,9.4149751663208,9.40863418579102,9.40230178833008,9.39597797393799,9.38966274261475,9.38335609436035,9.37705707550049,9.37076759338379,9.36448574066162,9.35821342468262,9.35194873809814,9.3456916809082,9.33944416046143,9.3332052230835,9.3269739151001,9.32075119018555,9.31453609466553,9.30832958221436,9.30213165283203,9.29594230651855,9.28976058959961,9.28358745574951,9.27742195129395,9.27126502990723,9.26511573791504,9.2589750289917,9.25284290313721,9.24671840667725,9.24060249328613,9.23449420928955,9.2283935546875,9.2223014831543,9.21621799468994,9.2101411819458,9.20407390594482,9.19801330566406,9.19196128845215,9.18591785430908,9.17988109588623,9.17385292053223,9.16783237457275,9.16182041168213,9.15581607818604,9.14981937408447,9.14383029937744,9.13784885406494,9.13187599182129,9.12591075897217,9.11995315551758,9.11400318145752,9.10806179046631,9.10212707519531,9.09620094299316,9.09028148651123,9.08437061309814,9.07846641540527,9.07257080078125,9.06668281555176,9.0608024597168,9.05492973327637,9.04906463623047
0,0,0,0,0,0,0,0,0,0,0,0,0,0,0,0,0,0,0,0,0,0,0,0,0,0,0,0,0,0,0,0,0,0,0,0,0,0,0,0,0,0,0,0,0,0,0,0,0,0,0,0,0,0,0,0,0,0,0,0,0,0,0,0,0,0,0,0,0,0,0,0,0,0,0,0,0,0,0,0,0,0,0,0,0,0,0,0,0,0,0,0,0,0,0,0,0,0,14.1690006256104,14.037181854248,13.9077930450439,13.7807674407959,13.6560411453247,13.5335521697998,13.4132413864136,13.3022403717041,13.2640533447266,13.2260856628418,13.1883344650269,13.1507987976074,13.1134757995605,13.0763635635376,13.0394620895386,13.0027666091919,12.9662780761719,12.9299936294556,12.8939123153687,12.8580303192139,12.8223485946655,12.7868642807007,12.7515754699707,12.7164831161499,12.5824880599976,12.5102090835571,12.4387559890747,12.3681154251099,12.2982711791992,12.2292051315308,12.1609039306641,12.0933609008789,12.019702911377,11.9381170272827,11.8576307296753,11.7782230377197,11.7126665115356,11.6482467651367,11.5845308303833,11.5215091705322,11.4594449996948,11.3981094360352,11.3374261856079,11.2773857116699,11.222710609436,11.1744251251221,11.1265535354614,11.0790901184082,11.0320301055908,10.9853677749634,10.9390993118286,10.8845996856689,10.8304786682129,10.7768926620483,10.7238349914551,10.6712970733643,10.6192712783813,10.5677528381348,10.516752243042,10.4662408828735,10.4468622207642,10.4558191299438,10.4647912979126,10.4737796783447,10.4827833175659,10.4918022155762,10.5008363723755,10.5098867416382,10.5189523696899,10.5280332565308,10.537130355835,10.5462427139282,10.5553703308105,10.5645141601562,10.573673248291,10.5828485488892,10.5920391082764,10.601245880127,10.6104688644409,10.6197080612183,10.628963470459,10.6382350921631,10.6475219726562,10.6568260192871,10.62855052948,10.5887718200684,10.5549631118774,10.5216732025146,10.4885921478271,10.457896232605,10.4275932312012,10.3974647521973,10.3675107955933,10.3377285003662,10.3081169128418,10.279730796814,10.2578029632568,10.2359676361084,10.2079820632935,10.1773910522461,10.1469831466675,10.116756439209,10.086709022522,10.058403968811,10.0562191009521,10.0480880737305,10.0219440460205,9.99593639373779,9.97238159179688,9.96139049530029,9.95042419433594,9.93948078155518,9.92856216430664,9.91766834259033,9.90679740905762,9.89595031738281,9.88512706756592,9.87432765960693,9.86355113983154,9.85279846191406,9.84206962585449,9.83136367797852,9.82207012176514,9.81495761871338,9.8078556060791,9.8007640838623,9.79368305206299,9.78661251068115,9.77955150604248,9.77250099182129,9.76546001434326,9.75842952728271,9.75140953063965,9.74440002441406,9.73739910125732,9.73040962219238,9.72342967987061,9.71645927429199,9.70949935913086,9.70254993438721,9.69561004638672,9.68867969512939,9.68175888061523,9.67484855651855,9.66794872283936,9.661057472229,9.65417671203613,9.64730548858643,9.6404447555542,9.63359260559082,9.62675094604492,9.61991882324219,9.61309623718262,9.60628414154053,9.59948062896729,9.59272766113281,9.58614540100098,9.57957172393799,9.57300758361816,9.56645202636719,9.55990505218506,9.55336761474609,9.54683971405029,9.54031944274902,9.53380870819092,9.52730655670166,9.52081394195557,9.51432991027832,9.50785446166992,9.50138854980469,9.49493026733398,9.48848152160645,9.48204135894775,9.47560977935791,9.46918678283691,9.46277332305908,9.45636749267578,9.44997119903564,9.44358253479004,9.4372034072876,9.430832862854,9.42446994781494,9.41811656951904,9.41177177429199,9.40543556213379,9.39910697937012,9.39278793334961,9.38647651672363,9.3801736831665,9.37388038635254,9.36759471893311,9.36131763458252,9.35504817962646,9.34878826141357,9.34253597259521,9.3362922668457,9.33005714416504,9.32383060455322,9.31761169433594,9.3114013671875,9.30519866943359,9.29900455474854,9.29281902313232,9.28664207458496,9.28047275543213,9.27431201934814,9.26815891265869,9.26201438903809,9.25587749481201,9.24974918365479,9.24362850189209,9.23751640319824,9.23141288757324,9.22531604766846,9.21922874450684,9.21314811706543,9.20707607269287,9.20101261138916,9.19495677947998,9.18890857696533,9.18286800384521,9.17683601379395,9.17081165313721,9.16479587554932,9.15878772735596,9.15278625488281,9.14679431915283,9.14080905914307,9.13483238220215,9.12886238098145,9.12290191650391,9.11694717407227,9.11100196838379,9.10506343841553,9.09913349151611,9.09321022033691,9.08729553222656,9.08138847351074,9.07548904418945,9.06959629058838,9.06371212005615,9.05783557891846,9.05196666717529,9.04610538482666,9.04025173187256,9.03440475463867,9.02856636047363
0,0,0,0,0,0,0,0,0,0,0,0,0,0,0,0,0,0,0,0,0,0,0,0,0,0,0,0,0,0,0,0,0,0,0,0,0,0,0,0,0,0,0,0,0,0,0,0,0,0,0,0,0,0,0,0,0,0,0,0,0,0,0,0,0,0,0,0,0,0,0,0,0,0,0,0,0,0,0,0,0,0,0,0,0,0,0,0,0,0,0,0,0,0,0,0,14.2154989242554,14.0828170776367,13.9525899887085,13.8247480392456,13.6992282867432,13.575966835022,13.4549045562744,13.3359813690186,13.2805862426758,13.2425231933594,13.2046785354614,13.167049407959,13.1296348571777,13.0924310684204,13.0554389953613,13.0186538696289,12.9820766448975,12.9457035064697,12.9095335006714,12.8735656738281,12.8377981185913,12.802227973938,12.7668542861938,12.7316761016846,12.6966924667358,12.6619005203247,12.5117540359497,12.4402837753296,12.3696250915527,12.2997646331787,12.2306871414185,12.1623697280884,12.0948114395142,12.0275974273682,11.9459047317505,11.8653144836426,11.7858037948608,11.7135105133057,11.6490812301636,11.5853567123413,11.5223255157471,11.4601135253906,11.3987703323364,11.338080406189,11.2780332565308,11.2200241088867,11.1717615127563,11.1239128112793,11.0764713287354,11.0294342041016,10.9827938079834,10.9365463256836,10.8857660293579,10.8316335678101,10.7780361175537,10.7249670028687,10.6724185943604,10.62038230896,10.5688505172729,10.5178289413452,10.4673080444336,10.4203195571899,10.4292316436768,10.4381580352783,10.4471006393433,10.4560575485229,10.465030670166,10.4740190505981,10.4830236434937,10.4920425415039,10.5010776519775,10.5101280212402,10.519193649292,10.5282754898071,10.537371635437,10.5464839935303,10.5556116104126,10.5647554397583,10.5739154815674,10.5830907821655,10.5922822952271,10.601490020752,10.6107130050659,10.6199531555176,10.6292085647583,10.603835105896,10.5671730041504,10.533805847168,10.5006484985352,10.4686756134033,10.4383106231689,10.4081211090088,10.3781051635742,10.3482618331909,10.3185901641846,10.2890882492065,10.263765335083,10.2419052124023,10.2176990509033,10.1870498657227,10.1565847396851,10.1263008117676,10.0961971282959,10.0673456192017,10.0651578903198,10.062970161438,10.0387048721313,10.0126094818115,9.98664951324463,9.96347427368164,9.95250225067139,9.94155502319336,9.93063259124756,9.91973304748535,9.90885734558105,9.89800643920898,9.88717842102051,9.87637424468994,9.86559391021729,9.85483741760254,9.84410381317139,9.83339309692383,9.82270622253418,9.81204319000244,9.80140209197998,9.7920970916748,9.78502750396729,9.77796936035156,9.770920753479,9.76388263702393,9.75685501098633,9.74983692169189,9.74282932281494,9.73583126068115,9.72884368896484,9.7218656539917,9.71489810943604,9.70794010162354,9.70099258422852,9.69405460357666,9.68712711334229,9.68020915985107,9.67330074310303,9.66640186309814,9.65951347351074,9.65263557434082,9.64576625823975,9.63890743255615,9.63205814361572,9.62521839141846,9.61838817596436,9.61156845092773,9.60475730895996,9.59795665740967,9.59116554260254,9.58438301086426,9.57761096954346,9.57084846496582,9.56409549713135,9.55735206604004,9.55061817169189,9.54389381408691,9.5371789932251,9.53052425384521,9.52402687072754,9.51753902435303,9.51105880737305,9.50458812713623,9.49812602996826,9.49167251586914,9.48522758483887,9.47879219055176,9.4723653793335,9.46594715118408,9.45953750610352,9.4531364440918,9.44674396514893,9.4403600692749,9.43398475646973,9.42761898040771,9.42126083374023,9.4149112701416,9.40857124328613,9.4022388458252,9.39591503143311,9.38959980010986,9.38329315185547,9.37699508666992,9.37070465087891,9.36442375183105,9.35815048217773,9.35188579559326,9.34562969207764,9.33938217163086,9.33314228057861,9.32691192626953,9.32068920135498,9.31447410583496,9.30826759338379,9.30206966400146,9.29588031768799,9.28969860076904,9.28352546691895,9.27735996246338,9.27120399475098,9.26505470275879,9.25891399383545,9.25278186798096,9.246657371521,9.24054145812988,9.2344331741333,9.22833347320557,9.22224140167236,9.21615695953369,9.21008110046387,9.20401287078857,9.19795322418213,9.19190120697021,9.18585681915283,9.1798210144043,9.17379283905029,9.16777229309082,9.1617603302002,9.1557559967041,9.14975929260254,9.14377021789551,9.13778972625732,9.13181686401367,9.12585163116455,9.11989402770996,9.1139440536499,9.10800266265869,9.1020679473877,9.09614181518555,9.09022235870361,9.08431148529053,9.07840824127197,9.07251262664795,9.06662464141846,9.0607442855835,9.05487060546875,9.04900550842285,9.04314804077148,9.03729820251465,9.03145599365234,9.02562046051025,9.01979351043701,9.01397323608398,9.0081615447998
0,0,0,0,0,0,0,0,0,0,0,0,0,0,0,0,0,0,0,0,0,0,0,0,0,0,0,0,0,0,0,0,0,0,0,0,0,0,0,0,0,0,0,0,0,0,0,0,0,0,0,0,0,0,0,0,0,0,0,0,0,0,0,0,0,0,0,0,0,0,0,0,0,0,0,0,0,0,0,0,0,0,0,0,0,0,0,0,0,0,0,0,0,0,0,14.1287508010864,13.9976758956909,13.869010925293,13.7426891326904,13.6186485290527,13.4968271255493,13.3771648406982,13.2971591949463,13.2590026855469,13.2210636138916,13.1833410263062,13.1458330154419,13.1085386276245,13.0714550018311,13.0345802307129,12.9979124069214,12.9614515304565,12.9251937866211,12.8891382217407,12.8532838821411,12.8176279067993,12.782169342041,12.7469072341919,12.7118377685547,12.676962852478,12.6422786712646,12.5132989883423,12.4418106079102,12.3711347579956,12.3012580871582,12.2321653366089,12.163836479187,12.0962619781494,12.0294332504272,11.9537029266357,11.873007774353,11.7933950424194,11.7148418426514,11.6499166488647,11.5861825942993,11.5231428146362,11.4607849121094,11.399432182312,11.3387355804443,11.2786817550659,11.2192602157593,11.1690988540649,11.1212730407715,11.0738544464111,11.0268383026123,10.9802207946777,10.9339952468872,10.8869323730469,10.8327884674072,10.7791805267334,10.7260999679565,10.6735401153564,10.6214923858643,10.5699501037598,10.5189065933228,10.4683752059937,10.4183263778687,10.4027786254883,10.411660194397,10.4205570220947,10.4294691085815,10.4383964538574,10.4473390579224,10.4562969207764,10.4652700424194,10.4742593765259,10.4832630157471,10.4922828674316,10.5013179779053,10.5103693008423,10.519434928894,10.5285158157349,10.5376129150391,10.5467252731323,10.555853843689,10.5649976730347,10.5741577148438,10.5833339691162,10.5925254821777,10.6017332077026,10.5794105529785,10.5459661483765,10.5127325057983,10.4797077178955,10.449049949646,10.4187984466553,10.3887205123901,10.3588171005249,10.3290843963623,10.2995223999023,10.2701292037964,10.2478494644165,10.2260580062866,10.1967277526855,10.1662034988403,10.1358623504639,10.1057024002075,10.0763034820557,10.0741119384766,10.0719203948975,10.0555219650269,10.0293388366699,10.0032930374146,9.97738075256348,9.95458221435547,9.94363021850586,9.93270301818848,9.92179870605469,9.91091918945312,9.90006351470947,9.88923072814941,9.87842273712158,9.86763763427734,9.85687637329102,9.84613800048828,9.83542346954346,9.82473182678223,9.81406402587891,9.80341911315918,9.79279708862305,9.78219890594482,9.77162265777588,9.76230621337891,9.75528049468994,9.74826431274414,9.74125862121582,9.73426342010498,9.7272777557373,9.72030258178711,9.71333694458008,9.70638179779053,9.69943618774414,9.69250011444092,9.68557453155518,9.6786584854126,9.6717529296875,9.66485691070557,9.6579704284668,9.65109443664551,9.64422702789307,9.63737010955811,9.63052368164062,9.62368583679199,9.61685848236084,9.61003971099854,9.60323143005371,9.59643268585205,9.58964347839355,9.58286380767822,9.57609367370605,9.56933403015137,9.56258296966553,9.55584144592285,9.54910945892334,9.54238700866699,9.53567409515381,9.52897071838379,9.52227687835693,9.51559257507324,9.5089168548584,9.50225067138672,9.4955940246582,9.48894691467285,9.48230934143066,9.47568035125732,9.46912288665771,9.46270942687988,9.45630359649658,9.44990730285645,9.44351863861084,9.4371395111084,9.4307689666748,9.42440700531006,9.41805362701416,9.41170883178711,9.40537166595459,9.39904403686523,9.39272499084473,9.38641357421875,9.38011169433594,9.37381744384766,9.36753177642822,9.36125469207764,9.3549861907959,9.34872531890869,9.34247398376465,9.33623027801514,9.32999515533447,9.32376766204834,9.31754970550537,9.31133937835693,9.30513668060303,9.29894351959229,9.29275798797607,9.28658008575439,9.28041076660156,9.27425003051758,9.26809787750244,9.26195335388184,9.25581645965576,9.24968814849854,9.24356746673584,9.23745536804199,9.23135185241699,9.22525596618652,9.21916770935059,9.2130880355835,9.20701599121094,9.20095157623291,9.19489574432373,9.18884754180908,9.18280792236328,9.17677593231201,9.17075157165527,9.16473579406738,9.15872764587402,9.1527271270752,9.1467342376709,9.14074897766113,9.13477230072021,9.12880325317383,9.12284183502197,9.11688804626465,9.11094284057617,9.10500431060791,9.0990743637085,9.0931510925293,9.08723640441895,9.08132934570312,9.07542991638184,9.06953811645508,9.06365394592285,9.05777740478516,9.05190849304199,9.04604721069336,9.04019355773926,9.03434658050537,9.02850818634033,9.02267742156982,9.01685333251953,9.01103782653809,9.00522899627686,8.99942779541016,8.99363422393799,8.98784828186035
0,0,0,0,0,0,0,0,0,0,0,0,0,0,0,0,0,0,0,0,0,0,0,0,0,0,0,0,0,0,0,0,0,0,0,0,0,0,0,0,0,0,0,0,0,0,0,0,0,0,0,0,0,0,0,0,0,0,0,0,0,0,0,0,0,0,0,0,0,0,0,0,0,0,0,0,0,0,0,0,0,0,0,0,0,0,0,0,0,0,0,0,0,14.1749849319458,14.0430545806885,13.9135580062866,13.7864274978638,13.6615991592407,13.5390110015869,13.4186038970947,13.3137741088867,13.2755222320557,13.2374887466431,13.1996726989746,13.1620721817017,13.1246852874756,13.0875101089478,13.0505447387695,13.0137882232666,12.977237701416,12.9408912658691,12.904748916626,12.8688077926636,12.8330659866333,12.7975215911865,12.7621746063232,12.7270221710205,12.6920623779297,12.6572952270508,12.6227188110352,12.5883302688599,12.443338394165,12.3726453781128,12.3027515411377,12.2336416244507,12.1653032302856,12.0977125167847,12.0308675765991,11.9615116119385,11.880711555481,11.8009948730469,11.7223415374756,11.6507511138916,11.5870084762573,11.5239601135254,11.4615936279297,11.4000940322876,11.3393907546997,11.2793292999268,11.2199010848999,11.1664381027222,11.118634223938,11.0712385177612,11.024245262146,10.9776487350464,10.9314451217651,10.885627746582,10.8339443206787,10.7803249359131,10.7272329330444,10.6746616363525,10.6226034164429,10.5710506439209,10.5199956893921,10.4694423675537,10.4193830490112,10.3764591217041,10.3852958679199,10.3941478729248,10.4030151367188,10.4118967056274,10.4207944869995,10.4297065734863,10.4386348724365,10.4475774765015,10.4565362930298,10.4655094146729,10.4744987487793,10.4835033416748,10.4925231933594,10.501558303833,10.5106086730957,10.5196743011475,10.5287561416626,10.5378532409668,10.5469665527344,10.556095123291,10.565239906311,10.5743999481201,10.5581541061401,10.5248441696167,10.4917430877686,10.4598112106323,10.429497718811,10.3993587493896,10.3693933486938,10.3396005630493,10.3099784851074,10.2805252075195,10.2538013458252,10.2319831848145,10.2064228057861,10.1758413314819,10.1454429626465,10.1152257919312,10.085277557373,10.0830812454224,10.080885887146,10.072395324707,10.046124458313,10.0199909210205,9.99399280548096,9.96812915802002,9.94570636749268,9.93477439880371,9.92386531829834,9.9129810333252,9.90212059020996,9.89128398895264,9.88047122955322,9.8696813583374,9.85891628265381,9.84817314147949,9.8374547958374,9.82675838470459,9.816086769104,9.8054370880127,9.79481029510498,9.78420734405518,9.77362728118896,9.76307010650635,9.75253486633301,9.74202346801758,9.73269653320312,9.72571277618408,9.71873950958252,9.71177673339844,9.70482349395752,9.69787979125977,9.69094657897949,9.68402290344238,9.67710971832275,9.67020606994629,9.66331195831299,9.65642738342285,9.6495532989502,9.6426887512207,9.63583374023438,9.62898921966553,9.62215423583984,9.61532783508301,9.60851192474365,9.60170650482178,9.59490966796875,9.58812236785889,9.5813455581665,9.57457733154297,9.5678186416626,9.56107044219971,9.55433082580566,9.5476016998291,9.54088115692139,9.53417015075684,9.52746868133545,9.52077674865723,9.51409435272217,9.50742149353027,9.50075721740723,9.49410343170166,9.48745822906494,9.48082160949707,9.47419548034668,9.46757793426514,9.46096992492676,9.45437049865723,9.44778156280518,9.44120025634766,9.43462944030762,9.42806720733643,9.4215145111084,9.41497039794922,9.40850734710693,9.40217590332031,9.39585208892822,9.38953685760498,9.38323020935059,9.37693214416504,9.37064266204834,9.36436080932617,9.35808849334717,9.3518238067627,9.34556770324707,9.33932018280029,9.33308029174805,9.32684898376465,9.3206262588501,9.31441211700439,9.30820560455322,9.3020076751709,9.29581832885742,9.28963661193848,9.2834644317627,9.27729892730713,9.27114200592041,9.26499366760254,9.2588529586792,9.25272083282471,9.24659633636475,9.24048042297363,9.23437213897705,9.22827243804932,9.22218036651611,9.21609687805176,9.21002101898193,9.20395278930664,9.1978931427002,9.19184112548828,9.1857967376709,9.17976093292236,9.17373275756836,9.16771221160889,9.16170024871826,9.15569591522217,9.14969921112061,9.14371109008789,9.13773059844971,9.13175678253174,9.12579154968262,9.11983394622803,9.11388492584229,9.10794258117676,9.10200881958008,9.09608268737793,9.090163230896,9.08425235748291,9.07834911346436,9.07245349884033,9.06656551361084,9.06068515777588,9.05481243133545,9.04894733428955,9.04308986663818,9.03724002838135,9.03139781951904,9.02556228637695,9.01973533630371,9.01391506195068,9.0081033706665,9.00229835510254,8.99650096893311,8.9907112121582,8.98492908477783,8.97915363311768,8.97338581085205,8.96762561798096
0,0,0,0,0,0,0,0,0,0,0,0,0,0,0,0,0,0,0,0,0,0,0,0,0,0,0,0,0,0,0,0,0,0,0,0,0,0,0,0,0,0,0,0,0,0,0,0,0,0,0,0,0,0,0,0,0,0,0,0,0,0,0,0,0,0,0,0,0,0,0,0,0,0,0,0,0,0,0,0,0,0,0,0,0,0,0,0,0,0,0,0,14.0887279510498,13.9583921432495,13.8304443359375,13.7048215866089,13.5814599990845,13.4602994918823,13.3412818908691,13.2920827865601,13.2539548873901,13.2160444259644,13.1783514022827,13.1408720016479,13.1036052703857,13.0665483474731,13.0297021865845,12.9930620193481,12.9566278457642,12.9203968048096,12.8843688964844,12.8485403060913,12.8129110336304,12.7774782180786,12.742241859436,12.7071990966797,12.6723480224609,12.6376886367798,12.6032180786133,12.5689363479614,12.4448671340942,12.3741569519043,12.3042449951172,12.2351188659668,12.1667652130127,12.0991630554199,12.0323028564453,11.9661769866943,11.8884248733521,11.8086051940918,11.729850769043,11.6521396636963,11.5878353118896,11.5247774124146,11.4624013900757,11.4007558822632,11.3400449752808,11.2799768447876,11.2205419540405,11.1637783050537,11.1159973144531,11.0686235427856,11.0216522216797,10.9750785827637,10.9288959503174,10.8831005096436,10.8351001739502,10.7814693450928,10.7283658981323,10.6757841110229,10.6237144470215,10.572151184082,10.5210847854614,10.4705104827881,10.4204406738281,10.3708486557007,10.3590650558472,10.3678722381592,10.3766946792603,10.3855314254761,10.3943843841553,10.4032516479492,10.4121341705322,10.4210319519043,10.4299449920654,10.4388723373413,10.4478158950806,10.4567747116089,10.4657487869263,10.4747381210327,10.4837427139282,10.4927625656128,10.5017976760864,10.5108480453491,10.5199146270752,10.5289964675903,10.5380945205688,10.5472078323364,10.5369834899902,10.5038070678711,10.4708375930786,10.4402189254761,10.4100179672241,10.3799915313721,10.3501377105713,10.3204545974731,10.2909421920776,10.2615976333618,10.2379169464111,10.216136932373,10.1854972839355,10.1550416946411,10.1247663497925,10.094672203064,10.0920667648315,10.0898685455322,10.0876703262329,10.0629663467407,10.0367450714111,10.0106601715088,9.98471069335938,9.95889472961426,9.93684673309326,9.92593383789062,9.9150447845459,9.90417957305908,9.89333820343018,9.88252067565918,9.87172698974609,9.86095714569092,9.85021018981934,9.83948612213135,9.82878589630127,9.8181095123291,9.80745601654053,9.79682540893555,9.78621768951416,9.77563285827637,9.76507091522217,9.75453186035156,9.74401569366455,9.73352241516113,9.72305107116699,9.71260261535645,9.70326519012451,9.69632434844971,9.68939304351807,9.68247222900391,9.67555999755859,9.66865921020508,9.66176700592041,9.65488529205322,9.6480131149292,9.64115142822266,9.63429832458496,9.62745571136475,9.6206226348877,9.61379909515381,9.60698509216309,9.60018157958984,9.59338665008545,9.58660221099854,9.57982635498047,9.57306098937988,9.56630516052246,9.55955791473389,9.55282115936279,9.54609394073486,9.53937530517578,9.53266716003418,9.52596759796143,9.51927757263184,9.51259708404541,9.50592613220215,9.49926471710205,9.4926118850708,9.48596858978271,9.47933483123779,9.47271060943604,9.46609497070312,9.45948886871338,9.4528923034668,9.44630527496338,9.43972587585449,9.43315696716309,9.42659664154053,9.42004585266113,9.41350364685059,9.4069709777832,9.40044689178467,9.3939323425293,9.38742637634277,9.38092994689941,9.3744421005249,9.36796379089355,9.36149311065674,9.3550329208374,9.34866333007812,9.34241104125977,9.33616828918457,9.32993221282959,9.32370567321777,9.3174877166748,9.31127738952637,9.30507564544678,9.29888153076172,9.29269599914551,9.28651905059814,9.28034973144531,9.27418899536133,9.26803588867188,9.26189136505127,9.25575542449951,9.24962711334229,9.24350643157959,9.23739528656006,9.23129081726074,9.22519493103027,9.21910667419434,9.21302700042725,9.20695495605469,9.20089149475098,9.1948356628418,9.18878746032715,9.18274784088135,9.17671585083008,9.17069149017334,9.16467571258545,9.15866756439209,9.15266704559326,9.14667415618896,9.14068984985352,9.1347131729126,9.12874412536621,9.12278270721436,9.11682891845703,9.11088371276855,9.10494518280029,9.09901523590088,9.093092918396,9.08717727661133,9.08127021789551,9.07537078857422,9.06947898864746,9.06359481811523,9.05771827697754,9.05184936523438,9.04598808288574,9.04013442993164,9.03428840637207,9.02845001220703,9.02261924743652,9.01679515838623,9.01097965240479,9.00517082214355,8.99936962127686,8.99357604980469,8.98779010772705,8.98201179504395,8.97624015808105,8.9704761505127,8.96471977233887,8.95897102355957,8.95322895050049,8.94749546051025
0,0,0,0,0,0,0,0,0,0,0,0,0,0,0,0,0,0,0,0,0,0,0,0,0,0,0,0,0,0,0,0,0,0,0,0,0,0,0,0,0,0,0,0,0,0,0,0,0,0,0,0,0,0,0,0,0,0,0,0,0,0,0,0,0,0,0,0,0,0,0,0,0,0,0,0,0,0,0,0,0,0,0,0,0,0,0,0,0,0,0,14.0035161972046,13.8747434616089,13.7483186721802,13.6241760253906,13.5022563934326,13.3824987411499,13.3086853027344,13.2704620361328,13.2324571609497,13.1946706771851,13.1570978164673,13.1197395324707,13.082592010498,13.045654296875,13.0089254379272,12.9724016189575,12.9360837936401,12.8999671936035,12.864052772522,12.8283376693726,12.7928199768066,12.7574977874756,12.7223711013794,12.6874370574951,12.6526947021484,12.6181421279907,12.5837783813477,12.5496015548706,12.4463958740234,12.3756685256958,12.305739402771,12.2365970611572,12.1682271957397,12.1006145477295,12.0337381362915,11.9675970077515,11.8961477279663,11.8162250518799,11.7373695373535,11.6595582962036,11.5886611938477,11.5255947113037,11.463210105896,11.4014978408813,11.3407001495361,11.2806253433228,11.2211837768555,11.1623649597168,11.1133613586426,11.0660104751587,11.019061088562,10.972508430481,10.9263477325439,10.8805732727051,10.8351812362671,10.7826137542725,10.7294998168945,10.6769065856934,10.6248264312744,10.5732517242432,10.5221748352051,10.4715900421143,10.421498298645,10.3718957901001,10.3329668045044,10.3417291641235,10.3505067825317,10.359299659729,10.368106842041,10.3769302368164,10.3857669830322,10.3946199417114,10.4034881591797,10.4123706817627,10.4212684631348,10.4301824569702,10.4391107559204,10.4480543136597,10.4570140838623,10.4659872055054,10.4749765396118,10.4839811325073,10.4930009841919,10.5020360946655,10.5110874176025,10.5201539993286,10.5158977508545,10.482852935791,10.4509620666504,10.4206991195679,10.3906106948853,10.3606958389282,10.3309535980225,10.3013801574707,10.2719764709473,10.2438564300537,10.2220811843872,10.1951723098755,10.1646575927734,10.1343259811401,10.1041746139526,10.1010694503784,10.0988664627075,10.0966644287109,10.0798645019531,10.0535554885864,10.027382850647,10.0013465881348,9.97544479370117,9.94967746734619,9.92800235748291,9.9171085357666,9.90623950958252,9.89539337158203,9.88457107543945,9.87377262115479,9.86299800872803,9.85224723815918,9.84151935577393,9.83081436157227,9.82013320922852,9.80947494506836,9.79884052276611,9.78822803497314,9.77763938903809,9.7670726776123,9.75652980804443,9.74600887298584,9.73551177978516,9.72503566741943,9.71458339691162,9.70415306091309,9.69374465942383,9.68335914611816,9.67401218414307,9.66711235046387,9.66022300720215,9.65334320068359,9.64647388458252,9.63961315155029,9.63276290893555,9.62592220306396,9.61909198760986,9.61227035522461,9.60545921325684,9.59865665435791,9.59186458587646,9.58508205413818,9.57830905914307,9.57154560089111,9.56479167938232,9.55804634094238,9.55131149291992,9.54458618164062,9.53787040710449,9.53116416931152,9.5244665145874,9.51777839660645,9.51110076904297,9.50443172454834,9.49777221679688,9.49112129211426,9.48448085784912,9.47784900665283,9.47122669219971,9.46461296081543,9.45800876617432,9.45141410827637,9.44482898712158,9.43825244903564,9.43168544769287,9.42512702941895,9.41857814788818,9.41203784942627,9.40550708770752,9.39898586273193,9.39247226715088,9.3859691619873,9.37947463989258,9.3729887008667,9.36651229858398,9.3600435256958,9.3535852432251,9.34713459014893,9.34069442749023,9.33426189422607,9.32783794403076,9.32142353057861,9.31501770019531,9.30862140655518,9.30223274230957,9.29585361480713,9.28957557678223,9.28340244293213,9.27723693847656,9.27108097076416,9.26493263244629,9.25879192352295,9.25265979766846,9.2465353012085,9.24041938781738,9.2343111038208,9.22821140289307,9.22211933135986,9.21603584289551,9.20995998382568,9.20389175415039,9.19783210754395,9.19178104400635,9.18573665618896,9.17970085144043,9.17367267608643,9.16765308380127,9.16164112091064,9.15563583374023,9.14964008331299,9.14365100860596,9.13767051696777,9.13169765472412,9.125732421875,9.11977481842041,9.11382579803467,9.10788345336914,9.10194969177246,9.09602355957031,9.0901050567627,9.08419322967529,9.07829093933105,9.07239437103271,9.06650733947754,9.06062698364258,9.05475425720215,9.04888916015625,9.04303169250488,9.03718185424805,9.03133964538574,9.02550411224365,9.01967716217041,9.01385688781738,9.0080451965332,9.00224018096924,8.99644374847412,8.9906530380249,8.98487091064453,8.97909641265869,8.97332859039307,8.96756839752197,8.96181583404541,8.95607089996338,8.95033264160156,8.94460201263428,8.93887901306152,8.93316268920898,8.92745399475098
0,0,0,0,0,0,0,0,0,0,0,0,0,0,0,0,0,0,0,0,0,0,0,0,0,0,0,0,0,0,0,0,0,0,0,0,0,0,0,0,0,0,0,0,0,0,0,0,0,0,0,0,0,0,0,0,0,0,0,0,0,0,0,0,0,0,0,0,0,0,0,0,0,0,0,0,0,0,0,0,0,0,0,0,0,0,0,0,0,14.0489320755005,13.9193277359009,13.7920923233032,13.6671619415283,13.5444746017456,13.4239702224731,13.3253288269043,13.2870101928711,13.2489109039307,13.2110300064087,13.1733646392822,13.135913848877,13.0986747741699,13.0616464614868,13.024827003479,12.9882144927979,12.951807975769,12.9156036376953,12.879602432251,12.8438005447388,12.8081970214844,12.7727909088135,12.7375802993774,12.7025623321533,12.6677370071411,12.6331014633179,12.5986566543579,12.564398765564,12.5303268432617,12.4964389801025,12.377179145813,12.3072338104248,12.2380752563477,12.1696882247925,12.1020622253418,12.035174369812,11.9690170288086,11.9035835266113,11.8238554000854,11.7448978424072,11.6669874191284,11.5901041030884,11.5264120101929,11.4640188217163,11.4022979736328,11.3413553237915,11.2812738418579,11.2218246459961,11.1629991531372,11.1107263565063,11.0633983612061,11.0164709091187,10.9699401855469,10.9238014221191,10.8780479431152,10.8326768875122,10.7837581634521,10.7306337356567,10.6780290603638,10.625937461853,10.5743522644043,10.5232648849487,10.4726696014404,10.4225578308105,10.3729438781738,10.3238010406494,10.3157176971436,10.3244514465332,10.3331995010376,10.3419628143311,10.3507413864136,10.3595342636108,10.3683423995972,10.3771648406982,10.3860034942627,10.3948564529419,10.4037246704102,10.4126081466675,10.4215059280396,10.430419921875,10.4393482208252,10.4482917785645,10.4572505950928,10.4662246704102,10.4752140045166,10.4842195510864,10.493239402771,10.4948959350586,10.4619827270508,10.4314022064209,10.401252746582,10.3712768554688,10.3414726257324,10.311840057373,10.2823762893677,10.253080368042,10.2280025482178,10.2048645019531,10.1742925643921,10.1439027786255,10.1136951446533,10.1100873947144,10.1078805923462,10.1056747436523,10.0968198776245,10.0704221725464,10.0441627502441,10.0180387496948,9.99205112457275,9.96619701385498,9.9404764175415,9.91917324066162,9.90829944610596,9.8974494934082,9.88662242889404,9.87582015991211,9.86504077911377,9.85428524017334,9.8435525894165,9.83284378051758,9.82215785980225,9.81149578094482,9.80085563659668,9.79023933410645,9.7796459197998,9.76907634735107,9.75852870941162,9.74800300598145,9.73750114440918,9.72702121734619,9.7165641784668,9.706130027771,9.69571781158447,9.68532752990723,9.67496013641357,9.6646146774292,9.6542911529541,9.64493465423584,9.63807678222656,9.63122844696045,9.6243896484375,9.61756134033203,9.61074161529541,9.60393238067627,9.59713268280029,9.59034252166748,9.58356189727783,9.57679080963135,9.57003021240234,9.56327819824219,9.5565357208252,9.54980278015137,9.5430793762207,9.5363655090332,9.52966117858887,9.5229663848877,9.51628017425537,9.50960445404053,9.50293731689453,9.4962797164917,9.48963165283203,9.48299312591553,9.47636318206787,9.46974277496338,9.46313190460205,9.45652961730957,9.44993686676025,9.4433536529541,9.4367790222168,9.43021392822266,9.42365741729736,9.41711044311523,9.41057300567627,9.40404415130615,9.39752388000488,9.39101314544678,9.38451194763184,9.37801933288574,9.3715353012085,9.36506080627441,9.35859489440918,9.35213756561279,9.34568977355957,9.3392505645752,9.33282089233398,9.3263988494873,9.31998634338379,9.31358242034912,9.30718803405762,9.30080223083496,9.29442405700684,9.28805541992188,9.28169536590576,9.27534484863281,9.26900196075439,9.26266765594482,9.25634288787842,9.25002574920654,9.24371814727783,9.23741817474365,9.23122978210449,9.22513389587402,9.2190465927124,9.21296691894531,9.20689487457275,9.20083141326904,9.19477558135986,9.18872737884521,9.18268775939941,9.17665576934814,9.17063140869141,9.16461563110352,9.15860748291016,9.15260696411133,9.14661502838135,9.14062976837158,9.13465309143066,9.12868404388428,9.12272262573242,9.11676979064941,9.11082363128662,9.10488605499268,9.09895610809326,9.09303379058838,9.08711910247803,9.08121204376221,9.07531261444092,9.06942081451416,9.06353664398193,9.05766010284424,9.05179119110107,9.04592990875244,9.04007625579834,9.03423023223877,9.02839183807373,9.02256107330322,9.01673793792725,9.01092147827148,9.00511264801025,8.99931240081787,8.9935188293457,8.98773288726807,8.98195362091064,8.97618293762207,8.97041893005371,8.96466255187988,8.95891380310059,8.95317268371582,8.94743824005127,8.94171142578125,8.93599128723145,8.93027877807617,8.92457389831543,8.91887664794922,8.91318607330322,8.90750312805176
0,0,0,0,0,0,0,0,0,0,0,0,0,0,0,0,0,0,0,0,0,0,0,0,0,0,0,0,0,0,0,0,0,0,0,0,0,0,0,0,0,0,0,0,0,0,0,0,0,0,0,0,0,0,0,0,0,0,0,0,0,0,0,0,0,0,0,0,0,0,0,0,0,0,0,0,0,0,0,0,0,0,0,0,0,0,0,0,13.9641990661621,13.836145401001,13.7104196548462,13.5869579315186,13.4657001495361,13.3465871810913,13.303599357605,13.2654056549072,13.2274303436279,13.1896715164185,13.1521282196045,13.1147975921631,13.0776777267456,13.0407686233521,13.0040664672852,12.9675703048706,12.9312782287598,12.8951892852783,12.8593015670776,12.8236122131348,12.7881212234497,12.7528247833252,12.7177238464355,12.6828155517578,12.6480979919434,12.6135702133179,12.5792303085327,12.5450782775879,12.5111112594604,12.4773273468018,12.3786916732788,12.3087291717529,12.2395524978638,12.1711502075195,12.1035070419312,12.0366096496582,11.9704370498657,11.9049882888794,11.8314952850342,11.7524356842041,11.6744260787964,11.5974445343018,11.527229309082,11.4648275375366,11.4030981063843,11.3420295715332,11.2819213867188,11.222466468811,11.1636343002319,11.1080932617188,11.0607872009277,11.0138816833496,10.9673728942871,10.9212551116943,10.8755235671997,10.8301734924316,10.7849035263062,10.7317676544189,10.6791515350342,10.627049446106,10.5754537582397,10.5243558883667,10.4737501144409,10.4236278533936,10.3739910125732,10.3248386383057,10.2898368835449,10.298526763916,10.3072309494019,10.3159503936768,10.3246841430664,10.3334331512451,10.3421964645386,10.3509750366211,10.3597688674927,10.368577003479,10.3774003982544,10.3862390518188,10.3950929641724,10.4039611816406,10.4128446578979,10.4217433929443,10.4306564331055,10.4395847320557,10.4485282897949,10.4574880599976,10.4664621353149,10.4739780426025,10.4421281814575,10.4119157791138,10.3818788528442,10.3520135879517,10.322319984436,10.292797088623,10.2634420394897,10.2342538833618,10.212197303772,10.1839456558228,10.1534986495972,10.1232328414917,10.1191215515137,10.1169099807739,10.1147003173828,10.112491607666,10.0873460769653,10.0609979629517,10.0347862243652,10.0087118148804,9.98277187347412,9.95696640014648,9.93129348754883,9.91036033630371,9.89950561523438,9.88867473602295,9.87786769866943,9.86708354949951,9.8563232421875,9.8455867767334,9.83487319946289,9.82418346405029,9.81351661682129,9.80287265777588,9.79225254058838,9.78165435791016,9.77108001708984,9.76052761077881,9.74999809265137,9.73949241638184,9.72900772094727,9.71854686737061,9.70810794830322,9.69769191741943,9.68729782104492,9.67692565917969,9.66657543182373,9.65624809265137,9.64594268798828,9.63565921783447,9.62539768218994,9.61603164672852,9.60921382904053,9.60240745544434,9.59560966491699,9.58882141113281,9.5820426940918,9.57527446746826,9.56851482391357,9.56176567077637,9.55502510070801,9.54829406738281,9.5415735244751,9.53486156463623,9.52815914154053,9.52146625518799,9.51478290557861,9.50810813903809,9.50144386291504,9.49478816986084,9.4881420135498,9.48150539398193,9.47487735748291,9.46825885772705,9.46164989471436,9.45505046844482,9.44845962524414,9.44187831878662,9.43530559539795,9.42874336242676,9.4221887588501,9.4156436920166,9.40910816192627,9.40258121490479,9.39606380462646,9.38955497741699,9.38305473327637,9.37656497955322,9.37008285522461,9.36361026763916,9.35714626312256,9.3506908416748,9.34424495697021,9.33780860900879,9.33137989044189,9.32496070861816,9.31855010986328,9.31214809417725,9.30575466156006,9.29937076568604,9.29299545288086,9.28662872314453,9.28027057647705,9.27392101287842,9.26758098602295,9.26124858856201,9.25492572784424,9.248610496521,9.24230480194092,9.23600673675537,9.22971820831299,9.22343826293945,9.21716594696045,9.21090316772461,9.2046480178833,9.19840145111084,9.19216346740723,9.18593406677246,9.17971324920654,9.17361259460449,9.16759300231934,9.16158103942871,9.15557670593262,9.14958000183105,9.14359188079834,9.13761043548584,9.1316385269165,9.12567329406738,9.11971569061279,9.11376571655273,9.10782432556152,9.10189056396484,9.0959644317627,9.09004592895508,9.08413505554199,9.07823181152344,9.07233619689941,9.06644821166992,9.06056785583496,9.05469512939453,9.04883003234863,9.04297256469727,9.03712368011475,9.03128147125244,9.02544593811035,9.01961898803711,9.0137996673584,9.0079870223999,9.00218296051025,8.99638557434082,8.99059581756592,8.98481369018555,8.97903823852539,8.97327136993408,8.96751117706299,8.96175861358643,8.95601272583008,8.95027542114258,8.94454479217529,8.93882179260254,8.93310546875,8.92739772796631,8.92169570922852,8.91600227355957,8.91031551361084,8.90463542938232,8.89896297454834,8.89329814910889,8.88764095306396
0,0,0,0,0,0,0,0,0,0,0,0,0,0,0,0,0,0,0,0,0,0,0,0,0,0,0,0,0,0,0,0,0,0,0,0,0,0,0,0,0,0,0,0,0,0,0,0,0,0,0,0,0,0,0,0,0,0,0,0,0,0,0,0,0,0,0,0,0,0,0,0,0,0,0,0,0,0,0,0,0,0,0,0,0,0,14.0093603134155,13.8804817199707,13.7539520263672,13.6297082901001,13.5076894760132,13.3878364562988,13.3202304840088,13.2819414138794,13.2438716888428,13.206018447876,13.168381690979,13.1309595108032,13.0937490463257,13.0567483901978,13.0199565887451,12.9833717346191,12.9469909667969,12.9108142852783,12.8748397827148,12.8390645980835,12.8034868240356,12.7681074142456,12.7329216003418,12.6979293823242,12.6631298065186,12.6285190582275,12.5940980911255,12.5598640441895,12.5258169174194,12.4919538497925,12.4582738876343,12.3802042007446,12.3102245330811,12.2410316467285,12.1726121902466,12.1049528121948,12.0380420684814,11.9718580245972,11.9063930511475,11.8391447067261,11.7599830627441,11.6818733215332,11.6047945022583,11.5287265777588,11.4656362533569,11.4038982391357,11.3428201675415,11.2825698852539,11.2231073379517,11.1642684936523,11.1060438156128,11.0581769943237,11.0112943649292,10.964807510376,10.9187107086182,10.8730010986328,10.8276720046997,10.7827186584473,10.7329015731812,10.6802749633789,10.6281614303589,10.5765552520752,10.5254468917847,10.4748296737671,10.4246978759766,10.3750429153442,10.3258771896362,10.2771787643433,10.2727317810059,10.2813930511475,10.2900686264038,10.2987585067749,10.3074636459351,10.31618309021,10.3249177932739,10.3336668014526,10.3424310684204,10.3512096405029,10.3600034713745,10.3688125610352,10.3776359558105,10.386474609375,10.3953285217285,10.4041967391968,10.4130802154541,10.4219789505005,10.4308919906616,10.4398212432861,10.4487648010254,10.4226007461548,10.3925018310547,10.3625764846802,10.3328227996826,10.3032388687134,10.2738246917725,10.2445774078369,10.2181072235107,10.1936168670654,10.1631116867065,10.1327896118164,10.1281709671021,10.1259565353394,10.123743057251,10.1215295791626,10.1043262481689,10.0778894424438,10.0515899658203,10.0254278182983,9.9994010925293,9.97350978851318,9.94775199890137,9.92212677001953,9.90156364440918,9.89072799682617,9.87991619110107,9.86912822723389,9.85836315155029,9.84762191772461,9.83690452575684,9.82621002197266,9.81553840637207,9.80489063262939,9.79426574707031,9.78366279602051,9.77308368682861,9.76252746582031,9.75199413299561,9.74148368835449,9.73099517822266,9.72052955627441,9.71008682250977,9.69966602325439,9.68926811218262,9.6788911819458,9.66853809356689,9.65820598602295,9.64789581298828,9.63760852813721,9.62734317779541,9.61709880828857,9.60687637329102,9.59667587280273,9.58730030059814,9.58052444458008,9.57375812530518,9.56700038909912,9.56025314331055,9.55351448059082,9.54678630828857,9.54006767272949,9.53335762023926,9.52665710449219,9.51996612548828,9.51328563690186,9.50661277770996,9.49995040893555,9.49329662322998,9.48665332794189,9.48001861572266,9.47339248657227,9.46677684783936,9.46016979217529,9.45357131958008,9.44698333740234,9.44040393829346,9.43383312225342,9.42727279663086,9.42072010040283,9.41417789459229,9.40764331817627,9.40111923217773,9.39460372924805,9.38809680938721,9.38159847259521,9.3751106262207,9.36863040924072,9.36215972900391,9.35569763183594,9.34924507141113,9.34280109405518,9.33636569976807,9.32993984222412,9.32352256774902,9.31711387634277,9.31071376800537,9.30432319641113,9.29794025421143,9.29156684875488,9.28520202636719,9.27884578704834,9.27249908447266,9.2661600112915,9.2598295211792,9.25350856781006,9.24719619750977,9.240891456604,9.23459625244141,9.22830963134766,9.22203063964844,9.21576118469238,9.20949935913086,9.20324611663818,9.19700241088867,9.19076633453369,9.18453884124756,9.17831993103027,9.17210865020752,9.16590690612793,9.15971279144287,9.15352725982666,9.1473503112793,9.14118194580078,9.1350212097168,9.12886905670166,9.12272548675537,9.1167106628418,9.110764503479,9.10482692718506,9.09889698028564,9.09297466278076,9.08705997467041,9.08115291595459,9.0752534866333,9.06936168670654,9.06347751617432,9.05760192871094,9.05173301696777,9.04587173461914,9.04001808166504,9.03417205810547,9.02833366394043,9.02250289916992,9.01667976379395,9.01086330413818,9.00505542755127,8.99925422668457,8.9934606552124,8.98767471313477,8.98189640045166,8.97612571716309,8.97036170959473,8.9646053314209,8.9588565826416,8.95311450958252,8.94738101959229,8.94165420532227,8.93593406677246,8.9302225112915,8.92451667785645,8.91881942749023,8.91312885284424,8.90744590759277,8.90177059173584,8.89610195159912,8.89043998718262,8.88478565216064,8.8791389465332,8.87349891662598,8.86786651611328
0,0,0,0,0,0,0,0,0,0,0,0,0,0,0,0,0,0,0,0,0,0,0,0,0,0,0,0,0,0,0,0,0,0,0,0,0,0,0,0,0,0,0,0,0,0,0,0,0,0,0,0,0,0,0,0,0,0,0,0,0,0,0,0,0,0,0,0,0,0,0,0,0,0,0,0,0,0,0,0,0,0,0,0,0,13.9251022338867,13.7977619171143,13.6727294921875,13.5499420166016,13.4293413162231,13.3369035720825,13.2985181808472,13.2603530883789,13.2224063873291,13.1846771240234,13.1471614837646,13.1098585128784,13.0727672576904,13.0358858108521,12.9992113113403,12.9627418518066,12.926477432251,12.8904151916504,12.8545532226562,12.8188905715942,12.7834253311157,12.7481555938721,12.713080406189,12.6781969070435,12.6435050964355,12.6090021133423,12.5746870040894,12.5405578613281,12.5066156387329,12.4728555679321,12.4392776489258,12.4058799743652,12.3117198944092,12.2425107955933,12.1740741729736,12.1063995361328,12.0394725799561,11.9732789993286,11.9077987670898,11.8430309295654,11.7675409317017,11.6893310546875,11.612154006958,11.5359897613525,11.4664449691772,11.4046983718872,11.3436126708984,11.2832183837891,11.2237491607666,11.1649036407471,11.1066722869873,11.0555686950684,11.0087080001831,10.9622430801392,10.9161682128906,10.8704786300659,10.8251705169678,10.7802391052246,10.7340354919434,10.6813983917236,10.6292743682861,10.5776567459106,10.5265369415283,10.4759101867676,10.4257678985596,10.3761034011841,10.3269157409668,10.2782077789307,10.2470655441284,10.2556838989258,10.2643156051636,10.2729625701904,10.281623840332,10.2902994155884,10.2989902496338,10.3076953887939,10.3164157867432,10.3251504898071,10.3339004516602,10.3426647186279,10.3514442443848,10.3602380752563,10.369047164917,10.3778715133667,10.3867101669312,10.3955631256104,10.4044313430786,10.4133157730103,10.4222145080566,10.4031476974487,10.3731603622437,10.3433456420898,10.3137016296387,10.2842273712158,10.254921913147,10.2257814407349,10.2023334503174,10.1727437973022,10.1423635482788,10.1372375488281,10.1350193023682,10.1328010559082,10.1305847167969,10.1213645935059,10.094838142395,10.0684509277344,10.042200088501,10.0160865783691,9.99010848999023,9.96426582336426,9.93855476379395,9.91297721862793,9.89278221130371,9.88196563720703,9.87117290496826,9.8604040145874,9.84965801239014,9.83893585205078,9.82823657989502,9.81756114959717,9.80690860748291,9.79627895355225,9.78567314147949,9.77508926391602,9.76452922821045,9.75399112701416,9.74347591400146,9.73298358917236,9.72251319885254,9.71206665039062,9.70164108276367,9.69123840332031,9.68085861206055,9.67050075531006,9.66016483306885,9.64985084533691,9.63955879211426,9.62928867340088,9.61904048919678,9.60881423950195,9.59860992431641,9.58842658996582,9.57826519012451,9.56812572479248,9.55874156951904,9.55200576782227,9.54527854919434,9.53856182098389,9.5318546295166,9.52515602111816,9.51846790313721,9.5117883682251,9.50511837005615,9.49845790863037,9.49180603027344,9.48516464233398,9.47853183746338,9.47190856933594,9.46529388427734,9.45868968963623,9.45209312438965,9.44550704956055,9.43892955780029,9.4323616027832,9.42580223083496,9.41925239562988,9.41271114349365,9.40617942810059,9.39965724945068,9.39314365386963,9.38663864135742,9.38014316558838,9.37365627288818,9.36717891693115,9.36071014404297,9.35424995422363,9.34779930114746,9.34135723114014,9.33492374420166,9.32849979400635,9.32208442687988,9.31567764282227,9.3092794418335,9.30289077758789,9.29651069641113,9.29013919830322,9.28377628326416,9.27742195129395,9.27107715606689,9.26473999023438,9.2584114074707,9.2520923614502,9.24578189849854,9.23947906494141,9.23318576812744,9.22690105438232,9.22062397003174,9.21435642242432,9.20809650421143,9.20184516906738,9.1956033706665,9.18936920166016,9.18314361572266,9.176926612854,9.17071723937988,9.16451740264893,9.1583251953125,9.15214157104492,9.14596652984619,9.13979911804199,9.13364124298096,9.12749099731445,9.12134838104248,9.11521434783936,9.10908889770508,9.10297203063965,9.09686279296875,9.0907621383667,9.08466911315918,9.07858467102051,9.07250785827637,9.06643962860107,9.06050968170166,9.05463695526123,9.04877185821533,9.04291439056396,9.03706455230713,9.03122234344482,9.02538776397705,9.01956081390381,9.0137414932251,9.0079288482666,9.00212478637695,8.99632740020752,8.99053859710693,8.98475551605225,8.97898101806641,8.9732141494751,8.967453956604,8.96170139312744,8.95595550537109,8.95021820068359,8.94448757171631,8.93876457214355,8.93304920196533,8.92734050750732,8.92163944244385,8.91594505310059,8.91025829315186,8.90457916259766,8.89890670776367,8.89324188232422,8.88758373260498,8.88193416595459,8.8762903213501,8.87065410614014,8.86502456665039,8.85940265655518,8.85378837585449,8.84818077087402
0,0,0,0,0,0,0,0,0,0,0,0,0,0,0,0,0,0,0,0,0,0,0,0,0,0,0,0,0,0,0,0,0,0,0,0,0,0,0,0,0,0,0,0,0,0,0,0,0,0,0,0,0,0,0,0,0,0,0,0,0,0,0,0,0,0,0,0,0,0,0,0,0,0,0,0,0,0,0,0,0,0,0,0,13.841851234436,13.7160224914551,13.5924596786499,13.4711046218872,13.3536186218262,13.3151369094849,13.276876449585,13.2388353347778,13.2010116577148,13.1634035110474,13.1260089874268,13.0888261795044,13.0518531799316,13.0150890350342,12.9785318374634,12.9421787261963,12.9060287475586,12.8700799942017,12.8343315124512,12.7987804412842,12.7634258270264,12.7282667160034,12.6933002471924,12.6585254669189,12.6239404678345,12.5895442962646,12.5553350448608,12.5213108062744,12.4874725341797,12.4538154602051,12.4203405380249,12.3870439529419,12.3132162094116,12.243989944458,12.175537109375,12.1078462600708,12.0409030914307,11.9746961593628,11.9092044830322,11.8444213867188,11.775107383728,11.6967973709106,11.6195220947266,11.5432615280151,11.4679946899414,11.4054985046387,11.3444042205811,11.2839612960815,11.2243909835815,11.1655387878418,11.1073007583618,11.0529613494873,11.0061225891113,10.9596786499023,10.9136257171631,10.8679580688477,10.8226709365845,10.777759552002,10.7332201004028,10.6825218200684,10.6303863525391,10.5787582397461,10.5276288986206,10.4769906997681,10.4268379211426,10.3771629333496,10.3279600143433,10.2792358398438,10.2309761047363,10.2301025390625,10.2386913299561,10.2472953796387,10.255913734436,10.2645463943481,10.273193359375,10.2818546295166,10.2905311584473,10.2992219924927,10.3079280853271,10.3166484832764,10.3253831863403,10.3341331481934,10.3428983688354,10.3516778945923,10.3604726791382,10.3692817687988,10.3781051635742,10.3869438171387,10.3957977294922,10.3837661743164,10.3538904190063,10.3241863250732,10.2946519851685,10.2652864456177,10.2360877990723,10.2082319259644,10.18239402771,10.1519565582275,10.1463203430176,10.144097328186,10.1418762207031,10.1396551132202,10.1374359130859,10.1118431091309,10.0853672027588,10.0590286254883,10.0328283309937,10.006763458252,9.98083400726318,9.95503807067871,9.92937564849854,9.90384483337402,9.8840160369873,9.87321853637695,9.86244487762451,9.85169506072998,9.84096813201904,9.83026504516602,9.81958484649658,9.80892848968506,9.79829406738281,9.78768348693848,9.77709579467773,9.76653099060059,9.75598812103271,9.74546909332275,9.73497200012207,9.7244987487793,9.71404647827148,9.70361709594727,9.69321060180664,9.68282604217529,9.67246341705322,9.66212368011475,9.65180587768555,9.64151000976562,9.63123512268066,9.6209831237793,9.61075305938721,9.60054397583008,9.59035682678223,9.58019161224365,9.57004737854004,9.5599250793457,9.54982471466064,9.53974437713623,9.53035163879395,9.52365589141846,9.51696872711182,9.51029205322266,9.50362396240234,9.4969654083252,9.49031639099121,9.48367595672607,9.47704601287842,9.47042465209961,9.46381187438965,9.45720958709717,9.45061588287354,9.44403171539307,9.43745613098145,9.43089008331299,9.42433261871338,9.41778469085693,9.41124629974365,9.40471649169922,9.39819526672363,9.39168453216553,9.38518142700195,9.37868785858154,9.37220287322998,9.36572742462158,9.35926055908203,9.35280323028564,9.34635353088379,9.33991432189941,9.33348274230957,9.32706069946289,9.32064723968506,9.31424236297607,9.30784606933594,9.30145931243896,9.29508113861084,9.28871154785156,9.28235054016113,9.27599811553955,9.26965522766113,9.26331996917725,9.25699424743652,9.25067615509033,9.2443675994873,9.23806762695312,9.23177528381348,9.22549247741699,9.21921730041504,9.21295166015625,9.20669364929199,9.2004451751709,9.19420433044434,9.18797206878662,9.18174839019775,9.17553329467773,9.16932678222656,9.16312789916992,9.15693759918213,9.15075588226318,9.14458274841309,9.13841724395752,9.13226127624512,9.12611293792725,9.11997222900391,9.11384010314941,9.10771656036377,9.10160160064697,9.09549427032471,9.08939456939697,9.0833044052124,9.07722091674805,9.07114696502686,9.06507968902588,9.05902194976807,9.05297183990479,9.04692935943604,9.04089546203613,9.03486919403076,9.02885055541992,9.02284049987793,9.01683902740479,9.01084518432617,9.00499725341797,8.99919605255127,8.99340343475342,8.98761749267578,8.98183917999268,8.97606754302979,8.97030448913574,8.96454811096191,8.95879936218262,8.95305728912354,8.9473237991333,8.94159698486328,8.93587684631348,8.93016529083252,8.92446041107178,8.91876316070557,8.91307258605957,8.90738964080811,8.90171337127686,8.89604568481445,8.89038372039795,8.88473033905029,8.87908267974854,8.87344360351562,8.86781024932861,8.86218547821045,8.85656642913818,8.85095596313477,8.84535121917725,8.83975410461426,8.8341646194458,8.82858180999756
0,0,0,0,0,0,0,0,0,0,0,0,0,0,0,0,0,0,0,0,0,0,0,0,0,0,0,0,0,0,0,0,0,0,0,0,0,0,0,0,0,0,0,0,0,0,0,0,0,0,0,0,0,0,0,0,0,0,0,0,0,0,0,0,0,0,0,0,0,0,0,0,0,0,0,0,0,0,0,0,0,0,13.8862237930298,13.7595901489258,13.6352453231812,13.5131282806396,13.393177986145,13.3317966461182,13.2934408187866,13.2553043365479,13.2173871994019,13.1796855926514,13.1421985626221,13.1049242019653,13.0678606033325,13.0310068130493,12.9943590164185,12.9579181671143,12.9216804504395,12.8856439590454,12.8498086929321,12.814172744751,12.778733253479,12.7434892654419,12.7084398269653,12.6735820770264,12.6389150619507,12.6044368743896,12.5701465606689,12.5360422134399,12.5021228790283,12.4683876037598,12.4348335266113,12.4014596939087,12.3682651519775,12.3352470397949,12.2454700469971,12.1770009994507,12.1092929840088,12.0423345565796,11.9761123657227,11.9106111526489,11.8458127975464,11.7817153930664,11.7042741775513,11.6269006729126,11.5505428314209,11.4751815795898,11.4062986373901,11.345196723938,11.2847442626953,11.2250318527222,11.1661729812622,11.107928276062,11.0503549575806,11.0035390853882,10.9571170806885,10.9110851287842,10.8654384613037,10.8201723098755,10.7752819061279,10.7307624816895,10.6836452484131,10.6314992904663,10.5798597335815,10.5287199020386,10.4780721664429,10.4279088973999,10.3782234191895,10.3290100097656,10.2802648544312,10.2319955825806,10.2046489715576,10.2131948471069,10.2217559814453,10.2303314208984,10.2389211654663,10.2475252151489,10.2561435699463,10.2647762298584,10.2734241485596,10.2820863723755,10.2907629013062,10.2994537353516,10.308159828186,10.3168811798096,10.3256168365479,10.3343667984009,10.343132019043,10.3519115447998,10.3607053756714,10.369514465332,10.3644571304321,10.3346920013428,10.3050985336304,10.2756729125977,10.2464151382446,10.2173233032227,10.1920623779297,10.161566734314,10.1554193496704,10.1531925201416,10.1509666442871,10.1487426757812,10.1465187072754,10.12890625,10.1023406982422,10.0759143829346,10.0496253967285,10.023473739624,9.99745750427246,9.97157573699951,9.94582748413086,9.9202127456665,9.8947286605835,9.87526512145996,9.86448764801025,9.85373306274414,9.84300136566162,9.83229351043701,9.82160949707031,9.81094837188721,9.8003101348877,9.78969478607178,9.77910232543945,9.76853370666504,9.7579870223999,9.74746322631836,9.73696231842041,9.72648334503174,9.71602821350098,9.70559406280518,9.69518375396729,9.68479442596436,9.67442798614502,9.66408348083496,9.6537618637085,9.64346122741699,9.63318252563477,9.62292671203613,9.61269187927246,9.60247898101807,9.59228801727295,9.58211898803711,9.57197093963623,9.56184387207031,9.55173873901367,9.54165554046631,9.53159236907959,9.52155113220215,9.51153087615967,9.50212955474854,9.49547386169434,9.48882675170898,9.48218822479248,9.47556018829346,9.46894073486328,9.46233081817627,9.45573043823242,9.44913864135742,9.44255638122559,9.4359827041626,9.42941856384277,9.42286396026611,9.4163179397583,9.40978145599365,9.40325355529785,9.39673519134521,9.39022541046143,9.38372421264648,9.37723255157471,9.37075042724609,9.36427688598633,9.35781192779541,9.35135650634766,9.34490871429443,9.33847141265869,9.33204174041748,9.32562160491943,9.31921005249023,9.31280708312988,9.3064136505127,9.30002880096436,9.29365158081055,9.2872838973999,9.28092575073242,9.27457523345947,9.26823329925537,9.26190090179443,9.25557613372803,9.24926090240479,9.24295425415039,9.23665523529053,9.23036575317383,9.22408485412598,9.21781158447266,9.2115478515625,9.20529174804688,9.19904518127441,9.19280624389648,9.1865758895874,9.18035411834717,9.17414093017578,9.16793537139893,9.16173934936523,9.15555095672607,9.14937114715576,9.1431999206543,9.13703632354736,9.13088130950928,9.12473487854004,9.11859607696533,9.11246681213379,9.10634422302246,9.1002311706543,9.09412574768066,9.08802795410156,9.08193969726562,9.0758581161499,9.06978511810303,9.063720703125,9.0576639175415,9.05161571502686,9.04557514190674,9.03954315185547,9.03351879119873,9.02750301361084,9.02149391174316,9.01549434661865,9.00950145721436,9.00351715087891,8.9975414276123,8.99157238006592,8.98561191558838,8.97965908050537,8.97371482849121,8.96777725219727,8.96184825897217,8.95592784881592,8.95016098022461,8.94443035125732,8.93870735168457,8.93299198150635,8.92728328704834,8.92158222198486,8.91588878631592,8.91020202636719,8.90452194213867,8.898850440979,8.89318561553955,8.88752746582031,8.88187694549561,8.87623405456543,8.87059783935547,8.86496925354004,8.85934638977051,8.85373210906982,8.84812450408936,8.84252452850342,8.83693027496338,8.83134460449219,8.82576465606689,8.82019329071045,8.8146276473999,8.80906963348389
0,0,0,0,0,0,0,0,0,0,0,0,0,0,0,0,0,0,0,0,0,0,0,0,0,0,0,0,0,0,0,0,0,0,0,0,0,0,0,0,0,0,0,0,0,0,0,0,0,0,0,0,0,0,0,0,0,0,0,0,0,0,0,0,0,0,0,0,0,0,0,0,0,0,0,0,0,0,0,0,0,13.8034362792969,13.6783008575439,13.5554141998291,13.4347162246704,13.3484983444214,13.3100461959839,13.2718152999878,13.2338027954102,13.1960077285767,13.1584281921387,13.1210622787476,13.0839071273804,13.0469627380371,13.0102252960205,12.9736948013306,12.9373693466187,12.9012460708618,12.8653240203857,12.8296022415161,12.7940769195557,12.7587490081787,12.723614692688,12.6886739730835,12.6539249420166,12.6193647384644,12.5849933624268,12.5508089065552,12.516809463501,12.4829931259155,12.4493608474731,12.4159097671509,12.3826370239258,12.3495426177979,12.3166246414185,12.2469491958618,12.1784639358521,12.1107406616211,12.0437660217285,11.9775276184082,11.9120140075684,11.8472032546997,11.783091545105,11.7117595672607,11.6342878341675,11.5578336715698,11.4823770523071,11.4078998565674,11.3459882736206,11.2855281829834,11.2257089614868,11.1668081283569,11.1085577011108,11.0509099960327,11.000955581665,10.9545555114746,10.9085454940796,10.8629198074341,10.8176746368408,10.7728052139282,10.7283058166504,10.6841726303101,10.6326122283936,10.5809621810913,10.5298118591309,10.4791536331177,10.4289798736572,10.3792848587036,10.330060005188,10.2813014984131,10.2330150604248,10.1851863861084,10.1878252029419,10.196343421936,10.2048759460449,10.2134237289429,10.2219848632812,10.2305603027344,10.2391500473022,10.2477540969849,10.2563734054565,10.265007019043,10.2736539840698,10.2823171615601,10.2909936904907,10.2996854782104,10.3083925247192,10.3171138763428,10.3258495330811,10.3345994949341,10.3433637619019,10.3452196121216,10.3155651092529,10.2860803604126,10.256763458252,10.2276134490967,10.1986284255981,10.1711959838867,10.1645345687866,10.1623039245605,10.1600742340088,10.1578454971313,10.1556177139282,10.1460275650024,10.1193714141846,10.0928564071655,10.066478729248,10.0402393341064,10.0141363143921,9.98816871643066,9.96233463287354,9.93663501739502,9.91106605529785,9.88562965393066,9.866530418396,9.8557710647583,9.84503555297852,9.83432388305664,9.82363510131836,9.81296920776367,9.80232620239258,9.79170703887939,9.7811107635498,9.77053642272949,9.75998592376709,9.74945831298828,9.73895263671875,9.72846984863281,9.71800994873047,9.7075719833374,9.69715690612793,9.68676376342773,9.67639350891113,9.66604423522949,9.65571784973145,9.64541339874268,9.63513088226318,9.62487125396729,9.61463165283203,9.60441493988037,9.59422016143799,9.58404636383057,9.57389450073242,9.56376361846924,9.55365467071533,9.54356670379639,9.53350067138672,9.5234546661377,9.51343059539795,9.50342750549316,9.49344539642334,9.48348426818848,9.47407531738281,9.46745777130127,9.46084976196289,9.45425128936768,9.44766139984131,9.44108104705811,9.43451023101807,9.42794799804688,9.42139530181885,9.41485118865967,9.40831661224365,9.40179061889648,9.39527416229248,9.38876628875732,9.38226795196533,9.37577819824219,9.36929798126221,9.36282634735107,9.35636329650879,9.34990978240967,9.34346485137939,9.33702850341797,9.33060169219971,9.32418346405029,9.31777381896973,9.31137275695801,9.30498123168945,9.29859733581543,9.29222297668457,9.28585720062256,9.27950096130371,9.27315235137939,9.26681327819824,9.26048183441162,9.25415992736816,9.24784564971924,9.24154090881348,9.23524475097656,9.22895622253418,9.22267723083496,9.21640682220459,9.21014404296875,9.20389080047607,9.19764518737793,9.19140815734863,9.18517971038818,9.17895984649658,9.17274856567383,9.16654586791992,9.16035079956055,9.15416431427002,9.14798641204834,9.14181709289551,9.13565540313721,9.12950229644775,9.12335777282715,9.11722087860107,9.11109256744385,9.10497283935547,9.09886169433594,9.09275722503662,9.08666229248047,9.08057498931885,9.07449626922607,9.06842517852783,9.06236171722412,9.05630683898926,9.05026054382324,9.04422187805176,9.03819179534912,9.03216934204102,9.02615451812744,9.02014827728271,9.01414966583252,9.00815868377686,9.00217628479004,8.99620151519775,8.99023532867432,8.98427677154541,8.97832584381104,8.97238254547119,8.96644687652588,8.96051979064941,8.95460033416748,8.94868946075439,8.94278526306152,8.9368896484375,8.93100070953369,8.92512035369873,8.9192476272583,8.9133825302124,8.90752506256104,8.9016752243042,8.89598846435547,8.89032745361328,8.88467311859131,8.87902641296387,8.87338733673096,8.86775398254395,8.86212921142578,8.85651016235352,8.8508996963501,8.84529495239258,8.83969879150391,8.83410835266113,8.82852649688721,8.82295036315918,8.81738185882568,8.8118200302124,8.80626487731934,8.8007173538208,8.79517650604248,8.78964328765869
0,0,0,0,0,0,0,0,0,0,0,0,0,0,0,0,0,0,0,0,0,0,0,0,0,0,0,0,0,0,0,0,0,0,0,0,0,0,0,0,0,0,0,0,0,0,0,0,0,0,0,0,0,0,0,0,0,0,0,0,0,0,0,0,0,0,0,0,0,0,0,0,0,0,0,0,0,0,0,13.8475618362427,13.7216291427612,13.5979661941528,13.4765129089355,13.3652420043945,13.3266935348511,13.2883672714233,13.2502603530884,13.2123708724976,13.1746978759766,13.1372394561768,13.0999937057495,13.0629577636719,13.0261306762695,12.9895114898682,12.9530963897705,12.9168863296509,12.880877494812,12.8450679779053,12.8094577789307,12.7740449905396,12.738826751709,12.7038021087646,12.6689701080322,12.6343288421631,12.5998754501343,12.5656099319458,12.531530380249,12.4976348876953,12.4639225006104,12.4303922653198,12.3970422744751,12.3638715744019,12.3308763504028,12.2980585098267,12.2654132843018,12.1799278259277,12.1121883392334,12.0451974868774,11.9789438247681,11.9134149551392,11.8485956192017,11.7844686508179,11.7192554473877,11.6416845321655,11.5651330947876,11.4895820617676,11.4150114059448,11.3467807769775,11.2863121032715,11.2264842987061,11.1674432754517,11.109185218811,11.0515327453613,10.9983739852905,10.9519958496094,10.9060068130493,10.8604030609131,10.8151788711548,10.7703294754028,10.72585105896,10.6817378997803,10.6337261199951,10.5820646286011,10.5309038162231,10.4802341461182,10.4300508499146,10.3803453445435,10.3311109542847,10.2823419570923,10.234034538269,10.1861963272095,10.1625814437866,10.1710577011108,10.1795482635498,10.1880521774292,10.1965713500977,10.2051038742065,10.2136516571045,10.2222127914429,10.2307891845703,10.2393789291382,10.2479839324951,10.2566032409668,10.2652368545532,10.2738847732544,10.2825479507446,10.2912254333496,10.2999172210693,10.3086242675781,10.3173456192017,10.3260536193848,10.2965087890625,10.2671318054199,10.2379236221313,10.2088794708252,10.1808433532715,10.1736660003662,10.1714315414429,10.1691980361938,10.1669654846191,10.1647338867188,10.1625022888184,10.1364603042603,10.1098556518555,10.0833892822266,10.0570611953735,10.0308704376221,10.0048160552979,9.97889614105225,9.95311069488525,9.92745780944824,9.90193748474121,9.87654685974121,9.85781097412109,9.84707069396973,9.83635425567627,9.82566070556641,9.81499099731445,9.80434417724609,9.79372024536133,9.78311920166016,9.77254104614258,9.76198577880859,9.7514533996582,9.74094390869141,9.7304573059082,9.71999263763428,9.70955085754395,9.69913101196289,9.68873405456543,9.67835903167725,9.66800594329834,9.65767574310303,9.64736747741699,9.63708019256592,9.62681579589844,9.61657333374023,9.60635185241699,9.59615230560303,9.58597469329834,9.57581901550293,9.56568431854248,9.55557060241699,9.54547882080078,9.53540802001953,9.52535915374756,9.51533126831055,9.50532341003418,9.49533748626709,9.48537254333496,9.47542858123779,9.46550559997559,9.45560264587402,9.44618511199951,9.43960666656494,9.43303775787354,9.42647743225098,9.41992664337158,9.41338539123535,9.40685272216797,9.40032863616943,9.39381408691406,9.38730907440186,9.38081169128418,9.37432479858398,9.36784553527832,9.36137580871582,9.35491561889648,9.348464012146,9.34202098846436,9.33558654785156,9.32916164398193,9.32274532318115,9.31633758544922,9.30993843078613,9.30354881286621,9.29716777801514,9.29079532623291,9.28443145751953,9.278076171875,9.27173042297363,9.2653923034668,9.25906372070312,9.25274276733398,9.24643135070801,9.24012851715088,9.23383331298828,9.22754764556885,9.22127056121826,9.21500110626221,9.20874118804932,9.20248889923096,9.19624614715576,9.1900110244751,9.18378448486328,9.17756652832031,9.17135715484619,9.1651554107666,9.15896320343018,9.15277862548828,9.14660263061523,9.14043426513672,9.13427543640137,9.12812423706055,9.12198066711426,9.11584663391113,9.10972023010254,9.10360145568848,9.09749221801758,9.09138965606689,9.08529663085938,9.07921123504639,9.07313346862793,9.06706428527832,9.06100368499756,9.05495071411133,9.04890537261963,9.04286861419678,9.03684043884277,9.0308198928833,9.02480697631836,9.01880264282227,9.0128059387207,9.00681686401367,9.00083637237549,8.99486351013184,8.98889827728271,8.98294162750244,8.9769926071167,8.97105121612549,8.96511745452881,8.95919227600098,8.95327472686768,8.94736480712891,8.94146251678467,8.93556785583496,8.9296817779541,8.92380237579346,8.91793155670166,8.91206836700439,8.90621280670166,8.90036487579346,8.89452457427979,8.88869190216064,8.88286685943604,8.87704944610596,8.87123966217041,8.86543750762939,8.85964298248291,8.85385608673096,8.84807682037354,8.84246826171875,8.83687496185303,8.83128833770752,8.82570934295654,8.82013702392578,8.81457233428955,8.80901432037354,8.80346298217773,8.79791831970215,8.79238128662109,8.78685092926025,8.78132820129395,8.77581214904785,8.77030181884766
0,0,0,0,0,0,0,0,0,0,0,0,0,0,0,0,0,0,0,0,0,0,0,0,0,0,0,0,0,0,0,0,0,0,0,0,0,0,0,0,0,0,0,0,0,0,0,0,0,0,0,0,0,0,0,0,0,0,0,0,0,0,0,0,0,0,0,0,0,0,0,0,0,0,0,0,0,0,13.765233039856,13.6407871246338,13.5185699462891,13.3985242843628,13.3433828353882,13.3049602508545,13.2667579650879,13.2287750244141,13.1910085678101,13.1534566879272,13.1161193847656,13.0789918899536,13.0420751571655,13.0053663253784,12.9688625335693,12.9325637817383,12.8964672088623,12.8605718612671,12.824875831604,12.7893772125244,12.754075050354,12.7189664840698,12.6840515136719,12.6493272781372,12.6147928237915,12.5804462432861,12.5462856292725,12.5123109817505,12.4785194396973,12.4449100494385,12.4114818572998,12.3782329559326,12.3451623916626,12.3122673034668,12.2795476913452,12.2470006942749,12.2146272659302,12.1136360168457,12.0466289520264,11.9803600311279,11.91481590271,11.8499851226807,11.7858448028564,11.722393989563,11.6490898132324,11.5724420547485,11.4967956542969,11.4221315383911,11.3484315872192,11.2870960235596,11.2272596359253,11.1680784225464,11.1098146438599,11.0521545410156,10.9957942962646,10.9494371414185,10.9034700393677,10.8578872680664,10.8126831054688,10.7678546905518,10.7233963012695,10.6793031692505,10.6348390579224,10.5831670761108,10.5319957733154,10.4813165664673,10.4311218261719,10.3814067840576,10.3321628570557,10.2833833694458,10.2350625991821,10.1872072219849,10.1398048400879,10.1458969116211,10.1543445587158,10.1628074645996,10.1712837219238,10.1797742843628,10.1882791519165,10.196798324585,10.2053318023682,10.2138795852661,10.2224407196045,10.2310180664062,10.2396087646484,10.2482137680054,10.2568330764771,10.2654676437378,10.274115562439,10.2827787399292,10.2914571762085,10.3001489639282,10.2775220870972,10.2482538223267,10.2191524505615,10.1902151107788,10.1828145980835,10.1805753707886,10.1783380508423,10.176100730896,10.1738653182983,10.1716299057007,10.1536073684692,10.1269121170044,10.1003561019897,10.0739402770996,10.0476608276367,10.0215196609497,9.99551391601562,9.96964168548584,9.94390392303467,9.91829872131348,9.89282512664795,9.86748218536377,9.84910678863525,9.83838558197021,9.82768821716309,9.81701374053955,9.80636215209961,9.79573345184326,9.78512859344482,9.77454662322998,9.76398658752441,9.75345039367676,9.74293613433838,9.73244476318359,9.7219762802124,9.71152973175049,9.70110607147217,9.69070434570312,9.68032550811768,9.6699686050415,9.65963363647461,9.64932155609131,9.63903045654297,9.62876129150391,9.61851501464844,9.60828971862793,9.5980863571167,9.58790397644043,9.57774353027344,9.56760501861572,9.55748748779297,9.54739189147949,9.53731727600098,9.52726364135742,9.51723194122314,9.50722122192383,9.49723052978516,9.48726177215576,9.47731304168701,9.46738624572754,9.45747947692871,9.44759368896484,9.43772888183594,9.42788410186768,9.41845893859863,9.41191959381104,9.40538883209229,9.3988676071167,9.39235496520996,9.38585090637207,9.37935638427734,9.37287044525146,9.36639404296875,9.35992622375488,9.35346794128418,9.34701824188232,9.34057712554932,9.33414459228516,9.32772159576416,9.32130718231201,9.31490230560303,9.30850505828857,9.30211734771729,9.29573822021484,9.28936767578125,9.2830057144165,9.27665233612061,9.27030849456787,9.26397228240967,9.25764560699463,9.25132656097412,9.24501705169678,9.23871612548828,9.23242378234863,9.22613906860352,9.21986389160156,9.21359729766846,9.20733833312988,9.20108890533447,9.19484710693359,9.18861389160156,9.18238925933838,9.17617321014404,9.16996574401855,9.1637659072876,9.1575756072998,9.15139293670654,9.14521884918213,9.13905239105225,9.13289451599121,9.12674522399902,9.12060451507568,9.11447143554688,9.10834693908691,9.1022310256958,9.09612274169922,9.09002304077148,9.08393096923828,9.07784748077393,9.07177257537842,9.06570434570312,9.059645652771,9.0535945892334,9.04755115509033,9.04151630401611,9.03548908233643,9.02947044372559,9.02345943450928,9.01745700836182,9.01146221160889,9.00547504425049,8.99949645996094,8.99352550506592,8.98756217956543,8.98160648345947,8.97565937042236,8.96971988677979,8.96378803253174,8.95786476135254,8.95194816589355,8.94604015350342,8.94013977050781,8.93424701690674,8.92836284637451,8.9224853515625,8.91661643981934,8.91075420379639,8.90490055084229,8.89905452728271,8.89321613311768,8.88738441467285,8.88156127929688,8.87574577331543,8.86993789672852,8.86413764953613,8.85834503173828,8.85255908966064,8.84678173065186,8.8410120010376,8.83524894714355,8.82949352264404,8.82374572753906,8.81800556182861,8.8122730255127,8.80654811859131,8.80082988739014,8.79512119293213,8.78958797454834,8.78406143188477,8.77854156494141,8.77302837371826,8.76752281188965,8.76202392578125,8.75653171539307,8.7510461807251
0,0,0,0,0,0,0,0,0,0,0,0,0,0,0,0,0,0,0,0,0,0,0,0,0,0,0,0,0,0,0,0,0,0,0,0,0,0,0,0,0,0,0,0,0,0,0,0,0,0,0,0,0,0,0,0,0,0,0,0,0,0,0,0,0,0,0,0,0,0,0,0,0,0,0,0,0,13.683876991272,13.5608911514282,13.4400959014893,13.3601131439209,13.3215942382812,13.283296585083,13.2452192306519,13.2073593139648,13.1697149276733,13.1322841644287,13.0950660705566,13.0580587387085,13.0212593078613,12.9846668243408,12.9482793807983,12.9120950698853,12.8761129379272,12.8403310775757,12.8047466278076,12.769359588623,12.734167098999,12.6991691589355,12.6643619537354,12.6297454833984,12.5953168869019,12.5610761642456,12.5270214080811,12.4931507110596,12.4594621658325,12.4259548187256,12.3926286697388,12.3594808578491,12.326509475708,12.2937145233154,12.2610921859741,12.2286434173584,12.1963663101196,12.1150846481323,12.0480613708496,11.9817771911621,11.9162168502808,11.8513708114624,11.7872219085693,11.7237558364868,11.6565055847168,11.5797605514526,11.5040187835693,11.4292612075806,11.3554697036743,11.2878799438477,11.2280349731445,11.1688222885132,11.1104421615601,11.0527763366699,10.9957056045532,10.9468793869019,10.9009342193604,10.855372428894,10.8101892471313,10.7653818130493,10.7209434509277,10.6768703460693,10.6331586837769,10.5842704772949,10.5330877304077,10.4823980331421,10.4321937561035,10.3824672698975,10.3332138061523,10.2844247817993,10.2360944747925,10.1882171630859,10.1408061981201,10.1208600997925,10.1292667388916,10.1376867294312,10.1461219787598,10.1545705795288,10.1630334854126,10.1715097427368,10.1800012588501,10.1885061264038,10.1970252990723,10.2055597305298,10.2141075134277,10.2226696014404,10.2312459945679,10.2398376464844,10.2484426498413,10.2570629119873,10.265697479248,10.2743463516235,10.2586059570312,10.2294454574585,10.2043695449829,10.2021532058716,10.1953477859497,10.188551902771,10.1852531433105,10.1830129623413,10.1807737350464,10.1708106994629,10.1440258026123,10.1173801422119,10.0908756256104,10.0645084381104,10.0382795333862,10.012186050415,9.98622798919678,9.96040439605713,9.93471431732178,9.90915679931641,9.88372898101807,9.85843276977539,9.84041786193848,9.82971572875977,9.81903648376465,9.80838108062744,9.79774856567383,9.78713893890381,9.77655220031738,9.76598834991455,9.75544738769531,9.74492931365967,9.7344331741333,9.72396087646484,9.71351051330566,9.70308208465576,9.69267654418945,9.68229293823242,9.67193222045898,9.66159248352051,9.65127563476562,9.64098072052002,9.63070774078369,9.62045669555664,9.61022758483887,9.60002040863037,9.58983421325684,9.57966995239258,9.56952667236328,9.55940532684326,9.54930591583252,9.53922748565674,9.52917003631592,9.51913356781006,9.50911808013916,9.49912452697754,9.48915100097656,9.47919940948486,9.46926784515381,9.45935726165771,9.44946765899658,9.43959903717041,9.42975044250488,9.419921875,9.41011428833008,9.40032768249512,9.39089584350586,9.3843936920166,9.37790107727051,9.37141799926758,9.3649435043335,9.35847759246826,9.35202121734619,9.34557247161865,9.33913421630859,9.33270359039307,9.3262825012207,9.31986999511719,9.31346702575684,9.30707168579102,9.30068588256836,9.29430866241455,9.28794002532959,9.28157997131348,9.27522945404053,9.26888656616211,9.26255321502686,9.25622749328613,9.24991130828857,9.24360370635986,9.23730373382568,9.23101329803467,9.2247314453125,9.21845817565918,9.21219253540039,9.20593643188477,9.19968795776367,9.19344902038574,9.18721771240234,9.18099498748779,9.17478084564209,9.16857433319092,9.16237735748291,9.15618801116943,9.1500072479248,9.14383506774902,9.13767147064209,9.13151550292969,9.12536811828613,9.11922836303711,9.11309814453125,9.10697460174561,9.10086059570312,9.09475421905518,9.08865642547607,9.0825662612915,9.07648468017578,9.07041072845459,9.06434535980225,9.05828857421875,9.05223846435547,9.04619789123535,9.04016399383545,9.03413963317871,9.02812194824219,9.02211284637451,9.01611232757568,9.01011848449707,9.0041332244873,8.99815654754639,8.9921875,8.98622608184814,8.98027229309082,8.97432708740234,8.96838855743408,8.96245956420898,8.9565372467041,8.95062255859375,8.94471645355225,8.93881797790527,8.93292713165283,8.92704391479492,8.92116832733154,8.91530132293701,8.9094409942627,8.90358924865723,8.89774417877197,8.89190769195557,8.88607883453369,8.88025665283203,8.87444305419922,8.86863613128662,8.86283779144287,8.85704708099365,8.85126304626465,8.84548759460449,8.83971881866455,8.83395767211914,8.82820415496826,8.82245826721191,8.8167200088501,8.8109884262085,8.80526542663574,8.7995491027832,8.7938404083252,8.7881383895874,8.78244495391846,8.77675819396973,8.77107906341553,8.76540660858154,8.75974273681641,8.75408554077148,8.74843502044678,8.74280452728271,8.73733615875244,8.7318754196167
0,0,0,0,0,0,0,0,0,0,0,0,0,0,0,0,0,0,0,0,0,0,0,0,0,0,0,0,0,0,0,0,0,0,0,0,0,0,0,0,0,0,0,0,0,0,0,0,0,0,0,0,0,0,0,0,0,0,0,0,0,0,0,0,0,0,0,0,0,0,0,0,0,0,0,13.7272415161133,13.6034774780273,13.4819259643555,13.3768863677979,13.3382701873779,13.299877166748,13.2617044448853,13.2237501144409,13.1860122680664,13.1484899520874,13.1111793518066,13.0740804672241,13.0371913909912,13.000509262085,12.9640331268311,12.9277620315552,12.8916921615601,12.8558235168457,12.8201532363892,12.7846813201904,12.7494049072266,12.7143220901489,12.6794319152832,12.6447334289551,12.6102237701416,12.5759019851685,12.541766166687,12.5078163146973,12.474048614502,12.4404630661011,12.407057762146,12.3738327026367,12.3407850265503,12.3079137802124,12.2752170562744,12.2426929473877,12.2103414535522,12.1781606674194,12.1461486816406,12.0494947433472,11.983193397522,11.9176187515259,11.8527574539185,11.7885980606079,11.725118637085,11.662317276001,11.5870876312256,11.5112504959106,11.4363994598389,11.3625154495239,11.2895803451538,11.2288112640381,11.1695899963379,11.1110715866089,11.0533981323242,10.9963216781616,10.9443235397339,10.8983993530273,10.852858543396,10.8076963424683,10.7629089355469,10.7184915542603,10.6744384765625,10.6307468414307,10.585373878479,10.5341806411743,10.4834794998169,10.4332647323608,10.3835287094116,10.334264755249,10.2854661941528,10.2371263504028,10.1892385482788,10.1418075561523,10.0959463119507,10.1043109893799,10.1126909255981,10.1210832595825,10.129490852356,10.1379117965698,10.1463470458984,10.1547956466675,10.1632585525513,10.1717357635498,10.1802272796631,10.1887331008911,10.1972532272339,10.2057867050171,10.2143354415894,10.2228975296021,10.2314748764038,10.2400665283203,10.2486724853516,10.2397584915161,10.223503112793,10.2233648300171,10.2175664901733,10.2107410430908,10.2039241790771,10.197117805481,10.1903190612793,10.1876926422119,10.1611976623535,10.1344623565674,10.1078672409058,10.0814113616943,10.0550947189331,10.0289144515991,10.0028696060181,9.97696018218994,9.95118427276611,9.92554187774658,9.90003108978271,9.8746509552002,9.84939956665039,9.83174419403076,9.82106113433838,9.81040096282959,9.79976367950439,9.78915023803711,9.7785587310791,9.767991065979,9.75744533538818,9.74692344665527,9.73642349243164,9.72594547271729,9.71549129486084,9.70505905151367,9.69464874267578,9.68426132202148,9.67389583587646,9.66355228424072,9.65323162078857,9.6429328918457,9.63265514373779,9.62240028381348,9.61216640472412,9.60195541381836,9.59176540374756,9.58159637451172,9.57144927978516,9.56132411956787,9.55121994018555,9.5411376953125,9.53107643127441,9.52103614807129,9.51101684570312,9.50101852416992,9.491042137146,9.48108577728271,9.47115039825439,9.46123600006104,9.45134258270264,9.44146919250488,9.43161678314209,9.42178535461426,9.41197395324707,9.40218257904053,9.39241218566895,9.38266181945801,9.37293148040771,9.36349296569824,9.35702896118164,9.3505744934082,9.34412860870361,9.33769130706787,9.33126354217529,9.32484436035156,9.31843376159668,9.31203174591064,9.30563926696777,9.29925537109375,9.29288005828857,9.28651332855225,9.28015518188477,9.27380561828613,9.26746559143066,9.26113414764404,9.25481033325195,9.24849605560303,9.24219036102295,9.23589324951172,9.22960376739502,9.22332382202148,9.2170524597168,9.21078872680664,9.20453453063965,9.19828796386719,9.19205093383789,9.18582153320312,9.17960071563721,9.17338848114014,9.1671838760376,9.16098880767822,9.15480136871338,9.14862251281738,9.14245223999023,9.13628959655762,9.13013648986816,9.12399005889893,9.11785316467285,9.11172389984131,9.10560321807861,9.09949016571045,9.09338569641113,9.08728981018066,9.08120155334473,9.07512187957764,9.06904983520508,9.06298637390137,9.05693054199219,9.05088329315186,9.04484367370605,9.0388126373291,9.03278923034668,9.02677440643311,9.02076625823975,9.01476764678955,9.00877571105957,9.00279235839844,8.99681758880615,8.99084949493408,8.98488998413086,8.97893810272217,8.97299480438232,8.9670581817627,8.96113014221191,8.95520973205566,8.94929790496826,8.94339275360107,8.93749618530273,8.93160724639893,8.92572593688965,8.9198522567749,8.91398620605469,8.908127784729,8.90227794647217,8.89643478393555,8.89060020446777,8.88477230072021,8.87895202636719,8.87314033508301,8.86733531951904,8.86153888702393,8.85574913024902,8.84996700286865,8.84419345855713,8.83842658996582,8.83266639709473,8.82691478729248,8.82117080688477,8.81543350219727,8.80970478057861,8.80398273468018,8.79826831817627,8.79256057739258,8.78686141967773,8.78116893768311,8.77548408508301,8.76980686187744,8.76413631439209,8.75847339630127,8.75281715393066,8.74716949462891,8.74152851104736,8.73589420318604,8.73026847839355,8.72464847564697,8.71903705596924,8.71343231201172
0,0,0,0,0,0,0,0,0,0,0,0,0,0,0,0,0,0,0,0,0,0,0,0,0,0,0,0,0,0,0,0,0,0,0,0,0,0,0,0,0,0,0,0,0,0,0,0,0,0,0,0,0,0,0,0,0,0,0,0,0,0,0,0,0,0,0,0,0,0,0,0,0,0,13.6463327407837,13.5240173339844,13.4038753509521,13.3549880981445,13.3164987564087,13.2782306671143,13.2401819229126,13.2023506164551,13.1647348403931,13.1273326873779,13.090142250061,13.0531625747681,13.0163908004761,12.9798259735107,12.9434661865234,12.9073085784912,12.8713531494141,12.835597038269,12.8000392913818,12.7646780014038,12.7295112609863,12.6945381164551,12.6597566604614,12.6251649856567,12.5907621383667,12.5565462112427,12.522515296936,12.4886693954468,12.4550046920776,12.4215221405029,12.3882179260254,12.3550930023193,12.3221454620361,12.2893733978271,12.2567749023438,12.2243490219116,12.1920938491821,12.160008430481,12.1280918121338,12.0963430404663,11.9846115112305,11.919020652771,11.8541431427002,11.7899694442749,11.7264814376831,11.6636657714844,11.5944242477417,11.5184917449951,11.443546295166,11.3695707321167,11.2965450286865,11.2295875549316,11.1703577041626,11.1117506027222,11.0540208816528,10.9969367980957,10.9417686462402,10.8958654403687,10.8503456115723,10.8052053451538,10.7604379653931,10.7160406112671,10.6720085144043,10.6283359527588,10.5850200653076,10.5352735519409,10.484561920166,10.4343376159668,10.3845911026001,10.33531665802,10.2865085601807,10.2381582260132,10.190260887146,10.1428089141846,10.0958185195923,10.0794792175293,10.0878171920776,10.0961685180664,10.1045341491699,10.1129140853882,10.1213073730469,10.1297149658203,10.1381359100342,10.1465721130371,10.1550207138062,10.1634845733643,10.1719617843628,10.1804542541504,10.1889600753784,10.1974802017212,10.2060146331787,10.214563369751,10.223126411438,10.2317037582397,10.2402954101562,10.2398815155029,10.2330265045166,10.2261800765991,10.2193431854248,10.2125158309937,10.2053956985474,10.178427696228,10.1516017913818,10.1249170303345,10.0983724594116,10.0719661712646,10.0456981658936,10.0195665359497,9.99357032775879,9.96770858764648,9.94198131561279,9.91638565063477,9.8909215927124,9.86558818817139,9.8403844833374,9.82308578491211,9.81242179870605,9.80177974700928,9.79116153717041,9.78056621551514,9.76999378204346,9.75944423675537,9.74891757965088,9.73841381072998,9.72793197631836,9.71747303009033,9.70703601837158,9.69662189483643,9.68623065948486,9.67586040496826,9.66551303863525,9.65518760681152,9.64488506317139,9.63460350036621,9.62434387207031,9.61410617828369,9.60389041900635,9.59369659423828,9.58352375030518,9.57337284088135,9.5632438659668,9.55313587188721,9.54304885864258,9.53298377990723,9.52293968200684,9.51291656494141,9.50291442871094,9.49293327331543,9.48297309875488,9.4730339050293,9.46311569213867,9.45321750640869,9.44334125518799,9.43348503112793,9.42364883422852,9.41383361816406,9.40403842926025,9.39426422119141,9.3845100402832,9.37477588653564,9.36506271362305,9.35536861419678,9.34569549560547,9.33624935150146,9.3298225402832,9.32340526580811,9.31699752807617,9.31059741973877,9.30420684814453,9.29782485961914,9.2914514541626,9.2850866317749,9.27873039245605,9.27238368988037,9.26604461669922,9.25971508026123,9.25339412689209,9.24708080291748,9.24077701568604,9.23448181152344,9.22819519042969,9.22191715240479,9.21564674377441,9.20938587188721,9.20313262939453,9.19688892364502,9.19065284729004,9.18442535400391,9.17820644378662,9.17199611663818,9.16579437255859,9.15960025787354,9.15341567993164,9.14723873138428,9.14106941223145,9.13490962982178,9.12875747680664,9.12261390686035,9.11647796630859,9.11035060882568,9.10423183441162,9.09812068939209,9.09201812744141,9.08592414855957,9.07983779907227,9.07376003265381,9.06768989562988,9.06162738800049,9.05557441711426,9.04952812194824,9.04349040985107,9.03746128082275,9.03143978118896,9.02542591094971,9.0194206237793,9.01342296600342,9.00743389129639,9.00145149230957,8.99547863006592,8.98951244354248,8.98355484008789,8.97760486602783,8.9716625213623,8.96572875976562,8.95980262756348,8.95388412475586,8.94797325134277,8.94207000732422,8.93617534637451,8.93028736114502,8.92440795898438,8.91853618621826,8.91267204284668,8.90681552886963,8.90096664428711,8.89512538909912,8.88929271697998,8.88346672058105,8.87764835357666,8.8718376159668,8.86603546142578,8.86023998260498,8.85445213317871,8.84867191314697,8.84289932250977,8.83713436126709,8.83137607574463,8.82562637329102,8.81988334655762,8.81414890289307,8.80842113494873,8.80270004272461,8.79698753356934,8.79128170013428,8.78558444976807,8.77989387512207,8.77420997619629,8.76853466033936,8.76286602020264,8.75720405578613,8.75155067443848,8.74590396881104,8.74026393890381,8.73463249206543,8.72900772094727,8.72338962554932,8.7177791595459,8.71217632293701,8.70658016204834,8.7009916305542,8.69540977478027
