13.3523530960083,13.3531436920166,13.353931427002,13.3547163009644,13.3555040359497,13.3562927246094,13.3570795059204,13.3578681945801,13.3586549758911,13.3594427108765,13.3602294921875,13.3610210418701,13.3618087768555,13.3625946044922,13.3633861541748,13.3641729354858,13.3649625778198,13.3657550811768,13.3665399551392,13.3673305511475,13.3681211471558,13.3689060211182,13.3696956634521,13.3704843521118,13.3712739944458,13.3720664978027,13.372857093811,13.3736410140991,13.3744344711304,13.375226020813,13.3760147094727,13.3768062591553,13.3775959014893,13.3783855438232,13.3791751861572,13.3799657821655,13.3807563781738,13.3815469741821,13.3823385238647,13.3831272125244,13.3839197158813,13.3847122192383,13.385498046875,13.3862915039062,13.3870849609375,13.3878755569458,13.3886642456055,13.389458656311,13.3902473449707,13.3910427093506,13.3918352127075,13.3926219940186,13.3934154510498,13.3942089080811,13.3950004577637,13.3957948684692,13.3965864181519,13.3973789215088,13.3981704711914,13.3989667892456,13.3997564315796,13.4005470275879,13.4013414382935,13.402135848999,13.4029302597046,13.4037218093872,13.4045143127441,13.405309677124,13.4061031341553,13.4068994522095,13.4076900482178,13.408483505249,13.4092779159546,13.4100732803345,13.4108686447144,13.411660194397,13.4124536514282,13.223258972168,13.0269184112549,12.8363237380981,12.6512260437012,12.4713897705078,12.2965955734253,11.8024635314941,11.791127204895,11.7798128128052,11.7685194015503,11.7572479248047,11.7459983825684,11.734769821167,11.7235631942749,11.7123775482178,11.7012138366699,11.6900701522827,11.6757383346558,11.6543426513672,11.6330242156982,11.6117849349976,11.5906219482422,11.5695371627808,11.5485277175903,11.5275955200195,11.5067386627197,11.4859571456909,11.4652500152588,11.4446182250977,11.4240598678589,11.4035758972168,11.3831644058228,11.3628273010254,11.3425617218018,11.3223676681519,11.30224609375,11.2821960449219,11.2622175216675,11.2423086166382,11.2224702835083,11.2027025222778,11.1830034255981,11.1633739471436,11.1438131332397,11.1243200302124,11.1048955917358,11.0855388641357,11.0662498474121,11.0470275878906,11.0278720855713,11.0087823867798,10.9897594451904,10.9708013534546,10.9519090652466,10.9330816268921,10.9143190383911,10.8956203460693,10.8769855499268,10.8584146499634,10.8399066925049,10.8214626312256,10.8030805587769,10.784761428833,10.7665033340454,10.7483072280884,10.7301731109619,10.7120990753174,10.6940870285034,10.6761350631714,10.658242225647,10.6404104232788,10.6224460601807,10.6043395996094,10.58629322052,10.5683097839355,10.550386428833,10.5325231552124,10.514720916748,10.4969787597656,10.4792966842651,10.4616737365723,10.444109916687,10.4266052246094,10.409158706665,10.3917713165283,10.3744411468506,10.3571691513062,10.3399543762207,10.3227968215942,10.3056955337524,10.2886514663696,10.2716627120972,10.2547311782837,10.2378549575806,10.2210340499878,10.2042684555054,10.1875581741333,10.1709012985229,10.1542997360229,10.137752532959,10.1230955123901,10.1088762283325,10.0946969985962,10.0805568695068,10.0664567947388,10.052396774292,10.0383749008179,10.024393081665,10.0104494094849,9.99654483795166,9.98267841339111,9.96885108947754,9.9550609588623,9.94130992889404,9.92759609222412,9.91392040252686,9.90028285980225,9.88668251037598,9.87311935424805,9.85959339141846,9.84610366821289,9.83265209197998,9.81923580169678,9.80585765838623,9.79251480102539,9.77920818328857,9.76593780517578,9.75270366668701,9.73950576782227,9.72634315490723,9.71321582794189,9.70012378692627,9.68706798553467,9.67404556274414,9.66105937957764,9.64810752868652,9.63519096374512,9.6223087310791,9.60946083068848,9.5893669128418,9.56904697418213,9.54881381988525,9.52866554260254,9.50860214233398,9.48862361907959,9.46872901916504,9.4489164352417,9.4291877746582,9.40954113006592,9.38997554779053,9.37049198150635,9.35108852386475,9.33176517486572,9.31252193450928,9.29335784912109,9.27427196502686,9.25526523590088,9.23633575439453,9.21748352050781,9.19870758056641,9.18000888824463,9.16138553619385,9.14283752441406,9.12436485290527,9.10596656799316,9.08764171600342,9.06939125061035,9.05121421813965,9.03310871124268,9.01507663726807,8.99711608886719,8.97922611236572,8.96140766143799,8.9423246383667,8.92166328430176,8.90109729766846,8.8806266784668,8.86024951934814,8.8399658203125,8.81977462768555,8.79967498779297,8.77966690063477,8.75975036621094,8.73992347717285,8.72018623352051,8.70053768157959,8.6809778213501,8.66150569915771,8.64212036132812,8.62282180786133,8.60361003875732,8.58448219299316,8.56544017791748,8.54648208618164,8.52760887145996,8.50881767272949,8.49010848999023,8.4714822769165,8.45293807983398,8.43447399139404,8.416090965271,8.39778804779053,8.37956428527832,8.36141872406006,8.34335231781006,8.325364112854,8.30745220184326,8.28961849212646,8.27186107635498,8.25417804718018,8.236572265625,8.21903991699219,8.20158290863037,8.18420028686523,8.16689014434814,8.14965438842773,8.13249015808105,8.11559772491455,8.10750961303711,8.09943771362305,8.09138107299805,8.08334064483643,8.07531642913818,8.06730842590332,8.05931568145752,8.0513391494751,8.04337882995605,8.03543376922607,8.02750396728516,8.01959037780762,8.01169204711914,8.00380897521973,7.99594211578369,7.98809003829956,7.98025369644165,7.97243309020996,7.96462726593018,7.95683670043945,7.94906187057495,7.94130182266235,7.93355703353882,7.92582750320435,7.91811275482178,7.91041278839111,7.90272808074951,7.89505815505981,7.88740348815918,7.87976312637329,7.87213802337646,7.86452722549438,7.85693120956421,7.84934997558594,7.84178352355957,7.83423137664795,7.82669401168823,7.81917095184326,7.81166219711304,7.80416822433472,7.79668855667114,7.78922319412231,7.78177165985107,7.77433490753174,7.76691198348999,7.75950384140015,7.75210905075073,7.74472856521606
13.2601327896118,13.2609081268311,13.2616834640503,13.2624626159668,13.2632389068604,13.2640132904053,13.2647905349731,13.265570640564,13.2663450241089,13.2671232223511,13.2679023742676,13.2686748504639,13.2694568634033,13.2702331542969,13.2710103988647,13.2717905044556,13.2725648880005,13.2733430862427,13.2741212844849,13.2749004364014,13.2756795883179,13.2764549255371,13.2772350311279,13.2780122756958,13.2787923812866,13.2795705795288,13.2803478240967,13.2811298370361,13.2819080352783,13.2826871871948,13.2834634780884,13.2842464447021,13.28502368927,13.2858047485352,13.286584854126,13.2873630523682,13.2881422042847,13.2889242172241,13.2897033691406,13.2904825210571,13.291259765625,13.2920427322388,13.2928199768066,13.293604850769,13.2943859100342,13.2951612472534,13.2959432601929,13.2967262268066,13.2975053787231,13.298285484314,13.2990655899048,13.2998466491699,13.300630569458,13.3014125823975,13.3021907806396,13.3029699325562,13.3037557601929,13.3045358657837,13.3053188323975,13.3060998916626,13.3068799972534,13.3076620101929,13.308445930481,13.3092279434204,13.3100070953369,13.3107929229736,13.3115730285645,13.3123569488525,13.3131399154663,13.3139209747314,13.3147029876709,13.3154907226562,13.3162698745728,13.3170518875122,13.2775421142578,13.0795984268188,12.8874702453613,12.7009048461914,12.51966381073,11.7837915420532,11.7724905014038,11.7612113952637,11.7499542236328,11.7387180328369,11.7275037765503,11.7163105010986,11.7051391601562,11.6939888000488,11.6828594207764,11.6717519760132,11.6606645584106,11.6495990753174,11.6385536193848,11.6275300979614,11.6165266036987,11.6008195877075,11.5796966552734,11.558650970459,11.5376815795898,11.516788482666,11.4959707260132,11.4752283096313,11.4545593261719,11.4339656829834,11.4134464263916,11.3929996490479,11.3726272583008,11.3523263931274,11.3320980072021,11.3119421005249,11.2918577194214,11.2718448638916,11.2519016265869,11.232029914856,11.2122278213501,11.1924953460693,11.1728324890137,11.1532382965088,11.1337127685547,11.1142559051514,11.0948667526245,11.0755453109741,11.0562906265259,11.0371026992798,11.0179815292358,10.9989261627197,10.9799365997314,10.961012840271,10.9421539306641,10.923360824585,10.9046306610107,10.88596534729,10.8673639297485,10.8488254547119,10.8303508758545,10.8119382858276,10.7935886383057,10.7753009796143,10.7570753097534,10.7389116287231,10.7208089828491,10.702766418457,10.6847858428955,10.6668643951416,10.6490039825439,10.6312017440796,10.6134605407715,10.5956697463989,10.5776538848877,10.5596990585327,10.5418043136597,10.5239715576172,10.5061979293823,10.4884843826294,10.4708309173584,10.453236579895,10.4357004165649,10.4182243347168,10.4008054733276,10.3834457397461,10.3661432266235,10.3488988876343,10.331711769104,10.3145809173584,10.2975072860718,10.2804899215698,10.2635288238525,10.2466239929199,10.2297744750977,10.2129802703857,10.1962404251099,10.1795558929443,10.1629257202148,10.1463508605957,10.129828453064,10.1144418716431,10.1002473831177,10.0860919952393,10.0719766616821,10.057900428772,10.0438632965088,10.0298662185669,10.0159072875977,10.0019874572754,9.98810577392578,9.97426319122314,9.96045875549316,9.94669246673584,9.93296432495117,9.91927433013916,9.90562152862549,9.89200592041016,9.87842845916748,9.86488723754883,9.85138416290283,9.83791732788086,9.82448768615723,9.81109428405762,9.79773712158203,9.78441715240479,9.77113246917725,9.75788497924805,9.74467182159424,9.73149585723877,9.71835422515869,9.70524883270264,9.69217872619629,9.67914295196533,9.6661434173584,9.65317821502686,9.6402473449707,9.62735176086426,9.61448955535889,9.60166263580322,9.58887004852295,9.57611083984375,9.55948829650879,9.5392951965332,9.51918697357178,9.49916458129883,9.47922420501709,9.45936870574951,9.43959617614746,9.41990566253662,9.40029811859131,9.38077068328857,9.36132526397705,9.34195995330811,9.32267379760742,9.30346870422363,9.28434181213379,9.26529312133789,9.24632263183594,9.22742938995361,9.20861339569092,9.18987369537354,9.17121124267578,9.15262317657471,9.13411045074463,9.11567306518555,9.09731006622314,9.07902050018311,9.06080436706543,9.0426607131958,9.02459049224854,9.006591796875,8.9886646270752,8.97080898284912,8.95302391052246,8.93530941009521,8.9158992767334,8.89536094665527,8.87491607666016,8.85456466674805,8.83430767059326,8.81414127349854,8.79406833648682,8.77408599853516,8.75419330596924,8.7343921661377,8.71467971801758,8.6950569152832,8.67552089691162,8.65607357025146,8.63671207427979,8.61743831634521,8.5982494354248,8.57914638519287,8.5601282119751,8.54119300842285,8.52234268188477,8.50357437133789,8.48488903045654,8.46628570556641,8.44776439666748,8.42932319641113,8.41096210479736,8.39268112182617,8.37447929382324,8.35635662078857,8.33831119537354,8.32034492492676,8.30245494842529,8.28464221954346,8.26690578460693,8.24924468994141,8.23165893554688,8.21414852142334,8.19671249389648,8.17934989929199,8.16206073760986,8.14484405517578,8.12770080566406,8.11062908172607,8.10189151763916,8.09383106231689,8.08578586578369,8.07775688171387,8.06974315643311,8.06174659729004,8.05376529693604,8.04579925537109,8.03784942626953,8.02991485595703,8.02199649810791,8.01409339904785,8.00620651245117,7.9983344078064,7.99047803878784,7.98263692855835,7.97481107711792,7.96700096130371,7.95920610427856,7.95142602920532,7.9436616897583,7.93591213226318,7.92817783355713,7.92045831680298,7.91275405883789,7.90506505966187,7.89739036560059,7.88973093032837,7.88208627700806,7.87445640563965,7.8668417930603,7.8592414855957,7.85165548324585,7.84408473968506,7.83652830123901,7.82898616790771,7.82145881652832,7.81394577026367,7.80644702911377,7.79896306991577,7.79149341583252,7.78403759002686,7.7765965461731,7.76916933059692,7.7617564201355,7.75435781478882,7.74697303771973,7.73960256576538,7.73224592208862
13.1691761016846,13.169939994812,13.1707038879395,13.1714744567871,13.1722393035889,13.1730041503906,13.1737699508667,13.1745386123657,13.1753044128418,13.1760711669922,13.1768379211426,13.17760181427,13.1783723831177,13.1791400909424,13.1799058914185,13.1806707382202,13.1814393997192,13.1822061538696,13.182975769043,13.1837396621704,13.1845064163208,13.1852769851685,13.1860456466675,13.1868104934692,13.1875791549683,13.1883478164673,13.1891145706177,13.189884185791,13.1906509399414,13.1914176940918,13.1921892166138,13.1929569244385,13.1937255859375,13.1944942474365,13.1952657699585,13.1960325241089,13.1968030929565,13.1975736618042,13.1983375549316,13.1991090774536,13.199878692627,13.2006464004517,13.2014188766479,13.2021865844727,13.2029552459717,13.2037267684937,13.2044982910156,13.2052659988403,13.2060356140137,13.2068071365356,13.207576751709,13.208348274231,13.2091159820557,13.209885597229,13.2106590270996,13.2114305496216,13.2121992111206,13.2129688262939,13.2137422561646,13.2145109176636,13.2152824401855,13.2160577774048,13.2168226242065,13.2175979614258,13.2183694839478,13.2191400527954,13.2199125289917,13.2206840515137,13.2214546203613,13.2222280502319,13.2230005264282,13.2237730026245,13.1327056884766,12.9390258789062,12.7509756088257,11.7651777267456,11.7539129257202,11.7426691055298,11.7314472198486,11.7202463150024,11.7090673446655,11.6979093551636,11.6867733001709,11.6756572723389,11.6645631790161,11.6534900665283,11.6424379348755,11.6314067840576,11.6203956604004,11.6094064712524,11.5984373092651,11.5874891281128,11.5765619277954,11.5656547546387,11.5547685623169,11.5439023971558,11.5268564224243,11.5060014724731,11.4852228164673,11.4645185470581,11.4438896179199,11.4233341217041,11.4028520584106,11.3824443817139,11.3621082305908,11.3418455123901,11.3216543197632,11.3015356063843,11.2814884185791,11.2615118026733,11.241605758667,11.2217693328857,11.2020034790039,11.1823072433472,11.1626806259155,11.1431217193604,11.123631477356,11.1042098999023,11.0848550796509,11.0655689239502,11.0463485717773,11.0271949768066,11.0081081390381,10.9890871047974,10.9701318740845,10.9512414932251,10.9324169158936,10.9136562347412,10.8949594497681,10.8763275146484,10.8577585220337,10.8392534255981,10.8208112716675,10.8024311065674,10.7841138839722,10.7658586502075,10.7476644515991,10.7295322418213,10.7114610671997,10.6934499740601,10.675500869751,10.6576108932495,10.6397800445557,10.6220102310181,10.6042985916138,10.5866470336914,10.5690279006958,10.5511026382446,10.5332374572754,10.5154323577881,10.497688293457,10.4800033569336,10.4623775482178,10.4448118209839,10.4273042678833,10.4098558425903,10.3924655914307,10.3751335144043,10.3578586578369,10.3406419754028,10.3234815597534,10.306378364563,10.2893323898315,10.2723417282104,10.255407333374,10.2385292053223,10.2217063903809,10.2049379348755,10.1882257461548,10.1715669631958,10.1549634933472,10.1384134292603,10.1219177246094,10.1058034896851,10.0916328430176,10.0775012969971,10.0634098052979,10.0493583679199,10.0353450775146,10.0213708877563,10.007435798645,9.99353981018066,9.97968196868896,9.96586227416992,9.95208168029785,9.93833827972412,9.92463302612305,9.91096591949463,9.89733600616455,9.88374328613281,9.87018775939941,9.85666942596436,9.84318828582764,9.82974433898926,9.8163366317749,9.80296611785889,9.78963088989258,9.77633285522461,9.76307010650635,9.74984359741211,9.73665332794189,9.72349834442139,9.71037864685059,9.69729423522949,9.68424606323242,9.67123222351074,9.65825271606445,9.64530849456787,9.632399559021,9.6195240020752,9.6066837310791,9.5938777923584,9.58110523223877,9.56836700439453,9.55566215515137,9.54299163818359,9.52979564666748,9.50972747802734,9.48974418640137,9.46984386444092,9.45002746582031,9.43029403686523,9.41064262390137,9.39107322692871,9.37158393859863,9.35217666625977,9.33284950256348,9.31360149383545,9.29443264007568,9.27534294128418,9.2563304901123,9.23739719390869,9.21854019165039,9.19976043701172,9.18105697631836,9.16242980957031,9.14387798309326,9.12540054321289,9.10699844360352,9.0886697769165,9.07041454315186,9.05223274230957,9.03412437438965,9.01608753204346,8.99812316894531,8.98022937774658,8.96240711212158,8.944655418396,8.92697429656982,8.90936279296875,8.8896312713623,8.86921215057373,8.8488883972168,8.82865619659424,8.80851650238037,8.78846836090088,8.76851081848145,8.74864482879639,8.72886848449707,8.70918083190918,8.68958187103271,8.67007064819336,8.65064811706543,8.63131141662598,8.612060546875,8.59289646148682,8.57381725311279,8.55482196807861,8.53591060638428,8.51708316802979,8.49833869934082,8.47967624664307,8.46109580993652,8.44259643554688,8.4241771697998,8.40583896636963,8.38758087158203,8.36940097808838,8.35129928588867,8.33327770233154,8.31533145904541,8.29746437072754,8.27967262268066,8.2619571685791,8.24431705474854,8.22675323486328,8.20926284790039,8.19184684753418,8.17450523376465,8.15723609924316,8.14004039764404,8.12291717529297,8.10586547851562,8.09628200531006,8.08823204040527,8.08019828796387,8.07217979431152,8.06417846679688,8.05619239807129,8.04822158813477,8.04026699066162,8.03232765197754,8.02440452575684,8.0164966583252,8.00860500335693,8.00072765350342,7.99286699295044,7.98502111434937,7.97719097137451,7.96937608718872,7.96157646179199,7.95379161834717,7.94602251052856,7.93826866149902,7.93052959442139,7.92280578613281,7.9150972366333,7.90740299224854,7.89972400665283,7.89206027984619,7.88441133499146,7.87677669525146,7.86915731430054,7.86155223846436,7.85396242141724,7.84638690948486,7.83882570266724,7.83127975463867,7.8237476348877,7.81623029708862,7.8087272644043,7.80123901367188,7.79376459121704,7.78630495071411,7.77885913848877,7.77142763137817,7.76401090621948,7.75660753250122,7.74921846389771,7.74184370040894,7.73448276519775,7.72713613510132,7.71980333328247
13.07945728302,13.0802116394043,13.0809669494629,13.0817232131958,13.0824785232544,13.0832347869873,13.0839920043945,13.0847444534302,13.0855007171631,13.0862607955933,13.0870161056519,13.0877714157104,13.0885276794434,13.089282989502,13.0900411605835,13.090799331665,13.0915536880493,13.0923118591309,13.0930700302124,13.093825340271,13.0945825576782,13.0953407287598,13.0960969924927,13.0968532562256,13.0976133346558,13.09836769104,13.0991258621216,13.0998840332031,13.1006412506104,13.1013994216919,13.1021585464478,13.1029138565063,13.1036739349365,13.1044321060181,13.1051912307739,13.1059494018555,13.106707572937,13.1074676513672,13.108226776123,13.1089859008789,13.1097450256348,13.1105003356934,13.1112604141235,13.1120233535767,13.1127796173096,13.1135425567627,13.1142978668213,13.1150579452515,13.115818977356,13.1165800094604,13.1173334121704,13.1180973052979,13.118857383728,13.1196174621582,13.1203775405884,13.1211376190186,13.1218957901001,13.1226568222046,13.1234197616577,13.1241779327393,13.1249370574951,13.1257009506226,13.1264591217041,13.1272230148315,13.1279850006104,13.1287422180176,13.1295051574707,13.1302671432495,13.1310272216797,13.1317911148071,12.9909954071045,12.8014421463013,11.7353935241699,11.7241849899292,11.7129983901978,11.7018337249756,11.6906890869141,11.6795663833618,11.6684646606445,11.6573839187622,11.6463241577148,11.6352853775024,11.624267578125,11.6132707595825,11.602294921875,11.5913391113281,11.5804042816162,11.5694904327393,11.5585966110229,11.5477237701416,11.5368709564209,11.5260391235352,11.5152273178101,11.5044355392456,11.4936637878418,11.4829120635986,11.4721813201904,11.4538297653198,11.4332389831543,11.4127216339111,11.3922777175903,11.3719072341919,11.3516092300415,11.3313837051392,11.3112306594849,11.29114818573,11.2711372375488,11.2511978149414,11.2313280105591,11.2115278244019,11.191798210144,11.1721382141113,11.1525459289551,11.1330232620239,11.1135683059692,11.0941820144653,11.0748624801636,11.055609703064,11.0364246368408,11.0173063278198,10.9982528686523,10.979266166687,10.9603443145752,10.9414882659912,10.9226961135864,10.9039688110352,10.8853063583374,10.8667068481445,10.8481702804565,10.8296985626221,10.8112878799438,10.7929401397705,10.7746553421021,10.7564315795898,10.7382698059082,10.7201690673828,10.7021293640137,10.6841506958008,10.6662311553955,10.6483726501465,10.6305732727051,10.6128339767456,10.5951528549194,10.5775308609009,10.5599679946899,10.5424633026123,10.5246839523315,10.5069074630737,10.4891920089722,10.4715356826782,10.4539394378662,10.4364013671875,10.4189224243164,10.4015016555786,10.3841390609741,10.3668346405029,10.3495874404907,10.3323984146118,10.3152656555176,10.298189163208,10.2811698913574,10.2642068862915,10.2472991943359,10.2304468154907,10.2136507034302,10.1969089508057,10.1802225112915,10.1635904312134,10.1470127105713,10.1304883956909,10.1140184402466,10.097601890564,10.0830326080322,10.0689258575439,10.0548582077026,10.0408306121826,10.0268411636353,10.0128908157349,9.99897956848145,9.98510646820068,9.97127151489258,9.95747566223145,9.94371795654297,9.92999744415283,9.91631507873535,9.90267086029053,9.88906383514404,9.8754940032959,9.86196136474609,9.84846591949463,9.83500671386719,9.82158470153809,9.80819988250732,9.79485130310059,9.78153800964355,9.76826190948486,9.75502109527588,9.74181652069092,9.72864818572998,9.71551418304443,9.70241641998291,9.68935394287109,9.67632579803467,9.66333389282227,9.65037536621094,9.63745307922363,9.6245641708374,9.61171054840088,9.59889030456543,9.58610439300537,9.5733528137207,9.56063556671143,9.54795169830322,9.53530120849609,9.52268409729004,9.51010036468506,9.49755001068115,9.48034286499023,9.46048259735107,9.44070529937744,9.42101001739502,9.40139770507812,9.38186550140381,9.36241626739502,9.34304618835449,9.32375621795654,9.30454540252686,9.28541374206543,9.26636123657227,9.24738597869873,9.22848892211914,9.20966815948486,9.19092464447021,9.17225742340088,9.15366554260254,9.1351490020752,9.11670684814453,9.09833908081055,9.08004665374756,9.0618257522583,9.04367828369141,9.02560329437256,9.00760173797607,8.98966979980469,8.97181034088135,8.95402145385742,8.93630313873291,8.9186544418335,8.9010763168335,8.88356590270996,8.86351680755615,8.84321784973145,8.82301235198975,8.80289745330811,8.78287601470947,8.76294422149658,8.74310302734375,8.72335147857666,8.703688621521,8.68411445617676,8.66462802886963,8.64522933959961,8.62591648101807,8.60669040679932,8.58755016326904,8.56849384307861,8.54952239990234,8.53063488006592,8.51183032989502,8.49310874938965,8.47446918487549,8.45591163635254,8.43743515014648,8.41903877258301,8.40072250366211,8.38248634338379,8.36432838439941,8.3462495803833,8.32824802398682,8.31032466888428,8.29247856140137,8.27470779418945,8.25701427459717,8.23939609527588,8.22185134887695,8.20438289642334,8.18698787689209,8.1696662902832,8.15241813659668,8.1352424621582,8.11813926696777,8.10110759735107,8.09068012237549,8.0826416015625,8.07461833953857,8.06661128997803,8.05862045288086,8.05064487457275,8.04268550872803,8.03474235534668,8.02681350708008,8.01890182495117,8.01100444793701,8.00312328338623,7.99525737762451,7.98740673065186,7.97957181930542,7.97175264358521,7.96394824981689,7.95615911483765,7.94838523864746,7.94062662124634,7.93288326263428,7.92515468597412,7.91744089126587,7.90974283218384,7.90205907821655,7.89439105987549,7.88673734664917,7.87909841537476,7.87147426605225,7.86386489868164,7.85627031326294,7.84869050979614,7.84112501144409,7.83357429504395,7.8260383605957,7.81851625442505,7.8110089302063,7.80351591110229,7.7960376739502,7.78857326507568,7.78112316131592,7.77368783950806,7.76626634597778,7.7588586807251,7.75146579742432,7.74408626556396,7.73672151565552,7.7293701171875,7.72203302383423,7.71470975875854,7.70740032196045
12.9909524917603,12.9916973114014,12.9924430847168,12.9931898117065,12.9939346313477,12.9946794509888,12.9954252243042,12.9961700439453,12.9969177246094,12.9976663589478,12.9984073638916,12.9991550445557,12.999903678894,13.0006475448608,13.0013942718506,13.0021419525146,13.0028867721558,13.0036344528198,13.0043811798096,13.0051288604736,13.0058736801147,13.0066232681274,13.0073680877686,13.0081167221069,13.008864402771,13.0096092224121,13.0103569030762,13.0111055374146,13.0118532180786,13.0125999450684,13.0133485794067,13.0140962600708,13.0148439407349,13.0155944824219,13.016339302063,13.0170888900757,13.0178384780884,13.0185842514038,13.0193347930908,13.0200815200806,13.0208301544189,13.0215797424316,13.02232837677,13.0230779647827,13.0238246917725,13.0245742797852,13.0253238677979,13.0260744094849,13.0268249511719,13.0275707244873,13.0283203125,13.0290727615356,13.0298204421997,13.0305681228638,13.0313196182251,13.0320682525635,13.0328197479248,13.0335702896118,13.0343189239502,13.0350685119629,13.0358209609985,13.0365705490112,13.0373229980469,13.0380716323853,13.0388202667236,13.0395736694336,13.0403261184692,13.0410747528076,11.7169322967529,11.7057590484619,11.6946077346802,11.6834774017334,11.6723680496216,11.661280632019,11.6502132415771,11.6391668319702,11.6281423568726,11.6171379089355,11.6061544418335,11.5951919555664,11.58424949646,11.5733280181885,11.562427520752,11.5515470504761,11.5406875610352,11.5298480987549,11.5190286636353,11.5082302093506,11.4974517822266,11.4866933822632,11.4759550094604,11.4652366638184,11.4545383453369,11.4438600540161,11.433201789856,11.4225635528564,11.4119443893433,11.4013452529907,11.3817234039307,11.3613901138306,11.3411302566528,11.3209419250488,11.3008251190186,11.280779838562,11.2608060836792,11.2409019470215,11.2210693359375,11.2013053894043,11.1816120147705,11.1619873046875,11.1424312591553,11.1229429244995,11.1035242080688,11.084171295166,11.064887046814,11.0456695556641,11.0265188217163,11.0074338912964,10.9884157180786,10.9694623947144,10.9505748748779,10.931752204895,10.9129934310913,10.8942995071411,10.8756694793701,10.8571033477783,10.8386001586914,10.8201599121094,10.8017816543579,10.7834663391113,10.7652130126953,10.7470216751099,10.7288913726807,10.7108221054077,10.692813873291,10.6748666763306,10.6569786071777,10.6391506195068,10.6213827133179,10.6036729812622,10.5860233306885,10.568431854248,10.5508985519409,10.5334234237671,10.5160064697266,10.4983968734741,10.4807100296021,10.4630823135376,10.4455137252808,10.4280042648315,10.4105529785156,10.3931608200073,10.375825881958,10.358549118042,10.341329574585,10.3241672515869,10.3070621490479,10.2900133132935,10.2730207443237,10.2560844421387,10.239203453064,10.2223787307739,10.2056083679199,10.1888933181763,10.1722326278687,10.1556262969971,10.1390743255615,10.122576713562,10.1061325073242,10.0897407531738,10.0744476318359,10.0603647232056,10.0463209152222,10.0323171615601,10.0183515548706,10.0044250488281,9.9905366897583,9.97668743133545,9.96287631988525,9.94910335540771,9.93536853790283,9.92167091369629,9.9080114364624,9.89439010620117,9.88080596923828,9.86725807189941,9.8537483215332,9.84027576446533,9.82683944702148,9.81343936920166,9.80007648468018,9.78674983978271,9.77345848083496,9.76020431518555,9.74698543548584,9.73380279541016,9.72065544128418,9.70754337310791,9.69446659088135,9.68142604827881,9.66841983795166,9.6554479598999,9.64251136779785,9.62960910797119,9.61674213409424,9.60390853881836,9.59111022949219,9.57834434509277,9.56561374664307,9.55291652679443,9.54025363922119,9.52762317657471,9.51502704620361,9.50246334075928,9.48993301391602,9.47743606567383,9.4649715423584,9.45113945007324,9.43140125274658,9.41174411773682,9.39216995239258,9.37267684936523,9.35326480865479,9.33393287658691,9.31468105316162,9.29550743103027,9.27641296386719,9.25739669799805,9.23845863342285,9.21959781646729,9.20081424713135,9.18210601806641,9.16347408294678,9.14491844177246,9.12643718719482,9.10803031921387,9.08969783782959,9.07143878936768,9.05325317382812,9.03514003753662,9.01709938049316,8.99913024902344,8.98123359680176,8.96340751647949,8.94565105438232,8.92796611785889,8.91035079956055,8.89280414581299,8.87532615661621,8.85782814025879,8.83755493164062,8.81737518310547,8.79728698730469,8.77729034423828,8.75738430023193,8.73756790161133,8.71784114837646,8.69820308685303,8.67865371704102,8.65919208526611,8.639817237854,8.62052917480469,8.60132694244385,8.58220958709717,8.56317710876465,8.54422950744629,8.52536487579346,8.50658416748047,8.48788547515869,8.46926879882812,8.45073413848877,8.43227958679199,8.41390609741211,8.3956127166748,8.37739849090576,8.35926246643066,8.34120559692383,8.32322597503662,8.30532360076904,8.28749942779541,8.26974964141846,8.25207710266113,8.23447895050049,8.21695709228516,8.19950866699219,8.1821346282959,8.16483306884766,8.14760589599609,8.13045024871826,8.11336708068848,8.09635543823242,8.08508586883545,8.07705783843994,8.06904602050781,8.06105041503906,8.05307006835938,8.04510593414307,8.03715705871582,8.02922439575195,8.02130794525146,8.01340579986572,8.00551986694336,7.99764919281006,7.98979425430298,7.98195457458496,7.97413015365601,7.96632146835327,7.95852756500244,7.95074892044067,7.94298601150513,7.93523788452148,7.92750453948975,7.91978645324707,7.91208362579346,7.90439605712891,7.8967227935791,7.88906478881836,7.88142108917236,7.87379264831543,7.8661789894104,7.85857963562012,7.8509955406189,7.84342575073242,7.83587074279785,7.82833003997803,7.82080364227295,7.81329202651978,7.80579471588135,7.79831171035767,7.79084300994873,7.7833890914917,7.77594900131226,7.7685227394104,7.76111125946045,7.75371408462524,7.74633026123047,7.7389612197876,7.73160552978516,7.72426414489746,7.71693706512451,7.70962333679199,7.70232343673706,7.69503736495972
12.9036378860474,12.9043741226196,12.9051113128662,12.9058418273926,12.9065799713135,12.9073171615601,12.9080514907837,12.908787727356,12.9095220565796,12.9102582931519,12.9109945297241,12.9117336273193,12.9124689102173,12.9132032394409,12.9139413833618,12.9146757125854,12.9154148101807,12.9161529541016,12.9168844223022,12.9176225662231,12.918360710144,12.919095993042,12.9198369979858,12.9205713272095,12.9213075637817,12.922046661377,12.9227848052979,12.9235191345215,12.9242572784424,12.9249954223633,12.9257326126099,12.9264717102051,12.9272089004517,12.9279451370239,12.9286851882935,12.9294242858887,12.9301614761353,12.9308996200562,12.9316387176514,12.9323759078979,12.9331159591675,12.9338569641113,12.9345922470093,12.9353313446045,12.9360723495483,12.9368104934692,12.9375486373901,12.9382877349854,12.9390277862549,12.9397668838501,12.9405078887939,12.9412469863892,12.9419841766357,12.9427251815796,12.9434661865234,12.9442052841187,12.9449434280396,12.945686340332,12.9464244842529,12.9471654891968,12.9479064941406,12.9486427307129,12.9493846893311,12.9501266479492,11.6985292434692,11.6873912811279,11.6762752532959,11.6651792526245,11.6541051864624,11.6430511474609,11.6320190429688,11.6210069656372,11.6100168228149,11.5990467071533,11.5880975723267,11.5771684646606,11.5662603378296,11.5553731918335,11.544506072998,11.5336599349976,11.5228328704834,11.5120277404785,11.50124168396,11.4904766082764,11.4797306060791,11.4690055847168,11.4583005905151,11.4476146697998,11.4369497299194,11.4263038635254,11.415678024292,11.4050722122192,11.3944864273071,11.3839197158813,11.3733720779419,11.3628444671631,11.3523368835449,11.3418483734131,11.3306694030762,11.3105182647705,11.2904386520386,11.2704305648804,11.2504930496216,11.2306261062622,11.2108287811279,11.1911020278931,11.171443939209,11.1518545150757,11.1323337554932,11.1128816604614,11.0934972763062,11.074179649353,11.0549297332764,11.0357465744019,11.0166301727295,10.9975805282593,10.9785957336426,10.9596757888794,10.940821647644,10.9220323562622,10.9033079147339,10.8846464157104,10.8660497665405,10.8475160598755,10.8290452957153,10.8106374740601,10.7922925949097,10.7740087509155,10.7557878494263,10.7376279830933,10.7195301055908,10.7014923095703,10.6835145950317,10.6655988693237,10.647741317749,10.6299448013306,10.6122064590454,10.5945281982422,10.5769081115723,10.55934715271,10.541844367981,10.5243997573853,10.5070123672485,10.4896821975708,10.4722414016724,10.4546422958374,10.4371023178101,10.419620513916,10.4021978378296,10.3848333358765,10.3675260543823,10.3502769470215,10.3330850601196,10.3159503936768,10.2988719940186,10.281849861145,10.2648839950562,10.247974395752,10.2311210632324,10.2143220901489,10.1975784301758,10.1808891296387,10.1642551422119,10.1476745605469,10.1311492919922,10.1146764755249,10.0982580184937,10.0818920135498,10.0658769607544,10.0518188476562,10.0377988815308,10.0238180160522,10.0098762512207,9.99597263336182,9.9821081161499,9.96828174591064,9.95449447631836,9.94074440002441,9.92703247070312,9.91335868835449,9.8997220993042,9.88612270355225,9.87256145477295,9.85903644561768,9.84554958343506,9.83209896087646,9.81868457794189,9.80530738830566,9.79196643829346,9.77866172790527,9.7653923034668,9.75216007232666,9.73896312713623,9.72580146789551,9.71267604827881,9.69958591461182,9.68653106689453,9.67351055145264,9.66052532196045,9.64757537841797,9.63465976715088,9.62177848815918,9.60893249511719,9.59611988067627,9.58334159851074,9.57059764862061,9.55788707733154,9.54520988464355,9.53256702423096,9.51995754241943,9.50738143920898,9.49483776092529,9.48232746124268,9.46985054016113,9.45740604400635,9.44499492645264,9.43261528015137,9.42026901245117,9.40249729156494,9.38296127319336,9.36350631713867,9.34413242340088,9.32483768463135,9.30562305450439,9.28648662567139,9.26742935180664,9.24845027923584,9.22954845428467,9.21072387695312,9.19197654724121,9.17330455780029,9.15470790863037,9.13618755340576,9.11774158477783,9.09937000274658,9.0810718536377,9.06284809112549,9.04469585418701,9.02661800384521,9.00861072540283,8.9906759262085,8.97281169891357,8.95501899719238,8.93729686737061,8.91964435577393,8.90206146240234,8.88454818725586,8.86710262298584,8.84972667694092,8.83189964294434,8.81174564361572,8.79168319702148,8.7717113494873,8.75183010101318,8.73203945159912,8.71233749389648,8.69272518157959,8.6732006072998,8.6537618637085,8.63441181182861,8.61514759063721,8.59597015380859,8.57687664031982,8.55786800384521,8.53894329071045,8.52010250091553,8.50134468078613,8.48266887664795,8.46407508850098,8.4455623626709,8.42713165283203,8.40878009796143,8.3905086517334,8.37231636047363,8.35420322418213,8.33616733551025,8.31820964813232,8.30032920837402,8.28252601623535,8.26479816436768,8.247145652771,8.22956943511963,8.21206760406494,8.19464015960693,8.17728614807129,8.16000556945801,8.14279842376709,8.12566375732422,8.10860061645508,8.09160900115967,8.07949924468994,8.07148265838623,8.06348133087158,8.05549716949463,8.04752826690674,8.03957462310791,8.03163719177246,8.02371501922607,8.01580905914307,8.0079174041748,8.00004291534424,7.99218273162842,7.98433828353882,7.97650957107544,7.96869564056396,7.96089744567871,7.95311450958252,7.94534635543823,7.93759393692017,7.929856300354,7.92213344573975,7.91442632675171,7.90673351287842,7.89905595779419,7.89139366149902,7.8837456703186,7.87611246109009,7.86849403381348,7.86089086532593,7.85330200195312,7.84572744369507,7.83816814422607,7.83062267303467,7.82309246063232,7.81557607650757,7.80807447433472,7.80058717727661,7.79311418533325,7.78565549850464,7.77821111679077,7.77078104019165,7.76336526870728,7.75596332550049,7.74857568740845,7.74120187759399,7.73384237289429,7.72649669647217,7.71916484832764,7.71184730529785,7.7045431137085,7.69725322723389,7.68997669219971,7.68271398544312
12.8174915313721,12.8182172775269,12.8189392089844,12.8196668624878,12.8203935623169,12.8211183547974,12.8218441009521,12.8225717544556,12.8232975006104,12.8240232467651,12.8247499465942,12.8254766464233,12.8262014389038,12.8269300460815,12.8276567459106,12.8283815383911,12.8291091918945,12.8298358917236,12.8305625915527,12.8312902450562,12.8320178985596,12.83274269104,12.8334703445435,12.8341989517212,12.8349266052246,12.835654258728,12.8363809585571,12.8371067047119,12.837836265564,12.8385639190674,12.8392906188965,12.8400182723999,12.8407468795776,12.8414754867554,12.8422050476074,12.8429317474365,12.8436594009399,12.8443880081177,12.845118522644,12.8458461761475,12.8465728759766,12.8473043441772,12.848030090332,12.848762512207,12.8494920730591,12.8502187728882,12.8509483337402,12.8516788482666,12.8524084091187,12.8531379699707,12.8538656234741,12.8545951843262,12.8553256988525,12.8560581207275,12.856782913208,12.8575143814087,12.8582458496094,12.8589754104614,12.8597059249878,12.8604364395142,12.8611640930176,11.6690807342529,11.6579990386963,11.6469383239746,11.6358985900879,11.6248798370361,11.613881111145,11.6029043197632,11.591947555542,11.5810117721558,11.5700960159302,11.5592012405396,11.5483274459839,11.5374736785889,11.5266399383545,11.5158271789551,11.5050344467163,11.4942617416382,11.4835090637207,11.4727773666382,11.462064743042,11.4513721466064,11.4406995773315,11.4300479888916,11.4194145202637,11.4088020324707,11.3982086181641,11.3876352310181,11.3770809173584,11.3665466308594,11.3560314178467,11.3455362319946,11.3350601196289,11.3246030807495,11.3141660690308,11.3037481307983,11.2933483123779,11.2829685211182,11.2726078033447,11.2601003646851,11.2401990890503,11.2203683853149,11.2006072998047,11.1809158325195,11.1612939834595,11.1417398452759,11.1222543716431,11.102837562561,11.0834884643555,11.0642061233521,11.0449905395508,11.025842666626,11.0067596435547,10.9877433776855,10.9687929153442,10.9499073028564,10.9310865402222,10.9123306274414,10.8936386108398,10.8750114440918,10.8564472198486,10.8379459381104,10.819507598877,10.8011322021484,10.7828197479248,10.7645683288574,10.7463788986206,10.7282514572144,10.71018409729,10.692177772522,10.6742324829102,10.656346321106,10.6385202407837,10.6207542419434,10.6030473709106,10.5853996276855,10.5678100585938,10.5502786636353,10.5328054428101,10.5153903961182,10.4980335235596,10.4807329177856,10.4634895324707,10.4462156295776,10.4287033081055,10.4112501144409,10.3938550949097,10.3765182495117,10.3592395782471,10.3420181274414,10.3248529434204,10.3077459335327,10.2906942367554,10.273699760437,10.256760597229,10.2398777008057,10.2230501174927,10.2062788009644,10.1895608901978,10.1728982925415,10.1562900543213,10.1397361755371,10.1232357025146,10.1067895889282,10.0903959274292,10.0740556716919,10.0577688217163,10.0432863235474,10.0292901992798,10.0153331756592,10.0014152526855,9.98753547668457,9.97369384765625,9.9598913192749,9.94612693786621,9.93239974975586,9.91871070861816,9.90505981445312,9.89144611358643,9.87786960601807,9.86433124542236,9.85082912445068,9.83736324310303,9.82393550872803,9.81054401397705,9.7971887588501,9.78386974334717,9.77058696746826,9.75733947753906,9.7441291809082,9.73095321655273,9.71781444549561,9.70471000671387,9.69164085388184,9.67860698699951,9.66560840606689,9.65264511108398,9.63971519470215,9.62682056427002,9.6139612197876,9.60113525390625,9.58834362030029,9.57558631896973,9.56286239624023,9.55017280578613,9.53751659393311,9.52489376068115,9.51230430603027,9.49974822998047,9.48722457885742,9.47473526000977,9.46227741241455,9.44985294342041,9.43746089935303,9.42510223388672,9.41277503967285,9.40047931671143,9.38821697235107,9.37377071380615,9.35435390472412,9.33501720428467,9.31576061248779,9.29658222198486,9.27748394012451,9.25846385955811,9.23952102661133,9.22065544128418,9.20186710357666,9.18315505981445,9.16451930999756,9.14595890045166,9.12747383117676,9.10906219482422,9.09072589874268,9.0724630355835,9.05427265167236,9.03615570068359,9.01811122894287,9.00013828277588,8.98223686218262,8.96440696716309,8.94664669036865,8.92895793914795,8.91133785247803,8.89378833770752,8.87630748748779,8.85889434814453,8.84154987335205,8.82427310943604,8.80612277984619,8.7860860824585,8.76613998413086,8.74628448486328,8.72651863098145,8.70684146881104,8.68725299835205,8.66775226593018,8.64834022521973,8.62901306152344,8.60977363586426,8.59061908721924,8.57154941558838,8.55256462097168,8.53366374969482,8.5148458480835,8.4961109161377,8.47745800018311,8.45888710021973,8.44039821624756,8.42198848724365,8.40365982055664,8.38541030883789,8.3672399520874,8.34914875030518,8.33113479614258,8.31319904327393,8.29533958435059,8.27755737304688,8.25985145568848,8.24222087860107,8.22466468811035,8.20718383789062,8.18977737426758,8.17244434356689,8.15518379211426,8.13799667358398,8.12088203430176,8.10383892059326,8.0868673324585,8.07392024993896,8.06591510772705,8.0579252243042,8.04995155334473,8.04199314117432,8.03405094146729,8.02612400054932,8.01821231842041,8.0103178024292,8.00243759155273,7.99457263946533,7.98672389984131,7.97889041900635,7.97107172012329,7.96326875686646,7.95548105239868,7.94770860671997,7.93995141983032,7.93220901489258,7.9244818687439,7.91676998138428,7.90907287597656,7.90139055252075,7.893723487854,7.88607120513916,7.87843370437622,7.87081098556519,7.86320304870605,7.85560941696167,7.84803056716919,7.84046697616577,7.83291721343994,7.82538223266602,7.81786155700684,7.81035566329956,7.80286407470703,7.79538679122925,7.78792381286621,7.78047513961792,7.77304077148438,7.76562023162842,7.75821447372437,7.75082206726074,7.74344444274902,7.73608064651489,7.72873067855835,7.72139453887939,7.71407270431519,7.70676422119141,7.69947004318237,7.69218921661377,7.68492269515991,7.67766952514648,7.67043018341064
12.7324838638306,12.7332010269165,12.7339172363281,12.7346334457397,12.7353487014771,12.7360639572144,12.7367811203003,12.7374992370605,12.7382144927979,12.7389307022095,12.7396478652954,12.7403621673584,12.741081237793,12.7418012619019,12.7425146102905,12.7432317733765,12.7439489364624,12.7446660995483,12.7453851699829,12.7461023330688,12.7468175888062,12.7475366592407,12.7482566833496,12.7489719390869,12.7496871948242,12.7504091262817,12.7511234283447,12.7518444061279,12.7525625228882,12.7532768249512,12.7539978027344,12.7547178268433,12.7554349899292,12.7561511993408,12.756872177124,12.7575883865356,12.7583103179932,12.7590303421021,12.7597455978394,12.7604646682739,12.7611846923828,12.7619047164917,12.762622833252,12.7633409500122,12.7640590667725,12.76478099823,12.7655019760132,12.7662210464478,12.766939163208,12.7676601409912,12.7683811187744,12.7690992355347,12.7698221206665,12.7705392837524,12.7712602615356,12.7719812393188,12.7727022171021,11.6508274078369,11.6397800445557,11.6287546157837,11.6177492141724,11.6067638397217,11.5958003997803,11.5848569869995,11.5739345550537,11.5630331039429,11.5521516799927,11.5412902832031,11.5304498672485,11.5196294784546,11.5088300704956,11.4980497360229,11.4872903823853,11.4765510559082,11.4658317565918,11.455132484436,11.4444532394409,11.4337930679321,11.4231538772583,11.4125337600708,11.4019336700439,11.3913536071777,11.3807926177979,11.3702516555786,11.3597297668457,11.3492269515991,11.3387441635132,11.3282804489136,11.3178367614746,11.3074111938477,11.2970056533813,11.2866182327271,11.2762508392334,11.2659025192261,11.2555732727051,11.2452621459961,11.2349700927734,11.2246971130371,11.2144432067871,11.2042074203491,11.1904048919678,11.1707487106323,11.151162147522,11.1316442489624,11.1121940612793,11.092812538147,11.0734977722168,11.0542497634888,11.0350694656372,11.0159549713135,10.9969072341919,10.9779243469238,10.9590082168579,10.9401559829712,10.921368598938,10.9026460647583,10.8839874267578,10.8653926849365,10.8468608856201,10.8283929824829,10.8099870681763,10.7916440963745,10.7733631134033,10.7551441192627,10.7369871139526,10.7188901901245,10.700855255127,10.6828804016113,10.6649656295776,10.6471109390259,10.6293163299561,10.6115798950195,10.5939035415649,10.576286315918,10.5587272644043,10.5412263870239,10.5237827301025,10.5063972473145,10.4890689849854,10.4717988967896,10.4545841217041,10.4374265670776,10.4203195571899,10.4028940200806,10.3855266571045,10.3682174682617,10.3509654998779,10.3337717056274,10.3166341781616,10.2995538711548,10.2825298309326,10.2655620574951,10.2486505508423,10.2317934036255,10.2149934768677,10.1982469558716,10.1815557479858,10.1649198532104,10.1483373641968,10.1318092346191,10.1153345108032,10.0989141464233,10.0825462341309,10.0662317276001,10.0499696731567,10.0347690582275,10.0207967758179,10.0068635940552,9.99296855926514,9.97911262512207,9.96529388427734,9.95151424407959,9.93777275085449,9.92406940460205,9.91040325164795,9.8967752456665,9.8831844329834,9.86963081359863,9.85611438751221,9.8426342010498,9.82919216156006,9.81578540802002,9.80241584777832,9.78908252716064,9.77578639984131,9.76252555847168,9.74930000305176,9.73611068725586,9.72295761108398,9.70983982086182,9.69675636291504,9.68370914459229,9.67069721221924,9.65771961212158,9.64477634429932,9.63186836242676,9.61899471282959,9.60615539550781,9.59335136413574,9.58057975769043,9.56784343719482,9.55513954162598,9.54247093200684,9.52983474731445,9.51723194122314,9.50466346740723,9.49212741851807,9.47962379455566,9.46715354919434,9.45471668243408,9.44231224060059,9.42994022369385,9.41759967803955,9.40529251098633,9.39301681518555,9.38077354431152,9.36856269836426,9.35638236999512,9.34423446655273,9.32592010498047,9.30670070648193,9.28756046295166,9.26849842071533,9.24951457977295,9.23060894012451,9.21177959442139,9.19302749633789,9.17435169219971,9.15575122833252,9.13722610473633,9.11877632141113,9.1003999710083,9.08209800720215,9.06386947631836,9.04571437835693,9.02763175964355,9.00962066650391,8.99168109893799,8.97381401062012,8.95601749420166,8.9382905960083,8.92063426971436,8.90304756164551,8.88553047180176,8.86808109283447,8.85070133209229,8.83338832855225,8.81614398956299,8.79896640777588,8.78049659729004,8.76057529449463,8.74074554443359,8.72100448608398,8.7013521194458,8.68178844451904,8.66231250762939,8.64292430877686,8.62362194061279,8.60440540313721,8.58527565002441,8.56622982025146,8.54726791381836,8.52839088439941,8.50959587097168,8.49088382720947,8.47225475311279,8.45370674133301,8.43523979187012,8.4168529510498,8.39854621887207,8.3803186416626,8.3621711730957,8.34410095214844,8.32610893249512,8.30819511413574,8.29035758972168,8.27259635925293,8.25491142272949,8.23730182647705,8.21976661682129,8.20230674743652,8.18492126464844,8.16760730743408,8.15036869049072,8.13320159912109,8.1161060333252,8.09908390045166,8.08213138580322,8.06834888458252,8.06035423278809,8.05237579345703,8.04441261291504,8.03646564483643,8.02853488922119,8.0206184387207,8.01271820068359,8.00483322143555,7.99696445465088,7.98911046981812,7.98127222061157,7.97344923019409,7.96564149856567,7.95784950256348,7.95007228851318,7.94231033325195,7.93456363677979,7.92683172225952,7.91911506652832,7.91141366958618,7.90372657775879,7.89605522155762,7.88839817047119,7.88075590133667,7.87312889099121,7.8655161857605,7.85791873931885,7.85033512115479,7.84276676177979,7.83521318435669,7.82767343521118,7.82014846801758,7.81263828277588,7.80514240264893,7.79766082763672,7.7901930809021,7.78274011611938,7.77530145645142,7.76787662506104,7.76046657562256,7.75306987762451,7.74568796157837,7.73831987380981,7.73096561431885,7.72362518310547,7.71629905700684,7.70898675918579,7.70168828964233,7.69440364837646,7.68713235855103,7.67987537384033,7.67263174057007,7.66540193557739,7.65818548202515
0,0,0,0,0,0,0,0,0,0,0,0,0,0,0,0,0,0,0,0,0,12.6634540557861,12.6641607284546,12.6648683547974,12.6655769348145,12.6662874221802,12.6669950485229,12.6677026748657,12.6684122085571,12.6691207885742,12.6698293685913,12.6705369949341,12.6712455749512,12.6719551086426,12.672664642334,12.6733741760254,12.6740818023682,12.6747941970825,12.6755027770996,12.676212310791,12.6769227981567,12.6776294708252,12.6783409118652,12.6790523529053,12.6797609329224,12.6804723739624,12.6811819076538,12.6818885803223,12.6826019287109,12.683313369751,12.6840229034424,12.6847305297852,12.6854438781738,11.6326313018799,11.6216192245483,11.6106271743774,11.5996561050415,11.5887050628662,11.5777759552002,11.5668659210205,11.5559778213501,11.5451097488403,11.5342617034912,11.5234346389771,11.5126276016235,11.5018405914307,11.4910736083984,11.4803276062012,11.4696006774902,11.4588947296143,11.4482088088989,11.4375419616699,11.4268951416016,11.4162683486938,11.4056615829468,11.395073890686,11.3845062255859,11.3739576339722,11.363429069519,11.3529205322266,11.3424301147461,11.3319597244263,11.3215093612671,11.3110771179199,11.3006649017334,11.2902708053589,11.279896736145,11.2695417404175,11.259204864502,11.2488880157471,11.2385892868042,11.2283096313477,11.2180490493774,11.2078065872192,11.1975831985474,11.1873788833618,11.1771926879883,11.1670246124268,11.1568756103516,11.1467447280884,11.1366319656372,11.1215667724609,11.1021518707275,11.0828046798706,11.0635251998901,11.0443124771118,11.0251655578613,11.0060863494873,10.9870719909668,10.9681234359741,10.949239730835,10.9304218292236,10.9116678237915,10.8929786682129,10.8743534088135,10.8557910919189,10.8372926712036,10.8188571929932,10.8004837036133,10.782172203064,10.7639236450195,10.7457370758057,10.7276105880737,10.7095460891724,10.6915416717529,10.6735982894897,10.6557149887085,10.6378908157349,10.6201267242432,10.6024217605591,10.5847759246826,10.5671882629395,10.5496597290039,10.5321884155273,10.5147752761841,10.4974203109741,10.4801216125488,10.4628801345825,10.4456949234009,10.4285659790039,10.4114942550659,10.394476890564,10.3772115707397,10.3599300384521,10.3427057266235,10.3255386352539,10.3084287643433,10.2913761138916,10.2743787765503,10.2574377059937,10.2405529022217,10.2237224578857,10.2069482803345,10.1902294158936,10.1735639572144,10.1569538116455,10.1403980255127,10.1238946914673,10.1074466705322,10.0910511016846,10.0747089385986,10.0584192276001,10.0421829223633,10.0262660980225,10.0123176574707,9.9984073638916,9.98453617095947,9.970703125,9.95690822601318,9.94315242767334,9.92943382263184,9.91575241088867,9.90211009979248,9.88850402832031,9.8749361038208,9.86140441894531,9.84791088104248,9.83445358276367,9.8210334777832,9.80764961242676,9.79430198669434,9.78099060058594,9.76771640777588,9.75447654724121,9.74127388000488,9.72810649871826,9.71497440338135,9.70187759399414,9.68881702423096,9.67579078674316,9.66279888153076,9.64984321594238,9.63692188262939,9.62403392791748,9.61118125915527,9.59836292266846,9.58557891845703,9.572829246521,9.56011295318604,9.54743003845215,9.53478145599365,9.52216529846191,9.50958347320557,9.49703407287598,9.48451805114746,9.47203540802002,9.45958518981934,9.44716835021973,9.43478298187256,9.42243099212646,9.41011047363281,9.39782238006592,9.38556671142578,9.37334251403809,9.36115074157715,9.34898948669434,9.33686065673828,9.32476329803467,9.3126974105835,9.29765796661377,9.27855491638184,9.25953006744385,9.2405834197998,9.22171401977539,9.20292091369629,9.18420505523682,9.16556453704834,9.14700031280518,9.12851047515869,9.11009502410889,9.09175395965576,9.07348728179932,9.05529308319092,9.03717136383057,9.01912307739258,9.00114631652832,8.98324108123779,8.96540641784668,8.9476432800293,8.92994976043701,8.91232681274414,8.89477252960205,8.87728691101074,8.85987091064453,8.84252262115479,8.8252420425415,8.80802917480469,8.79088306427002,8.7738037109375,8.75501823425293,8.73521327972412,8.71549701690674,8.69586944580078,8.67633056640625,8.65687942504883,8.6375150680542,8.61823654174805,8.59904479980469,8.57993793487549,8.56091594696045,8.54197788238525,8.5231237411499,8.50435256958008,8.48566436767578,8.46705722808838,8.44853115081787,8.43008708953857,8.41172218322754,8.3934383392334,8.37523365020752,8.35710716247559,8.3390588760376,8.32108879089355,8.30319595336914,8.28538036346436,8.26764106750488,8.24997615814209,8.23238754272461,8.21487426757812,8.197434425354,8.18006992340088,8.16277694702148,8.14555835723877,8.12841129302979,8.11133670806885,8.09433364868164,8.07740116119385,8.06278514862061,8.05480194091797,8.04683399200439,8.0388822555542,8.03094577789307,8.02302551269531,8.01512050628662,8.00723171234131,7.99935722351074,7.99149894714355,7.98365592956543,7.97582817077637,7.96801567077637,7.96021890640259,7.95243692398071,7.94467067718506,7.93691921234131,7.92918300628662,7.92146158218384,7.91375541687012,7.9060640335083,7.89838790893555,7.8907265663147,7.88308000564575,7.87544822692871,7.86783123016357,7.86022901535034,7.85264158248901,7.84506845474243,7.83751010894775,7.82996606826782,7.82243680953979,7.81492185592651,7.80742168426514,7.79993581771851,7.79246377944946,7.78500652313232,7.77756357192993,7.77013444900513,7.76271963119507,7.75531911849976,7.74793291091919,7.74056053161621,7.73320198059082,7.72585725784302,7.71852684020996,7.71121025085449,7.70390748977661,7.69661855697632,7.68934345245361,7.6820821762085,7.67483425140381,7.66760015487671,7.6603798866272,7.65317296981812,7.64597988128662
0,0,0,0,0,0,0,0,0,0,0,0,0,0,0,0,0,0,0,0,0,12.580472946167,12.5811710357666,12.5818710327148,12.5825710296631,12.5832662582397,12.5839653015137,12.5846681594849,12.5853662490845,12.586067199707,12.5867643356323,12.5874633789062,12.5881643295288,12.5888643264771,12.5895614624023,12.5902633666992,12.5909643173218,12.5916624069214,12.5923652648926,12.5930624008179,12.5937633514404,12.5944652557373,12.5951662063599,12.5958652496338,12.5965671539307,12.5972671508789,12.5979681015015,12.5986700057983,12.5993709564209,11.6144924163818,11.6035137176514,11.5925559997559,11.5816192626953,11.5707025527954,11.5598068237305,11.5489311218262,11.5380764007568,11.5272417068481,11.5164279937744,11.505633354187,11.4948596954346,11.4841060638428,11.4733734130859,11.4626598358154,11.4519662857056,11.4412927627563,11.4306392669678,11.4200048446655,11.4093914031982,11.3987970352173,11.388222694397,11.377667427063,11.3671312332153,11.3566160202026,11.346118927002,11.3356418609619,11.3251838684082,11.3147459030151,11.3043260574341,11.2939262390137,11.2835445404053,11.2731828689575,11.2628402709961,11.2525157928467,11.2422113418579,11.2319250106812,11.2216567993164,11.2114086151123,11.2011785507202,11.1909675598145,11.1807746887207,11.170599937439,11.1604442596436,11.1503076553345,11.1401882171631,11.130087852478,11.120005607605,11.1099414825439,11.0998964309692,11.0898685455322,11.0798587799072,11.0698671340942,11.0535697937012,11.0343923568726,11.0152797698975,10.9962339401245,10.9772539138794,10.9583396911621,10.9394903182983,10.9207048416138,10.9019842147827,10.8833284378052,10.8647356033325,10.8462066650391,10.8277406692505,10.8093366622925,10.7909965515137,10.7727174758911,10.7545003890991,10.7363452911377,10.7182512283325,10.7002182006836,10.6822452545166,10.6643323898315,10.6464796066284,10.6286869049072,10.610954284668,10.5932788848877,10.5756635665894,10.5581064224243,10.5406074523926,10.5231666564941,10.5057830810547,10.4884576797485,10.4711885452271,10.4539766311646,10.4368209838867,10.4197206497192,10.4026775360107,10.3856897354126,10.3687572479248,10.3516550064087,10.3344583511353,10.3173189163208,10.3002367019653,10.2832107543945,10.2662401199341,10.2493257522583,10.2324676513672,10.2156639099121,10.1989164352417,10.1822233200073,10.165584564209,10.1490001678467,10.1324701309204,10.1159934997559,10.099570274353,10.0832004547119,10.0668830871582,10.0506191253662,10.0344076156616,10.0182485580444,10.003851890564,9.98996543884277,9.97611808776855,9.96230792999268,9.94853687286377,9.9348030090332,9.92110824584961,9.90745067596436,9.89383029937744,9.88024711608887,9.86670112609863,9.85319328308105,9.8397216796875,9.82628631591797,9.81288814544678,9.79952716827393,9.78620147705078,9.77291202545166,9.75965881347656,9.74644184112549,9.73326110839844,9.72011470794678,9.70700454711914,9.69392967224121,9.68088912963867,9.66788482666016,9.65491485595703,9.6419792175293,9.62907886505127,9.61621284484863,9.60338115692139,9.59058380126953,9.57781982421875,9.56509017944336,9.55239486694336,9.53973293304443,9.52710342407227,9.51450824737549,9.50194644927979,9.48941802978516,9.47692203521729,9.46445941925049,9.45202922821045,9.43963146209717,9.42726612091064,9.41493320465088,9.40263271331787,9.3903636932373,9.37812805175781,9.36592292785645,9.35375022888184,9.34160900115967,9.32949924468994,9.31742000579834,9.3053731918335,9.29335689544678,9.2813720703125,9.26941776275635,9.25057983398438,9.23166847229004,9.21283626556396,9.19407939910889,9.17539882659912,9.15679454803467,9.13826465606689,9.11981105804443,9.10143089294434,9.08312511444092,9.06489181518555,9.04673194885254,9.02864551544189,9.01063060760498,8.99268817901611,8.97481632232666,8.95701503753662,8.93928527832031,8.9216251373291,8.90403366088867,8.88651275634766,8.86905956268311,8.85167598724365,8.83435916900635,8.81711101531982,8.79993057250977,8.78281497955322,8.76576709747314,8.74878597259521,8.72968769073486,8.70999717712402,8.69039440155029,8.67087936401367,8.65145206451416,8.63211250305176,8.61285877227783,8.59369087219238,8.57460689544678,8.55560970306396,8.53669452667236,8.51786327362061,8.49911499023438,8.48044967651367,8.46186542510986,8.44336318969727,8.42494106292725,8.4065990447998,8.38833713531494,8.37015438079834,8.35204982757568,8.33402347564697,8.31607532501221,8.29820442199707,8.28040885925293,8.26269054412842,8.24504852294922,8.2274808883667,8.20998764038086,8.1925687789917,8.1752233505249,8.15795230865479,8.14075374603271,8.12362670898438,8.10657215118408,8.08958911895752,8.07267665863037,8.05722999572754,8.04925727844238,8.04130077362061,8.03335952758789,8.02543449401855,8.01752471923828,8.00963020324707,8.00175189971924,7.99388837814331,7.98604106903076,7.97820854187012,7.97039127349854,7.96258974075317,7.95480346679688,7.94703245162964,7.93927621841431,7.93153524398804,7.92380952835083,7.91609859466553,7.90840291976929,7.90072202682495,7.89305639266968,7.88540506362915,7.87776899337769,7.87014770507812,7.86254072189331,7.8549485206604,7.84737110137939,7.83980846405029,7.83226013183594,7.82472658157349,7.81720733642578,7.80970239639282,7.80221223831177,7.7947359085083,7.78727436065674,7.77982711791992,7.77239370346069,7.76497459411621,7.75756978988647,7.75017881393433,7.74280214309692,7.73543930053711,7.72809076309204,7.72075605392456,7.71343517303467,7.70612812042236,7.6988353729248,7.69155597686768,7.68429040908813,7.67703819274902,7.66980028152466,7.66257572174072,7.65536451339722,7.6481671333313,7.64098358154297,7.63381290435791
0,0,0,0,0,0,0,0,0,0,0,0,0,0,0,0,0,0,0,0,0,12.4985723495483,12.4992618560791,12.4999504089355,12.5006408691406,12.5013284683228,12.5020217895508,12.5027141571045,12.503399848938,12.5040922164917,12.5047826766968,12.5054740905762,12.5061635971069,12.506854057312,12.5075426101685,12.5082349777222,12.5089282989502,12.5096168518066,12.510308265686,12.5110006332397,12.5116910934448,12.5123825073242,12.513072013855,12.5137643814087,12.5144557952881,12.5151500701904,11.5854644775391,11.5745410919189,11.5636377334595,11.552755355835,11.5418930053711,11.5310516357422,11.5202302932739,11.5094289779663,11.4986486434937,11.4878873825073,11.477147102356,11.4664268493652,11.4557266235352,11.4450454711914,11.4343852996826,11.4237442016602,11.4131231307983,11.4025220870972,11.3919410705566,11.3813791275024,11.3708362579346,11.3603134155273,11.3498106002808,11.3393259048462,11.3288612365723,11.318416595459,11.3079900741577,11.2975835800171,11.2871952056885,11.2768268585205,11.2664766311646,11.2561464309692,11.2458343505859,11.235541343689,11.2252674102783,11.215012550354,11.2047758102417,11.1945581436157,11.1843585968018,11.1741781234741,11.1640157699585,11.1538724899292,11.1437463760376,11.1336393356323,11.1235513687134,11.1134805679321,11.1034288406372,11.0933952331543,11.0833787918091,11.0733814239502,11.063401222229,11.0534391403198,11.043496131897,11.0335693359375,11.0236616134644,11.0137710571289,11.0038986206055,10.986400604248,10.967453956604,10.9485731124878,10.9297571182251,10.9110059738159,10.8923187255859,10.8736953735352,10.8551349639893,10.8366394042969,10.8182058334351,10.7998342514038,10.7815256118774,10.7632789611816,10.7450942993164,10.7269706726074,10.7089080810547,10.6909055709839,10.6729640960693,10.6550827026367,10.637261390686,10.619499206543,10.6017961502075,10.584153175354,10.5665674209595,10.5490407943726,10.5315713882446,10.51416015625,10.4968070983887,10.479510307312,10.4622707366943,10.4450874328613,10.4279613494873,10.4108905792236,10.3938760757446,10.376916885376,10.3600130081177,10.3431634902954,10.3262252807617,10.3091125488281,10.2920570373535,10.2750577926636,10.2581148147583,10.2412271499634,10.2243957519531,10.2076187133789,10.190896987915,10.1742296218872,10.1576175689697,10.141058921814,10.1245546340942,10.1081037521362,10.0917062759399,10.0753612518311,10.0590696334839,10.0428314208984,10.0266447067261,10.0105104446411,9.99540138244629,9.98153877258301,9.96771335601807,9.9539270401001,9.94017887115479,9.92646884918213,9.91279602050781,9.89916133880615,9.88556385040283,9.87200355529785,9.85848045349121,9.84499454498291,9.83154582977295,9.81813335418701,9.8047571182251,9.79141712188721,9.77811431884766,9.76484680175781,9.75161552429199,9.7384204864502,9.72526073455811,9.71213626861572,9.69904708862305,9.68599414825439,9.67297554016113,9.65999221801758,9.64704322814941,9.63412857055664,9.62124919891357,9.6084041595459,9.59559345245361,9.5828161239624,9.57007312774658,9.55736446380615,9.5446891784668,9.53204727172852,9.51943874359131,9.50686359405518,9.49432182312012,9.48181343078613,9.46933746337891,9.45689487457275,9.44448375701904,9.43210601806641,9.41976070404053,9.40744781494141,9.39516639709473,9.3829174041748,9.37070083618164,9.35851573944092,9.34636116027832,9.33423900604248,9.32214832305908,9.31008911132812,9.29806041717529,9.2860631942749,9.27409744262695,9.26216125488281,9.25025653839111,9.23838233947754,9.22277164459229,9.20397472381592,9.18525409698486,9.16660976409912,9.14804077148438,9.12954711914062,9.11112785339355,9.09278297424316,9.07451152801514,9.05631351470947,9.03818798065186,9.02013492584229,9.00215435028076,8.98424530029297,8.96640682220459,8.94863986968994,8.93094253540039,8.91331481933594,8.89575672149658,8.87826824188232,8.86084747314453,8.84349536895752,8.82621097564697,8.80899524688721,8.79184532165527,8.77476215362549,8.75774478912354,8.74079418182373,8.72390842437744,8.70450305938721,8.6849250793457,8.66543579101562,8.64603328704834,8.62671661376953,8.60748672485352,8.58834266662598,8.5692834854126,8.55030822753906,8.53141784667969,8.51260948181152,8.4938850402832,8.47524261474609,8.45668029785156,8.43820095062256,8.41980075836182,8.40148162841797,8.38324165344238,8.36508083343506,8.346999168396,8.32899475097656,8.31106758117676,8.29321765899658,8.27544403076172,8.25774765014648,8.24012565612793,8.22257900238037,8.20510673522949,8.18770885467529,8.17038440704346,8.15313243865967,8.13595485687256,8.11884784698486,8.10181331634521,8.0848503112793,8.06795787811279,8.05168151855469,8.04372024536133,8.03577423095703,8.02784442901611,8.01992988586426,8.01203060150146,8.00414752960205,7.9962797164917,7.98842716217041,7.98059034347534,7.97276878356934,7.96496200561523,7.95717144012451,7.94939565658569,7.94163465499878,7.93388938903809,7.9261589050293,7.91844367980957,7.91074323654175,7.90305805206299,7.89538764953613,7.88773202896118,7.88009119033813,7.87246513366699,7.86485385894775,7.85725736618042,7.84967565536499,7.84210824966431,7.83455562591553,7.82701730728149,7.81949377059937,7.81198453903198,7.8044900894165,7.79700946807861,7.78954315185547,7.78209161758423,7.77465391159058,7.76723051071167,7.75982141494751,7.7524266242981,7.74504518508911,7.73767852783203,7.73032569885254,7.72298669815063,7.71566152572632,7.70835018157959,7.70105314254761,7.69376945495605,7.68649959564209,7.67924356460571,7.67200136184692,7.66477251052856,7.65755748748779,7.65035581588745,7.6431679725647,7.63599348068237,7.62883234024048,7.62168502807617
0,0,0,0,0,0,0,0,0,0,0,0,0,0,0,0,0,0,0,0,0,12.4177274703979,12.4184112548828,12.4190921783447,12.4197721481323,12.4204549789429,12.4211349487305,12.4218139648438,12.4224977493286,12.4231805801392,12.4238605499268,12.4245405197144,12.4252252578735,12.4259061813354,12.426589012146,12.4272689819336,12.4279508590698,12.4286327362061,12.4293165206909,12.4299993515015,12.4306793212891,12.4313621520996,11.5674724578857,11.5565824508667,11.5457134246826,11.5348644256592,11.5240354537964,11.5132274627686,11.5024394989014,11.4916715621948,11.4809246063232,11.470196723938,11.4594888687134,11.4488019943237,11.4381341934204,11.4274864196777,11.4168586730957,11.40625,11.3956613540649,11.3850927352905,11.3745441436768,11.364013671875,11.3535032272339,11.3430128097534,11.3325414657593,11.3220891952515,11.31165599823,11.3012428283691,11.2908487319946,11.2804727554321,11.2701168060303,11.2597789764404,11.2494611740112,11.239161491394,11.2288808822632,11.2186183929443,11.2083759307861,11.1981506347656,11.1879453659058,11.1777582168579,11.1675891876221,11.1574392318726,11.1473073959351,11.1371936798096,11.1270990371704,11.1170225143433,11.1069631576538,11.0969228744507,11.0869007110596,11.0768966674805,11.0669107437134,11.0569429397583,11.0469923019409,11.0370597839355,11.0271463394165,11.0172491073608,11.0073699951172,10.9975090026855,10.9876651763916,10.9778394699097,10.9680309295654,10.9582405090332,10.9484672546387,10.9387111663818,10.9200420379639,10.9013233184814,10.8826694488525,10.8640794754028,10.845552444458,10.8270883560181,10.808687210083,10.7903480529785,10.7720718383789,10.7538576126099,10.7357044219971,10.7176122665405,10.6995811462402,10.6816101074219,10.6637001037598,10.6458492279053,10.6280584335327,10.6103277206421,10.5926551818848,10.5750417709351,10.5574865341187,10.5399894714355,10.5225505828857,10.5051689147949,10.4878454208374,10.4705781936646,10.4533681869507,10.4362144470215,10.419116973877,10.4020757675171,10.3850889205933,10.3681592941284,10.3512830734253,10.3344621658325,10.3176965713501,10.3009195327759,10.2838907241821,10.266918182373,10.2500019073486,10.2331409454346,10.2163362503052,10.1995859146118,10.1828899383545,10.1662492752075,10.1496629714966,10.1331300735474,10.1166515350342,10.1002264022827,10.083854675293,10.0675354003906,10.0512685775757,10.0350551605225,10.0188941955566,10.0027837753296,9.98696517944336,9.97312545776367,9.95932388305664,9.94556045532227,9.93183517456055,9.91814804077148,9.90449905395508,9.8908863067627,9.87731170654297,9.86377429962158,9.85027408599854,9.83681011199951,9.82338333129883,9.80999279022217,9.79663944244385,9.78332138061523,9.77004051208496,9.75679492950439,9.74358558654785,9.73041152954102,9.7172737121582,9.7041711807251,9.6911039352417,9.67807102203369,9.66507434844971,9.65211200714111,9.63918399810791,9.62629127502441,9.61343193054199,9.60060787200928,9.58781814575195,9.5750617980957,9.56233882904053,9.54965114593506,9.53699588775635,9.52437400817871,9.51178646087646,9.49923133850098,9.48671054840088,9.47422122955322,9.46176528930664,9.44934272766113,9.43695163726807,9.42459392547607,9.41226768493652,9.39997386932373,9.3877124786377,9.3754825592041,9.36328506469727,9.35111904144287,9.33898448944092,9.32688140869141,9.31480979919434,9.30276966094971,9.2907600402832,9.27878189086914,9.2668342590332,9.25491714477539,9.2430305480957,9.23117542266846,9.21934986114502,9.20755481719971,9.19513130187988,9.17644691467285,9.15783786773682,9.13930416107178,9.12084579467773,9.10246181488037,9.08415126800537,9.06591510772705,9.04775047302246,9.02966022491455,9.01164150238037,8.99369430541992,8.9758186340332,8.9580135345459,8.94027900695801,8.92261505126953,8.90502071380615,8.88749504089355,8.87003898620605,8.85265064239502,8.83533096313477,8.81807899475098,8.80089282989502,8.78377532958984,8.7667236328125,8.74973773956299,8.73281764984131,8.71596336364746,8.69901657104492,8.67946338653564,8.65999889373779,8.64062023162842,8.62132835388184,8.60212230682373,8.5830020904541,8.56396579742432,8.54501533508301,8.52614688873291,8.50736236572266,8.48866081237793,8.4700403213501,8.45150184631348,8.43304443359375,8.4146671295166,8.39637088775635,8.37815284729004,8.36001396179199,8.34195327758789,8.32397079467773,8.30606555938721,8.28823757171631,8.27048587799072,8.25280952453613,8.23520851135254,8.21768283843994,8.20023155212402,8.18285369873047,8.16555023193359,8.14831924438477,8.13116073608398,8.11407470703125,8.09706115722656,8.08011722564697,8.06324481964111,8.04644203186035,8.0381908416748,8.03025531768799,8.02233600616455,8.01443290710449,8.0065450668335,7.9986720085144,7.99081516265869,7.98297357559204,7.97514677047729,7.96733617782593,7.95954036712646,7.95175981521606,7.94399499893188,7.93624448776245,7.92850971221924,7.92078971862793,7.91308498382568,7.90539503097534,7.8977198600769,7.89005994796753,7.8824143409729,7.87478399276733,7.86716842651367,7.85956716537476,7.8519811630249,7.84440946578979,7.83685207366943,7.82930994033813,7.82178163528442,7.81426811218262,7.80676889419556,7.79928398132324,7.79181385040283,7.78435754776001,7.77691602706909,7.7694878578186,7.76207447052002,7.75467538833618,7.74729013442993,7.73991870880127,7.73256158828735,7.72521829605103,7.71788930892944,7.71057367324829,7.70327234268188,7.69598436355591,7.68871021270752,7.68145036697388,7.67420387268066,7.66697072982788,7.65975141525269,7.65254592895508,7.6453537940979,7.63817501068115,7.63101005554199,7.62385845184326,7.61672019958496,7.60959482192993
0,0,0,0,0,0,0,0,0,0,0,0,0,0,0,0,0,0,0,0,0,12.3379278182983,12.3386011123657,12.3392705917358,12.3399448394775,12.3406171798706,12.341290473938,12.3419618606567,12.3426370620728,12.3433084487915,12.3439779281616,12.3446521759033,12.345326423645,12.3459997177124,12.3466730117798,12.3473472595215,12.3480176925659,12.3486919403076,11.5495347976685,11.5386791229248,11.5278434753418,11.5170278549194,11.506233215332,11.4954586029053,11.4847030639648,11.4739685058594,11.4632549285889,11.4525594711304,11.4418849945068,11.4312305450439,11.4205961227417,11.4099807739258,11.3993854522705,11.3888092041016,11.3782529830933,11.3677167892456,11.3571996688843,11.3467016220093,11.3362236022949,11.3257646560669,11.3153247833252,11.3049049377441,11.2945032119751,11.2841215133667,11.2737579345703,11.2634143829346,11.2530889511108,11.2427825927734,11.2324953079224,11.2222270965576,11.2119779586792,11.2017469406128,11.1915340423584,11.1813402175903,11.1711654663086,11.1610088348389,11.1508703231812,11.1407499313354,11.1306486129761,11.1205654144287,11.1105003356934,11.1004543304443,11.090425491333,11.0804147720337,11.0704221725464,11.0604476928711,11.0504913330078,11.0405530929565,11.030632019043,11.0207290649414,11.0108442306519,11.0009765625,10.9911270141602,10.981294631958,10.9714803695679,10.9616832733154,10.951904296875,10.9421415328979,10.9323968887329,10.9226694107056,10.9129600524902,10.9032669067383,10.893590927124,10.8839330673218,10.8730373382568,10.8544797897339,10.8359851837158,10.817554473877,10.7991857528687,10.7808790206909,10.7626342773438,10.7444515228271,10.7263298034668,10.708270072937,10.6902704238892,10.6723308563232,10.6544513702393,10.6366319656372,10.6188716888428,10.6011714935303,10.5835294723511,10.5659465789795,10.5484209060669,10.5309543609619,10.5135450363159,10.4961938858032,10.4788990020752,10.4616613388062,10.4444808959961,10.4273557662964,10.4102878570557,10.3932752609253,10.376317024231,10.3594160079956,10.342568397522,10.3257761001587,10.3090381622314,10.2923545837402,10.2757244110107,10.2587919235229,10.2419013977051,10.2250680923462,10.2082891464233,10.1915655136108,10.1748962402344,10.1582813262939,10.1417207717896,10.1252136230469,10.1087608337402,10.0923614501953,10.0760145187378,10.059720993042,10.0434799194336,10.0272912979126,10.011155128479,9.9950704574585,9.97903728485107,9.96472644805908,9.95094776153564,9.93720817565918,9.92350578308105,9.90984153747559,9.89621448516846,9.88262557983398,9.86907291412354,9.85555839538574,9.84208011627197,9.82863903045654,9.81523418426514,9.80186653137207,9.78853511810303,9.77523899078369,9.7619800567627,9.74875640869141,9.73556900024414,9.72241687774658,9.70930004119873,9.69621849060059,9.68317317962646,9.67016220092773,9.65718555450439,9.64424419403076,9.63133811950684,9.61846542358398,9.60562801361084,9.59282398223877,9.58005523681641,9.5673189163208,9.5546178817749,9.54194927215576,9.52931499481201,9.51671409606934,9.50414657592773,9.49161148071289,9.47910976409912,9.46664142608643,9.45420551300049,9.44180202484131,9.42943096160889,9.41709232330322,9.40478706359863,9.39251232147217,9.38027000427246,9.36806011199951,9.355881690979,9.34373474121094,9.33161926269531,9.31953525543213,9.30748271942139,9.29546165466309,9.28347015380859,9.27151107788086,9.25958156585693,9.24768352508545,9.23581600189209,9.22397899627686,9.21217155456543,9.20039463043213,9.18864822387695,9.17693138122559,9.16524505615234,9.14908218383789,9.13058471679688,9.11216068267822,9.09381198883057,9.07553577423096,9.05733394622803,9.03920459747314,9.02114772796631,9.0031623840332,8.98524951934814,8.9674072265625,8.94963550567627,8.93193435668945,8.91430377960205,8.89674186706543,8.87924861907959,8.86182498931885,8.84446907043457,8.82718086242676,8.80996036529541,8.79280662536621,8.77572059631348,8.75870037078857,8.74174499511719,8.72485542297363,8.70803165435791,8.6912727355957,8.6740083694458,8.65456771850586,8.63521385192871,8.61594581604004,8.59676456451416,8.57766723632812,8.55865573883057,8.53972816467285,8.52088260650635,8.502121925354,8.48344326019287,8.46484565734863,8.44633007049561,8.42789459228516,8.4095401763916,8.39126586914062,8.37306976318359,8.35495281219482,8.3369140625,8.31895351409912,8.30107021331787,8.28326320648193,8.26553249359131,8.24787712097168,8.23029804229736,8.21279239654541,8.19536209106445,8.17800521850586,8.16072177886963,8.14351177215576,8.12637329101562,8.10930728912354,8.09231281280518,8.07538890838623,8.05853652954102,8.0417537689209,8.0326681137085,8.02474403381348,8.01683616638184,8.00894355773926,8.00106620788574,7.99320411682129,7.98535776138306,7.97752666473389,7.96971130371094,7.96191072463989,7.95412588119507,7.94635629653931,7.93860149383545,7.93086194992065,7.92313718795776,7.91542768478394,7.90773344039917,7.90005397796631,7.89238929748535,7.8847393989563,7.87710428237915,7.86948394775391,7.86187887191772,7.85428810119629,7.84671211242676,7.83915042877197,7.83160352706909,7.82407093048096,7.81655311584473,7.80904960632324,7.8015604019165,7.79408550262451,7.78662490844727,7.77917861938477,7.77174663543701,7.764328956604,7.75692510604858,7.74953556060791,7.74216032028198,7.73479890823364,7.72745132446289,7.72011756896973,7.71279811859131,7.70549249649048,7.69820070266724,7.69092226028442,7.68365812301636,7.67640733718872,7.66917037963867,7.66194677352905,7.65473699569702,7.64754104614258,7.64035797119141,7.63318872451782,7.62603330612183,7.6188907623291,7.61176156997681,7.6046462059021,7.59754371643066
0,0,0,0,0,0,0,0,0,0,0,0,0,0,0,0,0,0,0,0,0,12.2591457366943,12.2598094940186,12.2604722976685,12.2611351013184,12.2618017196655,12.2624635696411,12.2631273269653,12.2637920379639,12.2644548416138,12.2651214599609,12.2657871246338,12.2664470672607,12.2671136856079,12.2677793502808,11.5208311080933,11.5100288391113,11.4992475509644,11.4884853363037,11.477744102478,11.4670219421387,11.4563207626343,11.4456386566162,11.4349775314331,11.4243354797363,11.4137134552002,11.4031114578247,11.3925285339355,11.381965637207,11.3714218139648,11.3608980178833,11.3503932952881,11.3399085998535,11.3294429779053,11.3189964294434,11.3085689544678,11.2981605529785,11.2877721786499,11.2774028778076,11.2670516967773,11.2567195892334,11.2464075088501,11.2361135482788,11.2258377075195,11.2155818939209,11.2053442001343,11.195125579834,11.1849250793457,11.1747436523438,11.1645803451538,11.1544351577759,11.1443090438843,11.1342010498047,11.1241111755371,11.1140403747559,11.1039867401123,11.0939521789551,11.0839347839355,11.0739364624023,11.0639553070068,11.0539922714233,11.0440473556519,11.0341205596924,11.0242118835449,11.0143203735352,11.0044469833374,10.9945907592773,10.9847526550293,10.9749317169189,10.9651288986206,10.95534324646,10.945574760437,10.9358234405518,10.9260902404785,10.916374206543,10.9066753387451,10.896993637085,10.8873291015625,10.8776817321777,10.8680515289307,10.8584384918213,10.8488416671753,10.8392629623413,10.8297004699707,10.8201551437378,10.8080368041992,10.7897005081177,10.7714262008667,10.7532138824463,10.7350625991821,10.7169723510742,10.6989440917969,10.6809749603271,10.6630668640137,10.6452188491821,10.6274299621582,10.6097011566162,10.5920305252075,10.5744190216064,10.5568656921387,10.5393714904785,10.5219345092773,10.5045557022095,10.4872331619263,10.4699678421021,10.4527597427368,10.4356079101562,10.4185132980347,10.4014730453491,10.3844890594482,10.3675603866577,10.3506870269775,10.3338689804077,10.3171043395996,10.3003940582275,10.2837390899658,10.2671365737915,10.2505884170532,10.2338151931763,10.2170076370239,10.2002544403076,10.183557510376,10.1669139862061,10.1503257751465,10.1337909698486,10.1173095703125,10.1008825302124,10.0845079421997,10.068187713623,10.0519189834595,10.0357036590576,10.0195398330688,10.0034275054932,9.98736763000488,9.97135925292969,9.95634174346924,9.94258594512939,9.92886924743652,9.91519069671631,9.90154838562012,9.8879451751709,9.8743782043457,9.86084842681885,9.84735584259033,9.83390045166016,9.820481300354,9.80709934234619,9.7937536239624,9.78044319152832,9.76716995239258,9.75393295288086,9.74073123931885,9.72756481170654,9.71443462371826,9.70133972167969,9.6882791519165,9.67525482177734,9.66226482391357,9.64931011199951,9.63638973236084,9.62350463867188,9.61065292358398,9.5978364944458,9.58505344390869,9.57230472564697,9.55958938598633,9.54690837860107,9.53426074981689,9.52164649963379,9.50906562805176,9.4965181350708,9.48400402069092,9.47152233123779,9.45907306671143,9.44665718078613,9.4342737197876,9.42192268371582,9.4096040725708,9.39731693267822,9.3850622177124,9.37283992767334,9.36064910888672,9.34848976135254,9.3363618850708,9.3242654800415,9.31220054626465,9.30016708374023,9.28816413879395,9.2761926651001,9.26425170898438,9.25234127044678,9.2404613494873,9.22861289978027,9.21679401397705,9.20500469207764,9.19324684143066,9.1815185546875,9.16981983184814,9.1581506729126,9.14651203155518,9.13490200042725,9.12188053131104,9.10349273681641,9.08517837524414,9.06693744659424,9.0487699508667,9.03067493438721,9.01265239715576,8.99470043182373,8.97682094573975,8.95901203155518,8.94127368927002,8.92360591888428,8.90600681304932,8.88847827911377,8.87101745605469,8.8536262512207,8.83630275726318,8.81904602050781,8.80185794830322,8.78473567962646,8.76768016815186,8.75069046020508,8.73376750946045,8.71690845489502,8.70011520385742,8.68338584899902,8.66672134399414,8.64914417266846,8.62981414794922,8.61057090759277,8.59141254425049,8.57234001159668,8.55335140228271,8.53444671630859,8.51562595367432,8.49688720703125,8.47823143005371,8.45965671539307,8.44116401672363,8.42275142669678,8.4044189453125,8.3861665725708,8.36799335479736,8.34989833831787,8.33188152313232,8.31394195556641,8.29607963562012,8.27829456329346,8.26058483123779,8.24295139312744,8.22539234161377,8.20790863037109,8.19049835205078,8.17316246032715,8.15589904785156,8.13870906829834,8.12159156799316,8.10454559326172,8.08757019042969,8.0706672668457,8.05383396148682,8.03707027435303,8.02715396881104,8.01924133300781,8.01134300231934,8.00346183776855,7.99559497833252,7.98774385452271,7.97990846633911,7.97208786010742,7.96428298950195,7.95649337768555,7.94871854782104,7.94095945358276,7.93321514129639,7.92548608779907,7.91777229309082,7.91007328033447,7.90238904953003,7.89472007751465,7.88706541061401,7.87942600250244,7.87180137634277,7.86419153213501,7.85659646987915,7.84901571273804,7.84144973754883,7.83389854431152,7.82636165618896,7.81883907318115,7.81133127212524,7.80383777618408,7.79635858535767,7.788893699646,7.78144311904907,7.77400684356689,7.7665843963623,7.75917673110962,7.75178289413452,7.74440336227417,7.73703718185425,7.72968578338623,7.72234773635864,7.7150239944458,7.70771408081055,7.70041799545288,7.6931357383728,7.68586683273315,7.67861223220825,7.67137098312378,7.66414356231689,7.65692949295044,7.64972925186157,7.64254236221313,7.63536930084229,7.62820911407471,7.62106275558472,7.61392974853516,7.60681009292603,7.59970331192017,7.59261035919189,7.58553028106689
0,0,0,0,0,0,0,0,0,0,0,0,0,0,0,0,0,0,0,0,0,12.1813621520996,12.1820163726807,12.1826734542847,12.1833276748657,12.1839809417725,12.1846380233765,12.1852941513062,12.1859483718872,12.1866054534912,12.1872606277466,11.5030384063721,11.4922695159912,11.481520652771,11.4707918167114,11.4600839614868,11.4493951797485,11.4387264251709,11.4280776977539,11.4174489974976,11.4068393707275,11.3962497711182,11.3856801986694,11.375129699707,11.364598274231,11.3540868759155,11.3435955047607,11.3331232070923,11.3226699829102,11.3122358322144,11.3018207550049,11.2914257049561,11.2810487747192,11.2706918716431,11.2603530883789,11.2500333786011,11.2397327423096,11.2294511795044,11.2191886901855,11.2089443206787,11.1987190246582,11.1885118484497,11.1783237457275,11.1681537628174,11.1580028533936,11.1478700637817,11.1377553939819,11.1276597976685,11.1175813674927,11.1075220108032,11.0974807739258,11.0874576568604,11.0774526596069,11.0674648284912,11.0574960708618,11.0475454330444,11.0376119613647,11.0276966094971,11.0177984237671,11.0079183578491,10.9980564117432,10.9882125854492,10.9783849716187,10.9685754776001,10.9587841033936,10.9490098953247,10.9392528533936,10.9295129776001,10.9197912216187,10.9100856781006,10.9003982543945,10.8907279968262,10.8810739517212,10.8714380264282,10.8618183135986,10.8522167205811,10.8426313400269,10.8330631256104,10.8235111236572,10.8139772415161,10.8044586181641,10.794958114624,10.7854738235474,10.7760057449341,10.7665548324585,10.7571201324463,10.7438097000122,10.7256898880005,10.7076320648193,10.6896343231201,10.6716966629028,10.6538190841675,10.6360025405884,10.6182441711426,10.6005458831787,10.5829057693481,10.5653247833252,10.5478019714355,10.5303373336792,10.5129299163818,10.4955806732178,10.4782876968384,10.4610528945923,10.4438734054565,10.4267511367798,10.4096841812134,10.3926734924316,10.3757181167603,10.3588180541992,10.3419733047485,10.3251829147339,10.3084468841553,10.2917652130127,10.2751379013062,10.258563041687,10.2420425415039,10.2255744934082,10.2089595794678,10.1922330856323,10.1755619049072,10.1589450836182,10.1423826217651,10.1258735656738,10.1094179153442,10.0930166244507,10.0766677856445,10.0603723526001,10.0441293716431,10.0279378890991,10.0117998123169,9.99571323394775,9.97967720031738,9.96369361877441,9.94797039031982,9.93423843383789,9.92054462432861,9.90688896179199,9.89326953887939,9.87968826293945,9.86614418029785,9.85263729095459,9.83916759490967,9.82573413848877,9.81233787536621,9.79897785186768,9.78565406799316,9.77236557006836,9.75911426544189,9.74589824676514,9.7327184677124,9.71957397460938,9.70646572113037,9.69339179992676,9.68035316467285,9.66734981536865,9.65438175201416,9.64144802093506,9.62854862213135,9.61568355560303,9.60285377502441,9.59005737304688,9.57729530334473,9.56456661224365,9.55187225341797,9.53921222686768,9.52658462524414,9.51399040222168,9.50143051147461,9.4889030456543,9.47640800476074,9.46394634246826,9.45151805877686,9.43912124633789,9.4267578125,9.41442584991455,9.40212726593018,9.38985919952393,9.37762451171875,9.36542129516602,9.35324954986572,9.34110927581787,9.32900047302246,9.31692409515381,9.30487728118896,9.29286289215088,9.28087902069092,9.2689266204834,9.25700378417969,9.24511241912842,9.23325061798096,9.22142028808594,9.20961952209473,9.19784927368164,9.18610954284668,9.17439937591553,9.16271877288818,9.15106773376465,9.13944721221924,9.12785530090332,9.11629295349121,9.10475921630859,9.0932559967041,9.07656097412109,9.05835437774658,9.04022121429443,9.02216053009033,9.00417137145996,8.98625373840332,8.96840763092041,8.95063304901123,8.93292713165283,8.91529273986816,8.89772701263428,8.88022994995117,8.86280155181885,8.84544277191162,8.82815074920654,8.81092643737793,8.79376983642578,8.77667808532715,8.75965404510498,8.74269580841064,8.72580337524414,8.70897579193115,8.69221210479736,8.67551422119141,8.65888023376465,8.64230918884277,8.62442111968994,8.60520172119141,8.58606815338135,8.56701850891113,8.54805374145508,8.52917194366455,8.51037502288818,8.49166011810303,8.47302627563477,8.45447540283203,8.43600463867188,8.4176139831543,8.39930438995361,8.38107395172119,8.36292266845703,8.34484958648682,8.32685470581055,8.30893707275391,8.29109668731689,8.2733325958252,8.25564479827881,8.2380313873291,8.22049331665039,8.20302963256836,8.18564128875732,8.16832542419434,8.15108299255371,8.13391304016113,8.11681461334229,8.09978866577148,8.08283424377441,8.06595039367676,8.0491361618042,8.03239345550537,8.02164745330811,8.01374530792236,8.00585842132568,7.99798679351807,7.99013137817383,7.98229074478149,7.97446584701538,7.96665620803833,7.95886182785034,7.95108270645142,7.94331884384155,7.93557024002075,7.92783641815186,7.92011785507202,7.91241455078125,7.90472555160522,7.89705228805542,7.88939332962036,7.88174915313721,7.87412023544312,7.86650562286377,7.85890579223633,7.85132074356079,7.84375047683716,7.83619451522827,7.82865333557129,7.82112646102905,7.81361436843872,7.80611658096313,7.79863309860229,7.79116344451904,7.7837085723877,7.77626800537109,7.76884174346924,7.76142930984497,7.75403118133545,7.74664735794067,7.73927736282349,7.73192119598389,7.72457933425903,7.71725130081177,7.70993709564209,7.70263671875,7.6953501701355,7.68807744979858,7.68081855773926,7.67357301712036,7.66634130477905,7.65912342071533,7.65191888809204,7.64472770690918,7.63755035400391,7.63038635253906,7.62323617935181,7.61609888076782,7.60897493362427,7.6018648147583,7.59476757049561,7.58768320083618,7.58061265945435,7.57355499267578
0,0,0,0,0,0,0,0,0,0,0,0,0,0,0,0,0,0,0,0,0,12.1045608520508,12.1052045822144,12.1058521270752,12.106499671936,12.1071462631226,12.107795715332,11.4853010177612,11.4745645523071,11.463849067688,11.4531536102295,11.4424781799316,11.4318218231201,11.4211864471436,11.4105701446533,11.3999738693237,11.3893966674805,11.3788394927979,11.3683013916016,11.3577833175659,11.3472852706909,11.3368053436279,11.3263454437256,11.3159046173096,11.3054828643799,11.2950811386108,11.2846975326538,11.2743339538574,11.263988494873,11.253662109375,11.2433557510376,11.2330665588379,11.2227973937988,11.2125463485718,11.2023143768311,11.1921014785767,11.1819067001343,11.1717300415039,11.1615724563599,11.1514329910278,11.1413125991821,11.1312093734741,11.1211252212524,11.1110591888428,11.1010122299194,11.0909824371338,11.0809707641602,11.0709772109985,11.0610017776489,11.0510444641113,11.0411043167114,11.0311832427979,11.021279335022,11.0113935470581,11.0015249252319,10.9916744232178,10.9818410873413,10.9720258712769,10.9622278213501,10.952446937561,10.942684173584,10.9329385757446,10.923210144043,10.913498878479,10.9038047790527,10.8941287994385,10.8844690322876,10.8748264312744,10.8652019500732,10.8555936813354,10.846001625061,10.8364276885986,10.8268699645996,10.8173294067383,10.8078060150146,10.7982988357544,10.7888088226318,10.7793350219727,10.7698783874512,10.7604379653931,10.7510137557983,10.7416067123413,10.7322149276733,10.7228412628174,10.7134828567505,10.704140663147,10.6948156356812,10.6803407669067,10.6624345779419,10.644588470459,10.6268014907837,10.6090745925903,10.5914068222046,10.5737972259521,10.556245803833,10.5387535095215,10.5213184356689,10.5039415359497,10.4866218566895,10.4693584442139,10.4521522521973,10.4350023269653,10.4179086685181,10.4008712768555,10.3838891983032,10.3669624328613,10.3500909805298,10.3332748413086,10.3165121078491,10.2998046875,10.2831506729126,10.2665500640869,10.2500038146973,10.233510017395,10.2170705795288,10.2006826400757,10.1842241287231,10.1675786972046,10.1509885787964,10.1344518661499,10.1179685592651,10.1015386581421,10.0851631164551,10.0688390731812,10.0525693893433,10.0363512039185,10.0201854705811,10.0040712356567,9.98800945281982,9.971999168396,9.95604038238525,9.94013214111328,9.92590522766113,9.91223430633545,9.89860057830811,9.88500499725342,9.87144660949707,9.85792446136475,9.84444046020508,9.83099269866943,9.81758117675781,9.80420684814453,9.79086875915527,9.77756690979004,9.76430130004883,9.75107192993164,9.73787784576416,9.7247200012207,9.71159648895264,9.69850921630859,9.68545722961426,9.67243957519531,9.65945816040039,9.64651012420654,9.6335973739624,9.62071990966797,9.60787582397461,9.59506607055664,9.58229064941406,9.56954956054688,9.55684185028076,9.54416751861572,9.53152751922607,9.5189208984375,9.50634670257568,9.49380683898926,9.48129940032959,9.46882438659668,9.45638275146484,9.44397354125977,9.43159770965576,9.4192533493042,9.40694141387939,9.39466190338135,9.38241386413574,9.37019824981689,9.35801410675049,9.34586143493652,9.33374118804932,9.32165145874023,9.30959320068359,9.29756641387939,9.28557014465332,9.27360534667969,9.26167106628418,9.2497673034668,9.23789405822754,9.22605133056641,9.2142391204834,9.20245742797852,9.19070529937744,9.17898368835449,9.16729068756104,9.15562915802002,9.1439962387085,9.13239288330078,9.12081909179688,9.10927391052246,9.09775924682617,9.08627319335938,9.07481575012207,9.06338691711426,9.04978847503662,9.03168964385986,9.01366233825684,8.99570751190186,8.97782325744629,8.96001052856445,8.94226932525635,8.92459678649902,8.9069938659668,8.88946151733398,8.87199687957764,8.85460186004639,8.83727359771729,8.82001399993896,8.80282211303711,8.78569602966309,8.76863670349121,8.75164318084717,8.73471641540527,8.71785449981689,8.70105648040771,8.68432426452637,8.66765594482422,8.65105152130127,8.63451099395752,8.61803340911865,8.59984016418457,8.58072948455811,8.5617036819458,8.54276275634766,8.52390480041504,8.50512981414795,8.48643779754639,8.46782779693604,8.44929885864258,8.43085098266602,8.41248416900635,8.39419651031494,8.3759880065918,8.35785865783691,8.33980751037598,8.32183361053467,8.3039379119873,8.28611946105957,8.26837539672852,8.25070858001709,8.23311710357666,8.21560001373291,8.19815731048584,8.18078899383545,8.16349315643311,8.14627170562744,8.12912178039551,8.11204433441162,8.09503841400146,8.07810306549072,8.06123924255371,8.0444450378418,8.0277214050293,8.01614761352539,8.00825691223145,8.00038051605225,7.99251985549927,7.98467493057251,7.97684526443481,7.96903133392334,7.96123218536377,7.95344829559326,7.94568014144897,7.93792629241943,7.93018817901611,7.9224648475647,7.91475677490234,7.90706348419189,7.89938545227051,7.89172220230103,7.88407373428345,7.87644004821777,7.868821144104,7.86121702194214,7.85362768173218,7.84605264663696,7.83849239349365,7.83094644546509,7.82341527938843,7.81589889526367,7.8083963394165,7.80090856552124,7.79343509674072,7.78597593307495,7.77853059768677,7.77110004425049,7.7636833190918,7.75628089904785,7.74889278411865,7.74151849746704,7.73415803909302,7.72681188583374,7.71947956085205,7.71216106414795,7.70485639572144,7.69756603240967,7.69028902053833,7.68302583694458,7.67577600479126,7.66854047775269,7.66131830215454,7.65410947799683,7.6469144821167,7.639732837677,7.63256502151489,7.62541055679321,7.6182689666748,7.61114168167114,7.60402679443359,7.59692573547363,7.58983755111694,7.58276271820068,7.57570123672485,7.56865262985229,7.56161737442017
