12.5672760009766,12.6372919082642,12.7080917358398,12.7796754837036,12.8520669937134,12.9252843856812,12.9993410110474,13.129222869873,13.2727880477905,13.4194021224976,13.5691413879395,14.817684173584,14.8184385299683,14.8191957473755,14.8199529647827,14.820704460144,14.8214626312256,14.8222208023071,14.8229732513428,14.8237295150757,14.8244857788086,14.8252420425415,14.8259992599487,14.8267507553101,14.8275079727173,14.8282661437988,14.8290214538574,14.829779624939,14.8305349349976,14.8312911987305,14.8320474624634,14.8328075408936,14.8335618972778,14.8343191146851,14.8350734710693,14.8358316421509,14.8365898132324,14.8373422622681,14.8381013870239,14.8388605117798,14.8396167755127,14.8403768539429,14.8411340713501,14.8418884277344,14.8426494598389,14.8434047698975,14.844162940979,14.8449220657349,14.8456811904907,14.8464345932007,14.8471965789795,14.8479509353638,14.8487110137939,14.8494720458984,14.85023021698,14.8509883880615,14.8517436981201,14.8525056838989,14.8532648086548,14.8540210723877,14.8547811508179,14.855541229248,14.8562955856323,14.8570566177368,14.8578176498413,14.8585758209229,14.8593349456787,14.8600940704346,14.8608560562134,14.8616161346436,14.8623733520508,14.863133430481,14.8638973236084,14.8646554946899,14.8654165267944,14.866174697876,14.8669338226318,14.8676958084106,14.8684520721436,14.8692150115967,14.8699760437012,14.8707361221313,14.8714971542358,14.8722610473633,14.8730163574219,14.8737812042236,14.8745431900024,14.8752994537354,14.8760623931885,14.8768224716187,14.8775825500488,14.8783464431763,14.8791074752808,14.8798685073853,14.880633354187,14.8813924789429,14.8821544647217,14.8829174041748,14.8836803436279,14.8844404220581,14.8851976394653,14.8859615325928,14.8867254257202,14.887487411499,14.8882484436035,14.8890142440796,14.8897762298584,14.8905391693115,14.8913021087646,14.8920621871948,14.8928260803223,14.8935871124268,14.8943548202515,14.895115852356,14.8958778381348,14.8966407775879,14.8974056243896,14.8981657028198,14.8989324569702,14.8996992111206,14.9004592895508,14.9012241363525,14.901985168457,14.9027500152588,14.9035186767578,14.9042806625366,14.9050407409668,14.9058065414429,14.9065704345703,14.9073371887207,14.9081010818481,14.9088621139526,14.9096298217773,14.9103918075562,14.9111604690552,14.911922454834,14.9126853942871,14.9134550094604,14.9142217636108,14.9149799346924,14.9157466888428,14.9165143966675,14.9172763824463,14.9180450439453,14.9188070297241,14.9195756912231,14.9203424453735,14.9211053848267,14.9218759536743,14.9226398468018,14.9234037399292,14.9241714477539,14.92493724823,14.9256992340088,14.9264678955078,14.9272336959839,14.9280004501343,14.9287700653076,14.9295339584351,14.9303016662598,14.9310693740845,14.9318370819092,14.9326019287109,14.93337059021,14.9341335296631,14.9349031448364,14.9356698989868,14.9364366531372,14.9372034072876,14.9379711151123,14.938738822937,14.939510345459,14.9402761459351,14.9410419464111,14.9418134689331,14.9425773620605,14.9433469772339,14.9441137313843,14.944881439209,14.9456520080566,14.9464168548584,14.9471883773804,14.9479570388794,14.9487237930298,14.9494962692261,14.9502620697021,14.9510297775269,14.9517993927002,14.9525671005249,14.9533386230469,14.9541063308716,14.9548749923706,14.9556446075439,14.956413269043,14.9571828842163,14.9579524993896,14.9587230682373,14.959490776062,14.9602642059326,14.9610328674316,14.9618043899536,14.9625730514526,14.963342666626,14.964111328125,14.9648847579956,14.965651512146,14.9664220809937,14.9671926498413,14.9679641723633,14.9687356948853,14.9695043563843,14.9702758789062,14.9710483551025,14.9718179702759,14.9725914001465,14.9733619689941,14.9741287231445,14.9749031066895,14.9756717681885,14.9764432907104,14.9772176742554,14.1752996444702,14.1589775085449,14.142692565918,14.1264448165894,14.1102352142334,14.0940618515015,14.0779256820679,14.0618267059326,14.0457639694214,14.0297384262085,14.0137491226196,13.9977970123291,13.9818801879883,13.9659996032715,13.950156211853,13.93434715271,13.9185752868652,13.9028377532959,13.8871364593506,13.871470451355,13.8558397293091,13.8402442932129,13.8246841430664,12.574031829834,12.4182767868042,12.2663335800171,12.1180639266968,11.9733352661133,11.8320236206055,11.6940078735352,11.559175491333,11.4422645568848,11.4213428497314,11.4004983901978,11.3797292709351,11.3590354919434,11.3384170532227,11.3178730010986,11.2974033355713,11.2770080566406,11.2566862106323,11.2364368438721,11.2162609100342,11.1961574554443,11.1761255264282,11.1561651229858,11.1362752914429,11.1164569854736,11.0967092514038,11.0770311355591,11.0574226379395,11.0378837585449,11.0184135437012,10.9990119934082,10.979679107666,10.960412979126,10.9412155151367,10.9220848083496,10.9030208587646,10.8840227127075,10.8650913238525,10.8462257385254,10.8274250030518,10.808690071106,10.7900190353394,10.771390914917,10.7524518966675,10.7335786819458,10.7147722244263,10.6960315704346,10.6773557662964,10.6587448120117,10.6401996612549,10.6217184066772,10.6033010482788,10.5849475860596,10.5666580200195,10.5484313964844,10.5302667617798,10.5121650695801,10.4941253662109,10.4761476516724,10.4582319259644,10.4403762817383,10.4225826263428,10.4048490524292,10.3871755599976,10.3695621490479,10.3520078659058,10.3345136642456,10.3170776367188,10.2997016906738,10.2823829650879,10.2651224136353,10.2479209899902,10.2307758331299,10.2136878967285,10.1966581344604,10.1796846389771,10.162766456604,10.1459054946899,10.1290998458862,10.1123504638672,10.0956554412842,10.0790166854858,10.0624313354492,10.0459012985229,10.0294256210327,10.0130033493042,9.99573040008545,9.97342300415039,9.95121574401855,9.92910575866699,9.90709495544434,9.88518047332764,9.86336326599121,9.84164237976074,9.82001686096191,9.79848575592041,9.77705001831055,9.75570678710938,9.73445701599121,9.71329879760742,9.69223308563232,9.67125797271729,9.65037441253662,9.6295804977417,9.6088752746582,9.58825969696045,9.5677318572998,9.54729175567627
12.5673141479492,12.6373300552368,12.7081184387207,12.7796993255615,12.8520927429199,12.9382753372192,13.0776720046997,13.2201070785522,13.3654956817627,13.51402759552,14.7027320861816,14.7034759521484,14.7042179107666,14.7049627304077,14.7057085037231,14.7064485549927,14.7071943283081,14.7079372406006,14.7086811065674,14.7094249725342,14.7101726531982,14.7109136581421,14.7116584777832,14.7124042510986,14.7131490707397,14.7138919830322,14.7146348953247,14.7153844833374,14.7161254882812,14.716869354248,14.7176170349121,14.7183618545532,14.7191066741943,14.7198514938354,14.7205972671509,14.7213430404663,14.7220897674561,14.7228326797485,14.7235794067383,14.7243270874023,14.7250709533691,14.7258157730103,14.7265644073486,14.7273063659668,14.7280550003052,14.7287979125977,14.7295446395874,14.7302942276001,14.7310380935669,14.7317848205566,14.7325325012207,14.7332773208618,14.7340259552002,14.7347717285156,14.7355165481567,14.7362661361694,14.7370090484619,14.7377595901489,14.7385063171387,14.7392539978027,14.7400007247925,14.7407493591309,14.7414979934692,14.7422428131104,14.742992401123,14.7437381744385,14.7444877624512,14.745231628418,14.7459812164307,14.7467288970947,14.7474765777588,14.7482242584229,14.7489767074585,14.7497215270996,14.7504711151123,14.7512168884277,14.7519664764404,14.7527170181274,14.7534637451172,14.7542142868042,14.7549619674683,14.7557077407837,14.756459236145,14.7572107315063,14.7579574584961,14.7587060928345,14.7594556808472,14.7602062225342,14.7609539031982,14.7617044448853,14.7624549865723,14.7632036209106,14.7639493942261,14.7647008895874,14.765453338623,14.7662000656128,14.7669525146484,14.7677001953125,14.7684535980225,14.7692041397095,14.7699518203735,14.7707033157349,14.7714557647705,14.7722043991089,14.7729568481445,14.7737064361572,14.774453163147,14.7752065658569,14.775954246521,14.7767086029053,14.7774591445923,14.7782077789307,14.7789630889893,14.7797155380249,14.7804641723633,14.7812175750732,14.7819709777832,14.7827205657959,14.7834720611572,14.7842197418213,14.7849740982056,14.7857255935669,14.7864780426025,14.7872295379639,14.7879829406738,14.7887325286865,14.7894887924194,14.7902393341064,14.7909936904907,14.7917470932007,14.7924957275391,14.7932472229004,14.794002532959,14.7947521209717,14.7955083847046,14.7962608337402,14.7970142364502,14.7977685928345,14.7985219955444,14.7992734909058,14.80002784729,14.8007802963257,14.8015356063843,14.8022880554199,14.8030405044556,14.8037939071655,14.8045511245728,14.8053016662598,14.806056022644,14.8068132400513,14.8075647354126,14.8083200454712,14.8090724945068,14.8098278045654,14.8105840682983,14.8113374710083,14.8120918273926,14.8128452301025,14.8135995864868,14.8143539428711,14.8151121139526,14.8158645629883,14.8166198730469,14.8173761367798,14.8181295394897,14.8188886642456,14.8196430206299,14.8204002380371,14.8211545944214,14.8219060897827,14.8226642608643,14.8234195709229,14.8241720199585,14.8249311447144,14.8256845474243,14.8264408111572,14.8272018432617,14.8279523849487,14.8287134170532,14.8294715881348,14.8302230834961,14.830982208252,14.8317375183105,14.8324909210205,14.8332509994507,14.8340072631836,14.8347644805908,14.835521697998,14.8362770080566,14.8370351791382,14.8377933502197,14.8385496139526,14.8393087387085,14.8400650024414,14.8408241271973,14.8415784835815,14.8423357009888,14.843092918396,14.8438510894775,14.8446092605591,14.8453683853149,14.8461275100708,14.8468828201294,14.8476428985596,14.8484029769897,14.849160194397,14.8499202728271,14.8506755828857,14.8514337539673,14.8521947860718,14.8529500961304,14.8537092208862,14.8544721603394,14.8552255630493,14.8559885025024,14.8567495346069,14.8575067520142,14.1784715652466,14.1621417999268,14.1458492279053,14.1295948028564,14.113377571106,14.0971975326538,14.0810537338257,14.0649480819702,14.0488786697388,14.0328454971313,14.0168495178223,14.0008897781372,13.9849662780762,13.9690790176392,13.9532270431519,13.9374122619629,13.9216327667236,13.9058885574341,13.8901805877686,13.8745079040527,13.8588705062866,13.8432683944702,13.8277006149292,13.8121690750122,12.6811361312866,12.5227327346802,12.3682384490967,12.2175102233887,12.0704107284546,11.926812171936,11.7865896224976,11.6496257781982,11.5158090591431,11.4320278167725,11.4111433029175,11.3903350830078,11.3696031570435,11.3489465713501,11.3283643722534,11.3078575134277,11.2874240875244,11.2670640945435,11.2467784881592,11.2265644073486,11.2064237594604,11.1863555908203,11.1663579940796,11.1464328765869,11.1265783309937,11.1067943572998,11.0870809555054,11.0674362182617,11.0478620529175,11.0283575057983,11.0089206695557,10.9895524978638,10.9702520370483,10.9510202407837,10.9318552017212,10.9127569198608,10.8937253952026,10.8747596740723,10.855860710144,10.8370265960693,10.8182582855225,10.7995548248291,10.7809152603149,10.7623405456543,10.7438297271729,10.7250642776489,10.7062873840332,10.6875762939453,10.6689300537109,10.6503486633301,10.6318321228027,10.6133804321289,10.59499168396,10.5766677856445,10.5584058761597,10.540207862854,10.5220718383789,10.5039978027344,10.4859867095947,10.4680366516113,10.4501485824585,10.4323205947876,10.4145536422729,10.3968477249146,10.3792018890381,10.3616151809692,10.344087600708,10.3266201019287,10.309211730957,10.2918605804443,10.2745695114136,10.2573347091675,10.240159034729,10.2230405807495,10.2059783935547,10.1889734268188,10.172025680542,10.1551332473755,10.1382970809937,10.1215171813965,10.1047925949097,10.0881233215332,10.0715084075928,10.0549478530884,10.0384426116943,10.021990776062,10.0055932998657,9.98924922943115,9.9729585647583,9.95672035217285,9.94053554534912,9.91902256011963,9.89705657958984,9.87518692016602,9.85341358184814,9.83173656463623,9.81015396118164,9.78866672515869,9.76727294921875,9.74597263336182,9.72476482391357,9.70364952087402,9.68262481689453,9.66169166564941,9.64084911346436,9.62009620666504,9.59943199157715,9.57885646820068,9.55836868286133,9.5379695892334,9.51765632629395
12.5673522949219,12.637357711792,12.7081422805786,12.7797241210938,12.8882102966309,13.0265254974365,13.1678409576416,13.3120203018188,14.5888166427612,14.5895462036133,14.5902786254883,14.5910110473633,14.5917444229126,14.592474937439,14.5932121276855,14.593939781189,14.5946741104126,14.5954093933105,14.5961408615112,14.5968732833862,14.5976028442383,14.5983362197876,14.5990724563599,14.5998029708862,14.6005363464355,14.6012706756592,14.6020021438599,14.6027402877808,14.6034717559814,14.6042041778564,14.6049404144287,14.6056728363037,14.606406211853,14.6071395874023,14.607871055603,14.6086044311523,14.6093425750732,14.6100740432739,14.6108093261719,14.6115446090698,14.6122770309448,14.6130132675171,14.6137466430664,14.6144828796387,14.6152172088623,14.6159515380859,14.6166830062866,14.6174211502075,14.6181526184082,14.6188879013062,14.6196269989014,14.6203603744507,14.6210966110229,14.6218299865723,14.6225671768188,14.6233043670654,14.6240386962891,14.624773979187,14.6255121231079,14.62624168396,14.6269807815552,14.6277160644531,14.6284494400024,14.629189491272,14.6299238204956,14.6306610107422,14.6313991546631,14.6321334838867,14.6328716278076,14.6336107254028,14.6343431472778,14.635082244873,14.6358156204224,14.6365528106689,14.6372900009155,14.6380271911621,14.638765335083,14.6395034790039,14.6402387619019,14.6409769058228,14.641716003418,14.6424493789673,14.6431884765625,14.643928527832,14.6446599960327,14.6454000473022,14.6461353302002,14.646876335144,14.6476144790649,14.6483497619629,14.6490888595581,14.6498289108276,14.6505651473999,14.6513051986694,14.652045249939,14.6527824401855,14.6535205841064,14.6542558670044,14.6549968719482,14.6557359695435,14.6564722061157,14.6572141647339,14.6579542160034,14.65869140625,14.6594314575195,14.6601724624634,14.66090965271,14.6616487503052,14.6623868942261,14.6631288528442,14.6638679504395,14.6646041870117,14.6653442382812,14.6660871505737,14.6668243408203,14.6675653457642,14.668309211731,14.6690444946289,14.6697864532471,14.6705255508423,14.6712675094604,14.6720104217529,14.6727466583252,14.6734867095947,14.6742277145386,14.6749687194824,14.6757097244263,14.6764478683472,14.6771926879883,14.6779317855835,14.6786708831787,14.6794137954712,14.6801567077637,14.6808967590332,14.681640625,14.6823816299438,14.6831197738647,14.6838636398315,14.6846027374268,14.6853446960449,14.6860876083374,14.6868267059326,14.6875734329224,14.6883134841919,14.6890535354614,14.6897983551025,14.6905422210693,14.6912841796875,14.6920289993286,14.6927652359009,14.693507194519,14.6942529678345,14.694993019104,14.6957368850708,14.6964807510376,14.6972217559814,14.6979694366455,14.6987142562866,14.6994524002075,14.7001981735229,14.7009382247925,14.701681137085,14.7024240493774,14.7031679153442,14.703911781311,14.7046585083008,14.7054004669189,14.7061452865601,14.7068901062012,14.7076320648193,14.7083778381348,14.7091217041016,14.709867477417,14.7106113433838,14.7113523483276,14.7120962142944,14.7128410339355,14.7135858535767,14.7143316268921,14.7150764465332,14.7158193588257,14.7165689468384,14.7173089981079,14.7180557250977,14.7188034057617,14.7195472717285,14.7202920913696,14.7210369110107,14.7217798233032,14.7225284576416,14.723274230957,14.7240171432495,14.7247638702393,14.7255077362061,14.7262554168701,14.7270030975342,14.7277479171753,14.7284955978394,14.7292413711548,14.7299871444702,14.7307300567627,14.7314796447754,14.7322235107422,14.7329702377319,14.7337141036987,14.7344655990601,14.7352132797241,14.7359580993652,14.7367067337036,14.7374563217163,14.7381992340088,14.7389488220215,14.7396984100342,14.740439414978,14.1653070449829,14.1490077972412,14.1327457427979,14.1165208816528,14.1003341674805,14.0841836929321,14.0680704116821,14.0519933700562,14.0359535217285,14.0199499130249,14.0039834976196,13.9880533218384,13.9721584320068,13.9563007354736,13.9404783248901,13.9246921539307,13.9089412689209,13.8932256698608,13.8775463104248,13.8619022369385,13.8462924957275,13.8307189941406,13.8151798248291,13.7996759414673,13.7842063903809,12.6289615631104,12.471851348877,12.3186025619507,12.1690740585327,12.0231313705444,11.8806486129761,11.7415027618408,11.6055793762207,11.4727659225464,11.4218082427979,11.4009618759155,11.3801908493042,11.3594951629639,11.3388757705688,11.3183298110962,11.2978591918945,11.2774620056152,11.2571382522583,11.2368879318237,11.2167100906372,11.1966037750244,11.176570892334,11.156608581543,11.1367177963257,11.1168975830078,11.0971479415894,11.0774688720703,11.0578584671021,11.0383186340332,11.0188465118408,10.9994440078735,10.9801092147827,10.9608421325684,10.9416427612305,10.9225101470947,10.9034442901611,10.8844451904297,10.8655128479004,10.8466453552246,10.8278436660767,10.8091068267822,10.7904348373413,10.7718267440796,10.7532835006714,10.7348031997681,10.7163867950439,10.6978158950806,10.6791343688965,10.6605176925659,10.6419658660889,10.6234788894653,10.605055809021,10.5866956710815,10.5683994293213,10.5501670837402,10.5319967269897,10.5138893127441,10.4958438873291,10.4778604507446,10.4599380493164,10.4420776367188,10.424277305603,10.4065380096436,10.388858795166,10.3712396621704,10.3536796569824,10.3361797332764,10.3187389373779,10.3013563156128,10.2840328216553,10.2667665481567,10.2495594024658,10.2324085235596,10.2153158187866,10.1982803344727,10.1813011169434,10.1643781661987,10.1475114822388,10.1307010650635,10.1139459609985,10.0972461700439,10.0806016921997,10.0640115737915,10.0474758148193,10.0309944152832,10.0145673751831,9.99819469451904,9.98187446594238,9.96560764312744,9.9493932723999,9.93323230743408,9.91712284088135,9.90106678009033,9.8850622177124,9.86521244049072,9.84348297119141,9.82184982299805,9.8003101348877,9.77886581420898,9.75751495361328,9.73625755310059,9.71509170532227,9.69401836395264,9.67303562164307,9.65214347839355,9.6313419342041,9.61063003540039,9.59000682830811,9.56947135925293,9.54902458190918,9.52866458892822,9.50839042663574,9.48820304870605
12.5673818588257,12.6373825073242,12.7081670761108,12.8385314941406,12.9757766723633,13.1159629821777,13.2589712142944,14.4773712158203,14.4780950546265,14.4788131713867,14.4795370101929,14.4802589416504,14.480978012085,14.4816999435425,14.4824228286743,14.4831390380859,14.4838619232178,14.484582901001,14.4853067398071,14.4860277175903,14.4867486953735,14.487473487854,14.4881954193115,14.4889144897461,14.4896402359009,14.4903602600098,14.4910802841187,14.4918041229248,14.4925241470337,14.4932479858398,14.4939727783203,14.4946947097778,14.4954166412354,14.4961414337158,14.4968614578247,14.4975872039795,14.4983129501343,14.4990339279175,14.4997539520264,14.5004749298096,14.50119972229,14.5019245147705,14.502646446228,14.5033712387085,14.5040969848633,14.5048170089722,14.505542755127,14.5062665939331,14.5069904327393,14.5077171325684,14.5084381103516,14.5091600418091,14.5098848342896,14.5106067657471,14.5113325119019,14.5120582580566,14.5127820968628,14.5135078430176,14.5142316818237,14.5149564743042,14.5156803131104,14.5164051055908,14.5171327590942,14.517858505249,14.5185775756836,14.5193033218384,14.5200300216675,14.5207557678223,14.5214796066284,14.5222072601318,14.522931098938,14.5236587524414,14.5243806838989,14.5251092910767,14.5258350372314,14.5265579223633,14.527286529541,14.5280103683472,14.5287342071533,14.5294637680054,14.5301914215088,14.5309133529663,14.5316410064697,14.5323667526245,14.5330953598022,14.53382396698,14.5345468521118,14.5352735519409,14.53600025177,14.5367240905762,14.5374517440796,14.538182258606,14.5389080047607,14.5396356582642,14.5403614044189,14.541090965271,14.5418167114258,14.5425434112549,14.5432729721069,14.5440006256104,14.5447244644165,14.5454549789429,14.5461835861206,14.5469083786011,14.5476369857788,14.5483627319336,14.5490922927856,14.5498218536377,14.5505485534668,14.5512762069702,14.5520095825195,14.552734375,14.5534658432007,14.5541934967041,14.5549192428589,14.5556488037109,14.5563745498657,14.5571041107178,14.5578374862671,14.5585613250732,14.5592918395996,14.560022354126,14.5607509613037,14.5614824295044,14.5622138977051,14.5629396438599,14.5636720657349,14.564398765564,14.5651292800903,14.5658559799194,14.5665864944458,14.5673170089722,14.5680484771729,14.5687770843506,14.5695085525513,14.5702409744263,14.5709667205811,14.5717000961304,14.5724296569824,14.5731601715088,14.5738906860352,14.5746183395386,14.5753498077393,14.5760812759399,14.5768098831177,14.5775451660156,14.5782747268677,14.5790042877197,14.579737663269,14.5804681777954,14.5811986923218,14.5819320678711,14.5826635360718,14.5833921432495,14.5841236114502,14.5848531723022,14.5855884552002,14.5863218307495,14.5870513916016,14.5877847671509,14.5885152816772,14.5892467498779,14.5899810791016,14.5907125473022,14.5914440155029,14.5921792984009,14.59290599823,14.593638420105,14.5943746566772,14.5951051712036,14.5958395004272,14.5965700149536,14.5973043441772,14.5980396270752,14.5987682342529,14.5995035171509,14.6002388000488,14.6009721755981,14.6017055511475,14.6024360656738,14.6031694412231,14.6039037704468,14.6046352386475,14.6053695678711,14.606104850769,14.606837272644,14.607572555542,14.6083059310913,14.6090393066406,14.6097755432129,14.6105127334595,14.6112442016602,14.6119756698608,14.6127099990845,14.6134452819824,14.6141805648804,14.6149129867554,14.6156492233276,14.6163854598999,14.6171197891235,14.6178560256958,14.6185874938965,14.6193256378174,14.620059967041,14.620795249939,14.621527671814,14.6222639083862,14.6229991912842,14.6237363815308,14.624472618103,14.1684741973877,14.1521673202515,14.1358985900879,14.1196670532227,14.1034717559814,14.0873146057129,14.0711936950684,14.0551099777222,14.0390634536743,14.0230531692505,14.0070791244507,13.9911413192749,13.9752397537231,13.9593744277954,13.9435453414917,13.927752494812,13.9119939804077,13.8962726593018,13.8805856704712,13.8649349212646,13.8493185043335,13.8337383270264,13.8181924819946,13.8026809692383,13.787205696106,13.7717638015747,12.7370071411133,12.5772142410278,12.4213809967041,12.269362449646,12.1210193634033,11.9762210845947,11.8348417282104,11.6967601776123,11.5618648529053,11.4324932098389,11.4116077423096,11.3907985687256,11.3700647354126,11.3494062423706,11.3288221359253,11.308313369751,11.287878036499,11.2675170898438,11.2472295761108,11.227014541626,11.2068719863892,11.1868019104004,11.1668033599854,11.146876335144,11.1270198822021,11.1072340011597,11.0875186920166,11.0678739547729,11.0482978820801,11.028790473938,11.009352684021,10.9899826049805,10.9706811904907,10.9514474868774,10.9322805404663,10.9131813049316,10.8941478729248,10.8751811981201,10.8562812805176,10.8374452590942,10.818675994873,10.7999706268311,10.7813301086426,10.7627534866333,10.7442417144775,10.7257928848267,10.7074069976807,10.6890840530396,10.6707057952881,10.6521186828613,10.6335964202881,10.615138053894,10.5967435836792,10.5784130096436,10.5601453781128,10.5419406890869,10.5237989425659,10.5057191848755,10.4877023696899,10.4697465896606,10.4518518447876,10.4340190887451,10.4162464141846,10.398533821106,10.3808822631836,10.3632898330688,10.345757484436,10.3282842636108,10.3108692169189,10.2935132980347,10.276216506958,10.2589769363403,10.241795539856,10.2246704101562,10.2076034545898,10.1905927658081,10.1736392974854,10.1567420959473,10.1399011611938,10.1231155395508,10.1063852310181,10.08971118927,10.0730905532837,10.0565252304077,10.0400152206421,10.0235576629639,10.007155418396,9.99080562591553,9.97451019287109,9.95826721191406,9.94207668304443,9.92593955993652,9.90985488891602,9.89382171630859,9.87784004211426,9.86191082000732,9.84737300872803,9.83357334136963,9.81198310852051,9.79048728942871,9.76908588409424,9.74777698516846,9.72656154632568,9.7054386138916,9.68440628051758,9.66346549987793,9.64261531829834,9.62185478210449,9.60118293762207,9.58059978485107,9.5601053237915,9.53969764709473,9.51937770843506,9.49914360046387,9.47899532318115,9.45893287658691
12.5674057006836,12.6558866500854,12.789234161377,12.9254217147827,13.0644617080688,13.2063436508179,14.3676166534424,14.3683261871338,14.3690395355225,14.3697462081909,14.3704605102539,14.3711709976196,14.3718786239624,14.3725900650024,14.3733053207397,14.3740139007568,14.3747262954712,14.3754291534424,14.3761425018311,14.3768558502197,14.3775625228882,14.3782768249512,14.3789911270142,14.3796987533569,14.380410194397,14.3811225891113,14.3818349838257,14.38254737854,14.3832569122314,14.3839673995972,14.3846769332886,14.3853912353516,14.3861017227173,14.3868160247803,14.3875246047974,14.3882398605347,14.3889484405518,14.3896608352661,14.3903770446777,14.3910865783691,14.3917999267578,14.3925142288208,14.3932247161865,14.3939361572266,14.3946504592896,14.3953619003296,14.3960771560669,14.3967866897583,14.3974990844727,14.3982152938843,14.39892578125,14.3996391296387,14.4003562927246,14.4010667800903,14.4017820358276,14.4024963378906,14.403205871582,14.4039211273193,14.4046306610107,14.4053468704224,14.406063079834,14.4067764282227,14.4074897766113,14.4082040786743,14.4089183807373,14.4096336364746,14.4103488922119,14.411060333252,14.4117765426636,14.412486076355,14.4132022857666,14.4139184951782,14.4146299362183,14.4153470993042,14.4160614013672,14.4167757034302,14.4174909591675,14.4182090759277,14.4189214706421,14.4196376800537,14.4203510284424,14.4210643768311,14.4217844009399,14.4224948883057,14.4232120513916,14.4239301681519,14.4246416091919,14.4253606796265,14.4260759353638,14.4267921447754,14.427508354187,14.4282217025757,14.4289407730103,14.4296579360962,14.4303693771362,14.4310874938965,14.4318056106567,14.432520866394,14.4332389831543,14.4339551925659,14.4346714019775,14.4353876113892,14.4361038208008,14.4368209838867,14.4375381469727,14.43825340271,14.4389715194702,14.4396896362305,14.4404048919678,14.4411201477051,14.441840171814,14.4425563812256,14.4432764053345,14.4439926147461,14.4447107315063,14.4454278945923,14.4461460113525,14.4468641281128,14.447582244873,14.4483013153076,14.4490146636963,14.4497365951538,14.4504537582397,14.4511737823486,14.4518880844116,14.4526081085205,14.453330039978,14.454044342041,14.4547634124756,14.4554853439331,14.4562015533447,14.4569206237793,14.4576435089111,14.4583568572998,14.459077835083,14.4597949981689,14.4605159759521,14.4612340927124,14.461953163147,14.4626750946045,14.4633941650391,14.4641132354736,14.4648332595825,14.4655561447144,14.4662704467773,14.4669942855835,14.4677085876465,14.4684295654297,14.4691514968872,14.4698705673218,14.4705924987793,14.4713115692139,14.4720315933228,14.4727544784546,14.4734745025635,14.4741926193237,14.4749164581299,14.4756345748901,14.4763565063477,14.4770746231079,14.4777975082397,14.4785165786743,14.4792394638062,14.479959487915,14.4806823730469,14.481406211853,14.4821243286133,14.4828453063965,14.483567237854,14.4842891693115,14.485011100769,14.4857301712036,14.4864530563354,14.4871759414673,14.4878959655762,14.4886198043823,14.4893445968628,14.490062713623,14.4907865524292,14.4915084838867,14.4922304153442,14.492956161499,14.4936761856079,14.4943990707397,14.4951229095459,14.4958429336548,14.4965667724609,14.4972915649414,14.4980125427246,14.4987344741821,14.499457359314,14.5001792907715,14.5009050369263,14.5016288757324,14.5023517608643,14.5030784606934,14.5037994384766,14.5045204162598,14.5052452087402,14.5059671401978,14.5066919326782,14.5074148178101,14.5081405639648,14.5088672637939,14.5095872879028,14.5103139877319,14.5110378265381,14.1553287506104,14.1390523910522,14.1228132247925,14.1066112518311,14.090446472168,14.0743188858032,14.0582284927368,14.0421743392944,14.0261564254761,14.0101757049561,13.9942312240601,13.9783229827881,13.9624500274658,13.9466142654419,13.9308137893677,13.9150495529175,13.899320602417,13.8836269378662,13.8679685592651,13.8523464202881,13.8367586135864,13.8212060928345,13.8056888580322,13.7902059555054,13.7747573852539,13.7593441009521,12.8469181060791,12.6843729019165,12.5258893966675,12.3713178634644,12.2205152511597,12.0733432769775,11.9296751022339,11.7893857955933,11.6523571014404,11.5184783935547,11.4222736358643,11.4014253616333,11.3806524276733,11.3599557876587,11.3393335342407,11.3187866210938,11.2983140945435,11.2779150009155,11.2575902938843,11.2373380661011,11.2171583175659,11.1970510482788,11.1770162582397,11.1570529937744,11.1371603012085,11.117338180542,11.0975875854492,11.0779066085815,11.058295249939,11.0387525558472,11.0192794799805,10.9998750686646,10.9805383682251,10.9612703323364,10.9420690536499,10.9229354858398,10.9038686752319,10.8848676681519,10.8659334182739,10.8470649719238,10.8282613754272,10.8095235824585,10.7908496856689,10.7722406387329,10.7536954879761,10.7352142333984,10.716796875,10.6984415054321,10.6801500320435,10.6619205474854,10.6437330245972,10.6252393722534,10.6068096160889,10.5884447097778,10.5701427459717,10.5519037246704,10.533727645874,10.5156135559082,10.4975624084473,10.4795732498169,10.4616451263428,10.4437780380249,10.4259729385376,10.4082279205322,10.3905429840088,10.3729181289673,10.3553524017334,10.3378467559814,10.3204002380371,10.3030118942261,10.2856826782227,10.2684116363525,10.2511978149414,10.2340421676636,10.2169437408447,10.1999025344849,10.182918548584,10.1659898757935,10.1491184234619,10.1323022842407,10.1155414581299,10.0988368988037,10.0821866989136,10.0655918121338,10.04905128479,10.0325651168823,10.0161323547363,9.99975395202637,9.98342895507812,9.96715641021729,9.95093822479248,9.93477153778076,9.91865825653076,9.90259647369385,9.88658618927002,9.87062835693359,9.85472202301025,9.83945846557617,9.82570743560791,9.8119945526123,9.79831981658936,9.78068351745605,9.7593240737915,9.73805809020996,9.71688556671143,9.69580364227295,9.67481327056885,9.65391445159912,9.63310527801514,9.61238479614258,9.59175395965576,9.57121181488037,9.55075740814209,9.5303897857666,9.51010894775391,9.48991394042969,9.46980476379395,9.44978046417236,9.42984104156494
12.6079788208008,12.7403135299683,12.8754558563232,13.0133638381958,14.2588176727295,14.2595186233521,14.260214805603,14.2609167098999,14.2616167068481,14.2623128890991,14.2630128860474,14.2637128829956,14.2644138336182,14.2651109695435,14.2658128738403,14.2665138244629,14.2672157287598,14.2679147720337,14.2686138153076,14.2693166732788,14.2700157165527,14.2707166671753,14.2714166641235,14.2721147537231,14.2728157043457,14.2735166549683,14.2742185592651,14.274920463562,14.2756195068359,14.2763214111328,14.277024269104,14.2777242660522,14.2784252166748,14.279128074646,14.2798261642456,14.2805271148682,14.281229019165,14.2819309234619,14.2826328277588,14.28333568573,14.2840347290039,14.284740447998,14.2854413986206,14.2861413955688,14.2868452072144,14.2875461578369,14.2882509231567,14.2889499664307,14.2896518707275,14.2903537750244,14.2910566329956,14.2917594909668,14.292462348938,14.2931661605835,14.2938661575317,14.2945737838745,14.2952747344971,14.2959766387939,14.2966785430908,14.2973833084106,14.2980861663818,14.2987861633301,14.2994890213013,14.3001956939697,14.300895690918,14.3016033172607,14.3023071289062,14.3030090332031,14.3037137985229,14.3044157028198,14.305121421814,14.3058271408081,14.3065299987793,14.3072328567505,14.307936668396,14.3086376190186,14.309344291687,14.3100490570068,14.3107538223267,14.3114585876465,14.3121614456177,14.3128671646118,14.313572883606,14.3142757415771,14.3149824142456,14.3156862258911,14.3163900375366,14.3170948028564,14.3177995681763,14.3185043334961,14.3192129135132,14.3199148178101,14.3206214904785,14.3213272094727,14.3220310211182,14.3227405548096,14.3234443664551,14.3241491317749,14.3248567581177,14.3255615234375,14.3262662887573,14.3269720077515,14.3276777267456,14.3283843994141,14.3290929794312,14.3297967910767,14.3305044174194,14.3312110900879,14.3319158554077,14.3326234817505,14.3333292007446,14.3340377807617,14.3347434997559,14.3354463577271,14.3361549377441,14.3368654251099,14.3375692367554,14.3382759094238,14.3389863967896,14.3396911621094,14.3403997421265,14.3411045074463,14.3418140411377,14.3425226211548,14.3432292938232,14.3439350128174,14.3446426391602,14.3453493118286,14.3460597991943,14.3467674255371,14.3474760055542,14.348183631897,14.3488893508911,14.3495988845825,14.3503074645996,14.3510141372681,14.3517274856567,14.3524341583252,14.353138923645,14.3538494110107,14.3545608520508,14.3552656173706,14.3559770584106,14.3566865921021,14.3573951721191,14.3581047058105,14.358811378479,14.3595218658447,14.3602352142334,14.3609399795532,14.361647605896,14.362359046936,14.3630676269531,14.3637790679932,14.3644857406616,14.365198135376,14.3659076690674,14.3666172027588,14.3673276901245,14.3680381774902,14.3687467575073,14.369457244873,14.3701696395874,14.3708744049072,14.3715896606445,14.372296333313,14.3730087280273,14.373722076416,14.3744297027588,14.3751430511475,14.3758535385132,14.3765621185303,14.3772735595703,14.3779850006104,14.3786973953247,14.3794097900391,14.3801164627075,14.3808298110962,14.3815431594849,14.3822498321533,14.3829641342163,14.3836755752563,14.3843870162964,14.3850984573364,14.3858137130737,14.3865232467651,14.3872356414795,14.3879451751709,14.3886585235596,14.3893690109253,14.3900804519653,14.390793800354,14.3915090560913,14.3922176361084,14.3929319381714,14.393648147583,14.3943576812744,14.3950700759888,14.3957834243774,14.3964967727661,14.3972110748291,14.3979215621948,14.3986330032349,14.1584920883179,14.1422080993652,14.1259613037109,14.1097526550293,14.0935802459717,14.0774459838867,14.0613479614258,14.0452861785889,14.0292615890503,14.0132741928101,13.9973220825195,13.9814071655273,13.9655275344849,13.9496841430664,13.933876991272,13.9181051254272,13.9023694992065,13.8866691589355,13.8710041046143,13.855375289917,13.8397808074951,13.8242216110229,13.8086967468262,13.7932071685791,13.7777519226074,13.7623319625854,13.7469463348389,13.7315950393677,12.7933731079102,12.6321716308594,12.4749822616577,12.3216571807861,12.1720542907715,12.0260410308838,11.8834896087646,11.7442779541016,11.6082906723022,11.4754161834717,11.4120721817017,11.391261100769,11.3705253601074,11.3498649597168,11.3292798995972,11.3087692260742,11.2883329391479,11.267970085144,11.2476806640625,11.227463722229,11.2073202133179,11.1872482299805,11.1672477722168,11.1473188400269,11.1274614334106,11.1076745986938,11.0879573822021,11.0683107376099,11.0487327575684,11.029224395752,11.0097846984863,10.9904136657715,10.9711103439331,10.9518756866455,10.9327068328857,10.9136056900024,10.8945713043213,10.8756036758423,10.8567008972168,10.8378648757935,10.8190927505493,10.800386428833,10.7817449569702,10.7631664276123,10.7446527481079,10.7262029647827,10.7078161239624,10.689492225647,10.6712303161621,10.6530313491821,10.6348943710327,10.6168184280396,10.5984954833984,10.5801582336426,10.5618848800659,10.5436744689941,10.5255270004272,10.5074415206909,10.4894180297852,10.47145652771,10.4535570144653,10.4357175827026,10.4179391860962,10.4002208709717,10.3825635910034,10.3649654388428,10.3474273681641,10.329948425293,10.3125286102295,10.2951669692993,10.2778635025024,10.2606191635132,10.2434310913086,10.2263021469116,10.2092294692993,10.192214012146,10.1752548217773,10.1583518981934,10.141505241394,10.1247148513794,10.1079788208008,10.0912990570068,10.0746736526489,10.0581035614014,10.0415878295898,10.02512550354,10.0087175369263,9.99236297607422,9.97606182098389,9.95981407165527,9.94361972808838,9.92747688293457,9.91138648986816,9.89534854888916,9.87936210632324,9.86342716217041,9.84754467010498,9.831711769104,9.81782817840576,9.80413722991943,9.79048442840576,9.77686977386475,9.76329326629639,9.74958324432373,9.72835922241211,9.7072286605835,9.68618869781494,9.66524028778076,9.64438247680664,9.62361335754395,9.60293483734131,9.58234405517578,9.56184196472168,9.54142761230469,9.52109909057617,9.50085830688477,9.48070240020752,9.46063232421875,9.44064712524414,9.42074584960938,9.40092945098877
12.6917667388916,12.8258752822876,12.9626636505127,14.1523380279541,14.1530294418335,14.1537179946899,14.1544065475464,14.1550979614258,14.1557874679565,14.1564741134644,14.1571636199951,14.1578531265259,14.158543586731,14.159234046936,14.1599187850952,14.1606101989746,14.161301612854,14.1619901657104,14.1626796722412,14.1633720397949,14.1640586853027,14.1647510528564,14.1654386520386,14.1661319732666,14.1668224334717,14.1675109863281,14.1682024002075,14.1688938140869,14.1695823669434,14.1702747344971,14.1709671020508,14.1716537475586,14.1723470687866,14.1730346679688,14.1737279891968,14.1744184494019,14.1751098632812,14.1758012771606,14.1764965057373,14.1771850585938,14.1778745651245,14.1785669326782,14.1792573928833,14.1799468994141,14.1806411743164,14.1813316345215,14.1820259094238,14.1827173233032,14.1834087371826,14.184100151062,14.1847925186157,14.1854848861694,14.1861782073975,14.1868677139282,14.1875610351562,14.1882514953613,14.1889457702637,14.189640045166,14.1903285980225,14.1910238265991,14.1917181015015,14.1924076080322,14.1931037902832,14.1937961578369,14.194486618042,14.1951837539673,14.1958713531494,14.1965684890747,14.1972589492798,14.1979513168335,14.1986455917358,14.1993417739868,14.2000341415405,14.2007265090942,14.2014226913452,14.2021160125732,14.2028102874756,14.2035007476807,14.204195022583,14.2048892974854,14.2055816650391,14.2062768936157,14.2069721221924,14.2076644897461,14.2083606719971,14.209056854248,14.2097501754761,14.2104473114014,14.2111387252808,14.2118358612061,14.2125310897827,14.2132196426392,14.2139177322388,14.2146139144897,14.2153062820435,14.2160024642944,14.2166996002197,14.2173929214478,14.218090057373,14.2187814712524,14.2194786071777,14.2201766967773,14.2208690643311,14.221568107605,14.2222604751587,14.2229566574097,14.2236528396606,14.2243490219116,14.225043296814,14.2257404327393,14.2264347076416,14.2271327972412,14.2278308868408,14.2285232543945,14.2292222976685,14.2299213409424,14.2306146621704,14.2313108444214,14.2320079803467,14.232705116272,14.2334022521973,14.2340965270996,14.2347946166992,14.2354936599731,14.2361888885498,14.2368879318237,14.2375841140747,14.2382802963257,14.2389802932739,14.2396774291992,14.2403717041016,14.2410688400269,14.2417669296265,14.2424650192261,14.2431640625,14.2438592910767,14.2445583343506,14.2452573776245,14.2459545135498,14.246654510498,14.2473516464233,14.2480487823486,14.2487497329712,14.2494421005249,14.2501430511475,14.2508420944214,14.2515411376953,14.2522401809692,14.2529401779175,14.2536373138428,14.254337310791,14.2550373077393,14.2557325363159,14.2564334869385,14.2571315765381,14.2578296661377,14.2585315704346,14.2592277526855,14.2599277496338,14.260630607605,14.2613277435303,14.2620277404785,14.2627286911011,14.2634267807007,14.2641277313232,14.2648258209229,14.2655277252197,14.2662267684937,14.2669239044189,14.2676258087158,14.2683258056641,14.2690238952637,14.2697267532349,14.2704277038574,14.2711296081543,14.2718305587769,14.2725267410278,14.2732315063477,14.2739305496216,14.2746305465698,14.275333404541,14.2760334014893,14.2767305374146,14.2774343490601,14.2781391143799,14.2788372039795,14.2795391082764,14.2802381515503,14.2809400558472,14.2816457748413,14.2823457717896,14.2830457687378,14.2837524414062,14.2844495773315,14.2851505279541,14.285852432251,14.2865533828735,14.2872591018677,14.2879581451416,14.1616554260254,14.1453647613525,14.129111289978,14.1128950119019,14.096715927124,14.0805740356445,14.0644683837891,14.0483999252319,14.0323686599731,14.0163736343384,14.0004148483276,13.9844923019409,13.9686059951782,13.9527559280396,13.9369411468506,13.9211626052856,13.9054203033447,13.8897132873535,13.874041557312,13.8584051132202,13.8428039550781,13.8272380828857,13.8117065429688,13.7962102890015,13.7807483673096,13.7653217315674,13.7499294281006,13.7345714569092,13.7192468643188,12.9042625427246,12.7402725219727,12.5803985595703,12.4244871139526,12.2723922729492,12.1239767074585,11.9791078567505,11.8376607894897,11.6995143890381,11.5645551681519,11.432674407959,11.4018888473511,11.3811149597168,11.3604164123535,11.3397922515869,11.3192434310913,11.2987689971924,11.2783689498901,11.2580423355103,11.2377882003784,11.2176074981689,11.1974983215332,11.1774616241455,11.1574964523315,11.1376028060913,11.1177797317505,11.0980262756348,11.0783443450928,11.0587310791016,11.0391874313354,11.0197124481201,11.0003070831299,10.9809684753418,10.9616985321045,10.9424962997437,10.923360824585,10.9042930603027,10.885290145874,10.8663549423218,10.847484588623,10.8286800384521,10.8099403381348,10.7912654876709,10.7726545333862,10.7541084289551,10.7356252670288,10.7172060012817,10.6988506317139,10.6805572509766,10.6623258590698,10.644157409668,10.6260499954224,10.6080045700073,10.5900201797485,10.5718860626221,10.5536403656006,10.5354585647583,10.5173397064209,10.4992818832397,10.4812870025635,10.4633531570435,10.4454803466797,10.4276685714722,10.4099178314209,10.3922271728516,10.3745965957642,10.3570261001587,10.3395137786865,10.3220615386963,10.3046684265137,10.2873334884644,10.2700567245483,10.2528381347656,10.2356767654419,10.2185726165771,10.2015256881714,10.1845359802246,10.1676025390625,10.1507253646851,10.1339044570923,10.1171379089355,10.1004276275635,10.0837726593018,10.0671720504761,10.0506267547607,10.0341348648071,10.0176973342896,10.001314163208,9.98498344421387,9.96870708465576,9.95248317718506,9.93631172180176,9.92019271850586,9.90412616729736,9.88811206817627,9.87214851379395,9.85623741149902,9.84037685394287,9.8245677947998,9.80996227264404,9.79629325866699,9.78266143798828,9.76906871795654,9.75551319122314,9.7419958114624,9.728515625,9.71507167816162,9.69758987426758,9.67659282684326,9.65568542480469,9.63486862182617,9.61414051055908,9.59350299835205,9.57295227050781,9.552490234375,9.5321159362793,9.51182746887207,9.49162578582764,9.47150897979736,9.45147800445557,9.43153095245361,9.41166877746582,9.39188957214355,9.37219333648682
12.7766752243042,12.9123573303223,14.0474433898926,14.0481204986572,14.0487995147705,14.0494804382324,14.0501527786255,14.050835609436,14.0515146255493,14.0521945953369,14.0528707504272,14.0535516738892,14.0542316436768,14.0549125671387,14.0555906295776,14.0562715530396,14.0569505691528,14.0576295852661,14.0583114624023,14.0589847564697,14.0596675872803,14.0603475570679,14.0610275268555,14.0617084503174,14.0623893737793,14.0630674362183,14.0637512207031,14.0644330978394,14.0651092529297,14.0657911300659,14.0664710998535,14.0671539306641,14.0678300857544,14.0685110092163,14.0691919326782,14.0698757171631,14.0705537796021,14.0712385177612,14.0719165802002,14.0725994110107,14.073281288147,14.0739612579346,14.0746440887451,14.0753269195557,14.0760049819946,14.0766849517822,14.0773696899414,14.0780506134033,14.0787324905396,14.0794143676758,14.0800933837891,14.0807790756226,14.0814580917358,14.0821418762207,14.0828247070312,14.0835056304932,14.084189414978,14.0848731994629,14.0855484008789,14.0862369537354,14.0869188308716,14.0876007080078,14.0882835388184,14.088963508606,14.0896463394165,14.0903329849243,14.0910139083862,14.0916976928711,14.092381477356,14.0930633544922,14.0937480926514,14.0944299697876,14.0951128005981,14.0957956314087,14.0964784622192,14.0971612930298,14.0978450775146,14.0985288619995,14.0992164611816,14.0998973846436,14.1005821228027,14.1012668609619,14.1019525527954,14.1026315689087,14.1033182144165,14.1039981842041,14.1046838760376,14.1053714752197,14.1060514450073,14.1067390441895,14.1074237823486,14.1081085205078,14.108793258667,14.1094789505005,14.110161781311,14.1108474731445,14.1115274429321,14.1122140884399,14.1129007339478,14.1135854721069,14.1142730712891,14.1149568557739,14.1156425476074,14.1163272857666,14.1170129776001,14.1176986694336,14.1183853149414,14.119068145752,14.1197576522827,14.1204385757446,14.1211233139038,14.1218109130859,14.1224985122681,14.1231832504272,14.1238689422607,14.1245574951172,14.1252431869507,14.1259298324585,14.1266164779663,14.1273031234741,14.1279897689819,14.1286745071411,14.1293592453003,14.1300468444824,14.1307353973389,14.1314210891724,14.1321096420288,14.1327924728394,14.1334819793701,14.1341686248779,14.1348552703857,14.1355457305908,14.13623046875,14.1369180679321,14.1376066207886,14.1382913589478,14.1389799118042,14.139669418335,14.1403551101685,14.1410446166992,14.1417284011841,14.1424188613892,14.1431093215942,14.1437940597534,14.1444845199585,14.1451730728149,14.1458616256714,14.1465473175049,14.1472368240356,14.1479234695435,14.1486129760742,14.149299621582,14.1499900817871,14.1506805419922,14.1513652801514,14.1520566940308,14.1527481079102,14.1534366607666,14.154125213623,14.1548147201538,14.1554985046387,14.1561908721924,14.1568784713745,14.1575689315796,14.1582593917847,14.1589479446411,14.1596384048462,14.1603307723999,14.1610193252563,14.1617088317871,14.1624011993408,14.1630878448486,14.1637773513794,14.1644649505615,14.1651554107666,14.1658458709717,14.1665372848511,14.1672258377075,14.1679210662842,14.1686096191406,14.1693019866943,14.1699914932251,14.1706819534302,14.1713714599609,14.172061920166,14.1727561950684,14.1734437942505,14.1741323471069,14.1748237609863,14.175518989563,14.1762084960938,14.1769008636475,14.1775932312012,14.1782836914062,14.1789770126343,14.1796646118164,14.1485233306885,14.1322622299194,14.1160383224487,14.0998525619507,14.0837030410767,14.067590713501,14.0515155792236,14.0354766845703,14.019474029541,14.0035085678101,13.9875793457031,13.9716854095459,13.955828666687,13.9400072097778,13.9242219924927,13.9084720611572,13.8927583694458,13.8770799636841,13.8614358901978,13.8458280563354,13.8302555084229,13.8147172927856,13.7992143630981,13.783745765686,13.7683124542236,13.7529134750366,13.737548828125,13.7222185134888,13.7069215774536,13.0170917510986,12.8502397537231,12.687611579895,12.5290479660034,12.3743991851807,12.223521232605,12.0762777328491,11.9325399398804,11.7921838760376,11.6550903320312,11.5211486816406,11.4125366210938,11.3917236328125,11.3709869384766,11.3503246307373,11.329737663269,11.3092250823975,11.2887868881226,11.2684230804443,11.2481317520142,11.2279138565063,11.2077674865723,11.1876945495605,11.1676921844482,11.147762298584,11.1279029846191,11.1081142425537,11.0883960723877,11.0687475204468,11.049168586731,11.0296583175659,11.010217666626,10.9908447265625,10.9715404510498,10.9523029327393,10.9331331253052,10.9140310287476,10.8949947357178,10.8760251998901,10.8571214675903,10.8382835388184,10.8195104598999,10.800802230835,10.7821588516235,10.7635803222656,10.7450647354126,10.7266130447388,10.7082252502441,10.6898994445801,10.6716365814209,10.6534357070923,10.6352977752686,10.6172208786011,10.5992050170898,10.5812501907349,10.5633563995361,10.5454092025757,10.5272560119629,10.5091638565063,10.4911346435547,10.4731674194336,10.4552612304688,10.4374160766602,10.4196319580078,10.4019088745117,10.3842449188232,10.366641998291,10.3490982055664,10.3316135406494,10.3141870498657,10.296820640564,10.2795114517212,10.262261390686,10.2450685501099,10.227933883667,10.2108554840088,10.1938343048096,10.1768703460693,10.1599617004395,10.1431102752686,10.126314163208,10.1095733642578,10.092887878418,10.0762577056885,10.059681892395,10.0431604385376,10.0266933441162,10.0102806091309,9.99392127990723,9.97761535644531,9.9613618850708,9.94516181945801,9.92901515960693,9.91291999816895,9.89687633514404,9.88088512420654,9.86494541168213,9.8490571975708,9.83322048187256,9.81743335723877,9.80210781097412,9.78846073150635,9.77485179901123,9.76128005981445,9.74774646759033,9.73425006866455,9.72079086303711,9.70736980438232,9.69398498535156,9.68063640594482,9.66701507568359,9.64614963531494,9.62537384033203,9.60468673706055,9.5840892791748,9.56357955932617,9.54315757751465,9.52282238006592,9.50257396697998,9.4824104309082,9.46233367919922,9.44234085083008,9.4224328994751,9.40260887145996,9.38286781311035,9.36320877075195,9.34363269805908
13.943416595459,13.9440870285034,13.9447555541992,13.945424079895,13.9460926055908,13.9467639923096,13.9474306106567,13.9481000900269,13.948766708374,13.9494400024414,13.9501104354858,13.9507751464844,13.9514455795288,13.9521169662476,13.9527826309204,13.9534540176392,13.9541263580322,13.954794883728,13.9554643630981,13.9561319351196,13.956805229187,13.9574747085571,13.9581432342529,13.9588165283203,13.9594850540161,13.9601535797119,13.9608249664307,13.9614973068237,13.9621667861938,13.962836265564,13.9635057449341,13.9641761779785,13.9648494720459,13.9655208587646,13.9661912918091,13.9668626785278,13.9675312042236,13.9682035446167,13.9688749313354,13.9695444107056,13.9702177047729,13.9708871841431,13.9715604782104,13.9722309112549,13.9729022979736,13.973575592041,13.9742469787598,13.9749155044556,13.9755907058716,13.9762630462646,13.9769325256348,13.9776048660278,13.9782752990723,13.9789485931396,13.979621887207,13.9802932739258,13.9809675216675,13.9816389083862,13.982310295105,13.982985496521,13.9836578369141,13.9843301773071,13.9850025177002,13.9856700897217,13.9863433837891,13.9870195388794,13.9876909255981,13.9883651733398,13.9890394210815,13.9897108078003,13.9903860092163,13.9910621643066,13.9917316436768,13.9924068450928,13.9930772781372,13.9937505722046,13.9944248199463,13.9950952529907,13.9957695007324,13.9964475631714,13.9971189498901,13.9977941513062,13.9984693527222,13.9991426467896,13.9998188018799,14.0004920959473,14.0011653900146,14.0018424987793,14.0025100708008,14.0031871795654,14.0038623809814,14.0045366287231,14.0052118301392,14.0058879852295,14.0065603256226,14.0072364807129,14.0079097747803,14.0085868835449,14.0092639923096,14.009934425354,14.010612487793,14.0112838745117,14.0119590759277,14.0126342773438,14.0133094787598,14.0139856338501,14.0146617889404,14.0153350830078,14.0160121917725,14.0166921615601,14.0173635482788,14.0180406570435,14.0187187194824,14.0193939208984,14.0200691223145,14.0207414627075,14.0214176177979,14.0220966339111,14.0227699279785,14.0234498977661,14.0241270065308,14.0248012542725,14.0254793167114,14.0261573791504,14.0268325805664,14.0275106430054,14.0281839370728,14.0288600921631,14.0295391082764,14.0302124023438,14.0308923721313,14.031569480896,14.032247543335,14.0329246520996,14.0336027145386,14.0342788696289,14.0349569320679,14.0356330871582,14.0363121032715,14.0369920730591,14.0376653671265,14.0383453369141,14.0390224456787,14.0397005081177,14.0403776168823,14.0410594940186,14.0417346954346,14.0424137115479,14.0430927276611,14.0437717437744,14.044451713562,14.0451278686523,14.045804977417,14.0464820861816,14.0471601486206,14.0478410720825,14.0485191345215,14.0491981506348,14.049880027771,14.0505561828613,14.0512351989746,14.0519151687622,14.0525951385498,14.0532751083374,14.0539560317993,14.054630279541,14.0553112030029,14.0559902191162,14.0566682815552,14.0573501586914,14.058030128479,14.0587091445923,14.0593919754028,14.0600690841675,14.0607500076294,14.061429977417,14.0621109008789,14.0627927780151,14.0634708404541,14.0641498565674,14.0648317337036,14.0655078887939,14.0661907196045,14.066873550415,14.0675506591797,14.0682344436646,14.0689153671265,14.0695962905884,14.0702772140503,14.0709590911865,14.0716381072998,14.0723171234131,14.0729970932007,14.0736799240112,14.0743627548218,14.0750427246094,14.0757265090942,14.0707139968872,14.0546312332153,14.0385856628418,14.0225763320923,14.0066032409668,13.9906673431396,13.9747667312622,13.9589023590088,13.9430742263794,13.927282333374,13.9115257263184,13.8958044052124,13.8801193237305,13.8644685745239,13.8488540649414,13.8332738876343,13.8177299499512,13.8022193908691,13.7867450714111,13.7713041305542,13.755898475647,13.7405271530151,13.7251901626587,13.7098875045776,13.6946182250977,13.6793832778931,12.962121963501,12.7966680526733,12.635383605957,12.4781150817871,12.3247127532959,12.1750364303589,12.0289525985718,11.8863325119019,11.7470541000366,11.6110029220581,11.478066444397,11.4023523330688,11.3815765380859,11.360876083374,11.3402509689331,11.3197011947632,11.2992248535156,11.2788228988647,11.2584943771362,11.2382383346558,11.2180557250977,11.1979455947876,11.1779069900513,11.157940864563,11.1380453109741,11.1182203292847,11.0984659194946,11.078782081604,11.0591669082642,11.0396223068237,11.0201463699341,11.0007381439209,10.9813985824585,10.9621276855469,10.9429235458374,10.9237871170044,10.9047164916992,10.8857135772705,10.8667755126953,10.8479042053223,10.8290977478027,10.810357093811,10.7916803359985,10.7730684280396,10.7545204162598,10.7360363006592,10.7176160812378,10.6992588043213,10.6809635162354,10.6627311706543,10.6445608139038,10.6264524459839,10.6084060668945,10.5904207229614,10.5724954605103,10.5546312332153,10.5368270874023,10.5190649032593,10.5010023117065,10.4830007553101,10.4650611877441,10.4471826553345,10.4293651580811,10.4116086959839,10.3939123153687,10.3762760162354,10.358699798584,10.3411827087402,10.3237237930298,10.3063249588013,10.2889842987061,10.2717018127441,10.2544775009155,10.2373113632202,10.2202014923096,10.2031497955322,10.1861543655396,10.1692152023315,10.1523332595825,10.1355066299438,10.1187353134155,10.1020193099976,10.0853595733643,10.0687532424927,10.0522022247314,10.0357055664062,10.0192632675171,10.0028743743896,9.98653888702393,9.97025775909424,9.95402812957764,9.93785190582275,9.92172813415527,9.9056568145752,9.8896369934082,9.87366962432861,9.85775279998779,9.84188747406006,9.82607364654541,9.81031036376953,9.79459762573242,9.78064155578613,9.76705360412598,9.75350379943848,9.73999214172363,9.72651672363281,9.71307945251465,9.69967842102051,9.68631553649902,9.67298793792725,9.65969848632812,9.64644432067871,9.63322734832764,9.6158971786499,9.59525108337402,9.57469367980957,9.55422401428223,9.53384208679199,9.51354694366455,9.49333763122559,9.4732141494751,9.45317554473877,9.4332218170166,9.41335201263428,9.39356517791748,9.37386226654053,9.35424137115479,9.33470249176025,9.31524562835693
13.8422412872314,13.842903137207,13.8435621261597,13.8442182540894,13.844877243042,13.845534324646,13.8461971282959,13.8468570709229,13.8475151062012,13.8481760025024,13.8488368988037,13.8494958877563,13.8501539230347,13.8508157730103,13.8514757156372,13.8521347045898,13.8527917861938,13.8534545898438,13.8541145324707,13.854772567749,13.8554363250732,13.8560972213745,13.8567562103271,13.8574171066284,13.8580760955811,13.8587350845337,13.8593978881836,13.8600578308105,13.8607177734375,13.8613777160645,13.8620386123657,13.8627023696899,13.8633632659912,13.8640222549438,13.8646841049194,13.865345954895,13.8660049438477,13.8666677474976,13.8673305511475,13.8679904937744,13.8686532974243,13.8693141937256,13.8699750900269,13.8706388473511,13.8712978363037,13.8719596862793,13.8726243972778,13.8732833862305,13.8739490509033,13.8746089935303,13.8752717971802,13.8759355545044,13.8765964508057,13.8772602081299,13.8779239654541,13.8785791397095,13.879243850708,13.8799095153809,13.8805713653564,13.8812341690063,13.8818941116333,13.8825597763062,13.8832235336304,13.8838844299316,13.8845481872559,13.8852119445801,13.8858766555786,13.8865385055542,13.8872003555298,13.8878631591797,13.8885278701782,13.8891878128052,13.8898544311523,13.8905172348022,13.8911809921265,13.891845703125,13.8925123214722,13.8931741714478,13.8938388824463,13.8945035934448,13.8951635360718,13.8958292007446,13.8964920043945,13.8971548080444,13.8978242874146,13.8984851837158,13.89914894104,13.8998165130615,13.9004812240601,13.9011459350586,13.9018106460571,13.90247631073,13.9031391143799,13.9038019180298,13.904468536377,13.9051342010498,13.905797958374,13.9064655303955,13.9071292877197,13.9077939987183,13.9084587097168,13.9091272354126,13.9097900390625,13.9104585647583,13.9111213684082,13.9117879867554,13.9124507904053,13.9131183624268,13.9137849807739,13.9144496917725,13.915114402771,13.9157819747925,13.9164505004883,13.9171123504639,13.917781829834,13.9184474945068,13.919114112854,13.9197835922241,13.9204444885254,13.9211111068726,13.921778678894,13.9224433898926,13.9231109619141,13.9237794876099,13.9244451522827,13.9251136779785,13.9257764816284,13.9264459609985,13.927116394043,13.9277801513672,13.9284505844116,13.9291181564331,13.9297790527344,13.9304475784302,13.9311189651489,13.9317846298218,13.9324531555176,13.9331188201904,13.9337882995605,13.9344549179077,13.9351224899292,13.9357929229736,13.9364604949951,13.9371280670166,13.9377956390381,13.9384641647339,13.9391298294067,13.9397993087769,13.9404678344727,13.9411373138428,13.9418077468872,13.9424743652344,13.9431447982788,13.9438123703003,13.9444799423218,13.9451513290405,13.9458198547363,13.9464855194092,13.9471549987793,13.9478235244751,13.9484930038452,13.9491634368896,13.9498300552368,13.9505033493042,13.951171875,13.9518394470215,13.9525108337402,13.953182220459,13.9538507461548,13.9545230865479,13.9551858901978,13.9558591842651,13.9565286636353,13.9571962356567,13.9578695297241,13.9585399627686,13.9592084884644,13.9598798751831,13.9605484008789,13.9612197875977,13.9618921279907,13.9625616073608,13.9632339477539,13.9639043807983,13.9645719528198,13.9652452468872,13.9659156799316,13.9665842056274,13.9672555923462,13.9679269790649,13.968599319458,13.9692716598511,13.9699411392212,13.9706134796143,13.9712867736816,13.9719543457031,13.9726247787476,13.9732990264893,13.9739694595337,13.9746408462524,13.9619779586792,13.9461431503296,13.9303436279297,13.9145803451538,13.8988523483276,13.8831596374512,13.8675031661987,13.8518810272217,13.8362951278687,13.820743560791,13.8052263259888,13.7897453308105,13.7742977142334,13.758885383606,13.7435073852539,13.7281637191772,13.712854385376,13.6975784301758,13.682336807251,13.6671295166016,13.0759696960449,12.9076147079468,12.7435398101807,12.5835847854614,12.4275941848755,12.2754240036011,12.1269359588623,11.9819965362549,11.8404808044434,11.7022695541382,11.5672473907471,11.4353055953979,11.3921871185303,11.3714475631714,11.3507843017578,11.3301954269409,11.309681892395,11.2892417907715,11.2688760757446,11.2485828399658,11.2283630371094,11.208215713501,11.1881408691406,11.168137550354,11.1482057571411,11.1283445358276,11.1085548400879,11.0888347625732,11.0691843032837,11.0496034622192,11.0300922393799,11.0106496810913,10.9912757873535,10.9719696044922,10.9527311325073,10.9335594177246,10.9144554138184,10.8954181671143,10.876446723938,10.8575420379639,10.8387022018433,10.8199281692505,10.8012189865112,10.7825736999512,10.7639932632446,10.7454767227173,10.7270240783691,10.7086334228516,10.6903066635132,10.6720428466797,10.6538410186768,10.6357011795044,10.6176223754883,10.5996055603027,10.5816497802734,10.5637550354004,10.5459203720093,10.5281457901001,10.5104312896729,10.4927759170532,10.4748792648315,10.4569673538208,10.4391164779663,10.4213266372681,10.4035968780518,10.3859281539917,10.3683185577393,10.3507690429688,10.3332786560059,10.3158473968506,10.2984743118286,10.2811603546143,10.2639045715332,10.2467060089111,10.2295656204224,10.2124824523926,10.1954555511475,10.1784858703613,10.1615724563599,10.1447153091431,10.1279134750366,10.1111679077148,10.0944776535034,10.077841758728,10.061261177063,10.0447340011597,10.0282621383667,10.0118436813354,9.99547958374023,9.97916793823242,9.96291065216064,9.94670486450195,9.93055248260498,9.91445255279541,9.89840507507324,9.88240814208984,9.86646366119385,9.85057067871094,9.83472919464111,9.81893730163574,9.80319690704346,9.78750705718994,9.77283477783203,9.75926876068115,9.74573993682861,9.73224925994873,9.71879577636719,9.70537948608398,9.69200038909912,9.6786584854126,9.66535186767578,9.65208339691162,9.63885021209717,9.62565326690674,9.61249256134033,9.59936809539795,9.58583450317383,9.56531715393066,9.54488754272461,9.52454566955566,9.5042896270752,9.4841194152832,9.46403503417969,9.44403553009033,9.42411994934082,9.40428829193115,9.38454055786133,9.36487483978271,9.34529209136963,9.32579040527344,9.30636978149414,9.28703022003174
13.7425222396851,13.7431716918945,13.7438220977783,13.7444725036621,13.7451229095459,13.7457704544067,13.7464218139648,13.7470731735229,13.7477188110352,13.7483711242676,13.7490234375,13.7496690750122,13.7503223419189,13.7509689331055,13.7516222000122,13.752272605896,13.7529239654541,13.7535753250122,13.7542266845703,13.7548751831055,13.7555265426636,13.756175994873,13.7568254470825,13.7574777603149,13.7581281661987,13.7587814331055,13.7594318389893,13.760082244873,13.7607336044312,13.7613878250122,13.7620363235474,13.7626914978027,13.7633409500122,13.7639932632446,13.7646427154541,13.7652921676636,13.7659454345703,13.7665996551514,13.7672472000122,13.7679014205933,13.7685556411743,13.7692041397095,13.7698583602905,13.7705106735229,13.7711629867554,13.7718162536621,13.7724685668945,13.7731189727783,13.7737722396851,13.7744226455688,13.7750768661499,13.775731086731,13.7763833999634,13.7770376205444,13.7776899337769,13.7783422470093,13.7789945602417,13.7796478271484,13.7803010940552,13.7809572219849,13.7816047668457,13.7822589874268,13.7829132080078,13.7835645675659,13.7842197418213,13.7848749160767,13.7855272293091,13.7861824035645,13.7868356704712,13.7874917984009,13.7881450653076,13.7887992858887,13.7894496917725,13.7901039123535,13.7907590866089,13.7914133071899,13.7920684814453,13.7927207946777,13.7933759689331,13.7940292358398,13.7946853637695,13.7953414916992,13.7959928512573,13.7966499328613,13.7973031997681,13.7979555130005,13.7986125946045,13.7992677688599,13.7999200820923,13.8005790710449,13.8012313842773,13.801887512207,13.802544593811,13.8031978607178,13.8038549423218,13.8045120239258,13.8051671981812,13.8058214187622,13.8064765930176,13.80712890625,13.8077878952026,13.8084402084351,13.8090963363647,13.8097562789917,13.8104095458984,13.8110666275024,13.8117265701294,13.8123817443848,13.8130359649658,13.8136940002441,13.8143491744995,13.8150053024292,13.8156576156616,13.8163175582886,13.8169736862183,13.8176298141479,13.818286895752,13.818943977356,13.8195991516113,13.8202600479126,13.8209180831909,13.8215732574463,13.8222322463989,13.8228874206543,13.823540687561,13.824200630188,13.8248567581177,13.8255138397217,13.8261737823486,13.826828956604,13.8274898529053,13.8281478881836,13.828803062439,13.8294610977173,13.8301200866699,13.8307762145996,13.8314390182495,13.8320922851562,13.8327493667603,13.8334102630615,13.8340644836426,13.8347253799438,13.8353862762451,13.8360414505005,13.8367004394531,13.8373594284058,13.8380184173584,13.8386812210083,13.839334487915,13.839994430542,13.8406524658203,13.8413095474243,13.8419733047485,13.8426313400269,13.8432865142822,13.8439483642578,13.8446073532104,13.8452663421631,13.845929145813,13.846586227417,13.8472461700439,13.8479061126709,13.8485612869263,13.8492250442505,13.8498859405518,13.8505439758301,13.8512029647827,13.8518619537354,13.8525247573853,13.8531837463379,13.8538436889648,13.8545036315918,13.8551635742188,13.85582447052,13.8564853668213,13.8571472167969,13.8578023910522,13.8584632873535,13.8591260910034,13.8597850799561,13.860447883606,13.8611078262329,13.8617706298828,13.8624305725098,13.863091468811,13.8637552261353,13.8644142150879,13.8650751113892,13.8657369613647,13.8663959503174,13.8670587539673,13.8677206039429,13.8683805465698,13.869044303894,13.869704246521,13.8703651428223,13.8710289001465,13.8716897964478,13.8723516464233,13.8730163574219,13.8736753463745,13.8743381500244,13.8705387115479,13.8549098968506,13.839316368103,13.8237581253052,13.808235168457,13.7927465438843,13.7772922515869,13.7618732452393,13.746488571167,13.7311382293701,13.7158222198486,13.7005395889282,13.6852922439575,13.6700782775879,13.6548976898193,13.1918344497681,13.0205020904541,12.8535633087158,12.6908521652222,12.5322074890137,12.3774814605713,12.2265281677246,12.079213142395,11.9354057312012,11.7949829101562,11.6578245162964,11.5238199234009,11.4028167724609,11.3820390701294,11.3613367080688,11.3407096862793,11.3201580047607,11.2996797561646,11.2792768478394,11.2589464187622,11.2386894226074,11.2185049057007,11.198392868042,11.1783533096313,11.1583843231201,11.1384878158569,11.1186609268188,11.0989055633545,11.0792198181152,11.0596036911011,11.040057182312,11.0205793380737,11.0011701583862,10.9818286895752,10.9625558853149,10.9433507919312,10.9242124557495,10.90514087677,10.8861360549927,10.8671970367432,10.8483238220215,10.8295164108276,10.8107738494873,10.7920961380005,10.7734823226929,10.7549333572388,10.7364473342896,10.7180261611938,10.6996669769287,10.6813707351685,10.6631364822388,10.644965171814,10.6268558502197,10.6088075637817,10.5908203125,10.5728940963745,10.5550289154053,10.537223815918,10.5194778442383,10.5017929077148,10.4841661453247,10.4665985107422,10.4488849639893,10.4310626983643,10.4132995605469,10.3955974578857,10.3779554367065,10.3603734970093,10.3428506851196,10.3253870010376,10.3079824447632,10.2906360626221,10.2733488082886,10.2561187744141,10.2389469146729,10.2218313217163,10.2047739028931,10.1877737045288,10.1708288192749,10.15394115448,10.1371088027954,10.1203327178955,10.103611946106,10.0869464874268,10.0703353881836,10.0537796020508,10.0372772216797,10.0208292007446,10.0044355392456,9.9880952835083,9.97180843353271,9.95557403564453,9.93939304351807,9.923264503479,9.90718746185303,9.89116287231445,9.87519073486328,9.85926914215088,9.84339904785156,9.82758045196533,9.81181144714355,9.79609394073486,9.78042697906494,9.76503944396973,9.75149536132812,9.73798847198486,9.72451972961426,9.71108722686768,9.69769287109375,9.68433475494385,9.67101287841797,9.65772819519043,9.64447975158691,9.63126754760742,9.61809158325195,9.60495185852051,9.59184741973877,9.57877922058105,9.56574726104736,9.55274963378906,9.535569190979,9.51526641845703,9.49504947662354,9.47491931915283,9.45487308502197,9.43491268157959,9.41503524780273,9.39524269104004,9.37553215026855,9.3559045791626,9.33635807037354,9.31689453125,9.29751110076904,9.27820777893066,9.25898551940918
13.6442308425903,13.644871711731,13.6455068588257,13.6461486816406,13.6467943191528,13.6474304199219,13.6480722427368,13.6487150192261,13.6493558883667,13.649995803833,13.6506395339966,13.6512775421143,13.6519212722778,13.6525564193726,13.6531982421875,13.6538429260254,13.6544828414917,13.6551246643066,13.6557674407959,13.6564073562622,13.6570482254028,13.6576910018921,13.6583318710327,13.6589736938477,13.6596145629883,13.6602592468262,13.6608982086182,13.6615371704102,13.6621828079224,13.6628246307373,13.6634645462036,13.6641082763672,13.6647520065308,13.6653919219971,13.666036605835,13.6666774749756,13.6673192977905,13.6679639816284,13.6686058044434,13.6692476272583,13.6698904037476,13.6705303192139,13.6711769104004,13.6718196868896,13.6724605560303,13.6731042861938,13.6737489700317,13.6743936538696,13.6750345230103,13.6756763458252,13.6763219833374,13.6769647598267,13.6776037216187,13.6782503128052,13.6788969039917,13.679536819458,13.6801805496216,13.6808252334595,13.6814699172974,13.6821146011353,13.6827564239502,13.6834011077881,13.6840467453003,13.6846895217896,13.6853322982788,13.6859788894653,13.6866188049316,13.6872663497925,13.6879072189331,13.6885538101196,13.6891984939575,13.6898441314697,13.6904888153076,13.6911344528198,13.6917772293091,13.6924257278442,13.6930694580078,13.6937122344971,13.6943588256836,13.6949996948242,13.6956472396851,13.6962919235229,13.6969366073608,13.697585105896,13.6982297897339,13.6988725662231,13.6995182037354,13.7001647949219,13.7008113861084,13.7014579772949,13.7021017074585,13.7027463912964,13.7033929824829,13.7040386199951,13.704686164856,13.7053318023682,13.7059774398804,13.7066259384155,13.7072687149048,13.7079181671143,13.7085647583008,13.7092084884644,13.7098560333252,13.710503578186,13.7111482620239,13.7117929458618,13.712441444397,13.7130870819092,13.7137355804443,13.7143821716309,13.7150278091431,13.7156782150269,13.7163248062134,13.7169713973999,13.7176189422607,13.7182674407959,13.7189121246338,13.7195596694946,13.7202053070068,13.720853805542,13.7215003967285,13.722149848938,13.7227993011475,13.723443031311,13.7240934371948,13.7247438430786,13.7253885269165,13.7260360717773,13.7266874313354,13.7273330688477,13.7279815673828,13.728627204895,13.7292766571045,13.729926109314,13.7305727005005,13.7312231063843,13.7318735122681,13.7325210571289,13.7331686019897,13.7338199615479,13.734468460083,13.7351140975952,13.7357597351074,13.7364120483398,13.7370615005493,13.7377080917358,13.7383584976196,13.7390089035034,13.7396564483643,13.740306854248,13.7409582138062,13.7416067123413,13.7422552108765,13.7429046630859,13.7435531616211,13.7442026138306,13.7448530197144,13.7455062866211,13.7461566925049,13.7468032836914,13.7474546432495,13.7481060028076,13.7487573623657,13.7494058609009,13.750054359436,13.7507066726685,13.7513589859009,13.7520065307617,13.7526559829712,13.753306388855,13.7539567947388,13.7546081542969,13.7552614212036,13.7559099197388,13.7565622329712,13.7572107315063,13.7578630447388,13.7585153579712,13.7591648101807,13.7598152160645,13.7604684829712,13.761116027832,13.7617692947388,13.7624206542969,13.763072013855,13.7637233734131,13.7643756866455,13.7650279998779,13.7656803131104,13.7663297653198,13.7669830322266,13.7676362991333,13.7682867050171,13.7689371109009,13.7695913314819,13.77024269104,13.7708950042725,13.7715463638306,13.772198677063,13.7728509902954,13.7735042572021,13.7741565704346,13.7748098373413,13.7754640579224,13.7761173248291,13.7648620605469,13.7494707107544,13.7341136932373,13.7187910079956,13.7035026550293,13.6882476806641,13.6730270385742,13.6578407287598,13.6426877975464,13.6275682449341,13.1353826522827,12.965503692627,12.7999639511108,12.6385974884033,12.4812488555908,12.3277702331543,12.1780204772949,12.0318651199341,11.8891763687134,11.7498321533203,11.6137161254883,11.4807186126709,11.3926496505737,11.3719091415405,11.3512439727783,11.3306531906128,11.3101377487183,11.2896966934204,11.2693281173706,11.2490339279175,11.2288131713867,11.2086639404297,11.1885871887207,11.1685819625854,11.1486492156982,11.1287860870361,11.1089944839478,11.0892734527588,11.0696210861206,11.0500392913818,11.0305261611938,11.0110816955566,10.9917068481445,10.9723987579346,10.9531583786011,10.9339866638184,10.9148807525635,10.8958415985107,10.8768692016602,10.8579626083374,10.8391218185425,10.8203458786011,10.8016347885132,10.7829885482788,10.7644062042236,10.745888710022,10.7274341583252,10.7090425491333,10.6907148361206,10.6724491119385,10.6542453765869,10.6361045837402,10.6180248260498,10.6000061035156,10.582049369812,10.5641527175903,10.5463171005249,10.5285406112671,10.5108251571655,10.4931688308716,10.4755706787109,10.4580326080322,10.4405527114868,10.423020362854,10.4052858352661,10.3876104354858,10.3699960708618,10.3524408340454,10.3349447250366,10.3175077438354,10.3001298904419,10.2828092575073,10.2655477523804,10.2483444213867,10.2311983108521,10.2141094207764,10.1970777511597,10.1801023483276,10.1631832122803,10.1463212966919,10.1295137405396,10.1127624511719,10.0960674285889,10.0794258117676,10.062840461731,10.0463085174561,10.0298309326172,10.0134077072144,9.99703884124756,9.98072147369385,9.96445846557617,9.94824886322021,9.93209171295166,9.91598606109619,9.89993286132812,9.88393211364746,9.86798286437988,9.85208511352539,9.83623790740967,9.82044219970703,9.80469608306885,9.78900146484375,9.77335643768311,9.75776195526123,9.74373531341553,9.73024940490723,9.71680164337158,9.70339107513428,9.690016746521,9.67668056488037,9.66337966918945,9.65011596679688,9.63688850402832,9.62369728088379,9.61054229736328,9.59742259979248,9.5843391418457,9.57129096984863,9.55827903747559,9.54530143737793,9.5323600769043,9.51945304870605,9.50600624084473,9.4858283996582,9.46573734283447,9.44573020935059,9.42580795288086,9.40596866607666,9.38621425628662,9.36654090881348,9.34695148468018,9.32744312286377,9.30801582336426,9.28866958618164,9.2694034576416,9.25021648406982,9.23110961914062
13.5473346710205,13.5479650497437,13.5485982894897,13.5492286682129,13.549861907959,13.5504903793335,13.551121711731,13.5517559051514,13.5523843765259,13.5530166625977,13.5536489486694,13.5542812347412,13.5549144744873,13.5555477142334,13.5561780929565,13.5568113327026,13.5574417114258,13.5580759048462,13.5587072372437,13.5593357086182,13.5599708557129,13.5606002807617,13.5612354278564,13.5618715286255,13.5625009536743,13.5631341934204,13.5637674331665,13.564398765564,13.5650329589844,13.5656671524048,13.5662984848022,13.5669298171997,13.5675621032715,13.5681972503662,13.568829536438,13.5694627761841,13.5700988769531,13.5707321166992,13.5713624954224,13.5719995498657,13.5726337432861,13.5732650756836,13.5739002227783,13.5745315551758,13.5751638412476,13.5757999420166,13.5764322280884,13.5770683288574,13.5777015686035,13.5783348083496,13.578971862793,13.5796060562134,13.5802402496338,13.5808744430542,13.581506729126,13.5821418762207,13.5827770233154,13.5834093093872,13.5840454101562,13.5846815109253,13.5853118896484,13.5859518051147,13.5865859985352,13.5872201919556,13.587854385376,13.5884885787964,13.5891237258911,13.5897626876831,13.5903949737549,13.5910301208496,13.5916662216187,13.5922994613647,13.5929365158081,13.5935735702515,13.5942077636719,13.5948448181152,13.5954790115356,13.5961141586304,13.596752166748,13.5973844528198,13.5980234146118,13.5986595153809,13.599292755127,13.5999317169189,13.6005659103394,13.6012001037598,13.6018400192261,13.6024742126465,13.6031122207642,13.6037502288818,13.6043853759766,13.6050214767456,13.6056604385376,13.6062965393066,13.6069326400757,13.607569694519,13.6082029342651,13.6088438034058,13.6094779968262,13.6101160049438,13.6107540130615,13.6113891601562,13.6120300292969,13.6126689910889,13.613302230835,13.613941192627,13.6145811080933,13.6152181625366,13.6158514022827,13.6164894104004,13.6171264648438,13.6177682876587,13.6184024810791,13.6190414428711,13.6196804046631,13.6203193664551,13.6209583282471,13.6215944290161,13.6222343444824,13.6228713989258,13.6235084533691,13.6241464614868,13.6247873306274,13.6254224777222,13.6260633468628,13.6267023086548,13.6273412704468,13.6279802322388,13.6286201477051,13.6292562484741,13.6298990249634,13.6305360794067,13.6311740875244,13.6318120956421,13.6324501037598,13.6330909729004,13.6337327957153,13.6343717575073,13.6350107192993,13.6356496810913,13.6362895965576,13.6369295120239,13.6375665664673,13.6382102966309,13.6388502120972,13.6394882202148,13.6401262283325,13.6407680511475,13.6414041519165,13.6420459747314,13.6426877975464,13.6433277130127,13.643967628479,13.6446075439453,13.6452474594116,13.6458883285522,13.6465291976929,13.6471700668335,13.6478147506714,13.6484470367432,13.6490926742554,13.6497316360474,13.6503715515137,13.6510143280029,13.6516542434692,13.6522970199585,13.6529378890991,13.6535787582397,13.6542196273804,13.6548643112183,13.6555023193359,13.6561441421509,13.6567840576172,13.6574258804321,13.6580657958984,13.6587085723877,13.6593523025513,13.6599922180176,13.6606330871582,13.6612777709961,13.6619186401367,13.6625604629517,13.6632022857666,13.6638441085815,13.6644897460938,13.6651287078857,13.6657686233521,13.6664123535156,13.6670560836792,13.6676959991455,13.6683435440063,13.668984413147,13.6696262359619,13.6702709197998,13.6709098815918,13.671555519104,13.6722011566162,13.6728410720825,13.6734838485718,13.6741275787354,13.6747674942017,13.6754121780396,13.6760559082031,13.676700592041,13.6773452758789,13.6779870986938,13.6786298751831,13.6759786605835,13.6607847213745,13.6456251144409,13.6304988861084,13.615406036377,13.2523069381714,13.0794115066528,12.9109687805176,12.7468090057373,12.5867719650269,12.430703163147,12.2784576416016,12.1298961639404,11.9848861694336,11.8433036804199,11.7050256729126,11.5699405670166,11.4379377365112,11.3825006484985,11.3617973327637,11.3411684036255,11.3206148147583,11.3001356124878,11.2797298431396,11.2593984603882,11.2391395568848,11.2189540863037,11.1988401412964,11.1787986755371,11.1588287353516,11.1389303207397,11.1191024780273,11.09934425354,11.0796575546265,11.0600395202637,11.040491104126,11.0210123062134,11.0016012191772,10.9822587966919,10.9629850387573,10.9437780380249,10.9246377944946,10.9055652618408,10.8865585327148,10.867618560791,10.8487434387207,10.8299341201782,10.8111906051636,10.7925109863281,10.7738962173462,10.7553453445435,10.7368593215942,10.7184352874756,10.7000751495361,10.6817779541016,10.6635427474976,10.6453695297241,10.6272583007812,10.6092090606689,10.5912208557129,10.5732927322388,10.5554256439209,10.5376195907593,10.5198726654053,10.5021858215332,10.4845581054688,10.4669895172119,10.4494800567627,10.4320287704468,10.4146356582642,10.3972835540771,10.3796358108521,10.3620481491089,10.3445196151733,10.3270502090454,10.3096399307251,10.2922887802124,10.2749948501587,10.2577600479126,10.2405824661255,10.2234621047974,10.2063989639282,10.1893920898438,10.1724424362183,10.1555500030518,10.1387119293213,10.1219310760498,10.1052045822144,10.0885334014893,10.0719175338745,10.0553560256958,10.0388488769531,10.0223960876465,10.0059976577759,9.98965167999268,9.97335910797119,9.95712089538574,9.94093418121338,9.92480087280273,9.90871906280518,9.89268970489502,9.87671184539795,9.86078548431396,9.84491062164307,9.82908725738525,9.81331443786621,9.79759120941162,9.78191947937012,9.76629734039307,9.75072479248047,9.73598670959473,9.7225227355957,9.70909595489502,9.69570636749268,9.68235397338867,9.66903781890869,9.65575885772705,9.64251613616943,9.62930965423584,9.61613845825195,9.60300445556641,9.58990573883057,9.57684230804443,9.56381511688232,9.55082225799561,9.53786563873291,9.52494430541992,9.51205730438232,9.49920558929443,9.48638820648193,9.47360515594482,9.45657253265381,9.43660354614258,9.41672039031982,9.3969202041626,9.37720203399658,9.35756778717041,9.33801460266113,9.31854438781738,9.29915332794189,9.27984428405762,9.2606143951416,9.24146461486816,9.22239303588867,9.20340061187744
13.4518041610718,13.452428817749,13.4530477523804,13.453670501709,13.4542961120605,13.4549160003662,13.4555425643921,13.4561634063721,13.456787109375,13.4574108123779,13.458028793335,13.4586534500122,13.4592781066895,13.4598970413208,13.4605226516724,13.4611482620239,13.4617710113525,13.4623937606812,13.4630174636841,13.463641166687,13.4642648696899,13.4648857116699,13.4655132293701,13.4661350250244,13.4667568206787,13.467381477356,13.4680070877075,13.4686298370361,13.4692554473877,13.4698753356934,13.4705018997192,13.4711256027222,13.4717493057251,13.4723768234253,13.4730014801025,13.4736232757568,13.4742479324341,13.4748697280884,13.4754953384399,13.4761219024658,13.4767446517944,13.477370262146,13.4779977798462,13.4786176681519,13.4792451858521,13.4798727035522,13.4804935455322,13.4811220169067,13.481746673584,13.4823694229126,13.4829950332642,13.4836206436157,13.4842462539673,13.4848699569702,13.4854965209961,13.4861240386963,13.4867477416992,13.4873723983765,13.4879999160767,13.4886245727539,13.4892530441284,13.489875793457,13.4905014038086,13.4911270141602,13.491753578186,13.4923763275146,13.4930067062378,13.4936332702637,13.4942579269409,13.4948854446411,13.4955129623413,13.4961385726929,13.4967660903931,13.4973917007446,13.4980144500732,13.4986438751221,13.4992704391479,13.4998970031738,13.500527381897,13.5011510848999,13.5017786026001,13.5024061203003,13.5030336380005,13.503662109375,13.5042877197266,13.5049161911011,13.5055418014526,13.5061655044556,13.5067977905273,13.5074243545532,13.5080490112305,13.5086793899536,13.5093097686768,13.509934425354,13.5105657577515,13.5111904144287,13.5118188858032,13.5124483108521,13.5130739212036,13.5137033462524,13.5143299102783,13.5149564743042,13.5155868530273,13.5162172317505,13.5168447494507,13.5174732208252,13.5180978775024,13.5187301635742,13.5193614959717,13.5199871063232,13.5206165313721,13.5212459564209,13.5218725204468,13.5225028991699,13.5231304168701,13.5237607955933,13.5243883132935,13.525016784668,13.5256481170654,13.5262765884399,13.5269050598145,13.5275373458862,13.5281667709351,13.5287933349609,13.529426574707,13.5300569534302,13.5306806564331,13.5313110351562,13.5319395065308,13.5325708389282,13.5332021713257,13.5338306427002,13.534462928772,13.5350923538208,13.5357217788696,13.5363540649414,13.5369844436646,13.5376148223877,13.5382452011108,13.538872718811,13.5395040512085,13.540135383606,13.5407638549805,13.5413961410522,13.542028427124,13.5426578521729,13.5432901382446,13.5439233779907,13.5445508956909,13.545184135437,13.5458116531372,13.5464429855347,13.5470733642578,13.5477056503296,13.5483369827271,13.5489692687988,13.5495986938477,13.5502338409424,13.5508670806885,13.5514936447144,13.5521278381348,13.5527582168579,13.5533924102783,13.5540227890015,13.554651260376,13.5552864074707,13.5559177398682,13.556547164917,13.5571823120117,13.5578155517578,13.5584449768066,13.55908203125,13.5597124099731,13.5603456497192,13.5609769821167,13.5616083145142,13.5622434616089,13.5628747940063,13.5635070800781,13.5641393661499,13.5647716522217,13.5654048919678,13.5660381317139,13.56667137146,13.5673046112061,13.5679388046265,13.5685701370239,13.5692043304443,13.5698394775391,13.5704717636108,13.5711040496826,13.5717391967773,13.5723686218262,13.5730047225952,13.5736389160156,13.5742721557617,13.5749092102051,13.5755405426025,13.5761747360229,13.5768089294434,13.5774412155151,13.5780763626099,13.5787153244019,13.5793447494507,13.5799770355225,13.5806102752686,13.5812473297119,13.581880569458,13.5825147628784,13.3713321685791,13.1953372955322,13.0239152908325,12.8568897247314,12.6940937042236,12.5353689193726,12.3805646896362,12.2295370101929,12.0821504592896,11.9382734298706,11.7977828979492,11.6605606079102,11.5264930725098,11.3954744338989,11.3723697662354,11.3517036437988,11.3311109542847,11.3105945587158,11.290150642395,11.2697811126709,11.2494850158691,11.2292623519897,11.2091121673584,11.1890335083008,11.1690273284912,11.1490917205811,11.1292276382446,11.1094350814819,11.08971118927,11.0700588226318,11.0504751205444,11.0309600830078,11.0115146636963,10.9921369552612,10.972827911377,10.9535865783691,10.9344129562378,10.9153051376343,10.8962650299072,10.877290725708,10.8583831787109,10.8395404815674,10.8207635879517,10.8020505905151,10.7834033966064,10.764820098877,10.7463006973267,10.7278442382812,10.709451675415,10.6911220550537,10.6728553771973,10.6546506881714,10.6365079879761,10.6184272766113,10.6004076004028,10.5824489593506,10.5645503997803,10.5467138290405,10.5289363861084,10.5112190246582,10.4935607910156,10.475962638855,10.4584226608276,10.4409418106079,10.4235191345215,10.406153678894,10.3888473510742,10.3715972900391,10.3541126251221,10.3366107940674,10.3191680908203,10.3017845153809,10.2844591140747,10.2671928405762,10.2499828338623,10.2328310012817,10.2157373428345,10.1986999511719,10.1817188262939,10.164794921875,10.1479272842407,10.1311149597168,10.1143589019775,10.0976572036743,10.0810117721558,10.0644197463989,10.0478830337524,10.031400680542,10.0149726867676,9.99859714508057,9.98227596282959,9.96600818634033,9.94979286193848,9.93363094329834,9.91752052307129,9.90146255493164,9.88545608520508,9.86950206756592,9.85359954833984,9.83774757385254,9.821946144104,9.80619621276855,9.79049682617188,9.77484703063965,9.75924777984619,9.74369812011719,9.72825050354004,9.71480846405029,9.70140266418457,9.6880350112915,9.67470359802246,9.66140842437744,9.64814949035645,9.63492774963379,9.62174224853516,9.60859203338623,9.59547805786133,9.58239936828613,9.56935691833496,9.5563497543335,9.54337787628174,9.53044128417969,9.51753997802734,9.50467300415039,9.49184131622314,9.47904396057129,9.46628093719482,9.45355224609375,9.44085693359375,9.4274959564209,9.40764999389648,9.38788795471191,9.36820888519287,9.34861183166504,9.3290958404541,9.30966186523438,9.29030895233154,9.27103614807129,9.2518424987793,9.23272895812988,9.21369361877441,9.19473743438721,9.17585849761963
13.3576154708862,13.358229637146,13.3588409423828,13.3594532012939,13.3600673675537,13.3606834411621,13.3612957000732,13.3619079589844,13.3625240325928,13.3631410598755,13.363751411438,13.3643674850464,13.3649845123291,13.3655958175659,13.3662137985229,13.3668251037598,13.3674373626709,13.368052482605,13.3686685562134,13.3692836761475,13.3698997497559,13.3705139160156,13.3711271286011,13.3717441558838,13.3723583221436,13.3729753494263,13.373589515686,13.3742046356201,13.3748168945312,13.3754320144653,13.3760471343994,13.3766632080078,13.3772792816162,13.3778963088989,13.3785123825073,13.3791265487671,13.3797435760498,13.3803577423096,13.3809728622437,13.3815937042236,13.3822059631348,13.3828210830688,13.3834371566772,13.3840522766113,13.3846683502197,13.3852882385254,13.3859024047852,13.3865184783936,13.3871364593506,13.3877506256104,13.3883686065674,13.3889827728271,13.3896017074585,13.3902196884155,13.390832901001,13.3914489746094,13.3920679092407,13.3926839828491,13.3933010101318,13.3939208984375,13.3945350646973,13.3951530456543,13.3957710266113,13.3963851928711,13.3970069885254,13.3976221084595,13.3982381820679,13.3988542556763,13.3994741439819,13.4000902175903,13.400707244873,13.4013271331787,13.4019441604614,13.4025621414185,13.4031801223755,13.4037981033325,13.4044170379639,13.4050350189209,13.4056539535522,13.4062700271606,13.406886100769,13.4075059890747,13.4081258773804,13.4087429046631,13.4093608856201,13.4099817276001,13.4105997085571,13.4112176895142,13.4118356704712,13.4124546051025,13.4130735397339,13.4136962890625,13.4143095016479,13.4149293899536,13.4155492782593,13.416166305542,13.416787147522,13.417407989502,13.418025970459,13.418646812439,13.4192657470703,13.4198846817017,13.420506477356,13.4211225509644,13.42174243927,13.4223623275757,13.4229822158813,13.4235992431641,13.424220085144,13.4248380661011,13.425461769104,13.4260835647583,13.4267024993896,13.4273242950439,13.4279403686523,13.4285621643066,13.4291849136353,13.429801940918,13.4304227828979,13.4310426712036,13.4316635131836,13.4322843551636,13.4329061508179,13.4335241317749,13.4341459274292,13.4347648620605,13.4353876113892,13.4360094070435,13.4366292953491,13.4372520446777,13.4378728866577,13.4384899139404,13.4391136169434,13.4397354125977,13.4403562545776,13.4409780502319,13.4415969848633,13.4422187805176,13.4428415298462,13.4434642791748,13.4440870285034,13.444709777832,13.445330619812,13.445951461792,13.446572303772,13.447193145752,13.4478178024292,13.4484357833862,13.4490585327148,13.4496831893921,13.4503059387207,13.4509286880493,13.4515514373779,13.4521722793579,13.4527950286865,13.4534187316895,13.4540367126465,13.4546613693237,13.455283164978,13.4559078216553,13.4565296173096,13.4571523666382,13.4577751159668,13.4584007263184,13.459020614624,13.4596471786499,13.4602708816528,13.4608917236328,13.4615154266357,13.4621343612671,13.4627590179443,13.4633836746216,13.4640054702759,13.4646310806274,13.465256690979,13.4658765792847,13.4665031433105,13.4671268463135,13.4677505493164,13.4683742523193,13.4689960479736,13.4696235656738,13.4702453613281,13.4708700180054,13.4714956283569,13.4721174240112,13.4727401733398,13.4733667373657,13.4739933013916,13.4746170043945,13.4752407073975,13.4758644104004,13.4764919281006,13.4771165847778,13.4777383804321,13.4783639907837,13.4789896011353,13.4796123504639,13.4802379608154,13.4808645248413,13.4814872741699,13.4821147918701,13.482738494873,13.483362197876,13.4839906692505,13.4846153259277,13.4852428436279,13.3133373260498,13.1388549804688,12.9688873291016,12.803261756897,12.6418123245239,12.4843845367432,12.3308296203613,12.1810054779053,12.034779548645,11.8920211791992,11.7526111602783,11.6164312362671,11.4833717346191,11.382963180542,11.3622579574585,11.3416271209717,11.3210716247559,11.3005905151367,11.2801837921143,11.2598505020142,11.2395896911621,11.2194023132324,11.1992874145508,11.1792440414429,11.159273147583,11.1393728256226,11.1195430755615,11.0997838973999,11.0800952911377,11.0604763031006,11.0409259796143,11.021445274353,11.0020332336426,10.9826889038086,10.9634132385254,10.9442052841187,10.9250640869141,10.9059896469116,10.886981010437,10.8680391311646,10.8491630554199,10.8303527832031,10.8116073608398,10.7929267883301,10.7743101119995,10.7557582855225,10.7372703552246,10.7188453674316,10.7004833221436,10.6821842193604,10.663948059082,10.6457738876343,10.6276607513428,10.6096105575562,10.5916204452515,10.573691368103,10.5558233261108,10.5380153656006,10.5202674865723,10.5025787353516,10.4849500656128,10.4673805236816,10.4498691558838,10.4324169158936,10.4150228500366,10.3976860046387,10.380407333374,10.3631858825684,10.3460216522217,10.3287143707275,10.3112983703613,10.2939414978027,10.2766418457031,10.2594013214111,10.2422180175781,10.2250928878784,10.2080240249634,10.1910123825073,10.1740570068359,10.1571588516235,10.1403160095215,10.1235294342041,10.1067981719971,10.0901212692261,10.0735006332397,10.0569334030151,10.0404214859009,10.0239639282227,10.0075597763062,9.99120903015137,9.9749116897583,9.95866775512695,9.94247627258301,9.92633724212646,9.91025066375732,9.89421653747559,9.87823390960693,9.86230278015137,9.84642314910889,9.83059406280518,9.81481647491455,9.7990894317627,9.78341197967529,9.76778507232666,9.7522087097168,9.73668098449707,9.7212028503418,9.70710563659668,9.69372177124023,9.68037509918213,9.66706466674805,9.65379047393799,9.64055252075195,9.62735176086426,9.61418628692627,9.6010570526123,9.58796405792236,9.57490634918213,9.5618839263916,9.54889678955078,9.53594493865967,9.52302837371826,9.51014709472656,9.49730014801025,9.48448848724365,9.47171020507812,9.4589672088623,9.44625854492188,9.43358325958252,9.42094230651855,9.40833568572998,9.39576148986816,9.37887287139893,9.35923099517822,9.33967208862305,9.32019424438477,9.30079650878906,9.28148078918457,9.26224422454834,9.24308776855469,9.22400951385498,9.20501041412354,9.18608951568604,9.16724586486816,9.14848041534424
13.2647314071655,13.2653388977051,13.2659425735474,13.266547203064,13.2671518325806,13.2677564620972,13.2683639526367,13.2689666748047,13.2695722579956,13.2701807022095,13.2707834243774,13.2713899612427,13.2719993591309,13.2726039886475,13.2732105255127,13.2738151550293,13.2744197845459,13.2750301361084,13.2756319046021,13.2762403488159,13.2768459320068,13.2774515151978,13.278058052063,13.2786645889282,13.2792711257935,13.2798776626587,13.2804851531982,13.2810916900635,13.281699180603,13.2823047637939,13.2829122543335,13.2835206985474,13.2841262817383,13.2847318649292,13.2853412628174,13.2859477996826,13.2865543365479,13.2871580123901,13.2877683639526,13.2883749008179,13.2889833450317,13.2895908355713,13.2901992797852,13.2908039093018,13.2914161682129,13.2920217514038,13.2926273345947,13.29323387146,13.2938404083252,13.2944507598877,13.2950601577759,13.2956647872925,13.296275138855,13.2968864440918,13.2974910736084,13.2980995178223,13.2987117767334,13.2993173599243,13.2999229431152,13.3005294799805,13.301139831543,13.3017520904541,13.3023567199707,13.3029670715332,13.3035774230957,13.3041858673096,13.3047933578491,13.3054046630859,13.3060102462769,13.306622505188,13.3072280883789,13.3078374862671,13.3084478378296,13.3090543746948,13.3096647262573,13.3102750778198,13.3108825683594,13.3114938735962,13.312105178833,13.3127136230469,13.3133220672607,13.3139305114746,13.3145427703857,13.3151521682739,13.3157596588135,13.3163690567017,13.3169822692871,13.3175897598267,13.3182010650635,13.318811416626,13.3194198608398,13.3200311660767,13.3206396102905,13.3212518692017,13.3218641281128,13.322473526001,13.3230838775635,13.3236932754517,13.3243036270142,13.3249139785767,13.3255281448364,13.326135635376,13.3267469406128,13.3273553848267,13.3279705047607,13.3285827636719,13.3291921615601,13.3298044204712,13.3304138183594,13.3310241699219,13.3316373825073,13.3322477340698,13.3328561782837,13.3334703445435,13.3340816497803,13.3346929550171,13.3353042602539,13.335916519165,13.3365287780762,13.3371419906616,13.3377513885498,13.3383646011353,13.3389806747437,13.3395853042603,13.34019947052,13.3408107757568,13.3414249420166,13.3420391082764,13.3426485061646,13.3432607650757,13.3438758850098,13.3444852828979,13.3450984954834,13.3457145690918,13.3463249206543,13.3469352722168,13.3475465774536,13.3481607437134,13.3487749099731,13.3493871688843,13.3500022888184,13.3506174087524,13.3512268066406,13.3518419265747,13.3524522781372,13.3530683517456,13.3536815643311,13.3542928695679,13.3549070358276,13.3555212020874,13.3561325073242,13.356746673584,13.3573617935181,13.3579740524292,13.3585901260376,13.3592023849487,13.3598155975342,13.3604316711426,13.3610420227051,13.3616590499878,13.3622732162476,13.3628845214844,13.3635025024414,13.3641138076782,13.3647260665894,13.3653450012207,13.3659572601318,13.3665733337402,13.3671855926514,13.3678026199341,13.3684158325195,13.3690328598022,13.369647026062,13.3702611923218,13.3708763122559,13.3714876174927,13.3721027374268,13.3727188110352,13.3733339309692,13.3739528656006,13.374566078186,13.3751802444458,13.3757963180542,13.3764133453369,13.3770275115967,13.3776454925537,13.3782596588135,13.3788747787476,13.3794870376587,13.38010597229,13.3807210922241,13.3813371658325,13.3819532394409,13.3825702667236,13.3831834793091,13.3838014602661,13.3844184875488,13.3850326538086,13.3856506347656,13.3862657546997,13.3868808746338,13.3874969482422,13.3881120681763,13.3887319564819,13.3893480300903,13.2558422088623,13.0828542709351,12.9143238067627,12.7500791549683,12.5899610519409,12.4338130950928,12.2814922332764,12.1328573226929,11.9877777099609,11.8461265563965,11.7077836990356,11.5726346969604,11.4405708312988,11.3728313446045,11.3521633148193,11.3315696716309,11.3110504150391,11.2906055450439,11.2702341079712,11.2499370574951,11.2297124862671,11.2095603942871,11.1894798278809,11.1694717407227,11.1495351791382,11.1296701431274,11.1098747253418,11.0901498794556,11.0704956054688,11.0509099960327,11.0313940048218,11.0119466781616,10.9925680160522,10.9732580184937,10.9540147781372,10.9348392486572,10.9157304763794,10.8966884613037,10.8777132034302,10.8588037490845,10.8399591445923,10.8211803436279,10.8024673461914,10.7838182449341,10.765233039856,10.7467126846313,10.7282552719116,10.7098608016968,10.6915302276611,10.6732616424561,10.6550550460815,10.6369113922119,10.6188287734985,10.6008081436157,10.5828485488892,10.5649490356445,10.5471105575562,10.5293321609497,10.5116128921509,10.493953704834,10.4763536453247,10.458812713623,10.4413299560547,10.4239063262939,10.4065399169922,10.3892316818237,10.3719816207886,10.3547878265381,10.3376512527466,10.3205709457397,10.3034410476685,10.2861099243164,10.2688369750977,10.2516222000122,10.2344655990601,10.2173652648926,10.2003221511841,10.1833362579346,10.166407585144,10.1495342254639,10.132716178894,10.1159543991089,10.0992479324341,10.0825967788696,10.0659999847412,10.0494585037231,10.0329704284668,10.0165376663208,10.0001573562622,9.98383045196533,9.96755790710449,9.95133781433105,9.93517017364502,9.91905498504639,9.90299224853516,9.88698101043701,9.87102222442627,9.8551139831543,9.83925724029541,9.82345199584961,9.80769634246826,9.7919921875,9.77633762359619,9.76073360443115,9.74517917633057,9.72967433929443,9.71421813964844,9.6994161605835,9.68605327606201,9.67272663116455,9.65943717956543,9.64618396759033,9.63296794891357,9.61978721618652,9.6066427230835,9.59353351593018,9.5804615020752,9.56742382049561,9.55442142486572,9.54145526885986,9.52852344512939,9.51562690734863,9.50276565551758,9.48993873596191,9.47714614868164,9.46438884735107,9.45166492462158,9.43897533416748,9.42632007598877,9.41369915008545,9.40111064910889,9.38855743408203,9.37603664398193,9.36354923248291,9.3502721786499,9.33074951171875,9.31130886077881,9.29194927215576,9.27266883850098,9.25346946716309,9.23434925079346,9.21530723571777,9.19634342193604,9.17745780944824,9.15865039825439,9.13991928100586,9.12126445770264
