13.170223236084,13.247631072998,13.3259525299072,13.4052047729492,13.485405921936,13.5665731430054,13.6487226486206,13.7318735122681,13.8160333633423,13.9012231826782,13.9874715805054,14.0747957229614,14.1632175445557,14.252758026123,14.3434371948242,14.4352769851685,14.5283012390137,14.6225347518921,14.7180023193359,14.8147258758545,14.9127283096313,15.0920362472534,15.2843618392944,15.4817113876343,16.9928932189941,16.9937438964844,16.9945964813232,16.9954433441162,16.9962940216064,16.9971446990967,16.9979934692383,16.9988441467285,16.9996967315674,17.000545501709,17.0013961791992,17.0022487640381,17.0030994415283,17.0039501190186,17.0047969818115,17.005651473999,17.0065040588379,17.0073528289795,17.0082054138184,17.0090579986572,17.0099086761475,17.0107612609863,17.0116100311279,17.0124645233154,17.0133152008057,17.0141677856445,17.0150203704834,17.015869140625,17.0167217254639,17.017578125,17.0184288024902,17.0192775726318,17.0201320648193,17.0209827423096,17.0218353271484,17.0226879119873,17.0235443115234,17.0243968963623,17.0252513885498,17.02610206604,17.0269565582275,17.027811050415,17.0286617279053,17.0295181274414,17.030366897583,17.0312232971191,17.032075881958,17.0329303741455,17.033784866333,17.0346393585205,17.035493850708,17.0363483428955,17.0372009277344,17.0380573272705,17.0389099121094,17.0397663116455,17.040620803833,17.0414733886719,17.042329788208,17.0431842803955,17.0440368652344,17.0448951721191,17.045747756958,17.0466041564941,17.0474605560303,17.0483150482178,17.0491695404053,17.0500240325928,17.0508823394775,17.051736831665,17.0525932312012,17.0534496307373,17.0543060302734,17.0551624298096,17.0560169219971,17.0568752288818,17.0577297210693,17.0585823059082,17.059440612793,17.0602970123291,17.0611534118652,17.06201171875,17.0628662109375,17.0637245178223,17.0645790100098,17.0654392242432,17.0662956237793,17.0671520233154,17.0680103302002,17.0688667297363,17.0697231292725,17.0705852508545,17.071439743042,17.0722961425781,17.0731582641602,17.074010848999,17.0748691558838,17.0757293701172,17.0765895843506,17.0774459838867,17.0783042907715,17.0791606903076,17.0800228118896,17.0808773040771,17.0817394256592,17.0825996398926,17.0834560394287,17.0843162536621,17.0851764678955,17.0860347747803,17.0868949890137,17.0877571105957,17.0886116027832,17.0894737243652,17.0903339385986,17.091194152832,17.0920543670654,17.0929145812988,17.0937747955322,17.0946292877197,17.0954914093018,17.0963516235352,17.0972099304199,17.0980701446533,17.0989303588867,17.0997924804688,17.1006546020508,17.1015110015869,17.1023731231689,17.103235244751,17.1040935516357,17.1049537658691,17.1058158874512,17.1066761016846,17.1075401306152,17.1084022521973,17.1092624664307,17.1101245880127,17.1109867095947,17.1118450164795,17.1127090454102,17.1135711669922,17.1144313812256,17.1152954101562,17.1161575317383,17.1170177459717,17.1178798675537,17.1187419891357,17.1196060180664,17.1204719543457,17.1213321685791,17.1221961975098,17.1230602264404,17.1239242553711,17.1247863769531,17.1256504058838,17.1265125274658,17.1273765563965,17.1282386779785,17.1291027069092,17.1299667358398,17.1308307647705,17.1316947937012,17.1325569152832,17.1334190368652,17.1342849731445,17.1351490020752,17.1360111236572,17.1368732452393,17.1377391815186,17.1386051177979,17.1394691467285,17.1403350830078,17.1412010192871,17.1420631408691,17.1429290771484,17.1437931060791,17.144660949707,17.1455211639404,17.1463890075684,17.1472511291504,17.1481189727783,17.1489849090576,17.1498508453369,17.1507186889648,17.1515789031982,17.1524467468262,17.1533107757568,17.1541786193848,17.1550445556641,17.1559104919434,17.1567783355713,17.1576461791992,17.1585121154785,17.1593799591064,17.1602439880371,17.1611156463623,17.161979675293,17.1628494262695,17.1637115478516,17.1645812988281,17.1654472351074,17.1663150787354,17.1671829223633,17.1680488586426,17.1689167022705,17.1697826385498,17.1706504821777,17.1715183258057,17.1723861694336,17.1732540130615,17.1741218566895,17.1749935150146,17.1758613586426,17.1767272949219,17.1775970458984,17.1784629821777,17.1793327331543,17.1802024841309,17.1810684204102,17.1819400787354,17.1828079223633,17.1836776733398,17.1845455169678,17.1854152679443,17.1862850189209,17.1871547698975,17.1880226135254,17.188892364502,17.1897621154785,17.1906318664551,17.191499710083,17.1923732757568,17.1932430267334,17.1941108703613,17.1949806213379,17.1958522796631,17.1967239379883,17.1975917816162,17.1984634399414,17.1993350982666,17.2002048492432,17.2010765075684,17.2019462585449,17.2028179168701,17.2036895751953,17.2045593261719,17.2054309844971,17.2063026428223,17.2071704864502,17.208044052124,17.2089157104492,17.209789276123,14.0519256591797,14.0357475280762,14.0196075439453,14.0035037994385,13.98743724823,13.9714078903198,13.9554147720337,13.9394588470459,11.5335292816162,11.4103174209595,11.3241758346558,11.3035736083984,11.2830457687378,11.2625932693481,11.2422142028809,11.2219085693359,11.2016763687134,11.1811876296997,11.1606769561768,11.1402416229248,11.1198806762695,11.0995941162109,11.079381942749,11.0592432022095,11.039176940918,11.0164518356323,10.9892740249634,10.9622287750244,10.9353170394897,10.9085369110107,10.8818874359131,10.8553676605225,10.8289775848389,10.8027143478394,10.7765789031982,10.7505702972412,10.7246856689453,10.6989259719849,10.6732902526855,10.6477766036987,10.6223840713501,10.597113609314,10.5719623565674,10.5469303131104,10.5220165252686,10.4972200393677,10.4725399017334,10.4479761123657,10.423526763916,10.3991918563843,10.3749704360962,10.3508615493774,10.3268642425537,10.3029775619507,10.2792015075684,10.2555351257324,10.2319774627686,10.2085275650024,10.1851854324341,10.1619491577148,10.1388187408447,10.1157941818237,10.0928726196289,10.0700559616089
13.1701612472534,13.2475671768188,13.3258876800537,13.4051389694214,13.4853401184082,13.5665054321289,13.6486549377441,13.7317962646484,13.8159484863281,13.9011373519897,13.9873847961426,14.0747079849243,14.1631288528442,14.252667427063,14.3433456420898,14.4351844787598,14.5282077789307,14.6224393844604,14.71790599823,14.8369035720825,15.0227422714233,15.2132949829102,15.4088182449341,16.8420181274414,16.8428535461426,16.8436870574951,16.8445224761963,16.8453578948975,16.8461952209473,16.8470287322998,16.847864151001,16.8486995697021,16.8495349884033,16.8503704071045,16.8512058258057,16.8520393371582,16.852876663208,16.8537139892578,16.8545513153076,16.8553867340088,16.85622215271,16.8570575714111,16.8578968048096,16.8587303161621,16.8595695495605,16.8604068756104,16.8612422943115,16.8620796203613,16.8629169464111,16.8637523651123,16.8645877838135,16.8654270172119,16.8662643432617,16.8671016693115,16.8679389953613,16.8687763214111,16.8696136474609,16.8704509735107,16.8712863922119,16.8721256256104,16.8729629516602,16.8737983703613,16.8746395111084,16.8754768371582,16.876314163208,16.8771514892578,16.8779907226562,16.8788280487061,16.8796710968018,16.8805065155029,16.8813457489014,16.8821830749512,16.883020401001,16.883861541748,16.8847007751465,16.8855419158936,16.8863792419434,16.8872184753418,16.8880615234375,16.8889007568359,16.8897380828857,16.8905792236328,16.8914165496826,16.8922557830811,16.8931007385254,16.8939361572266,16.894775390625,16.8956184387207,16.8964576721191,16.8972969055176,16.8981418609619,16.8989791870117,16.8998203277588,16.9006595611572,16.9015007019043,16.9023399353027,16.9031829833984,16.9040241241455,16.9048671722412,16.9057083129883,16.9065494537354,16.9073905944824,16.9082298278809,16.9090709686279,16.9099102020264,16.9107513427734,16.9115943908691,16.9124336242676,16.9132747650146,16.914119720459,16.9149608612061,16.9158000946045,16.9166450500488,16.9174880981445,16.918327331543,16.9191722869873,16.920015335083,16.9208564758301,16.9216976165771,16.9225425720215,16.9233837127686,16.9242305755615,16.9250717163086,16.9259166717529,16.9267616271973,16.9276027679443,16.9284477233887,16.9292888641357,16.9301338195801,16.9309768676758,16.9318218231201,16.9326648712158,16.9335117340088,16.9343509674072,16.9351959228516,16.9360389709473,16.9368839263916,16.9377269744873,16.9385757446289,16.939416885376,16.9402599334717,16.9411067962646,16.941951751709,16.9427947998047,16.9436416625977,16.944486618042,16.945333480835,16.946174621582,16.947021484375,16.9478664398193,16.9487075805664,16.9495544433594,16.9503993988037,16.951244354248,16.952091217041,16.9529361724854,16.953784942627,16.9546279907227,16.9554748535156,16.9563179016113,16.9571723937988,16.9580173492432,16.9588603973389,16.9597091674805,16.9605579376221,16.9614009857178,16.9622478485107,16.9630928039551,16.963939666748,16.9647884368896,16.9656352996826,16.9664859771729,16.9673309326172,16.9681777954102,16.9690265655518,16.9698753356934,16.9707221984863,16.9715671539307,16.9724178314209,16.9732608795166,16.9741134643555,16.9749584197998,16.9758071899414,16.976655960083,16.977502822876,16.9783535003662,16.9792003631592,16.9800510406494,16.9808979034424,16.981746673584,16.9825992584229,16.9834442138672,16.9842948913574,16.985143661499,16.985990524292,16.9868412017822,16.9876899719238,16.9885368347168,16.9893856048584,16.9902381896973,16.9910869598389,16.9919357299805,16.992790222168,16.9936370849609,16.9944877624512,16.9953346252441,16.996187210083,16.9970378875732,16.9978904724121,16.9987373352051,16.9995861053467,17.0004386901855,17.0012893676758,17.002140045166,17.0029926300049,17.0038394927979,17.004695892334,17.0055446624756,17.0063972473145,17.0072460174561,17.0081005096436,17.0089511871338,17.009801864624,17.0106525421143,17.0115051269531,17.012357711792,17.0132064819336,17.0140590667725,17.0149116516113,17.0157623291016,17.0166168212891,17.0174694061279,17.0183200836182,17.019172668457,17.0200271606445,17.0208797454834,17.0217304229736,17.0225830078125,17.0234336853027,17.0242900848389,17.0251426696777,17.0259971618652,17.0268478393555,17.027702331543,17.0285568237305,17.0294094085693,17.0302639007568,17.0311164855957,17.0319709777832,17.0328235626221,17.0336780548096,17.0345306396484,17.0353832244873,17.0362396240234,17.0370941162109,17.0379486083984,17.0388031005859,17.0396575927734,17.0405120849609,17.0413684844971,17.0422229766846,17.0430793762207,17.0439319610596,17.0447864532471,17.0456428527832,17.0464954376221,17.0473518371582,17.0482082366943,17.0490627288818,17.0499172210693,17.0507755279541,17.0516300201416,17.0524845123291,17.0533428192139,14.0392036437988,14.0230550765991,14.0069437026978,13.9908695220947,13.97483253479,13.9588317871094,13.9428672790527,13.9269399642944,13.9110479354858,11.4935665130615,11.3712034225464,11.3142881393433,11.2937211990356,11.273229598999,11.2528123855591,11.2324686050415,11.2121982574463,11.1920013427734,11.1718769073486,11.1516094207764,11.1312074661255,11.1108798980713,11.0906257629395,11.0704460144043,11.0503396987915,11.0303058624268,11.0103445053101,10.9904556274414,10.9706382751465,10.9500217437744,10.9231691360474,10.8964490890503,10.8698587417603,10.8433971405029,10.8170652389526,10.7908601760864,10.7647819519043,10.7388296127319,10.713002204895,10.6872987747192,10.661717414856,10.6362590789795,10.6109218597412,10.5857057571411,10.5606079101562,10.5356302261353,10.5107688903809,10.4860258102417,10.4613981246948,10.4368867874146,10.4124889373779,10.3882055282593,10.3640356063843,10.3399772644043,10.3160305023193,10.2921943664551,10.2684679031372,10.2448501586914,10.221342086792,10.197940826416,10.1746463775635,10.1514587402344,10.1283760070801,10.1053981781006,10.0825242996216,10.0597543716431,10.0370864868164
13.1700983047485,13.2475023269653,13.3258228302002,13.4050741195679,13.4852733612061,13.5664386749268,13.6485805511475,13.7317123413086,13.815863609314,13.9010515213013,13.9872980117798,14.0746202468872,14.1630392074585,14.2525768280029,14.3432540893555,14.4350919723511,14.5281143188477,14.6223440170288,14.7699270248413,14.954080581665,15.1428852081299,15.3366088867188,16.6937961578369,16.6946201324463,16.6954383850098,16.6962566375732,16.6970767974854,16.6978988647461,16.6987190246582,16.6995410919189,16.7003612518311,16.7011833190918,16.7020015716553,16.7028255462646,16.7036457061768,16.7044696807861,16.7052879333496,16.7061100006104,16.7069301605225,16.7077522277832,16.7085762023926,16.7093982696533,16.7102146148682,16.7110385894775,16.7118587493896,16.7126846313477,16.7135047912598,16.7143268585205,16.7151489257812,16.715970993042,16.7167949676514,16.7176170349121,16.7184410095215,16.7192611694336,16.7200870513916,16.7209072113037,16.7217330932617,16.7225551605225,16.7233810424805,16.7241992950439,16.7250270843506,16.7258472442627,16.7266712188721,16.7274951934814,16.7283172607422,16.7291412353516,16.7299671173096,16.7307872772217,16.7316093444824,16.7324352264404,16.7332592010498,16.7340831756592,16.7349109649658,16.7357330322266,16.7365570068359,16.7373790740967,16.7382049560547,16.7390308380127,16.7398548126221,16.7406787872314,16.7415046691895,16.7423286437988,16.7431545257568,16.7439785003662,16.7448043823242,16.7456302642822,16.7464542388916,16.7472801208496,16.7481060028076,16.7489337921143,16.7497577667236,16.7505836486816,16.751407623291,16.752233505249,16.753059387207,16.7538890838623,16.7547149658203,16.7555389404297,16.7563667297363,16.7571907043457,16.7580223083496,16.758846282959,16.759672164917,16.7605018615723,16.7613277435303,16.7621536254883,16.7629814147949,16.7638072967529,16.7646350860596,16.7654609680176,16.766284942627,16.7671146392822,16.7679405212402,16.7687702178955,16.7695960998535,16.7704257965088,16.7712535858154,16.7720813751221,16.7729091644287,16.773738861084,16.7745628356934,16.7753925323486,16.7762184143066,16.7770519256592,16.7778797149658,16.7787055969238,16.7795372009277,16.7803630828857,16.7811946868896,16.782018661499,16.7828521728516,16.7836780548096,16.7845077514648,16.7853374481201,16.786169052124,16.7869968414307,16.7878246307373,16.7886562347412,16.7894859313965,16.7903137207031,16.7911434173584,16.7919731140137,16.7928047180176,16.7936325073242,16.7944660186768,16.7952938079834,16.7961254119873,16.7969570159912,16.7977867126465,16.7986164093018,16.7994499206543,16.8002777099609,16.8011112213135,16.8019390106201,16.802770614624,16.8035984039307,16.8044281005859,16.8052597045898,16.8060932159424,16.8069229125977,16.8077564239502,16.8085880279541,16.8094158172607,16.8102474212646,16.8110828399658,16.8119144439697,16.8127479553223,16.8135776519775,16.8144111633301,16.8152408599854,16.8160743713379,16.8169059753418,16.8177375793457,16.8185729980469,16.8194026947021,16.8202381134033,16.8210678100586,16.8219013214111,16.8227348327637,16.8235664367676,16.8243999481201,16.8252353668213,16.8260669708252,16.8269023895264,16.8277320861816,16.8285675048828,16.8294010162354,16.8302364349365,16.8310699462891,16.8319034576416,16.8327369689941,16.8335742950439,16.8344078063965,16.8352394104004,16.8360767364502,16.8369102478027,16.837739944458,16.8385772705078,16.8394088745117,16.8402481079102,16.8410758972168,16.841911315918,16.8427486419678,16.8435840606689,16.8444156646729,16.8452529907227,16.8460865020752,16.846923828125,16.8477592468262,16.8485946655273,16.8494300842285,16.8502635955811,16.8511009216309,16.8519382476807,16.8527717590332,16.853609085083,16.8544445037842,16.8552799224854,16.8561153411865,16.856954574585,16.8577861785889,16.8586273193359,16.8594608306885,16.8602981567383,16.8611354827881,16.8619709014893,16.8628120422363,16.8636455535889,16.8644828796387,16.8653202056885,16.8661594390869,16.8669967651367,16.8678340911865,16.8686695098877,16.8695068359375,16.8703441619873,16.8711833953857,16.8720188140869,16.8728580474854,16.8736953735352,16.8745346069336,16.8753719329834,16.8762111663818,16.8770484924316,16.8778896331787,16.8787269592285,16.8795642852783,16.8804016113281,16.8812427520752,16.882080078125,16.8829193115234,16.8837566375732,16.8845958709717,16.8854370117188,16.8862762451172,16.887113571167,16.8879547119141,16.8887920379639,16.8896312713623,16.8904705047607,16.8913116455078,16.8921527862549,16.8929920196533,16.8938331604004,16.8946704864502,16.8955116271973,16.8963508605957,16.8971939086914,16.8980331420898,16.8988742828369,14.0426607131958,14.0265045166016,14.0103855133057,13.9943037033081,13.9782581329346,13.9622497558594,13.9462776184082,13.9303417205811,13.9144430160522,13.8985805511475,11.5780401229858,11.4538812637329,11.3323564529419,11.3044176101685,11.2838869094849,11.2634305953979,11.2430486679077,11.2227411270142,11.2025051116943,11.1823434829712,11.1622533798218,11.1422357559204,11.1221876144409,11.1018934249878,11.081672668457,11.0615253448486,11.0414505004883,11.0214490890503,11.0015201568604,10.9816627502441,10.9618768692017,10.9421625137329,10.9225187301636,10.9029455184937,10.8834419250488,10.857855796814,10.8314533233643,10.8051786422729,10.77903175354,10.7530107498169,10.7271146774292,10.701343536377,10.6756954193115,10.6501703262329,10.6247673034668,10.5994844436646,10.5743217468262,10.5492782592773,10.5243539810181,10.4995460510254,10.4748554229736,10.4502811431885,10.4258213043213,10.4014749526978,10.3772430419922,10.353123664856,10.3291158676147,10.3052196502686,10.2814331054688,10.2577562332153,10.234188079834,10.2107286453247,10.1873760223389,10.1641292572021,10.1409893035889,10.1179542541504,10.0950241088867,10.0721969604492,10.0494728088379,10.0268516540527,10.0043315887451
13.1700344085693,13.2474384307861,13.3257579803467,13.40500831604,13.4852075576782,13.5663681030273,13.6484985351562,13.7316293716431,13.8157787322998,13.9009666442871,13.987211227417,14.0745325088501,14.1629505157471,14.2524871826172,14.3431625366211,14.4349994659424,14.5280199050903,14.7035522460938,14.8860445022583,15.073127746582,16.5473613739014,16.5481643676758,16.5489692687988,16.5497760772705,16.5505809783936,16.5513858795166,16.5521945953369,16.5529975891113,16.5538063049316,16.5546131134033,16.555419921875,16.5562267303467,16.5570335388184,16.5578422546387,16.5586471557617,16.559455871582,16.5602607727051,16.5610675811768,16.5618724822998,16.5626831054688,16.5634899139404,16.5642967224121,16.5651054382324,16.5659141540527,16.5667209625244,16.5675277709961,16.5683364868164,16.5691452026367,16.5699520111084,16.5707626342773,16.571569442749,16.5723781585693,16.5731868743896,16.5739936828613,16.5748023986816,16.5756130218506,16.5764217376709,16.5772323608398,16.5780391693115,16.5788497924805,16.5796566009521,16.5804653167725,16.5812740325928,16.5820846557617,16.582893371582,16.5837001800537,16.5845108032227,16.5853214263916,16.5861282348633,16.5869388580322,16.5877475738525,16.5885581970215,16.5893669128418,16.5901756286621,16.5909881591797,16.5917987823486,16.5926055908203,16.5934162139893,16.5942268371582,16.5950374603271,16.5958499908447,16.5966606140137,16.597469329834,16.5982818603516,16.5990924835205,16.5999031066895,16.600715637207,16.601526260376,16.6023406982422,16.6031494140625,16.6039619445801,16.604772567749,16.605583190918,16.6063995361328,16.6072063446045,16.6080188751221,16.608829498291,16.6096439361572,16.6104564666748,16.611270904541,16.6120796203613,16.6128921508789,16.6137046813965,16.6145172119141,16.615327835083,16.6161422729492,16.6169528961182,16.6177673339844,16.618579864502,16.6193923950195,16.6202068328857,16.621021270752,16.6218299865723,16.6226406097412,16.6234550476074,16.6242694854736,16.6250839233398,16.6258964538574,16.6267108917236,16.6275234222412,16.6283359527588,16.629150390625,16.6299629211426,16.6307792663574,16.6315937042236,16.6324081420898,16.6332206726074,16.634033203125,16.6348514556885,16.6356678009033,16.6364803314209,16.6372947692871,16.638111114502,16.6389255523682,16.6397380828857,16.6405544281006,16.6413707733154,16.642183303833,16.6430015563965,16.6438159942627,16.6446285247803,16.6454467773438,16.64626121521,16.6470775604248,16.6478939056396,16.6487083435059,16.6495246887207,16.6503391265869,16.6511535644531,16.651969909668,16.6527862548828,16.6536045074463,16.6544227600098,16.655237197876,16.6560516357422,16.656867980957,16.6576881408691,16.6585006713867,16.6593170166016,16.660135269165,16.6609497070312,16.6617660522461,16.6625843048096,16.6634006500244,16.6642189025879,16.6650352478027,16.6658554077148,16.6666717529297,16.6674880981445,16.6683082580566,16.6691265106201,16.6699409484863,16.6707611083984,16.6715793609619,16.6723976135254,16.6732139587402,16.6740341186523,16.6748523712158,16.6756725311279,16.6764907836914,16.6773090362549,16.6781272888184,16.6789436340332,16.6797657012939,16.6805820465088,16.6814022064209,16.682222366333,16.6830387115479,16.6838607788086,16.6846790313721,16.6855010986328,16.686315536499,16.6871356964111,16.6879577636719,16.6887741088867,16.6895961761475,16.6904163360596,16.6912364959717,16.6920547485352,16.6928768157959,16.693696975708,16.6945190429688,16.6953372955322,16.6961574554443,16.6969757080078,16.6977939605713,16.6986141204834,16.6994380950928,16.7002582550049,16.7010765075684,16.7018985748291,16.7027225494385,16.7035427093506,16.7043647766113,16.7051868438721,16.7060070037842,16.7068252563477,16.7076511383057,16.7084732055664,16.7092952728271,16.710111618042,16.7109355926514,16.7117595672607,16.7125797271729,16.713399887085,16.714225769043,16.7150478363037,16.7158699035645,16.7166881561279,16.7175159454346,16.7183380126953,16.7191581726074,16.7199821472168,16.7208042144775,16.7216262817383,16.7224502563477,16.723274230957,16.7240982055664,16.7249183654785,16.7257423400879,16.7265663146973,16.7273902893066,16.7282123565674,16.7290363311768,16.7298622131348,16.7306861877441,16.7315101623535,16.7323341369629,16.7331581115723,16.7339820861816,16.734806060791,16.7356281280518,16.7364521026611,16.7372779846191,16.7381038665771,16.7389297485352,16.7397518157959,16.7405738830566,16.7414016723633,16.742223739624,16.7430515289307,16.74387550354,16.744701385498,16.7455253601074,16.7463512420654,16.7471809387207,14.0461206436157,14.0299558639526,14.0138292312622,13.9977388381958,13.9816856384277,13.965669631958,13.9496898651123,13.9337463378906,13.9178400039673,13.9019689559937,13.886134147644,11.6637649536133,11.537769317627,11.4144678115845,11.3151340484619,11.2945642471313,11.2740697860718,11.2536487579346,11.233302116394,11.2130289077759,11.1928291320801,11.1727018356323,11.1526460647583,11.1326627731323,11.1127510070801,11.0929107666016,11.072732925415,11.0526180267334,11.0325756072998,11.0126066207886,10.9927091598511,10.9728841781616,10.9531297683716,10.9334468841553,10.9138336181641,10.8942918777466,10.8748197555542,10.8554162979126,10.8360824584961,10.8168172836304,10.7933187484741,10.7672290802002,10.7412643432617,10.715425491333,10.6897096633911,10.6641178131104,10.6386480331421,10.613299369812,10.5880718231201,10.5629634857178,10.5379734039307,10.5131015777588,10.4883470535278,10.4637088775635,10.4391860961914,10.4147787094116,10.3904848098755,10.3663034439087,10.3422346115112,10.3182773590088,10.2944307327271,10.2706937789917,10.2470664978027,10.2235479354858,10.2001361846924,10.1768321990967,10.1536350250244,10.1305418014526,10.10755443573,10.0846710205078,10.0618906021118,10.039213180542,10.016637802124,9.99416351318359,9.9717903137207
13.1699714660645,13.2473745346069,13.3256931304932,13.4049425125122,13.4851388931274,13.5662860870361,13.6484155654907,13.7315454483032,13.8156938552856,13.9008808135986,13.9871234893799,14.0744438171387,14.1628618240356,14.2523965835571,14.343071937561,14.4613008499146,14.6377716064453,14.81862449646,15.0040225982666,16.4042587280273,16.40505027771,16.4058418273926,16.4066314697266,16.4074268341064,16.4082164764404,16.4090137481689,16.4098052978516,16.4105949401855,16.4113845825195,16.4121780395508,16.4129734039307,16.4137649536133,16.4145584106445,16.4153518676758,16.416145324707,16.4169387817383,16.4177322387695,16.4185256958008,16.4193210601807,16.4201126098633,16.4209079742432,16.4217014312744,16.422492980957,16.4232864379883,16.4240798950195,16.4248752593994,16.4256687164307,16.4264640808105,16.4272556304932,16.4280529022217,16.4288463592529,16.4296417236328,16.4304351806641,16.4312286376953,16.4320220947266,16.4328193664551,16.433614730835,16.4344062805176,16.4352035522461,16.435998916626,16.4367961883545,16.4375896453857,16.4383850097656,16.4391822814941,16.4399757385254,16.4407711029053,16.4415645599365,16.4423599243164,16.4431552886963,16.4439525604248,16.4447479248047,16.4455451965332,16.4463405609131,16.447135925293,16.4479293823242,16.4487266540527,16.4495220184326,16.4503173828125,16.4511165618896,16.4519119262695,16.452709197998,16.4535064697266,16.4543018341064,16.4550971984863,16.4558944702148,16.456693649292,16.4574909210205,16.4582862854004,16.4590854644775,16.4598827362061,16.4606800079346,16.4614753723145,16.462272644043,16.4630718231201,16.4638729095459,16.4646682739258,16.4654655456543,16.4662647247314,16.46706199646,16.4678573608398,16.4686584472656,16.4694557189941,16.4702568054199,16.4710502624512,16.4718532562256,16.4726505279541,16.4734477996826,16.4742469787598,16.4750461578369,16.4758453369141,16.4766464233398,16.4774475097656,16.4782447814941,16.4790439605713,16.4798412322998,16.4806442260742,16.4814395904541,16.4822406768799,16.483039855957,16.4838409423828,16.4846382141113,16.4854354858398,16.4862403869629,16.4870376586914,16.4878406524658,16.4886360168457,16.4894390106201,16.4902381896973,16.491039276123,16.4918365478516,16.4926376342773,16.4934425354004,16.4942436218262,16.4950389862061,16.4958419799805,16.4966449737549,16.497444152832,16.4982452392578,16.499044418335,16.499849319458,16.5006465911865,16.5014495849609,16.5022506713867,16.5030555725098,16.5038566589355,16.5046558380127,16.5054550170898,16.5062599182129,16.5070610046387,16.5078639984131,16.5086669921875,16.5094680786133,16.5102710723877,16.5110721588135,16.5118751525879,16.5126781463623,16.5134830474854,16.5142841339111,16.5150871276855,16.51589012146,16.516695022583,16.5174961090088,16.5182991027832,16.5190982818604,16.5199012756348,16.5207061767578,16.5215129852295,16.5223140716553,16.5231189727783,16.5239200592041,16.5247230529785,16.5255279541016,16.526330947876,16.5271377563477,16.5279369354248,16.5287437438965,16.5295448303223,16.5303535461426,16.5311546325684,16.53196144104,16.5327663421631,16.5335655212402,16.5343723297119,16.5351791381836,16.535982131958,16.5367870330811,16.5375919342041,16.5383968353271,16.5392017364502,16.5400066375732,16.5408134460449,16.5416164398193,16.5424194335938,16.5432300567627,16.5440349578857,16.5448417663574,16.5456466674805,16.5464553833008,16.5472583770752,16.5480670928955,16.5488700866699,16.5496768951416,16.550479888916,16.5512866973877,16.552095413208,16.5529003143311,16.5537052154541,16.5545139312744,16.5553207397461,16.5561256408691,16.5569324493408,16.5577392578125,16.5585441589355,16.5593509674072,16.5601596832275,16.5609645843506,16.5617733001709,16.5625820159912,16.5633888244629,16.5641956329346,16.5650062561035,16.5658092498779,16.5666179656982,16.5674247741699,16.5682334899902,16.5690422058105,16.5698509216309,16.5706577301025,16.5714664459229,16.5722751617432,16.5730838775635,16.5738887786865,16.5747013092041,16.5755081176758,16.5763168334961,16.5771293640137,16.577938079834,16.5787448883057,16.5795516967773,16.5803623199463,16.5811729431152,16.5819797515869,16.5827903747559,16.5836009979248,16.5844116210938,16.5852184295654,16.5860290527344,16.5868377685547,16.5876502990723,16.5884590148926,16.5892715454102,16.5900764465332,16.5908870697021,16.5916976928711,16.59250831604,16.5933170318604,16.5941314697266,16.5949401855469,16.5957508087158,16.5965614318848,16.5973720550537,16.5981826782227,16.5989933013916,14.0334091186523,14.0172739028931,14.0011758804321,13.9851150512695,13.969090461731,13.9531030654907,13.9371519088745,13.9212379455566,13.9053592681885,13.8895168304443,13.8737115859985,13.8579406738281,11.622896194458,11.4977788925171,11.3753252029419,11.3052616119385,11.2847280502319,11.2642688751221,11.2438840866089,11.2235727310181,11.2033348083496,11.1831693649292,11.1630764007568,11.1430559158325,11.1231069564819,11.1032295227051,11.0834226608276,11.0636863708496,11.0437250137329,11.0237159729004,11.0037784576416,10.9839124679565,10.9641189575195,10.9443960189819,10.9247446060181,10.9051637649536,10.8856515884399,10.8662099838257,10.8468379974365,10.8275346755981,10.8083000183105,10.7891340255737,10.7700347900391,10.7510042190552,10.7295446395874,10.703761100769,10.6781024932861,10.6525650024414,10.6271505355835,10.6018562316895,10.5766830444336,10.551628112793,10.5266923904419,10.5018739700317,10.4771728515625,10.4525861740112,10.4281158447266,10.4037599563599,10.3795166015625,10.3553867340088,10.3313684463501,10.3074617385864,10.2836647033691,10.2599782943726,10.2363996505737,10.212929725647,10.1895666122437,10.1663112640381,10.1431608200073,10.1201162338257,10.0971755981445,10.0743389129639,10.0516052246094,10.0289745330811,10.0064449310303,9.98401641845703,9.96168804168701,9.9394588470459
13.1699085235596,13.2473106384277,13.3256282806396,13.4048776626587,13.4850578308105,13.5662040710449,13.6483325958252,13.7314615249634,13.8156089782715,13.9007949829102,13.9870367050171,14.0743560791016,14.1627721786499,14.2523069381714,14.3976755142212,14.5725803375244,14.7518129348755,14.9355487823486,16.2636108398438,16.2643890380859,16.2651691436768,16.2659473419189,16.2667255401611,16.2675037384033,16.2682857513428,16.2690620422363,16.2698440551758,16.2706203460693,16.2713985443115,16.2721786499023,16.2729587554932,16.2737350463867,16.2745151519775,16.2752952575684,16.2760734558105,16.2768535614014,16.2776317596436,16.2784118652344,16.2791919708252,16.2799701690674,16.2807521820068,16.2815322875977,16.2823104858398,16.2830963134766,16.2838764190674,16.2846546173096,16.2854347229004,16.2862148284912,16.2869987487793,16.2877769470215,16.2885570526123,16.2893390655518,16.2901172637939,16.2909030914307,16.2916831970215,16.2924652099609,16.2932453155518,16.2940254211426,16.2948093414307,16.2955913543701,16.2963695526123,16.2971515655518,16.2979354858398,16.2987194061279,16.2994976043701,16.3002815246582,16.3010654449463,16.3018455505371,16.3026256561279,16.3034114837646,16.3041915893555,16.3049736022949,16.3057537078857,16.3065395355225,16.3073215484619,16.3081016540527,16.3088855743408,16.3096675872803,16.3104515075684,16.3112335205078,16.3120174407959,16.3127994537354,16.3135814666748,16.3143653869629,16.3151473999023,16.3159313201904,16.3167190551758,16.317497253418,16.3182811737061,16.3190650939941,16.3198509216309,16.3206329345703,16.321418762207,16.3222026824951,16.3229866027832,16.3237686157227,16.324556350708,16.3253402709961,16.3261260986328,16.3269100189209,16.3276958465576,16.3284778594971,16.3292655944824,16.3300476074219,16.3308353424072,16.3316192626953,16.3324031829834,16.3331871032715,16.3339729309082,16.3347606658936,16.3355464935303,16.3363304138184,16.3371162414551,16.3379020690918,16.3386898040771,16.3394737243652,16.3402614593506,16.3410453796387,16.3418312072754,16.3426170349121,16.3434028625488,16.3441886901855,16.3449726104736,16.3457584381104,16.3465461730957,16.3473300933838,16.3481159210205,16.3489036560059,16.3496894836426,16.3504772186279,16.3512630462646,16.3520526885986,16.3528366088867,16.3536243438721,16.3544139862061,16.3551998138428,16.3559875488281,16.3567790985107,16.3575611114502,16.3583507537842,16.3591403961182,16.3599262237549,16.3607139587402,16.3615016937256,16.3622894287109,16.3630771636963,16.3638687133789,16.3646564483643,16.365442276001,16.366231918335,16.3670215606689,16.3678092956543,16.368595123291,16.3693866729736,16.370174407959,16.3709621429443,16.3717517852783,16.3725414276123,16.373327255249,16.3741188049316,16.3749084472656,16.3756999969482,16.3764839172363,16.3772754669189,16.3780670166016,16.3788547515869,16.3796443939209,16.3804302215576,16.3812217712402,16.3820095062256,16.3827991485596,16.3835906982422,16.3843784332275,16.3851680755615,16.3859596252441,16.3867492675781,16.3875389099121,16.3883304595947,16.389123916626,16.38991355896,16.3907051086426,16.3914947509766,16.3922863006592,16.3930778503418,16.3938655853271,16.3946590423584,16.395450592041,16.396240234375,16.3970317840576,16.3978252410889,16.3986148834229,16.3994064331055,16.4001979827881,16.4009895324707,16.4017810821533,16.4025745391846,16.4033641815186,16.4041595458984,16.4049491882324,16.405740737915,16.4065322875977,16.4073257446289,16.4081172943115,16.4089126586914,16.4097023010254,16.4104976654053,16.4112873077393,16.4120807647705,16.4128723144531,16.4136657714844,16.4144611358643,16.4152526855469,16.4160480499268,16.4168357849121,16.4176292419434,16.4184246063232,16.4192180633545,16.4200115203857,16.4208030700684,16.4215965270996,16.4223957061768,16.4231872558594,16.4239826202393,16.4247741699219,16.4255676269531,16.4263648986816,16.4271583557129,16.4279518127441,16.4287452697754,16.429536819458,16.4303359985352,16.431131362915,16.4319229125977,16.4327201843262,16.4335136413574,16.4343070983887,16.4351043701172,16.4359016418457,16.436695098877,16.4374866485596,16.4382839202881,16.4390773773193,16.4398746490479,16.4406700134277,16.4414653778076,16.4422588348389,16.4430541992188,16.4438514709473,16.4446449279785,16.4454402923584,16.4462394714355,16.4470348358154,16.4478321075439,16.4486293792725,16.4494247436523,16.4502220153809,16.4510173797607,16.4518146514893,16.4526119232178,14.0368642807007,14.0207214355469,14.0046148300171,13.98854637146,13.9725141525269,13.9565191268921,13.940559387207,13.9246377944946,13.9087514877319,13.8929014205933,13.8770875930786,13.861310005188,13.8455677032471,11.7092885971069,11.5823135375977,11.4580631256104,11.3364505767822,11.2954072952271,11.2749090194702,11.2544860839844,11.2341365814209,11.2138595581055,11.1936569213867,11.173526763916,11.153468132019,11.1334819793701,11.1135673522949,11.0937232971191,11.0739507675171,11.0542478561401,11.0346155166626,11.0148696899414,10.9949636459351,10.9751300811768,10.9553680419922,10.9356775283813,10.9160566329956,10.8965063095093,10.877025604248,10.8576154708862,10.8382740020752,10.8190011978149,10.7997961044312,10.7806596755981,10.7615909576416,10.7425899505615,10.7236557006836,10.7047882080078,10.6859865188599,10.6665191650391,10.641037940979,10.6156778335571,10.5904388427734,10.5653190612793,10.5403184890747,10.515435218811,10.4906702041626,10.4660215377808,10.4414873123169,10.4170684814453,10.3927640914917,10.3685722351074,10.3444929122925,10.3205251693726,10.2966680526733,10.2729215621948,10.2492837905884,10.225754737854,10.2023334503174,10.1790189743042,10.1558113098145,10.1327095031738,10.1097116470337,10.086817741394,10.0640287399292,10.0413417816162,10.0187559127808,9.99627208709717,9.97388935089111,9.95160675048828,9.92942237854004,9.90733623504639
13.1698446273804,13.2472467422485,13.3255634307861,13.4047975540161,13.484977722168,13.566123008728,13.6482496261597,13.7313776016235,13.8155241012573,13.9007091522217,13.9869499206543,14.0742683410645,14.1653146743774,14.3346071243286,14.5079736709595,14.685601234436,16.1245899200439,16.1253547668457,16.1261177062988,16.1268825531006,16.1276512145996,16.1284160614014,16.1291809082031,16.1299476623535,16.1307106018066,16.1314792633057,16.1322441101074,16.1330108642578,16.1337776184082,16.1345405578613,16.1353073120117,16.1360740661621,16.1368389129639,16.1376075744629,16.1383724212646,16.139139175415,16.1399040222168,16.1406707763672,16.1414394378662,16.1422061920166,16.1429710388184,16.143741607666,16.1445083618164,16.1452751159668,16.1460437774658,16.1468086242676,16.1475772857666,16.148344039917,16.1491107940674,16.149881362915,16.1506443023682,16.1514148712158,16.1521816253662,16.1529521942139,16.1537170410156,16.1544857025146,16.1552562713623,16.1560249328613,16.1567897796631,16.1575584411621,16.1583271026611,16.1590976715088,16.1598663330078,16.1606349945068,16.1614036560059,16.1621723175049,16.1629409790039,16.1637077331543,16.164478302002,16.1652450561523,16.166015625,16.1667881011963,16.1675548553467,16.1683216094971,16.1690940856934,16.1698627471924,16.1706352233887,16.1714019775391,16.1721725463867,16.1729393005371,16.1737098693848,16.1744785308838,16.1752510070801,16.1760196685791,16.1767921447754,16.1775608062744,16.1783294677734,16.1791038513184,16.179874420166,16.1806449890137,16.1814155578613,16.1821842193604,16.1829566955566,16.1837253570557,16.184497833252,16.185266494751,16.1860370635986,16.1868095397949,16.1875801086426,16.1883506774902,16.1891250610352,16.1898937225342,16.1906623840332,16.1914386749268,16.1922073364258,16.1929798126221,16.1937503814697,16.1945247650146,16.1952953338623,16.19606590271,16.1968383789062,16.1976127624512,16.1983852386475,16.1991558074951,16.1999263763428,16.2006988525391,16.201473236084,16.2022438049316,16.2030200958252,16.2037925720215,16.2045631408691,16.2053413391113,16.2061138153076,16.2068824768066,16.2076568603516,16.2084331512451,16.2091999053955,16.2099742889404,16.2107486724854,16.211519241333,16.2122936248779,16.2130699157715,16.2138423919678,16.2146167755127,16.2153873443604,16.2161636352539,16.2169380187988,16.2177124023438,16.2184867858887,16.2192611694336,16.2200336456299,16.2208080291748,16.2215805053711,16.2223567962646,16.2231330871582,16.2239074707031,16.2246837615967,16.2254543304443,16.2262306213379,16.2270069122314,16.227783203125,16.2285556793213,16.2293338775635,16.2301082611084,16.2308807373047,16.2316570281982,16.2324314117432,16.2332096099854,16.2339839935303,16.2347602844238,16.2355346679688,16.2363147735596,16.2370891571045,16.237865447998,16.2386436462402,16.2394199371338,16.2401943206787,16.2409725189209,16.2417469024658,16.242525100708,16.2433013916016,16.2440776824951,16.2448501586914,16.2456245422363,16.2464008331299,16.2471809387207,16.2479553222656,16.2487335205078,16.24951171875,16.2502880096436,16.2510662078857,16.2518424987793,16.2526187896729,16.253396987915,16.2541770935059,16.2549533843994,16.255729675293,16.2565078735352,16.2572860717773,16.2580642700195,16.2588443756104,16.2596225738525,16.2603988647461,16.261173248291,16.2619571685791,16.2627353668213,16.2635135650635,16.2642917633057,16.2650699615479,16.2658462524414,16.2666263580322,16.2674045562744,16.2681827545166,16.2689666748047,16.2697429656982,16.2705249786377,16.2712993621826,16.2720813751221,16.2728595733643,16.2736396789551,16.2744197845459,16.2751998901367,16.2759799957275,16.2767601013184,16.2775402069092,16.2783164978027,16.2790966033936,16.2798728942871,16.2806529998779,16.2814350128174,16.2822151184082,16.282995223999,16.2837753295898,16.2845554351807,16.2853374481201,16.2861156463623,16.2868976593018,16.2876796722412,16.288459777832,16.2892398834229,16.2900218963623,16.2908020019531,16.2915840148926,16.2923641204834,16.2931461334229,16.293924331665,16.2947101593018,16.2954921722412,16.296272277832,16.2970523834229,16.2978343963623,16.2986164093018,16.2994003295898,16.3001804351807,16.3009624481201,16.3017463684082,16.3025283813477,16.3033084869385,16.3040904998779,16.3048725128174,16.3056564331055,16.3064384460449,16.3072204589844,16.3080043792725,16.3087902069092,16.3095703125,14.024169921875,14.0080556869507,13.9919786453247,13.9759387969971,13.9599361419678,13.9439687728882,13.9280385971069,13.9121446609497,13.8962879180908,13.8804664611816,13.8646802902222,13.848931312561,13.8332166671753,11.7969751358032,11.66810131073,11.5420141220093,11.4186220169067,11.3061065673828,11.285569190979,11.2651071548462,11.2447195053101,11.2244052886963,11.2041635513306,11.1839962005615,11.1639003753662,11.1438760757446,11.1239242553711,11.1040439605713,11.0842342376709,11.0644950866699,11.044825553894,11.0252265930176,11.0056972503662,10.9861640930176,10.9663619995117,10.9466314315796,10.9269714355469,10.9073820114136,10.8878631591797,10.8684139251709,10.8490333557129,10.82972240448,10.8104801177979,10.7913055419922,10.7721996307373,10.7531604766846,10.7341890335083,10.7152843475342,10.6964464187622,10.6776733398438,10.6589670181274,10.640326499939,10.621750831604,10.6032390594482,10.5790452957153,10.5539789199829,10.5290327072144,10.5042028427124,10.4794902801514,10.4548931121826,10.4304122924805,10.406044960022,10.3817911148071,10.3576507568359,10.3336219787598,10.3097047805786,10.2858982086182,10.2622003555298,10.2386121749878,10.2151317596436,10.1917591094971,10.168493270874,10.1453332901001,10.122278213501,10.0993280410767,10.0764818191528,10.0537385940552,10.0310974121094,10.0085592269897,9.98612117767334,9.96378326416016,9.9415454864502,9.91940689086914,9.89736461639404,9.87542057037354
13.1697816848755,13.2471828460693,13.3254861831665,13.4047174453735,13.4848966598511,13.5660409927368,13.6481666564941,13.7312936782837,13.8154401779175,13.9006233215332,13.9868631362915,14.1042699813843,14.2720890045166,14.4439382553101,14.6199808120728,15.9886751174927,15.9894275665283,15.990180015564,15.9909296035767,15.9916830062866,15.9924373626709,15.9931907653809,15.9939422607422,15.9946966171265,15.9954490661621,15.9962015151978,15.9969530105591,15.997709274292,15.998462677002,15.9992160797119,15.9999694824219,16.0007266998291,16.0014781951904,16.002233505249,16.0029850006104,16.0037364959717,16.0044956207275,16.0052490234375,16.0060024261475,16.0067520141602,16.0075054168701,16.0082607269287,16.00901222229,16.0097694396973,16.0105209350586,16.0112781524658,16.0120296478271,16.0127868652344,16.013542175293,16.0142955780029,16.0150508880615,16.0158081054688,16.0165615081787,16.01731300354,16.0180683135986,16.0188236236572,16.0195808410645,16.020336151123,16.021089553833,16.0218467712402,16.0226001739502,16.0233592987061,16.0241165161133,16.0248718261719,16.0256271362305,16.0263843536377,16.0271377563477,16.0278949737549,16.0286502838135,16.0294075012207,16.0301647186279,16.0309200286865,16.0316772460938,16.0324325561523,16.0331878662109,16.0339469909668,16.0347023010254,16.0354595184326,16.0362167358398,16.0369720458984,16.037727355957,16.0384845733643,16.0392436981201,16.0400009155273,16.0407562255859,16.0415134429932,16.0422687530518,16.043025970459,16.0437889099121,16.0445423126221,16.0452995300293,16.0460567474365,16.046817779541,16.0475730895996,16.0483303070068,16.0490913391113,16.0498485565186,16.0506076812744,16.0513648986816,16.0521259307861,16.0528793334961,16.0536403656006,16.0543994903564,16.0551567077637,16.0559158325195,16.0566749572754,16.0574340820312,16.0581951141357,16.058952331543,16.0597114562988,16.0604724884033,16.0612316131592,16.0619888305664,16.0627517700195,16.0635108947754,16.0642700195312,16.0650291442871,16.065788269043,16.0665454864502,16.067310333252,16.0680675506592,16.068826675415,16.0695877075195,16.0703468322754,16.0711078643799,16.0718669891357,16.0726280212402,16.0733871459961,16.0741481781006,16.0749092102051,16.0756645202637,16.0764255523682,16.0771865844727,16.0779495239258,16.0787105560303,16.0794696807861,16.0802326202393,16.0809936523438,16.0817546844482,16.0825157165527,16.0832767486572,16.0840377807617,16.0847988128662,16.0855579376221,16.0863208770752,16.0870838165283,16.0878467559814,16.0886077880859,16.0893688201904,16.0901317596436,16.090892791748,16.0916576385498,16.0924167633057,16.0931797027588,16.0939445495605,16.094705581665,16.0954685211182,16.0962314605713,16.0969886779785,16.0977535247803,16.098518371582,16.0992794036865,16.1000423431396,16.1008071899414,16.1015701293945,16.1023330688477,16.1030941009521,16.1038570404053,16.104621887207,16.1053867340088,16.1061515808105,16.106912612915,16.1076755523682,16.1084403991699,16.109203338623,16.1099700927734,16.1107273101807,16.1114902496338,16.1122550964355,16.1130199432373,16.1137847900391,16.1145496368408,16.1153163909912,16.1160755157471,16.1168403625488,16.1176071166992,16.118371963501,16.1191349029541,16.1199035644531,16.1206684112549,16.1214332580566,16.1221942901611,16.1229610443115,16.1237258911133,16.124490737915,16.1252593994141,16.1260242462158,16.1267871856689,16.1275520324707,16.1283206939697,16.1290855407715,16.1298503875732,16.1306171417236,16.1313800811768,16.1321487426758,16.1329154968262,16.1336803436279,16.1344470977783,16.1352157592773,16.1359767913818,16.1367454528809,16.1375122070312,16.1382808685303,16.1390476226807,16.1398105621338,16.1405773162842,16.1413440704346,16.1421089172363,16.142879486084,16.1436462402344,16.1444149017334,16.1451797485352,16.1459426879883,16.1467094421387,16.1474800109863,16.1482467651367,16.1490116119385,16.1497821807861,16.1505489349365,16.1513175964355,16.1520862579346,16.152853012085,16.153621673584,16.1543922424316,16.1551570892334,16.1559257507324,16.1566944122314,16.1574649810791,16.1582298278809,16.1589984893799,16.1597690582275,16.1605377197266,16.161304473877,16.162073135376,16.162841796875,16.1636123657227,16.164379119873,16.1651477813721,16.1659183502197,16.1666889190674,16.1674556732178,16.1682243347168,14.0276203155518,14.0114984512329,13.9954137802124,13.9793653488159,13.9633541107178,13.947380065918,13.9314422607422,13.9155406951904,13.8996753692627,13.883846282959,13.868052482605,13.8522958755493,13.836573600769,13.8208885192871,13.8052377700806,11.7551698684692,11.6272029876709,11.5019931793213,11.3794507980347,11.2962503433228,11.275749206543,11.2553224563599,11.2349700927734,11.2146911621094,11.1944847106934,11.1743516921997,11.1542901992798,11.1343011856079,11.1143827438354,11.094536781311,11.0747604370117,11.0550556182861,11.0354194641113,11.0158538818359,10.9963569641113,10.9769296646118,10.9575700759888,10.9379081726074,10.9182796478271,10.8987216949463,10.8792333602905,10.8598146438599,10.8404655456543,10.8211851119995,10.8019723892212,10.7828283309937,10.7637519836426,10.744743347168,10.7258014678955,10.7069263458252,10.6881170272827,10.6693744659424,10.6506967544556,10.6320848464966,10.6135377883911,10.5950546264648,10.5766363143921,10.5582818984985,10.5399913787842,10.5177707672119,10.4929943084717,10.468334197998,10.4437894821167,10.4193601608276,10.3950443267822,10.3708419799805,10.346752166748,10.3227739334106,10.2989072799683,10.2751493453979,10.2515020370483,10.2279624938965,10.2045316696167,10.181206703186,10.1579895019531,10.134877204895,10.1118698120117,10.0889663696289,10.0661668777466,10.0434703826904,10.0208759307861,9.99838256835938,9.97599029541016,9.95369720458984,9.93150424957275,9.90941047668457,9.88741397857666,9.86551284790039,9.84370994567871
13.1697187423706,13.2471084594727,13.3254079818726,13.4046382904053,13.4848155975342,13.5659589767456,13.6480846405029,13.7312107086182,13.8153553009033,13.9005374908447,14.0437488555908,14.2101144790649,14.380464553833,14.554949760437,15.8550338745117,15.8557729721069,15.8565130233765,15.8572521209717,15.8579931259155,15.8587331771851,15.8594741821289,15.8602123260498,15.860954284668,15.8616962432861,15.8624353408813,15.8631782531738,15.863917350769,15.8646574020386,15.8654041290283,15.8661413192749,15.8668823242188,15.8676242828369,15.8683652877808,15.8691072463989,15.8698463439941,15.8705892562866,15.8713321685791,15.8720722198486,15.8728122711182,15.873553276062,15.8742971420288,15.8750381469727,15.8757801055908,15.876522064209,15.8772611618042,15.8780040740967,15.8787441253662,15.8794870376587,15.8802270889282,15.880970954895,15.8817148208618,15.88245677948,15.8831977844238,15.8839406967163,15.8846826553345,15.8854284286499,15.8861684799194,15.8869113922119,15.8876552581787,15.8883991241455,15.8891401290894,15.8898839950562,15.8906259536743,15.8913717269897,15.8921136856079,15.8928565979004,15.8935995101929,15.8943424224854,15.8950862884521,15.8958301544189,15.8965740203857,15.8973159790039,15.898060798645,15.8988056182861,15.8995485305786,15.900294303894,15.9010372161865,15.9017839431763,15.9025239944458,15.9032716751099,15.9040155410767,15.9047603607178,15.9055051803589,15.9062471389771,15.9069929122925,15.9077386856079,15.9084815979004,15.9092283248901,15.9099721908569,15.9107131958008,15.9114599227905,15.9122047424316,15.9129495620728,15.9136953353882,15.9144411087036,15.915186882019,15.9159297943115,15.9166765213013,15.917423248291,15.9181671142578,15.9189147949219,15.919659614563,15.9204044342041,15.9211530685425,15.9218988418579,15.9226446151733,15.9233913421631,15.9241380691528,15.9248819351196,15.9256324768066,15.9263792037964,15.9271278381348,15.9278726577759,15.9286184310913,15.9293670654297,15.9301128387451,15.9308624267578,15.9316091537476,15.9323530197144,15.9331035614014,15.9338483810425,15.9345960617065,15.9353446960449,15.9360933303833,15.9368391036987,15.9375848770142,15.9383344650269,15.9390811920166,15.9398279190063,15.9405755996704,15.9413261413574,15.9420747756958,15.9428195953369,15.9435720443726,15.944317817688,15.9450635910034,15.9458103179932,15.9465599060059,15.9473075866699,15.9480581283569,15.948805809021,15.9495534896851,15.9503021240234,15.9510507583618,15.9518003463745,15.9525499343872,15.9532995223999,15.9540462493896,15.9547967910767,15.9555444717407,15.9562950134277,15.9570436477661,15.9577951431274,15.9585437774658,15.9592924118042,15.9600419998169,15.9607925415039,15.9615421295166,15.9622926712036,15.9630432128906,15.963791847229,15.964542388916,15.9652910232544,15.96604347229,15.9667930603027,15.9675426483154,15.9682922363281,15.9690427780151,15.9697933197021,15.9705438613892,15.9712953567505,15.9720458984375,15.9727983474731,15.9735469818115,15.9742994308472,15.9750490188599,15.9758024215698,15.9765529632568,15.9773035049438,15.9780540466309,15.9788055419922,15.9795570373535,15.9803085327148,15.9810581207275,15.9818105697632,15.9825601577759,15.9833135604858,15.9840669631958,15.9848175048828,15.9855690002441,15.9863204956055,15.9870777130127,15.9878301620483,15.988582611084,15.9893321990967,15.9900846481323,15.9908380508423,15.9915914535522,15.9923458099365,15.9930973052979,15.9938488006592,15.9946031570435,15.9953556060791,15.9961080551147,15.9968605041504,15.9976139068604,15.9983673095703,15.9991207122803,15.9998750686646,16.0006294250488,16.0013809204102,16.0021362304688,16.0028915405273,16.0036468505859,16.0044002532959,16.0051536560059,16.0059032440186,16.0066604614258,16.0074138641357,16.0081653594971,16.0089244842529,16.0096759796143,16.0104312896729,16.0111827850342,16.0119400024414,16.0126934051514,16.0134468078613,16.0142002105713,16.0149555206299,16.0157089233398,16.0164642333984,16.017219543457,16.0179748535156,16.0187320709229,16.0194835662842,16.0202407836914,16.0209941864014,16.0217552185059,16.0225086212158,16.0232639312744,16.024019241333,16.0247745513916,16.0255298614502,16.0262889862061,16.027042388916,16.027795791626,16.0285568237305,16.0293102264404,14.0310716629028,14.0149421691895,13.9988498687744,13.9827938079834,13.9667749404907,13.9507923126221,13.9348468780518,13.9189376831055,13.9030647277832,13.8872270584106,13.8714265823364,13.8556613922119,13.8399324417114,13.8242387771606,13.8085813522339,13.7929582595825,11.8435468673706,11.7136602401733,11.5865907669067,11.4622488021851,11.3405475616455,11.2864112854004,11.2659463882446,11.2455549240112,11.2252378463745,11.2049932479858,11.1848220825195,11.1647233963013,11.1446971893311,11.1247415542603,11.1048583984375,11.0850458145142,11.0653038024902,11.0456314086914,11.026029586792,11.0064973831177,10.9870338439941,10.9676389694214,10.9483127593994,10.9290542602539,10.9096021652222,10.8900747299194,10.8706178665161,10.8512296676636,10.8319110870361,10.8126602172852,10.7934789657593,10.7743644714355,10.7553176879883,10.7363386154175,10.7174263000488,10.6985807418823,10.6798009872437,10.6610870361328,10.6424388885498,10.6238555908203,10.6053371429443,10.5868835449219,10.5684928894043,10.5501670837402,10.5319042205811,10.5137042999268,10.4955682754517,10.4774932861328,10.4572019577026,10.4327096939087,10.4083309173584,10.3840675354004,10.3599157333374,10.3358764648438,10.3119487762451,10.2881317138672,10.2644243240356,10.2408256530762,10.2173357009888,10.1939525604248,10.1706762313843,10.1475067138672,10.1244421005249,10.1014814376831,10.0786256790161,10.0558729171753,10.0332221984863,10.0106735229492,9.98822689056396,9.96587944030762,9.94363212585449,9.92148399353027,9.89943408966064,9.87748241424561,9.85562610626221,9.83386611938477,9.81220149993896
13.1696472167969,13.247031211853,13.3253288269043,13.4045581817627,13.4847354888916,13.5658769607544,13.6480016708374,13.7311267852783,13.8225727081299,13.9837408065796,14.1486759185791,14.3175477981567,15.7228832244873,15.7236127853394,15.7243394851685,15.7250661849976,15.725793838501,15.7265214920044,15.7272500991821,15.7279777526855,15.7287073135376,15.7294359207153,15.7301616668701,15.7308921813965,15.7316188812256,15.7323484420776,15.7330760955811,15.7338037490845,15.7345352172852,15.7352628707886,15.7359924316406,15.7367210388184,15.7374467849731,15.7381801605225,15.7389068603516,15.7396364212036,15.740364074707,15.7410945892334,15.7418231964111,15.7425518035889,15.7432832717896,15.7440118789673,15.7447414398193,15.7454710006714,15.7462005615234,15.7469310760498,15.7476587295532,15.7483892440796,15.749116897583,15.7498455047607,15.7505769729614,15.7513065338135,15.7520389556885,15.7527685165405,15.7534980773926,15.7542285919189,15.754958152771,15.7556896209717,15.756420135498,15.7571516036987,15.7578802108765,15.7586126327515,15.7593421936035,15.7600746154785,15.7608041763306,15.7615375518799,15.7622680664062,15.7629985809326,15.7637300491333,15.764461517334,15.7651929855347,15.7659254074097,15.7666578292847,15.7673864364624,15.7681198120117,15.768853187561,15.7695837020874,15.7703142166138,15.7710456848145,15.7717771530151,15.7725114822388,15.7732439041138,15.7739763259888,15.7747087478638,15.7754383087158,15.7761716842651,15.7769050598145,15.7776393890381,15.7783708572388,15.7791013717651,15.7798366546631,15.7805690765381,15.781304359436,15.782036781311,15.782769203186,15.7834997177124,15.7842330932617,15.7849674224854,15.785701751709,15.7864360809326,15.7871675491333,15.7879028320312,15.7886352539062,15.7893714904785,15.7901039123535,15.7908372879028,15.7915706634521,15.7923049926758,15.7930393218994,15.793773651123,15.7945079803467,15.7952404022217,15.7959756851196,15.7967119216919,15.7974443435669,15.7981777191162,15.7989149093628,15.7996482849121,15.8003826141357,15.8011207580566,15.8018522262573,15.8025875091553,15.8033227920532,15.8040590286255,15.8047952651978,15.8055276870728,15.8062648773193,15.806999206543,15.8077363967896,15.8084707260132,15.8092060089111,15.8099403381348,15.810676574707,15.8114156723022,15.8121480941772,15.8128843307495,15.8136215209961,15.8143558502197,15.8150930404663,15.8158273696899,15.8165626525879,15.8172979354858,15.8180360794067,15.818772315979,15.8195085525513,15.8202447891235,15.8209810256958,15.8217182159424,15.8224563598633,15.8231935501099,15.8239288330078,15.8246669769287,15.8254022598267,15.8261413574219,15.8268775939941,15.8276138305664,15.828351020813,15.8290882110596,15.8298254013062,15.8305635452271,15.8313016891479,15.8320398330688,15.8327789306641,15.833514213562,15.8342533111572,15.8349905014038,15.8357305526733,15.8364677429199,15.8372049331665,15.8379430770874,15.8386812210083,15.8394193649292,15.8401575088501,15.8408966064453,15.8416366577148,15.8423795700073,15.8431158065796,15.8438568115234,15.84459400177,15.8453321456909,15.8460731506348,15.8468112945557,15.8475503921509,15.8482894897461,15.8490285873413,15.8497657775879,15.8505058288574,15.851243019104,15.8519830703735,15.8527240753174,15.8534622192383,15.8542013168335,15.8549432754517,15.8556823730469,15.8564214706421,15.8571615219116,15.8579015731812,15.8586416244507,15.8593826293945,15.8601236343384,15.8608617782593,15.8616037368774,15.8623456954956,15.8630847930908,15.8638248443604,15.8645677566528,15.8653078079224,15.8660478591919,15.8667888641357,15.8675298690796,15.8682708740234,15.8690128326416,15.8697519302368,15.870493888855,15.8712368011475,15.871976852417,15.8727169036865,15.8734607696533,15.8742017745972,15.874942779541,15.8756837844849,15.876425743103,15.8771677017212,15.8779106140137,15.8786535263062,15.8793964385986,15.8801364898682,15.880880355835,15.8816213607788,15.8823652267456,15.8831043243408,15.883846282959,15.8845882415771,15.8853302001953,15.8860731124878,15.8868160247803,15.8875598907471,15.8883008956909,15.8890447616577,15.8897886276245,15.8905305862427,15.8912754058838,15.8920183181763,15.8927602767944,15.8935031890869,14.0183877944946,14.0022869110107,13.9862232208252,13.970196723938,13.9542064666748,13.93825340271,13.9223356246948,13.906455039978,13.8906106948853,13.8748016357422,13.8590297698975,13.8432922363281,13.8275918960571,13.8119258880615,13.7962961196899,13.7807016372681,11.9332628250122,11.8014116287231,11.6724424362183,11.5462608337402,11.422779083252,11.3019094467163,11.2765893936157,11.2561597824097,11.235803604126,11.215521812439,11.1953125,11.1751766204834,11.1551122665405,11.1351203918457,11.1151990890503,11.0953502655029,11.0755710601807,11.0558624267578,11.0362243652344,11.016655921936,10.9971561431885,10.977725982666,10.95836353302,10.9390697479248,10.9198436737061,10.9006853103638,10.8814420700073,10.8620157241821,10.8426580429077,10.8233699798584,10.8041496276855,10.7849979400635,10.7659139633179,10.7468976974487,10.7279481887817,10.7090654373169,10.6902484893799,10.671498298645,10.6528129577637,10.6341934204102,10.6156396865845,10.597149848938,10.5787239074707,10.5603618621826,10.542064666748,10.523829460144,10.5056581497192,10.487548828125,10.4695024490356,10.4515171051025,10.4335947036743,10.415732383728,10.3973264694214,10.3731136322021,10.3490123748779,10.3250246047974,10.3011465072632,10.2773790359497,10.2537212371826,10.2301712036133,10.206729888916,10.1833953857422,10.1601676940918,10.1370458602905,10.1140289306641,10.0911159515381,10.0683059692383,10.045599937439,10.0229959487915,10.0004930496216,9.9780912399292,9.95578956604004,9.93358707427979,9.91148376464844,9.88947868347168,9.86756992340088,9.84575843811035,9.82404136657715,9.8024206161499,9.7808952331543
13.1695699691772,13.2469530105591,13.325249671936,13.4044780731201,13.4846544265747,13.5657958984375,13.6479187011719,13.764440536499,13.9242401123047,14.0877656936646,14.2551784515381,15.5936298370361,15.5943450927734,15.5950622558594,15.5957775115967,15.596492767334,15.5972118377686,15.5979242324829,15.5986404418945,15.5993576049805,15.6000747680664,15.600790977478,15.6015062332153,15.6022233963013,15.6029415130615,15.6036567687988,15.6043729782104,15.6050910949707,15.6058073043823,15.6065244674683,15.6072378158569,15.6079578399658,15.6086750030518,15.6093902587891,15.6101083755493,15.6108264923096,15.6115417480469,15.6122608184814,15.6129770278931,15.6136932373047,15.6144132614136,15.6151304244995,15.6158475875854,15.6165647506714,15.6172828674316,15.6180009841919,15.6187200546265,15.6194353103638,15.6201543807983,15.6208744049072,15.6215906143188,15.6223106384277,15.6230249404907,15.6237459182739,15.6244640350342,15.6251783370972,15.6259002685547,15.6266164779663,15.6273384094238,15.6280546188354,15.6287746429443,15.6294946670532,15.6302118301392,15.630931854248,15.6316499710083,15.6323709487915,15.6330900192261,15.6338081359863,15.6345272064209,15.6352462768555,15.6359663009644,15.6366863250732,15.6374034881592,15.6381244659424,15.6388454437256,15.6395626068115,15.640284538269,15.6410093307495,15.6417284011841,15.6424474716187,15.6431674957275,15.6438875198364,15.6446075439453,15.6453313827515,15.6460485458374,15.6467695236206,15.6474914550781,15.6482133865356,15.6489315032959,15.6496515274048,15.6503734588623,15.6510934829712,15.6518173217773,15.6525373458862,15.6532583236694,15.6539793014526,15.6547002792358,15.6554193496704,15.656138420105,15.6568603515625,15.6575832366943,15.6583032608032,15.6590261459351,15.6597461700439,15.6604700088501,15.6611909866333,15.6619129180908,15.6626348495483,15.6633567810059,15.6640787124634,15.6648015975952,15.6655244827271,15.6662445068359,15.6669673919678,15.6676912307739,15.6684122085571,15.6691370010376,15.6698589324951,15.6705808639526,15.6713027954102,15.6720285415649,15.6727514266968,15.6734743118286,15.6741943359375,15.6749181747437,15.6756429672241,15.6763668060303,15.6770887374878,15.6778135299683,15.6785354614258,15.6792583465576,15.6799840927124,15.6807069778442,15.6814308166504,15.6821546554565,15.6828784942627,15.6836032867432,15.6843242645264,15.6850490570068,15.6857748031616,15.6864967346191,15.6872234344482,15.6879463195801,15.688666343689,15.6893930435181,15.6901168823242,15.6908416748047,15.6915664672852,15.6922912597656,15.6930160522461,15.6937417984009,15.6944646835327,15.6951913833618,15.6959142684937,15.6966409683228,15.6973648071289,15.6980924606323,15.6988172531128,15.6995420455933,15.700270652771,15.7009963989258,15.7017221450806,15.7024478912354,15.7031745910645,15.7039012908936,15.7046251296997,15.7053527832031,15.7060775756836,15.7068023681641,15.7075309753418,15.7082557678223,15.7089815139771,15.7097082138062,15.7104349136353,15.7111616134644,15.7118883132935,15.7126131057739,15.7133407592773,15.7140684127808,15.7147932052612,15.715521812439,15.7162485122681,15.7169771194458,15.7177038192749,15.7184276580811,15.7191572189331,15.7198820114136,15.7206125259399,15.7213411331177,15.7220630645752,15.7227916717529,15.7235174179077,15.7242460250854,15.7249727249146,15.7256994247437,15.72642993927,15.7271575927734,15.7278852462769,15.7286128997803,15.729341506958,15.7300701141357,15.7307987213135,15.7315282821655,15.7322549819946,15.7329816818237,15.7337112426758,15.7344388961792,15.7351694107056,15.7358980178833,15.7366256713867,15.7373542785645,15.7380838394165,15.7388124465942,15.7395420074463,15.7402725219727,15.7410020828247,15.7417297363281,15.7424573898315,15.7431888580322,15.7439165115356,15.7446489334106,15.7453775405884,15.7461071014404,15.7468366622925,15.7475662231445,15.7482967376709,15.7490272521973,15.7497549057007,15.7504863739014,15.7512178421021,15.7519464492798,15.7526779174805,15.7534074783325,15.7541370391846,15.7548637390137,15.75559425354,15.7563247680664,15.7570581436157,15.7577896118164,15.7585182189941,15.7592496871948,14.0218353271484,14.00572681427,13.9896554946899,13.9736204147339,13.9576225280762,13.9416608810425,13.9257364273071,13.9098482131958,13.8939952850342,13.8781795501709,13.8623991012573,13.8466548919678,13.8309459686279,13.8152723312378,13.7996349334717,13.7840328216553,13.7684659957886,12.0243492126465,11.8904886245728,11.7595748901367,11.6315135955811,11.5062112808228,11.3835792541504,11.2872524261475,11.2667846679688,11.2463903427124,11.2260704040527,11.2058229446411,11.1856489181519,11.1655473709106,11.1455173492432,11.1255598068237,11.1056728363037,11.0858573913574,11.0661125183105,11.0464382171631,11.0268325805664,11.0072975158691,10.9878311157227,10.968433380127,10.949104309082,10.9298429489136,10.9106492996216,10.8915233612061,10.8724641799927,10.8534269332886,10.8340997695923,10.8148422241211,10.7956523895264,10.7765302658081,10.7574768066406,10.7384901046753,10.7195701599121,10.7007169723511,10.6819295883179,10.6632080078125,10.644552230835,10.6259613037109,10.6074352264404,10.5889739990234,10.57057762146,10.5522441864014,10.5339736938477,10.5157670974731,10.4976234436035,10.4795417785645,10.4615230560303,10.4435653686523,10.425669670105,10.4078350067139,10.390061378479,10.3723478317261,10.3546953201294,10.3371028900146,10.3141946792603,10.2903661727905,10.2666482925415,10.2430400848389,10.219539642334,10.1961469650269,10.1728610992432,10.1496810913086,10.1266059875488,10.1036367416382,10.0807704925537,10.0580081939697,10.0353479385376,10.0127897262573,9.99033260345459,9.96797657012939,9.94571971893311,9.92356204986572,9.90150356292725,9.87954235076904,9.85767841339111,9.83590984344482,9.81423759460449,9.79265975952148,9.7711763381958,9.74978733062744
13.1694927215576,13.2468748092651,13.3251714706421,13.4043989181519,13.4845743179321,13.5657138824463,13.7067947387695,13.8652429580688,14.0273780822754,14.1933498382568,15.4664869308472,15.4671897888184,15.4678926467896,15.4685964584351,15.4693002700806,15.4700040817261,15.4707117080688,15.4714164733887,15.4721183776855,15.4728231430054,15.4735288619995,15.4742345809937,15.4749374389648,15.4756441116333,15.4763479232788,15.4770517349243,15.4777584075928,15.4784631729126,15.4791679382324,15.4798727035522,15.4805784225464,15.4812841415405,15.4819898605347,15.4826965332031,15.4833993911743,15.4841070175171,15.4848108291626,15.4855184555054,15.4862232208252,15.486930847168,15.4876365661621,15.4883413314819,15.4890480041504,15.4897537231445,15.490460395813,15.4911670684814,15.491870880127,15.4925785064697,15.4932861328125,15.4939908981323,15.4946994781494,15.4954042434692,15.4961099624634,15.4968166351318,15.4975261688232,15.4982328414917,15.4989395141602,15.4996433258057,15.5003480911255,15.5010557174683,15.5017642974854,15.5024757385254,15.5031814575195,15.5038900375366,15.5045967102051,15.5053062438965,15.5060129165649,15.5067195892334,15.5074272155762,15.5081348419189,15.508843421936,15.5095510482788,15.5102596282959,15.5109663009644,15.5116748809814,15.5123815536499,15.5130910873413,15.5137987136841,15.5145092010498,15.5152196884155,15.5159273147583,15.5166330337524,15.5173416137695,15.5180530548096,15.518762588501,15.5194683074951,15.5201787948608,15.5208854675293,15.521595954895,15.5223064422607,15.5230140686035,15.5237255096436,15.5244340896606,15.5251426696777,15.5258512496948,15.5265607833862,15.5272703170776,15.5279808044434,15.5286912918091,15.5294017791748,15.5301094055176,15.5308170318604,15.5315256118774,15.5322370529175,15.5329465866089,15.533655166626,15.5343685150146,15.5350780487061,15.5357885360718,15.5364990234375,15.5372066497803,15.537917137146,15.538628578186,15.5393400192261,15.5400524139404,15.5407619476318,15.5414714813232,15.5421838760376,15.5428943634033,15.5436038970947,15.5443153381348,15.5450286865234,15.5457401275635,15.5464487075806,15.5471611022949,15.547872543335,15.5485820770264,15.549295425415,15.5500078201294,15.5507183074951,15.5514326095581,15.5521430969238,15.5528545379639,15.5535659790039,15.5542774200439,15.5549926757812,15.5557022094727,15.556414604187,15.5571279525757,15.5578413009644,15.5585517883301,15.5592660903931,15.5599765777588,15.560694694519,15.5614061355591,15.5621185302734,15.5628309249878,15.5635433197021,15.5642528533936,15.5649690628052,15.5656795501709,15.5663938522339,15.5671081542969,15.5678224563599,15.5685338973999,15.5692491531372,15.5699615478516,15.5706739425659,15.5713863372803,15.5720996856689,15.5728168487549,15.5735273361206,15.5742444992065,15.5749559402466,15.5756702423096,15.5763854980469,15.5770978927612,15.5778131484985,15.5785255432129,15.5792417526245,15.5799560546875,15.5806694030762,15.5813837051392,15.5820980072021,15.5828151702881,15.5835275650024,15.5842456817627,15.5849580764771,15.5856742858887,15.586386680603,15.587103843689,15.5878200531006,15.5885343551636,15.5892486572266,15.5899658203125,15.5906810760498,15.5913963317871,15.5921115875244,15.5928249359131,15.5935440063477,15.5942573547363,15.5949735641479,15.5956878662109,15.5964021682739,15.5971193313599,15.5978345870972,15.5985498428345,15.5992650985718,15.5999841690063,15.6006994247437,15.6014165878296,15.6021299362183,15.6028470993042,15.6035642623901,15.6042814254761,15.6049995422363,15.6057147979736,15.6064329147339,15.6071491241455,15.6078643798828,15.6085844039917,15.6093006134033,15.6100177764893,15.6107349395752,15.6114521026611,15.6121673583984,15.6128854751587,15.6136035919189,15.6143226623535,15.6150388717651,15.6157550811768,15.6164741516113,15.6171913146973,15.6179084777832,15.6186256408691,15.6193504333496,15.6200685501099,15.6207866668701,15.6215019226074,15.622220993042,15.6229410171509,15.6236572265625,15.6243772506714,15.6250944137573,15.6258115768433,15.6265325546265,15.6272506713867,15.627968788147,14.0091676712036,13.993088722229,13.9770460128784,13.9610404968262,13.9450712203979,13.9291381835938,13.9132423400879,13.8973817825317,13.8815584182739,13.8657703399658,13.8500175476074,13.8343019485474,13.8186206817627,13.8029756546021,13.7873659133911,13.7717914581299,13.756251335144,13.7407474517822,11.9809198379517,11.8480186462402,11.7180347442627,11.5908708572388,11.4664373397827,11.3446474075317,11.2774295806885,11.2569971084595,11.2366380691528,11.2163524627686,11.196141242981,11.1760015487671,11.1559343338013,11.1359395980835,11.1160154342651,11.0961627960205,11.0763816833496,11.0566701889038,11.0370292663574,11.0174579620361,10.9979553222656,10.9785223007202,10.9591569900513,10.9398603439331,10.9206323623657,10.9014701843262,10.8823766708374,10.8633489608765,10.8443880081177,10.8254928588867,10.8063278198242,10.7871685028076,10.7680768966675,10.7490520477295,10.730094909668,10.7112045288086,10.6923809051514,10.673623085022,10.6549310684204,10.6363039016724,10.6177415847778,10.5992450714111,10.5808115005493,10.562442779541,10.5441379547119,10.5258960723877,10.5077171325684,10.4896011352539,10.47154712677,10.4535551071167,10.4356250762939,10.4177570343018,10.3999490737915,10.3822031021118,10.3645162582397,10.3468904495239,10.3293237686157,10.3118171691895,10.2943696975708,10.2769813537598,10.2559404373169,10.2323808670044,10.208930015564,10.1855850219727,10.1623477935791,10.1392154693604,10.1161880493164,10.0932655334473,10.0704469680786,10.0477304458618,10.0251169204712,10.0026044845581,9.98019313812256,9.95788192749023,9.93567085266113,9.91355800628662,9.8915433883667,9.86962604522705,9.84780597686768,9.82608222961426,9.80445194244385,9.78291797637939,9.76147747039795,9.74013042449951,9.71887683868408
13.1694164276123,13.2467966079712,13.3250923156738,13.4043188095093,13.4960241317749,13.6496295928955,13.8067436218262,13.9675054550171,15.3407077789307,15.3413991928101,15.3420906066895,15.3427848815918,15.3434772491455,15.3441696166992,15.3448629379272,15.345552444458,15.3462467193604,15.3469400405884,15.3476305007935,15.3483247756958,15.3490200042725,15.3497114181519,15.3504066467285,15.3510990142822,15.3517951965332,15.3524875640869,15.3531808853149,15.353874206543,15.3545684814453,15.3552627563477,15.35595703125,15.3566513061523,15.3573436737061,15.3580389022827,15.3587341308594,15.3594264984131,15.3601198196411,15.3608160018921,15.3615131378174,15.3622074127197,15.3629016876221,15.3635931015015,15.3642902374268,15.3649826049805,15.3656778335571,15.3663768768311,15.367073059082,15.3677663803101,15.368462562561,15.3691596984863,15.3698539733887,15.370548248291,15.3712425231934,15.37193775177,15.3726329803467,15.3733282089233,15.3740272521973,15.3747205734253,15.3754167556763,15.3761138916016,15.3768072128296,15.3775014877319,15.3781957626343,15.3788938522339,15.3795890808105,15.3802843093872,15.3809833526611,15.3816795349121,15.3823757171631,15.3830690383911,15.3837690353394,15.3844633102417,15.385160446167,15.3858585357666,15.3865528106689,15.3872518539429,15.3879470825195,15.3886432647705,15.3893423080444,15.3900384902954,15.3907356262207,15.3914318084717,15.3921298980713,15.3928270339966,15.3935251235962,15.3942232131958,15.3949184417725,15.3956174850464,15.3963165283203,15.3970127105713,15.3977088928223,15.3984088897705,15.3991060256958,15.3998069763184,15.4005012512207,15.4011993408203,15.4018983840942,15.4025964736938,15.4032955169678,15.4039945602417,15.404691696167,15.4053916931152,15.4060878753662,15.4067888259888,15.4074859619141,15.4081840515137,15.4088792800903,15.4095811843872,15.4102764129639,15.4109754562378,15.411675453186,15.41237449646,15.4130744934082,15.4137716293335,15.4144725799561,15.4151735305786,15.4158716201782,15.4165725708008,15.4172716140747,15.4179706573486,15.4186697006226,15.4193696975708,15.4200687408447,15.4207696914673,15.4214696884155,15.4221677780151,15.4228687286377,15.4235725402832,15.4242715835571,15.424973487854,15.4256725311279,15.4263753890991,15.427074432373,15.4277744293213,15.4284753799438,15.4291753768921,15.4298763275146,15.4305782318115,15.4312763214111,15.431978225708,15.4326801300049,15.4333791732788,15.43408203125,15.4347820281982,15.4354858398438,15.436185836792,15.4368867874146,15.4375877380371,15.438289642334,15.4389905929565,15.4396924972534,15.4403953552246,15.4410943984985,15.4417943954468,15.442497253418,15.4431982040405,15.4438991546631,15.4446029663086,15.4453067779541,15.446008682251,15.4467105865479,15.4474096298218,15.4481153488159,15.4488153457642,15.4495182037354,15.4502210617065,15.4509248733521,15.4516258239746,15.4523305892944,15.453031539917,15.4537363052368,15.4544382095337,15.4551410675049,15.4558439254761,15.4565467834473,15.4572496414185,15.457953453064,15.4586572647095,15.459361076355,15.4600629806519,15.4607677459717,15.4614696502686,15.4621744155884,15.4628772735596,15.4635829925537,15.4642868041992,15.4649896621704,15.4656934738159,15.4663972854614,15.4671020507812,15.4678068161011,15.4685087203979,15.4692134857178,15.4699192047119,15.4706220626831,15.4713287353516,15.4720315933228,15.4727354049683,15.4734363555908,15.4741430282593,15.4748477935791,15.4755525588989,15.4762582778931,15.4769630432129,15.477668762207,15.4783725738525,15.4790754318237,15.4797821044922,15.4804887771606,15.4811964035034,15.4819011688232,15.482608795166,15.4833135604858,15.48401927948,15.4847249984741,15.4854307174683,15.4861364364624,15.4868431091309,15.4875469207764,15.4882545471191,15.4889583587646,15.4896669387817,15.4903717041016,15.4910802841187,15.4917850494385,15.4924907684326,15.4931974411011,15.4939041137695,15.494610786438,15.4953174591064,15.4960250854492,15.496729850769,15.4974374771118,15.4981460571289,14.0126104354858,13.9965238571167,13.9804725646973,13.9644594192505,13.9484825134277,13.932541847229,13.9166374206543,13.9007701873779,13.8849382400513,13.8691425323486,13.85338306427,13.8376588821411,13.8219709396362,13.8063182830811,13.7907009124756,13.7751188278198,13.7595710754395,13.7440595626831,13.7285823822021,12.0727376937866,11.9378032684326,11.8058519363403,11.6767854690552,11.5505113601685,11.4269380569458,11.3059816360474,11.2676229476929,11.2472257614136,11.226902961731,11.2066526412964,11.1864757537842,11.1663703918457,11.1463384628296,11.1263771057129,11.1064882278442,11.086669921875,11.0669221878052,11.0472440719604,11.0276365280151,11.0080976486206,10.9886293411255,10.9692287445068,10.949896812439,10.9306325912476,10.9114360809326,10.8923072814941,10.8732452392578,10.8542499542236,10.8353204727173,10.8164567947388,10.7976589202881,10.7786979675293,10.759635925293,10.7406415939331,10.7217140197754,10.7028532028198,10.6840581893921,10.6653299331665,10.6466665267944,10.6280679702759,10.6095352172852,10.5910663604736,10.5726623535156,10.5543212890625,10.5360441207886,10.5178308486938,10.4996795654297,10.4815912246704,10.4635648727417,10.4456005096436,10.427698135376,10.4098558425903,10.3920755386353,10.3743553161621,10.3566961288452,10.3390960693359,10.3215570449829,10.3040761947632,10.2866544723511,10.2692918777466,10.2519884109497,10.2347421646118,10.2175540924072,10.1983413696289,10.1750459671021,10.1518564224243,10.1287717819214,10.1057920455933,10.0829162597656,10.0601444244385,10.0374746322632,10.0149068832397,9.99244022369385,9.97007465362549,9.94780826568604,9.9256420135498,9.90357303619385,9.8816032409668,9.85973072052002,9.83795356750488,9.81627368927002,9.79468727111816,9.77319526672363,9.75179672241211,9.73049259185791,9.7092809677124,9.68816184997559
13.1693391799927,13.2467193603516,13.3250131607056,13.4406003952026,13.5929403305054,13.7487363815308,13.9081420898438,15.2176351547241,15.218316078186,15.2189998626709,15.2196807861328,15.220362663269,15.2210445404053,15.2217264175415,15.2224092483521,15.2230911254883,15.2237710952759,15.2244548797607,15.2251348495483,15.2258186340332,15.2264966964722,15.227180480957,15.2278623580933,15.2285470962524,15.2292289733887,15.2299118041992,15.2305946350098,15.2312774658203,15.2319602966309,15.2326440811157,15.2333278656006,15.2340126037598,15.2346935272217,15.2353782653809,15.2360601425171,15.2367420196533,15.2374277114868,15.2381105422974,15.2387933731079,15.2394771575928,15.2401609420776,15.2408447265625,15.2415285110474,15.2422132492065,15.2428979873657,15.243579864502,15.2442655563354,15.244948387146,15.2456312179565,15.24631690979,15.2470006942749,15.2476844787598,15.2483682632446,15.2490558624268,15.2497367858887,15.2504215240479,15.2511072158813,15.2517929077148,15.2524747848511,15.2531614303589,15.2538442611694,15.2545309066772,15.2552175521851,15.2559022903442,15.2565860748291,15.2572679519653,15.2579526901245,15.258638381958,15.2593240737915,15.260009765625,15.2606954574585,15.2613792419434,15.2620658874512,15.262749671936,15.2634372711182,15.264121055603,15.2648057937622,15.2654943466187,15.2661800384521,15.2668647766113,15.2675514221191,15.2682371139526,15.2689237594604,15.2696104049683,15.2702980041504,15.2709817886353,15.2716693878174,15.2723541259766,15.273042678833,15.2737283706665,15.2744140625,15.2750997543335,15.2757863998413,15.2764759063721,15.2771625518799,15.277850151062,15.2785348892212,15.2792224884033,15.2799100875854,15.2805986404419,15.2812843322754,15.2819728851318,15.2826595306396,15.2833461761475,15.2840328216553,15.284722328186,15.2854099273682,15.2860975265503,15.2867851257324,15.2874708175659,15.288158416748,15.2888479232788,15.2895364761353,15.2902231216431,15.2909126281738,15.2915992736816,15.2922897338867,15.2929773330688,15.293664932251,15.2943525314331,15.2950410842896,15.295729637146,15.2964181900024,15.2971076965332,15.297797203064,15.2984838485718,15.2991733551025,15.2998638153076,15.3005514144897,15.3012428283691,15.3019304275513,15.3026189804077,15.3033103942871,15.3039970397949,15.3046855926514,15.3053750991821,15.3060655593872,15.306755065918,15.307445526123,15.3081331253052,15.3088245391846,15.309515953064,15.3102045059204,15.3108930587769,15.3115854263306,15.3122749328613,15.3129644393921,15.3136548995972,15.3143444061279,15.3150358200073,15.3157262802124,15.3164176940918,15.3171062469482,15.3177976608276,15.3184862136841,15.3191785812378,15.3198652267456,15.3205547332764,15.3212480545044,15.3219385147095,15.3226289749146,15.3233203887939,15.3240118026733,15.3247032165527,15.3253917694092,15.3260841369629,15.3267765045166,15.3274698257446,15.3281593322754,15.3288497924805,15.3295431137085,15.3302345275879,15.330924987793,15.3316164016724,15.332311630249,15.3330001831055,15.3336954116821,15.3343849182129,15.3350782394409,15.3357715606689,15.336462020874,15.3371553421021,15.3378467559814,15.3385381698608,15.3392324447632,15.3399238586426,15.3406162261963,15.34130859375,15.342001914978,15.3426942825317,15.3433876037598,15.3440818786621,15.3447723388672,15.3454694747925,15.3461647033691,15.3468561172485,15.3475513458252,15.3482437133789,15.3489360809326,15.3496294021606,15.3503217697144,15.3510189056396,15.3517093658447,15.3524007797241,15.3530950546265,15.3537893295288,15.3544816970825,15.3551769256592,15.3558721542358,15.3565645217896,15.3572578430176,15.3579540252686,15.3586483001709,15.3593416213989,15.3600358963013,15.3607301712036,15.3614253997803,15.362117767334,15.3628158569336,15.3635082244873,15.3642044067383,15.3648977279663,15.3655939102173,15.3662881851196,15.366982460022,15.3676795959473,15.3683748245239,15.3690690994263,15.3697643280029,15.3704566955566,15.3711528778076,13.9999599456787,13.9839019775391,13.9678802490234,13.9518957138062,13.9359474182129,13.9200353622437,13.9041595458984,13.8883199691772,13.8725166320801,13.8567495346069,13.8410177230835,13.8253221511841,13.8096618652344,13.7940368652344,13.7784471511841,13.7628927230835,13.7473735809326,13.7318887710571,13.7164392471313,12.1659727096558,12.0289583206177,11.8949956893921,11.7639837265015,11.6358270645142,11.5104312896729,11.3877105712891,11.2782697677612,11.2578344345093,11.2374725341797,11.2171840667725,11.1969690322876,11.1768264770508,11.156756401062,11.1367588043213,11.11683177948,11.0969762802124,11.0771923065186,11.0574779510498,11.0378341674805,11.0182600021362,10.9987545013428,10.9793186187744,10.9599504470825,10.9406509399414,10.9214200973511,10.9022560119629,10.8831586837769,10.8641290664673,10.8451652526855,10.8262672424316,10.8074359893799,10.7886695861816,10.7699680328369,10.7512083053589,10.7322435379028,10.7133455276489,10.6945142745972,10.6757488250732,10.6570491790771,10.6384143829346,10.6198453903198,10.6013412475586,10.5829010009766,10.5645246505737,10.5462121963501,10.5279636383057,10.5097770690918,10.4916543960571,10.473593711853,10.4555940628052,10.4376573562622,10.4197816848755,10.401967048645,10.3842134475708,10.3665208816528,10.3488874435425,10.3313140869141,10.3138008117676,10.2963466644287,10.2789516448975,10.2616147994995,10.2443370819092,10.2271165847778,10.2099542617798,10.192850112915,10.175802230835,10.1588115692139,10.1413860321045,10.1183490753174,10.0954170227051,10.0725879669189,10.0498628616333,10.0272388458252,10.0047168731689,9.98229694366455,9.95997619628906,9.93775463104248,9.91563320159912,9.89360904693604,9.87168312072754,9.849853515625,9.82812118530273,9.80648422241211,9.78494071960449,9.7634916305542,9.74213600158691,9.72087383270264,9.69970417022705,9.67862701416016,9.65764045715332
13.169261932373,13.2466411590576,13.385630607605,13.536714553833,13.6912145614624,13.8492813110352,15.0965232849121,15.0971937179565,15.097864151001,15.0985345840454,15.0992059707642,15.0998773574829,15.100549697876,15.1012239456177,15.1018962860107,15.1025657653809,15.103235244751,15.1039085388184,15.1045789718628,15.1052532196045,15.1059236526489,15.1065950393677,15.1072664260864,15.1079378128052,15.1086072921753,15.109278678894,15.1099519729614,15.1106214523315,15.1112947463989,15.1119680404663,15.1126384735107,15.1133127212524,15.1139841079712,15.1146554946899,15.1153297424316,15.1160020828247,15.1166744232178,15.1173467636108,15.1180200576782,15.1186933517456,15.119366645813,15.1200370788574,15.1207113265991,15.1213827133179,15.1220569610596,15.1227283477783,15.1234006881714,15.1240758895874,15.1247491836548,15.1254215240479,15.1260948181152,15.1267681121826,15.1274423599243,15.128116607666,15.1287908554077,15.1294622421265,15.1301364898682,15.1308116912842,15.1314840316772,15.1321573257446,15.132833480835,15.1335067749023,15.1341829299927,15.1348533630371,15.1355276107788,15.1362018585205,15.1368770599365,15.1375513076782,15.1382274627686,15.1388998031616,15.1395721435547,15.140248298645,15.1409215927124,15.1415977478027,15.1422719955444,15.1429462432861,15.1436204910278,15.1442985534668,15.1449737548828,15.1456451416016,15.1463212966919,15.1469964981079,15.1476726531982,15.1483459472656,15.1490230560303,15.1497001647949,15.1503744125366,15.1510515213013,15.1517267227173,15.1524019241333,15.1530771255493,15.1537523269653,15.1544284820557,15.155104637146,15.1557807922363,15.156457901001,15.1571350097656,15.1578121185303,15.158486366272,15.1591644287109,15.1598424911499,15.1605176925659,15.1611938476562,15.1618728637695,15.1625461578369,15.1632223129272,15.1638994216919,15.1645793914795,15.1652536392212,15.1659317016602,15.1666088104248,15.1672840118408,15.1679630279541,15.1686382293701,15.1693181991577,15.1699905395508,15.1706676483154,15.171347618103,15.1720247268677,15.1726989746094,15.1733798980713,15.1740550994873,15.1747331619263,15.1754112243652,15.1760902404785,15.1767663955688,15.1774463653564,15.1781225204468,15.1787996292114,15.179479598999,15.180157661438,15.1808347702026,15.1815128326416,15.1821918487549,15.1828699111938,15.1835489273071,15.1842288970947,15.184907913208,15.1855850219727,15.1862649917603,15.1869421005249,15.1876192092896,15.1883010864258,15.1889791488647,15.1896572113037,15.190336227417,15.1910152435303,15.1916942596436,15.1923742294312,15.1930541992188,15.1937341690063,15.1944141387939,15.1950922012329,15.1957731246948,15.1964511871338,15.1971302032471,15.1978120803833,15.1984910964966,15.1991701126099,15.1998500823975,15.2005262374878,15.2012071609497,15.2018871307373,15.2025680541992,15.2032499313354,15.2039279937744,15.2046098709106,15.2052879333496,15.2059707641602,15.2066497802734,15.207332611084,15.2080125808716,15.2086935043335,15.2093734741211,15.210054397583,15.2107362747192,15.2114171981812,15.2121028900146,15.2127809524536,15.2134637832642,15.2141466140747,15.2148265838623,15.2155065536499,15.2161903381348,15.2168703079224,15.2175512313843,15.2182331085205,15.2189140319824,15.2195959091187,15.2202787399292,15.2209606170654,15.221643447876,15.2223234176636,15.2230072021484,15.223687171936,15.2243680953979,15.2250528335571,15.225733757019,15.2264184951782,15.2271003723145,15.227783203125,15.2284650802612,15.2291479110718,15.2298316955566,15.2305116653442,15.2311954498291,15.2318735122681,15.2325572967529,15.2332391738892,15.2339239120483,15.2346086502075,15.2352914810181,15.2359743118286,15.2366571426392,15.2373399734497,15.2380237579346,15.2387075424194,15.2393913269043,15.2400760650635,15.2407579421997,15.2414398193359,15.2421245574951,15.2428073883057,15.2434930801392,15.2441759109497,15.2448596954346,15.2455463409424,14.0033988952637,13.9873323440552,13.971302986145,13.9553098678589,13.9393539428711,13.9234342575073,13.9075508117676,13.8917045593262,13.8758926391602,13.8601179122925,13.8443784713745,13.8286752700806,13.8130073547363,13.7973747253418,13.781777381897,13.7662153244019,13.7506885528564,13.7351970672607,13.7197399139404,13.7043180465698,13.6889305114746,12.1215162277222,11.9854965209961,11.8524942398071,11.722412109375,11.5951538085938,11.4706296920776,11.3487510681152,11.2684621810913,11.2480621337891,11.2277355194092,11.2074823379517,11.1873025894165,11.1671943664551,11.1471586227417,11.1271953582764,11.1073026657104,11.0874814987183,11.0677309036255,11.0480508804321,11.0284395217896,11.0088987350464,10.989426612854,10.9700231552124,10.9506883621216,10.9314222335815,10.9122228622437,10.8930912017822,10.8740262985229,10.8550281524658,10.8360958099365,10.8172302246094,10.7984294891357,10.7796945571899,10.7610235214233,10.7424182891846,10.723858833313,10.7049903869629,10.6861886978149,10.6674518585205,10.6487817764282,10.6301755905151,10.6116352081299,10.5931596755981,10.5747480392456,10.5564002990723,10.5381155014038,10.5198945999146,10.5017366409302,10.4836406707764,10.4656076431274,10.4476366043091,10.429726600647,10.4118785858154,10.3940906524658,10.3763637542725,10.358696937561,10.3410911560059,10.3235445022583,10.3060569763184,10.2886295318604,10.2712602615356,10.2539491653442,10.2366971969604,10.2195024490356,10.2023658752441,10.1852865219116,10.1682643890381,10.1512985229492,10.134388923645,10.1175365447998,10.1007394790649,10.0839986801147,10.0622806549072,10.0396022796631,10.0170240402222,9.99454879760742,9.9721736907959,9.94989776611328,9.92772197723389,9.90564441680908,9.88366508483887,9.86178302764893,9.83999729156494,9.81830787658691,9.79671382904053,9.77521419525146,9.75380706787109,9.73249435424805,9.71127414703369,9.69014644622803,9.66911029815674,9.64816570281982,9.62731075286865
13.184549331665,13.3311080932617,13.4809494018555,13.6341714859009,14.9766683578491,14.9773283004761,14.9779891967773,14.9786491394043,14.9793071746826,14.9799680709839,14.9806299209595,14.9812889099121,14.9819507598877,14.9826097488403,14.9832725524902,14.9839324951172,14.9845952987671,14.9852561950684,14.9859161376953,14.9865770339966,14.9872388839722,14.9878997802734,14.9885587692261,14.9892206192017,14.9898824691772,14.9905424118042,14.9912052154541,14.9918651580811,14.992525100708,14.9931859970093,14.9938468933105,14.9945077896118,14.9951725006104,14.9958343505859,14.9964962005615,14.9971590042114,14.9978179931641,14.998480796814,14.9991436004639,14.9998073577881,15.0004682540894,15.0011320114136,15.0017929077148,15.0024547576904,15.0031156539917,15.0037813186646,15.0044431686401,15.00510597229,15.0057687759399,15.0064315795898,15.0070924758911,15.007755279541,15.0084199905396,15.0090808868408,15.0097455978394,15.0104103088379,15.0110721588135,15.0117378234863,15.012396812439,15.0130624771118,15.013726234436,15.0143890380859,15.0150527954102,15.0157165527344,15.0163774490356,15.0170421600342,15.0177068710327,15.0183715820312,15.0190343856812,15.0196971893311,15.0203628540039,15.0210256576538,15.021692276001,15.0223531723022,15.0230169296265,15.0236806869507,15.0243453979492,15.0250101089478,15.0256719589233,15.0263433456421,15.027006149292,15.0276689529419,15.0283346176147,15.028998374939,15.0296649932861,15.0303316116333,15.0309963226318,15.0316610336304,15.0323257446289,15.0329904556274,15.0336561203003,15.0343208312988,15.0349836349487,15.0356502532959,15.0363168716431,15.0369806289673,15.0376472473145,15.0383148193359,15.0389785766602,15.0396432876587,15.0403118133545,15.0409774780273,15.0416431427002,15.0423059463501,15.0429716110229,15.0436410903931,15.0443048477173,15.0449724197388,15.045636177063,15.0463037490845,15.046968460083,15.0476369857788,15.0483016967773,15.0489702224731,15.0496368408203,15.0503025054932,15.0509691238403,15.0516357421875,15.052303314209,15.0529670715332,15.0536346435547,15.0543022155762,15.054967880249,15.0556325912476,15.0563020706177,15.0569705963135,15.0576372146606,15.0583038330078,15.0589733123779,15.0596399307251,15.0603075027466,15.0609750747681,15.0616426467896,15.0623111724854,15.0629768371582,15.063645362854,15.0643110275269,15.064980506897,15.0656499862671,15.0663166046143,15.0669841766357,15.0676517486572,15.0683221817017,15.0689897537231,15.0696582794189,15.0703268051147,15.0709953308105,15.0716648101807,15.0723304748535,15.0729999542236,15.0736675262451,15.0743370056152,15.0750074386597,15.0756750106812,15.0763463973999,15.0770149230957,15.0776834487915,15.0783519744873,15.0790205001831,15.0796899795532,15.0803604125977,15.0810327529907,15.0817031860352,15.0823707580566,15.0830411911011,15.0837059020996,15.0843772888184,15.0850458145142,15.0857152938843,15.086386680603,15.0870561599731,15.0877265930176,15.0883960723877,15.0890665054321,15.0897369384766,15.090407371521,15.0910758972168,15.0917472839355,15.0924158096313,15.0930871963501,15.0937566757202,15.0944290161133,15.0950984954834,15.0957689285278,15.0964393615723,15.0971097946167,15.0977840423584,15.0984516143799,15.0991258621216,15.0997953414917,15.1004667282104,15.1011390686035,15.1018085479736,15.1024780273438,15.1031513214111,15.1038217544556,15.1044950485229,15.1051664352417,15.1058378219604,15.1065092086792,15.1071805953979,15.107852935791,15.1085252761841,15.1091947555542,15.1098670959473,15.1105403900146,15.1112108230591,15.1118850708008,15.1125555038452,15.113226890564,15.1138982772827,15.1145706176758,15.1152420043945,15.1159143447876,15.116587638855,15.117259979248,15.1179332733154,15.1186075210571,15.1192779541016,15.1199522018433,15.120623588562,15.1212978363037,15.1219701766968,14.0068387985229,13.9907646179199,13.9747276306152,13.9587268829346,13.9427623748779,13.9268350601196,13.9109439849854,13.8950891494751,13.8792705535889,13.8634881973267,13.8477411270142,13.8320302963257,13.8163547515869,13.8007144927979,13.7851095199585,13.7695398330688,13.7540054321289,13.7385063171387,13.7230415344238,13.7076120376587,13.6922178268433,13.6768569946289,12.2155103683472,12.0773839950562,11.942346572876,11.8102960586548,11.6811332702637,11.5547647476196,11.4311017990112,11.3100566864014,11.2586717605591,11.2383069992065,11.2180156707764,11.1977977752686,11.1776523590088,11.1575794219971,11.1375780105591,11.1176481246948,11.0977907180786,11.0780029296875,11.0582857131958,11.0386390686035,11.0190620422363,10.9995536804199,10.9801149368286,10.9607448577881,10.941442489624,10.9222078323364,10.9030408859253,10.8839416503906,10.8649082183838,10.8459424972534,10.8270416259766,10.8082075119019,10.7894382476807,10.770733833313,10.7520952224731,10.7335195541382,10.7150087356567,10.6965618133545,10.6778755187988,10.6591682434082,10.6405267715454,10.6219501495361,10.6034383773804,10.5849905014038,10.5666074752808,10.5482873916626,10.5300312042236,10.5118379592896,10.4937076568604,10.475640296936,10.457633972168,10.4396905899048,10.4218072891235,10.4039859771729,10.3862257003784,10.3685255050659,10.3508863449097,10.333306312561,10.3157863616943,10.2983245849609,10.2809228897095,10.2635793685913,10.2462949752808,10.2290678024292,10.2118997573853,10.194787979126,10.177734375,10.1607370376587,10.1437969207764,10.1269121170044,10.1100845336914,10.0933122634888,10.0765962600708,10.0599346160889,10.0433282852173,10.0267772674561,10.0068311691284,9.98440074920654,9.96207046508789,9.93984031677246,9.91770935058594,9.89567565917969,9.87374019622803,9.85190200805664,9.83016109466553,9.80851459503174,9.78696346282959,9.76550674438477,9.74414253234863,9.72287178039551,9.70169353485107,9.68060684204102,9.65961265563965,9.63870811462402,9.61789512634277,9.59717082977295
