10.8291931152344,10.8820600509644,10.9354457855225,10.9893579483032,11.0438041687012,11.0987930297852,11.1543321609497,11.2104301452637,11.2670946121216,11.3243350982666,11.3821601867676,11.4405784606934,11.4995994567871,11.5592460632324,11.6195163726807,11.6804180145264,11.7419605255127,11.8041496276855,11.867000579834,11.9305238723755,11.9947319030762,12.0596351623535,12.1252431869507,12.1915702819824,12.2586317062378,12.3264408111572,12.3950042724609,12.464334487915,12.53444480896,12.6053476333618,12.6770572662354,12.749587059021,12.8229522705078,12.8971662521362,12.9722385406494,13.0481853485107,13.1250257492065,13.2027759552002,13.2814540863037,13.3610754013062,13.4416561126709,13.5232152938843,13.605770111084,13.6893358230591,13.7739353179932,13.8595876693726,13.9463109970093,14.034125328064,14.1230525970459,14.2131147384644,14.30433177948,14.3967275619507,14.4903249740601,14.585147857666,14.6812191009521,14.778564453125,14.8772096633911,14.977180480957,15.0785045623779,15.1812086105347,15.2853202819824,15.4102048873901,15.6163997650146,15.8283271789551,16.046085357666,16.1919975280762,16.1957664489746,16.1995372772217,16.3135356903076,16.4328193664551,16.5538463592529,16.6766700744629,16.8013286590576,16.9278526306152,17.056079864502,17.5001106262207,17.5011444091797,17.5021781921387,17.5032196044922,17.5042552947998,17.505298614502,17.5063323974609,17.5073738098145,17.5084095001221,17.509449005127,17.5104846954346,17.5115261077881,17.5125598907471,17.5136013031006,17.5146389007568,17.5156745910645,17.516716003418,17.5177516937256,17.5187931060791,17.5198287963867,17.5208740234375,17.5219078063965,17.52294921875,17.5239887237549,17.5250301361084,17.5260715484619,17.5271110534668,17.528148651123,17.5291900634766,17.5302295684814,17.531270980835,17.5323104858398,17.533353805542,17.5343933105469,17.5354347229004,17.5364761352539,17.5375175476074,17.5385570526123,17.5396003723145,17.5406398773193,17.5416831970215,17.542724609375,17.5437698364258,17.544807434082,17.5458507537842,17.5468921661377,17.5479335784912,17.5489768981934,17.5500202178955,17.5510654449463,17.5521068572998,17.5531539916992,17.5541934967041,17.5552368164062,17.5562782287598,17.5573253631592,17.5583667755127,17.5594120025635,17.5604572296143,17.5615005493164,17.5625419616699,17.5635890960693,17.5646324157715,17.5656776428223,17.5667190551758,17.5677680969238,17.5688095092773,17.5698566436768,17.5708999633789,17.5719509124756,17.5729923248291,17.5740413665771,17.5750846862793,17.5761280059814,17.5771770477295,17.578218460083,17.5792694091797,17.5803146362305,17.5813598632812,17.5824069976807,17.5834560394287,17.5845012664795,17.5855503082275,17.5865955352783,17.5876445770264,17.5886878967285,17.5897407531738,17.590784072876,17.591833114624,17.5928821563721,17.5939292907715,17.5949745178223,17.5960235595703,17.597074508667,17.598123550415,17.5991687774658,17.6002197265625,17.6012668609619,17.6023197174072,17.603364944458,17.6044120788574,17.6054649353027,17.6065120697021,17.6075630187988,17.6086120605469,17.6096611022949,17.610710144043,17.6117630004883,17.6128101348877,17.6138648986816,17.6149101257324,17.6159648895264,17.6170139312744,17.6180667877197,17.6191158294678,17.6201725006104,17.6212177276611,17.6222724914551,17.6233215332031,17.6243724822998,17.6254253387451,17.6264801025391,17.6275291442871,17.6285800933838,17.6296329498291,17.630687713623,17.6317405700684,17.6327953338623,17.633846282959,17.6348934173584,17.6359481811523,17.6370029449463,17.6380558013916,17.6391086578369,17.6401653289795,17.6412143707275,17.6422691345215,17.6433238983154,17.6443786621094,17.6454315185547,17.6464881896973,17.6475410461426,17.6485939025879,17.6496486663818,17.6507034301758,17.6517581939697,17.6528167724609,17.6538696289062,17.6549263000488,17.6559772491455,17.6570377349854,17.6580905914307,17.6591491699219,17.6602020263672,17.6612606048584,17.6623153686523,17.6633720397949,17.6644268035889,17.6654815673828,17.666540145874,17.6675968170166,17.6686534881592,17.6697101593018,17.6707706451416,17.6718254089355,17.672887802124,17.6739387512207,17.6749992370605,17.6760559082031,17.677116394043,17.6781711578369,17.6792316436768,17.680290222168,17.6813449859619,17.6824054718018,17.6834621429443,17.6845226287842,17.6855812072754,17.6866397857666,17.6877002716064,17.6887588500977,17.6898193359375,17.6908779144287,17.6919364929199,17.6929950714111,17.6940574645996,17.6951160430908,17.6961765289307,17.6972351074219,17.698299407959,17.6993598937988,17.70041847229,17.7014789581299,17.7025394439697,17.7036018371582,17.7046604156494,17.7057247161865,17.7067852020264,17.7078456878662,17.7089080810547,17.7099685668945,17.711030960083,17.7120933532715,17.71315574646,17.7142162322998,17.7152805328369,17.7163429260254,17.7174053192139,17.7184677124023,17.7195320129395,17.7205944061279,17.7216567993164,17.7227210998535,17.723783493042,17.7248477935791,17.7259120941162,17.7269744873047,17.7280387878418,17.7291049957275,17.730167388916,17.7312316894531,17.7322940826416,17.733362197876,17.7344226837158,17.7354888916016,17.7365531921387,17.7376194000244,17.7386837005615,17.7397499084473,17.7408142089844,17.7418804168701,17.7429466247559,17.744010925293,17.7450790405273,17.7461452484131,17.7472133636475,17.7482776641846,17.7493438720703,17.7504100799561,17.7514762878418,17.7525444030762,17.7536106109619,17.7546787261963,17.755744934082,17.756814956665,17.7578792572021,17.7589473724365,17.7600173950195,17.7610855102539,17.762149810791,17.7632179260254,17.7642879486084,17.7653560638428,17.7664241790771,17.7674942016602,17.7685642242432,17.7696323394775,17.7707023620605,17.7717685699463,17.7728404998779,17.7739086151123,17.7749786376953,17.7760467529297,17.7771186828613
10.8292379379272,10.8820991516113,10.9354848861694,10.9893980026245,11.0438451766968,11.0988340377808,11.1543731689453,11.2104711532593,11.2671365737915,11.3243770599365,11.3822031021118,11.4406223297119,11.4996585845947,11.5593070983887,11.6195783615112,11.680474281311,11.7420110702515,11.8042011260986,11.8670530319214,11.9305772781372,11.9947862625122,12.0596895217896,12.125298500061,12.1916341781616,12.2587022781372,12.3265113830566,12.3950757980347,12.4644060134888,12.534517288208,12.6054201126099,12.6771306991577,12.749662399292,12.8230276107788,12.8972358703613,12.9723043441772,13.0482511520386,13.1250925064087,13.2028436660767,13.2815227508545,13.3611440658569,13.4417266845703,13.5232849121094,13.6058359146118,13.6894025802612,13.7740039825439,13.859658241272,13.9463815689087,14.034197807312,14.1231260299683,14.2131881713867,14.3044061660767,14.396803855896,14.4904022216797,14.5852251052856,14.6812982559204,14.7786445617676,14.877290725708,14.9772624969482,15.0785875320435,15.1812925338745,15.3365020751953,15.5407476425171,15.7506132125854,16.2008457183838,16.2046184539795,16.2083930969238,16.2121677398682,16.2159461975098,16.3136100769043,16.432933807373,16.5539627075195,16.6767883300781,16.8014488220215,16.927921295166,17.3408546447754,17.3418655395508,17.342887878418,17.3439044952393,17.3449230194092,17.3459396362305,17.346960067749,17.3479804992676,17.3489990234375,17.3500175476074,17.3510360717773,17.3520565032959,17.3530769348145,17.354097366333,17.3551139831543,17.3561363220215,17.35715675354,17.3581771850586,17.3591995239258,17.3602199554443,17.3612403869629,17.3622550964355,17.36328125,17.3642997741699,17.3653202056885,17.3663425445557,17.3673648834229,17.3683834075928,17.3694076538086,17.3704242706299,17.3714466094971,17.3724727630615,17.3734912872314,17.37451171875,17.3755321502686,17.3765563964844,17.3775787353516,17.3786029815674,17.3796215057373,17.380651473999,17.3816680908203,17.3826961517334,17.3837127685547,17.3847408294678,17.3857593536377,17.3867893218994,17.3878078460693,17.3888339996338,17.3898582458496,17.3908824920654,17.3919067382812,17.3929328918457,17.3939514160156,17.3949813842773,17.3960037231445,17.3970279693604,17.3980484008789,17.3990802764893,17.4001026153564,17.4011249542236,17.4021511077881,17.4031772613525,17.4042015075684,17.4052257537842,17.4062576293945,17.4072761535645,17.4083042144775,17.4093341827393,17.4103603363037,17.4113845825195,17.4124126434326,17.4134368896484,17.4144649505615,17.415491104126,17.4165172576904,17.4175472259521,17.4185752868652,17.4195995330811,17.4206275939941,17.4216556549072,17.4226837158203,17.4237117767334,17.4247417449951,17.4257678985596,17.4267959594727,17.4278240203857,17.4288501739502,17.4298782348633,17.430908203125,17.4319381713867,17.4329624176025,17.4339962005615,17.435022354126,17.4360542297363,17.4370822906494,17.4381160736084,17.4391422271729,17.4401721954346,17.4412002563477,17.442232131958,17.4432601928711,17.4442901611328,17.4453220367432,17.4463539123535,17.4473838806152,17.448413848877,17.4494438171387,17.4504776000977,17.4515075683594,17.4525375366211,17.4535675048828,17.4546012878418,17.4556331634521,17.4566650390625,17.4576969146729,17.4587249755859,17.4597587585449,17.4607887268066,17.4618225097656,17.4628582000732,17.4638900756836,17.4649219512939,17.4659538269043,17.466983795166,17.4680213928223,17.4690551757812,17.4700870513916,17.471118927002,17.4721546173096,17.4731864929199,17.4742221832275,17.4752540588379,17.4762897491455,17.4773216247559,17.4783611297607,17.4793930053711,17.4804248809814,17.4814624786377,17.4824962615967,17.4835300445557,17.4845676422119,17.4855995178223,17.4866390228271,17.4876689910889,17.4887027740479,17.4897422790527,17.4907760620117,17.4918117523193,17.492847442627,17.4938850402832,17.4949188232422,17.4959583282471,17.4969921112061,17.4980297088623,17.4990653991699,17.5001029968262,17.5011405944824,17.5021781921387,17.5032157897949,17.5042533874512,17.5052871704102,17.5063285827637,17.5073680877686,17.5084075927734,17.5094432830811,17.5104808807373,17.5115184783936,17.5125579833984,17.5135936737061,17.5146350860596,17.5156726837158,17.5167121887207,17.5177516937256,17.5187854766846,17.5198268890381,17.520866394043,17.5219058990479,17.5229473114014,17.5239849090576,17.5250244140625,17.5260639190674,17.5271034240723,17.5281448364258,17.529182434082,17.5302257537842,17.5312652587891,17.5323066711426,17.5333480834961,17.5343856811523,17.5354290008545,17.536470413208,17.5375099182129,17.5385513305664,17.5395927429199,17.5406341552734,17.5416774749756,17.5427169799805,17.543758392334,17.5448036193848,17.5458450317383,17.5468864440918,17.5479297637939,17.5489749908447,17.5500144958496,17.5510578155518,17.5520992279053,17.5531444549561,17.5541877746582,17.5552291870117,17.5562725067139,17.5573196411133,17.5583610534668,17.5594043731689,17.5604496002197,17.5614910125732,17.5625381469727,17.5635795593262,17.5646266937256,17.5656700134277,17.5667152404785,17.5677585601807,17.5688037872314,17.5698471069336,17.570894241333,17.5719394683838,17.5729846954346,17.574031829834,17.5750770568848,17.5761241912842,17.5771675109863,17.5782127380371,17.5792598724365,17.5803070068359,17.5813522338867,17.5823974609375,17.5834465026855,17.5844917297363,17.5855388641357,17.5865859985352,17.5876331329346,17.588680267334,17.5897274017334,17.5907726287842,17.5918235778809,17.5928707122803,17.5939197540283,17.5949649810791,17.5960140228271,17.5970611572266,17.5981101989746,17.5991611480713,17.6002082824707,17.6012573242188,17.6023044586182,17.6033554077148,17.6044025421143,17.6054534912109,17.606502532959,17.6075534820557,17.6086006164551,17.6096534729004,17.6107025146484,17.6117515563965,17.6128005981445,17.6138515472412
10.8292827606201,10.8821420669556,10.9355249404907,10.9894371032715,11.0438852310181,11.0988740921021,11.1544141769409,11.2105121612549,11.2671785354614,11.3244190216064,11.3822479248047,11.4406824111938,11.4997186660767,11.5593633651733,11.6196279525757,11.6805248260498,11.7420625686646,11.8042526245117,11.8671054840088,11.9306306838989,11.9948396682739,12.0597438812256,12.1253652572632,12.1917037963867,12.2587718963623,12.3265819549561,12.3951463699341,12.4644775390625,12.5345888137817,12.6054935455322,12.6772050857544,12.7497367858887,12.8230953216553,12.8973007202148,12.9723691940308,13.0483169555664,13.1251583099365,13.2029113769531,13.281590461731,13.3612127304077,13.4417924880981,13.5233488082886,13.6059017181396,13.689471244812,13.774073600769,13.8597278594971,13.9464530944824,14.0342693328857,14.1231985092163,14.2132616043091,14.3044815063477,14.396879196167,14.490478515625,14.5853033065796,14.6813764572144,14.7787246704102,14.8773717880249,14.9773445129395,15.078670501709,15.2635011672974,15.4658250808716,15.6736583709717,16.2183837890625,16.2224769592285,16.2265739440918,16.2306728363037,16.2347736358643,16.238883972168,16.313684463501,16.4330444335938,16.5540809631348,16.6769065856934,16.801570892334,16.9279880523682,17.1854648590088,17.1864624023438,17.1874656677246,17.1884651184082,17.1894664764404,17.1904697418213,17.1914653778076,17.1924667358398,17.1934661865234,17.1944694519043,17.1954689025879,17.1964721679688,17.197473526001,17.1984748840332,17.1994762420654,17.200475692749,17.2014789581299,17.2024803161621,17.2034854888916,17.2044830322266,17.2054843902588,17.2064895629883,17.2074947357178,17.2084903717041,17.2094974517822,17.2104969024658,17.2115001678467,17.2125015258789,17.2135066986084,17.2145099639893,17.215518951416,17.2165184020996,17.2175216674805,17.2185249328613,17.2195301055908,17.2205352783203,17.2215404510498,17.2225437164307,17.2235450744629,17.224552154541,17.2255573272705,17.2265605926514,17.2275657653809,17.2285709381104,17.2295703887939,17.2305774688721,17.2315826416016,17.2325897216797,17.2335948944092,17.2346000671387,17.2356090545654,17.2366142272949,17.2376174926758,17.2386264801025,17.239631652832,17.2406387329102,17.2416458129883,17.2426509857178,17.2436580657959,17.2446670532227,17.2456703186035,17.2466812133789,17.2476844787598,17.2486934661865,17.249698638916,17.2507076263428,17.2517166137695,17.2527236938477,17.2537307739258,17.2547416687012,17.2557468414307,17.2567539215088,17.2577610015869,17.2587699890137,17.2597789764404,17.2607898712158,17.2617950439453,17.2628021240234,17.2638168334961,17.2648258209229,17.2658348083496,17.2668418884277,17.2678527832031,17.2688598632812,17.2698745727539,17.2708797454834,17.2718906402588,17.2729034423828,17.2739143371582,17.2749214172363,17.2759323120117,17.2769393920898,17.2779541015625,17.2789630889893,17.2799758911133,17.2809867858887,17.2819957733154,17.2830104827881,17.2840213775635,17.2850303649902,17.2860431671143,17.2870540618896,17.288064956665,17.2890777587891,17.2900924682617,17.2911033630371,17.2921161651611,17.2931270599365,17.2941360473633,17.2951564788818,17.2961673736572,17.2971801757812,17.2981910705566,17.2992057800293,17.3002166748047,17.3012313842773,17.3022441864014,17.303258895874,17.304271697998,17.305290222168,17.3062992095947,17.3073177337646,17.3083267211914,17.3093433380127,17.3103561401367,17.311372756958,17.312385559082,17.313404083252,17.3144149780273,17.3154277801514,17.3164482116699,17.3174610137939,17.3184776306152,17.3194923400879,17.3205089569092,17.3215236663818,17.3225402832031,17.3235549926758,17.3245735168457,17.3255844116211,17.3266048431396,17.3276195526123,17.3286380767822,17.3296546936035,17.3306732177734,17.3316879272461,17.3327045440674,17.33371925354,17.3347415924072,17.3357563018799,17.3367786407471,17.3377952575684,17.3388118743896,17.3398265838623,17.3408470153809,17.3418655395508,17.3428840637207,17.343900680542,17.3449172973633,17.3459396362305,17.3469543457031,17.3479766845703,17.3489933013916,17.3500156402588,17.3510322570801,17.3520526885986,17.3530731201172,17.3540935516357,17.355110168457,17.3561325073242,17.3571510314941,17.3581733703613,17.3591899871826,17.3602104187012,17.361234664917,17.3622550964355,17.3632736206055,17.3642959594727,17.3653144836426,17.3663368225098,17.3673553466797,17.3683795928955,17.3694000244141,17.3704204559326,17.3714408874512,17.372465133667,17.3734855651855,17.3745079040527,17.3755283355713,17.3765506744385,17.3775749206543,17.3785972595215,17.3796215057373,17.3806400299072,17.381664276123,17.3826866149902,17.3837108612061,17.3847312927246,17.3857574462891,17.3867778778076,17.3878040313721,17.3888263702393,17.3898525238037,17.3908748626709,17.3918991088867,17.3929233551025,17.3939476013184,17.3949718475342,17.39599609375,17.3970184326172,17.3980445861816,17.3990707397461,17.4000949859619,17.4011192321777,17.4021434783936,17.403169631958,17.4041957855225,17.4052200317383,17.4062461853027,17.4072723388672,17.4083003997803,17.4093246459961,17.4103507995605,17.411376953125,17.4124050140381,17.4134273529053,17.4144554138184,17.4154834747314,17.4165115356445,17.4175357818604,17.4185619354248,17.4195919036865,17.4206199645996,17.4216461181641,17.4226741790771,17.4237022399902,17.4247283935547,17.4257564544678,17.4267845153809,17.4278144836426,17.428840637207,17.4298686981201,17.4308986663818,17.4319286346436,17.4329566955566,17.4339866638184,17.4350128173828,17.4360446929932,17.4370727539062,17.4381008148193,17.4391307830811,17.4401588439941,17.4411907196045,17.4422206878662,17.4432506561279,17.444278717041,17.4453125,17.4463405609131,17.4473724365234,17.4484043121338,17.4494342803955,17.4504661560059,17.4514942169189,17.4525279998779,17.453556060791
10.8293285369873,10.8821878433228,10.935564994812,10.9894771575928,11.0439252853394,11.0989151000977,11.1544551849365,11.2105541229248,11.267219543457,11.3244667053223,11.3823080062866,11.4407386779785,11.4997701644897,11.5594129562378,11.6196784973145,11.6805753707886,11.7421140670776,11.8043050765991,11.8671579360962,11.9306831359863,11.9948968887329,12.0598115921021,12.1254329681396,12.1917724609375,12.2588415145874,12.3266515731812,12.3952169418335,12.4645490646362,12.5346612930298,12.6055669784546,12.6772785186768,12.7498025894165,12.8231592178345,12.897364616394,12.9724340438843,13.0483827590942,13.1252250671387,13.2029790878296,13.2816572189331,13.3612766265869,13.441855430603,13.5234136581421,13.6059694290161,13.6895399093628,13.7741422653198,13.8597984313965,13.9465236663818,14.0343408584595,14.1232709884644,14.2133359909058,14.3045558929443,14.3969554901123,14.4905557632446,14.5853805541992,14.6814556121826,14.7788038253784,14.8774518966675,14.9960641860962,15.1911926269531,15.3916215896606,15.5974521636963,16.2488250732422,16.2529354095459,16.2570476531982,16.2611675262451,16.2652950286865,16.2694225311279,16.273551940918,16.3137588500977,16.4331207275391,16.5541973114014,16.6770267486572,16.8016910552979,16.9280700683594,17.0328369140625,17.033821105957,17.0348052978516,17.0357875823975,17.0367698669434,17.0377521514893,17.0387325286865,17.0397186279297,17.040699005127,17.0416870117188,17.0426654815674,17.0436534881592,17.0446319580078,17.045618057251,17.0466022491455,17.0475883483887,17.0485687255859,17.0495510101318,17.0505390167236,17.0515251159668,17.0525074005127,17.0534896850586,17.0544776916504,17.0554618835449,17.0564460754395,17.057430267334,17.0584163665771,17.0594062805176,17.0603847503662,17.0613689422607,17.0623569488525,17.0633411407471,17.0643291473389,17.0653133392334,17.0662994384766,17.0672855377197,17.0682735443115,17.0692577362061,17.0702476501465,17.071231842041,17.0722179412842,17.073205947876,17.0741920471191,17.0751762390137,17.0761661529541,17.0771541595459,17.078145980835,17.0791263580322,17.0801200866699,17.0811061859131,17.0820941925049,17.0830821990967,17.0840702056885,17.0850582122803,17.0860462188721,17.0870304107666,17.088020324707,17.0890102386475,17.0900001525879,17.0909900665283,17.0919780731201,17.0929660797119,17.0939559936523,17.0949440002441,17.0959339141846,17.096923828125,17.0979156494141,17.0989055633545,17.0998935699463,17.1008853912354,17.1018714904785,17.1028652191162,17.1038551330566,17.1048488616943,17.1058349609375,17.1068305969238,17.1078147888184,17.1088104248047,17.1098003387451,17.1107940673828,17.1117839813232,17.1127758026123,17.1137638092041,17.1147575378418,17.1157474517822,17.1167430877686,17.1177349090576,17.1187191009521,17.1197166442871,17.1207084655762,17.1217021942139,17.1226959228516,17.1236915588379,17.1246814727783,17.1256713867188,17.1266651153564,17.1276588439941,17.1286544799805,17.1296501159668,17.1306419372559,17.1316356658936,17.132625579834,17.1336212158203,17.1346130371094,17.1356105804443,17.1366024017334,17.1375980377197,17.1385917663574,17.1395893096924,17.1405830383301,17.1415767669678,17.1425704956055,17.1435661315918,17.1445617675781,17.1455554962158,17.1465511322021,17.1475448608398,17.1485424041748,17.1495380401611,17.1505355834961,17.1515293121338,17.1525268554688,17.1535205841064,17.1545219421387,17.1555118560791,17.1565093994141,17.1575088500977,17.1585063934326,17.1595001220703,17.1604995727539,17.1614971160889,17.1624908447266,17.1634883880615,17.1644859313965,17.1654815673828,17.1664848327637,17.16748046875,17.1684818267822,17.1694755554199,17.1704769134521,17.1714744567871,17.1724739074707,17.1734733581543,17.1744651794434,17.1754665374756,17.1764640808105,17.1774635314941,17.1784629821777,17.17946434021,17.1804599761963,17.1814594268799,17.1824607849121,17.1834602355957,17.1844577789307,17.1854591369629,17.1864624023438,17.1874599456787,17.1884613037109,17.1894645690918,17.1904602050781,17.1914653778076,17.1924629211426,17.1934661865234,17.1944637298584,17.1954669952393,17.1964664459229,17.1974716186523,17.1984710693359,17.1994724273682,17.2004718780518,17.2014751434326,17.2024745941162,17.2034778594971,17.2044811248779,17.2054824829102,17.206485748291,17.2074851989746,17.2084903717041,17.2094898223877,17.2104969024658,17.2115001678467,17.2125015258789,17.2135028839111,17.214506149292,17.2155094146729,17.2165126800537,17.2175178527832,17.2185192108154,17.2195243835449,17.2205295562744,17.2215347290039,17.2225360870361,17.223539352417,17.2245445251465,17.2255516052246,17.2265529632568,17.227560043335,17.2285614013672,17.2295665740967,17.2305736541748,17.2315788269043,17.2325839996338,17.2335891723633,17.2345943450928,17.2355995178223,17.2366065979004,17.2376117706299,17.238618850708,17.2396240234375,17.240629196167,17.2416362762451,17.2426414489746,17.2436504364014,17.2446575164795,17.245662689209,17.2466697692871,17.2476768493652,17.2486839294434,17.2496929168701,17.2506999969482,17.2517070770264,17.2527141571045,17.2537212371826,17.2547302246094,17.2557373046875,17.2567462921143,17.257755279541,17.2587623596191,17.2597713470459,17.2607803344727,17.2617874145508,17.2627983093262,17.2638053894043,17.2648143768311,17.2658233642578,17.2668342590332,17.2678413391113,17.2688522338867,17.2698631286621,17.2708721160889,17.2718811035156,17.272891998291,17.2739028930664,17.2749137878418,17.2759227752686,17.2769317626953,17.2779445648193,17.2789535522461,17.2799644470215,17.2809734344482,17.2819881439209,17.2829990386963,17.2840099334717,17.2850227355957,17.2860317230225,17.2870464324951,17.2880573272705,17.2890682220459,17.2900791168213,17.2910919189453,17.2921047210693,17.2931156158447,17.2941284179688,17.2951412200928,17.2961559295654
10.8293714523315,10.8822336196899,10.9356117248535,10.9895172119141,11.0439653396606,11.0989551544189,11.1544961929321,11.2105951309204,11.2672691345215,11.3245239257812,11.3823595046997,11.4407873153687,11.4998197555542,11.5594635009766,11.6197290420532,11.6806268692017,11.7421655654907,11.8043565750122,11.8672103881836,11.9307432174683,11.9949636459351,12.0598793029785,12.1255016326904,12.1918411254883,12.2589101791382,12.3267221450806,12.3952875137329,12.46462059021,12.5347337722778,12.605640411377,12.6773433685303,12.7498655319214,12.8232231140137,12.8974294662476,12.9724998474121,13.0484485626221,13.1252918243408,13.2030429840088,13.2817192077637,13.3613386154175,13.4419193267822,13.5234804153442,13.6060371398926,13.6896076202393,13.7742118835449,13.8598680496216,13.9465951919556,14.0344133377075,14.1233444213867,14.2134094238281,14.3046312332153,14.3970308303833,14.4906320571899,14.5854587554932,14.6815338134766,14.778883934021,14.9262609481812,15.1195650100708,15.3181266784668,16.2752590179443,16.2793827056885,16.2835140228271,16.2876510620117,16.2917900085449,16.2959327697754,16.3000755310059,16.304220199585,16.3083686828613,16.3139400482178,16.4331970214844,16.5543155670166,16.6771450042725,16.8018054962158,16.8819332122803,16.8829021453857,16.8838634490967,16.8848304748535,16.8857955932617,16.8867588043213,16.8877277374268,16.888692855835,16.8896579742432,16.8906269073486,16.8915901184082,16.892557144165,16.8935203552246,16.8944911956787,16.8954563140869,16.8964195251465,16.897388458252,16.8983554840088,16.899320602417,16.9002895355225,16.9012565612793,16.9022216796875,16.9031887054443,16.9041557312012,16.9051246643066,16.9060916900635,16.9070606231689,16.9080295562744,16.9089965820312,16.9099617004395,16.9109306335449,16.9118995666504,16.9128723144531,16.9138374328613,16.9148063659668,16.9157752990723,16.9167423248291,16.9177112579346,16.91868019104,16.9196510314941,16.9206237792969,16.9215908050537,16.9225578308105,16.923526763916,16.9244976043701,16.9254665374756,16.9264373779297,16.9274101257324,16.9283771514893,16.929349899292,16.9303188323975,16.9312896728516,16.932258605957,16.9332313537598,16.9342041015625,16.9351711273193,16.9361419677734,16.9371166229248,16.9380874633789,16.9390602111816,16.9400310516357,16.9410018920898,16.9419708251953,16.9429454803467,16.9439182281494,16.9448909759521,16.9458618164062,16.946834564209,16.9478034973145,16.9487762451172,16.9497509002686,16.9507217407227,16.951696395874,16.9526710510254,16.9536399841309,16.9546146392822,16.955587387085,16.9565620422363,16.9575347900391,16.9585094451904,16.9594841003418,16.9604530334473,16.9614315032959,16.9624042510986,16.9633808135986,16.96435546875,16.96533203125,16.9663009643555,16.9672756195068,16.9682521820068,16.9692268371582,16.9702033996582,16.9711780548096,16.9721508026123,16.9731254577637,16.9741039276123,16.9750804901123,16.9760551452637,16.9770317077637,16.978006362915,16.9789791107178,16.9799575805664,16.9809322357178,16.9819107055664,16.9828834533691,16.9838619232178,16.9848384857178,16.9858169555664,16.9867935180664,16.987771987915,16.9887466430664,16.9897289276123,16.990701675415,16.991678237915,16.992654800415,16.9936332702637,16.9946117401123,16.9955921173096,16.9965648651123,16.9975471496582,16.9985237121582,16.9995040893555,17.0004806518555,17.0014629364014,17.0024394989014,17.0034198760986,17.0043983459473,17.0053768157959,17.0063552856445,17.0073356628418,17.0083160400391,17.0092906951904,17.0102729797363,17.011251449585,17.0122337341309,17.0132102966309,17.0141944885254,17.0151691436768,17.0161533355713,17.0171318054199,17.0181140899658,17.0190963745117,17.020076751709,17.0210571289062,17.0220375061035,17.0230159759521,17.0240001678467,17.0249786376953,17.0259628295898,17.0269451141357,17.027925491333,17.0289058685303,17.0298900604248,17.0308723449707,17.0318565368652,17.0328369140625,17.0338191986084,17.0347995758057,17.0357837677002,17.0367679595947,17.0377464294434,17.0387344360352,17.0397129058838,17.0406951904297,17.0416793823242,17.0426635742188,17.0436477661133,17.0446319580078,17.0456142425537,17.0465984344482,17.0475826263428,17.0485687255859,17.0495491027832,17.0505352020264,17.0515174865723,17.0525016784668,17.0534839630127,17.0544700622559,17.055456161499,17.0564441680908,17.0574283599854,17.0584125518799,17.0593948364258,17.0603828430176,17.0613651275635,17.0623531341553,17.0633373260498,17.0643253326416,17.0653095245361,17.0662956237793,17.0672817230225,17.0682678222656,17.0692539215088,17.0702419281006,17.0712280273438,17.0722122192383,17.0732002258301,17.0741863250732,17.075174331665,17.0761623382568,17.0771484375,17.0781345367432,17.079122543335,17.0801105499268,17.0810985565186,17.082088470459,17.0830745697021,17.0840644836426,17.0850505828857,17.0860404968262,17.087028503418,17.0880184173584,17.0890026092529,17.089994430542,17.0909805297852,17.0919704437256,17.092960357666,17.0939502716064,17.0949401855469,17.0959300994873,17.0969200134277,17.0979080200195,17.09889793396,17.0998859405518,17.1008777618408,17.1018676757812,17.1028575897217,17.1038494110107,17.1048374176025,17.1058292388916,17.1068172454834,17.1078109741211,17.1088008880615,17.1097927093506,17.1107807159424,17.1117725372314,17.1127662658691,17.1137580871582,17.1147480010986,17.1157398223877,17.1167335510254,17.1177234649658,17.1187152862549,17.1197071075439,17.1207008361816,17.1216945648193,17.1226844787598,17.1236782073975,17.1246719360352,17.1256637573242,17.1266574859619,17.1276473999023,17.1286430358887,17.1296348571777,17.1306304931641,17.1316223144531,17.1326179504395,17.1336097717285,17.1346035003662,17.1355991363525,17.1365928649902,17.1375885009766,17.1385803222656,17.139575958252,13.4143371582031,13.3995199203491
10.8294124603271,10.8822793960571,10.935658454895,10.9895629882812,11.0440053939819,11.0989961624146,11.1545372009277,11.2106466293335,11.2673215866089,11.3245725631714,11.3824071884155,11.4408369064331,11.4998683929443,11.559513092041,11.619779586792,11.6806774139404,11.7422170639038,11.8044090270996,11.8672723770142,11.9308099746704,11.9950304031372,12.0599460601807,12.1255693435669,12.1919088363647,12.2589797973633,12.3267917633057,12.3953580856323,12.4646921157837,12.5348052978516,12.6057024002075,12.6774053573608,12.7499284744263,12.8232860565186,12.8974933624268,12.9725646972656,13.0485134124756,13.1253528594971,13.203104019165,13.2817811965942,13.3614015579224,13.4419851303101,13.5235471725464,13.606104850769,13.68967628479,13.77428150177,13.859938621521,13.946665763855,14.0344848632812,14.1234169006348,14.2134828567505,14.304705619812,14.3971061706543,14.4907083511353,14.5855360031128,14.6816129684448,14.857105255127,15.0486307144165,15.2453308105469,16.3059215545654,16.3100700378418,16.3142204284668,16.3183727264404,16.3225288391113,16.3266849517822,16.3308448791504,16.3350048065186,16.339168548584,16.343334197998,16.3475017547607,16.4332733154297,16.5543956756592,16.6772651672363,16.7336826324463,16.7346286773682,16.7355766296387,16.7365226745605,16.7374725341797,16.7384223937988,16.739372253418,16.7403202056885,16.7412700653076,16.7422180175781,16.7431678771973,16.7441177368164,16.7450637817383,16.7460136413574,16.7469635009766,16.7479152679443,16.7488670349121,16.7498149871826,16.7507667541504,16.7517127990723,16.7526664733887,16.7536144256592,16.7545680999756,16.7555160522461,16.7564678192139,16.7574157714844,16.7583675384521,16.7593173980713,16.7602710723877,16.7612209320068,16.7621688842773,16.7631206512451,16.7640724182129,16.7650241851807,16.7659740447998,16.7669277191162,16.7678775787354,16.7688312530518,16.7697830200195,16.7707386016846,16.7716903686523,16.7726459503174,16.7735958099365,16.7745494842529,16.7754993438721,16.7764530181885,16.7774047851562,16.7783603668213,16.7793102264404,16.7802658081055,16.7812175750732,16.7821750640869,16.7831268310547,16.7840805053711,16.7850322723389,16.7859878540039,16.7869396209717,16.7878932952881,16.7888488769531,16.7898006439209,16.7907600402832,16.791711807251,16.7926654815674,16.7936210632324,16.7945785522461,16.7955322265625,16.7964859008789,16.7974395751953,16.7983989715576,16.799352645874,16.8003120422363,16.8012638092041,16.8022212982178,16.8031749725342,16.8041305541992,16.8050880432129,16.8060474395752,16.806999206543,16.8079586029053,16.8089160919189,16.8098735809326,16.8108234405518,16.8117847442627,16.8127422332764,16.8137016296387,16.8146572113037,16.8156089782715,16.8165683746338,16.8175258636475,16.8184852600098,16.8194446563721,16.8204021453857,16.8213577270508,16.8223171234131,16.8232765197754,16.8242321014404,16.8251934051514,16.826150894165,16.8271083831787,16.8280658721924,16.8290252685547,16.8299884796143,16.8309440612793,16.8319072723389,16.8328647613525,16.8338222503662,16.8347816467285,16.8357429504395,16.8367023468018,16.8376617431641,16.8386249542236,16.8395843505859,16.840539932251,16.8415031433105,16.8424625396729,16.8434219360352,16.8443813323975,16.845344543457,16.8463077545166,16.847261428833,16.8482265472412,16.8491840362549,16.8501491546631,16.8511123657227,16.852071762085,16.8530311584473,16.8539962768555,16.8549556732178,16.8559188842773,16.8568801879883,16.8578414916992,16.8588027954102,16.8597679138184,16.860725402832,16.8616924285889,16.8626537322998,16.863618850708,16.8645782470703,16.8655433654785,16.8665027618408,16.8674697875977,16.8684349060059,16.8693981170654,16.8703575134277,16.8713226318359,16.8722877502441,16.8732509613037,16.8742141723633,16.8751811981201,16.8761444091797,16.877103805542,16.8780708312988,16.8790378570557,16.8800029754639,16.8809661865234,16.8819332122803,16.8828945159912,16.883861541748,16.8848247528076,16.8857917785645,16.8867588043213,16.8877239227295,16.8886871337891,16.8896560668945,16.8906192779541,16.8915882110596,16.8925533294678,16.893518447876,16.8944854736328,16.895450592041,16.8964157104492,16.8973827362061,16.8983516693115,16.8993167877197,16.9002838134766,16.9012508392334,16.9022197723389,16.9031848907471,16.9041519165039,16.905122756958,16.9060916900635,16.9070529937744,16.9080257415771,16.908992767334,16.9099617004395,16.9109268188477,16.9118976593018,16.9128665924072,16.9138336181641,16.9148025512695,16.9157695770264,16.9167385101318,16.9177074432373,16.9186782836914,16.9196453094482,16.9206161499023,16.9215850830078,16.9225521087646,16.9235229492188,16.9244937896729,16.925464630127,16.9264316558838,16.9274024963379,16.928373336792,16.9293441772461,16.9303112030029,16.9312839508057,16.9322528839111,16.9332256317139,16.9341945648193,16.9351673126221,16.9361343383789,16.9371109008789,16.9380798339844,16.9390506744385,16.9400234222412,16.9409942626953,16.941967010498,16.9429359436035,16.9439105987549,16.9448833465576,16.9458560943604,16.9468269348145,16.9477977752686,16.9487724304199,16.9497451782227,16.9507179260254,16.9516868591309,16.9526634216309,16.9536361694336,16.9546070098877,16.9555797576904,16.9565563201904,16.9575271606445,16.9585018157959,16.95947265625,16.96044921875,16.9614219665527,16.9623966217041,16.9633731842041,16.9643459320068,16.9653186798096,16.9662933349609,16.9672679901123,16.9682426452637,16.9692211151123,16.9701919555664,16.9711685180664,16.9721431732178,16.9731197357178,16.9740924835205,16.9750690460205,16.9760437011719,16.9770202636719,16.9779968261719,16.9789714813232,16.9799480438232,16.9809246063232,16.9819011688232,16.9828758239746,16.9838523864746,13.4169826507568,13.4021606445312,13.3873710632324,13.3726139068604,13.357889175415,13.3431968688965
10.8294534683228,10.88232421875,10.9357042312622,10.9896097183228,11.0440492630005,11.0990362167358,11.1545858383179,11.210693359375,11.2673683166504,11.3246202468872,11.3824558258057,11.4408855438232,11.4999179840088,11.5595626831055,11.6198301315308,11.6807279586792,11.7422714233398,11.8044729232788,11.867338180542,11.9308748245239,11.9950971603394,12.0600137710571,12.125636100769,12.1919775009155,12.2590484619141,12.3268613815308,12.3954286575317,12.4647626876831,12.5348663330078,12.6057634353638,12.6774673461914,12.7499914169312,12.8233499526978,12.8975582122803,12.9726257324219,13.0485725402832,13.1254138946533,13.2031650543213,13.2818431854248,13.3614664077759,13.4420509338379,13.5236139297485,13.6061725616455,13.6897449493408,13.7743501663208,13.8600082397461,13.9467372894287,14.0345573425293,14.1234903335571,14.2135572433472,14.3047800064087,14.3971824645996,14.4907855987549,14.6036005020142,14.7885866165161,14.978367805481,15.1732234954834,16.3585186004639,16.363655090332,16.3687953948975,16.3739395141602,16.3790874481201,16.3842372894287,16.3893909454346,16.3945465087891,16.3997077941895,16.4048824310303,16.4100589752197,16.4152393341064,16.4334239959717,16.5544738769531,16.5880088806152,16.588939666748,16.5898704528809,16.5908031463623,16.5917358398438,16.5926685333252,16.5936012268066,16.5945320129395,16.5954685211182,16.5963935852051,16.5973281860352,16.5982608795166,16.5991992950439,16.6001300811768,16.6010589599609,16.601993560791,16.6029243469238,16.6038627624512,16.604793548584,16.6057300567627,16.6066589355469,16.6075992584229,16.6085262298584,16.6094627380371,16.6103973388672,16.6113357543945,16.6122646331787,16.6132011413574,16.6141338348389,16.6150703430176,16.616003036499,16.6169376373291,16.6178760528564,16.6188106536865,16.619743347168,16.620677947998,16.6216144561768,16.6225509643555,16.6234874725342,16.6244258880615,16.6253566741943,16.626293182373,16.6272277832031,16.6281642913818,16.6291007995605,16.6300373077393,16.6309757232666,16.6319103240967,16.6328468322754,16.6337833404541,16.6347217559814,16.6356544494629,16.6365985870361,16.6375312805176,16.6384696960449,16.6394081115723,16.6403465270996,16.6412811279297,16.6422233581543,16.6431560516357,16.6440963745117,16.6450309753418,16.6459712982178,16.6469078063965,16.6478481292725,16.6487846374512,16.6497230529785,16.6506595611572,16.6515998840332,16.6525421142578,16.6534824371338,16.6544170379639,16.6553554534912,16.6562957763672,16.6572322845459,16.6581745147705,16.6591148376465,16.6600532531738,16.6609935760498,16.6619358062744,16.6628723144531,16.6638145446777,16.6647510528564,16.6656951904297,16.6666355133057,16.6675758361816,16.6685180664062,16.6694602966309,16.6703948974609,16.6713409423828,16.6722812652588,16.673225402832,16.6741619110107,16.6751041412354,16.67604637146,16.6769905090332,16.6779308319092,16.6788711547852,16.6798133850098,16.680757522583,16.681697845459,16.6826362609863,16.6835823059082,16.6845207214355,16.6854667663574,16.6864070892334,16.6873531341553,16.6882953643799,16.6892356872559,16.6901817321777,16.691125869751,16.692066192627,16.6930084228516,16.6939525604248,16.6948986053467,16.6958408355713,16.6967887878418,16.6977272033691,16.698673248291,16.6996154785156,16.7005615234375,16.701509475708,16.7024517059326,16.7033939361572,16.7043380737305,16.7052803039551,16.7062301635742,16.7071723937988,16.7081203460693,16.7090663909912,16.7100086212158,16.7109565734863,16.7118988037109,16.7128467559814,16.7137889862061,16.7147388458252,16.7156829833984,16.7166309356689,16.7175750732422,16.7185230255127,16.7194709777832,16.7204170227051,16.7213611602783,16.7223072052002,16.7232551574707,16.7242012023926,16.7251491546631,16.7260990142822,16.7270450592041,16.727991104126,16.7289371490479,16.729887008667,16.7308349609375,16.7317848205566,16.7327308654785,16.733678817749,16.7346248626709,16.7355709075928,16.7365207672119,16.7374725341797,16.7384185791016,16.7393665313721,16.7403163909912,16.7412643432617,16.7422180175781,16.7431602478027,16.7441139221191,16.7450618743896,16.7460098266602,16.7469615936279,16.7479095458984,16.7488594055176,16.7498111724854,16.7507591247559,16.7517127990723,16.7526607513428,16.7536106109619,16.7545604705811,16.7555122375488,16.756462097168,16.7574119567871,16.7583618164062,16.7593154907227,16.7602634429932,16.7612190246582,16.7621669769287,16.7631206512451,16.7640705108643,16.7650203704834,16.7659740447998,16.7669219970703,16.7678756713867,16.7688293457031,16.7697792053223,16.77073097229,16.7716846466064,16.7726383209229,16.7735919952393,16.7745418548584,16.7754955291748,16.7764472961426,16.777400970459,16.7783527374268,16.7793064117432,16.7802600860596,16.781213760376,16.7821655273438,16.7831192016602,16.7840747833252,16.7850284576416,16.785982131958,16.7869338989258,16.7878894805908,16.7888412475586,16.7897987365723,16.7907524108887,16.7917060852051,16.7926616668701,16.7936153411865,16.7945690155029,16.795524597168,16.7964820861816,16.797435760498,16.7983932495117,16.7993469238281,16.8003025054932,16.8012580871582,16.8022136688232,16.8031673431396,16.804126739502,16.8050785064697,16.806037902832,16.8069896697998,16.8079490661621,16.8089084625244,16.8098621368408,16.8108196258545,16.8117771148682,16.8127326965332,16.8136901855469,16.8146476745605,16.8156032562256,16.8165626525879,16.8175182342529,16.8184776306152,16.8194351196289,16.8203926086426,16.8213520050049,16.8223075866699,16.8232669830322,16.8242244720459,16.8251838684082,16.8261413574219,16.8270988464355,16.8280601501465,16.8290176391602,16.8299751281738,16.8309326171875,16.8318939208984,13.4048013687134,13.3900060653687,13.3752431869507,13.3605127334595,13.345814704895,13.3311491012573,13.3165159225464,13.3019142150879,12.6361532211304
11.0833168029785,11.0861387252808,11.0889625549316,11.0917863845825,11.0946130752563,11.0990829467773,11.1546325683594,11.2107400894165,11.2674160003662,11.324667930603,11.3825035095215,11.4409341812134,11.4999675750732,11.5596122741699,11.6198797225952,11.6807842254639,11.742335319519,11.8045377731323,11.8674030303955,11.9309406280518,11.9951629638672,12.0600805282593,12.1257038116455,12.1920461654663,12.2591180801392,12.3269319534302,12.3954973220825,12.464822769165,12.5349273681641,12.6058254241943,12.677529335022,12.750054359436,12.8234128952026,12.8976173400879,12.9726848602295,13.0486326217651,13.1254739761353,13.2032260894775,13.281907081604,13.3615312576294,13.4421167373657,13.5236806869507,13.6062393188477,13.6898136138916,13.7744197845459,13.8600788116455,13.9468078613281,14.034628868103,14.1235628128052,14.2136306762695,14.3048553466797,14.3972578048706,14.5373954772949,14.7206964492798,14.9087572097778,15.1017942428589,16.4320411682129,16.4329566955566,16.4338722229004,16.4347877502441,16.4357013702393,16.4366130828857,16.4375305175781,16.4384441375732,16.4393615722656,16.4402751922607,16.4411907196045,16.4421062469482,16.4430236816406,16.4439373016357,16.4448509216309,16.4457702636719,16.4466819763184,16.4475994110107,16.4485130310059,16.4494323730469,16.450345993042,16.4512634277344,16.4521808624268,16.4530963897705,16.454008102417,16.4549293518066,16.4558448791504,16.4567642211914,16.4576797485352,16.4585952758789,16.4595146179199,16.4604320526123,16.4613475799561,16.4622669219971,16.4631824493408,16.4641017913818,16.4650192260742,16.4659366607666,16.466854095459,16.4677734375,16.4686908721924,16.4696102142334,16.4705257415771,16.4714431762695,16.4723663330078,16.4732818603516,16.4742012023926,16.4751205444336,16.4760417938232,16.476957321167,16.4778804779053,16.4787979125977,16.4797172546387,16.4806365966797,16.4815578460693,16.4824752807617,16.4833946228027,16.484317779541,16.485237121582,16.486156463623,16.4870777130127,16.4879951477051,16.488920211792,16.4898376464844,16.4907627105713,16.4916801452637,16.492603302002,16.493522644043,16.4944438934326,16.4953651428223,16.4962863922119,16.4972076416016,16.4981269836426,16.4990501403809,16.4999675750732,16.5008945465088,16.5018138885498,16.5027389526367,16.5036582946777,16.5045833587646,16.5055027008057,16.5064277648926,16.5073490142822,16.5082721710205,16.5091934204102,16.5101203918457,16.5110359191895,16.5119609832764,16.5128841400146,16.5138130187988,16.5147342681885,16.5156574249268,16.5165786743164,16.517505645752,16.5184288024902,16.5193538665771,16.5202770233154,16.5212001800537,16.5221271514893,16.5230503082275,16.5239715576172,16.5248966217041,16.525821685791,16.5267448425293,16.5276699066162,16.5285949707031,16.52952003479,16.530445098877,16.5313720703125,16.5322952270508,16.533224105835,16.5341453552246,16.5350723266602,16.5359992980957,16.536922454834,16.5378513336182,16.5387744903564,16.5397033691406,16.5406284332275,16.5415554046631,16.5424823760986,16.5434074401855,16.5443382263184,16.5452632904053,16.5461883544922,16.5471134185791,16.5480422973633,16.5489692687988,16.549898147583,16.5508251190186,16.5517501831055,16.552677154541,16.5536060333252,16.5545349121094,16.5554599761963,16.5563907623291,16.5573177337646,16.5582447052002,16.5591716766357,16.5601024627686,16.5610313415527,16.5619640350342,16.5628890991211,16.5638160705566,16.5647468566895,16.5656757354736,16.5666046142578,16.5675354003906,16.5684642791748,16.569393157959,16.5703220367432,16.571252822876,16.5721836090088,16.5731163024902,16.5740413665771,16.5749740600586,16.5759029388428,16.576831817627,16.5777645111084,16.5786952972412,16.5796241760254,16.5805549621582,16.5814876556396,16.5824165344238,16.5833473205566,16.5842781066895,16.5852108001709,16.5861415863037,16.5870742797852,16.5880031585693,16.5889377593994,16.5898666381836,16.5908012390137,16.5917320251465,16.5926647186279,16.5935955047607,16.5945281982422,16.5954608917236,16.5963954925537,16.5973262786865,16.5982627868652,16.5991897583008,16.6001262664795,16.6010570526123,16.6019916534424,16.6029262542725,16.6038570404053,16.6047897338867,16.6057224273682,16.6066589355469,16.607593536377,16.6085243225098,16.6094589233398,16.6103954315186,16.6113262176514,16.6122608184814,16.6131935119629,16.6141300201416,16.6150646209717,16.6160049438477,16.6169338226318,16.6178722381592,16.618803024292,16.6197395324707,16.6206760406494,16.6216125488281,16.6225509643555,16.6234855651855,16.624418258667,16.6253528594971,16.6262874603271,16.6272239685059,16.6281604766846,16.6290950775146,16.6300315856934,16.6309700012207,16.6319065093994,16.6328411102295,16.6337757110596,16.6347179412842,16.6356506347656,16.6365909576416,16.6375255584717,16.6384658813477,16.6394004821777,16.6403369903564,16.6412754058838,16.6422138214111,16.6431503295898,16.6440868377686,16.6450271606445,16.6459655761719,16.6469039916992,16.6478424072266,16.6487789154053,16.6497173309326,16.6506576538086,16.6515941619873,16.6525344848633,16.653470993042,16.654411315918,16.6553497314453,16.6562900543213,16.6572303771973,16.6581707000732,16.6591091156006,16.6600475311279,16.6609878540039,16.6619262695312,16.6628665924072,16.6638050079346,16.6647472381592,16.6656894683838,16.6666278839111,16.6675682067871,16.6685085296631,16.6694526672363,16.6703910827637,16.6713314056396,16.6722717285156,16.6732139587402,16.6741561889648,16.6750965118408,16.6760349273682,16.6769790649414,16.6779193878174,16.6788635253906,16.6798038482666,16.6807460784912,16.6816902160645,13.4074440002441,13.3926429748535,13.3778734207153,13.3631372451782,13.3484334945679,13.3337621688843,13.3191232681274,13.304515838623,13.2899408340454,12.8247184753418,12.1634750366211,11.5670747756958,11.0264272689819
10.9239473342896,11.1116046905518,11.1144409179688,11.1172790527344,11.1201181411743,11.1229581832886,11.1546783447266,11.210786819458,11.267463684082,11.3247156143188,11.3825521469116,11.4409828186035,11.5000162124634,11.5596628189087,11.6199388504028,11.6808471679688,11.7423982620239,11.8046016693115,11.867467880249,11.9310064315796,11.9952297210693,12.0601472854614,12.125771522522,12.1921138763428,12.2591867446899,12.326997756958,12.3955564498901,12.464882850647,12.5349884033203,12.6058864593506,12.6775913238525,12.7501134872437,12.8234701156616,12.8976755142212,12.9727439880371,13.0486917495728,13.1255340576172,13.2032890319824,13.2819709777832,13.3615970611572,13.4421834945679,13.5237474441528,13.6063070297241,13.6898813247681,13.774489402771,13.8601484298706,13.9468793869019,14.0347003936768,14.1236352920532,14.2137041091919,14.3049297332764,14.4717874526978,14.6534280776978,14.8397912979126,16.2906551361084,16.2915496826172,16.2924499511719,16.2933502197266,16.294246673584,16.2951469421387,16.2960453033447,16.296947479248,16.2978458404541,16.2987442016602,16.2996444702148,16.3005447387695,16.3014450073242,16.3023433685303,16.303243637085,16.304141998291,16.3050441741943,16.3059425354004,16.3068466186523,16.3077430725098,16.3086471557617,16.3095436096191,16.3104457855225,16.3113441467285,16.3122482299805,16.3131484985352,16.3140506744385,16.3149509429932,16.3158550262451,16.3167533874512,16.3176536560059,16.3185558319092,16.3194541931152,16.3203601837158,16.3212604522705,16.3221626281738,16.3230609893799,16.3239650726318,16.3248672485352,16.3257751464844,16.3266735076904,16.327579498291,16.3284797668457,16.329381942749,16.330286026001,16.3311862945557,16.3320922851562,16.3329944610596,16.3338928222656,16.3348007202148,16.3357048034668,16.3366107940674,16.3375110626221,16.3384170532227,16.3393173217773,16.3402233123779,16.3411254882812,16.3420314788818,16.3429336547852,16.3438377380371,16.3447456359863,16.3456497192383,16.3465538024902,16.3474559783936,16.3483638763428,16.3492641448975,16.3501739501953,16.35107421875,16.3519840240479,16.3528881072998,16.3537940979004,16.3546981811523,16.3556079864502,16.3565101623535,16.3574161529541,16.3583240509033,16.3592319488525,16.3601360321045,16.3610439300537,16.361946105957,16.3628540039062,16.3637619018555,16.3646678924561,16.365571975708,16.3664817810059,16.3673896789551,16.3682975769043,16.3691997528076,16.3701057434082,16.3710174560547,16.3719253540039,16.3728313446045,16.3737392425537,16.3746471405029,16.3755531311035,16.3764610290527,16.3773727416992,16.3782806396484,16.379186630249,16.3800964355469,16.3810005187988,16.3819160461426,16.3828201293945,16.383731842041,16.3846378326416,16.3855514526367,16.3864555358887,16.3873691558838,16.3882732391357,16.3891849517822,16.3900928497314,16.3910045623779,16.3919143676758,16.3928241729736,16.3937339782715,16.3946437835693,16.3955516815186,16.3964595794678,16.3973712921143,16.3982849121094,16.3991928100586,16.4001026153564,16.4010162353516,16.401927947998,16.4028377532959,16.4037475585938,16.4046592712402,16.4055671691895,16.4064826965332,16.4073944091797,16.4083061218262,16.4092140197754,16.4101295471191,16.4110412597656,16.4119529724121,16.4128646850586,16.4137783050537,16.4146881103516,16.4156017303467,16.4165115356445,16.4174289703369,16.4183387756348,16.4192543029785,16.4201622009277,16.4210758209229,16.421989440918,16.4228992462158,16.4238166809082,16.4247283935547,16.4256439208984,16.4265518188477,16.4274711608887,16.4283847808838,16.4292984008789,16.430212020874,16.4311256408691,16.4320373535156,16.4329566955566,16.4338684082031,16.4347839355469,16.435697555542,16.4366130828857,16.4375247955322,16.4384422302246,16.4393539428711,16.4402732849121,16.4411849975586,16.4421043395996,16.4430179595947,16.4439334869385,16.4448490142822,16.4457664489746,16.4466781616211,16.4475936889648,16.4485130310059,16.4494228363037,16.450345993042,16.4512557983398,16.4521770477295,16.4530906677246,16.4540100097656,16.4549217224121,16.4558448791504,16.4567546844482,16.4576740264893,16.4585914611816,16.4595127105713,16.4604263305664,16.4613456726074,16.4622611999512,16.4631805419922,16.4640960693359,16.4650135040283,16.465934753418,16.4668521881104,16.4677658081055,16.4686889648438,16.4696044921875,16.4705276489258,16.4714412689209,16.4723644256592,16.4732780456543,16.4741954803467,16.4751167297363,16.4760360717773,16.4769554138184,16.4778747558594,16.4787940979004,16.4797115325928,16.4806327819824,16.4815502166748,16.4824733734131,16.4833946228027,16.4843120574951,16.4852333068848,16.4861507415771,16.4870719909668,16.4879932403564,16.4889125823975,16.4898319244385,16.4907550811768,16.4916763305664,16.4925937652588,16.4935169219971,16.4944362640381,16.4953594207764,16.496280670166,16.4972019195557,16.4981212615967,16.499044418335,16.4999656677246,16.5008869171143,16.5018100738525,16.5027313232422,16.5036544799805,16.5045738220215,16.5054988861084,16.5064239501953,16.5073432922363,16.5082664489746,16.5091857910156,16.5101127624512,16.5110340118408,16.5119571685791,16.5128803253174,16.5138034820557,16.5147266387939,16.5156497955322,16.5165710449219,16.5174942016602,16.5184211730957,16.5193424224854,16.5202674865723,16.5211887359619,16.5221157073975,16.5230407714844,16.5239639282227,16.5248870849609,16.5258140563965,16.5267372131348,16.5276622772217,16.52858543396,16.5295124053955,16.5304393768311,16.5313606262207,16.5322875976562,16.5332126617432,16.5341396331787,16.5350646972656,13.3952798843384,13.3805055618286,13.3657636642456,13.3510541915894,13.3363771438599,13.3217315673828,13.3071193695068,13.2925386428833,13.2779893875122,13.0189971923828,12.338098526001,11.7248840332031,11.1697378158569,10.7625894546509,10.6884441375732,10.6700344085693
10.9239778518677,10.9773063659668,11.1400375366211,11.1428880691528,11.1457405090332,11.1485939025879,11.1547250747681,11.2108345031738,11.2675104141235,11.3247632980347,11.3826007843018,11.4410314559937,11.5000667572021,11.5597229003906,11.6200008392334,11.6809101104736,11.7424621582031,11.8046655654907,11.8675327301025,11.9310712814331,11.9952955245972,12.0602140426636,12.1258392333984,12.1921825408936,12.2592515945435,12.3270568847656,12.3956165313721,12.4649429321289,12.5350484848022,12.6059465408325,12.6776485443115,12.7501707077026,12.8235273361206,12.8977336883545,12.9728031158447,13.0487518310547,13.1255960464478,13.2033519744873,13.2820358276367,13.3616619110107,13.4422492980957,13.523814201355,13.6063747406006,13.6899499893188,13.7745580673218,13.86021900177,13.9469499588013,14.0347728729248,14.1237087249756,14.2311563491821,14.4067697525024,14.5867710113525,14.7714595794678,16.1525650024414,16.1534461975098,16.1543292999268,16.1552124023438,16.1560974121094,16.1569786071777,16.157865524292,16.158748626709,16.159631729126,16.160514831543,16.1613998413086,16.1622848510742,16.1631717681885,16.1640548706055,16.1649379730225,16.1658210754395,16.1667079925537,16.1675910949707,16.1684761047363,16.1693630218506,16.1702442169189,16.1711368560791,16.1720199584961,16.1729049682617,16.1737899780273,16.1746768951416,16.1755599975586,16.1764488220215,16.1773338317871,16.17822265625,16.179105758667,16.1799945831299,16.1808776855469,16.1817684173584,16.1826515197754,16.1835403442383,16.1844253540039,16.1853141784668,16.1861972808838,16.1870861053467,16.1879749298096,16.1888637542725,16.1897449493408,16.1906356811523,16.191520690918,16.1924095153809,16.1932983398438,16.1941833496094,16.1950740814209,16.1959571838379,16.1968479156494,16.1977367401123,16.1986274719238,16.1995162963867,16.200403213501,16.2012882232666,16.2021789550781,16.2030696868896,16.2039566040039,16.2048473358154,16.205738067627,16.2066249847412,16.2075176239014,16.208402633667,16.2092952728271,16.21018409729,16.2110767364502,16.2119617462158,16.2128562927246,16.2137413024902,16.2146339416504,16.2155246734619,16.2164173126221,16.2173042297363,16.2181911468506,16.2190856933594,16.2199745178223,16.2208671569824,16.2217559814453,16.2226505279541,16.2235355377197,16.2244319915771,16.2253189086914,16.2262134552002,16.2271041870117,16.2279968261719,16.228889465332,16.2297782897949,16.2306728363037,16.2315654754639,16.2324542999268,16.2333469390869,16.2342395782471,16.2351322174072,16.2360229492188,16.2369155883789,16.2378120422363,16.2387065887451,16.2395973205566,16.2404918670654,16.241382598877,16.2422752380371,16.2431716918945,16.2440605163574,16.2449569702148,16.2458477020264,16.2467422485352,16.2476367950439,16.2485313415527,16.2494220733643,16.2503185272217,16.2512092590332,16.2521057128906,16.2529983520508,16.2538948059082,16.254789352417,16.255687713623,16.2565803527832,16.2574768066406,16.2583694458008,16.2592658996582,16.2601585388184,16.2610569000244,16.2619476318359,16.2628421783447,16.2637386322021,16.2646369934082,16.2655296325684,16.266429901123,16.2673244476318,16.2682151794434,16.269115447998,16.2700099945068,16.2709083557129,16.2718029022217,16.2727012634277,16.2735958099365,16.2744941711426,16.2753887176514,16.2762870788574,16.2771854400635,16.2780799865723,16.278980255127,16.2798767089844,16.2807693481445,16.2816734313965,16.2825698852539,16.2834663391113,16.2843627929688,16.2852592468262,16.2861576080322,16.2870578765869,16.2879543304443,16.288854598999,16.2897529602051,16.2906513214111,16.2915496826172,16.2924480438232,16.2933464050293,16.2942428588867,16.2951431274414,16.2960433959961,16.2969436645508,16.2978401184082,16.2987403869629,16.2996406555176,16.3005390167236,16.3014392852783,16.302339553833,16.3032360076904,16.3041400909424,16.3050384521484,16.3059406280518,16.3068389892578,16.3077411651611,16.3086376190186,16.3095417022705,16.3104381561279,16.3113460540771,16.3122444152832,16.3131484985352,16.3140449523926,16.3149471282959,16.3158473968506,16.3167476654053,16.3176517486572,16.3185558319092,16.319450378418,16.3203525543213,16.3212585449219,16.3221588134766,16.3230609893799,16.3239650726318,16.3248691558838,16.3257675170898,16.3266716003418,16.3275699615479,16.3284759521484,16.3293781280518,16.3302822113037,16.3311824798584,16.332088470459,16.332986831665,16.3338947296143,16.3347969055176,16.3356990814209,16.3366031646729,16.3375053405762,16.3384094238281,16.3393135070801,16.340217590332,16.3411235809326,16.3420295715332,16.3429317474365,16.3438339233398,16.3447437286377,16.3456439971924,16.3465480804443,16.3474540710449,16.3483581542969,16.3492622375488,16.3501682281494,16.35107421875,16.351978302002,16.3528842926025,16.3537902832031,16.3546924591064,16.3556022644043,16.3565063476562,16.3574123382568,16.3583164215088,16.3592224121094,16.3601303100586,16.3610363006592,16.3619441986084,16.3628463745117,16.3637561798096,16.3646621704102,16.3655700683594,16.3664741516113,16.3673839569092,16.3682880401611,16.3691959381104,16.3701019287109,16.3710098266602,16.3719177246094,16.3728256225586,16.3737335205078,16.3746395111084,16.3755493164062,16.3764553070068,16.3773651123047,16.3782711029053,16.3791809082031,16.3800868988037,16.3809947967529,16.3819046020508,16.3828144073486,16.3837223052979,16.3846302032471,16.3855419158936,16.3864498138428,16.387357711792,16.3882694244385,16.3891773223877,16.3900852203369,13.3979187011719,13.3831377029419,13.368390083313,13.3536748886108,13.3389921188354,13.3243417739868,13.3097229003906,13.2951364517212,13.2805814743042,13.266058921814,13.2192516326904,12.5178098678589,11.8870582580566,11.316822052002,10.823413848877,10.7340698242188,10.6793193817139,10.6609411239624,10.6426267623901,10.6243743896484
10.9240036010742,10.977334022522,11.0311870574951,11.1686153411865,11.1714811325073,11.1743478775024,11.1772165298462,11.2108812332153,11.2675580978394,11.3248109817505,11.3826484680176,11.4410839080811,11.5001277923584,11.5597839355469,11.620062828064,11.6809730529785,11.742525100708,11.8047304153442,11.8675966262817,11.9311370849609,11.995361328125,12.0602807998657,12.1259069442749,12.1922454833984,12.2593097686768,12.3271150588989,12.3956756591797,12.4650030136108,12.5351066589355,12.6060018539429,12.6777048110962,12.7502279281616,12.8235855102539,12.8977918624878,12.972861289978,13.0488119125366,13.1256589889526,13.2034158706665,13.2820997238159,13.3617267608643,13.4423151016235,13.5238809585571,13.6064424514771,13.6900186538696,13.7746276855469,13.8602886199951,13.9470205307007,14.0348443984985,14.1682767868042,14.3423328399658,14.5207176208496,14.7037553787231,16.0167903900146,16.0176601409912,16.0185260772705,16.0193939208984,16.020263671875,16.0211353302002,16.0219993591309,16.0228748321533,16.0237426757812,16.0246086120605,16.0254783630371,16.0263481140137,16.0272178649902,16.0280895233154,16.0289573669434,16.0298309326172,16.0306968688965,16.0315723419189,16.0324382781982,16.0333080291748,16.0341815948486,16.0350532531738,16.0359210968018,16.036792755127,16.0376605987549,16.0385360717773,16.0394058227539,16.0402755737305,16.041145324707,16.0420188903809,16.0428905487061,16.043758392334,16.0446300506592,16.0455055236816,16.0463771820068,16.0472450256348,16.0481204986572,16.0489921569824,16.049861907959,16.0507373809814,16.0516090393066,16.0524768829346,16.0533504486084,16.0542221069336,16.0550994873047,16.0559692382812,16.0568428039551,16.0577144622803,16.0585899353027,16.0594615936279,16.0603370666504,16.0612106323242,16.0620861053467,16.0629577636719,16.0638313293457,16.0647048950195,16.065580368042,16.0664558410645,16.0673313140869,16.0682010650635,16.0690746307373,16.0699481964111,16.070821762085,16.0716953277588,16.0725708007812,16.0734481811523,16.0743217468262,16.0751972198486,16.0760669708252,16.0769462585449,16.0778217315674,16.0786991119385,16.0795707702637,16.0804481506348,16.0813236236572,16.0821990966797,16.0830726623535,16.0839500427246,16.0848274230957,16.0857048034668,16.086576461792,16.0874538421631,16.0883293151855,16.089204788208,16.0900840759277,16.0909595489502,16.0918350219727,16.092716217041,16.0935878753662,16.0944652557373,16.095344543457,16.0962200164795,16.0970993041992,16.097972869873,16.0988540649414,16.0997314453125,16.1006088256836,16.1014842987061,16.1023635864258,16.1032409667969,16.1041221618652,16.1049957275391,16.1058788299561,16.1067523956299,16.1076335906982,16.1085090637207,16.1093902587891,16.1102695465088,16.1111450195312,16.1120262145996,16.1129055023193,16.1137828826904,16.1146640777588,16.1155414581299,16.1164245605469,16.1173000335693,16.1181793212891,16.1190586090088,16.1199359893799,16.1208190917969,16.1216983795166,16.1225814819336,16.1234569549561,16.124340057373,16.1252193450928,16.1260986328125,16.1269798278809,16.1278629302979,16.1287441253662,16.1296253204346,16.130500793457,16.1313858032227,16.1322650909424,16.1331481933594,16.1340293884277,16.1349105834961,16.1357898712158,16.1366729736328,16.1375541687012,16.1384353637695,16.1393184661865,16.1402015686035,16.1410827636719,16.1419658660889,16.1428470611572,16.1437282562256,16.1446132659912,16.1454925537109,16.1463775634766,16.1472587585449,16.1481437683105,16.1490249633789,16.1499099731445,16.1507911682129,16.1516761779785,16.1525554656982,16.1534442901611,16.1543235778809,16.1552066802979,16.1560935974121,16.1569786071777,16.1578559875488,16.1587448120117,16.1596260070801,16.1605129241943,16.16139793396,16.1622829437256,16.1631660461426,16.1640529632568,16.1649322509766,16.1658210754395,16.1667022705078,16.1675891876221,16.168478012085,16.1693553924561,16.1702423095703,16.1711292266846,16.1720161437988,16.1728992462158,16.1737880706787,16.1746711730957,16.1755561828613,16.1764430999756,16.1773300170898,16.1782150268555,16.179105758667,16.1799907684326,16.1808757781982,16.1817626953125,16.1826515197754,16.1835346221924,16.1844253540039,16.1853103637695,16.1861953735352,16.1870803833008,16.1879711151123,16.1888580322266,16.1897468566895,16.1906299591064,16.1915168762207,16.1924018859863,16.1932926177979,16.1941814422607,16.1950664520264,16.1959590911865,16.1968460083008,16.197732925415,16.1986198425293,16.1995105743408,16.2003993988037,16.2012901306152,16.2021789550781,16.2030658721924,16.203950881958,16.2048454284668,16.2057323455811,16.2066230773926,16.2075099945068,16.2083988189697,16.2092914581299,16.2101802825928,16.211067199707,16.2119598388672,16.2128467559814,16.2137393951416,16.2146263122559,16.2155170440674,16.2164115905762,16.2172985076904,16.218189239502,16.2190799713135,16.219970703125,16.2208595275879,16.221752166748,16.2226428985596,16.2235355377197,16.2244262695312,16.2253170013428,16.2262058258057,16.2270984649658,16.227991104126,16.2288818359375,16.2297744750977,16.2306652069092,16.231559753418,16.2324504852295,16.233341217041,16.2342357635498,16.23512840271,16.2360191345215,16.2369117736816,16.2378044128418,16.238697052002,16.2395915985107,16.2404804229736,16.2413768768311,16.2422676086426,16.2431621551514,16.2440547943115,16.2449474334717,16.2458400726318,16.2467346191406,16.2476272583008,13.4005584716797,13.3857717514038,13.371018409729,13.356297492981,13.3416090011597,13.3269519805908,13.3123273849487,13.2977352142334,13.2831754684448,13.2686471939087,13.254150390625,13.2396850585938,12.7028341293335,12.0537815093994,11.4678316116333,10.9362077713013,10.7945718765259,10.7057008743286,10.6702108383179,10.6518640518188,10.6335802078247,10.6153583526611,10.5971994400024,10.5791025161743
10.9240293502808,10.977367401123,11.0312356948853,11.0856466293335,11.197340965271,11.2002210617065,11.2031030654907,11.2109279632568,11.2676048278809,11.3248586654663,11.3827028274536,11.441143989563,11.5001888275146,11.5598459243774,11.6201248168945,11.6810359954834,11.7425889968872,11.8047943115234,11.8676614761353,11.9312028884888,11.9954280853271,12.0603475570679,12.1259679794312,12.1923027038574,12.2593679428101,12.3271741867065,12.395733833313,12.4650573730469,12.5351610183716,12.6060581207275,12.6777610778809,12.7502851486206,12.8236427307129,12.8978500366211,12.97292137146,13.0488739013672,13.1257219314575,13.2034797668457,13.2821645736694,13.3617925643921,13.4423809051514,13.5239477157593,13.6065101623535,13.6900873184204,13.7746963500977,13.8603591918945,13.9470920562744,14.1059513092041,14.2784700393677,14.455267906189,15.8824281692505,15.883279800415,15.8841352462769,15.8849906921387,15.8858461380005,15.8866987228394,15.8875551223755,15.8884057998657,15.8892631530762,15.8901176452637,15.8909759521484,15.891827583313,15.8926868438721,15.8935394287109,15.8943929672241,15.8952493667603,15.8961038589478,15.8969612121582,15.8978157043457,15.8986682891846,15.8995265960693,15.9003829956055,15.9012384414673,15.9020957946777,15.9029521942139,15.9038066864014,15.9046611785889,15.9055194854736,15.9063749313354,15.9072341918945,15.9080905914307,15.9089498519897,15.9098043441772,15.9106616973877,15.9115190505981,15.9123773574829,15.9132328033447,15.9140911102295,15.9149446487427,15.9158067703247,15.9166612625122,15.9175243377686,15.9183788299561,15.9192399978638,15.9200954437256,15.9209508895874,15.9218130111694,15.9226665496826,15.923529624939,15.9243841171265,15.9252471923828,15.9261026382446,15.9269609451294,15.9278221130371,15.9286813735962,15.9295406341553,15.9304008483887,15.9312553405762,15.9321184158325,15.9329767227173,15.933837890625,15.9346961975098,15.9355583190918,15.9364147186279,15.9372749328613,15.9381351470947,15.9389953613281,15.9398565292358,15.9407176971436,15.9415788650513,15.9424381256104,15.9432973861694,15.9441604614258,15.9450168609619,15.9458837509155,15.9467420578003,15.9475994110107,15.9484643936157,15.9493236541748,15.9501857757568,15.9510450363159,15.9519119262695,15.95276927948,15.9536333084106,15.9544944763184,15.9553556442261,15.9562177658081,15.9570798873901,15.9579429626465,15.9588060379028,15.9596633911133,15.9605302810669,15.9613914489746,15.9622554779053,15.9631175994873,15.9639768600464,15.9648427963257,15.965705871582,15.9665689468384,15.967432975769,15.9682970046997,15.9691610336304,15.9700202941895,15.9708852767944,15.9717483520508,15.9726114273071,15.9734745025635,15.9743385314941,15.9752054214478,15.9760665893555,15.9769353866577,15.9777975082397,15.9786624908447,15.9795255661011,15.9803886413574,15.9812526702881,15.9821195602417,15.9829845428467,15.9838495254517,15.9847145080566,15.9855804443359,15.9864435195923,15.9873123168945,15.9881734848022,15.9890432357788,15.9899044036865,15.9907760620117,15.9916381835938,15.9925031661987,15.993369102478,15.9942359924316,15.9951028823853,15.9959669113159,15.9968309402466,15.9976987838745,15.9985675811768,15.9994325637817,16.000301361084,16.0011672973633,16.0020370483398,16.0029010772705,16.0037727355957,16.0046367645264,16.0055046081543,16.0063705444336,16.0072402954102,16.0081024169922,16.0089721679688,16.0098400115967,16.0107097625732,16.0115756988525,16.0124473571777,16.0133113861084,16.0141849517822,16.0150508880615,16.0159206390381,16.0167846679688,16.0176582336426,16.0185222625732,16.0193939208984,16.0202598571777,16.0211277008057,16.0219974517822,16.0228672027588,16.0237369537354,16.0246086120605,16.0254783630371,16.0263481140137,16.0272159576416,16.0280818939209,16.0289535522461,16.0298271179199,16.0306968688965,16.0315647125244,16.0324363708496,16.0333042144775,16.0341777801514,16.0350437164307,16.0359191894531,16.0367870330811,16.0376625061035,16.0385303497314,16.039400100708,16.0402698516846,16.0411434173584,16.042013168335,16.0428886413574,16.0437545776367,16.0446281433105,16.0455017089844,16.0463733673096,16.0472431182861,16.0481147766113,16.0489883422852,16.0498561859131,16.0507297515869,16.0516033172607,16.0524768829346,16.0533466339111,16.0542221069336,16.0550937652588,16.055965423584,16.0568389892578,16.0577144622803,16.0585880279541,16.0594577789307,16.0603313446045,16.061206817627,16.0620784759521,16.062952041626,16.0638256072998,16.0647048950195,16.0655784606934,16.0664482116699,16.0673217773438,16.0681991577148,16.0690746307373,16.0699462890625,16.0708198547363,16.0716915130615,16.0725688934326,16.0734424591064,16.0743160247803,16.0751895904541,16.0760669708252,16.0769424438477,16.0778160095215,16.0786914825439,16.0795650482178,16.0804424285889,16.0813159942627,16.0821914672852,16.0830669403076,16.0839443206787,16.0848197937012,16.0856971740723,16.0865707397461,16.0874481201172,16.0883255004883,16.0891990661621,16.0900783538818,16.0909538269043,16.0918312072754,16.0927066802979,16.0935821533203,16.09446144104,16.0953388214111,16.0962142944336,16.0970916748047,16.0979690551758,16.0988464355469,16.099723815918,16.1006011962891,16.1014804840088,16.1023578643799,16.1032371520996,16.1041107177734,16.1049919128418,16.1058692932129,16.106746673584,16.1076240539551,16.1085033416748,13.38840675354,13.3736476898193,13.3589200973511,13.3442258834839,13.3295640945435,13.3149337768555,13.3003358840942,13.2857694625854,13.2712354660034,13.2567338943481,13.242262840271,13.2278242111206,12.8934097290039,12.225248336792,11.6229248046875,11.0771675109863,10.8557596206665,10.7658824920654,10.6794967651367,10.6611175537109,10.64280128479,10.6245489120483,10.6063585281372,10.5882301330566,10.5701637268066,10.5521593093872,10.534143447876
10.924072265625,10.9774169921875,11.031286239624,11.0856771469116,11.2233209609985,11.2262144088745,11.2291097640991,11.232006072998,11.2676525115967,11.324914932251,11.3827629089355,11.4412040710449,11.5002498626709,11.5599069595337,11.6201868057251,11.6810989379883,11.7426519393921,11.8048582077026,11.8677263259888,11.9312686920166,11.995493888855,12.0604076385498,12.1260251998901,12.1923599243164,12.2594261169434,12.3272294998169,12.3957872390747,12.4651117324829,12.5352163314819,12.6061134338379,12.6778173446655,12.7503414154053,12.8236999511719,12.8979082107544,12.9729833602905,13.0489358901978,13.1257848739624,13.2035427093506,13.2822284698486,13.3618574142456,13.4424467086792,13.5240144729614,13.60657787323,13.6901550292969,13.7747659683228,13.8772354125977,14.0441722869873,14.2151727676392,14.3904247283936,15.7511415481567,15.7519826889038,15.7528209686279,15.753662109375,15.7544984817505,15.7553434371948,15.7561807632446,15.7570238113403,15.7578639984131,15.7587041854858,15.7595453262329,15.7603874206543,15.7612257003784,15.7620677947998,15.7629079818726,15.7637510299683,15.764591217041,15.7654342651367,15.7662754058838,15.7671165466309,15.7679586410522,15.7688007354736,15.769642829895,15.7704858779907,15.7713260650635,15.7721700668335,15.7730102539062,15.7738552093506,15.7746934890747,15.775541305542,15.7763805389404,15.7772235870361,15.7780666351318,15.7789068222046,15.7797536849976,15.7805919647217,15.781439781189,15.782280921936,15.7831239700317,15.7839689254761,15.7848119735718,15.7856550216675,15.7864990234375,15.7873430252075,15.7881879806519,15.7890291213989,15.7898778915405,15.790717124939,15.7915658950806,15.7924060821533,15.7932529449463,15.7940969467163,15.7949409484863,15.7957859039307,15.796630859375,15.7974758148193,15.798321723938,15.7991647720337,15.8000116348267,15.8008556365967,15.8017063140869,15.802547454834,15.8033952713013,15.8042373657227,15.8050804138184,15.80592918396,15.8067760467529,15.8076229095459,15.8084669113159,15.8093137741089,15.8101587295532,15.8110074996948,15.8118524551392,15.8126993179321,15.8135480880737,15.8143949508667,15.8152389526367,15.816086769104,15.8169345855713,15.8177824020386,15.8186283111572,15.8194770812988,15.8203229904175,15.8211698532104,15.8220167160034,15.8228635787964,15.8237142562866,15.8245630264282,15.8254079818726,15.8262567520142,15.8271064758301,15.8279523849487,15.828803062439,15.8296499252319,15.8304977416992,15.8313426971436,15.8321971893311,15.8330421447754,15.8338947296143,15.8347406387329,15.8355941772461,15.8364410400391,15.8372888565063,15.8381395339966,15.8389883041382,15.8398361206055,15.8406858444214,15.84153175354,15.8423881530762,15.8432350158691,15.8440885543823,15.8449363708496,15.8457880020142,15.8466358184814,15.847484588623,15.8483371734619,15.8491868972778,15.8500375747681,15.850884437561,15.8517379760742,15.8525896072388,15.8534383773804,15.8542900085449,15.8551425933838,15.8559951782227,15.8568449020386,15.8576917648315,15.858549118042,15.8593969345093,15.8602514266968,15.8611001968384,15.8619556427002,15.8628053665161,15.863657951355,15.8645114898682,15.8653621673584,15.8662166595459,15.8670673370361,15.8679189682007,15.8687715530396,15.8696212768555,15.8704795837402,15.8713302612305,15.8721837997437,15.8730344772339,15.8738889694214,15.8747406005859,15.8755931854248,15.8764486312866,15.8773012161255,15.8781576156616,15.8790082931519,15.879861831665,15.8807163238525,15.88157081604,15.8824262619019,15.8832788467407,15.8841342926025,15.8849878311157,15.8858375549316,15.886697769165,15.8875494003296,15.88840675354,15.8892593383789,15.8901147842407,15.8909702301025,15.8918228149414,15.8926792144775,15.893536567688,15.8943910598755,15.895245552063,15.8961000442505,15.8969583511353,15.8978118896484,15.8986701965332,15.8995237350464,15.9003772735596,15.90123462677,15.9020891189575,15.9029474258423,15.9038028717041,15.9046611785889,15.9055147171021,15.9063739776611,15.9072275161743,15.9080877304077,15.9089422225952,15.90980052948,15.9106588363647,15.9115171432495,15.9123706817627,15.9132299423218,15.9140863418579,15.9149465560913,15.9158010482788,15.9166622161865,15.9175176620483,15.9183759689331,15.9192352294922,15.9200916290283,15.9209508895874,15.9218111038208,15.9226655960083,15.923526763916,15.9243812561035,15.9252405166626,15.9261026382446,15.9269590377808,15.9278182983398,15.9286756515503,15.9295358657837,15.9303941726685,15.9312553405762,15.9321136474609,15.932975769043,15.9338321685791,15.9346914291382,15.9355516433716,15.936411857605,15.9372730255127,15.9381341934204,15.9389896392822,15.9398546218872,15.9407110214233,15.9415769577026,15.9424333572388,15.9432973861694,15.9441547393799,15.9450149536133,15.9458751678467,15.9467353820801,15.9475994110107,15.9484577178955,15.9493207931519,15.9501800537109,15.951042175293,15.951904296875,15.9527645111084,15.9536266326904,15.9544868469238,15.9553499221802,15.9562129974365,15.9570732116699,15.9579372406006,15.9588003158569,15.959659576416,15.9605236053467,15.9613838195801,15.9622488021851,15.9631099700928,15.9639730453491,15.9648351669312,15.9657001495361,15.9665594100952,15.9674243927002,15.9682884216309,15.9691514968872,15.9700174331665,15.9708776473999,13.3910427093506,13.3762769699097,13.3615446090698,13.3468446731567,13.3321762084961,13.3175411224365,13.3029375076294,13.2883653640747,13.2738256454468,13.2593173980713,13.2448415756226,13.230396270752,13.2159833908081,13.0897903442383,12.4016637802124,11.7822723388672,11.2218074798584,10.9176445007324,10.8267440795898,10.7373456954956,10.6703872680664,10.6520395278931,10.6337547302246,10.615532875061,10.597373008728,10.5792760848999,10.561240196228,10.5432653427124,10.5253524780273,10.5074996948242,10.4893827438354
10.9241218566895,10.9774675369263,11.0313367843628,11.0857343673706,11.2398052215576,11.242374420166,11.244945526123,11.2475166320801,11.26771068573,11.3249740600586,11.3828220367432,11.4412641525269,11.5003108978271,11.5599689483643,11.6202487945557,11.6811609268188,11.7427158355713,11.8049221038818,11.8677911758423,11.9313335418701,11.9955520629883,12.0604639053345,12.1260814666748,12.1924161911011,12.2594785690308,12.3272829055786,12.3958415985107,12.4651660919189,12.5352716445923,12.6061687469482,12.6778736114502,12.7503986358643,12.8237581253052,12.8979692459106,12.9730443954468,13.0489988327026,13.1258478164673,13.2036066055298,13.2822933197021,13.3619222640991,13.442512512207,13.5240812301636,13.6066455841064,13.6902236938477,13.8174381256104,13.982931137085,14.1524353027344,14.3261594772339,15.6220073699951,15.6228351593018,15.6236600875854,15.624490737915,15.6253137588501,15.6261396408081,15.6269693374634,15.6277933120728,15.6286201477051,15.6294479370117,15.6302757263184,15.631103515625,15.631929397583,15.632758140564,15.633581161499,15.6344137191772,15.6352376937866,15.6360683441162,15.6368932723999,15.6377210617065,15.6385526657104,15.6393747329712,15.6402072906494,15.6410331726074,15.6418600082397,15.6426906585693,15.6435174942017,15.6443490982056,15.6451768875122,15.6460056304932,15.6468343734741,15.6476612091064,15.6484937667847,15.649320602417,15.6501512527466,15.6509790420532,15.6518125534058,15.6526384353638,15.6534700393677,15.6542987823486,15.6551284790039,15.6559581756592,15.6567888259888,15.6576166152954,15.6584501266479,15.6592788696289,15.6601104736328,15.6609392166138,15.661768913269,15.6625986099243,15.6634283065796,15.6642618179321,15.6650896072388,15.6659240722656,15.6667518615723,15.6675872802734,15.6684160232544,15.6692457199097,15.6700792312622,15.6709089279175,15.6717395782471,15.6725740432739,15.6734018325806,15.6742372512817,15.6750659942627,15.6759014129639,15.6767311096191,15.6775674819946,15.678394317627,15.6792287826538,15.6800594329834,15.6808948516846,15.6817264556885,15.6825618743896,15.6833944320679,15.6842212677002,15.6850547790527,15.6858911514282,15.6867227554321,15.687557220459,15.6883888244629,15.6892213821411,15.6900568008423,15.6908864974976,15.691725730896,15.6925563812256,15.6933937072754,15.694224357605,15.6950597763062,15.6958913803101,15.6967267990112,15.6975622177124,15.6983957290649,15.6992321014404,15.700065612793,15.7008972167969,15.7017345428467,15.7025699615479,15.703405380249,15.7042379379272,15.7050733566284,15.7059097290039,15.7067470550537,15.7075805664062,15.7084150314331,15.7092533111572,15.7100849151611,15.7109203338623,15.7117567062378,15.7125930786133,15.7134294509888,15.7142667770386,15.7151012420654,15.7159385681152,15.7167701721191,15.7176122665405,15.7184448242188,15.7192869186401,15.7201175689697,15.7209577560425,15.721794128418,15.7226285934448,15.7234668731689,15.7243051528931,15.7251443862915,15.7259798049927,15.7268133163452,15.7276563644409,15.7284898757935,15.7293310165405,15.7301654815674,15.7310094833374,15.7318420410156,15.7326784133911,15.7335205078125,15.734354019165,15.7351970672607,15.7360315322876,15.7368726730347,15.7377099990845,15.7385492324829,15.739387512207,15.7402267456055,15.7410659790039,15.7419061660767,15.7427406311035,15.7435808181763,15.7444190979004,15.7452640533447,15.7460994720459,15.7469415664673,15.7477779388428,15.7486171722412,15.749457359314,15.750298500061,15.7511396408081,15.7519807815552,15.7528162002563,15.7536611557007,15.7544975280762,15.7553405761719,15.7561769485474,15.7570209503174,15.7578582763672,15.7586994171143,15.7595443725586,15.7603797912598,15.7612257003784,15.7620649337769,15.7629079818726,15.7637481689453,15.7645893096924,15.7654304504395,15.7662715911865,15.7671136856079,15.7679557800293,15.7687950134277,15.7696409225464,15.7704782485962,15.7713251113892,15.7721662521362,15.7730102539062,15.7738485336304,15.7746906280518,15.7755365371704,15.7763757705688,15.7772197723389,15.7780628204346,15.7789068222046,15.7797508239746,15.780590057373,15.7814350128174,15.7822771072388,15.7831230163574,15.7839660644531,15.7848062515259,15.7856531143188,15.786491394043,15.7873392105103,15.7881813049316,15.7890291213989,15.7898721694946,15.7907152175903,15.791561126709,15.792405128479,15.793249130249,15.7940940856934,15.7949390411377,15.795783996582,15.7966260910034,15.7974729537964,15.7983160018921,15.799165725708,15.8000068664551,15.8008575439453,15.8016986846924,15.8025436401367,15.8033895492554,15.804235458374,15.8050813674927,15.8059253692627,15.8067722320557,15.8076162338257,15.808464050293,15.8093128204346,15.8101577758789,15.8110036849976,15.8118495941162,15.8126935958862,15.8135433197021,15.8143882751465,15.8152341842651,15.8160829544067,15.8169298171997,15.8177766799927,15.8186225891113,15.8194723129272,15.8203191757202,15.8211669921875,15.8220129013062,15.8228588104248,15.823709487915,15.8245544433594,15.8254041671753,15.8262529373169,15.8270988464355,15.8279485702515,15.8287944793701,15.8296422958374,15.830493927002,15.8313407897949,15.8321905136108,15.8330383300781,15.8338861465454,15.8347368240356,15.8355836868286,15.8364334106445,13.3789081573486,13.3641700744629,13.3494634628296,13.3347902297974,13.3201484680176,13.3055391311646,13.2909622192383,13.2764167785645,13.2619028091431,13.2474212646484,13.2329702377319,13.2185516357422,13.2041645050049,13.1898078918457,12.5832443237305,11.9460487365723,11.3702754974365,10.9802389144897,10.888298034668,10.7978839874268,10.7089586257935,10.6612939834595,10.6429767608643,10.6247234344482,10.6065330505371,10.5884037017822,10.5703363418579,10.5523309707642,10.5343866348267,10.5165042877197,10.4986810684204,10.4809188842773,10.4630098342896,10.4450006484985
10.9241714477539,10.9775171279907,11.0313873291016,11.0857877731323,11.1407270431519,11.2514429092407,11.2540168762207,11.2565927505493,11.2677688598633,11.3250331878662,11.3828821182251,11.4413251876831,11.5003709793091,11.5600299835205,11.6203107833862,11.6812238693237,11.7427787780762,11.804986000061,11.8678560256958,11.9313898086548,11.9956073760986,12.0605201721191,12.1261358261108,12.1924686431885,12.2595310211182,12.3273363113403,12.3958950042725,12.465220451355,12.5353260040283,12.6062250137329,12.6779298782349,12.7504549026489,12.8238182067871,12.8980302810669,12.973105430603,13.0490608215332,13.1259098052979,13.203670501709,13.2823572158813,13.361988067627,13.4425783157349,13.5241479873657,13.6067123413086,13.7581539154053,13.9222221374512,14.0902490615845,15.4941635131836,15.4949722290039,15.4957904815674,15.4965991973877,15.4974145889282,15.4982280731201,15.4990377426147,15.4998550415039,15.5006656646729,15.5014801025391,15.5022916793823,15.5031099319458,15.5039186477661,15.504734992981,15.5055475234985,15.5063610076904,15.5071783065796,15.5079917907715,15.5088033676147,15.5096216201782,15.5104303359985,15.5112495422363,15.5120620727539,15.5128812789917,15.5136919021606,15.5145053863525,15.5153226852417,15.5161371231079,15.5169525146484,15.517767906189,15.5185861587524,15.5194025039673,15.5202131271362,15.521032333374,15.5218467712402,15.5226612091064,15.5234785079956,15.5242910385132,15.5251092910767,15.5259218215942,15.5267448425293,15.5275545120239,15.528374671936,15.5291891098022,15.5300064086914,15.5308246612549,15.5316400527954,15.5324583053589,15.5332746505737,15.5340938568115,15.5349102020264,15.5357246398926,15.5365447998047,15.5373592376709,15.5381803512573,15.5389928817749,15.5398120880127,15.5406274795532,15.5414476394653,15.5422668457031,15.5430841445923,15.5439014434814,15.544716835022,15.5455350875854,15.5463533401489,15.5471725463867,15.5479917526245,15.5488080978394,15.5496282577515,15.5504493713379,15.5512638092041,15.5520877838135,15.552903175354,15.5537252426147,15.5545406341553,15.5553607940674,15.5561800003052,15.5570001602173,15.5578212738037,15.5586423873901,15.5594596862793,15.5602788925171,15.5610980987549,15.5619201660156,15.5627365112305,15.5635595321655,15.5643796920776,15.5652008056641,15.5660190582275,15.566840171814,15.5676622390747,15.5684776306152,15.5693006515503,15.5701198577881,15.5709438323975,15.5717639923096,15.572585105896,15.5734062194824,15.5742282867432,15.5750494003296,15.5758695602417,15.5766887664795,15.5775146484375,15.5783319473267,15.579158782959,15.5799770355225,15.5808048248291,15.5816230773926,15.5824451446533,15.5832653045654,15.5840873718262,15.5849113464355,15.5857343673706,15.58655834198,15.5873794555664,15.5881986618042,15.5890264511108,15.5898456573486,15.5906715393066,15.5914916992188,15.5923118591309,15.5931386947632,15.5939598083496,15.5947875976562,15.5956087112427,15.5964345932007,15.5972537994385,15.5980796813965,15.5989027023315,15.5997266769409,15.6005506515503,15.6013746261597,15.6022024154663,15.6030244827271,15.6038465499878,15.6046724319458,15.6054954528809,15.6063251495361,15.6071462631226,15.6079702377319,15.6087970733643,15.6096220016479,15.610447883606,15.6112699508667,15.612099647522,15.612922668457,15.6137456893921,15.6145734786987,15.6153974533081,15.6162223815918,15.6170473098755,15.6178760528564,15.6187019348145,15.6195249557495,15.6203546524048,15.6211748123169,15.6220083236694,15.6228294372559,15.6236581802368,15.6244831085205,15.6253118515015,15.6261377334595,15.6269645690918,15.6277904510498,15.6286182403564,15.6294422149658,15.6302728652954,15.6310949325562,15.6319265365601,15.6327524185181,15.6335821151733,15.6344089508057,15.635235786438,15.6360626220703,15.636890411377,15.6377220153809,15.6385469436646,15.6393756866455,15.6402015686035,15.6410312652588,15.6418581008911,15.6426877975464,15.643515586853,15.6443462371826,15.6451721191406,15.6460037231445,15.6468296051025,15.6476621627808,15.6484880447388,15.6493215560913,15.6501455307007,15.6509771347046,15.6518049240112,15.6526365280151,15.6534652709961,15.6542940139771,15.6551208496094,15.6559572219849,15.6567840576172,15.6576147079468,15.6584424972534,15.6592769622803,15.6601028442383,15.6609344482422,15.6617670059204,15.6625967025757,15.6634273529053,15.6642580032349,15.6650915145874,15.6659164428711,15.666748046875,15.6675806045532,15.6684131622314,15.6692457199097,15.6700754165649,15.6709060668945,15.6717395782471,15.6725673675537,15.6734027862549,15.6742315292358,15.6750659942627,15.675895690918,15.6767292022705,15.6775617599487,15.6783924102783,15.6792268753052,15.6800584793091,15.680890083313,15.6817255020142,15.6825542449951,15.6833906173706,15.6842203140259,15.6850566864014,15.6858882904053,15.6867189407349,15.6875524520874,15.6883859634399,15.6892185211182,15.690052986145,15.6908855438232,15.6917181015015,15.6925535202026,15.6933870315552,15.6942205429077,15.6950540542603,15.6958875656128,15.6967248916626,15.6975574493408,15.6983909606934,15.6992244720459,15.7000617980957,15.7008934020996,15.7017307281494,15.702561378479,15.7033987045288,13.3815402984619,13.3667964935303,13.3520841598511,13.3374052047729,13.3227577209473,13.3081426620483,13.2935600280762,13.2790088653564,13.2644891738892,13.2500019073486,13.2355461120605,13.2211208343506,13.2067279815674,13.1923666000366,13.178035736084,12.7702226638794,12.1144428253174,11.5227251052856,11.0435562133789,10.9505558013916,10.8591089248657,10.7691774368286,10.6807222366333,10.6522150039673,10.6339302062988,10.6157073974609,10.5975475311279,10.5794486999512,10.5614128112793,10.5434379577637,10.52552318573,10.5076704025269,10.4898777008057,10.4721450805664,10.4544725418091,10.4367694854736,10.4188499450684,10.4009923934937
10.9242210388184,10.9775676727295,11.0314378738403,11.0858383178711,11.1407461166382,11.2605257034302,11.2631044387817,11.2656841278076,11.2682647705078,11.3250923156738,11.3829412460327,11.441385269165,11.5004320144653,11.5600910186768,11.6203727722168,11.6812868118286,11.7428426742554,11.8050498962402,11.8679113388062,11.9314451217651,11.9956617355347,12.0605707168579,12.1261873245239,12.1925201416016,12.2595834732056,12.3273897171021,12.3959484100342,12.465274810791,12.5353813171387,12.6062803268433,12.6779861450195,12.7505149841309,12.823878288269,12.8980903625488,12.9731674194336,13.0491228103638,13.1259727478027,13.2037343978882,13.2824220657349,13.3620529174805,13.442645072937,13.5404567718506,13.6993751525879,13.8620367050171,14.0286064147949,15.3691892623901,15.3699913024902,15.3707876205444,15.3715877532959,15.3723907470703,15.3731918334961,15.3739900588989,15.3747911453247,15.3755893707275,15.3763942718506,15.3771905899048,15.3779935836792,15.3787937164307,15.3795938491821,15.3803949356079,15.3811960220337,15.3819971084595,15.3827991485596,15.3835973739624,15.3844032287598,15.385199546814,15.3860034942627,15.3868036270142,15.3876075744629,15.3884086608887,15.3892068862915,15.3900117874146,15.3908109664917,15.3916168212891,15.3924160003662,15.3932228088379,15.3940229415894,15.3948240280151,15.3956279754639,15.396430015564,15.3972311019897,15.3980340957642,15.3988332748413,15.3996419906616,15.4004392623901,15.4012460708618,15.4020471572876,15.4028549194336,15.4036560058594,15.4044580459595,15.4052639007568,15.4060668945312,15.4068698883057,15.4076700210571,15.4084796905518,15.4092807769775,15.4100818634033,15.4108896255493,15.4116916656494,15.4124975204468,15.4133005142212,15.4141035079956,15.4149103164673,15.415714263916,15.4165210723877,15.4173231124878,15.4181308746338,15.4189329147339,15.4197387695312,15.4205446243286,15.421347618103,15.4221544265747,15.4229612350464,15.4237651824951,15.4245729446411,15.4253721237183,15.4261837005615,15.4269866943359,15.4277954101562,15.4285984039307,15.4294061660767,15.4302101135254,15.4310140609741,15.4318246841431,15.4326267242432,15.4334383010864,15.4342412948608,15.4350471496582,15.4358539581299,15.4366645812988,15.4374713897705,15.4382762908936,15.4390840530396,15.4398918151855,15.44069480896,15.4415063858032,15.4423131942749,15.4431200027466,15.4439268112183,15.4447336196899,15.4455413818359,15.4463500976562,15.4471578598022,15.4479665756226,15.4487762451172,15.4495820999146,15.4503889083862,15.4511995315552,15.4520063400269,15.4528179168701,15.4536228179932,15.4544343948364,15.4552402496338,15.4560461044312,15.4568586349487,15.4576654434204,15.4584789276123,15.4592838287354,15.4600944519043,15.4609060287476,15.4617118835449,15.4625234603882,15.4633331298828,15.4641427993774,15.4649534225464,15.4657602310181,15.4665746688843,15.4673795700073,15.4681940078735,15.4690027236938,15.4698152542114,15.4706211090088,15.4714307785034,15.4722442626953,15.4730548858643,15.4738655090332,15.4746770858765,15.4754829406738,15.4763011932373,15.4771070480347,15.4779195785522,15.4787292480469,15.4795398712158,15.480354309082,15.481162071228,15.4819765090942,15.4827852249146,15.4836006164551,15.4844093322754,15.4852256774902,15.4860324859619,15.4868459701538,15.4876565933228,15.488471031189,15.4892826080322,15.4900979995728,15.4909067153931,15.4917230606079,15.4925298690796,15.4933462142944,15.4941568374634,15.4949741363525,15.4957847595215,15.4965972900391,15.4974088668823,15.4982242584229,15.4990367889404,15.4998502731323,15.5006637573242,15.5014743804932,15.5022888183594,15.5031032562256,15.5039148330688,15.5047302246094,15.5055465698242,15.5063562393188,15.5071754455566,15.5079860687256,15.5088033676147,15.5096139907837,15.5104322433472,15.5112438201904,15.5120601654053,15.5128726959229,15.5136890411377,15.5145053863525,15.5153217315674,15.5161361694336,15.5169534683228,15.5177659988403,15.5185842514038,15.5193967819214,15.5202159881592,15.5210256576538,15.5218420028687,15.5226593017578,15.523473739624,15.5242910385132,15.5251035690308,15.5259246826172,15.5267381668091,15.5275535583496,15.5283699035645,15.5291872024536,15.5300045013428,15.530818939209,15.5316371917725,15.5324554443359,15.5332679748535,15.5340900421143,15.5349025726318,15.5357255935669,15.5365400314331,15.537353515625,15.5381717681885,15.5389928817749,15.5398082733154,15.5406274795532,15.541446685791,15.5422630310059,15.5430793762207,15.5438995361328,15.544713973999,15.5455350875854,15.5463533401489,15.5471725463867,15.5479879379272,15.5488042831421,15.5496273040771,15.5504446029663,15.5512647628784,15.5520792007446,15.5529003143311,15.5537195205688,15.5545377731323,15.5553569793701,15.5561771392822,15.5570001602173,15.5578165054321,15.5586347579956,15.559455871582,15.5602741241455,15.5610990524292,15.5619144439697,15.5627346038818,15.5635538101196,15.5643758773804,15.5651931762695,15.5660152435303,15.5668354034424,15.5676555633545,15.5684757232666,15.5692977905273,15.5701169967651,15.5709390640259,15.5717573165894,15.5725812911987,15.5734004974365,13.369423866272,13.3547058105469,13.3400211334229,13.3253679275513,13.3107471466064,13.2961578369141,13.2816009521484,13.2670764923096,13.2525835037231,13.2381219863892,13.2236919403076,13.2092933654785,13.1949253082275,13.1805896759033,13.1662845611572,12.9628410339355,12.287652015686,11.6793174743652,11.1283760070801,11.0135297775269,10.9210329055786,10.8300762176514,10.7406225204468,10.6614694595337,10.6431522369385,10.6248979568481,10.6067066192627,10.5885772705078,10.5705099105835,10.5525035858154,10.5345592498779,10.5166749954224,10.498851776123,10.4810886383057,10.4633855819702,10.4457426071167,10.4281587600708,10.4106340408325,10.3928308486938,10.3750619888306,10.3573541641235
