11.341100692749,11.3415441513062,11.341983795166,11.3424301147461,11.342869758606,11.3433122634888,11.3437566757202,11.3441972732544,11.3446426391602,11.34508228302,11.3455266952515,11.3459692001343,11.3464107513428,11.3468542098999,11.347297668457,11.3477382659912,11.3481826782227,11.3486251831055,11.3490695953369,11.3495111465454,11.3499555587769,11.350399017334,11.3508405685425,11.3512840270996,11.3517265319824,11.3521709442139,11.3526124954224,11.3139801025391,11.2299461364746,11.1471519470215,11.0655689239502,10.9851722717285,10.9059352874756,10.8278322219849,10.7508411407471,10.1677093505859,10.1590337753296,10.1503734588623,10.1417284011841,10.1330976486206,10.1244812011719,10.1158800125122,10.1072931289673,10.0987215042114,10.090163230896,10.0816202163696,10.073091506958,10.0645771026611,10.056077003479,10.0475912094116,10.039119720459,10.0306625366211,10.0222206115723,10.0137910842896,10.0053768157959,9.99697685241699,9.98859024047852,9.98021793365479,9.9718599319458,9.96351623535156,9.95518589019775,9.94686985015869,9.93856716156006,9.93027877807617,9.92200374603271,9.91282844543457,9.89695644378662,9.88113594055176,9.86536502838135,9.84964466094971,9.83397388458252,9.81835269927979,9.80278205871582,9.78726005554199,9.7717866897583,9.75636291503906,9.74098777770996,9.725661277771,9.71038246154785,9.69515132904053,9.67996788024902,9.66483211517334,9.64974403381348,9.63470268249512,9.61970806121826,9.60476016998291,9.58985900878906,9.5750036239624,9.56019401550293,9.54543018341064,9.53071212768555,9.51603889465332,9.50141143798828,9.48682880401611,9.4722900390625,9.45779609680176,9.44334697723389,9.42894172668457,9.41458034515381,9.4002628326416,9.38598823547363,9.37175750732422,9.35756969451904,9.34342479705811,9.32932186126709,9.31526279449463,9.30124473571777,9.28726959228516,9.27333641052246,9.25944423675537,9.24559497833252,9.23178577423096,9.21801853179932,9.20429134368896,9.19060611724854,9.17696094512939,9.16335582733154,9.1497917175293,9.13626766204834,9.12278270721436,9.10933876037598,9.09593391418457,9.08256816864014,9.06924152374268,9.05595397949219,9.04270553588867,9.02949619293213,9.01606369018555,9.00265979766846,8.98929500579834,8.97597122192383,8.96268653869629,8.94944095611572,8.93623352050781,8.92306613922119,8.90993690490723,8.89684677124023,8.8837947845459,8.87078094482422,8.8578052520752,8.84486770629883,8.8319673538208,8.81910514831543,8.8062801361084,8.79349231719971,8.78074169158936,8.76802730560303,8.75535106658936,8.74271011352539,8.73010635375977,8.71753883361816,8.70500659942627,8.69251155853271,8.68005180358887,8.66762733459473,8.65523910522461,8.6428861618042,8.63056755065918,8.61828517913818,8.60603713989258,8.59382343292236,8.58164501190186,8.56950092315674,8.55770778656006,8.54710674285889,8.53653144836426,8.52598285675049,8.51546001434326,8.50496292114258,8.49449157714844,8.48404598236084,8.47362613677979,8.46323204040527,8.4528636932373,8.44252014160156,8.43220233917236,8.42190933227539,8.41164207458496,8.40139865875244,8.39118099212646,8.38098812103271,8.37082004547119,8.36067581176758,8.35055732727051,8.34046268463135,8.3303918838501,8.32034683227539,8.31032466888428,8.30032730102539,8.29035377502441,8.28040409088135,8.27047824859619,8.26057624816895,8.25069713592529,8.24084281921387,8.23101139068604,8.22120380401611,8.21141910552979,8.20165824890137,8.19192028045654,8.18220520019531,8.17251300811768,8.16284465789795,8.1531982421875,8.14357471466064,8.13397407531738,8.12439632415771,8.11484050750732,8.10530757904053,8.09579658508301,8.08437538146973,8.06964206695557,8.05496215820312,8.04033470153809,8.02576065063477,8.01124000549316,7.99677085876465,7.98235464096069,7.96798992156982,7.95367670059204,7.93941497802734,7.92520427703857,7.91104459762573,7.8969349861145,7.88287591934204,7.86886692047119,7.85490751266479,7.84099721908569,7.82713651657104,7.81332445144653,7.79956102371216,7.78584671020508,7.77217960357666,7.75856065750122,7.74498987197876,7.7314658164978,7.71798992156982,7.70455980300903,7.69117641448975,7.67783975601196,7.66454935073853,7.65130472183228,7.63810634613037,7.62495231628418,7.61184406280518,7.59878158569336,7.5857629776001,7.57278919219971,7.55985927581787,7.54697370529175,7.53413248062134,7.52133417129517,7.50857925415039,7.49586820602417,7.48319959640503,7.47057342529297,7.4579906463623,7.44455194473267,7.43018245697021,7.41586828231812,7.40160942077637,7.38740539550781,7.37325620651245,7.35915994644165,7.34511804580688,7.331130027771,7.31719446182251,7.30331230163574,7.28948259353638,7.27570486068726,7.26197957992554,7.2483057975769,7.2346830368042,7.22111177444458,7.20759105682373,7.19412183761597,7.18070220947266,7.1673321723938,7.15401220321655,7.14074182510376,7.1275200843811,7.11434698104858,7.10122346878052,7.08814811706543,7.075119972229,7.06214046478271,7.04920768737793,7.03632307052612,7.02348518371582,7.01069402694702,6.99794912338257,6.98525047302246,6.97259855270386,6.95999145507812,6.94743013381958,6.93491411209106,6.92244338989258,6.91001749038696,6.8976354598999,6.88529825210571,6.87300539016724,6.860755443573,6.84854984283447,6.83638715744019,6.82426834106445,6.81219148635864,6.80015754699707,6.78816604614258,6.77621746063232,6.76430988311768,6.75244426727295,6.74062061309814,6.72883796691895,6.71709680557251,6.70539617538452,6.69373607635498,6.68211698532104,6.6705379486084,6.6589994430542,6.64750003814697,6.63604021072388,6.62462043762207,6.61323928833008,6.60189771652222,6.59059476852417,6.5793309211731,6.57004451751709,6.56417512893677,6.55831670761108,6.55246782302856,6.54662990570068,6.54080247879028,6.53498554229736,6.52917861938477,6.52338171005249,6.51759576797485,6.51181936264038,6.50605392456055,6.50029802322388,6.49455261230469,6.48881769180298,6.48309230804443
11.2745866775513,11.2750225067139,11.2754592895508,11.2758979797363,11.2763338088989,11.2767715454102,11.27721118927,11.2776470184326,11.2780857086182,11.2785205841064,11.2789611816406,11.2793960571289,11.2798357009888,11.2802715301514,11.2807092666626,11.2811470031738,11.2815856933594,11.2820224761963,11.2824611663818,11.2828979492188,11.28333568573,11.2837762832642,11.2842111587524,11.2846508026123,11.2850875854492,11.253454208374,11.1703147888184,11.0883941650391,11.0076656341553,10.9281053543091,10.8496856689453,10.7723846435547,10.1454010009766,10.1367635726929,10.1281414031982,10.1195335388184,10.1109409332275,10.1023626327515,10.0937986373901,10.0852489471436,10.076714515686,10.0681934356689,10.0596876144409,10.0511960983276,10.0427179336548,10.034255027771,10.025806427002,10.0173721313477,10.0089511871338,10.0005445480347,9.99215316772461,9.98377418518066,9.97541046142578,9.96706008911133,9.95872402191162,9.95040225982666,9.94209384918213,9.93379974365234,9.92551898956299,9.91725158691406,9.90899848937988,9.90075969696045,9.89253425598145,9.88432216644287,9.87612342834473,9.86793899536133,9.85752582550049,9.84183025360107,9.82618427276611,9.81058883666992,9.79504203796387,9.77954483032227,9.7640962600708,9.74869632720947,9.73334503173828,9.71804237365723,9.70278739929199,9.68758010864258,9.6724214553833,9.65730857849121,9.64224433898926,9.62722587585449,9.61225414276123,9.59733009338379,9.58245086669922,9.56761932373047,9.55283260345459,9.53809070587158,9.52339553833008,9.50874519348145,9.49413967132568,9.47957897186279,9.46506309509277,9.45059204101562,9.43616390228271,9.42178058624268,9.40744113922119,9.39314556121826,9.37889289855957,9.36468315124512,9.3505163192749,9.33639240264893,9.32231140136719,9.30827331542969,9.29427719116211,9.28032207489014,9.2664098739624,9.25253868103027,9.23870944976807,9.22492122650146,9.21117401123047,9.19746780395508,9.18380260467529,9.1701774597168,9.15659332275391,9.14304828643799,9.12954425811768,9.11607933044434,9.10265445709229,9.08926963806152,9.07592296600342,9.0626163482666,9.04934787750244,9.03611946105957,9.02292919158936,9.00977611541748,8.99649333953857,8.98314762115479,8.96984100341797,8.95657444000244,8.94334602355957,8.93015766143799,8.91700744628906,8.90389633178711,8.89082431793213,8.87778949737549,8.86479377746582,8.85183525085449,8.83891487121582,8.8260326385498,8.81318759918213,8.80037975311279,8.7876091003418,8.77487564086914,8.76217842102051,8.74951839447021,8.73689460754395,8.7243070602417,8.71175575256348,8.69924163818359,8.6867618560791,8.67431926727295,8.66191101074219,8.64953899383545,8.63720226287842,8.62490081787109,8.61263370513916,8.60040187835693,8.5882043838501,8.57604122161865,8.56391334533691,8.55181884765625,8.54090404510498,8.53034400939941,8.51981067657471,8.50930309295654,8.49882125854492,8.48836517333984,8.47793483734131,8.46753025054932,8.45715045928955,8.44679641723633,8.43646812438965,8.42616558074951,8.41588687896729,8.4056339263916,8.39540576934814,8.38520240783691,8.37502384185791,8.36487007141113,8.35474109649658,8.34463596343994,8.33455562591553,8.32450008392334,8.31446838378906,8.3044605255127,8.29447746276855,8.28451728820801,8.27458190917969,8.26467037200928,8.25478172302246,8.24491786956787,8.23507690429688,8.22525882720947,8.21546459197998,8.2056941986084,8.19594669342041,8.18622207641602,8.17652034759521,8.16684246063232,8.15718650817871,8.14755344390869,8.13794326782227,8.12835597991943,8.1187915802002,8.10924911499023,8.09972953796387,8.09023189544678,8.08075618743896,8.07130241394043,8.06187152862549,8.04819011688232,8.03358745574951,8.01903820037842,8.00454139709473,7.99009704589844,7.97570419311523,7.96136379241943,7.94707441329956,7.93283605575562,7.91864919662476,7.90451288223267,7.89042663574219,7.87639093399048,7.86240434646606,7.84846782684326,7.83458089828491,7.8207426071167,7.80695295333862,7.79321193695068,7.77951955795288,7.76587533950806,7.75227832794189,7.73872947692871,7.72522735595703,7.71177244186401,7.6983642578125,7.68500280380249,7.67168760299683,7.65841865539551,7.64519500732422,7.63201665878296,7.61888456344604,7.605797290802,7.59275484085083,7.57975721359253,7.56680345535278,7.55389451980591,7.54102945327759,7.52820777893066,7.51542997360229,7.50269508361816,7.49000358581543,7.47735500335693,7.46474885940552,7.45218563079834,7.43966388702393,7.42627954483032,7.41198062896729,7.39773654937744,7.38354730606079,7.36941242218018,7.35533094406128,7.34130382537842,7.32733011245728,7.31340932846069,7.29954147338867,7.28572559356689,7.27196216583252,7.25825119018555,7.2445912361145,7.23098278045654,7.21742534637451,7.20391893386841,7.19046211242676,7.17705631256104,7.16370010375977,7.15039396286011,7.13713645935059,7.12392807006836,7.11076879501343,7.09765768051147,7.08459568023682,7.07158088684082,7.05861377716064,7.04569482803345,7.03282308578491,7.01999759674072,7.00721883773804,6.99448680877686,6.98180103302002,6.96916103363037,6.95656681060791,6.94401741027832,6.93151426315308,6.91905546188354,6.90664148330688,6.89427185058594,6.8819465637207,6.86966562271118,6.8574275970459,6.84523391723633,6.83308267593384,6.8209753036499,6.80891036987305,6.79688835144043,6.78490829467773,6.77297067642212,6.76107501983643,6.7492208480835,6.73740816116333,6.72563695907593,6.71390676498413,6.70221710205078,6.69056844711304,6.67895984649658,6.66739225387573,6.65586376190186,6.64437532424927,6.63292646408081,6.62151765823364,6.61014699935913,6.59881591796875,6.58752346038818,6.57627010345459,6.56607007980347,6.56020784378052,6.55435609817505,6.54851484298706,6.54268407821655,6.53686332702637,6.53105306625366,6.52525329589844,6.51946353912354,6.51368427276611,6.50791501998901,6.50215625762939,6.4964075088501,6.49066877365112,6.48494052886963,6.47922229766846,6.47351408004761
11.2088460922241,11.2092809677124,11.2097110748291,11.2101440429688,11.2105741500854,11.2110080718994,11.2114419937134,11.2118730545044,11.2123050689697,11.2127380371094,11.213171005249,11.2136030197144,11.2140350341797,11.2144651412964,11.2148990631104,11.21533203125,11.2157640457153,11.2161960601807,11.2166290283203,11.2170648574829,11.2174968719482,11.2179288864136,11.2183609008789,11.1935739517212,11.1113128662109,11.030252456665,10.9503650665283,10.8716278076172,10.1318035125732,10.1231899261475,10.1145906448364,10.1060056686401,10.0974359512329,10.0888805389404,10.0803394317627,10.0718126296997,10.0633010864258,10.0548028945923,10.0463190078735,10.0378503799438,10.0293951034546,10.0209541320801,10.0125284194946,10.0041160583496,9.99571704864502,9.98733329772949,9.97896289825439,9.97060775756836,9.96226501464844,9.95393753051758,9.94562244415283,9.93732261657715,9.92903614044189,9.92076301574707,9.91250419616699,9.90425968170166,9.89602756500244,9.88780975341797,9.87960624694824,9.87141513824463,9.86323833465576,9.85507488250732,9.84692478179932,9.83878898620605,9.83066558837891,9.82255554199219,9.81445980072021,9.80283641815186,9.78731441497803,9.77184200286865,9.7564172744751,9.741042137146,9.72571468353271,9.71043586730957,9.69520473480225,9.68002128601074,9.66488552093506,9.6497974395752,9.63475513458252,9.61976051330566,9.60481262207031,9.58991050720215,9.57505512237549,9.56024551391602,9.54548168182373,9.53076362609863,9.51609039306641,9.50146293640137,9.48687934875488,9.47234153747559,9.45784759521484,9.44339752197266,9.42899227142334,9.41463088989258,9.40031337738037,9.3860387802124,9.37180709838867,9.3576192855835,9.34347438812256,9.32937240600586,9.31531143188477,9.30129432678223,9.28731918334961,9.2733850479126,9.25949287414551,9.24564266204834,9.23183441162109,9.21806621551514,9.2043399810791,9.19065380096436,9.17700862884521,9.16340446472168,9.14983940124512,9.13631534576416,9.12283039093018,9.1093864440918,9.09598064422607,9.08261489868164,9.06928825378418,9.05600070953369,9.04275226593018,9.02954196929932,9.01637077331543,9.0032377243042,8.99014282226562,8.97700691223145,8.96371936798096,8.95046997070312,8.93726062774658,8.92409038543701,8.9109582901001,8.89786434173584,8.88480949401855,8.87179279327393,8.85881423950195,8.84587383270264,8.83297061920166,8.82010555267334,8.80727767944336,8.79448699951172,8.78173351287842,8.76901626586914,8.7563362121582,8.74369335174561,8.73108673095703,8.71851634979248,8.70598125457764,8.69348335266113,8.68102073669434,8.66859436035156,8.65620231628418,8.64384651184082,8.63152599334717,8.61923980712891,8.60698986053467,8.5947732925415,8.58259201049805,8.57044506072998,8.5583324432373,8.54625415802002,8.53470993041992,8.52416610717773,8.51364707946777,8.50315475463867,8.49268817901611,8.4822473526001,8.47183227539062,8.46144199371338,8.45107746124268,8.44073867797852,8.43042469024658,8.42013645172119,8.40987300872803,8.39963436126709,8.3894214630127,8.37923240661621,8.36906814575195,8.35892868041992,8.34881401062012,8.33872413635254,8.32865810394287,8.31861591339111,8.30859851837158,8.29860496520996,8.28863525390625,8.27869033813477,8.26876831054688,8.25887012481689,8.24899578094482,8.23914527893066,8.22931861877441,8.21951484680176,8.2097339630127,8.19997692108154,8.19024276733398,8.18053150177002,8.17084407806396,8.16117858886719,8.15153694152832,8.14191722869873,8.13232040405273,8.12274646759033,8.11319446563721,8.10366535186768,8.09415817260742,8.08467388153076,8.07521152496338,8.06577110290527,8.05635261535645,8.04695701599121,8.03758239746094,8.02685165405273,8.01232719421387,7.99785470962524,7.98343420028687,7.96906566619873,7.95474863052368,7.94048309326172,7.92626857757568,7.91210508346558,7.89799165725708,7.88392877578735,7.86991596221924,7.85595273971558,7.84203910827637,7.82817459106445,7.81435918807983,7.80059194564819,7.78687381744385,7.77320337295532,7.75958108901978,7.74600648880005,7.73247861862183,7.71899890899658,7.70556545257568,7.69217872619629,7.6788387298584,7.6655445098877,7.6522970199585,7.63909482955933,7.62593793869019,7.61282634735107,7.59975957870483,7.58673763275146,7.57376050949097,7.56082773208618,7.54793882369995,7.53509426116943,7.52229261398315,7.50953435897827,7.49681997299194,7.48414850234985,7.47151947021484,7.45893287658691,7.44638919830322,7.43388700485229,7.42142677307129,7.40809631347656,7.39386701583862,7.37969303131104,7.36557292938232,7.35150623321533,7.33749341964722,7.32353401184082,7.30962800979614,7.29577398300171,7.28197240829468,7.26822376251221,7.25452613830566,7.24088048934937,7.22728586196899,7.21374225616455,7.20024967193604,7.18680715560913,7.17341470718384,7.160071849823,7.14677858352661,7.13353490829468,7.12034034729004,7.10719394683838,7.09409618377686,7.08104705810547,7.06804513931274,7.05509090423584,7.04218530654907,7.02932596206665,7.01651287078857,7.00374746322632,6.99102783203125,6.97835493087769,6.96572685241699,6.95314502716064,6.94060850143433,6.92811727523804,6.91567087173462,6.90326881408691,6.89091110229492,6.87859773635864,6.86632871627808,6.85410261154175,6.84192085266113,6.82978200912476,6.81768560409546,6.80563259124756,6.79362154006958,6.78165292739868,6.76972770690918,6.75784301757812,6.74600028991699,6.73419857025146,6.72243881225586,6.7107195854187,6.69904136657715,6.68740320205688,6.67580652236938,6.66424894332886,6.65273141860962,6.64125394821167,6.62981653213501,6.61841726303101,6.60705804824829,6.59573698043823,6.5844554901123,6.57321214675903,6.56210041046143,6.55624532699585,6.55040073394775,6.54456615447998,6.53874254226685,6.53292894363403,6.52712535858154,6.52133274078369,6.51555013656616,6.50977754592896,6.50401544570923,6.49826335906982,6.4925217628479,6.48678970336914,6.48106813430786,6.4753565788269,6.46965551376343,6.46396398544312
11.1438703536987,11.1442975997925,11.1447238922119,11.1451539993286,11.145580291748,11.1460056304932,11.1464347839355,11.146861076355,11.147289276123,11.1477155685425,11.1481447219849,11.14857006073,11.1489973068237,11.1494255065918,11.1498527526855,11.1502799987793,11.1507091522217,11.1511344909668,11.1515636444092,11.1519918441772,11.1524181365967,11.1343259811401,11.0529308319092,10.9727163314819,10.8936586380005,10.1096525192261,10.1010761260986,10.0925149917603,10.0839672088623,10.0754346847534,10.0669164657593,10.0584125518799,10.0499229431152,10.0414476394653,10.0329866409302,10.0245399475098,10.0161075592041,10.0076894760132,9.9992847442627,9.99089431762695,9.98251914978027,9.97415637969971,9.9658088684082,9.95747470855713,9.9491548538208,9.9408483505249,9.93255615234375,9.92427730560303,9.91601276397705,9.9077615737915,9.8995246887207,9.89130115509033,9.88309097290039,9.87489414215088,9.86671161651611,9.85854244232178,9.85038661956787,9.84224510192871,9.83411598205566,9.82600021362305,9.81789875030518,9.80981063842773,9.80173492431641,9.79367256164551,9.78562450408936,9.77758884429932,9.76956653594971,9.76155757904053,9.74875068664551,9.73339939117432,9.71809577941895,9.70284080505371,9.6876335144043,9.6724739074707,9.65736198425293,9.64229679107666,9.62727832794189,9.61230754852295,9.59738254547119,9.58250331878662,9.56767082214355,9.55288410186768,9.53814315795898,9.52344703674316,9.50879669189453,9.49419116973877,9.47963047027588,9.46511459350586,9.45064258575439,9.4362154006958,9.42183113098145,9.40749168395996,9.39319515228271,9.37894248962402,9.36473274230957,9.35056686401367,9.3364429473877,9.32236099243164,9.30832290649414,9.29432582855225,9.28037166595459,9.26645851135254,9.25258731842041,9.2387580871582,9.2249698638916,9.21122264862061,9.1975154876709,9.18385028839111,9.17022514343262,9.15664100646973,9.14309597015381,9.1295919418335,9.11612701416016,9.10270214080811,9.08931636810303,9.07597064971924,9.06266307830811,9.04939460754395,9.03616523742676,9.02297496795654,9.00982284545898,8.99670886993408,8.98363304138184,8.97059535980225,8.957594871521,8.94437503814697,8.93118286132812,8.91803073883057,8.90491580963135,8.89184093475342,8.87880325317383,8.86580371856689,8.85284328460693,8.83992004394531,8.82703399658203,8.81418609619141,8.80137538909912,8.78860187530518,8.77586555480957,8.76316547393799,8.75050258636475,8.73787593841553,8.72528648376465,8.71273231506348,8.70021438598633,8.6877326965332,8.6752872467041,8.66287612915039,8.6505012512207,8.63816165924072,8.62585735321045,8.61358737945557,8.60135269165039,8.58915233612061,8.57698726654053,8.56485652923584,8.55276012420654,8.54069709777832,8.52866840362549,8.51799583435059,8.507493019104,8.49701595306396,8.48656368255615,8.4761381149292,8.46573829650879,8.45536327362061,8.44501399993896,8.43468952178955,8.42439079284668,8.41411685943604,8.40386772155762,8.39364433288574,8.38344478607178,8.37327098846436,8.36312103271484,8.35299587249756,8.3428955078125,8.33281993865967,8.32276821136475,8.31274032592773,8.30273723602295,8.29275798797607,8.28280258178711,8.27287101745605,8.26296329498291,8.25307846069336,8.24321842193604,8.2333812713623,8.22356796264648,8.21377754211426,8.20401096343994,8.19426727294922,8.18454742431641,8.17484951019287,8.16517448425293,8.1555233001709,8.14589405059814,8.1362886428833,8.12670516967773,8.11714363098145,8.10760498046875,8.09808921813965,8.08859539031982,8.07912349700928,8.06967449188232,8.06024742126465,8.05084228515625,8.04145812988281,8.03209686279297,8.0227575302124,8.0134391784668,8.00414276123047,7.99117851257324,7.97678232192993,7.96243762969971,7.94814443588257,7.93390274047852,7.91971158981323,7.90557146072388,7.89148187637329,7.87744140625,7.86345195770264,7.84951162338257,7.83562088012695,7.82177877426147,7.80798578262329,7.79424142837524,7.78054523468018,7.76689720153809,7.75329685211182,7.73974418640137,7.72623825073242,7.7127799987793,7.69936847686768,7.6860032081604,7.67268466949463,7.65941190719604,7.64618492126465,7.6330041885376,7.61986827850342,7.60677719116211,7.59373188018799,7.58073043823242,7.56777381896973,7.55486154556274,7.54199266433716,7.52916765213013,7.51638698577881,7.50364875793457,7.49095439910889,7.47830247879028,7.46569299697876,7.45312643051147,7.44060182571411,7.42811918258667,7.41567850112915,7.40327930450439,7.39000225067139,7.37584257125854,7.36173677444458,7.34768533706665,7.33368682861328,7.31974220275879,7.3058500289917,7.29201078414917,7.27822351455688,7.264488697052,7.25080537796021,7.23717403411865,7.22359275817871,7.21006298065186,7.19658422470093,7.18315505981445,7.16977596282959,7.1564474105835,7.14316749572754,7.12993717193604,7.11675548553467,7.10362243652344,7.0905385017395,7.07750177383423,7.06451320648193,7.05157232284546,7.03867864608765,7.0258321762085,7.01303243637085,7.00027894973755,6.98757219314575,6.9749116897583,6.96229648590088,6.94972705841064,6.93720245361328,6.92472362518311,6.91228914260864,6.89989900588989,6.88755369186401,6.87525272369385,6.86299514770508,6.85078144073486,6.83861064910889,6.82648372650146,6.81439924240112,6.80235767364502,6.790358543396,6.77840185165405,6.76648664474487,6.75461339950562,6.74278211593628,6.73099279403687,6.71924352645874,6.70753526687622,6.69586849212646,6.68424129486084,6.67265558242798,6.66110897064209,6.64960241317749,6.63813543319702,6.62670850753784,6.61532068252563,6.60397148132324,6.59266138076782,6.58139038085938,6.57015705108643,6.55896282196045,6.55228757858276,6.54644966125488,6.54062271118164,6.53480577468872,6.52899885177612,6.52320289611816,6.51741695404053,6.51164102554321,6.50587558746338,6.50012016296387,6.49437522888184,6.48864030838013,6.48291540145874,6.47720050811768,6.47149610519409,6.46580123901367,6.46011686325073,6.45444202423096
11.0796413421631,11.0800628662109,11.0804843902588,11.0809097290039,11.0813331604004,11.0817527770996,11.0821762084961,11.0825986862183,11.0830221176147,11.0834407806396,11.0838670730591,11.0842866897583,11.0847110748291,11.085132598877,11.0855560302734,11.0859785079956,11.0864009857178,11.0868234634399,11.0872468948364,11.0757036209106,10.9951591491699,10.0961513519287,10.0875978469849,10.0790586471558,10.0705347061157,10.0620250701904,10.0535287857056,10.0450477600098,10.0365800857544,10.0281276702881,10.0196895599365,10.0112648010254,10.002854347229,9.99445819854736,9.98607635498047,9.97770881652832,9.9693546295166,9.96101474761963,9.95268821716309,9.94437694549561,9.93607807159424,9.92779350280762,9.91952323913574,9.9112663269043,9.9030237197876,9.89479351043701,9.88657855987549,9.87837600708008,9.87018775939941,9.86201286315918,9.85385131835938,9.845703125,9.83756923675537,9.82944774627686,9.82134056091309,9.81324577331543,9.80516529083252,9.79709720611572,9.78904342651367,9.78100204467773,9.77297401428223,9.76495933532715,9.7569580078125,9.74896907806396,9.74099349975586,9.73303127288818,9.72508144378662,9.71714496612549,9.70922183990479,9.69525814056396,9.68007469177246,9.66493892669678,9.6498498916626,9.63480854034424,9.61981391906738,9.60486507415771,9.58996391296387,9.57510757446289,9.56029796600342,9.54553413391113,9.53081512451172,9.51614189147949,9.50151443481445,9.48693084716797,9.47239208221436,9.45789813995361,9.44344902038574,9.42904281616211,9.41468143463135,9.40036296844482,9.38608837127686,9.37185764312744,9.35766887664795,9.34352397918701,9.329421043396,9.31536102294922,9.30134391784668,9.28736782073975,9.27343463897705,9.25954246520996,9.24569225311279,9.23188304901123,9.21811485290527,9.20438766479492,9.19070243835449,9.17705726623535,9.1634521484375,9.14988708496094,9.13636207580566,9.122878074646,9.1094331741333,9.09602832794189,9.08266162872314,9.06933498382568,9.0560474395752,9.04279899597168,9.02958869934082,9.01641750335693,9.0032844543457,8.99018955230713,8.97713184356689,8.96411323547363,8.95113182067871,8.93818855285645,8.92511463165283,8.91197872161865,8.89888286590576,8.88582515716553,8.87280464172363,8.85982322692871,8.84687995910645,8.83397388458252,8.82110595703125,8.80827522277832,8.79548168182373,8.78272438049316,8.77000522613525,8.75732231140137,8.74467658996582,8.7320671081543,8.7194938659668,8.706955909729,8.69445514678955,8.6819896697998,8.66956043243408,8.65716648101807,8.64480686187744,8.63248348236084,8.62019538879395,8.60794162750244,8.59572315216064,8.58353900909424,8.57139015197754,8.55927467346191,8.54719352722168,8.53514671325684,8.52313327789307,8.51183605194092,8.50134754180908,8.49088573455811,8.48044872283936,8.47003746032715,8.4596529006958,8.44929218292236,8.43895816802979,8.42864894866943,8.41836452484131,8.40810585021973,8.39787101745605,8.38766193389893,8.37747764587402,8.36731815338135,8.35718250274658,8.34707164764404,8.33698558807373,8.32692432403564,8.31688594818115,8.3068733215332,8.29688358306885,8.28691864013672,8.27697658538818,8.26705932617188,8.25716590881348,8.24729537963867,8.23744869232178,8.22762584686279,8.2178258895874,8.20804882049561,8.19829559326172,8.18856620788574,8.17885875701904,8.16917514801025,8.15951442718506,8.14987564086914,8.14025974273682,8.1306676864624,8.12109661102295,8.11154937744141,8.10202407836914,8.09252071380615,8.08304023742676,8.07358169555664,8.0641450881958,8.05473041534424,8.04533863067627,8.03596782684326,8.02661895751953,8.01729202270508,8.00798606872559,7.99870300292969,7.98944044113159,7.98019933700562,7.97014141082764,7.95582103729248,7.94155168533325,7.92733287811279,7.91316556930542,7.89904880523682,7.88498210906982,7.87096548080444,7.85699844360352,7.84308099746704,7.82921266555786,7.81539344787598,7.80162334442139,7.78790092468262,7.77422714233398,7.76060104370117,7.74702262878418,7.73349189758301,7.7200083732605,7.70657157897949,7.69318103790283,7.67983818054199,7.66654014587402,7.65328931808472,7.64008331298828,7.62692308425903,7.61380815505981,7.60073852539062,7.58771276473999,7.57473278045654,7.56179618835449,7.54890394210815,7.53605604171753,7.5232515335083,7.51049041748047,7.49777221679688,7.48509740829468,7.47246551513672,7.45987558364868,7.44732856750488,7.43482351303101,7.42236042022705,7.40993881225586,7.39755916595459,7.38522005081177,7.37199592590332,7.35790538787842,7.34386825561523,7.32988452911377,7.31595420837402,7.30207633972168,7.2882513999939,7.27447843551636,7.26075744628906,7.24708843231201,7.23347043991089,7.21990346908569,7.20638799667358,7.19292259216309,7.17950677871704,7.16614198684692,7.1528263092041,7.13956022262573,7.1263427734375,7.11317443847656,7.10005521774292,7.0869836807251,7.07396030426025,7.06098508834839,7.04805660247803,7.03517580032349,7.02234220504761,7.00955486297607,6.99681425094604,6.98412036895752,6.97147178649902,6.95886945724487,6.94631195068359,6.9338002204895,6.92133331298828,6.90891122817993,6.89653301239014,6.88420009613037,6.87191104888916,6.85966539382935,6.84746313095093,6.83530426025391,6.82318878173828,6.81111621856689,6.79908609390259,6.7870979309082,6.77515316009521,6.76324987411499,6.75138807296753,6.73956775665283,6.7277889251709,6.71605157852173,6.70435428619385,6.69269800186157,6.6810827255249,6.66950702667236,6.65797138214111,6.64647579193115,6.63501977920532,6.62360382080078,6.6122260093689,6.60088777542114,6.5895881652832,6.57832765579224,6.56710529327393,6.55592060089111,6.5483341217041,6.54250383377075,6.53668355941772,6.53087377548218,6.52507400512695,6.51928472518921,6.51350593566895,6.50773668289185,6.50197839736938,6.49623012542725,6.49049186706543,6.48476362228394,6.47904539108276,6.47333765029907,6.4676399230957,6.4619517326355,6.45627403259277,6.45060634613037,6.44494819641113
11.016149520874,11.0165672302246,11.0169849395752,11.0174026489258,11.0178203582764,11.0182390213013,11.0186567306519,11.0190725326538,11.0194911956787,11.019907951355,11.0203256607056,11.0207414627075,11.0211610794067,11.021577835083,11.0219974517822,11.0224123001099,11.0228328704834,11.0176944732666,10.0741558074951,10.0656394958496,10.0571374893188,10.0486497879028,10.0401773452759,10.0317182540894,10.0232734680176,10.0148429870605,10.0064268112183,9.99802494049072,9.98963737487793,9.98126316070557,9.97290325164795,9.96455764770508,9.95622539520264,9.94790744781494,9.93960285186768,9.93131256103516,9.92303657531738,9.91477394104004,9.90652465820312,9.89828968048096,9.89006805419922,9.88185977935791,9.87366580963135,9.86548519134521,9.85731792449951,9.84916400909424,9.84102439880371,9.8328971862793,9.82478427886963,9.81668376922607,9.80859756469727,9.80052471160889,9.79246425628662,9.78441715240479,9.7763843536377,9.76836395263672,9.76035690307617,9.75236225128174,9.74438095092773,9.73641300201416,9.72845840454102,9.72051620483398,9.71258735656738,9.70467185974121,9.69676876068115,9.68887805938721,9.68100070953369,9.67313575744629,9.66528415679932,9.65741539001465,9.64235019683838,9.62733173370361,9.61236000061035,9.59743499755859,9.58255577087402,9.56772327423096,9.55293655395508,9.53819465637207,9.52349853515625,9.50884819030762,9.49424266815186,9.47968196868896,9.46516513824463,9.45069313049316,9.43626594543457,9.42188167572021,9.40754222869873,9.39324569702148,9.37899303436279,9.36478328704834,9.35061645507812,9.33649253845215,9.32241058349609,9.30837154388428,9.2943754196167,9.28042030334473,9.26650714874268,9.25263595581055,9.23880672454834,9.22501754760742,9.21127033233643,9.19756412506104,9.18389797210693,9.17027282714844,9.15668869018555,9.14314365386963,9.129638671875,9.11617469787598,9.10274887084961,9.08936309814453,9.07601737976074,9.06270980834961,9.04944133758545,9.03621196746826,9.02302169799805,9.00986862182617,8.99675464630127,8.98367881774902,8.97064113616943,8.95764064788818,8.94467830657959,8.93175315856934,8.91886520385742,8.9059362411499,8.89285755157471,8.87981700897217,8.86681461334229,8.85385131835938,8.8409252166748,8.82803630828857,8.81518459320068,8.80237197875977,8.78959465026855,8.77685546875,8.76415252685547,8.75148773193359,8.73885822296143,8.72626495361328,8.71370887756348,8.70118808746338,8.6887035369873,8.67625427246094,8.66384124755859,8.65146350860596,8.63912105560303,8.6268138885498,8.61454105377197,8.60230445861816,8.59010124206543,8.5779333114624,8.56579971313477,8.55370044708252,8.54163455963135,8.52960395812988,8.51760578155518,8.50568389892578,8.49521064758301,8.48476409912109,8.47434234619141,8.46394634246826,8.45357608795166,8.44323062896729,8.43291091918945,8.42261695861816,8.41234683990479,8.40210247039795,8.39188289642334,8.38168811798096,8.3715181350708,8.36137294769287,8.35125255584717,8.34115600585938,8.33108425140381,8.32103633880615,8.31101322174072,8.3010139465332,8.29103851318359,8.28108787536621,8.27116012573242,8.26125621795654,8.25137615203857,8.24151992797852,8.23168659210205,8.22187805175781,8.21209144592285,8.2023286819458,8.19258880615234,8.1828727722168,8.17317867279053,8.16350841522217,8.1538610458374,8.14423561096191,8.13463401794434,8.12505435943604,8.11549663543701,8.1059627532959,8.09644985198975,8.08695983886719,8.07749271392822,8.06804656982422,8.05862331390381,8.04922199249268,8.0398416519165,8.03048419952393,8.02114868164062,8.01183414459229,8.00254154205322,7.99326992034912,7.9840202331543,7.97479200363159,7.96558475494385,7.95639896392822,7.94723463058472,7.93496942520142,7.92077445983887,7.90663003921509,7.89253664016724,7.878493309021,7.86449956893921,7.85055589675903,7.83666086196899,7.82281541824341,7.80901861190796,7.79527044296265,7.78157091140747,7.76791906356812,7.75431537628174,7.74075889587402,7.72725009918213,7.71378803253174,7.70037317276001,7.68700408935547,7.67368221282959,7.6604061126709,7.64717578887939,7.63399124145508,7.62085199356079,7.60775756835938,7.59470891952515,7.58170413970947,7.56874418258667,7.55582857131958,7.54295635223389,7.53012847900391,7.51734399795532,7.50460290908813,7.49190473556519,7.47924995422363,7.466637134552,7.45406770706177,7.4415397644043,7.42905378341675,7.41661024093628,7.40420818328857,7.39184761047363,7.37952756881714,7.36724901199341,7.35407733917236,7.34005498886108,7.32608652114868,7.31217002868652,7.29830646514893,7.28449583053589,7.2707371711731,7.25703048706055,7.24337530136108,7.22977113723755,7.21621799468994,7.20271635055542,7.18926429748535,7.17586278915405,7.16251087188721,7.14920902252197,7.13595628738403,7.12275218963623,7.10959720611572,7.09649133682251,7.08343267440796,7.07042264938354,7.05745935440063,7.04454469680786,7.03167676925659,7.01885604858398,7.00608110427856,6.99335336685181,6.98067188262939,6.96803569793701,6.95544528961182,6.94290018081665,6.93040084838867,6.91794633865356,6.90553617477417,6.89317035675049,6.88084936141968,6.86857175827026,6.85633850097656,6.84414768218994,6.83200120925903,6.81989717483521,6.80783605575562,6.79581737518311,6.78384160995483,6.77190780639648,6.7600154876709,6.74816513061523,6.73635625839233,6.7245888710022,6.71286249160767,6.70117616653442,6.68953132629395,6.67792654037476,6.66636180877686,6.6548376083374,6.64335250854492,6.63190746307373,6.62050199508667,6.60913467407227,6.59780693054199,6.58651828765869,6.57526779174805,6.56405591964722,6.55288171768188,6.54438591003418,6.53856229782104,6.53274917602539,6.52694606781006,6.52115345001221,6.51537132263184,6.50959920883179,6.50383758544922,6.49808597564697,6.49234437942505,6.48661279678345,6.48089170455933,6.47518014907837,6.46947908401489,6.46378803253174,6.45810699462891,6.4524359703064,6.44677495956421,6.44112348556519,6.43548202514648
10.9533824920654,10.9537963867188,10.9542074203491,10.9546203613281,10.9550333023071,10.9554452896118,10.9558601379395,10.9562711715698,10.9566850662231,10.9570970535278,10.9575109481812,10.9579229354858,10.9583368301392,10.9587469100952,10.0607490539551,10.0522556304932,10.043776512146,10.0353116989136,10.0268602371216,10.0184240341187,10.0100021362305,10.0015935897827,9.99320030212402,9.98482036590576,9.97645378112793,9.96810245513916,9.95976448059082,9.95144081115723,9.94313049316406,9.93483448028564,9.92655181884766,9.91828346252441,9.9100284576416,9.90178775787354,9.8935604095459,9.88534641265869,9.87714672088623,9.8689603805542,9.8607873916626,9.85262775421143,9.84448146820068,9.83634948730469,9.82823085784912,9.82012462615967,9.81203269958496,9.80395412445068,9.79588794708252,9.7878360748291,9.7797966003418,9.77177047729492,9.76375770568848,9.75575828552246,9.74777126312256,9.73979759216309,9.73183727264404,9.72389030456543,9.71595573425293,9.70803356170654,9.7001256942749,9.69222927093506,9.68434715270996,9.67647647857666,9.66861915588379,9.66077423095703,9.6529426574707,9.64512348175049,9.63731670379639,9.62952327728271,9.62174224853516,9.61397266387939,9.60491752624512,9.59001541137695,9.57516002655029,9.56035041809082,9.54558563232422,9.5308666229248,9.51619338989258,9.50156497955322,9.48698234558105,9.47244358062744,9.4579496383667,9.44349956512451,9.42909336090088,9.41473197937012,9.40041351318359,9.38613891601562,9.37190723419189,9.35771942138672,9.34357357025146,9.32947063446045,9.31541061401367,9.30139255523682,9.2874174118042,9.27348327636719,9.2595911026001,9.24574089050293,9.23193168640137,9.21816349029541,9.20443630218506,9.19075012207031,9.17710494995117,9.16349983215332,9.14993476867676,9.1364107131958,9.12292575836182,9.10948085784912,9.0960750579834,9.08270931243896,9.06938171386719,9.0560941696167,9.04284572601318,9.02963542938232,9.01646423339844,9.00333023071289,8.99023532867432,8.9771785736084,8.96415901184082,8.9511775970459,8.93823337554932,8.92532730102539,8.91245746612549,8.89962577819824,8.88683032989502,8.87381744384766,8.86083316802979,8.84788608551025,8.8349781036377,8.82210636138916,8.80927276611328,8.79647636413574,8.78371715545654,8.77099418640137,8.75830936431885,8.74565982818604,8.73304748535156,8.72047138214111,8.70793151855469,8.69542694091797,8.68295955657959,8.6705265045166,8.65812969207764,8.64576816558838,8.63344287872314,8.62115097045898,8.60889530181885,8.5966739654541,8.58448696136475,8.57233428955078,8.56021690368652,8.54813289642334,8.53608322143555,8.52406787872314,8.51208591461182,8.50013828277588,8.4890832901001,8.47865104675293,8.4682445526123,8.45786380767822,8.44750785827637,8.43717765808105,8.42687320709229,8.41659355163574,8.40633869171143,8.39610862731934,8.38590335845947,8.37572288513184,8.36556816101074,8.35543727874756,8.34533023834229,8.33524894714355,8.32519054412842,8.31515789031982,8.30514812469482,8.29516315460205,8.28520202636719,8.27526473999023,8.26535129547119,8.25546169281006,8.24559497833252,8.23575305938721,8.22593307495117,8.21613788604736,8.20636558532715,8.19661617279053,8.1868896484375,8.17718696594238,8.16750717163086,8.15785026550293,8.14821529388428,8.13860416412354,8.12901496887207,8.1194486618042,8.10990428924561,8.10038280487061,8.0908842086792,8.08140659332275,8.0719518661499,8.06252002716064,8.05310916900635,8.04372024536133,8.03435325622559,8.02500820159912,8.01568508148193,8.00638389587402,7.99710369110107,7.98784494400024,7.97860765457153,7.96939182281494,7.96019744873047,7.95102405548096,7.94187164306641,7.93274021148682,7.92362976074219,7.91422653198242,7.90010595321655,7.88603544235229,7.87201499938965,7.85804462432861,7.84412336349487,7.83025169372559,7.81642818450928,7.80265426635742,7.78892850875854,7.77525091171265,7.76162147521973,7.74803972244263,7.73450517654419,7.72101831436157,7.7075777053833,7.69418430328369,7.68083715438843,7.66753625869751,7.65428161621094,7.64107227325439,7.62790870666504,7.61479043960571,7.60171699523926,7.58868885040283,7.57570457458496,7.56276512145996,7.54987001419067,7.53701829910278,7.52421045303345,7.51144599914551,7.49872493743896,7.48604679107666,7.47341156005859,7.46081829071045,7.4482684135437,7.43576002120972,7.42329359054565,7.41086912155151,7.39848613739014,7.38614463806152,7.37384366989136,7.36158418655396,7.34936475753784,7.33624601364136,7.3222918510437,7.30838966369629,7.29454040527344,7.28074407577515,7.2669997215271,7.25330686569214,7.23966550827026,7.22607564926147,7.21253681182861,7.19904804229736,7.18561029434204,7.17222213745117,7.15888404846191,7.14559555053711,7.1323561668396,7.11916542053223,7.10602378845215,7.09293031692505,7.07988500595093,7.06688785552979,7.05393838882446,7.0410361289978,7.0281810760498,7.01537275314331,7.00261068344116,6.98989582061768,6.97722625732422,6.96460294723511,6.95202493667603,6.93949222564697,6.92700529098511,6.91456270217896,6.90216445922852,6.88981103897095,6.87750196456909,6.86523628234863,6.85301446914673,6.84083604812622,6.82870101928711,6.81660890579224,6.80455923080444,6.79255247116089,6.78058767318726,6.7686653137207,6.75678443908691,6.74494552612305,6.73314809799194,6.72139167785645,6.70967578887939,6.69800138473511,6.68636751174927,6.67477321624756,6.66321992874146,6.65170621871948,6.64023160934448,6.62879800796509,6.61740255355835,6.60604619979858,6.59472942352295,6.58345127105713,6.57221126556396,6.56100940704346,6.54984569549561,6.54044246673584,6.53462600708008,6.52881956100464,6.52302360534668,6.5172381401062,6.51146268844604,6.50569772720337,6.49994230270386,6.49419784545898,6.48846292495728,6.48273849487305,6.47702407836914,6.47131967544556,6.46562528610229,6.45994091033936,6.45426654815674,6.44860219955444,6.44294786453247,6.43730354309082,6.43166875839233,6.42604398727417
10.8913240432739,10.89173412323,10.8921422958374,10.8925485610962,10.8929586410522,10.8933658599854,10.8937759399414,10.8941812515259,10.8945903778076,10.8949966430664,10.8954048156738,10.0389070510864,10.0304498672485,10.0220079421997,10.0135793685913,10.0051651000977,9.99676513671875,9.98837947845459,9.98000812530518,9.97165012359619,9.96330642700195,9.95497608184814,9.94666004180908,9.93835830688477,9.93006992340088,9.92179584503174,9.91353511810303,9.90528869628906,9.89705467224121,9.88883590698242,9.88062953948975,9.87243747711182,9.86425876617432,9.85609340667725,9.84794235229492,9.83980369567871,9.83167934417725,9.82356834411621,9.81546974182129,9.80738544464111,9.79931449890137,9.79125595092773,9.78321170806885,9.77517986297607,9.76716136932373,9.75915622711182,9.75116443634033,9.74318504333496,9.73521900177002,9.72726631164551,9.71932601928711,9.71139907836914,9.70348453521729,9.69558334350586,9.68769550323486,9.67981910705566,9.67195701599121,9.66410732269287,9.65627002716064,9.64844512939453,9.64063358306885,9.63283348083496,9.6250467300415,9.61727333068848,9.60951137542725,9.60176277160645,9.59402561187744,9.58630180358887,9.57859039306641,9.57089138031006,9.56320381164551,9.55298805236816,9.53824710845947,9.52355098724365,9.5088996887207,9.49429416656494,9.47973251342773,9.46521663665771,9.45074462890625,9.43631649017334,9.42193222045898,9.4075927734375,9.39329624176025,9.37904262542725,9.36483287811279,9.35066604614258,9.3365421295166,9.32246017456055,9.30842113494873,9.29442405700684,9.28046989440918,9.26655673980713,9.252685546875,9.23885536193848,9.22506618499756,9.21131896972656,9.19761276245117,9.18394660949707,9.17032146453857,9.15673637390137,9.14319133758545,9.12968635559082,9.11622142791748,9.10279655456543,9.08941078186035,9.07606410980225,9.06275653839111,9.04948806762695,9.03625869750977,9.02306747436523,9.00991535186768,8.99680137634277,8.98372459411621,8.97068691253662,8.95768642425537,8.94472408294678,8.93179893493652,8.91891002655029,8.90605926513672,8.89324569702148,8.88046836853027,8.8677282333374,8.85485935211182,8.8419303894043,8.82903861999512,8.81618404388428,8.80336761474609,8.79058837890625,8.77784633636475,8.76514053344727,8.75247192382812,8.73984050750732,8.72724437713623,8.71468544006348,8.70216178894043,8.68967437744141,8.67722225189209,8.6648063659668,8.65242576599121,8.64008140563965,8.62777042388916,8.6154956817627,8.60325622558594,8.59105014801025,8.57887935638428,8.56674289703369,8.55464172363281,8.54257392883301,8.53053951263428,8.51853942871094,8.50657272338867,8.4946403503418,8.48296451568604,8.47254753112793,8.46215629577637,8.45178985595703,8.44144916534424,8.43113327026367,8.42084312438965,8.41057872772217,8.4003381729126,8.39012336730957,8.37993240356445,8.36976718902588,8.35962581634521,8.34950923919678,8.33941745758057,8.32934951782227,8.31930637359619,8.30928707122803,8.29929161071777,8.28932094573975,8.27937316894531,8.26945018768311,8.25955009460449,8.24967479705811,8.23982238769531,8.22999382019043,8.22018814086914,8.21040630340576,8.20064735412598,8.19091129302979,8.1811990737915,8.17150974273682,8.16184234619141,8.15219879150391,8.142578125,8.13297939300537,8.12340354919434,8.11385059356689,8.10432052612305,8.09481143951416,8.08532524108887,8.07586193084717,8.06641960144043,8.05700016021729,8.04760265350342,8.03822612762451,8.0288724899292,8.01953983306885,8.01022911071777,8.00094032287598,7.9916729927063,7.98242712020874,7.97320222854614,7.96399879455566,7.9548168182373,7.94565582275391,7.93651580810547,7.92739677429199,7.91829872131348,7.90922164916992,7.90016555786133,7.89112997055054,7.87954473495483,7.86554765701294,7.8516001701355,7.83770179748535,7.8238525390625,7.81005191802979,7.79629993438721,7.78259706497192,7.7689414024353,7.75533390045166,7.74177408218384,7.72826147079468,7.71479654312134,7.70137786865234,7.6880054473877,7.67467975616455,7.66140031814575,7.64816665649414,7.63497829437256,7.62183570861816,7.6087384223938,7.5956859588623,7.58267831802368,7.56971454620361,7.55679559707642,7.54392051696777,7.53108930587769,7.51830148696899,7.5055570602417,7.4928560256958,7.48019742965698,7.4675817489624,7.45500898361206,7.44247817993164,7.42998933792114,7.41754198074341,7.4051365852356,7.39277315139771,7.38045024871826,7.36816835403442,7.35592794418335,7.34372758865356,7.33156776428223,7.31850051879883,7.30461359024048,7.29077863693237,7.27699613571167,7.26326608657837,7.249587059021,7.23596000671387,7.22238397598267,7.20885896682739,7.19538402557373,7.18195962905884,7.16858530044556,7.15526103973389,7.14198541641235,7.12875938415527,7.11558198928833,7.10245370864868,7.08937358856201,7.07634115219116,7.06335687637329,7.05042028427124,7.03753089904785,7.02468872070312,7.0118932723999,6.99914360046387,6.98644113540649,6.97378444671631,6.96117305755615,6.94860744476318,6.93608808517456,6.92361259460449,6.91118192672729,6.89879655838013,6.88645505905151,6.87415742874146,6.86190414428711,6.849693775177,6.83752775192261,6.82540416717529,6.81332349777222,6.80128574371338,6.78928995132446,6.77733707427979,6.76542615890503,6.75355672836304,6.74172878265381,6.7299427986145,6.71819686889648,6.70649290084839,6.69482946395874,6.68320655822754,6.67162370681763,6.660080909729,6.64857769012451,6.63711452484131,6.62569141387939,6.61430644989014,6.60296058654785,6.59165382385254,6.5803861618042,6.56915712356567,6.55796575546265,6.54681253433228,6.53650379180908,6.53069400787354,6.52489471435547,6.51910591125488,6.51332712173462,6.50755882263184,6.50180053710938,6.49605226516724,6.49031448364258,6.48458671569824,6.47886896133423,6.47316122055054,6.46746349334717,6.46177625656128,6.45609855651855,6.45043087005615,6.44477319717407,6.43912553787231,6.43348789215088,6.42785978317261,6.42224168777466,6.41663312911987
10.8299674987793,10.8303718566895,10.830774307251,10.8311777114868,10.8315801620483,10.8319845199585,10.83238697052,10.0255937576294,10.0171594619751,10.0087394714355,10.0003337860107,9.99194145202637,9.98356342315674,9.97519969940186,9.96685028076172,9.95851421356201,9.95019245147705,9.94188499450684,9.93359088897705,9.9253101348877,9.91704368591309,9.90879154205322,9.90055274963379,9.89232730865479,9.88411521911621,9.87591743469238,9.86773300170898,9.85956192016602,9.85140514373779,9.84326076507568,9.83513069152832,9.82701301574707,9.81890964508057,9.81081962585449,9.80274295806885,9.79467868804932,9.78662872314453,9.77859115600586,9.77056694030762,9.76255702972412,9.75455856323242,9.74657440185547,9.73860263824463,9.73064422607422,9.72269916534424,9.71476650238037,9.70684623718262,9.69894027709961,9.6910457611084,9.68316459655762,9.67529678344727,9.66744136810303,9.6595983505249,9.65176868438721,9.64395141601562,9.63614654541016,9.62835502624512,9.62057495117188,9.61280822753906,9.60505390167236,9.59731197357178,9.58958339691162,9.58186626434326,9.57416152954102,9.56646919250488,9.55878925323486,9.55112266540527,9.54346656799316,9.53582382202148,9.52819347381592,9.52057456970215,9.51296901702881,9.50161647796631,9.48703384399414,9.47249412536621,9.45800018310547,9.44355010986328,9.42914485931396,9.41478252410889,9.40046405792236,9.38618946075439,9.37195777893066,9.35776901245117,9.34362316131592,9.3295202255249,9.31546020507812,9.30144214630127,9.28746604919434,9.27353191375732,9.25963973999023,9.24578952789307,9.2319803237915,9.21821212768555,9.2044849395752,9.19079875946045,9.17715263366699,9.16354751586914,9.14998245239258,9.1364574432373,9.12297248840332,9.10952758789062,9.0961217880249,9.08275604248047,9.06942844390869,9.0561408996582,9.04289150238037,9.02968215942383,9.01651000976562,9.00337600708008,8.9902811050415,8.97722434997559,8.96420478820801,8.95122337341309,8.9382791519165,8.92537212371826,8.91250324249268,8.89967060089111,8.88687515258789,8.87411689758301,8.86139392852783,8.848708152771,8.83598136901855,8.82310676574707,8.81027030944824,8.79747104644775,8.78470897674561,8.7719841003418,8.75929546356201,8.74664306640625,8.73402786254883,8.72144889831543,8.70890617370605,8.6963996887207,8.68392848968506,8.67149353027344,8.65909385681152,8.64672946929932,8.63440036773682,8.62210655212402,8.60984802246094,8.59762382507324,8.58543491363525,8.57327938079834,8.56115913391113,8.54907321929932,8.53702068328857,8.52500247955322,8.51301765441895,8.50106716156006,8.48915004730225,8.47726631164551,8.46645259857178,8.45607566833496,8.44572448730469,8.43539905548096,8.42509841918945,8.41482257843018,8.40457248687744,8.39434623718262,8.38414573669434,8.37397003173828,8.36381912231445,8.35369205474854,8.34358978271484,8.33351230621338,8.32345867156982,8.31342887878418,8.30342388153076,8.29344367980957,8.28348636627197,8.27355289459229,8.26364326477051,8.25375747680664,8.24389553070068,8.23405742645264,8.22424221038818,8.21445083618164,8.20468235015869,8.19493675231934,8.18521499633789,8.17551612854004,8.16583919525146,8.1561861038208,8.14655590057373,8.13694858551025,8.12736320495605,8.11780071258545,8.10826110839844,8.0987434387207,8.08924770355225,8.07977485656738,8.0703239440918,8.06089496612549,8.05148792266846,8.0421028137207,8.03273963928223,8.02339935302734,8.01407909393311,8.00478172302246,7.99550485610962,7.98624992370605,7.97701644897461,7.96780443191528,7.95861339569092,7.94944381713867,7.94029474258423,7.93116760253906,7.92206048965454,7.91297483444214,7.9039101600647,7.89486598968506,7.88584232330322,7.87683916091919,7.86785697937012,7.85889482498169,7.84516572952271,7.83129024505615,7.81746339797974,7.80368614196777,7.78995656967163,7.77627563476562,7.76264238357544,7.74905681610107,7.73551893234253,7.72202825546265,7.70858430862427,7.69518756866455,7.68183660507202,7.668532371521,7.65527391433716,7.64206123352051,7.62889432907104,7.61577272415161,7.60269594192505,7.58966445922852,7.57667684555054,7.56373405456543,7.55083560943604,7.5379810333252,7.52516984939575,7.51240205764771,7.49967765808105,7.48699617385864,7.47435760498047,7.46176147460938,7.44920825958252,7.43669700622559,7.42422723770142,7.41179990768433,7.39941358566284,7.38706874847412,7.37476491928101,7.3625020980835,7.35027980804443,7.33809852600098,7.32595729827881,7.31385660171509,7.30084085464478,7.28702068328857,7.27325248718262,7.2595362663269,7.24587154388428,7.23225831985474,7.21869611740112,7.20518445968628,7.19172334671021,7.1783127784729,7.16495180130005,7.15164089202881,7.13837909698486,7.12516641616821,7.11200189590454,7.09888696670532,7.08582019805908,7.07280111312866,7.0598292350769,7.04690599441528,7.03402900695801,7.02119970321655,7.00841665267944,6.99568033218384,6.98299026489258,6.97034597396851,6.95774698257446,6.94519424438477,6.93268632888794,6.92022323608398,6.9078049659729,6.89543104171753,6.88310194015503,6.87081670761108,6.85857486724854,6.84637641906738,6.83422231674194,6.82211017608643,6.8100414276123,6.79801511764526,6.7860312461853,6.77408981323242,6.7621898651123,6.75033140182495,6.73851585388184,6.72674036026001,6.71500635147095,6.70331287384033,6.69165992736816,6.68004846572876,6.66847658157349,6.6569447517395,6.64545249938965,6.63400030136108,6.62258720397949,6.61121320724487,6.59987831115723,6.58858251571655,6.57732486724854,6.56610584259033,6.55492496490479,6.54378223419189,6.53267765045166,6.52676677703857,6.52097463607788,6.51519250869751,6.50942087173462,6.50365924835205,6.49790811538696,6.4921669960022,6.48643589019775,6.48071479797363,6.47500371932983,6.46930313110352,6.46361255645752,6.45793151855469,6.45226049423218,6.44659996032715,6.44094896316528,6.43530797958374,6.42967653274536,6.42405557632446,6.41844415664673,6.41284227371216,6.40725040435791
10.7692966461182,10.7696933746338,10.7700939178467,10.7704935073853,10.0039043426514,9.99550628662109,9.98712253570557,9.97875308990479,9.97039699554443,9.96205520629883,9.95372772216797,9.94541358947754,9.93711376190186,9.9288272857666,9.92055511474609,9.91229724884033,9.90405178070068,9.89582061767578,9.88760375976562,9.87939929962158,9.87120914459229,9.86303234100342,9.8548698425293,9.84671974182129,9.83858394622803,9.8304615020752,9.82235240936279,9.8142557144165,9.80617332458496,9.79810428619385,9.79004859924316,9.78200531005859,9.77397537231445,9.76595973968506,9.75795650482178,9.74996566772461,9.74198913574219,9.73402500152588,9.72607326507568,9.71813583374023,9.7102108001709,9.70229816436768,9.69439888000488,9.68651294708252,9.67863941192627,9.67077827453613,9.66293048858643,9.65509510040283,9.64727210998535,9.63946151733398,9.63166427612305,9.62388038635254,9.61610794067383,9.60834789276123,9.60060119628906,9.59286594390869,9.58514404296875,9.57743453979492,9.56973648071289,9.56205177307129,9.5543794631958,9.54671859741211,9.53907108306885,9.53143501281738,9.52381134033203,9.51620006561279,9.50860023498535,9.50101375579834,9.49343872070312,9.48587512969971,9.4783239364624,9.47078514099121,9.46325874328613,9.45079517364502,9.43636703491211,9.42198276519775,9.40764331817627,9.39334678649902,9.37909317016602,9.36488246917725,9.35071563720703,9.33659172058105,9.322509765625,9.30847072601318,9.29447364807129,9.28051853179932,9.26660537719727,9.25273418426514,9.23890399932861,9.2251148223877,9.21136665344238,9.19766044616699,9.18399429321289,9.17036914825439,9.15678405761719,9.14323902130127,9.12973403930664,9.1162691116333,9.10284328460693,9.08945751190186,9.07611083984375,9.06280326843262,9.04953479766846,9.03630542755127,9.02311420440674,9.00996208190918,8.99684715270996,8.98377132415771,8.97073268890381,8.95773220062256,8.94476890563965,8.93184375762939,8.91895580291748,8.90610504150391,8.89329051971436,8.88051414489746,8.86777305603027,8.85506916046143,8.8424015045166,8.8297700881958,8.81717491149902,8.80436420440674,8.79158210754395,8.77883720397949,8.76612949371338,8.75345706939697,8.74082183837891,8.72822380065918,8.71566200256348,8.70313549041748,8.69064521789551,8.67819118499756,8.66577243804932,8.65338897705078,8.64104080200195,8.62872791290283,8.61645030975342,8.60420799255371,8.59199905395508,8.57982635498047,8.56768703460693,8.55558204650879,8.54351139068604,8.53147506713867,8.5194730758667,8.50750350952148,8.49556827545166,8.48366641998291,8.47179794311523,8.46036624908447,8.45000457763672,8.43966770172119,8.42935657501221,8.41907119750977,8.40881061553955,8.39857482910156,8.3883638381958,8.37817764282227,8.36801624298096,8.35787868499756,8.3477668762207,8.33767890930176,8.32761573791504,8.31757640838623,8.30756092071533,8.29757022857666,8.2876033782959,8.27766036987305,8.26774024963379,8.25784492492676,8.24797344207764,8.23812484741211,8.22830009460449,8.21849918365479,8.20872116088867,8.19896602630615,8.18923473358154,8.17952632904053,8.16984081268311,8.16017818450928,8.15053749084473,8.14092063903809,8.13132667541504,8.12175464630127,8.11220550537109,8.1026782989502,8.09317398071289,8.08369159698486,8.07423114776611,8.06479358673096,8.05537796020508,8.04598331451416,8.03661155700684,8.02726078033447,8.0179328918457,8.00862598419189,7.99934053421021,7.99007654190063,7.98083448410034,7.97161340713501,7.9624137878418,7.95323514938354,7.94407749176025,7.93494129180908,7.92582607269287,7.91673183441162,7.90765810012817,7.89860534667969,7.889573097229,7.88056182861328,7.87157106399536,7.86260032653809,7.85365056991577,7.8447208404541,7.83581161499023,7.82488965988159,7.81108570098877,7.79732990264893,7.78362321853638,7.76996421813965,7.7563533782959,7.74278974533081,7.72927331924438,7.71580505371094,7.70238256454468,7.68900680541992,7.67567777633667,7.66239500045776,7.64915752410889,7.63596630096436,7.6228199005127,7.60971975326538,7.59666347503662,7.58365201950073,7.57068586349487,7.55776309967041,7.54488468170166,7.53205013275146,7.51925897598267,7.50651168823242,7.49380731582642,7.48114538192749,7.46852684020996,7.45595073699951,7.44341659545898,7.43092489242554,7.4184741973877,7.40606594085693,7.39369916915894,7.38137340545654,7.36908864974976,7.35684490203857,7.34464120864868,7.33247852325439,7.3203558921814,7.30827283859253,7.29623031616211,7.28326654434204,7.26951265335083,7.25580978393555,7.24215984344482,7.22855997085571,7.21501207351685,7.20151424407959,7.1880669593811,7.17466974258423,7.16132259368896,7.148024559021,7.13477659225464,7.12157678604126,7.10842657089233,7.09532403945923,7.08227014541626,7.06926393508911,7.05630588531494,7.04339456558228,7.03053092956543,7.01771450042725,7.00494337081909,6.99222040176392,6.97954225540161,6.96691036224365,6.95432424545288,6.94178342819214,6.92928791046143,6.91683721542358,6.90443134307861,6.89206981658936,6.87975215911865,6.86747884750366,6.85524892807007,6.84306287765503,6.83091974258423,6.81881952285767,6.80676221847534,6.7947473526001,6.78277492523193,6.77084541320801,6.75895643234253,6.74710988998413,6.73530530929565,6.72354078292847,6.7118182182312,6.70013618469238,6.68849468231201,6.67689323425293,6.66533231735229,6.65381097793579,6.64233016967773,6.63088846206665,6.6194863319397,6.60812282562256,6.59679841995239,6.5855131149292,6.57426595687866,6.56305742263794,6.55188703536987,6.54075479507446,6.52965974807739,6.52284479141235,6.51705932617188,6.51128435134888,6.5055193901062,6.49976491928101,6.49402046203613,6.48828601837158,6.48256158828735,6.47684764862061,6.47114324569702,6.46544933319092,6.45976543426514,6.45409154891968,6.44842720031738,6.44277334213257,6.43712902069092,6.43149471282959,6.42587041854858,6.42025566101074,6.41465044021606,6.40905570983887,6.40347003936768,6.39789438247681
9.99068355560303,9.98230838775635,9.9739465713501,9.96559906005859,9.95726490020752,9.94894504547119,9.94063949584961,9.93234729766846,9.92406940460205,9.91580486297607,9.90755367279053,9.89931678771973,9.89109420776367,9.88288402557373,9.87468814849854,9.86650562286377,9.85833740234375,9.85018157958984,9.84204006195068,9.83391189575195,9.82579612731934,9.81769466400146,9.80960655212402,9.80153179168701,9.79347038269043,9.78542137145996,9.77738666534424,9.76936435699463,9.76135540008545,9.7533597946167,9.74537754058838,9.73740768432617,9.72945117950439,9.72150802612305,9.71357727050781,9.70565891265869,9.69775485992432,9.68986225128174,9.68198394775391,9.67411708831787,9.66626358032227,9.65842342376709,9.65059471130371,9.64277935028076,9.63497638702393,9.62718677520752,9.61940956115723,9.61164379119873,9.60389137268066,9.59615135192871,9.58842468261719,9.58070945739746,9.57300662994385,9.56531620025635,9.55763816833496,9.54997253417969,9.54231929779053,9.53467845916748,9.52705001831055,9.51943302154541,9.51182842254639,9.50423622131348,9.49665641784668,9.48908805847168,9.48153209686279,9.4739875793457,9.46645545959473,9.45893573760986,9.4514274597168,9.44393062591553,9.43644714355469,9.42897415161133,9.42151355743408,9.41406440734863,9.40051460266113,9.38623905181885,9.37200736999512,9.35781860351562,9.34367275238037,9.32956981658936,9.31550979614258,9.30149173736572,9.28751564025879,9.27358150482178,9.25968837738037,9.2458381652832,9.23202896118164,9.21825981140137,9.20453262329102,9.19084644317627,9.17720031738281,9.16359519958496,9.1500301361084,9.13650512695312,9.12302017211914,9.10957527160645,9.09616947174072,9.08280277252197,9.06947612762451,9.05618762969971,9.04293823242188,9.02972793579102,9.01655578613281,9.00342273712158,8.99032783508301,8.97727012634277,8.9642505645752,8.95126914978027,8.93832492828369,8.92541790008545,8.91254806518555,8.8997163772583,8.88691997528076,8.87416172027588,8.8614387512207,8.84875297546387,8.83610343933105,8.82349014282227,8.81091213226318,8.79837131500244,8.78570175170898,8.77297306060791,8.76028156280518,8.74762725830078,8.73500919342041,8.72242736816406,8.70988178253174,8.69737243652344,8.68489837646484,8.67246055603027,8.66005802154541,8.64769172668457,8.63535976409912,8.62306308746338,8.61080169677734,8.5985746383667,8.58638286590576,8.5742244720459,8.56210231781006,8.55001258850098,8.5379581451416,8.5259370803833,8.51394939422607,8.50199604034424,8.49007606506348,8.47818946838379,8.46633625030518,8.45451641082764,8.44394207000732,8.43362045288086,8.42332363128662,8.41305255889893,8.40280628204346,8.39258575439453,8.38238906860352,8.37221717834473,8.36207008361816,8.35194778442383,8.34185028076172,8.33177661895752,8.32172679901123,8.31170177459717,8.30170059204102,8.29172420501709,8.28177070617676,8.27184200286865,8.26193714141846,8.25205516815186,8.24219703674316,8.23236274719238,8.2225513458252,8.21276378631592,8.20299911499023,8.19325828552246,8.18354034423828,8.1738452911377,8.1641731262207,8.1545238494873,8.1448974609375,8.13529300689697,8.12571239471436,8.11615371704102,8.10661792755127,8.0971040725708,8.08761215209961,8.07814311981201,8.06869602203369,8.05927085876465,8.04986763000488,8.04048633575439,8.03112697601318,8.02178955078125,8.01247406005859,8.0031795501709,7.99390697479248,7.98465585708618,7.975426197052,7.96621751785278,7.95703029632568,7.94786405563354,7.93871927261353,7.92959499359131,7.92049217224121,7.91140985488892,7.90234851837158,7.89330768585205,7.88428783416748,7.87528848648071,7.86630964279175,7.85735130310059,7.84841299057007,7.83949565887451,7.83059787750244,7.82172060012817,7.81286334991455,7.80402660369873,7.79098463058472,7.7773003578186,7.76366329193115,7.75007438659668,7.73653268814087,7.72303867340088,7.70959091186523,7.69619083404541,7.68283653259277,7.66952848434448,7.6562671661377,7.64305114746094,7.62988090515137,7.61675548553467,7.603675365448,7.59064054489136,7.57764959335327,7.56470346450806,7.55180168151855,7.53894329071045,7.5261287689209,7.51335859298706,7.50063037872314,7.48794603347778,7.4753041267395,7.46270513534546,7.4501485824585,7.43763399124146,7.42516088485718,7.41273069381714,7.40034103393555,7.38799333572388,7.37568712234497,7.3634204864502,7.35119581222534,7.33901119232178,7.3268666267395,7.31476259231567,7.30269861221313,7.29067373275757,7.27868938446045,7.26577615737915,7.25208806991577,7.23845148086548,7.22486543655396,7.21133136749268,7.19784736633301,7.18441390991211,7.17103004455566,7.15769672393799,7.14441251754761,7.13117694854736,7.11799097061157,7.10485363006592,7.09176445007324,7.0787239074707,7.06573104858398,7.05278539657593,7.03988742828369,7.02703619003296,7.01423215866089,7.00147438049316,6.98876333236694,6.97609806060791,6.96347904205322,6.95090484619141,6.93837642669678,6.92589330673218,6.91345500946045,6.90106058120728,6.88871145248413,6.87640571594238,6.86414432525635,6.85192632675171,6.83975219726562,6.82762050628662,6.81553220748901,6.80348634719849,6.79148387908936,6.77952241897583,6.76760339736938,6.75572681427002,6.74389123916626,6.73209762573242,6.72034502029419,6.7086329460144,6.69696187973022,6.68533134460449,6.67374134063721,6.66219091415405,6.65068101882935,6.63921070098877,6.62777948379517,6.61638784408569,6.60503530502319,6.59372186660767,6.58244657516479,6.5712103843689,6.5600118637085,6.54885149002075,6.53772974014282,6.52664518356323,6.51892709732056,6.51314878463745,6.50738048553467,6.50162267684937,6.49587488174438,6.49013710021973,6.48440980911255,6.47869205474854,6.472984790802,6.46728754043579,6.4616003036499,6.45592308044434,6.45025587081909,6.44459867477417,6.43895101547241,6.43331336975098,6.42768573760986,6.42206811904907,6.41646003723145,6.41086196899414,6.4052734375,6.39969444274902,6.39412546157837,6.38856601715088
9.944167137146,9.93586921691895,9.92758560180664,9.91931533813477,9.91105842590332,9.90281581878662,9.89458656311035,9.88637161254883,9.87817001342773,9.86998176574707,9.86180686950684,9.85364627838135,9.84549808502197,9.83736419677734,9.82924365997314,9.82113647460938,9.81304264068604,9.80496215820312,9.79689502716064,9.78884029388428,9.78079986572266,9.77277183532715,9.76475811004639,9.75675678253174,9.7487678527832,9.74079322814941,9.73283100128174,9.72488212585449,9.71694564819336,9.70902252197266,9.70111274719238,9.69321537017822,9.68533039093018,9.67745876312256,9.66959953308105,9.66175365447998,9.65392017364502,9.64609909057617,9.63829135894775,9.63049602508545,9.62271308898926,9.61494255065918,9.60718441009521,9.59943962097168,9.59170722961426,9.58398628234863,9.57627868652344,9.56858348846436,9.56089973449707,9.55322933197021,9.54557037353516,9.53792381286621,9.5302906036377,9.52266883850098,9.51505851745605,9.50746154785156,9.49987602233887,9.49230289459229,9.4847412109375,9.47719192504883,9.46965503692627,9.46212959289551,9.45461654663086,9.44711589813232,9.43962574005127,9.43214797973633,9.4246826171875,9.41722869873047,9.40978622436523,9.40235614776611,9.39493751525879,9.38753128051758,9.38013553619385,9.37275218963623,9.36493301391602,9.35076522827148,9.33664131164551,9.32255935668945,9.30851936340332,9.29452228546143,9.28056716918945,9.2666540145874,9.25278282165527,9.23895263671875,9.22516345977783,9.21141529083252,9.19770812988281,9.18404197692871,9.17041683197021,9.15683174133301,9.14328670501709,9.12978172302246,9.11631679534912,9.10289096832275,9.08950424194336,9.07615756988525,9.06284999847412,9.04958152770996,9.03635215759277,9.02316093444824,9.01000785827637,8.99689292907715,8.9838171005249,8.970778465271,8.95777797698975,8.94481468200684,8.93188953399658,8.91900157928467,8.90614986419678,8.89333629608154,8.88055896759033,8.86781787872314,8.8551139831543,8.84244632720947,8.82981491088867,8.81721878051758,8.80465984344482,8.79213523864746,8.77964687347412,8.76711654663086,8.75444221496582,8.74180507659912,8.72920417785645,8.71663856506348,8.70410919189453,8.69161605834961,8.67915916442871,8.66673755645752,8.65435218811035,8.64200115203857,8.6296854019165,8.61740493774414,8.60515975952148,8.59294891357422,8.58077239990234,8.56863117218018,8.55652332305908,8.5444507598877,8.53241157531738,8.52040576934814,8.5084342956543,8.49649620056152,8.48459148406982,8.4727201461792,8.46088314056396,8.44907760620117,8.43788814544678,8.42758083343506,8.41729927062988,8.40704250335693,8.39681148529053,8.38660430908203,8.37642288208008,8.36626529693604,8.35613346099854,8.34602451324463,8.33594131469727,8.32588195800781,8.31584644317627,8.30583572387695,8.29584884643555,8.28588676452637,8.27594757080078,8.26603221893311,8.25614070892334,8.24627304077148,8.23642921447754,8.22660827636719,8.21681118011475,8.2070369720459,8.19728565216064,8.1875581741333,8.17785358428955,8.16817188262939,8.15851306915283,8.14887714385986,8.13926410675049,8.12967395782471,8.1201057434082,8.11056041717529,8.10103702545166,8.09153652191162,8.08205795288086,8.07260227203369,8.06316757202148,8.05375576019287,8.04436588287354,8.03499698638916,8.02565097808838,8.01632595062256,8.00702285766602,7.99774122238159,7.98848104476929,7.9792423248291,7.97002506256104,7.96082878112793,7.95165395736694,7.94250011444092,7.93336772918701,7.92425584793091,7.91516494750977,7.90609502792358,7.89704608917236,7.88801765441895,7.87900972366333,7.87002229690552,7.86105537414551,7.8521089553833,7.84318256378174,7.83427715301514,7.82539129257202,7.81652593612671,7.80768013000488,7.79885482788086,7.79004907608032,7.78126382827759,7.77098703384399,7.75737285614014,7.74380540847778,7.73028564453125,7.71681308746338,7.70338773727417,7.69000864028931,7.67667627334595,7.66338968276978,7.65014934539795,7.63695430755615,7.62380456924438,7.6107006072998,7.5976414680481,7.5846266746521,7.57165670394897,7.5587306022644,7.54584932327271,7.5330114364624,7.5202169418335,7.50746631622314,7.49475860595703,7.48209381103516,7.46947193145752,7.45689249038696,7.44435548782349,7.43186044692993,7.41940689086914,7.40699529647827,7.39462518692017,7.38229656219482,7.37000846862793,7.3577618598938,7.34555530548096,7.33338928222656,7.32126379013062,7.3091778755188,7.29713249206543,7.28512620925903,7.27315950393677,7.26123189926147,7.2483696937561,7.2347469329834,7.22117567062378,7.20765495300293,7.19418430328369,7.18076467514038,7.16739463806152,7.15407419204712,7.14080333709717,7.12758159637451,7.11440896987915,7.10128498077393,7.08820867538452,7.07518100738525,7.06220102310181,7.04926872253418,7.03638362884521,7.02354526519775,7.01075315475464,6.99800872802734,6.98531007766724,6.97265720367432,6.96005058288574,6.9474892616272,6.93497323989868,6.92250156402588,6.91007518768311,6.8976936340332,6.88535642623901,6.87306261062622,6.86081266403198,6.8486065864563,6.83644390106201,6.82432460784912,6.81224775314331,6.80021381378174,6.78822231292725,6.77627277374268,6.76436519622803,6.7524995803833,6.7406759262085,6.7288932800293,6.7171516418457,6.70545053482056,6.69379091262817,6.68217134475708,6.67059230804443,6.65905284881592,6.64755344390869,6.63609409332275,6.62467384338379,6.6132926940918,6.60195064544678,6.59064769744873,6.5793833732605,6.56815671920776,6.556969165802,6.54581928253174,6.53470754623413,6.52363348007202,6.51501417160034,6.50924253463745,6.50348138809204,6.49773025512695,6.49198913574219,6.4862585067749,6.48053789138794,6.4748272895813,6.46912717819214,6.46343660354614,6.45775604248047,6.45208549499512,6.44642496109009,6.44077444076538,6.43513345718384,6.42950296401978,6.42388153076172,6.41827058792114,6.41266918182373,6.40707731246948,6.40149545669556,6.39592361450195,6.39036083221436,6.38480806350708,6.37926483154297
9.8980827331543,9.88986110687256,9.88165378570557,9.873459815979,9.86527919769287,9.85711288452148,9.84895896911621,9.84081935882568,9.83269309997559,9.82458019256592,9.81648063659668,9.80839443206787,9.80032157897949,9.79226207733154,9.78421497344971,9.77618217468262,9.76816177368164,9.76015472412109,9.75216102600098,9.74418067932129,9.73621273040771,9.72825813293457,9.72031688690186,9.71238803863525,9.70447254180908,9.69656944274902,9.68867969512939,9.68080234527588,9.67293834686279,9.66508674621582,9.65724754333496,9.64942169189453,9.64160823822021,9.63380718231201,9.62601852416992,9.61824321746826,9.61048030853271,9.60272979736328,9.59499168395996,9.58726596832275,9.57955265045166,9.57185173034668,9.56416320800781,9.55648708343506,9.54882335662842,9.54117202758789,9.53353309631348,9.52590560913086,9.51829147338867,9.51068878173828,9.503098487854,9.49551963806152,9.48795318603516,9.4803991317749,9.47285652160645,9.4653263092041,9.45780849456787,9.45030212402344,9.4428071975708,9.43532466888428,9.42785358428955,9.42039489746094,9.41294765472412,9.40551280975342,9.39808940887451,9.3906774520874,9.38327693939209,9.37588787078857,9.36851119995117,9.36114597320557,9.35379219055176,9.34644985198975,9.33911895751953,9.33180046081543,9.32449245452881,9.31555938720703,9.30154037475586,9.28756427764893,9.27363014221191,9.25973796844482,9.24588680267334,9.23207664489746,9.2183084487915,9.20458126068115,9.19089412689209,9.17724895477295,9.16364288330078,9.15007781982422,9.13655281066895,9.12306785583496,9.10962200164795,9.09621620178223,9.08285045623779,9.06952285766602,9.05623435974121,9.04298496246338,9.02977466583252,9.01660251617432,9.00346851348877,8.9903736114502,8.97731590270996,8.96429634094238,8.95131397247314,8.93836975097656,8.92546367645264,8.91259384155273,8.89976119995117,8.88696575164795,8.87420654296875,8.86148357391357,8.84879779815674,8.83614826202393,8.82353496551514,8.81095695495605,8.798415184021,8.78590869903564,8.77343845367432,8.76100254058838,8.74860286712646,8.73599052429199,8.7234058380127,8.71085739135742,8.69834518432617,8.68586826324463,8.67342758178711,8.66102313995361,8.64865303039551,8.63631820678711,8.62401866912842,8.61175441741943,8.59952545166016,8.58733081817627,8.57517051696777,8.56304454803467,8.55095291137695,8.53889560699463,8.52687168121338,8.51488208770752,8.50292587280273,8.49100303649902,8.4791145324707,8.46725845336914,8.45543575286865,8.44364547729492,8.43188858032227,8.42155075073242,8.41128349304199,8.40104198455811,8.39082431793213,8.3806324005127,8.37046527862549,8.36032199859619,8.35020446777344,8.34011077880859,8.33004093170166,8.31999588012695,8.30997467041016,8.29997825622559,8.29000568389893,8.28005695343018,8.27013206481934,8.26023006439209,8.25035285949707,8.24049949645996,8.23066902160645,8.22086143493652,8.21107769012451,8.20131778717041,8.1915807723999,8.18186664581299,8.17217540740967,8.16250705718994,8.15286159515381,8.14323902130127,8.13363933563232,8.12406158447266,8.11450672149658,8.1049747467041,8.0954647064209,8.08597755432129,8.07651138305664,8.06706809997559,8.05764770507812,8.04824829101562,8.0388708114624,8.02951526641846,8.02018165588379,8.01086902618408,8.00157833099365,7.9923095703125,7.98306226730347,7.97383642196655,7.96463108062744,7.95544767379761,7.94628524780273,7.93714380264282,7.92802333831787,7.91892385482788,7.90984535217285,7.90078783035278,7.89175081253052,7.88273429870605,7.87373828887939,7.86476278305054,7.85580825805664,7.84687376022339,7.83795928955078,7.82906532287598,7.82019138336182,7.81133794784546,7.80250406265259,7.79369020462036,7.78489637374878,7.77612257003784,7.76736831665039,7.75863361358643,7.74991846084595,7.73754692077637,7.72404909133911,7.71059846878052,7.69719409942627,7.68383646011353,7.67052555084229,7.65726041793823,7.64404058456421,7.63086700439453,7.61773824691772,7.60465526580811,7.5916166305542,7.57862281799316,7.56567335128784,7.55276775360107,7.53990650177002,7.52708864212036,7.51431465148926,7.50158357620239,7.48889636993408,7.47625112533569,7.46364831924438,7.45108890533447,7.43857097625732,7.42609548568726,7.41366147994995,7.40126895904541,7.38891839981079,7.37660837173462,7.36433935165405,7.35211133956909,7.33992338180542,7.3277759552002,7.31566953659058,7.30360174179077,7.29157495498657,7.27958679199219,7.26763820648193,7.25572872161865,7.24385833740234,7.23104619979858,7.21748876571655,7.20398187637329,7.19052505493164,7.17711877822876,7.16376256942749,7.15045595169067,7.13719797134399,7.12398958206177,7.11083078384399,7.09771919250488,7.08465671539307,7.07164192199707,7.05867481231689,7.04575538635254,7.03288269042969,7.0200572013855,7.00727844238281,6.99454641342163,6.98186016082764,6.96922016143799,6.95662546157837,6.94407653808594,6.93157243728638,6.91911363601685,6.90669965744019,6.89433002471924,6.88200426101685,6.86972284317017,6.85748481750488,6.84529066085815,6.83313989639282,6.82103157043457,6.80896663665771,6.79694414138794,6.78496408462524,6.77302646636963,6.76113033294678,6.74927568435669,6.73746347427368,6.72569179534912,6.71396112442017,6.70227146148682,6.69062280654907,6.67901420593262,6.66744613647461,6.65591764450073,6.64442920684814,6.63298082351685,6.6215705871582,6.61020040512085,6.59886884689331,6.58757638931274,6.57632255554199,6.5651068687439,6.55392932891846,6.54279041290283,6.53168821334839,6.5206241607666,6.51110601425171,6.50534105300903,6.499587059021,6.49384260177612,6.48810863494873,6.48238468170166,6.47667121887207,6.47096729278564,6.46527338027954,6.45958995819092,6.45391607284546,6.44825220108032,6.44259834289551,6.43695449829102,6.43132066726685,6.42569637298584,6.42008209228516,6.41447734832764,6.40888261795044,6.40329742431641,6.3977222442627,6.39215660095215,6.38660097122192,6.38105440139771,6.37551784515381,6.36999082565308
9.8524227142334,9.84427738189697,9.83614540100098,9.82802581787109,9.81992149353027,9.81182861328125,9.80375003814697,9.79568481445312,9.78763294219971,9.77959442138672,9.77156829833984,9.76355648040771,9.7555570602417,9.74757099151611,9.73959732055664,9.7316370010376,9.72369003295898,9.7157564163208,9.70783519744873,9.69992637634277,9.69203090667725,9.68414878845215,9.67627811431885,9.66842174530029,9.66057777404785,9.65274620056152,9.64492702484131,9.63712120056152,9.62932682037354,9.62154579162598,9.61377811431885,9.60602188110352,9.5982780456543,9.59054756164551,9.58282947540283,9.57512283325195,9.5674295425415,9.55974769592285,9.55207920074463,9.5444221496582,9.53677749633789,9.52914619445801,9.52152538299561,9.51391792297363,9.50632190704346,9.49873924255371,9.49116706848145,9.48360824584961,9.47606086730957,9.46852493286133,9.4610013961792,9.45349025726318,9.44599056243896,9.43850326538086,9.43102741241455,9.42356395721436,9.41611099243164,9.40867137908936,9.40124225616455,9.39382553100586,9.38642024993896,9.37902641296387,9.37164497375488,9.3642749786377,9.35691547393799,9.34956836700439,9.3422327041626,9.33490943908691,9.32759666442871,9.3202953338623,9.3130054473877,9.30572700500488,9.29846000671387,9.29120445251465,9.28396034240723,9.27672672271729,9.26670360565186,9.25283145904541,9.23900127410889,9.22521209716797,9.21146392822266,9.19775676727295,9.18409061431885,9.17046451568604,9.15687942504883,9.14333438873291,9.12982940673828,9.11636352539062,9.10293769836426,9.08955192565918,9.07620525360107,9.06289672851562,9.04962825775146,9.03639793395996,9.02320671081543,9.01005363464355,8.99693965911865,8.98386287689209,8.97082424163818,8.95782375335693,8.94486045837402,8.93193531036377,8.91904640197754,8.90619564056396,8.89338111877441,8.8806037902832,8.86786270141602,8.85515880584717,8.84249019622803,8.82985877990723,8.81726360321045,8.80470371246338,8.79218006134033,8.77969169616699,8.76723861694336,8.75481986999512,8.7424373626709,8.73009014129639,8.71761512756348,8.7050838470459,8.69258785247803,8.68012809753418,8.66770362854004,8.65531539916992,8.6429615020752,8.63064289093018,8.61836051940918,8.60611248016357,8.59389877319336,8.58171939849854,8.56957530975342,8.55746555328369,8.54538917541504,8.53334808349609,8.52133941650391,8.50936508178711,8.4974250793457,8.48551750183105,8.4736442565918,8.4618034362793,8.44999504089355,8.4382209777832,8.42647933959961,8.41552829742432,8.40527629852295,8.39504909515381,8.38484668731689,8.37466907501221,8.36451625823975,8.3543872833252,8.34428405761719,8.33420467376709,8.3241491317749,8.31411838531494,8.30411148071289,8.29412937164307,8.28417015075684,8.27423572540283,8.26432418823242,8.25443744659424,8.24457359313965,8.23473358154297,8.22491645812988,8.21512317657471,8.20535278320312,8.19560623168945,8.18588256835938,8.17618179321289,8.16650485992432,8.15684986114502,8.14721775054932,8.13760852813721,8.12802219390869,8.11845779418945,8.10891628265381,8.09939670562744,8.08990001678467,8.08042526245117,8.07097339630127,8.06154251098633,8.05213451385498,8.04274749755859,8.0333833694458,8.02404117584229,8.01471996307373,8.00541973114014,7.99614238739014,7.9868860244751,7.97765111923218,7.96843719482422,7.95924472808838,7.95007371902466,7.9409236907959,7.9317946434021,7.92268657684326,7.91359949111938,7.90453290939331,7.8954873085022,7.88646221160889,7.87745809555054,7.86847400665283,7.85951089859009,7.85056781768799,7.84164524078369,7.83274269104004,7.82386064529419,7.81499862670898,7.80615663528442,7.79733467102051,7.78853273391724,7.77975034713745,7.77098798751831,7.76224517822266,7.75352191925049,7.74481868743896,7.73613452911377,7.72746992111206,7.71782255172729,7.70439291000366,7.69101047515869,7.67767429351807,7.66438436508179,7.65114068984985,7.63794231414795,7.62478923797607,7.61168193817139,7.59861946105957,7.58560132980347,7.57262802124023,7.55969905853271,7.54681444168091,7.5339732170105,7.52117538452148,7.50842189788818,7.4957103729248,7.48304224014282,7.47041749954224,7.45783472061157,7.44529438018799,7.43279600143433,7.42033910751343,7.40792512893677,7.39555215835571,7.38321971893311,7.37092924118042,7.35867881774902,7.34646940231323,7.33430051803589,7.32217168807983,7.31008338928223,7.29803419113159,7.2860255241394,7.27405595779419,7.26212501525879,7.25023365020752,7.23838138580322,7.22656774520874,7.21380567550659,7.20031261444092,7.18686962127686,7.17347717285156,7.16013431549072,7.14684104919434,7.13359689712524,7.12040185928345,7.10725545883179,7.09415721893311,7.08110809326172,7.06810617446899,7.05515193939209,7.04224538803101,7.02938604354858,7.01657295227051,7.00380706787109,6.99108743667603,6.97841358184814,6.96578598022461,6.9532036781311,6.94066715240479,6.92817544937134,6.91572904586792,6.90332651138306,6.89096927642822,6.87865543365479,6.86638593673706,6.85415983200073,6.84197807312012,6.82983827590942,6.81774234771729,6.80568885803223,6.79367828369141,6.78170967102051,6.76978302001953,6.75789833068848,6.74605560302734,6.73425388336182,6.72249364852905,6.71077442169189,6.69909572601318,6.68745803833008,6.67586040496826,6.66430282592773,6.6527853012085,6.64130830764771,6.62986946105957,6.61847066879272,6.60711097717285,6.59579038619995,6.58450841903687,6.57326459884644,6.56205940246582,6.55089282989502,6.53976345062256,6.5286717414856,6.51761817932129,6.5072021484375,6.5014443397522,6.49569702148438,6.48995971679688,6.48423290252686,6.478515625,6.47280836105347,6.46711158752441,6.46142482757568,6.45574760437012,6.45008087158203,6.44442367553711,6.43877649307251,6.43313932418823,6.42751216888428,6.42189455032349,6.41628694534302,6.41068887710571,6.40510082244873,6.39952230453491,6.39395332336426,6.38839435577393,6.38284492492676,6.37730550765991,6.37177515029907,6.36625480651855,6.36074352264404
9.80718231201172,9.79911136627197,9.79105377197266,9.78300857543945,9.774977684021,9.76696014404297,9.75895500183105,9.75096321105957,9.7429838180542,9.73501873016357,9.72706604003906,9.71912670135498,9.71119976043701,9.70328617095947,9.69538497924805,9.68749713897705,9.67962169647217,9.6717586517334,9.66390895843506,9.65607261657715,9.64824771881104,9.64043617248535,9.6326379776001,9.62485122680664,9.61707782745361,9.6093168258667,9.60156726837158,9.59383106231689,9.58610820770264,9.57839679718018,9.57069778442383,9.56301116943359,9.55533695220947,9.54767513275146,9.54002475738525,9.53238773345947,9.52476215362549,9.51714992523193,9.50954914093018,9.50195980072021,9.49438381195068,9.48681926727295,9.47926616668701,9.4717264175415,9.46419715881348,9.45668125152588,9.44917678833008,9.44168376922607,9.43420314788818,9.42673397064209,9.41927719116211,9.41183185577393,9.40439796447754,9.39697647094727,9.38956642150879,9.38216781616211,9.37478065490723,9.36740589141846,9.36004161834717,9.35268974304199,9.34534931182861,9.33802032470703,9.33070278167725,9.32339668273926,9.31610202789307,9.30881881713867,9.30154705047607,9.29428672790527,9.28703784942627,9.27979946136475,9.27257347106934,9.26535797119141,9.25815391540527,9.25096035003662,9.24377918243408,9.23660850524902,9.22944927215576,9.21835708618164,9.20462894439697,9.19094276428223,9.17729663848877,9.1636905670166,9.15012550354004,9.13660049438477,9.12311458587646,9.10966968536377,9.09626388549805,9.0828971862793,9.06956958770752,9.05628108978271,9.04303169250488,9.02982044219971,9.0166482925415,9.00351524353027,8.99041938781738,8.97736167907715,8.96434211730957,8.95135974884033,8.93841552734375,8.92550849914551,8.91263866424561,8.89980602264404,8.88701057434082,8.87425136566162,8.86152839660645,8.84884262084961,8.8361930847168,8.82357883453369,8.81100082397461,8.79845905303955,8.7859525680542,8.77348232269287,8.76104640960693,8.74864673614502,8.7362813949585,8.72395133972168,8.71165561676025,8.69931793212891,8.68683910369873,8.67439556121826,8.6619873046875,8.64961433410645,8.63727760314941,8.62497520446777,8.61270904541016,8.60047626495361,8.58827877044678,8.57611560821533,8.56398773193359,8.55189323425293,8.53983306884766,8.52780628204346,8.51581478118896,8.50385570526123,8.49193096160889,8.4800386428833,8.46817970275879,8.45635509490967,8.4445629119873,8.4328031539917,8.42107582092285,8.40951538085938,8.39927768707275,8.38906478881836,8.37887668609619,8.36871433258057,8.35857582092285,8.34846115112305,8.33837223052979,8.32830715179443,8.31826591491699,8.30824947357178,8.29825687408447,8.28828811645508,8.27834320068359,8.26842212677002,8.25852489471436,8.2486515045166,8.23880195617676,8.22897529602051,8.21917247772217,8.20939254760742,8.19963645935059,8.18990325927734,8.1801929473877,8.17050552368164,8.1608419418335,8.15120029449463,8.14158153533936,8.13198566436768,8.12241172790527,8.11286163330078,8.10333251953125,8.09382724761963,8.08434295654297,8.0748815536499,8.06544208526611,8.0560245513916,8.04662895202637,8.03725528717041,8.02790355682373,8.01857376098633,8.00926494598389,7.99997854232788,7.99071311950684,7.98146915435791,7.9722466468811,7.96304559707642,7.95386600494385,7.94470691680908,7.93556928634644,7.92645263671875,7.91735649108887,7.90828132629395,7.89922761917114,7.89019393920898,7.88118124008179,7.87218856811523,7.86321687698364,7.85426568984985,7.84533452987671,7.83642387390137,7.82753324508667,7.81866312026978,7.80981254577637,7.80098247528076,7.79217195510864,7.78338146209717,7.77461099624634,7.76586008071899,7.75712871551514,7.74841737747192,7.73972511291504,7.7310528755188,7.72239971160889,7.7137656211853,7.70515108108521,7.69655609130859,7.68483686447144,7.67152261734009,7.65825366973877,7.6450309753418,7.63185358047485,7.61872148513794,7.60563516616821,7.5925931930542,7.5795955657959,7.56664323806763,7.55373430252075,7.54086971282959,7.52804899215698,7.51527118682861,7.5025372505188,7.48984622955322,7.47719812393188,7.46459293365479,7.45202922821045,7.43950843811035,7.42703008651733,7.41459274291992,7.40219736099243,7.38984298706055,7.37753057479858,7.36525821685791,7.35302734375,7.34083652496338,7.32868623733521,7.31657600402832,7.30450582504272,7.29247570037842,7.28048419952393,7.26853275299072,7.25662040710449,7.24474716186523,7.23291301727295,7.22111701965332,7.20935916900635,7.19664716720581,7.18321800231934,7.16983938217163,7.15650987625122,7.14322948455811,7.1299991607666,7.11681747436523,7.10368394851685,7.09059953689575,7.07756280899048,7.06457424163818,7.05163288116455,7.03873920440674,7.02589225769043,7.01309204101562,7.00033903121948,6.98763179779053,6.97497081756592,6.96235513687134,6.9497857093811,6.93726110458374,6.92478179931641,6.91234731674194,6.89995765686035,6.88761186599731,6.87531042098999,6.86305284500122,6.85083866119385,6.83866834640503,6.82654047012329,6.81445598602295,6.80241394042969,6.79041481018066,6.77845764160156,6.76654243469238,6.75466918945312,6.74283790588379,6.73104763031006,6.71929836273193,6.70759010314941,6.6959228515625,6.68429613113403,6.67270946502686,6.66116285324097,6.64965629577637,6.6381893157959,6.62676191329956,6.6153736114502,6.6040244102478,6.59271430969238,6.58144283294678,6.57020998001099,6.55901479721069,6.54785823822021,6.53673934936523,6.52565813064575,6.51461458206177,6.50360870361328,6.49755239486694,6.49181222915649,6.48608160018921,6.4803614616394,6.47465085983276,6.4689507484436,6.46326065063477,6.45758056640625,6.45191049575806,6.44624996185303,6.44059991836548,6.43495941162109,6.42932891845703,6.42370796203613,6.41809701919556,6.4124960899353,6.40690469741821,6.40132331848145,6.39575147628784,6.3901891708374,6.38463640213013,6.37909364700317,6.37356042861938,6.36803674697876,6.3625226020813,6.357017993927,6.35152292251587
9.76235485076904,9.75435733795166,9.74637317657471,9.73840236663818,9.73044395446777,9.72249889373779,9.71456623077393,9.70664691925049,9.69874095916748,9.69084739685059,9.68296718597412,9.67509841918945,9.66724395751953,9.65940189361572,9.65157222747803,9.64375495910645,9.63595008850098,9.62815856933594,9.62037944793701,9.6126127243042,9.60485935211182,9.59711742401123,9.58938884735107,9.58167171478271,9.57396793365479,9.56627559661865,9.55859661102295,9.55092906951904,9.54327487945557,9.53563213348389,9.52800178527832,9.52038383483887,9.51277732849121,9.50518417358398,9.49760150909424,9.49003219604492,9.4824743270874,9.474928855896,9.4673957824707,9.45987415313721,9.45236396789551,9.44486618041992,9.43738079071045,9.42990684509277,9.42244434356689,9.41499423980713,9.40755558013916,9.40012836456299,9.39271354675293,9.38531017303467,9.3779182434082,9.37053871154785,9.36316967010498,9.35581302642822,9.34846782684326,9.34113311767578,9.33381080627441,9.32649993896484,9.31920051574707,9.31191253662109,9.30463600158691,9.29737091064453,9.29011631011963,9.28287410736084,9.27564239501953,9.26842308044434,9.2612133026123,9.25401592254639,9.24682998657227,9.23965454101562,9.23249053955078,9.22533702850342,9.21819496154785,9.21106433868408,9.20394420623779,9.1968355178833,9.18973731994629,9.18264961242676,9.17051315307617,9.15692710876465,9.14338207244873,9.12987613677979,9.11641120910645,9.10298538208008,9.08959865570068,9.07625198364258,9.06294345855713,9.04967498779297,9.03644466400146,9.02325344085693,9.01010036468506,8.99698543548584,8.98390865325928,8.97087001800537,8.95786952972412,8.94490623474121,8.93198013305664,8.91909217834473,8.90624046325684,8.89342594146729,8.88064861297607,8.86790752410889,8.85520362854004,8.8425350189209,8.8299036026001,8.817307472229,8.80474758148193,8.79222393035889,8.77973461151123,8.7672815322876,8.75486373901367,8.74248123168945,8.73013305664062,8.7178201675415,8.70554161071777,8.69329833984375,8.68108940124512,8.66866970062256,8.65627861022949,8.64392185211182,8.63160133361816,8.6193151473999,8.60706424713135,8.5948486328125,8.58266639709473,8.57051944732666,8.55840682983398,8.5463285446167,8.53428363800049,8.52227306365967,8.51029586791992,8.49835300445557,8.48644351959229,8.47456741333008,8.46272373199463,8.45091342926025,8.43913650512695,8.42739200592041,8.41568088531494,8.40400123596191,8.39328765869141,8.38308906555176,8.37291622161865,8.36276721954346,8.35264301300049,8.34254360198975,8.33246803283691,8.32241725921631,8.31239032745361,8.30238819122314,8.29240989685059,8.28245449066162,8.27252388000488,8.26261711120605,8.25273418426514,8.24287414550781,8.2330379486084,8.22322559356689,8.21343612670898,8.20367050170898,8.19392776489258,8.18420791625977,8.17451095581055,8.16483783721924,8.15518665313721,8.14555835723877,8.13595294952393,8.12637042999268,8.1168098449707,8.10727214813232,8.09775733947754,8.08826446533203,8.0787935256958,8.06934452056885,8.05991840362549,8.05051422119141,8.04113101959229,8.03177070617676,8.02243137359619,8.0131139755249,8.00381851196289,7.99454402923584,7.98529148101807,7.97606039047241,7.96685028076172,7.95766162872314,7.94849395751953,7.93934726715088,7.93022203445435,7.92111730575562,7.912034034729,7.9029712677002,7.89392900466919,7.88490772247314,7.8759069442749,7.86692667007446,7.85796689987183,7.84902715682983,7.8401083946228,7.83120965957642,7.82233047485352,7.81347227096558,7.80463361740112,7.79581499099731,7.78701639175415,7.77823734283447,7.76947832107544,7.76073932647705,7.75201940536499,7.74331951141357,7.73463869094849,7.72597742080688,7.71733570098877,7.70871305465698,7.70010995864868,7.69152593612671,7.68296098709106,7.67441511154175,7.66538000106812,7.65213251113892,7.6389307975769,7.62577486038208,7.61266374588013,7.59959745407104,7.58657646179199,7.57359933853149,7.56066703796387,7.54777908325195,7.53493452072144,7.52213382720947,7.50937652587891,7.49666213989258,7.4839916229248,7.47136306762695,7.45877695083618,7.44623374938965,7.43373203277588,7.42127275466919,7.40885496139526,7.3964786529541,7.38414335250854,7.37184953689575,7.35959625244141,7.34738397598267,7.33521223068237,7.32308006286621,7.31098890304565,7.29893684387207,7.28692483901978,7.27495241165161,7.26301860809326,7.25112438201904,7.2392692565918,7.22745227813721,7.21567440032959,7.20393466949463,7.19223260879517,7.17956972122192,7.16620445251465,7.15288877487183,7.13962173461914,7.12640476226807,7.11323642730713,7.10011625289917,7.08704471588135,7.07402086257935,7.06104564666748,7.04811716079712,7.03523635864258,7.02240228652954,7.00961494445801,6.99687433242798,6.98417949676514,6.97153091430664,6.95892763137817,6.94637060165405,6.93385887145996,6.92139148712158,6.90896892547607,6.89659118652344,6.88425779342651,6.87196826934814,6.85972213745117,6.84752035140991,6.83536100387573,6.82324552536011,6.81117248535156,6.79914236068726,6.78715467453003,6.77520895004272,6.76330518722534,6.75144338607788,6.73962306976318,6.72784376144409,6.71610593795776,6.70440912246704,6.69275283813477,6.68113708496094,6.66956090927124,6.65802526473999,6.64653015136719,6.6350736618042,6.62365674972534,6.61227941513062,6.6009407043457,6.58964157104492,6.57838010787964,6.56715726852417,6.55597305297852,6.54482650756836,6.53371858596802,6.52264738082886,6.5116138458252,6.50061798095703,6.49366521835327,6.48793172836304,6.48220777511597,6.47649431228638,6.47079086303711,6.46509742736816,6.45941400527954,6.4537410736084,6.44807720184326,6.44242382049561,6.43678045272827,6.4311466217041,6.42552280426025,6.41990852355957,6.41430425643921,6.40871000289917,6.40312528610229,6.39755010604858,6.3919849395752,6.38642930984497,6.38088321685791,6.37534666061401,6.36982011795044,6.36430311203003,6.35879516601562,6.35329723358154,6.34780836105347,6.34232950210571
