13.8021564483643,13.8027124404907,13.8032684326172,13.803825378418,13.8043794631958,13.8049364089966,13.8054914474487,13.8060522079468,13.8066034317017,13.8071622848511,13.8077201843262,13.8082723617554,13.8088312149048,13.8093881607056,13.8099412918091,13.8104972839355,13.8110542297363,13.8116111755371,13.8121719360352,13.81272315979,13.8132839202881,13.8138418197632,13.8143968582153,13.8149528503418,13.8155117034912,13.8160667419434,13.8166265487671,13.8171796798706,13.8177394866943,13.8182935714722,13.8188505172729,13.8194074630737,13.8199682235718,13.8205261230469,13.821081161499,13.8216361999512,13.8221950531006,13.82275390625,13.8233098983765,13.8238697052002,13.8244256973267,13.8249826431274,13.8255424499512,13.8261032104492,13.8266572952271,13.8272151947021,13.8277730941772,13.8283309936523,13.8288927078247,13.8294477462769,13.8300037384033,13.8305635452271,13.8311223983765,13.8316822052002,13.832239151001,13.8327960968018,13.8333568572998,13.8339138031006,13.8344717025757,13.8350324630737,13.8355884552002,13.8361463546753,13.8367052078247,13.8372640609741,13.8378238677979,13.8383798599243,13.838939666748,13.839503288269,13.8400602340698,13.8406200408936,13.8411779403687,13.8417358398438,13.8422937393188,13.8428554534912,13.8434143066406,13.84397315979,13.8445291519165,13.8450918197632,13.8456506729126,13.8462114334106,13.8467683792114,13.8473281860352,13.8478889465332,13.8484497070312,13.8490076065063,13.8495655059814,13.8501272201538,13.8506860733032,13.8512449264526,13.8518075942993,13.8523635864258,13.8529262542725,13.8534832000732,12.6581220626831,12.6446685791016,12.6312446594238,12.6178483963013,12.6044807434082,12.5911407470703,12.5778303146362,12.564546585083,12.5512914657593,12.538064956665,12.5248651504517,12.5116939544678,12.4985504150391,12.4854335784912,12.4723453521729,12.4592838287354,12.446249961853,12.4332427978516,12.4202632904053,12.4073104858398,12.3943853378296,12.3814868927002,12.3686141967773,12.3557691574097,12.3340873718262,12.0723791122437,11.8215465545654,11.580924987793,11.3499031066895,11.1279172897339,10.9144496917725,10.7191591262817,10.6443634033203,10.5706052780151,10.4978609085083,10.4261121749878,10.3553371429443,10.2855157852173,10.2166299819946,10.1486616134644,10.0815906524658,10.0154008865356,9.95007419586182,9.93260192871094,9.91647052764893,9.900390625,9.88436317443848,9.86838722229004,9.852463722229,9.83659076690674,9.82076930999756,9.80499839782715,9.78927803039551,9.77360820770264,9.75798797607422,9.74241828918457,9.72689723968506,9.71142673492432,9.69600486755371,9.68063163757324,9.66530704498291,9.65003108978271,9.63480377197266,9.6196231842041,9.60449123382568,9.58940696716309,9.57437038421631,9.55937957763672,9.54437732696533,9.52917957305908,9.51402950286865,9.49892711639404,9.48387336730957,9.46886730194092,9.45390796661377,9.43899631500244,9.42413139343262,9.4093132019043,9.39454174041748,9.37981605529785,9.36513710021973,9.35050392150879,9.33591651916504,9.32137393951416,9.30687713623047,9.29242515563965,9.2780179977417,9.26365566253662,9.2493371963501,9.23506355285645,9.22083377838135,9.2066478729248,9.1925048828125,9.17840576171875,9.16434955596924,9.15033721923828,9.13636684417725,9.12243938446045,9.10681629180908,9.08791255950928,9.06908702850342,9.0503396987915,9.03166961669922,9.01307678222656,8.9945592880249,8.97611808776855,8.95775318145752,8.93946266174316,8.92124652862549,8.90310478210449,8.88503646850586,8.86704063415527,8.84911823272705,8.83126831054688,8.81349086761475,8.79578399658203,8.77814769744873,8.76058292388916,8.74308776855469,8.72566223144531,8.70830631256104,8.69102001190186,8.67380142211914,8.65665054321289,8.63956737518311,8.6225528717041,8.60560417175293,8.58872127532959,8.57190608978271,8.55515575408936,8.53847122192383,8.52185153961182,8.50529766082764,8.48880672454834,8.47237968444824,8.45601654052734,8.43971633911133,8.4234790802002,8.40730381011963,8.39119052886963,8.3751392364502,8.35914897918701,8.34321975708008,8.32735061645508,8.31154251098633,8.2957935333252,8.280104637146,8.26447486877441,8.24890422821045,8.23339176177979,8.21793842315674,8.20254230499268,8.1872034072876,8.1719217300415,8.15669727325439,8.14153003692627,8.12641906738281,8.11136341094971,8.09636306762695,8.08141899108887,8.06653022766113,8.05169486999512,7.9572639465332,7.93281126022339,7.90850830078125,7.88435411453247,7.86035394668579,7.83569765090942,7.80883932113647,7.78216457366943,7.75567150115967,7.72935771942139,7.70322227478027,7.67726278305054,7.6514778137207,7.62586498260498,7.60042381286621,7.57515144348145,7.55004644393921,7.52510786056519,7.50033283233643,7.47572040557861,7.45126962661743,7.42722654342651,7.40556335449219,7.38402652740479,7.36261558532715,7.34139442443848,7.3202953338623,7.29931735992432,7.28001976013184,7.26161289215088,7.24329805374146,7.22507619857788,7.20694494247437,7.18890476226807,7.17095470428467,7.15309429168701,7.13532257080078,7.11763858795166,7.10004234313965,7.08253288269043,7.06510925292969,7.04777145385742,7.03051853179932,7.01334953308105,6.99626493453979,6.9792628288269,6.96234321594238,6.94550561904907,6.92874908447266,6.91207313537598,6.8946590423584,6.87629461288452,6.85802793502808,6.83985805511475,6.82178449630737,6.80380582809448,6.78592157363892,6.76813125610352,6.75043392181396,6.73282909393311,6.71531534194946,6.6978931427002,6.68056058883667,6.66331768035889,6.64616394042969,6.6290979385376,6.61211919784546,6.59522724151611,6.5784215927124,6.56170129776001,6.54506587982178,6.52851438522339,6.51204681396484,6.49566125869751,6.4793586730957,6.46313762664795,6.44699621200562,6.43385124206543,6.43886041641235,6.44387674331665,6.44890165328979,6.45393419265747,6.45897436141968,6.46402263641357,6.46907901763916,6.47414302825928,6.47921466827393,6.48429489135742,6.48938274383545
13.7041215896606,13.7046718597412,13.7052192687988,13.7057628631592,13.7063140869141,13.7068653106689,13.7074136734009,13.7079582214355,13.7085037231445,13.7090559005737,13.70960521698,13.7101516723633,13.7107009887695,13.7112503051758,13.7117977142334,13.712347984314,13.7128953933716,13.7134428024292,13.7139911651611,13.714542388916,13.7150907516479,13.7156429290771,13.7161912918091,13.7167377471924,13.7172870635986,13.7178363800049,13.7183866500854,13.7189331054688,13.7194805145264,13.7200345993042,13.7205820083618,13.7211303710938,13.7216815948486,13.7222270965576,13.7227783203125,13.7233276367188,13.7238798141479,13.7244291305542,13.7249755859375,13.7255258560181,13.7260789871216,13.7266263961792,13.7271795272827,13.7277278900146,13.7282752990723,13.7288274765015,13.7293758392334,13.7299270629883,13.7304763793945,13.7310256958008,13.731575012207,13.7321281433105,13.7326774597168,13.7332248687744,13.733775138855,13.7343263626099,13.7348794937134,13.7354278564453,13.7359790802002,13.7365312576294,13.7370796203613,13.7376317977905,13.7381839752197,13.738730430603,13.7392835617065,13.7398300170898,13.7403841018677,13.7409372329712,13.7414846420288,13.7420358657837,13.7425899505615,13.7431383132935,13.7436904907227,13.7442388534546,13.7447910308838,13.7453470230103,13.7458963394165,13.74644947052,13.7469987869263,13.7475500106812,13.7481031417847,13.7486572265625,13.7492046356201,13.749755859375,13.7503080368042,13.7508592605591,13.7514142990112,13.7519636154175,13.7525157928467,13.7530689239502,12.6473007202148,12.6338701248169,12.6204681396484,12.6070957183838,12.59375,12.58043384552,12.5671453475952,12.5538845062256,12.5406522750854,12.5274467468262,12.5142698287964,12.5011205673218,12.4879989624023,12.4749050140381,12.461838722229,12.4487991333008,12.4357872009277,12.4228019714355,12.4098443984985,12.3969135284424,12.3840093612671,12.371132850647,12.3582820892334,12.3454580307007,12.3326616287231,12.1443872451782,11.8905839920044,11.6471729278564,11.4135265350342,11.1890707015991,10.9732723236084,10.77086353302,10.6953477859497,10.6208829879761,10.5474481582642,10.4750213623047,10.4035835266113,10.3331127166748,10.2635898590088,10.1949968338013,10.1273145675659,10.0605249404907,9.99460983276367,9.94089221954346,9.92473316192627,9.90862655639648,9.8925724029541,9.87657070159912,9.86062049865723,9.8447208404541,9.82887363433838,9.81307601928711,9.79732990264893,9.78163433074951,9.76598834991455,9.75039291381836,9.73484706878662,9.71935081481934,9.7039041519165,9.68850612640381,9.67315673828125,9.65785598754883,9.64260387420654,9.62739944458008,9.61224269866943,9.59713363647461,9.58207225799561,9.56705856323242,9.55209159851074,9.53717041015625,9.52229690551758,9.50722026824951,9.49213981628418,9.47710704803467,9.46212196350098,9.44718456268311,9.43229389190674,9.41744995117188,9.40265274047852,9.38790225982666,9.37319755554199,9.35853958129883,9.34392642974854,9.32936000823975,9.31483840942383,9.30036163330078,9.28592967987061,9.2715425491333,9.25720024108887,9.24290180206299,9.22864818572998,9.21443748474121,9.20027160644531,9.18614768981934,9.17206859588623,9.15803146362305,9.14403820037842,9.13008689880371,9.11617851257324,9.1023120880127,9.08848857879639,9.07470607757568,9.06050205230713,9.04179000854492,9.02315521240234,9.00459671020508,8.98611450195312,8.96770763397217,8.94937705993652,8.93112087249756,8.91293811798096,8.89483070373535,8.87679576873779,8.85883331298828,8.84094429016113,8.82312774658203,8.80538177490234,8.7877082824707,8.77010440826416,8.75257110595703,8.73510837554932,8.7177152633667,8.70039081573486,8.68313503265381,8.66594791412354,8.64882850646973,8.63177585601807,8.61479091644287,8.59787368774414,8.58102130889893,8.56423568725586,8.54751586914062,8.53086090087891,8.5142707824707,8.49774551391602,8.48128414154053,8.46488666534424,8.44855213165283,8.43228054046631,8.41607189178467,8.39992523193359,8.38383960723877,8.36781597137451,8.35185432434082,8.33595275878906,8.32011127471924,8.30433082580566,8.28860950469971,8.27294731140137,8.25734519958496,8.24180030822754,8.22631549835205,8.21088790893555,8.19551849365234,8.18020534515381,8.16495037078857,8.14975261688232,8.13461017608643,8.1195240020752,8.10449409484863,8.08951950073242,8.07460117340088,8.05973720550537,8.04492664337158,8.03017234802246,7.93482685089111,7.91051149368286,7.88634538650513,7.86232614517212,7.83846187591553,7.81291627883911,7.78621339797974,7.75969266891479,7.7333517074585,7.70718908309937,7.68120336532593,7.65539169311523,7.62975311279297,7.6042857170105,7.57898759841919,7.55385732650757,7.52889347076416,7.50409364700317,7.47945690155029,7.45498132705688,7.43066549301147,7.40717458724976,7.38562822341919,7.36420679092407,7.34293079376221,7.32182312011719,7.30083608627319,7.28022813796997,7.26181983947754,7.2435040473938,7.22528076171875,7.20714902877808,7.18910789489746,7.17115688323975,7.15329504013062,7.13552236557007,7.11783742904663,7.1002402305603,7.08272933959961,7.06530570983887,7.04796648025513,7.03071260452271,7.01354312896729,6.99645662307739,6.97945404052734,6.96253347396851,6.94569444656372,6.92893695831299,6.91226053237915,6.90699291229248,6.91034889221191,6.85953330993652,6.84135580062866,6.82327365875244,6.80528736114502,6.78739547729492,6.76959705352783,6.75189256668091,6.73428010940552,6.71675872802734,6.69932889938354,6.68198919296265,6.66473913192749,6.6475772857666,6.6305046081543,6.61351871490479,6.59661960601807,6.57980680465698,6.56307935714722,6.54643678665161,6.52987861633301,6.51340389251709,6.4970121383667,6.48070240020752,6.46447467803955,6.44832754135132,6.43226003646851,6.42326736450195,6.42825984954834,6.43325996398926,6.43826818466187,6.443284034729,6.44830799102783,6.45333957672119,6.45837879180908,6.46342611312866,6.46848154067993,6.47354459762573,6.47861576080322
13.6074686050415,13.6080102920532,13.6085510253906,13.6090898513794,13.6096315383911,13.6101770401001,13.6107130050659,13.611255645752,13.6117944717407,13.6123352050781,13.6128778457642,13.6134147644043,13.6139554977417,13.6145000457764,13.6150379180908,13.6155815124512,13.616117477417,13.6166620254517,13.6172037124634,13.6177434921265,13.6182861328125,13.6188249588013,13.6193656921387,13.6199083328247,13.6204519271851,13.6209926605225,13.6215333938599,13.6220712661743,13.622615814209,13.6231603622437,13.6236991882324,13.6242408752441,13.6247825622559,13.6253223419189,13.625864982605,13.6264047622681,13.6269483566284,13.6274909973145,13.6280317306519,13.6285762786865,13.6291198730469,13.6296548843384,13.630199432373,13.630744934082,13.6312866210938,13.6318283081055,13.6323652267456,13.6329107284546,13.6334571838379,13.633994102478,13.6345405578613,13.6350803375244,13.6356220245361,13.6361656188965,13.6367073059082,13.6372518539429,13.6377935409546,13.6383352279663,13.6388778686523,13.6394233703613,13.6399660110474,13.6405057907104,13.6410522460938,13.6415920257568,13.6421356201172,13.6426801681519,13.6432209014893,13.6437654495239,13.6443099975586,13.6448545455933,13.645396232605,13.645938873291,13.6464815139771,13.6470241546631,13.6475696563721,13.6481161117554,13.6486530303955,13.6491975784302,13.6497440338135,13.6502885818481,13.6508321762085,13.6513738632202,13.6519193649292,13.6524610519409,13.6530065536499,13.6535520553589,12.6499328613281,12.6364974975586,12.6230897903442,12.6097106933594,12.596360206604,12.5830383300781,12.5697441101074,12.5564785003662,12.5432405471802,12.5300302505493,12.5168476104736,12.5036926269531,12.4905662536621,12.477466583252,12.464394569397,12.4513492584229,12.4383325576782,12.4253416061401,12.4123792648315,12.3994426727295,12.3865337371826,12.3736515045166,12.3607959747314,12.3479671478271,12.3351640701294,12.3223886489868,12.2172594070435,11.9604339599609,11.714183807373,11.4778690338135,11.2509002685547,11.032732963562,10.8230695724487,10.7468223571777,10.6716423034668,10.597505569458,10.524393081665,10.4522819519043,10.3811521530151,10.3109836578369,10.2417573928833,10.1734552383423,10.1060571670532,10.0395469665527,9.97390556335449,9.93301010131836,9.91687679290771,9.90079593658447,9.88476753234863,9.86879062652588,9.85286521911621,9.83699035644531,9.82116794586182,9.80539608001709,9.78967380523682,9.77400302886963,9.75838184356689,9.74281024932861,9.72728824615479,9.71181583404541,9.69639301300049,9.6810188293457,9.66569328308105,9.65041637420654,9.63518714904785,9.6200065612793,9.60487270355225,9.58978748321533,9.57474899291992,9.55975818634033,9.54481315612793,9.52991580963135,9.51506423950195,9.50025939941406,9.48536205291748,9.47035026550293,9.45538711547852,9.44047069549561,9.4256010055542,9.4107780456543,9.3960018157959,9.381272315979,9.3665885925293,9.35195064544678,9.33735847473145,9.3228120803833,9.30831050872803,9.29385471343994,9.27944278717041,9.26507568359375,9.25075340270996,9.23647499084473,9.22224044799805,9.20804977416992,9.19390296936035,9.17980003356934,9.16574001312256,9.1517219543457,9.1377477645874,9.12381649017334,9.10992622375488,9.09607982635498,9.08227443695068,9.06851100921631,9.05478954315186,9.04110908508301,9.02747058868408,9.01387214660645,8.99613285064697,8.97768497467041,8.95931339263916,8.94101619720459,8.92279434204102,8.9046459197998,8.88657188415527,8.86857032775879,8.85064125061035,8.83278560638428,8.81500148773193,8.79728889465332,8.77964687347412,8.76207542419434,8.74457454681396,8.72714328765869,8.70978164672852,8.69248867034912,8.67526435852051,8.65810775756836,8.64101982116699,8.62399864196777,8.6070442199707,8.59015655517578,8.57333469390869,8.55657958984375,8.53988838195801,8.52326393127441,8.50670337677002,8.49020767211914,8.47377490997314,8.45740604400635,8.44110107421875,8.42485809326172,8.40867710113525,8.39255905151367,8.37650203704834,8.36050701141357,8.34457206726074,8.32869911193848,8.31288528442383,8.29713153839111,8.28143787384033,8.26580238342285,8.2502269744873,8.23470973968506,8.21925067901611,8.20384979248047,8.18850612640381,8.17321968078613,8.15799045562744,8.14281845092773,8.12770175933838,8.11264133453369,8.09763717651367,8.082688331604,8.06779479980469,8.05295562744141,8.03816986083984,8.02344036102295,8.00876331329346,7.91251659393311,7.8883376121521,7.86430644989014,7.84042310714722,7.81669092178345,7.79026651382446,7.76371812820435,7.73734998703003,7.71116065979004,7.68514776229858,7.65930986404419,7.63364505767822,7.60815143585205,7.58282804489136,7.55767250061035,7.5326828956604,7.50785827636719,7.48319721221924,7.4586968421936,7.43435668945312,7.41017484664917,7.38723039627075,7.36579942703247,7.34449291229248,7.32335090637207,7.30235528945923,7.2814793586731,7.2620267868042,7.24371004104614,7.22548580169678,7.20735263824463,7.1893105506897,7.17135858535767,7.15349578857422,7.13572216033936,7.1180362701416,7.10043811798096,7.08292627334595,7.06550121307373,7.04816150665283,7.03090667724609,7.01373624801636,6.99664878845215,6.97964525222778,6.96272373199463,6.94588375091553,6.92912578582764,6.91244792938232,6.9155011177063,6.91886520385742,6.92223262786865,6.92560338973999,6.82476377487183,6.80676937103271,6.78886985778809,6.77106428146362,6.75335168838501,6.73573112487793,6.71820306777954,6.70076560974121,6.68341827392578,6.66616058349609,6.64899206161499,6.63191175460815,6.61491823196411,6.59801244735718,6.58119249343872,6.56445789337158,6.54780864715576,6.53124332427979,6.51476192474365,6.49836301803589,6.48204660415649,6.46581172943115,6.44965839385986,6.43358564376831,6.4175910949707,6.41271829605103,6.41769456863403,6.42267847061157,6.42767000198364,6.4326696395874,6.43767642974854,6.44269180297852,6.44771432876587,6.45274496078491,6.45778369903564,6.46283006668091,6.4678840637207
13.5121717453003,13.5127038955688,13.5132398605347,13.5137701034546,13.5143022537231,13.5148391723633,13.5153694152832,13.5159034729004,13.5164346694946,13.5169687271118,13.517502784729,13.5180349349976,13.5185699462891,13.5191049575806,13.5196342468262,13.5201663970947,13.5207023620605,13.5212354660034,13.5217685699463,13.5222988128662,13.5228357315063,13.5233697891235,13.5239038467407,13.5244388580322,13.5249700546265,13.525505065918,13.5260400772095,13.526572227478,13.5271053314209,13.5276403427124,13.5281734466553,13.5287065505981,13.5292434692383,13.5297775268555,13.5303106307983,13.5308418273926,13.531379699707,13.5319137573242,13.5324487686157,13.5329809188843,13.5335159301758,13.5340490341187,13.5345849990845,13.5351209640503,13.5356540679932,13.536190032959,13.5367240905762,13.5372581481934,13.5377950668335,13.5383262634277,13.5388603210449,13.5393981933594,13.5399341583252,13.5404691696167,13.5409984588623,13.5415372848511,13.5420732498169,13.5426092147827,13.5431423187256,13.5436792373657,13.54421043396,13.5447473526001,13.5452842712402,13.5458192825317,13.5463542938232,13.5468893051147,13.5474243164062,13.5479621887207,13.5484981536865,13.5490312576294,13.5495672225952,13.5501041412354,13.5506401062012,13.5511741638184,13.5517110824585,13.5522451400757,13.5527801513672,13.5533208847046,13.5538558959961,13.5543880462646,13.5549268722534,13.5554656982422,12.65256690979,12.6391248703003,12.6257123947144,12.6123275756836,12.5989723205566,12.5856437683105,12.5723447799683,12.5590734481812,12.5458297729492,12.5326137542725,12.5194263458252,12.5062656402588,12.4931335449219,12.4800291061401,12.4669513702393,12.4539012908936,12.440878868103,12.4278831481934,12.4149141311646,12.4019727706909,12.3890581130981,12.3761711120605,12.3633098602295,12.3504762649536,12.3376684188843,12.3248872756958,12.3121328353882,12.2910108566284,12.0311079025269,11.7819690704346,11.5429391860962,11.3134155273438,11.0928421020508,10.8807039260864,10.7987947463989,10.7228879928589,10.6480407714844,10.5742311477661,10.5014381408691,10.4296398162842,10.3588171005249,10.2889490127563,10.2200174331665,10.152003288269,10.0848894119263,10.0186557769775,9.95328712463379,9.92514038085938,9.90903282165527,9.89297771453857,9.87697410583496,9.86102199554443,9.84512138366699,9.82927227020264,9.81347465515137,9.79772663116455,9.78203010559082,9.76638317108154,9.75078582763672,9.73523902893066,9.71974182128906,9.7042932510376,9.68889427185059,9.67354297637939,9.65824127197266,9.64298820495605,9.62778186798096,9.612624168396,9.59751415252686,9.58245182037354,9.56743717193604,9.55246829986572,9.53754711151123,9.52267169952393,9.50784301757812,9.49306011199951,9.4783239364624,9.46360397338867,9.44866180419922,9.43376636505127,9.41891765594482,9.40411567687988,9.38936042785645,9.37465190887451,9.35998916625977,9.34537124633789,9.33080005645752,9.31627368927002,9.30179214477539,9.28735637664795,9.27296543121338,9.25861835479736,9.2443151473999,9.23005676269531,9.21584224700928,9.2016716003418,9.18754482269287,9.17346096038818,9.15942001342773,9.14542198181152,9.13146686553955,9.1175537109375,9.10368347167969,9.0898551940918,9.07606887817383,9.06232452392578,9.04862117767334,9.03495979309082,9.02133941650391,9.0077600479126,8.99422168731689,8.98072338104248,8.96726608276367,8.95093441009521,8.93267154693604,8.91448402404785,8.89636898040771,8.87832832336426,8.86036014556885,8.84246444702148,8.82464122772217,8.8068904876709,8.78920936584473,8.7716007232666,8.75406169891357,8.73659229278564,8.71919345855713,8.70186328887939,8.68460083007812,8.66740798950195,8.65028285980225,8.633225440979,8.61623477935791,8.59931087493896,8.58245372772217,8.5656623840332,8.54893684387207,8.53227519989014,8.51568031311035,8.49914932250977,8.48268222808838,8.46627902984619,8.4499397277832,8.43366241455078,8.41744804382324,8.40129661560059,8.38520622253418,8.36917686462402,8.35321044921875,8.33730316162109,8.32145690917969,8.30567073822021,8.28994464874268,8.27427768707275,8.25866985321045,8.24312114715576,8.22763061523438,8.21219825744629,8.19682312011719,8.18150615692139,8.16624641418457,8.15104293823242,8.13589668273926,8.12080574035645,8.1057710647583,8.09079170227051,8.07586860656738,8.06099891662598,8.04618453979492,8.03142547607422,8.01671981811523,8.00206756591797,7.98746871948242,7.89033126831055,7.86628770828247,7.8423900604248,7.81864166259766,7.79432392120361,7.76774835586548,7.74135255813599,7.71513605117798,7.68909645080566,7.66323184967041,7.63754081726074,7.61202144622803,7.58667182922363,7.56149101257324,7.53647613525391,7.51162672042847,7.48694038391113,7.46241617202759,7.43805170059204,7.41384601593018,7.38979721069336,7.36739301681519,7.34607744216919,7.32488441467285,7.30387496948242,7.28299045562744,7.2622332572937,7.24391603469849,7.22569036483765,7.20755672454834,7.18951320648193,7.17156028747559,7.15369653701782,7.13592195510864,7.11823511123657,7.10063600540161,7.08312320709229,7.06569719314575,7.04835653305054,7.03110027313232,7.01392889022827,6.9968409538269,6.97983598709106,6.96291399002075,6.94607353210449,6.92931413650513,6.92066049575806,6.92402982711792,6.92740249633789,6.93077802658081,6.93415689468384,6.93753957748413,6.94092512130737,6.94431400299072,6.77253150939941,6.75481128692627,6.73718357086182,6.71964740753174,6.70220232009888,6.68484783172607,6.66758298873901,6.65040683746338,6.63331937789917,6.61631870269775,6.59940576553345,6.58257865905762,6.56583690643311,6.54918098449707,6.53260850906372,6.51611995697021,6.49971437454224,6.48339128494263,6.46715021133423,6.45098972320557,6.4349102973938,6.41891002655029,6.40298938751221,6.40220403671265,6.40716361999512,6.41213130950928,6.41710662841797,6.42208957672119,6.42708015441895,6.43207883834839,6.43708515167236,6.44209909439087,6.44712066650391,6.45215082168579,6.45718812942505
13.4182004928589,13.4187250137329,13.4192523956299,13.4197769165039,13.4203014373779,13.4208297729492,13.4213542938232,13.4218797683716,13.422402381897,13.4229316711426,13.4234571456909,13.4239807128906,13.4245071411133,13.4250335693359,13.42555809021,13.4260883331299,13.4266090393066,13.4271373748779,13.4276647567749,13.4281873703003,13.4287157058716,13.4292440414429,13.4297666549683,13.4302921295166,13.4308214187622,13.4313488006592,13.4318752288818,13.4323959350586,13.4329261779785,13.4334535598755,13.4339809417725,13.4345083236694,13.4350337982178,13.4355592727661,13.4360876083374,13.4366130828857,13.4371423721313,13.4376649856567,13.4381914138794,13.438720703125,13.4392509460449,13.4397745132446,13.4403018951416,13.4408292770386,13.4413576126099,13.4418849945068,13.4424104690552,13.4429388046265,13.4434642791748,13.4439897537231,13.4445219039917,13.4450483322144,13.445574760437,13.446102142334,13.4466285705566,13.4471559524536,13.4476861953735,13.4482107162476,13.4487390518188,13.4492702484131,13.4497957229614,13.4503269195557,13.450852394104,13.4513788223267,13.4519081115723,13.4524374008179,13.4529638290405,13.4534940719604,13.4540176391602,13.4545488357544,13.4550790786743,13.4556064605713,13.4561347961426,13.4566602706909,13.4571886062622,13.4577207565308,13.4582462310791,13.4587783813477,13.4593048095703,12.6417541503906,12.6283359527588,12.6149463653564,12.6015844345093,12.5882511138916,12.5749464035034,12.5616693496704,12.5484199523926,12.5351991653442,12.5220060348511,12.5088405609131,12.4957027435303,12.4825916290283,12.4695091247559,12.4564533233643,12.4434251785278,12.4304246902466,12.4174509048462,12.404504776001,12.3915843963623,12.3786916732788,12.3658256530762,12.3529863357544,12.3401737213135,12.3273878097534,12.3146276473999,12.3018951416016,12.2891874313354,12.1026229858398,11.8505449295044,11.6087532043457,11.3766307830811,11.1536092758179,10.9391632080078,10.8512725830078,10.7746286392212,10.6990604400635,10.6245441436768,10.5510587692261,10.4785823822021,10.4070959091187,10.3365774154663,10.2670087814331,10.1983699798584,10.1306428909302,10.0638093948364,9.99785232543945,9.93341827392578,9.9172830581665,9.90120124816895,9.88517093658447,9.8691930770874,9.8532657623291,9.8373908996582,9.82156658172607,9.80579280853271,9.79007053375244,9.77439785003662,9.75877571105957,9.74320220947266,9.72768020629883,9.71220588684082,9.69678211212158,9.68140602111816,9.6660795211792,9.65080070495605,9.63557052612305,9.62038898468018,9.60525417327881,9.59016799926758,9.57512760162354,9.56013584136963,9.54518985748291,9.53029155731201,9.5154390335083,9.50063228607178,9.48587226867676,9.47115802764893,9.45648860931396,9.44186496734619,9.4270715713501,9.41224384307861,9.39746284484863,9.38272857666016,9.36804008483887,9.35339832305908,9.33880138397217,9.32425022125244,9.3097448348999,9.29528331756592,9.28086757659912,9.2664966583252,9.25216960906982,9.23788642883301,9.22364807128906,9.20945358276367,9.19530200958252,9.18119430541992,9.16712951660156,9.15310859680176,9.13912963867188,9.12519359588623,9.11130046844482,9.09744834899902,9.08363914489746,9.06987190246582,9.05614566802979,9.04246139526367,9.02881908416748,9.01521682739258,9.00165557861328,8.98813533782959,8.9746561050415,8.96121692657471,8.9478178024292,8.93445873260498,8.92113876342773,8.90618801116943,8.88810729980469,8.8701000213623,8.85216522216797,8.83430290222168,8.81651306152344,8.79879379272461,8.78114604949951,8.76356887817383,8.74606227874756,8.72862434387207,8.711256980896,8.6939582824707,8.67672824859619,8.65956592559814,8.64247226715088,8.62544536590576,8.60848522186279,8.59159183502197,8.57476425170898,8.55800342559814,8.54130744934082,8.52467632293701,8.50811004638672,8.49160861968994,8.47517108917236,8.45879650115967,8.44248580932617,8.42623710632324,8.4100513458252,8.39392757415771,8.3778657913208,8.36186504364014,8.34592628479004,8.33004665374756,8.31422805786133,8.29846954345703,8.28277015686035,8.26713085174561,8.25154972076416,8.23602771759033,8.2205638885498,8.20515727996826,8.18980979919434,8.17451858520508,8.1592845916748,8.1441068649292,8.12898635864258,8.11392116546631,8.09891128540039,8.08395767211914,8.06905937194824,8.05421543121338,8.03942584991455,8.02469158172607,8.010009765625,7.99538230895996,7.98080825805664,7.96628713607788,7.86826944351196,7.8443603515625,7.82059574127197,7.79698085784912,7.77178239822388,7.74535894393921,7.71911525726318,7.69304895401001,7.66715812683105,7.64144039154053,7.61589527130127,7.59051990509033,7.5653133392334,7.54027366638184,7.51539945602417,7.49068832397461,7.46613883972168,7.44175052642822,7.41752052307129,7.39344787597656,7.36953115463257,7.34766244888306,7.32645988464355,7.30539560317993,7.2845025062561,7.26372861862183,7.24412155151367,7.22589540481567,7.20776033401489,7.18971633911133,7.17176246643066,7.15389776229858,7.13612174987793,7.11843395233154,7.10083389282227,7.08332014083862,7.06589317321777,7.04855108261108,7.03129482269287,7.01412200927734,6.99703311920166,6.98002767562866,6.96310424804688,6.9462628364563,6.92950201034546,6.92920207977295,6.93257999420166,6.93596076965332,6.93934440612793,6.9427318572998,6.94612264633179,6.94951677322388,6.95291423797607,6.95631456375122,6.95971870422363,6.7386360168457,6.72109270095825,6.70364046096802,6.68627786636353,6.66900539398193,6.65182256698608,6.63472747802734,6.61772012710571,6.60079956054688,6.58396530151367,6.56721687316895,6.55055332183838,6.53397417068481,6.51747894287109,6.5010666847229,6.48473691940308,6.4684886932373,6.45232200622559,6.4362359046936,6.4202299118042,6.4043025970459,6.38845348358154,6.39172410964966,6.39666748046875,6.40161895751953,6.40657806396484,6.41154432296753,6.4165186882019,6.42150068283081,6.42649078369141,6.43148803710938,6.43649339675903,6.44150686264038,6.4465274810791
13.3255233764648,13.3260431289673,13.3265619277954,13.3270816802979,13.3276014328003,13.3281183242798,13.3286352157593,13.3291549682617,13.3296699523926,13.3301906585693,13.3307085037231,13.331226348877,13.3317451477051,13.3322668075562,13.3327827453613,13.3333015441895,13.3338174819946,13.3343372344971,13.3348608016968,13.3353776931763,13.3358945846558,13.3364152908325,13.3369359970093,13.337456703186,13.3379745483398,13.3384895324707,13.3390111923218,13.339527130127,13.340048789978,13.3405714035034,13.3410873413086,13.341607093811,13.3421268463135,13.3426465988159,13.3431673049927,13.3436813354492,13.344202041626,13.3447265625,13.3452444076538,13.3457632064819,13.346284866333,13.3468036651611,13.3473224639893,13.3478450775146,13.3483610153198,13.3488807678223,13.349401473999,13.3499212265015,13.3504447937012,13.350962638855,13.3514833450317,13.3520040512085,13.3525228500366,13.3530435562134,13.3535623550415,13.3540849685669,13.354603767395,13.3551235198975,13.3556461334229,13.3561658859253,13.3566856384277,13.3572063446045,13.3577299118042,13.358247756958,13.3587713241577,13.3592891693115,13.3598079681396,13.3603324890137,13.3608512878418,13.3613739013672,13.3618955612183,13.3624124526978,13.3629350662231,13.3634576797485,13.3639783859253,12.6443843841553,12.6309604644775,12.6175651550293,12.6041975021362,12.590859413147,12.5775480270386,12.564266204834,12.5510110855103,12.537784576416,12.5245866775513,12.5114154815674,12.4982719421387,12.4851560592651,12.4720678329468,12.4590072631836,12.4459743499756,12.4329681396484,12.4199886322021,12.407036781311,12.3941116333008,12.3812141418457,12.3683423995972,12.3554983139038,12.342679977417,12.329888343811,12.3171234130859,12.3043851852417,12.2916736602783,12.2789878845215,12.1749925613403,11.9199228286743,11.6753206253052,11.4405555725098,11.2150459289551,10.9982538223267,10.9042634963989,10.8268718719482,10.7505702972412,10.6753377914429,10.6011505126953,10.5279874801636,10.4558267593384,10.3846492767334,10.3144340515137,10.2451620101929,10.1768140792847,10.1093721389771,10.042818069458,9.97713375091553,9.92554759979248,9.90943908691406,9.89338207244873,9.8773775100708,9.86142444610596,9.8455228805542,9.82967185974121,9.81387233734131,9.79812335968018,9.78242588043213,9.76677703857422,9.75117969512939,9.73563098907471,9.72013187408447,9.70468235015869,9.68928146362305,9.67393016815186,9.6586275100708,9.64337253570557,9.62816524505615,9.61300659179688,9.59789562225342,9.58283138275146,9.56781482696533,9.55284595489502,9.53792285919189,9.52304649353027,9.50821685791016,9.49343299865723,9.47869491577148,9.46400260925293,9.44935607910156,9.43475437164307,9.42019844055176,9.40557956695557,9.39081954956055,9.37610626220703,9.3614387512207,9.34681701660156,9.33224105834961,9.31770992279053,9.30322456359863,9.28878402709961,9.27438831329346,9.26003646850586,9.24572944641113,9.23146724700928,9.21724796295166,9.2030725479126,9.18894100189209,9.17485332489014,9.16080760955811,9.14680576324463,9.13284587860107,9.11892986297607,9.10505485534668,9.09122276306152,9.07743167877197,9.06368350982666,9.04997634887695,9.03631019592285,9.02268600463867,9.0091028213501,8.99555969238281,8.98205852508545,8.96859645843506,8.95517539978027,8.94179439544678,8.92845344543457,8.91515159606934,8.90188980102539,8.88866710662842,8.87548446655273,8.86188697814941,8.84398555755615,8.82615661621094,8.80839824676514,8.79071235656738,8.77309703826904,8.75555229187012,8.73807716369629,8.72067165374756,8.70333576202393,8.68606853485107,8.66886901855469,8.65173816680908,8.63467502593994,8.61767864227295,8.60074901580811,8.58388614654541,8.56708908081055,8.55035781860352,8.53369140625,8.51708984375,8.50055313110352,8.48408031463623,8.46767234802246,8.45132732391357,8.43504524230957,8.41882514953613,8.40266799926758,8.38657283782959,8.37053871154785,8.35456657409668,8.33865451812744,8.32280254364014,8.30701160430908,8.29128074645996,8.27560806274414,8.25999546051025,8.24444198608398,8.22894668579102,8.21350860595703,8.19812965393066,8.18280696868896,8.16754245758057,8.15233421325684,8.13718223571777,8.1220874786377,8.10704803466797,8.09206390380859,8.07713603973389,8.0622615814209,8.04744338989258,8.03267860412598,8.01796817779541,8.00331115722656,7.98870849609375,7.9741587638855,7.95966148376465,7.94521713256836,7.84633111953735,7.82255506515503,7.79892158508301,7.77543973922729,7.74937009811401,7.72309923171997,7.69700574874878,7.67108821868896,7.64534473419189,7.61977291107178,7.59437227249146,7.56913995742798,7.54407501220703,7.51917505264282,7.49443960189819,7.4698657989502,7.44545316696167,7.42119884490967,7.39710283279419,7.37316226959229,7.34937620162964,7.32803726196289,7.30694770812988,7.28601503372192,7.2652325630188,7.24456834793091,7.2261004447937,7.2079644203186,7.18991899490356,7.17196416854858,7.15409851074219,7.13632154464722,7.11863279342651,7.10103178024292,7.08351707458496,7.06608915328979,7.04874610900879,7.0314884185791,7.01431512832642,6.99722528457642,6.98021841049194,6.963294506073,6.94645214080811,6.93438243865967,6.93776512145996,6.9411506652832,6.94454002380371,6.94793224334717,6.95132827758789,6.95472717285156,6.9581298828125,6.96153545379639,6.96494436264038,6.96835708618164,6.97177267074585,6.97519207000732,6.70507860183716,6.68770885467529,6.67042922973633,6.65323877334595,6.63613605499268,6.61912155151367,6.60219430923462,6.58535289764404,6.56859731674194,6.551926612854,6.53534078598022,6.51883840560913,6.50241947174072,6.48608255386353,6.4698281288147,6.45365428924561,6.43756151199341,6.42154884338379,6.40561532974243,6.38976001739502,6.37635850906372,6.38127851486206,6.38620567321777,6.39114093780518,6.39608335494995,6.40103387832642,6.40599203109741,6.41095781326294,6.415931224823,6.42091226577759,6.42590093612671,6.43089771270752,6.43590211868286
13.2341203689575,13.2346353530884,13.235146522522,13.2356548309326,13.2361669540405,13.2366790771484,13.2371883392334,13.2377042770386,13.2382106781006,13.2387237548828,13.2392330169678,13.2397470474243,13.2402610778809,13.2407712936401,13.2412796020508,13.2417936325073,13.2423048019409,13.2428169250488,13.2433290481567,13.2438373565674,13.2443504333496,13.2448654174805,13.2453756332397,13.2458848953247,13.2464017868042,13.2469120025635,13.2474222183228,13.2479333877563,13.2484474182129,13.2489585876465,13.2494707107544,13.2499856948853,13.2504968643188,13.2510089874268,13.251522064209,13.2520313262939,13.2525444030762,13.2530603408813,13.2535705566406,13.2540836334229,13.2545976638794,13.255108833313,13.2556228637695,13.2561368942261,13.256646156311,13.2571601867676,13.2576723098755,13.2581844329834,13.2587003707886,13.2592096328735,13.2597255706787,13.2602386474609,13.2607498168945,13.2612657546997,13.2617740631104,13.2622909545898,13.2628049850464,13.26331615448,13.2638311386108,13.2643432617188,13.2648553848267,13.2653703689575,13.2658863067627,13.2663984298706,13.2669086456299,13.2674217224121,13.2679386138916,13.2684516906738,13.2689657211304,13.269476890564,13.2699937820435,13.2705087661743,12.6335859298706,12.6201848983765,12.6068124771118,12.5934677124023,12.5801515579224,12.5668640136719,12.5536041259766,12.5403718948364,12.5271682739258,12.513991355896,12.5008430480957,12.4877214431763,12.4746284484863,12.4615621566772,12.4485235214233,12.4355115890503,12.4225273132324,12.4095697402954,12.3966398239136,12.3837366104126,12.3708600997925,12.3580102920532,12.3451871871948,12.3323907852173,12.3196210861206,12.3068771362305,12.2941598892212,12.2814683914185,12.2688035964966,12.248233795166,11.9901180267334,11.7426567077637,11.5052032470703,11.2771625518799,11.0579862594604,10.9577732086182,10.8796234130859,10.8025798797607,10.726619720459,10.6517200469971,10.57785987854,10.5050163269043,10.4331693649292,10.3622989654541,10.2923851013184,10.2234077453613,10.155348777771,10.0881900787354,10.0219135284424,9.95650196075439,9.91769027709961,9.90160655975342,9.88557529449463,9.86959552764893,9.85366725921631,9.83779048919678,9.82196521759033,9.80619049072266,9.79046630859375,9.77479267120361,9.75916862487793,9.74359512329102,9.72807121276855,9.71259593963623,9.69717025756836,9.68179416656494,9.66646575927734,9.65118598937988,9.63595485687256,9.62077140808105,9.60563564300537,9.59054756164551,9.57550716400146,9.56051349639893,9.54556655883789,9.53066635131836,9.51581287384033,9.50100517272949,9.48624420166016,9.47152900695801,9.45685863494873,9.44223403930664,9.42765426635742,9.41312026977539,9.39863014221191,9.38418483734131,9.36949253082275,9.35484600067139,9.34024429321289,9.3256893157959,9.31117820739746,9.29671287536621,9.28229331970215,9.26791763305664,9.25358581542969,9.23929882049561,9.22505569458008,9.21085643768311,9.19670104980469,9.18258953094482,9.1685209274292,9.1544942855835,9.14051151275635,9.12657165527344,9.11267375946045,9.09881782531738,9.08500480651855,9.07123279571533,9.05750370025635,9.04381465911865,9.03016757965088,9.01656150817871,9.00299644470215,8.98947238922119,8.97598838806152,8.96254539489746,8.94914245605469,8.9357795715332,8.92245578765869,8.90917205810547,8.89592838287354,8.88272380828857,8.86955833435059,8.85643100738525,8.84334373474121,8.83029460906982,8.81728363037109,8.80029964447021,8.78264617919922,8.76506233215332,8.74755001068115,8.73010635375977,8.71273326873779,8.6954288482666,8.67819213867188,8.66102504730225,8.64392471313477,8.62689208984375,8.60992622375488,8.59302711486816,8.57619476318359,8.55942726135254,8.54272556304932,8.52608966827393,8.50951766967773,8.49301052093506,8.47656631469727,8.46018695831299,8.44387054443359,8.42761707305908,8.41142654418945,8.39529705047607,8.37923049926758,8.36322402954102,8.34727954864502,8.33139514923096,8.31557178497314,8.29980754852295,8.28410339355469,8.26845932006836,8.25287342071533,8.23734569549561,8.2218770980835,8.20646572113037,8.19111251831055,8.17581653594971,8.16057777404785,8.14539623260498,8.13027000427246,8.11520099639893,8.10018634796143,8.08522796630859,8.07032489776611,8.05547618865967,8.04068183898926,8.0259428024292,8.01125717163086,7.99662494659424,7.98204612731934,7.96752023696899,7.95304727554321,7.93862676620483,7.9242582321167,7.8245153427124,7.80087041854858,7.77736949920654,7.75338506698608,7.72708654403687,7.70096635818481,7.67502212524414,7.64925241470337,7.62365484237671,7.59822797775269,7.57296991348267,7.54787969589233,7.5229549407959,7.49819421768188,7.47359609603882,7.44915914535522,7.42488098144531,7.40076065063477,7.37679672241211,7.35298728942871,7.32961463928223,7.30851602554321,7.28753900527954,7.26673698425293,7.24606418609619,7.22630548477173,7.20816802978516,7.1901216506958,7.1721658706665,7.15429925918579,7.1365213394165,7.11883163452148,7.10122919082642,7.0837140083313,7.06628513336182,7.04894113540649,7.03168249130249,7.01450824737549,6.99741744995117,6.98040962219238,6.96348476409912,6.94664144515991,6.94295787811279,6.94634866714478,6.94974327087402,6.95314073562622,6.95654153823853,6.95994567871094,6.96335315704346,6.96676397323608,6.97017812728882,6.97359609603882,6.97701692581177,6.98044109344482,6.98386859893799,6.98729991912842,6.9907341003418,6.67185354232788,6.65465545654297,6.63754558563232,6.62052440643311,6.60358905792236,6.58674097061157,6.5699782371521,6.55330085754395,6.53670787811279,6.52019882202148,6.5037727355957,6.48742961883545,6.47116756439209,6.45498752593994,6.43888807296753,6.4228687286377,6.40692853927612,6.39106750488281,6.37528467178345,6.36596298217773,6.3708667755127,6.37577819824219,6.38069725036621,6.38562345504761,6.39055776596069,6.39549970626831,6.4004487991333,6.40540599822998,6.41037082672119,6.41534328460693,6.42032384872437,6.42531156539917
13.1439657211304,13.1444692611694,13.1449728012085,13.1454772949219,13.1459817886353,13.1464862823486,13.1469879150391,13.1474962234497,13.1479978561401,13.1485033035278,13.1490087509155,13.1495122909546,13.1500148773193,13.1505241394043,13.1510248184204,13.1515312194824,13.1520357131958,13.1525392532349,13.1530466079712,13.1535482406616,13.1540565490723,13.1545610427856,13.1550636291504,13.155571937561,13.1560773849487,13.1565799713135,13.1570863723755,13.1575860977173,13.1580963134766,13.1586027145386,13.1591062545776,13.159610748291,13.1601181030273,13.1606225967407,13.1611270904541,13.1616325378418,13.1621408462524,13.1626434326172,13.1631488800049,13.1636543273926,13.1641607284546,13.1646671295166,13.1651706695557,13.1656770706177,13.1661806106567,13.1666879653931,13.1671953201294,13.1676998138428,13.1682081222534,13.1687135696411,13.1692218780518,13.1697273254395,13.1702289581299,13.1707382202148,13.1712417602539,13.1717510223389,13.1722574234009,13.1727609634399,13.1732683181763,13.1737785339355,13.1742830276489,13.1747875213623,13.1752948760986,13.1758003234863,13.176308631897,13.1768140792847,13.1773223876953,13.1778287887573,12.6362133026123,12.6228065490723,12.6094284057617,12.5960779190063,12.5827569961548,12.5694627761841,12.5561981201172,12.5429601669312,12.5297508239746,12.5165691375732,12.5034151077271,12.490288734436,12.4771890640259,12.4641180038452,12.4510736465454,12.4380569458008,12.425066947937,12.4121046066284,12.3991689682007,12.3862600326538,12.3733787536621,12.3605241775513,12.347695350647,12.3348941802979,12.3221187591553,12.3093700408936,12.2966470718384,12.2839508056641,12.2712812423706,12.2586374282837,12.2460193634033,12.0611448287964,11.8107738494873,11.5705852508545,11.3399724960327,11.1183710098267,11.0118112564087,10.9328908920288,10.8550939559937,10.7783966064453,10.7027750015259,10.6282072067261,10.5546712875366,10.4821462631226,10.4106111526489,10.3400449752808,10.2704296112061,10.2017450332642,10.1339731216431,10.0670957565308,10.0010957717896,9.93595504760742,9.90984439849854,9.89378643035889,9.87778091430664,9.86182594299316,9.84592342376709,9.83007144927979,9.81427097320557,9.79852104187012,9.78282070159912,9.76717185974121,9.75157260894775,9.73602294921875,9.7205228805542,9.70507144927979,9.68966960906982,9.67431735992432,9.65901279449463,9.64375686645508,9.62854862213135,9.61338901519775,9.59827613830566,9.58321094512939,9.56819343566895,9.55322265625,9.53829860687256,9.52342128753662,9.50859069824219,9.49380493164062,9.47906684875488,9.4643726348877,9.44972515106201,9.4351224899292,9.42056465148926,9.4060525894165,9.3915843963623,9.37716102600098,9.3627815246582,9.34826278686523,9.3336820602417,9.31914615631104,9.30465602874756,9.29021167755127,9.27581119537354,9.26145553588867,9.24714469909668,9.23287677764893,9.21865367889404,9.20447444915771,9.19033813476562,9.17624568939209,9.16219711303711,9.14819049835205,9.13422679901123,9.12030506134033,9.10642719268799,9.09259033203125,9.07879543304443,9.06504249572754,9.05133152008057,9.0376615524292,9.02403354644775,9.0104455947876,8.99689865112305,8.9833927154541,8.96992778778076,8.95650291442871,8.94311714172363,8.92977237701416,8.91646671295166,8.90320110321045,8.88997459411621,8.87678813934326,8.86363983154297,8.85053062438965,8.8374605178833,8.82442855834961,8.81143474578857,8.7984790802002,8.78556251525879,8.77268314361572,8.75704288482666,8.73956203460693,8.7221508026123,8.70480918884277,8.68753528594971,8.67033100128174,8.65319442749023,8.63612461090088,8.6191234588623,8.60218811035156,8.58531951904297,8.56851673126221,8.55177974700928,8.53510761260986,8.51850128173828,8.5019588470459,8.48548030853271,8.46906566619873,8.45271492004395,8.43642807006836,8.42020320892334,8.40404033660889,8.387939453125,8.37190055847168,8.35592269897461,8.34000587463379,8.3241491317749,8.30835247039795,8.29261684417725,8.27693939208984,8.26132202148438,8.24576282501221,8.23026180267334,8.21481990814209,8.19943523406982,8.18410873413086,8.16883850097656,8.15362644195557,8.13846969604492,8.12336921691895,8.10832595825195,8.093337059021,8.07840347290039,8.06352519989014,8.04870223999023,8.03393268585205,8.0192174911499,8.00455665588379,7.98994874954224,7.9753942489624,7.96089267730713,7.94644403457642,7.93204736709595,7.91770315170288,7.9034104347229,7.80281972885132,7.77930593490601,7.75593614578247,7.73107862472534,7.70493125915527,7.6789608001709,7.65316390991211,7.62754011154175,7.60208749771118,7.57680416107178,7.55168867111206,7.52673864364624,7.501953125,7.47733068466187,7.45286846160889,7.42856645584106,7.40442228317261,7.38043451309204,7.35660171508789,7.33292245864868,7.31008529663086,7.28909873962402,7.26824235916138,7.24756050109863,7.22699689865112,7.20837211608887,7.1903247833252,7.17236757278442,7.15450000762939,7.13672113418579,7.11903047561646,7.10142755508423,7.08391094207764,7.06648063659668,7.0491361618042,7.03187656402588,7.01470136642456,6.99760961532593,6.98060131072998,6.96367502212524,6.94815874099731,6.95155477523804,6.95495414733887,6.9583568572998,6.96176242828369,6.96517181396484,6.9685845375061,6.97200059890747,6.97541999816895,6.97884273529053,6.98226881027222,6.98569822311401,6.98913097381592,6.99256706237793,6.99600648880005,6.99944972991943,7.00289583206177,7.00634574890137,7.00979900360107,6.62192678451538,6.60498476028442,6.58812952041626,6.57135963439941,6.55467557907104,6.53807544708252,6.521559715271,6.50512647628784,6.48877620697021,6.4725079536438,6.45632123947144,6.44021463394165,6.4241886138916,6.40824270248413,6.39237499237061,6.37658596038818,6.36087369918823,6.35560083389282,6.36048889160156,6.36538410186768,6.37028741836548,6.37519788742065,6.38011598587036,6.3850417137146,6.38997459411621,6.39491558074951,6.39986419677734,6.40482044219971,6.4097843170166,6.41475582122803
13.0550260543823,13.0555257797241,13.056022644043,13.0565195083618,13.0570192337036,13.0575170516968,13.0580110549927,13.0585117340088,13.059006690979,13.0595045089722,13.0600032806396,13.0604982376099,13.0609979629517,13.0614967346191,13.0619955062866,13.0624923706055,13.0629854202271,13.0634889602661,13.0639886856079,13.0644826889038,13.064980506897,13.0654773712158,13.0659761428833,13.0664768218994,13.0669784545898,13.0674705505371,13.0679693222046,13.0684680938721,13.0689678192139,13.0694665908813,13.0699634552002,13.070463180542,13.0709600448608,13.071460723877,13.0719585418701,13.072452545166,13.0729532241821,13.0734548568726,13.0739526748657,13.0744514465332,13.0749502182007,13.0754489898682,13.07594871521,13.0764474868774,13.0769472122192,13.0774440765381,13.0779409408569,13.0784406661987,13.0789451599121,13.079442024231,13.0799398422241,13.0804376602173,13.0809392929077,13.0814380645752,13.0819368362427,13.0824356079102,13.0829343795776,13.0834341049194,13.0839338302612,13.084436416626,13.0849332809448,13.0854339599609,13.0859336853027,13.0864343643188,13.0869359970093,12.6254281997681,12.6120452880859,12.5986890792847,12.5853624343872,12.5720634460449,12.5587921142578,12.5455493927002,12.5323343276978,12.5191469192505,12.5059881210327,12.4928560256958,12.4797515869141,12.4666748046875,12.4536247253418,12.4406032562256,12.4276075363159,12.4146404266357,12.4016990661621,12.3887853622437,12.3758983612061,12.3630380630493,12.3502044677734,12.3373975753784,12.3246173858643,12.311863899231,12.2991361618042,12.286434173584,12.2737598419189,12.2611103057861,12.2484874725342,12.2358903884888,12.1330184936523,11.8796854019165,11.6367149353027,11.4034843444824,11.1794195175171,11.066385269165,10.98668384552,10.9081220626831,10.8306760787964,10.7543210983276,10.6790361404419,10.6047973632812,10.5315837860107,10.4593744277954,10.3881492614746,10.3178863525391,10.2485675811768,10.1801748275757,10.1126880645752,10.0460910797119,9.98036479949951,9.9180965423584,9.90201187133789,9.88597869873047,9.86999797821045,9.85406875610352,9.83819103240967,9.82236385345459,9.8065881729126,9.79086303710938,9.77518749237061,9.75956249237061,9.74398803710938,9.72846221923828,9.71298599243164,9.69755935668945,9.6821813583374,9.66685199737549,9.65157127380371,9.63633823394775,9.62115383148193,9.60601711273193,9.59092807769775,9.57588577270508,9.56089115142822,9.54594326019287,9.53104209899902,9.51618766784668,9.50137901306152,9.48661613464355,9.47189903259277,9.4572286605835,9.44260215759277,9.42802143096924,9.41348648071289,9.3989953994751,9.38454914093018,9.37014675140381,9.35578918457031,9.34147548675537,9.32712841033936,9.31261348724365,9.29814338684082,9.28371906280518,9.26933860778809,9.25500297546387,9.2407112121582,9.22646427154541,9.21226024627686,9.19810104370117,9.18398475646973,9.16991138458252,9.15588188171387,9.14189434051514,9.12794971466064,9.11404800415039,9.10018825531006,9.08637046813965,9.07259464263916,9.05886077880859,9.04516792297363,9.03151702880859,9.01790714263916,9.00433826446533,8.99080944061279,8.97732162475586,8.96387481689453,8.95046806335449,8.93710041046143,8.92377281188965,8.91048622131348,8.89723777770996,8.88402938842773,8.87086009979248,8.85772895812988,8.84463787078857,8.83158493041992,8.81857013702393,8.80559349060059,8.79265594482422,8.77975559234619,8.76689338684082,8.75406837463379,8.74128150939941,8.72853088378906,8.71420955657959,8.6968994140625,8.67965698242188,8.66248321533203,8.64537811279297,8.62833976745605,8.61136817932129,8.59446334838867,8.5776252746582,8.56085300445557,8.54414558410645,8.52750301361084,8.51092624664307,8.49441337585449,8.47796440124512,8.46157836914062,8.44525623321533,8.42899799346924,8.41280174255371,8.39666748046875,8.38059520721436,8.36458396911621,8.34863376617432,8.33274459838867,8.31691551208496,8.30114650726318,8.28543758392334,8.26978778839111,8.2541971206665,8.2386646270752,8.22319030761719,8.2077751159668,8.19241714477539,8.17711639404297,8.16187286376953,8.14668560028076,8.13155460357666,8.11648082733154,8.10146141052246,8.08649826049805,8.07159042358398,8.05673789978027,8.04193878173828,8.02719497680664,8.01250457763672,7.99786758422852,7.98328447341919,7.96875381469727,7.95427656173706,7.93985176086426,7.9254789352417,7.91115856170654,7.89688920974731,7.88267135620117,7.7812442779541,7.75786018371582,7.73462104797363,7.70890045166016,7.68290281295776,7.65708017349243,7.63142967224121,7.6059513092041,7.58064222335815,7.55550146102905,7.53052616119385,7.50571584701538,7.48106813430786,7.45658206939697,7.43225574493408,7.40808773040771,7.38407611846924,7.36021995544434,7.33651733398438,7.31296682357788,7.29065942764282,7.26978492736816,7.24905776977539,7.22848510742188,7.20857620239258,7.19052791595459,7.1725697517395,7.154700756073,7.13692092895508,7.11922931671143,7.10162544250488,7.08410787582397,7.06667709350586,7.0493311882019,7.03207063674927,7.01489448547363,6.99780178070068,6.98079204559326,6.96386528015137,6.95676851272583,6.96017265319824,6.96358060836792,6.96699142456055,6.97040605545044,6.97382402420044,6.97724485397339,6.9806694984436,6.98409748077393,6.9875283241272,6.99096298217773,6.99440097808838,6.99784231185913,7.00128746032715,7.00473546981812,7.00818681716919,7.01164197921753,7.01510000228882,7.01856184005737,7.02202701568604,7.0254955291748,6.58951854705811,6.57274198532104,6.5560507774353,6.5394434928894,6.52292060852051,6.50648069381714,6.4901237487793,6.47384881973267,6.45765495300293,6.44154214859009,6.42550992965698,6.40955686569214,6.39368295669556,6.37788772583008,6.36216974258423,6.34652853012085,6.3452730178833,6.35014486312866,6.35502433776855,6.35991144180298,6.36480617523193,6.36970806121826,6.37461757659912,6.37953472137451,6.38445949554443,6.38939189910889,6.39433193206787,6.39927959442139,6.40423488616943
12.9672861099243,12.9677782058716,12.9682683944702,12.9687547683716,12.9692478179932,12.9697418212891,12.9702291488647,12.9707221984863,12.9712104797363,12.9717016220093,12.9721927642822,12.9726839065552,12.9731760025024,12.9736680984497,12.974157333374,12.9746494293213,12.9751396179199,12.9756317138672,12.9761219024658,12.9766120910645,12.977105140686,12.9775991439819,12.9780902862549,12.9785814285278,12.9790725708008,12.9795637130737,12.980055809021,12.9805479049683,12.9810361862183,12.9815320968628,12.9820213317871,12.9825143814087,12.9830074310303,12.9834938049316,12.9839878082275,12.9844779968262,12.9849720001221,12.985466003418,12.985954284668,12.9864482879639,12.9869432449341,12.9874315261841,12.9879274368286,12.9884166717529,12.9889087677002,12.9894018173218,12.989893913269,12.9903869628906,12.9908781051636,12.9913711547852,12.9918651580811,12.992359161377,12.9928503036499,12.9933414459229,12.9938325881958,12.9943246841431,12.9948196411133,12.9953117370605,12.9958038330078,12.9962997436523,12.996789932251,12.6280517578125,12.6146631240845,12.6013021469116,12.5879688262939,12.5746650695801,12.5613880157471,12.5481395721436,12.5349197387695,12.5217266082764,12.5085620880127,12.4954242706299,12.4823150634766,12.4692325592041,12.4561777114868,12.4431505203247,12.4301500320435,12.4171762466431,12.4042301177979,12.3913116455078,12.3784189224243,12.365553855896,12.3527145385742,12.3399028778076,12.3271169662476,12.3143577575684,12.30162525177,12.2889194488525,12.2762384414673,12.2635850906372,12.2509565353394,12.2383546829224,12.2257785797119,12.205753326416,11.949405670166,11.7036046981812,11.4677124023438,11.2411413192749,11.1215028762817,11.0410079956055,10.961669921875,10.8834648132324,10.8063669204712,10.7303533554077,10.6554021835327,10.5814914703369,10.5085983276367,10.4367027282715,10.3657836914062,10.2958221435547,10.2267990112305,10.1586952209473,10.0914926528931,10.0251731872559,9.95971965789795,9.91025066375732,9.89419174194336,9.87818431854248,9.86222839355469,9.84632396697998,9.83047103881836,9.81466865539551,9.79891777038574,9.78321647644043,9.76756572723389,9.75196552276611,9.73641490936279,9.72091293334961,9.7054615020752,9.6900577545166,9.67470359802246,9.65939807891846,9.64414119720459,9.62893199920654,9.61377048492432,9.59865665435791,9.58359050750732,9.56857204437256,9.5536003112793,9.53867530822754,9.52379608154297,9.50896453857422,9.49417781829834,9.47943782806396,9.46474361419678,9.45009422302246,9.43549060821533,9.42093181610107,9.40641784667969,9.39194869995117,9.37752437591553,9.36314392089844,9.3488073348999,9.33451461791992,9.3202657699585,9.30605983734131,9.29163932800293,9.27723503112793,9.26287460327148,9.24855899810791,9.23428821563721,9.22006034851074,9.20587635040283,9.19173622131348,9.17763900756836,9.1635856628418,9.14957523345947,9.13560676574707,9.12168216705322,9.10779857635498,9.09395790100098,9.08015918731689,9.06640243530273,9.0526876449585,9.03901290893555,9.02538108825684,9.01178932189941,8.9982385635376,8.98472881317139,8.97125911712646,8.95782947540283,8.9444408416748,8.93109226226807,8.9177827835083,8.90451240539551,8.89128303527832,8.87809181213379,8.86493968963623,8.85182666778564,8.83875274658203,8.82571697235107,8.81271934509277,8.79976081848145,8.78683948516846,8.77395629882812,8.76111125946045,8.74830341339111,8.73553276062012,8.72279930114746,8.71010303497314,8.69744396209717,8.68482112884521,8.67179298400879,8.65465068817139,8.63757514953613,8.62056827545166,8.60362720489502,8.58675289154053,8.56994438171387,8.55320167541504,8.53652477264404,8.51991271972656,8.50336456298828,8.48688125610352,8.47046089172363,8.45410442352295,8.43781089782715,8.42158126831055,8.4054126739502,8.38930702209473,8.37326240539551,8.35727977752686,8.34135723114014,8.32549571990967,8.30969429016113,8.29395294189453,8.27827072143555,8.26264762878418,8.24708461761475,8.2315788269043,8.21613121032715,8.20074272155762,8.18541049957275,8.17013549804688,8.15491771697998,8.13975715637207,8.12465190887451,8.10960292816162,8.0946102142334,8.07967185974121,8.06478881835938,8.04996109008789,8.03518676757812,8.02046775817871,8.00580215454102,7.99118995666504,7.97663068771362,7.96212434768677,7.94767141342163,7.93327045440674,7.91892147064209,7.90462446212769,7.89037895202637,7.87618446350098,7.86204099655151,7.75978803634644,7.73653268814087,7.7128734588623,7.68684911727905,7.66099977493286,7.6353235244751,7.60981893539429,7.58448457717896,7.55931758880615,7.53431749343872,7.50948238372803,7.48480987548828,7.46029949188232,7.43594884872437,7.41175699234009,7.3877215385437,7.36384201049805,7.34011554718018,7.31654214859009,7.29311943054199,7.27133750915527,7.250572681427,7.2299747467041,7.20950984954834,7.19073057174683,7.17277145385742,7.15490198135376,7.13712120056152,7.1194281578064,7.10182285308838,7.08430480957031,7.06687307357788,7.04952621459961,7.03226470947266,7.01508760452271,6.99799394607544,6.9809832572937,6.96405553817749,6.96539926528931,6.96881246566772,6.97222852706909,6.97564792633057,6.97907114028931,6.982497215271,6.98592710494995,6.98935985565186,6.99279642105103,6.9962363243103,6.99967908859253,7.00312566757202,7.00657558441162,7.01002931594849,7.0134859085083,7.01694583892822,7.02040958404541,7.02387666702271,7.02734708786011,7.03082084655762,7.03429841995239,7.03316831588745,7.0202522277832,6.55742597579956,6.54081249237061,6.52428245544434,6.50783586502075,6.4914722442627,6.47519016265869,6.4589900970459,6.44287061691284,6.42683124542236,6.41087198257446,6.39499139785767,6.37918949127197,6.36346530914307,6.34781885147095,6.33224773406982,6.33497858047485,6.33983469009399,6.34469842910767,6.34956932067871,6.35444784164429,6.35933399200439,6.36422777175903,6.36912870407104,6.37403726577759,6.37895393371582,6.38387775421143,6.38880920410156,6.39374828338623
12.8807153701782,12.8812017440796,12.8816843032837,12.8821668624878,12.8826541900635,12.8831405639648,12.8836212158203,12.8841047286987,12.8845891952515,12.8850736618042,12.8855609893799,12.8860425949097,12.8865280151367,12.8870134353638,12.8874950408936,12.8879842758179,12.888463973999,12.8889493942261,12.8894357681274,12.8899192810059,12.8904066085815,12.89089012146,12.8913736343384,12.8918581008911,12.8923454284668,12.8928308486938,12.8933124542236,12.8937969207764,12.8942823410034,12.8947715759277,12.8952541351318,12.8957395553589,12.8962259292603,12.8967094421387,12.89719581604,12.8976793289185,12.8981666564941,12.8986501693726,12.8991384506226,12.8996229171753,12.900110244751,12.9005928039551,12.9010810852051,12.9015693664551,12.9020519256592,12.9025373458862,12.9030208587646,12.9035062789917,12.9039964675903,12.9044799804688,12.9049663543701,12.9054536819458,12.9059381484985,12.9064254760742,12.906909942627,12.907398223877,12.907883644104,12.9083652496338,12.6172819137573,12.6039152145386,12.5905771255493,12.5772666931152,12.5639848709106,12.5507307052612,12.5375051498413,12.5243072509766,12.511137008667,12.4979944229126,12.4848785400391,12.471791267395,12.4587316513062,12.4456987380981,12.432692527771,12.419713973999,12.4067630767822,12.3938388824463,12.3809404373169,12.368070602417,12.3552265167236,12.3424091339111,12.3296184539795,12.3168535232544,12.3041162490845,12.2914047241211,12.2787189483643,12.2660598754883,12.2534265518188,12.2408199310303,12.2282390594482,12.2156829833984,12.2031536102295,12.0199499130249,11.7712688446045,11.5326681137085,11.3035488128662,11.1771717071533,11.095871925354,11.0157470703125,10.9367704391479,10.8589181900024,10.7821664810181,10.7064924240112,10.6318731307983,10.5582866668701,10.4857120513916,10.4141283035278,10.3435144424438,10.2738523483276,10.2051229476929,10.1373062133789,10.070384979248,10.0043420791626,9.93915939331055,9.90241718292236,9.88638305664062,9.87040138244629,9.85447025299072,9.83859157562256,9.82276344299316,9.80698585510254,9.79125881195068,9.7755823135376,9.75995635986328,9.74437999725342,9.72885322570801,9.71337604522705,9.69794750213623,9.68256855010986,9.66723823547363,9.65195655822754,9.63672256469727,9.62153625488281,9.6063985824585,9.59130859375,9.57626533508301,9.56126880645752,9.54631996154785,9.53141784667969,9.51656150817871,9.50175189971924,9.48698806762695,9.47227001190186,9.45759773254395,9.44297122955322,9.42838954925537,9.41385269165039,9.39936065673828,9.38491344451904,9.37051010131836,9.35615062713623,9.34183597564697,9.32756423950195,9.3133373260498,9.29915237426758,9.28501129150391,9.27076053619385,9.25642013549805,9.24212455749512,9.22787284851074,9.21366500854492,9.19950103759766,9.18537998199463,9.17130279541016,9.15726852416992,9.14327716827393,9.12932872772217,9.11542224884033,9.10155868530273,9.08773708343506,9.07395648956299,9.06021881103516,9.04652214050293,9.03286647796631,9.01925277709961,9.00568008422852,8.99214744567871,8.97865581512451,8.9652042388916,8.95179271697998,8.93842220306396,8.92509078979492,8.91179943084717,8.8985481262207,8.88533496856689,8.87216186523438,8.85902786254883,8.84593200683594,8.83287525177002,8.81985664367676,8.80687713623047,8.79393482208252,8.78103065490723,8.76816463470459,8.75533676147461,8.74254608154297,8.72979164123535,8.71707534790039,8.70439529418945,8.69175338745117,8.6791467666626,8.66657733917236,8.65404510498047,8.64154720306396,8.6290864944458,8.6128101348877,8.5959005355835,8.57905578613281,8.56227779388428,8.54556560516357,8.52891731262207,8.5123348236084,8.49581623077393,8.47936248779297,8.46297073364258,8.4466438293457,8.43037891387939,8.41417694091797,8.39803791046143,8.38195991516113,8.36594390869141,8.34998798370361,8.33409404754639,8.31826019287109,8.30248641967773,8.28677177429199,8.27111721038818,8.25552082061768,8.23998355865479,8.22450542449951,8.20908451080322,8.19372177124023,8.17841625213623,8.16316699981689,8.14797496795654,8.13284015655518,8.11776065826416,8.10273742675781,8.08776950836182,8.07285690307617,8.05799865722656,8.0431957244873,8.02844715118408,8.01375198364258,7.99911069869995,7.98452281951904,7.96998834609985,7.95550632476807,7.94107675552368,7.9266996383667,7.91237497329712,7.89810085296631,7.8838791847229,7.86970806121826,7.85558795928955,7.84151887893677,7.73844957351685,7.71532154083252,7.69079971313477,7.66492366790771,7.63922119140625,7.61369037628174,7.58833026885986,7.56313800811768,7.53811264038086,7.51325178146362,7.48855543136597,7.46402025222778,7.43964576721191,7.41542911529541,7.39137029647827,7.36746692657471,7.34371757507324,7.3201208114624,7.29667568206787,7.2733793258667,7.25211668014526,7.23146438598633,7.21099185943604,7.19093322753906,7.1729736328125,7.15510272979736,7.13732099533081,7.11962747573853,7.10202121734619,7.08450174331665,7.06706857681274,7.04972124099731,7.03245878219604,7.01528072357178,6.9981861114502,6.9811749458313,6.97063398361206,6.97405195236206,6.97747325897217,6.98089790344238,6.98432588577271,6.98775768280029,6.99119234085083,6.99463033676147,6.99807214736938,7.00151681900024,7.00496530532837,7.0084171295166,7.01187229156494,7.01533079147339,7.0187931060791,7.02225828170776,7.02572727203369,7.02919960021973,7.03267526626587,7.03615427017212,7.03963661193848,7.042649269104,7.02969789505005,7.01679372787476,7.00393724441528,6.99112796783447,6.52564477920532,6.50919151306152,6.49282073974609,6.47653198242188,6.46032524108887,6.4441990852356,6.4281530380249,6.41218709945679,6.39629983901978,6.38049173355103,6.36476135253906,6.34910821914673,6.33353185653687,6.31988430023193,6.32471704483032,6.3295578956604,6.33440542221069,6.33926057815552,6.34412336349487,6.34899377822876,6.35387134552002,6.35875654220581,6.36364936828613,6.36854982376099,6.37345743179321,6.37837314605713,6.38329601287842
12.7952890396118,12.7957715988159,12.7962484359741,12.796724319458,12.7972049713135,12.7976846694946,12.7981586456299,12.7986392974854,12.7991170883179,12.7995948791504,12.8000726699829,12.8005485534668,12.8010301589966,12.8015079498291,12.80198097229,12.8024635314941,12.802939414978,12.8034191131592,12.8038988113403,12.8043756484985,12.8048524856567,12.8053331375122,12.8058109283447,12.8062915802002,12.8067693710327,12.8072443008423,12.8077259063721,12.8082046508789,12.8086833953857,12.8091621398926,12.8096380233765,12.8101177215576,12.8106002807617,12.8110771179199,12.8115539550781,12.8120307922363,12.8125143051147,12.8129949569702,12.8134698867798,12.8139505386353,12.8144292831421,12.8149108886719,12.8153886795044,12.8158712387085,12.8163471221924,12.8168258666992,12.8173027038574,12.8177852630615,12.8182678222656,12.8187417984009,12.8192224502563,12.8197031021118,12.82017993927,12.8206615447998,12.6199016571045,12.6065292358398,12.5931854248047,12.579870223999,12.5665826797485,12.5533237457275,12.5400924682617,12.5268888473511,12.5137128829956,12.5005645751953,12.4874439239502,12.4743509292603,12.4612855911255,12.4482479095459,12.4352369308472,12.4222526550293,12.4092960357666,12.3963661193848,12.3834638595581,12.370587348938,12.357738494873,12.344916343689,12.3321199417114,12.3193502426147,12.3066072463989,12.293890953064,12.2812004089355,12.268536567688,12.2558975219727,12.2432861328125,12.2306995391846,12.2181396484375,12.2056045532227,12.1930952072144,12.0913314819336,11.8397188186646,11.5983638763428,11.3666524887085,11.2334012985229,11.1512842178345,11.0703592300415,10.9906005859375,10.9119834899902,10.8344821929932,10.758074760437,10.6827373504639,10.6084470748901,10.5351839065552,10.4629249572754,10.3916511535645,10.3213415145874,10.2519769668579,10.1835384368896,10.1160068511963,10.0493659973145,9.98359680175781,9.9186840057373,9.89459609985352,9.87858772277832,9.86262989044189,9.84672451019287,9.83087062835693,9.81506729125977,9.79931449890137,9.78361225128174,9.76796054840088,9.75235843658447,9.73680686950684,9.72130393981934,9.70585060119629,9.6904468536377,9.67509078979492,9.6597843170166,9.6445255279541,9.62931537628174,9.6141529083252,9.59903812408447,9.58397102355957,9.56895065307617,9.55397701263428,9.5390510559082,9.52417087554932,9.50933742523193,9.49455070495605,9.47980976104736,9.46511363983154,9.45046329498291,9.43585872650146,9.42129898071289,9.40678405761719,9.39231395721436,9.37788772583008,9.36350631713867,9.34916877746582,9.33487510681152,9.32062435150146,9.30641841888428,9.29225444793701,9.2781343460083,9.26405715942383,9.24997520446777,9.23569869995117,9.22146701812744,9.20727920532227,9.19313430786133,9.17903327941895,9.1649751663208,9.15095996856689,9.13698863983154,9.1230583190918,9.10917186737061,9.09532642364502,9.08152389526367,9.06776237487793,9.05404376983643,9.04036521911621,9.02672863006592,9.01313304901123,8.99957847595215,8.98606395721436,8.97259044647217,8.95915794372559,8.94576454162598,8.93241214752197,8.91909885406494,8.90582466125488,8.89259052276611,8.87939548492432,8.86624050140381,8.85312366485596,8.84004497528076,8.82700634002686,8.81400489807129,8.80104160308838,8.78811740875244,8.77523040771484,8.7623815536499,8.7495698928833,8.73679542541504,8.72405910491943,8.71135902404785,8.69869613647461,8.68606948852539,8.67348003387451,8.66092681884766,8.64841079711914,8.63593006134033,8.62348461151123,8.61107635498047,8.5987024307251,8.58636474609375,8.57137298583984,8.55462455749512,8.53794193267822,8.52132415771484,8.50477123260498,8.48828220367432,8.47185611724854,8.45549488067627,8.43919563293457,8.42295932769775,8.40678596496582,8.39067459106445,8.37462520599365,8.3586368560791,8.3427095413208,8.32684326171875,8.31103706359863,8.29528999328613,8.27960300445557,8.26397514343262,8.24840641021729,8.23289585113525,8.21744346618652,8.20204925537109,8.18671226501465,8.1714334487915,8.15620994567871,8.14104461669922,8.12593460083008,8.11088180541992,8.0958833694458,8.08094024658203,8.06605339050293,8.05122089385986,8.03644180297852,8.02171802520752,8.00704765319824,7.99243068695068,7.97786712646484,7.96335649490356,7.94889879226685,7.93449354171753,7.92014026641846,7.90583848953247,7.89158868789673,7.87738990783691,7.86324262619019,7.84914541244507,7.83509874343872,7.82110261917114,7.71722888946533,7.6942286491394,7.66885137557983,7.64312267303467,7.61756610870361,7.59217977523804,7.56696224212646,7.54191160202026,7.5170259475708,7.49230432510376,7.46774482727051,7.44334554672241,7.41910552978516,7.39502239227295,7.37109565734863,7.34732294082642,7.32370328903198,7.3002347946167,7.27691650390625,7.25374603271484,7.23299789428711,7.21247339248657,7.19210815429688,7.17317533493042,7.15530347824097,7.1375207901001,7.1198263168335,7.10221910476685,7.08469867706299,7.06726503372192,7.04991626739502,7.03265285491943,7.01547384262085,6.99837827682495,6.98136615753174,6.97929954528809,6.98272562026978,6.98615550994873,6.98958873748779,6.99302577972412,6.9964656829834,6.99990892410278,7.00335597991943,7.00680589675903,7.0102596282959,7.01371669769287,7.01717710494995,7.02064085006714,7.02410793304443,7.02757883071899,7.0310525894165,7.03453016281128,7.03801107406616,7.04149580001831,7.04498338699341,7.04847478866577,7.03916883468628,7.0262303352356,7.01333904266357,7.00049543380737,6.98769807815552,6.97494792938232,6.96224403381348,6.94958639144897,6.47787475585938,6.46166086196899,6.44552803039551,6.42947578430176,6.41350317001343,6.39760971069336,6.38179492950439,6.36605787277222,6.35039854049683,6.33481597900391,6.31930923461914,6.3096718788147,6.31448936462402,6.31931400299072,6.32414627075195,6.32898569107056,6.33383274078369,6.3386869430542,6.3435492515564,6.34841871261597,6.35329532623291,6.35817956924438,6.36307144165039,6.36797094345093,6.37287759780884
12.7109966278076,12.7114696502686,12.7119398117065,12.7124099731445,12.7128810882568,12.7133541107178,12.7138252258301,12.7142963409424,12.714768409729,12.7152395248413,12.7157144546509,12.7161836624146,12.7166557312012,12.7171277999878,12.7175979614258,12.7180738449097,12.7185440063477,12.7190141677856,12.7194871902466,12.7199583053589,12.7204322814941,12.7209062576294,12.7213773727417,12.721848487854,12.7223234176636,12.7227916717529,12.7232675552368,12.7237358093262,12.7242088317871,12.724684715271,12.7251539230347,12.7256307601929,12.7261037826538,12.7265710830688,12.7270450592041,12.7275152206421,12.7279891967773,12.7284641265869,12.7289352416992,12.7294073104858,12.7298822402954,12.730354309082,12.7308292388916,12.7312984466553,12.7317743301392,12.7322473526001,12.7327175140381,12.733193397522,12.73366355896,12.7341375350952,12.7346115112305,12.6091451644897,12.5957956314087,12.5824747085571,12.5691823959351,12.5559167861938,12.5426807403564,12.5294713973999,12.5162897109985,12.5031366348267,12.4900102615356,12.4769124984741,12.4638414382935,12.450798034668,12.4377813339233,12.4247922897339,12.4118309020996,12.3988952636719,12.3859872817993,12.3731060028076,12.3602514266968,12.3474245071411,12.334623336792,12.3218479156494,12.309100151062,12.2963781356812,12.2836828231812,12.2710132598877,12.2583703994751,12.2457523345947,12.2331619262695,12.2205963134766,12.2080564498901,12.1955423355103,12.1830539703369,12.1635665893555,11.9089698791504,11.6648120880127,11.4304656982422,11.2901983261108,11.2072525024414,11.1255168914795,11.0449638366699,10.9655694961548,10.8873081207275,10.8101568222046,10.7340898513794,10.6590871810913,10.5851249694824,10.5121822357178,10.4402370452881,10.3692712783813,10.2992630004883,10.2301931381226,10.1620445251465,10.0947971343994,10.028434753418,9.96293830871582,9.90282249450684,9.88678741455078,9.87080383300781,9.85487174987793,9.83899116516113,9.82316207885742,9.80738353729248,9.79165554046631,9.77597808837891,9.76035022735596,9.74477291107178,9.72924423217773,9.71376609802246,9.69833660125732,9.68295669555664,9.66762447357178,9.65234088897705,9.63710594177246,9.62191963195801,9.60678005218506,9.59168815612793,9.57664394378662,9.56164741516113,9.54669666290283,9.53179359436035,9.51693630218506,9.50212478637695,9.48736000061035,9.47264099121094,9.45796775817871,9.44333934783936,9.42875671386719,9.41421890258789,9.39972591400146,9.38527679443359,9.37087249755859,9.35651302337646,9.34219646453857,9.32792377471924,9.31369495391846,9.29951000213623,9.28536701202393,9.27126789093018,9.25721168518066,9.24319744110107,9.22922515869141,9.21506977081299,9.20090103149414,9.18677616119385,9.17269515991211,9.15865612030029,9.14466094970703,9.13070774078369,9.11679744720459,9.10292911529541,9.08910369873047,9.07531929016113,9.06157684326172,9.04787635803223,9.03421688079834,9.02059936523438,9.0070219039917,8.99348545074463,8.97999000549316,8.96653461456299,8.9531192779541,8.9397439956665,8.92640972137451,8.91311359405518,8.89985847473145,8.88664150238037,8.87346458435059,8.86032676696777,8.84722709655762,8.83416652679443,8.82114410400391,8.80815982818604,8.79521465301514,8.78230667114258,8.76943683624268,8.75660514831543,8.74381065368652,8.73105239868164,8.71833324432373,8.70564937591553,8.69300365447998,8.68039417266846,8.66782093048096,8.65528392791748,8.64278316497803,8.6303186416626,8.61789035797119,8.60549736022949,8.59314060211182,8.58081912994385,8.56853199005127,8.55628108978271,8.54406452178955,8.53033256530762,8.51374435424805,8.49722003936768,8.48076057434082,8.46436405181885,8.44803142547607,8.43176078796387,8.41555309295654,8.3994083404541,8.38332557678223,8.3673038482666,8.35134315490723,8.33544445037842,8.31960487365723,8.30382537841797,8.28810596466064,8.27244663238525,8.25684547424316,8.24130344390869,8.22581958770752,8.21039390563965,8.19502639770508,8.17971611022949,8.16446208953857,8.14926624298096,8.13412570953369,8.11904144287109,8.10401344299316,8.08904075622559,8.07412338256836,8.05926132202148,8.04445266723633,8.02969932556152,8.01500034332275,8.00035381317139,7.98576211929321,7.97122240066528,7.95673608779907,7.94230270385742,7.92792081832886,7.91359090805054,7.89931344985962,7.88508701324463,7.87091159820557,7.85678720474243,7.84271383285522,7.82869005203247,7.81471681594849,7.80079317092896,7.6961236000061,7.67278337478638,7.64702796936035,7.62144565582275,7.59603357315063,7.57079029083252,7.54571437835693,7.52080392837524,7.49605703353882,7.4714732170105,7.44704961776733,7.42278575897217,7.39867877960205,7.37472820281982,7.35093212127686,7.32728910446167,7.30379772186279,7.28045654296875,7.25726413726807,7.234534740448,7.21397924423218,7.19358253479004,7.1733775138855,7.15550470352173,7.13772058486938,7.12002515792847,7.1024169921875,7.08489561080933,7.06746101379395,7.05011129379272,7.03284692764282,7.01566696166992,6.99857044219971,6.98455476760864,6.98798656463623,6.99142122268677,6.99485969543457,6.99830150604248,7.0017466545105,7.00519561767578,7.00864744186401,7.01210260391235,7.01556158065796,7.01902389526367,7.02248954772949,7.02595853805542,7.02943086624146,7.03290700912476,7.03638648986816,7.03986930847168,7.0433554649353,7.04684495925903,7.05033826828003,7.05383491516113,7.04866600036621,7.03569269180298,7.02276659011841,7.0098876953125,6.99705648422241,6.98427200317383,6.97153425216675,6.95884275436401,6.94619750976562,6.93359804153442,6.92104434967041,6.44685792922974,6.43079900741577,6.41481971740723,6.39891958236694,6.38309812545776,6.36735486984253,6.35168933868408,6.33610010147095,6.32058715820312,6.30515003204346,6.29949235916138,6.30429410934448,6.30910348892212,6.31392002105713,6.31874418258667,6.32357549667358,6.32841396331787,6.33326005935669,6.33811378479004,6.34297466278076,6.34784317016602,6.3527193069458,6.35760259628296,6.36249351501465
12.6277990341187,12.6282691955566,12.6287336349487,12.6291980743408,12.6296653747559,12.6301298141479,12.6305952072144,12.6310606002808,12.6315259933472,12.6319913864136,12.6324605941772,12.6329202651978,12.6333894729614,12.6338558197021,12.6343221664429,12.634786605835,12.6352500915527,12.6357173919678,12.6361846923828,12.6366491317749,12.6371173858643,12.6375818252563,12.6380472183228,12.6385126113892,12.6389818191528,12.6394472122192,12.6399097442627,12.6403760910034,12.6408462524414,12.6413125991821,12.6417760848999,12.6422433853149,12.64271068573,12.6431751251221,12.6436424255371,12.6441068649292,12.6445751190186,12.6450433731079,12.6455087661743,12.6459770202637,12.6464433670044,12.6469058990479,12.6473751068115,12.6478443145752,12.648307800293,12.648775100708,12.6492385864258,12.611762046814,12.598406791687,12.5850801467896,12.5717821121216,12.5585117340088,12.5452690124512,12.532054901123,12.5188684463501,12.5057096481323,12.4925785064697,12.479474067688,12.4663982391357,12.4533491134644,12.4403276443481,12.4273328781128,12.4143657684326,12.4014253616333,12.3885126113892,12.3756256103516,12.3627662658691,12.3499336242676,12.3371267318726,12.3243474960327,12.3115940093994,12.2988662719727,12.2861661911011,12.273491859436,12.2608432769775,12.2482204437256,12.2356243133545,12.2230539321899,12.2105093002319,12.1979904174805,12.1854972839355,12.1730289459229,12.160587310791,11.9790353775024,11.732027053833,11.4949989318848,11.3475742340088,11.2637853622437,11.1812257766724,11.0998678207397,11.0196847915649,10.9406518936157,10.8627452850342,10.7859392166138,10.7102127075195,10.6355419158936,10.5619039535522,10.4892797470093,10.4176473617554,10.3469867706299,10.2772779464722,10.2085027694702,10.1406412124634,10.073676109314,10.0075902938843,9.94236469268799,9.89500045776367,9.87899112701416,9.86303234100342,9.84712600708008,9.83127021789551,9.81546497344971,9.79971122741699,9.78400802612305,9.76835536956787,9.75275135040283,9.73719882965088,9.72169494628906,9.70623970031738,9.69083499908447,9.67547798156738,9.66016960144043,9.64490985870361,9.62969875335693,9.61453437805176,9.59941864013672,9.5843505859375,9.56932926177979,9.55435466766357,9.53942680358887,9.52454662322998,9.50971221923828,9.49492359161377,9.48018074035645,9.46548366546631,9.45083236694336,9.4362268447876,9.42166614532471,9.40714931488037,9.39267826080322,9.37825107574463,9.36386871337891,9.34953022003174,9.33523464202881,9.32098388671875,9.30677604675293,9.29261207580566,9.27849006652832,9.26441192626953,9.25037574768066,9.23638248443604,9.22243118286133,9.20852184295654,9.19453239440918,9.18042755126953,9.16636562347412,9.15234565734863,9.1383695602417,9.124436378479,9.11054515838623,9.09669589996338,9.08288860321045,9.06912326812744,9.05539989471436,9.04171752929688,9.02807712554932,9.01447772979736,9.0009183883667,8.98740100860596,8.97392272949219,8.96048545837402,8.94708919525146,8.93373203277588,8.92041492462158,8.90713691711426,8.89389896392822,8.88070106506348,8.86754131317139,8.85442066192627,8.84133815765381,8.82829570770264,8.8152904510498,8.80232334136963,8.78939533233643,8.77650451660156,8.76365184783936,8.75083637237549,8.73805904388428,8.72531795501709,8.71261501312256,8.69994831085205,8.68731784820557,8.67472553253174,8.66216850280762,8.64964771270752,8.63716411590576,8.62471580505371,8.61230278015137,8.59992599487305,8.58758544921875,8.57527923583984,8.56300830841064,8.55077266693115,8.53857231140137,8.52640628814697,8.51427555084229,8.50217819213867,8.48968315124512,8.47325229644775,8.45688533782959,8.44058036804199,8.42433929443359,8.40816020965576,8.3920431137085,8.3759880065918,8.35999488830566,8.34406280517578,8.32819080352783,8.31237888336182,8.29662704467773,8.28093528747559,8.26530265808105,8.24972820281982,8.23421287536621,8.2187557220459,8.20335674285889,8.18801498413086,8.17273044586182,8.15750312805176,8.14233303070068,8.12721824645996,8.11215972900391,8.09715747833252,8.08220958709717,8.06731796264648,8.05247974395752,8.03769683837891,8.02296829223633,8.00829315185547,7.99367189407349,7.97910451889038,7.96458911895752,7.95012712478638,7.93571710586548,7.92135953903198,7.90705347061157,7.89279937744141,7.87859630584717,7.86444425582886,7.85034322738647,7.8362922668457,7.8222918510437,7.80834102630615,7.79444026947021,7.78058862686157,7.675133228302,7.65093755722046,7.625328540802,7.59989070892334,7.57462215423584,7.54952096939087,7.52458524703979,7.4998140335083,7.4752049446106,7.45075750350952,7.42646884918213,7.40233850479126,7.37836408615112,7.3545446395874,7.33087825775146,7.30736398696899,7.28399991989136,7.26078510284424,7.237717628479,7.21550798416138,7.19506072998047,7.1747899055481,7.15570545196533,7.13792085647583,7.12022399902344,7.10261487960815,7.08509254455566,7.06765651702881,7.05030632019043,7.03304100036621,7.01586008071899,6.99876260757446,6.99325466156006,6.99669504165649,7.00013875961304,7.00358581542969,7.00703620910645,7.01048994064331,7.01394701004028,7.01740789413452,7.02087163925171,7.02433919906616,7.02781009674072,7.03128433227539,7.03476238250732,7.03824329376221,7.04172801971436,7.04521608352661,7.04870748519897,7.0522027015686,7.05570125579834,7.05920314788818,7.05818843841553,7.04517984390259,7.03221940994263,7.01930618286133,7.00644016265869,6.99362134933472,6.9808497428894,6.96812438964844,6.95544528961182,6.94281196594238,6.93022489547729,6.91768312454224,6.90518712997437,6.89273595809937,6.41613674163818,6.40022993087769,6.38440227508545,6.36865282058716,6.35298013687134,6.3373851776123,6.32186603546143,6.30642318725586,6.29105472564697,6.28934574127197,6.29413223266602,6.29892587661743,6.30372667312622,6.30853509902954,6.31335115432739,6.31817388534546,6.32300472259521,6.32784223556519,6.33268785476685,6.33754014968872,6.34240055084229,6.34726810455322,6.35214281082153
12.5456895828247,12.5461511611938,12.546612739563,12.5470685958862,12.5475301742554,12.5479888916016,12.5484485626221,12.5489082336426,12.5493679046631,12.5498237609863,12.5502872467041,12.5507440567017,12.5512046813965,12.5516691207886,12.5521230697632,12.5525846481323,12.5530424118042,12.5535039901733,12.5539655685425,12.5544214248657,12.5548830032349,12.5553455352783,12.5558023452759,12.5562648773193,12.5567245483398,12.5571842193604,12.5576448440552,12.5581016540527,12.5585622787476,12.5590229034424,12.5594806671143,12.5599451065063,12.5604066848755,12.5608654022217,12.5613269805908,12.5617828369141,12.5622453689575,12.5627069473267,12.5631666183472,12.5636262893677,12.5640897750854,12.564549446106,12.5650100708008,12.5654735565186,12.5659313201904,12.5663919448853,12.5668535232544,12.561107635498,12.5478591918945,12.5346393585205,12.5214471817017,12.5082836151123,12.4951467514038,12.4820375442505,12.4689559936523,12.4559011459351,12.4428749084473,12.4298753738403,12.4169025421143,12.403956413269,12.391037940979,12.3781461715698,12.3652820587158,12.3524436950684,12.3396320343018,12.326847076416,12.3140878677368,12.3013563156128,12.2886505126953,12.2759704589844,12.2633171081543,12.2506895065308,12.2380886077881,12.2255125045776,12.212963104248,12.2004384994507,12.1879405975342,12.1754674911499,12.1630210876465,12.150598526001,12.0499305725098,11.8000202178955,11.5602645874023,11.4055347442627,11.3208923339844,11.2374963760376,11.1553201675415,11.0743370056152,10.9945211410522,10.9158477783203,10.8382921218872,10.761830329895,10.6864404678345,10.612099647522,10.5387859344482,10.4664783477783,10.3951559066772,10.3247985839844,10.2553873062134,10.1869029998779,10.1193284988403,10.0526437759399,9.98683166503906,9.92187595367432,9.88719081878662,9.87120628356934,9.85527324676514,9.83939170837402,9.82356071472168,9.80778121948242,9.79205131530762,9.7763729095459,9.76074409484863,9.74516487121582,9.72963619232178,9.71415615081787,9.69872570037842,9.6833438873291,9.66801071166992,9.65272617340088,9.63749027252197,9.62230205535889,9.60716152191162,9.59206867218018,9.57702350616455,9.56202507019043,9.54707336425781,9.5321683883667,9.51731014251709,9.50249862670898,9.48773288726807,9.47301197052002,9.45833778381348,9.4437084197998,9.42912483215332,9.41458511352539,9.40009117126465,9.38564109802246,9.37123584747314,9.35687446594238,9.34255790710449,9.32828426361084,9.31405353546143,9.29986763000488,9.28572368621826,9.2716236114502,9.25756549835205,9.24355030059814,9.22957801818848,9.21564674377441,9.20175838470459,9.18791103363037,9.17408752441406,9.16004467010498,9.14604473114014,9.13208770751953,9.11817264556885,9.1043004989624,9.09047031402588,9.07668209075928,9.0629358291626,9.04923152923584,9.03556728363037,9.02194499969482,9.00836372375488,8.99482345581055,8.98132419586182,8.96786499023438,8.95444583892822,8.94106674194336,8.92772769927979,8.9144287109375,8.90116882324219,8.88794803619385,8.8747673034668,8.86162567138672,8.8485221862793,8.83545780181885,8.82243156433105,8.80944442749023,8.79649448394775,8.78358364105225,8.77070999145508,8.75787353515625,8.74507522583008,8.73231410980225,8.71959114074707,8.7069034576416,8.69425392150879,8.681640625,8.66906356811523,8.65652370452881,8.64401912689209,8.63155174255371,8.61911964416504,8.60672283172607,8.59436225891113,8.5820369720459,8.56974697113037,8.55749225616455,8.54527282714844,8.53308773040771,8.52093696594238,8.50882148742676,8.49674034118652,8.48469352722168,8.47268009185791,8.46070098876953,8.44875621795654,8.43314361572266,8.41693115234375,8.40078067779541,8.38469123840332,8.36866474151611,8.35269927978516,8.33679389953613,8.32095050811768,8.30516624450684,8.28944110870361,8.27377700805664,8.25817012786865,8.2426233291626,8.22713470458984,8.21170425415039,8.19633102416992,8.18101596832275,8.16575813293457,8.15055656433105,8.13541126251221,8.12032318115234,8.10529041290283,8.09031295776367,8.07539081573486,8.06052303314209,8.04571056365967,8.03095245361328,8.01624870300293,8.0015983581543,7.98700141906738,7.97245740890503,7.95796680450439,7.94352865219116,7.92914247512817,7.91480827331543,7.90052652359009,7.88629531860352,7.87211561203003,7.85798692703247,7.84390878677368,7.82988119125366,7.81590366363525,7.8019757270813,7.7880973815918,7.77426862716675,7.76048851013184,7.65425682067871,7.62921619415283,7.60375261306763,7.57845783233643,7.55333137512207,7.52837038040161,7.50357437133789,7.47894096374512,7.45446872711182,7.43015623092651,7.40600156784058,7.38200378417969,7.35816097259521,7.33447122573853,7.31093406677246,7.28754711151123,7.26430940628052,7.24121952056885,7.21827602386475,7.19658136367798,7.17625713348389,7.15609502792358,7.13812065124512,7.12042284011841,7.10281276702881,7.08528995513916,7.06785297393799,7.05050134658813,7.0332350730896,7.01605319976807,6.99895477294922,7.00197649002075,7.00542545318604,7.00887775421143,7.01233339309692,7.01579236984253,7.01925468444824,7.02272081375122,7.02618980407715,7.02966260910034,7.03313875198364,7.03661823272705,7.04010152816772,7.04358816146851,7.04707765579224,7.05057144165039,7.05406808853149,7.05756855010986,7.06107234954834,7.06457948684692,7.0640287399292,7.05469274520874,7.04169702529907,7.02874898910522,7.0158486366272,7.00299549102783,6.99018955230713,6.97743034362793,6.96471738815308,6.95205068588257,6.93942975997925,6.92685508728027,6.91432571411133,6.90184116363525,6.88940238952637,6.87700796127319,6.86465787887573,6.85235214233398,6.36995077133179,6.35427188873291,6.33867073059082,6.32314491271973,6.3076958656311,6.29232168197632,6.27702236175537,6.27923154830933,6.28400278091431,6.2887806892395,6.29356670379639,6.29835939407349,6.30315971374512,6.30796718597412,6.3127818107605,6.31760406494141,6.32243394851685,6.32727098464966,6.33211517333984,6.33696699142456,6.34182596206665
12.4646425247192,12.4650955200195,12.4655485153198,12.4659986495972,12.4664545059204,12.466908454895,12.4673624038696,12.4678163528442,12.4682664871216,12.4687213897705,12.4691791534424,12.469630241394,12.47008228302,12.4705371856689,12.4709930419922,12.4714450836182,12.4718980789185,12.4723510742188,12.472806930542,12.4732599258423,12.4737167358398,12.4741697311401,12.4746208190918,12.4750776290894,12.475531578064,12.4759864807129,12.4764413833618,12.4768896102905,12.4773473739624,12.4778032302856,12.4782552719116,12.4787111282349,12.4791631698608,12.4796199798584,12.4800758361816,12.4805288314819,12.4809827804565,12.4814367294312,12.4818897247314,12.4823474884033,12.4828014373779,12.4832563400269,12.4837074279785,12.4841661453247,12.4846210479736,12.4850759506226,12.4855289459229,12.4859809875488,12.486439704895,12.4846019744873,12.4715147018433,12.4584550857544,12.4454231262207,12.4324178695679,12.4194402694702,12.4064893722534,12.3935651779175,12.3806676864624,12.3677978515625,12.3549547195435,12.3421382904053,12.3293476104736,12.3165836334229,12.3038463592529,12.2911357879639,12.2784509658813,12.2657918930054,12.2531595230103,12.2405529022217,12.227972984314,12.2154178619385,12.2028884887695,12.1903858184814,12.1779079437256,12.165454864502,12.1530284881592,12.1406269073486,12.1216707229614,11.8688058853149,11.6262760162354,11.4640913009644,11.3785800933838,11.2943353652954,11.211329460144,11.1295337677002,11.0489234924316,10.9694719314575,10.8911552429199,10.8139486312866,10.737829208374,10.6627740859985,10.5887613296509,10.5157680511475,10.4437742233276,10.3727598190308,10.3027048110962,10.2335901260376,10.1653957366943,10.0981044769287,10.0316982269287,9.96615982055664,9.9014720916748,9.87939453125,9.86343479156494,9.84752655029297,9.83166980743408,9.81586360931396,9.80010890960693,9.78440380096436,9.76874923706055,9.75314521789551,9.73759078979492,9.72208499908447,9.70662975311279,9.69122314453125,9.67586517333984,9.66055583953857,9.64529418945312,9.63008213043213,9.61491680145264,9.59980010986328,9.58473014831543,9.5697078704834,9.55473232269287,9.53980350494385,9.52492141723633,9.51008605957031,9.49529647827148,9.48055267333984,9.46585464477539,9.45120239257812,9.43659496307373,9.42203235626221,9.40751552581787,9.39304256439209,9.3786153793335,9.36423110961914,9.34989166259766,9.33559513092041,9.32134342193604,9.3071346282959,9.29296875,9.27884674072266,9.26476669311523,9.25072956085205,9.23673534393311,9.22278308868408,9.20887279510498,9.1950044631958,9.18117809295654,9.16739273071289,9.15364933013916,9.13975143432617,9.12581348419189,9.11191844940186,9.09806537628174,9.08425426483154,9.07048416137695,9.0567569732666,9.04307079315186,9.02942562103271,9.0158224105835,9.00225925445557,8.98873710632324,8.97525596618652,8.96181488037109,8.94841384887695,8.9350528717041,8.92173194885254,8.90845012664795,8.89520835876465,8.88200569152832,8.86884212493896,8.85571765899658,8.84263229370117,8.82958507537842,8.81657600402832,8.8036060333252,8.79067325592041,8.7777795791626,8.76492309570312,8.75210380554199,8.73932266235352,8.72657775878906,8.71387100219727,8.70120048522949,8.68856716156006,8.67597007751465,8.66341018676758,8.65088558197021,8.63839817047119,8.62594699859619,8.61353015899658,8.60115051269531,8.58880519866943,8.57649612426758,8.56422233581543,8.55198287963867,8.53977870941162,8.52760982513428,8.51547527313232,8.50337505340576,8.49130821228027,8.47927761077881,8.4672794342041,8.45531558990479,8.44338607788086,8.43148899078369,8.41962623596191,8.40779685974121,8.39341354370117,8.37735271453857,8.36135387420654,8.34541511535645,8.32953834533691,8.31372165679932,8.29796504974365,8.28226757049561,8.26663017272949,8.25105094909668,8.23553085327148,8.22006893157959,8.20466423034668,8.18931865692139,8.17402935028076,8.15879726409912,8.14362144470215,8.12850189208984,8.11343860626221,8.09843158721924,8.0834789276123,8.06858253479004,8.05374050140381,8.03895282745361,8.02421951293945,8.00954055786133,7.99491405487061,7.98034143447876,7.96582221984863,7.95135545730591,7.93694114685059,7.92257881164551,7.90826845169067,7.89401006698608,7.87980270385742,7.86564636230469,7.85154056549072,7.83748531341553,7.8234806060791,7.80952596664429,7.79562091827393,7.78176498413086,7.76795864105225,7.75420093536377,7.74049186706543,7.63310766220093,7.60761785507202,7.58229780197144,7.55714559555054,7.53215980529785,7.50733852386475,7.48268032073975,7.45818376541138,7.43384695053101,7.40966844558716,7.38564682006836,7.36178064346313,7.33806753158569,7.31450700759888,7.29109764099121,7.26783752441406,7.24472522735596,7.22175931930542,7.19893884658813,7.17775344848633,7.15755462646484,7.1383204460144,7.12062215805054,7.10301113128662,7.0854868888855,7.06804895401001,7.050696849823,7.03342914581299,7.01624631881714,7.00726652145386,7.01072025299072,7.01417779922485,7.01763868331909,7.02110290527344,7.02457046508789,7.02804183959961,7.03151607513428,7.03499412536621,7.03847551345825,7.04196071624756,7.04544878005981,7.04894065856934,7.05243587493896,7.0559344291687,7.0594367980957,7.06294250488281,7.06511497497559,7.06314182281494,7.06117010116577,7.05919885635376,7.05120086669922,7.03821802139282,7.02528285980225,7.01239490509033,6.99955415725708,6.98676109313965,6.97401428222656,6.96131372451782,6.94865942001343,6.93605089187622,6.9234881401062,6.91097116470337,6.89849901199341,6.88607215881348,6.87368965148926,6.86135149002075,6.84905767440796,6.83680820465088,6.8246021270752,6.33995676040649,6.3244252204895,6.30896949768066,6.29358911514282,6.27828359603882,6.26440143585205,6.26914978027344,6.27390575408936,6.27866888046265,6.28343868255615,6.28821659088135,6.29300117492676,6.29779291152954,6.30259227752686,6.3073992729187,6.31221294403076,6.31703472137451,6.32186317443848,6.32669925689697,6.33154296875
