19.4412498474121,19.4418811798096,19.4425182342529,19.4431495666504,19.4437847137451,19.4444198608398,19.4450550079346,19.4456920623779,19.4463272094727,19.4469661712646,19.4475994110107,19.4482364654541,19.4488697052002,19.4495048522949,19.4501419067383,19.450777053833,19.4514122009277,19.4520473480225,19.4526844024658,19.4533214569092,19.4539566040039,19.45458984375,19.4552268981934,19.4558639526367,19.4564933776855,19.4571342468262,19.4577693939209,19.4584064483643,19.459041595459,19.459680557251,19.4603137969971,19.4609527587891,19.4615917205811,19.4622249603271,19.4628601074219,19.4634971618652,19.46413230896,19.4647693634033,19.465404510498,19.4660415649414,19.4666805267334,19.4673118591309,19.4679508209229,19.4685897827148,19.4692268371582,19.4698638916016,19.4704971313477,19.4711360931396,19.471773147583,19.472412109375,19.4730453491211,19.4736843109131,19.4743232727051,19.4749603271484,19.4755973815918,19.4762325286865,19.4768733978271,19.4775066375732,19.4781436920166,19.47878074646,19.4794178009033,19.4800586700439,19.48069190979,19.481330871582,19.481969833374,19.482608795166,19.4832439422607,19.48388671875,19.4845199584961,19.4851570129395,19.4857959747314,19.4864330291748,19.4870681762695,19.4877071380615,19.4883441925049,19.4889831542969,19.4896202087402,19.4902572631836,19.4908981323242,19.4915370941162,19.4921722412109,19.4928131103516,19.4934520721436,19.4940910339355,19.4947261810303,19.4953651428223,19.4960060119629,19.4966449737549,19.4972801208496,19.4979190826416,19.4985599517822,19.4991989135742,19.4998359680176,19.5004749298096,19.5011138916016,19.5017528533936,19.5023899078369,19.5030307769775,19.5036697387695,19.5043106079102,19.5049495697021,19.5055904388428,19.5062274932861,19.5068664550781,19.5075054168701,19.5081462860107,19.5087852478027,19.5094223022461,19.5100631713867,19.5107021331787,19.5113430023193,19.5119819641113,19.5126209259033,19.5132617950439,19.5139026641846,19.5145378112793,19.5151824951172,19.5158195495605,19.5164623260498,19.5170993804932,19.5177421569824,19.5183811187744,19.5190200805664,19.5196590423584,19.520299911499,19.5209407806396,19.5215835571289,19.5222187042236,19.5228614807129,19.5235023498535,19.5241413116455,19.5247821807861,19.5254211425781,19.5260620117188,19.526704788208,19.52734375,19.5279846191406,19.5286254882812,19.5292663574219,19.5299072265625,19.5305461883545,19.5311889648438,19.5318298339844,19.5324687957764,19.533109664917,19.5337524414062,19.5343933105469,19.5350322723389,19.5356731414795,19.5363159179688,19.536958694458,19.53759765625,19.5382404327393,19.5388832092285,19.5395240783691,19.5401649475098,19.5408058166504,19.5414485931396,19.5420875549316,19.5427322387695,19.5433731079102,19.5440139770508,19.5446586608887,19.5453014373779,19.5459442138672,19.5465850830078,19.5472297668457,19.5478706359863,19.5485134124756,19.5491561889648,19.5497989654541,19.5504417419434,19.551082611084,19.5517272949219,19.5523681640625,19.5530109405518,19.5536556243896,19.5542964935303,19.5549392700195,19.5555839538574,19.5562286376953,19.5568695068359,19.5575103759766,19.5581550598145,19.5587997436523,19.5594425201416,19.5600872039795,19.5607299804688,19.561372756958,19.5620174407959,19.5626583099365,19.5633029937744,19.5639457702637,19.5645885467529,19.5652351379395,19.5658779144287,19.5665187835693,19.5671634674072,19.5678081512451,19.568452835083,19.5690975189209,19.5697402954102,19.570384979248,19.5710277557373,19.5716724395752,19.5723152160645,19.572961807251,19.5736026763916,19.5742492675781,19.5748920440674,19.5755367279053,19.5761814117432,19.5768260955811,19.5774707794189,19.5781135559082,19.5787601470947,19.579402923584,19.5800476074219,19.5806922912598,19.5813388824463,19.5819835662842,19.5826263427734,19.5832710266113,19.5839176177979,19.5845623016357,19.5852069854736,19.5858535766602,19.5864963531494,19.5871410369873,19.5877857208252,19.5884342193604,19.5890789031982,19.5897235870361,19.590368270874,19.5910148620605,19.5916576385498,19.5923042297363,19.5929508209229,19.5935955047607,19.5942401885986,19.5948867797852,19.595531463623,19.5961780548096,19.5968227386475,19.597469329834,19.5981121063232,19.5987606048584,19.5994071960449,19.6000518798828,19.6006984710693,19.6013431549072,19.6019897460938,19.6026363372803,19.6032810211182,19.6039295196533,10.1252613067627,10.0799579620361,10.0350589752197,9.99055862426758,9.94645023345947,9.90272998809814,9.8593921661377,9.81643295288086,9.77384567260742,9.73162651062012,9.68976974487305,9.64827251434326,9.60712909698486,9.56633472442627,9.52588558197021,9.48577690124512,9.44600486755371,9.40719223022461,9.38669681549072,9.36629104614258,9.34597301483154,9.32574367523193,9.30560111999512,9.28554534912109,9.26557636260986,9.24569320678711,9.22589492797852,9.20618057250977,9.18655109405518,9.16700458526611,9.14754199981689,9.12816143035889,9.10886287689209,9.08964538574219,9.07050895690918,9.05145263671875,9.0324764251709,9.01358032226562,8.9947624206543,8.97602272033691,8.95736122131348,8.93877792358398,8.9202709197998,8.90184020996094,8.88348484039307,8.86520671844482,8.84700202941895,8.82887268066406,8.81081771850586,8.79283618927002,8.77492809295654,8.75709247589111,8.73932933807373,8.72163772583008,8.70401763916016,8.68646812438965,8.66898918151855,8.65158081054688,8.63424205780029,8.5671558380127,8.53895282745361,8.51093578338623,8.4831018447876,8.45544910430908,8.42797565460205,8.40068054199219,8.37356185913086,8.34661769866943,8.31984615325928,8.29324626922607,8.26681518554688,8.24055194854736,8.21445083618164,8.18851470947266,8.16274166107178,8.13713073730469,8.11168003082275,8.08638763427734,8.06125259399414,8.03317737579346,8.00529193878174,7.97760009765625,7.95009899139404,7.92278623580933,7.89566087722778,7.86872053146362,7.84196376800537,7.81538820266724,7.78899192810059,7.76502990722656,7.74149656295776,7.71810483932495,7.69485473632812,7.67174386978149,7.64877128601074,7.62593650817871,7.60323715209961
19.247932434082,19.2485523223877,19.249174118042,19.2497997283936,19.2504215240479,19.2510471343994,19.2516651153564,19.252290725708,19.252908706665,19.2535343170166,19.2541542053223,19.2547760009766,19.2554035186768,19.2560234069824,19.256649017334,19.2572727203369,19.2578926086426,19.2585182189941,19.2591438293457,19.2597599029541,19.260383605957,19.2610092163086,19.2616329193115,19.2622566223145,19.2628765106201,19.2635021209717,19.2641258239746,19.2647514343262,19.2653770446777,19.2659950256348,19.2666187286377,19.267240524292,19.2678642272949,19.2684898376465,19.2691135406494,19.2697372436523,19.2703609466553,19.2709884643555,19.2716102600098,19.2722358703613,19.2728614807129,19.2734832763672,19.2741031646729,19.274730682373,19.275354385376,19.2759780883789,19.2766017913818,19.2772254943848,19.277853012085,19.2784767150879,19.2790985107422,19.2797260284424,19.2803497314453,19.2809715270996,19.2815971374512,19.2822227478027,19.2828464508057,19.2834720611572,19.2840957641602,19.2847232818604,19.2853469848633,19.2859725952148,19.286600112915,19.2872219085693,19.2878398895264,19.2884693145752,19.2890949249268,19.2897186279297,19.2903442382812,19.2909717559814,19.291597366333,19.2922210693359,19.2928485870361,19.2934703826904,19.2940979003906,19.2947216033936,19.2953453063965,19.295970916748,19.2965965270996,19.2972221374512,19.2978477478027,19.2984733581543,19.2990989685059,19.2997245788574,19.300350189209,19.3009757995605,19.3016014099121,19.3022289276123,19.3028526306152,19.3034801483154,19.304105758667,19.3047313690186,19.3053569793701,19.3059844970703,19.3066101074219,19.3072376251221,19.3078632354736,19.3084888458252,19.3091163635254,19.3097438812256,19.3103694915771,19.3109951019287,19.3116226196289,19.3122482299805,19.3128757476807,19.3135013580322,19.3141288757324,19.3147563934326,19.3153800964355,19.3160076141357,19.3166351318359,19.3172588348389,19.3178882598877,19.3185157775879,19.3191432952881,19.319766998291,19.3203983306885,19.32102394104,19.3216514587402,19.3222770690918,19.322904586792,19.3235340118408,19.324161529541,19.3247871398926,19.3254146575928,19.3260440826416,19.3266716003418,19.3272972106934,19.3279247283936,19.3285541534424,19.3291816711426,19.3298091888428,19.330436706543,19.3310661315918,19.331693649292,19.3323192596436,19.3329467773438,19.3335762023926,19.3342037200928,19.334831237793,19.3354587554932,19.336088180542,19.3367156982422,19.3373432159424,19.3379726409912,19.3386001586914,19.3392295837402,19.3398551940918,19.3404846191406,19.3411140441895,19.3417434692383,19.3423690795898,19.3430004119873,19.3436279296875,19.3442554473877,19.3448848724365,19.3455123901367,19.3461418151855,19.3467712402344,19.3473987579346,19.3480281829834,19.3486576080322,19.3492851257324,19.3499183654785,19.3505458831787,19.3511734008789,19.351806640625,19.3524360656738,19.3530654907227,19.3536949157715,19.3543243408203,19.3549537658691,19.355583190918,19.3562126159668,19.3568439483643,19.3574733734131,19.3581047058105,19.3587341308594,19.3593654632568,19.359992980957,19.3606243133545,19.361255645752,19.3618850708008,19.3625144958496,19.3631458282471,19.3637771606445,19.3644065856934,19.3650341033936,19.3656673431396,19.3663005828857,19.3669281005859,19.3675594329834,19.3681926727295,19.3688201904297,19.3694515228271,19.3700847625732,19.3707122802734,19.3713455200195,19.371976852417,19.3726081848145,19.3732376098633,19.3738689422607,19.3745002746582,19.3751316070557,19.3757629394531,19.376392364502,19.377025604248,19.3776550292969,19.378288269043,19.3789196014404,19.3795509338379,19.3801822662354,19.3808135986328,19.3814449310303,19.3820762634277,19.3827075958252,19.3833408355713,19.3839721679688,19.3846015930176,19.3852348327637,19.3858680725098,19.3865013122559,19.3871307373047,19.3877639770508,19.3883972167969,19.3890266418457,19.3896598815918,19.3902931213379,19.3909225463867,19.3915557861328,19.3921871185303,19.392822265625,19.3934535980225,19.3940849304199,19.394718170166,19.3953514099121,19.3959827423096,19.3966178894043,19.3972492218018,19.3978805541992,19.3985137939453,19.39914894104,19.3997783660889,19.400411605835,19.4010467529297,19.4016761779785,19.4023113250732,19.4029426574707,19.4035778045654,19.4042091369629,19.404842376709,19.4054756164551,19.4061107635498,19.4067420959473,10.1010360717773,10.0559492111206,10.0112628936768,9.96697235107422,9.92307186126709,9.87955665588379,9.83642101287842,9.79366111755371,9.75127029418945,9.7092456817627,9.66758155822754,9.6262731552124,9.58531665802002,9.54470729827881,9.50444030761719,9.46451187133789,9.42491722106934,9.39803123474121,9.37757587432861,9.35720920562744,9.33693027496338,9.31674003601074,9.2966365814209,9.27661991119385,9.25668907165527,9.23684310913086,9.21708297729492,9.19740676879883,9.17781448364258,9.15830516815186,9.13887882232666,9.11953544616699,9.10027313232422,9.08109188079834,9.06199169158936,9.04297065734863,9.0240306854248,9.00516891479492,8.9863862991333,8.96768188476562,8.94905471801758,8.93050575256348,8.91203212738037,8.89363574981689,8.87531471252441,8.85706996917725,8.83889865875244,8.82080268859863,8.8027811050415,8.78483200073242,8.7669563293457,8.74915313720703,8.73142242431641,8.7137622833252,8.69617366790771,8.67865657806396,8.66120910644531,8.64383220672607,8.62652397155762,8.60928630828857,8.54141330718994,8.51338005065918,8.48552989959717,8.45786094665527,8.43037223815918,8.40306186676025,8.37592792510986,8.34896850585938,8.32218170166016,8.29556655883789,8.26912021636963,8.24284362792969,8.21673107147217,8.19078063964844,8.16499328613281,8.13936805725098,8.1139030456543,8.08859729766846,8.06344890594482,8.03755378723145,8.0096378326416,7.98191547393799,7.95438480377197,7.92704248428345,7.89988851547241,7.8729190826416,7.84613370895386,7.81952953338623,7.7931056022644,7.76690244674683,7.74335765838623,7.71995496749878,7.69669342041016,7.67357158660889,7.6505880355835,7.62774229049683,7.60503196716309,7.58245706558228
19.058422088623,19.0590286254883,19.0596408843994,19.0602493286133,19.0608558654785,19.0614700317383,19.0620803833008,19.0626907348633,19.063304901123,19.0639133453369,19.0645236968994,19.0651359558105,19.0657444000244,19.0663566589355,19.0669689178467,19.0675754547119,19.0681858062744,19.0687980651855,19.0694122314453,19.0700168609619,19.0706310272217,19.0712413787842,19.0718536376953,19.0724639892578,19.0730762481689,19.0736885070801,19.0742950439453,19.0749073028564,19.0755176544189,19.0761337280273,19.0767402648926,19.0773544311523,19.0779647827148,19.0785789489746,19.0791912078857,19.0798015594482,19.0804138183594,19.0810203552246,19.0816326141357,19.0822410583496,19.0828552246094,19.0834674835205,19.0840816497803,19.08469581604,19.0853061676025,19.085916519165,19.0865306854248,19.0871429443359,19.0877513885498,19.0883636474609,19.0889759063721,19.0895881652832,19.090202331543,19.0908145904541,19.0914249420166,19.0920391082764,19.0926494598389,19.0932636260986,19.0938777923584,19.0944900512695,19.0950984954834,19.0957107543945,19.0963230133057,19.0969390869141,19.0975513458252,19.0981636047363,19.0987777709961,19.0993919372559,19.1000061035156,19.1006164550781,19.1012306213379,19.1018390655518,19.1024513244629,19.103063583374,19.1036777496338,19.1042900085449,19.1049060821533,19.1055183410645,19.1061305999756,19.1067447662354,19.1073570251465,19.1079692840576,19.1085834503174,19.1091976165771,19.1098098754883,19.110424041748,19.1110382080078,19.1116523742676,19.1122646331787,19.1128787994385,19.1134929656982,19.114107131958,19.1147193908691,19.1153354644775,19.1159496307373,19.1165618896484,19.1171760559082,19.1177883148193,19.1184043884277,19.1190185546875,19.1196308135986,19.120246887207,19.1208610534668,19.1214752197266,19.1220893859863,19.1227035522461,19.1233177185059,19.1239318847656,19.1245441436768,19.1251621246338,19.1257762908936,19.1263904571533,19.1270046234131,19.1276206970215,19.1282348632812,19.128849029541,19.1294631958008,19.1300773620605,19.1306934356689,19.1313076019287,19.1319217681885,19.1325378417969,19.1331539154053,19.1337661743164,19.1343822479248,19.1349983215332,19.1356143951416,19.1362266540527,19.1368408203125,19.1374588012695,19.1380748748779,19.1386890411377,19.1393032073975,19.1399192810059,19.1405353546143,19.141149520874,19.1417655944824,19.1423816680908,19.1429977416992,19.143611907959,19.1442279815674,19.1448440551758,19.1454601287842,19.1460742950439,19.146692276001,19.1473083496094,19.1479244232178,19.1485385894775,19.1491565704346,19.149772644043,19.1503887176514,19.1510047912598,19.1516208648682,19.1522369384766,19.1528549194336,19.1534690856934,19.1540870666504,19.1547012329102,19.1553192138672,19.1559352874756,19.156551361084,19.1571674346924,19.1577854156494,19.1583995819092,19.1590156555176,19.1596336364746,19.160249710083,19.1608695983887,19.1614856719971,19.1621036529541,19.1627197265625,19.1633396148682,19.1639556884766,19.1645736694336,19.1651916503906,19.1658096313477,19.1664257049561,19.1670417785645,19.1676616668701,19.1682796478271,19.1688976287842,19.1695175170898,19.1701316833496,19.1707515716553,19.1713695526123,19.1719875335693,19.1726055145264,19.1732234954834,19.1738395690918,19.1744613647461,19.1750774383545,19.1756954193115,19.1763134002686,19.1769332885742,19.1775512695312,19.1781692504883,19.1787872314453,19.1794052124023,19.1800231933594,19.180643081665,19.1812610626221,19.1818790435791,19.1824989318848,19.1831188201904,19.1837368011475,19.1843547821045,19.1849746704102,19.1855926513672,19.1862106323242,19.1868305206299,19.1874504089355,19.1880702972412,19.1886882781982,19.1893081665039,19.1899261474609,19.1905460357666,19.1911640167236,19.1917839050293,19.192403793335,19.1930198669434,19.1936416625977,19.1942615509033,19.1948795318604,19.195499420166,19.1961212158203,19.1967391967773,19.197359085083,19.1979808807373,19.1985988616943,19.19921875,19.1998386383057,19.2004566192627,19.2010803222656,19.2016983032227,19.2023181915283,19.202938079834,19.2035579681396,19.2041759490967,19.2047996520996,19.2054195404053,19.2060394287109,19.2066593170166,19.2072792053223,19.2078990936279,19.2085189819336,19.2091407775879,19.2097606658936,19.2103805541992,19.2109985351562,19.2116222381592,19.2122440338135,19.2128620147705,19.2134838104248,10.0769262313843,10.0320539474487,9.98757934570312,9.94349765777588,9.89980316162109,9.85649108886719,9.81355667114258,9.77099418640137,9.72879981994629,9.68696784973145,9.64549446105957,9.60437393188477,9.56360340118408,9.52317714691162,9.48309135437012,9.44334125518799,9.40939235687256,9.38888740539551,9.3684720993042,9.34814453125,9.32790565490723,9.30775356292725,9.28768920898438,9.26771068572998,9.24781799316406,9.2280101776123,9.20828819274902,9.18864917755127,9.16909408569336,9.14962196350098,9.13023281097412,9.11092472076416,9.09169960021973,9.07255458831787,9.05348968505859,9.03450489044189,9.01560020446777,8.9967737197876,8.97802543640137,8.9593563079834,8.94076347351074,8.92224884033203,8.90380954742432,8.88544750213623,8.86715984344482,8.84894847869873,8.830810546875,8.81274795532227,8.79475784301758,8.77684211730957,8.75899887084961,8.7412281036377,8.72352886199951,8.70590209960938,8.68834495544434,8.67085838317871,8.6534423828125,8.6360969543457,8.61882019042969,8.60161209106445,8.58447360992432,8.51582527160645,8.48795890808105,8.4602746963501,8.43276977539062,8.40544414520264,8.37829494476318,8.35131931304932,8.32451820373535,8.29788780212402,8.27142715454102,8.24513626098633,8.21901035308838,8.19304752349854,8.16724586486816,8.14160633087158,8.11612796783447,8.09080791473389,8.06564617156982,8.04063892364502,8.01398849487305,7.98623561859131,7.95867490768433,7.93130350112915,7.90411996841431,7.87712240219116,7.85030794143677,7.82367563247681,7.79722356796265,7.77094984054565,7.74521923065186,7.72180557250977,7.69853258132935,7.6754002571106,7.65240573883057,7.6295485496521,7.60682821273804,7.58424234390259,7.56178998947144
18.8726043701172,18.8732032775879,18.87380027771,18.8743991851807,18.8749980926514,18.8755989074707,18.8761978149414,18.8767948150635,18.8773937225342,18.8779945373535,18.8785839080811,18.8791847229004,18.8797817230225,18.8803825378418,18.8809814453125,18.8815822601318,18.8821811676025,18.8827819824219,18.8833808898926,18.8839817047119,18.8845806121826,18.8851795196533,18.8857746124268,18.8863735198975,18.8869781494141,18.8875751495361,18.8881740570068,18.8887748718262,18.8893737792969,18.8899707794189,18.8905696868896,18.8911724090576,18.8917713165283,18.8923683166504,18.8929691314697,18.8935661315918,18.8941688537598,18.8947658538818,18.8953704833984,18.8959693908691,18.8965702056885,18.8971691131592,18.8977699279785,18.8983726501465,18.898962020874,18.899564743042,18.9001655578613,18.900764465332,18.9013652801514,18.901969909668,18.9025707244873,18.9031677246094,18.9037685394287,18.9043712615967,18.904972076416,18.9055652618408,18.9061679840088,18.9067707061768,18.9073696136475,18.9079742431641,18.9085731506348,18.9091739654541,18.9097709655762,18.9103717803955,18.9109745025635,18.9115753173828,18.9121742248535,18.9127769470215,18.9133758544922,18.9139785766602,18.9145812988281,18.9151840209961,18.9157829284668,18.9163837432861,18.9169845581055,18.9175891876221,18.9181900024414,18.9187908172607,18.9193878173828,18.9199886322021,18.9205894470215,18.9211921691895,18.9217929840088,18.9223957061768,18.9229946136475,18.9235973358154,18.9242000579834,18.9248046875,18.9254016876221,18.9260063171387,18.926607131958,18.927209854126,18.9278106689453,18.9284133911133,18.9290161132812,18.9296169281006,18.9302177429199,18.9308204650879,18.9314231872559,18.9320259094238,18.9326267242432,18.9332275390625,18.9338321685791,18.9344348907471,18.9350357055664,18.9356384277344,18.9362411499023,18.9368438720703,18.9374446868896,18.9380474090576,18.9386501312256,18.9392547607422,18.9398555755615,18.9404582977295,18.9410629272461,18.9416656494141,18.9422645568848,18.9428691864014,18.9434700012207,18.9440746307373,18.9446773529053,18.9452800750732,18.9458847045898,18.9464855194092,18.9470901489258,18.9476947784424,18.9482975006104,18.9488983154297,18.9495029449463,18.9501075744629,18.9507102966309,18.9513130187988,18.9519176483154,18.9525184631348,18.9531230926514,18.9537239074707,18.9543304443359,18.9549331665039,18.9555377960205,18.9561386108398,18.9567432403564,18.957347869873,18.9579524993896,18.958553314209,18.9591598510742,18.9597625732422,18.9603672027588,18.9609718322754,18.961576461792,18.96217918396,18.9627819061279,18.9633865356445,18.9639911651611,18.9645957946777,18.965202331543,18.9658050537109,18.9664077758789,18.9670124053955,18.9676189422607,18.9682235717773,18.9688262939453,18.9694328308105,18.9700374603271,18.9706401824951,18.9712448120117,18.971851348877,18.9724559783936,18.9730606079102,18.9736652374268,18.9742698669434,18.97487449646,18.9754791259766,18.9760856628418,18.976692199707,18.977294921875,18.9779014587402,18.9785060882568,18.9791107177734,18.9797191619873,18.9803237915039,18.9809284210205,18.9815330505371,18.9821434020996,18.9827461242676,18.9833526611328,18.983959197998,18.9845657348633,18.9851722717285,18.9857769012451,18.986385345459,18.9869899749756,18.9875946044922,18.9882030487061,18.9888095855713,18.9894142150879,18.9900207519531,18.990629196167,18.9912338256836,18.9918403625488,18.9924468994141,18.9930534362793,18.9936599731445,18.9942665100098,18.994873046875,18.9954814910889,18.9960861206055,18.9966926574707,18.9972991943359,18.9979076385498,18.9985122680664,18.9991207122803,18.9997253417969,19.0003337860107,19.000940322876,19.0015487670898,19.0021553039551,19.0027618408203,19.0033702850342,19.003978729248,19.0045833587646,19.0051918029785,19.0057983398438,19.0064067840576,19.0070133209229,19.0076217651367,19.0082302093506,19.0088367462158,19.0094432830811,19.0100498199463,19.0106582641602,19.011266708374,19.0118751525879,19.0124816894531,19.013090133667,19.0136985778809,19.0143051147461,19.0149154663086,19.0155220031738,19.0161285400391,19.0167388916016,19.0173454284668,19.0179538726807,19.0185623168945,19.0191707611084,19.0197772979736,19.0203857421875,19.0209941864014,19.0216026306152,19.0222110748291,19.022819519043,19.0234279632568,19.0240364074707,10.0529308319092,10.0082721710205,9.96400737762451,9.92013359069824,9.87664413452148,9.83353328704834,9.79079818725586,9.74843311309814,9.7064323425293,9.66479206085205,9.62350845336914,9.58257484436035,9.54198837280273,9.50174427032471,9.461838722229,9.42226600646973,9.40022659301758,9.37976169586182,9.35938549041748,9.33909797668457,9.31889820098877,9.29878520965576,9.27875900268555,9.25881862640381,9.23896408081055,9.21919441223145,9.1995096206665,9.17990875244141,9.16039085388184,9.14095497131348,9.12160205841064,9.10233116149902,9.0831413269043,9.06403255462646,9.04500389099121,9.02605438232422,9.0071849822998,8.98839378356934,8.96968078613281,8.95104598999023,8.93248844146729,8.91400718688965,8.89560222625732,8.87727355957031,8.8590202331543,8.84084129333496,8.8227367401123,8.80470657348633,8.78675079345703,8.76886653900146,8.75105571746826,8.73331737518311,8.71565055847168,8.69805526733398,8.68052959442139,8.66307544708252,8.64568996429443,8.62837505340576,8.61112976074219,8.59395217895508,8.57684421539307,8.51827144622803,8.49038982391357,8.46268939971924,8.4351692199707,8.40782737731934,8.38066291809082,8.35367298126221,8.32685565948486,8.30021095275879,8.27373600006104,8.24742889404297,8.22128963470459,8.19531440734863,8.16950035095215,8.14384651184082,8.11835384368896,8.09302043914795,8.06784439086914,8.04282379150391,8.01795864105225,7.99056053161621,7.96296977996826,7.93556928634644,7.90835666656494,7.88132953643799,7.85448694229126,7.82782649993896,7.80134630203247,7.7750449180603,7.74891996383667,7.72365665435791,7.70037317276001,7.6772289276123,7.65422391891479,7.63135623931885,7.60862493515015,7.58602857589722,7.56356573104858,7.54123544692993
18.6903762817383,18.6909637451172,18.6915512084961,18.6921367645264,18.6927242279053,18.6933116912842,18.6938972473145,18.694486618042,18.6950702667236,18.6956596374512,18.6962490081787,18.696834564209,18.6974220275879,18.6980113983154,18.6985988616943,18.6991863250732,18.6997756958008,18.7003536224365,18.7009429931641,18.701530456543,18.7021217346191,18.702709197998,18.7032947540283,18.7038841247559,18.7044715881348,18.7050609588623,18.7056484222412,18.7062358856201,18.7068214416504,18.7074089050293,18.7079963684082,18.7085876464844,18.7091732025146,18.7097625732422,18.7103519439697,18.7109394073486,18.7115287780762,18.7121143341064,18.7127056121826,18.7132930755615,18.7138767242432,18.7144680023193,18.7150535583496,18.7156448364258,18.716236114502,18.7168216705322,18.7174110412598,18.7180004119873,18.7185897827148,18.7191791534424,18.7197666168213,18.7203540802002,18.7209377288818,18.721529006958,18.7221202850342,18.7227077484131,18.7232971191406,18.7238845825195,18.7244777679443,18.7250671386719,18.7256526947021,18.7262420654297,18.7268295288086,18.7274188995361,18.7280101776123,18.7285976409912,18.7291889190674,18.7297801971436,18.7303676605225,18.73095703125,18.7315464019775,18.7321376800537,18.7327270507812,18.7333126068115,18.7339038848877,18.7344932556152,18.7350807189941,18.7356719970703,18.7362651824951,18.736852645874,18.7374439239502,18.7380313873291,18.738618850708,18.7392101287842,18.7397994995117,18.7403888702393,18.7409801483154,18.7415714263916,18.7421588897705,18.7427501678467,18.7433395385742,18.7439308166504,18.7445201873779,18.7451114654541,18.7457008361816,18.7462940216064,18.7468814849854,18.7474727630615,18.7480621337891,18.7486515045166,18.7492446899414,18.7498359680176,18.7504272460938,18.7510166168213,18.7516059875488,18.752197265625,18.7527885437012,18.7533798217773,18.7539710998535,18.7545604705811,18.7551517486572,18.7557430267334,18.7563323974609,18.7569255828857,18.7575149536133,18.7581081390381,18.7586975097656,18.7592887878418,18.759880065918,18.7604713439941,18.7610607147217,18.7616539001465,18.7622451782227,18.7628364562988,18.763427734375,18.7640209197998,18.764612197876,18.7652034759521,18.7657928466797,18.7663860321045,18.7669773101807,18.7675685882568,18.7681617736816,18.7687530517578,18.769344329834,18.7699356079102,18.770528793335,18.7711219787598,18.7717132568359,18.7723045349121,18.7728958129883,18.7734909057617,18.7740821838379,18.7746734619141,18.7752666473389,18.775857925415,18.7764511108398,18.7770404815674,18.7776336669922,18.7782287597656,18.7788200378418,18.7794094085693,18.7800045013428,18.7805957794189,18.7811889648438,18.7817821502686,18.7823753356934,18.7829666137695,18.783561706543,18.7841529846191,18.7847461700439,18.7853374481201,18.7859306335449,18.7865238189697,18.7871150970459,18.7877101898193,18.7883052825928,18.7888965606689,18.7894897460938,18.7900829315186,18.7906761169434,18.7912673950195,18.791862487793,18.7924556732178,18.7930488586426,18.793643951416,18.7942371368408,18.7948303222656,18.7954235076904,18.7960205078125,18.7966117858887,18.7972068786621,18.7978038787842,18.7983951568604,18.7989902496338,18.7995834350586,18.800178527832,18.8007736206055,18.8013668060303,18.8019618988037,18.8025569915771,18.803150177002,18.8037433624268,18.8043403625488,18.8049335479736,18.8055267333984,18.8061218261719,18.8067169189453,18.8073139190674,18.8079051971436,18.8085021972656,18.8090953826904,18.8096904754639,18.8102855682373,18.8108806610107,18.8114776611328,18.812068939209,18.8126678466797,18.8132629394531,18.8138561248779,18.814453125,18.8150482177734,18.8156414031982,18.8162364959717,18.8168334960938,18.8174285888672,18.8180236816406,18.8186168670654,18.8192138671875,18.8198089599609,18.8204040527344,18.8210029602051,18.8215980529785,18.8221912384033,18.8227882385254,18.8233852386475,18.8239803314209,18.8245754241943,18.8251705169678,18.8257675170898,18.8263607025146,18.8269577026367,18.8275547027588,18.8281517028809,18.8287467956543,18.8293437957764,18.8299388885498,18.8305339813232,18.8311309814453,18.831729888916,18.8323249816895,18.8329200744629,18.833517074585,18.834114074707,18.8347091674805,18.8353061676025,18.8359031677246,18.8365001678467,18.8370952606201,18.8376903533936,18.8382892608643,10.0290498733521,9.98460292816162,9.94054698944092,9.89687824249268,9.85359191894531,9.81068229675293,9.76814556121826,9.72597503662109,9.68416786193848,9.64271831512451,9.60162162780762,9.56087398529053,9.52047061920166,9.48040771484375,9.44068050384521,9.41159343719482,9.39107894897461,9.37065315246582,9.35031700134277,9.33006858825684,9.30990791320801,9.28983402252197,9.26984596252441,9.24994373321533,9.23012733459473,9.21039581298828,9.19074821472168,9.17118453979492,9.15170288085938,9.13230514526367,9.11298847198486,9.09375381469727,9.07460021972656,9.05552673339844,9.03653430938721,9.01762008666992,8.99878597259521,8.98003005981445,8.96135139465332,8.94275093078613,8.92422771453857,8.90578079223633,8.88741016387939,8.86911487579346,8.85089492797852,8.83274936676025,8.81467819213867,8.79668140411377,8.77875709533691,8.76090621948242,8.74312782287598,8.72542095184326,8.70778560638428,8.69022178649902,8.67272853851318,8.65530490875244,8.63795185089111,8.62066745758057,8.60345268249512,8.58630657196045,8.56922817230225,8.55221748352051,8.49282169342041,8.4651050567627,8.4375696182251,8.41021251678467,8.38303279876709,8.35602760314941,8.32919502258301,8.30253505706787,8.27604579925537,8.24972438812256,8.22356986999512,8.19758033752441,8.17175483703613,8.14608764648438,8.12058067321777,8.09523391723633,8.07004356384277,8.04500961303711,8.02013111114502,7.9948902130127,7.96726942062378,7.93983936309814,7.91259717941284,7.8855414390564,7.85867023468018,7.83198118209839,7.80547332763672,7.77914381027222,7.75299119949341,7.72701454162598,7.70221424102783,7.67905950546265,7.65604305267334,7.63316440582275,7.61042213439941,7.587815284729,7.56534194946289,7.54300165176392,7.52079248428345
18.5116348266602,18.5122127532959,18.5127868652344,18.5133609771729,18.5139408111572,18.5145149230957,18.5150909423828,18.5156669616699,18.5162391662598,18.5168170928955,18.5173931121826,18.5179691314697,18.5185470581055,18.5191173553467,18.5196952819824,18.5202770233154,18.5208511352539,18.5214252471924,18.5220050811768,18.5225811004639,18.523157119751,18.5237350463867,18.5243110656738,18.5248889923096,18.5254592895508,18.5260353088379,18.526611328125,18.5271911621094,18.5277652740479,18.5283470153809,18.528923034668,18.5294971466064,18.5300769805908,18.5306529998779,18.5312309265137,18.5318012237549,18.5323810577393,18.532958984375,18.5335350036621,18.5341167449951,18.5346908569336,18.5352687835693,18.5358467102051,18.5364227294922,18.5370006561279,18.5375785827637,18.5381488800049,18.5387287139893,18.5393085479736,18.539888381958,18.5404624938965,18.5410385131836,18.5416202545166,18.5421962738037,18.5427742004395,18.5433540344238,18.5439319610596,18.5445098876953,18.5450820922852,18.5456619262695,18.5462379455566,18.546817779541,18.5473937988281,18.5479755401611,18.5485515594482,18.549129486084,18.5497074127197,18.5502891540527,18.5508670806885,18.5514392852783,18.5520172119141,18.5525989532471,18.5531749725342,18.5537548065186,18.5543308258057,18.5549144744873,18.555492401123,18.5560684204102,18.5566463470459,18.5572242736816,18.5578022003174,18.5583801269531,18.5589599609375,18.5595417022705,18.5601177215576,18.5606937408447,18.5612735748291,18.5618515014648,18.5624294281006,18.563009262085,18.5635890960693,18.5641670227051,18.5647468566895,18.5653247833252,18.5659065246582,18.5664844512939,18.5670623779297,18.5676422119141,18.5682220458984,18.5688018798828,18.5693778991699,18.5699596405029,18.5705375671387,18.571117401123,18.5716953277588,18.5722770690918,18.5728569030762,18.5734348297119,18.5740146636963,18.5745944976807,18.575174331665,18.5757541656494,18.5763320922852,18.5769119262695,18.5774936676025,18.5780754089355,18.5786533355713,18.5792331695557,18.5798149108887,18.580394744873,18.5809745788574,18.5815525054932,18.5821323394775,18.5827140808105,18.5832939147949,18.5838737487793,18.5844535827637,18.5850353240967,18.5856132507324,18.5861949920654,18.5867748260498,18.5873565673828,18.5879364013672,18.5885143280029,18.5890960693359,18.5896778106689,18.5902557373047,18.5908393859863,18.5914192199707,18.5919990539551,18.5925788879395,18.5931606292725,18.5937423706055,18.5943202972412,18.5949020385742,18.5954856872559,18.5960655212402,18.5966453552246,18.5972270965576,18.597806930542,18.5983905792236,18.598970413208,18.5995540618896,18.600133895874,18.600715637207,18.60129737854,18.6018772125244,18.6024589538574,18.6030406951904,18.6036205291748,18.6042022705078,18.6047859191895,18.6053676605225,18.6059474945068,18.6065292358398,18.6071128845215,18.6076946258545,18.6082725524902,18.6088562011719,18.6094379425049,18.6100215911865,18.6106014251709,18.6111831665039,18.6117630004883,18.6123485565186,18.6129264831543,18.6135101318359,18.6140937805176,18.6146755218506,18.6152610778809,18.6158428192139,18.6164226531982,18.6170063018799,18.6175918579102,18.6181716918945,18.6187553405762,18.6193370819092,18.6199207305908,18.6205043792725,18.6210842132568,18.6216697692871,18.6222534179688,18.6228351593018,18.6234188079834,18.6240043640137,18.624584197998,18.6251678466797,18.62575340271,18.626335144043,18.626916885376,18.6275024414062,18.6280841827393,18.6286697387695,18.6292533874512,18.6298370361328,18.6304206848145,18.6310024261475,18.6315860748291,18.6321716308594,18.632755279541,18.6333389282227,18.6339225769043,18.6345043182373,18.6350898742676,18.6356754302979,18.6362571716309,18.6368408203125,18.6374244689941,18.6380081176758,18.6385936737061,18.6391773223877,18.639762878418,18.6403465270996,18.6409320831299,18.6415138244629,18.6420993804932,18.6426868438721,18.6432666778564,18.6438522338867,18.644437789917,18.6450233459473,18.6456050872803,18.6461887359619,18.6467761993408,18.6473598480225,18.6479434967041,18.648530960083,18.6491146087646,18.6496963500977,18.6502838134766,18.6508693695068,18.6514530181885,18.6520385742188,18.652624130249,18.6532077789307,18.6537933349609,18.6543788909912,18.6549644470215,18.6555480957031,10.0499153137207,10.0052824020386,9.96104526519775,9.91719627380371,9.8737325668335,9.83064746856689,9.78793716430664,9.74559688568115,9.70362091064453,9.6620044708252,9.62074375152588,9.579833984375,9.53927135467529,9.49905014038086,9.45916652679443,9.42298698425293,9.40242290496826,9.38194847106934,9.36156368255615,9.34126567840576,9.3210563659668,9.30093479156494,9.28089904785156,9.26095008850098,9.24108600616455,9.2213077545166,9.2016134262085,9.18200302124023,9.16247653961182,9.14303207397461,9.12367057800293,9.10439109802246,9.08519268035889,9.06607532501221,9.04703807830811,9.02807998657227,9.009202003479,8.99040222167969,8.97168064117432,8.95303726196289,8.93447208404541,8.91598224639893,8.89756965637207,8.87923240661621,8.86097049713135,8.84278392791748,8.82467269897461,8.80663394927979,8.78866958618164,8.77077865600586,8.75296020507812,8.73521327972412,8.71753883361816,8.69993591308594,8.68240356445312,8.66494178771973,8.64754962921143,8.63022708892822,8.61297416687012,8.59578990936279,8.57867336273193,8.56162548065186,8.54464530944824,8.52773189544678,8.4675235748291,8.43997097015381,8.41259860992432,8.38540363311768,8.35838317871094,8.33153629302979,8.30486106872559,8.27835655212402,8.25201988220215,8.22585105895996,8.19984722137451,8.17400741577148,8.14833068847656,8.12280941009521,8.09744739532471,8.07224464416504,8.04719734191895,8.02230453491211,7.99756574630737,7.97157382965088,7.94411420822144,7.91684293746948,7.88975811004639,7.86285781860352,7.83614063262939,7.80960416793823,7.78324699401855,7.75706720352173,7.73106288909912,7.70523262023926,7.68089008331299,7.6578631401062,7.63497352600098,7.61222076416016,7.58960294723511,7.56711912155151,7.54476833343506,7.52254867553711,7.50046014785767
18.3362789154053,18.3368473052979,18.3374099731445,18.3379745483398,18.3385391235352,18.3391036987305,18.3396701812744,18.340238571167,18.340799331665,18.341365814209,18.3419303894043,18.3424949645996,18.3430633544922,18.3436279296875,18.3441905975342,18.3447589874268,18.3453235626221,18.3458881378174,18.3464546203613,18.3470211029053,18.347583770752,18.3481483459473,18.3487148284912,18.3492794036865,18.3498477935791,18.3504123687744,18.3509769439697,18.3515453338623,18.352108001709,18.3526763916016,18.3532428741455,18.3538093566895,18.3543720245361,18.3549365997314,18.3555030822754,18.3560695648193,18.3566379547119,18.3572044372559,18.3577671051025,18.3583354949951,18.3589000701904,18.359468460083,18.3600311279297,18.3605976104736,18.3611660003662,18.3617324829102,18.3623008728027,18.3628673553467,18.3634338378906,18.3640022277832,18.3645668029785,18.3651332855225,18.3656997680664,18.3662643432617,18.366828918457,18.367395401001,18.3679637908936,18.3685340881348,18.3691005706787,18.3696670532227,18.3702335357666,18.3708019256592,18.3713684082031,18.3719367980957,18.3724975585938,18.3730697631836,18.3736343383789,18.3742027282715,18.3747653961182,18.375337600708,18.3759002685547,18.3764743804932,18.3770370483398,18.3776035308838,18.378173828125,18.3787364959717,18.3793067932129,18.3798751831055,18.3804416656494,18.381010055542,18.3815765380859,18.3821449279785,18.3827152252197,18.383279800415,18.3838500976562,18.3844203948975,18.3849811553955,18.3855495452881,18.386116027832,18.386682510376,18.3872528076172,18.3878192901611,18.3883876800537,18.3889579772949,18.3895263671875,18.3900928497314,18.3906593322754,18.3912296295166,18.3917980194092,18.3923664093018,18.3929328918457,18.3935012817383,18.3940715789795,18.3946399688721,18.395206451416,18.3957748413086,18.3963451385498,18.396915435791,18.397481918335,18.3980522155762,18.3986186981201,18.3991870880127,18.3997554779053,18.4003257751465,18.4008960723877,18.4014625549316,18.4020309448242,18.4026012420654,18.403169631958,18.4037399291992,18.4043064117432,18.4048748016357,18.405445098877,18.4060153961182,18.4065837860107,18.4071521759033,18.4077224731445,18.4082927703857,18.4088592529297,18.4094314575195,18.4099998474121,18.4105701446533,18.4111385345459,18.4117088317871,18.4122772216797,18.4128475189209,18.4134159088135,18.4139881134033,18.4145584106445,18.4151268005371,18.4156932830811,18.4162654876709,18.4168357849121,18.4174041748047,18.4179744720459,18.4185447692871,18.4191150665283,18.4196834564209,18.4202537536621,18.4208240509033,18.4213962554932,18.4219646453857,18.422534942627,18.4231052398682,18.4236755371094,18.424243927002,18.4248142242432,18.4253845214844,18.4259567260742,18.4265251159668,18.427095413208,18.4276676177979,18.4282379150391,18.4288082122803,18.4293804168701,18.42995262146,18.4305229187012,18.4310894012451,18.431661605835,18.4322338104248,18.4328060150146,18.4333724975586,18.4339447021484,18.4345169067383,18.4350872039795,18.4356575012207,18.4362297058105,18.4368000030518,18.4373722076416,18.4379425048828,18.4385147094727,18.4390830993652,18.4396572113037,18.4402275085449,18.4407997131348,18.441370010376,18.4419441223145,18.4425144195557,18.4430885314941,18.4436588287354,18.4442291259766,18.444803237915,18.4453735351562,18.4459457397461,18.4465198516846,18.447093963623,18.4476623535156,18.4482345581055,18.4488086700439,18.4493808746338,18.4499530792236,18.4505252838135,18.451099395752,18.4516716003418,18.452241897583,18.4528160095215,18.4533882141113,18.4539604187012,18.454532623291,18.4551067352295,18.4556789398193,18.4562511444092,18.4568252563477,18.4573974609375,18.4579696655273,18.4585437774658,18.4591159820557,18.4596900939941,18.4602603912354,18.4608364105225,18.4614067077637,18.4619808197021,18.462553024292,18.4631271362305,18.4636993408203,18.4642734527588,18.4648475646973,18.4654197692871,18.465991973877,18.4665679931641,18.4671401977539,18.4677124023438,18.4682865142822,18.4688625335693,18.4694347381592,18.4700088500977,18.4705810546875,18.471155166626,18.4717273712158,18.4723014831543,18.4728775024414,18.4734477996826,18.4740238189697,18.4745979309082,18.4751720428467,18.4757461547852,18.476318359375,18.4768943786621,10.0260486602783,9.98162746429443,9.93759822845459,9.89395523071289,9.85069465637207,9.80780982971191,9.76529788970947,9.72315216064453,9.68136882781982,9.63994312286377,9.59887027740479,9.55814552307129,9.51776599884033,9.4777250289917,9.43802070617676,9.41379547119141,9.39327144622803,9.37283611297607,9.35249042510986,9.33223247528076,9.31206226348877,9.29197883605957,9.27198219299316,9.25207138061523,9.23224544525146,9.21250438690186,9.19284820556641,9.17327499389648,9.15378570556641,9.13437843322754,9.11505317687988,9.09580993652344,9.07664775848389,9.05756568908691,9.03856372833252,9.0196418762207,9.00079917907715,8.98203468322754,8.96334838867188,8.94473934173584,8.92620754241943,8.90775203704834,8.88937377929688,8.87106990814209,8.85284233093262,8.83468914031982,8.81661033630371,8.79860496520996,8.78067302703857,8.76281452178955,8.74502754211426,8.72731399536133,8.70967102050781,8.69209957122803,8.67459869384766,8.6571683883667,8.63980770111084,8.62251663208008,8.60529327392578,8.58813953399658,8.57105445861816,8.55403709411621,8.53708648681641,8.52020359039307,8.46994209289551,8.44237422943115,8.4149866104126,8.38777542114258,8.36073970794678,8.33387756347656,8.30718803405762,8.28066825866699,8.25431728363037,8.22813415527344,8.20211601257324,8.17626190185547,8.1505708694458,8.12503910064697,8.09966373443604,8.0744457244873,8.04938507080078,8.02447891235352,7.99972724914551,7.97512722015381,7.94839334487915,7.92109251022339,7.8939790725708,7.86705017089844,7.84030437469482,7.81373977661133,7.78735494613647,7.76114749908447,7.73511600494385,7.70925807952881,7.68357276916504,7.65968418121338,7.63678359985352,7.61401987075806,7.59139156341553,7.56889724731445,7.54653549194336,7.52430582046509,7.50220680236816,7.48023700714111
18.1642150878906,18.1647720336914,18.1653289794922,18.1658802032471,18.166431427002,18.1669883728027,18.1675415039062,18.1680927276611,18.1686496734619,18.1692047119141,18.1697597503662,18.170316696167,18.1708660125732,18.171422958374,18.1719799041748,18.1725311279297,18.1730861663818,18.1736431121826,18.1741981506348,18.1747531890869,18.1753082275391,18.1758632659912,18.1764183044434,18.1769752502441,18.1775283813477,18.1780815124512,18.1786346435547,18.1791877746582,18.1797485351562,18.1803035736084,18.1808567047119,18.1814155578613,18.1819705963135,18.1825256347656,18.1830825805664,18.1836357116699,18.1841926574707,18.1847476959229,18.1853008270264,18.1858577728271,18.1864109039307,18.1869678497314,18.1875228881836,18.1880798339844,18.1886348724365,18.1891918182373,18.1897468566895,18.1903018951416,18.190860748291,18.1914100646973,18.1919689178467,18.1925220489502,18.1930828094482,18.193639755249,18.1941967010498,18.1947536468506,18.1953067779541,18.1958656311035,18.1964225769043,18.1969776153564,18.1975269317627,18.1980857849121,18.1986446380615,18.1991996765137,18.1997566223145,18.2003116607666,18.2008724212646,18.2014293670654,18.2019863128662,18.2025413513184,18.2030982971191,18.2036533355713,18.2042102813721,18.2047653198242,18.2053241729736,18.205883026123,18.2064361572266,18.2069911956787,18.2075519561768,18.2081069946289,18.2086639404297,18.2092208862305,18.2097759246826,18.2103328704834,18.2108917236328,18.2114486694336,18.212007522583,18.2125663757324,18.2131214141846,18.2136783599854,18.2142333984375,18.2147922515869,18.2153491973877,18.2159061431885,18.2164630889893,18.2170219421387,18.2175807952881,18.2181358337402,18.2186946868896,18.2192535400391,18.2198085784912,18.2203674316406,18.2209243774414,18.2214832305908,18.222038269043,18.2225971221924,18.2231559753418,18.2237148284912,18.2242736816406,18.2248306274414,18.2253894805908,18.2259483337402,18.226505279541,18.2270622253418,18.2276210784912,18.2281818389893,18.2287368774414,18.2292957305908,18.2298526763916,18.2304134368896,18.2309703826904,18.2315273284912,18.2320861816406,18.2326469421387,18.2332038879395,18.2337627410889,18.2343215942383,18.2348804473877,18.2354373931885,18.2359962463379,18.2365550994873,18.2371158599854,18.2376708984375,18.2382316589355,18.238790512085,18.2393493652344,18.2399063110352,18.2404670715332,18.2410278320312,18.241584777832,18.2421436309814,18.2427043914795,18.2432632446289,18.243824005127,18.2443809509277,18.2449417114258,18.2454986572266,18.2460594177246,18.246618270874,18.2471790313721,18.2477359771729,18.2482967376709,18.2488555908203,18.2494144439697,18.2499752044678,18.2505340576172,18.2510948181152,18.2516555786133,18.2522125244141,18.2527732849121,18.2533321380615,18.2538928985596,18.254451751709,18.2550106048584,18.2555713653564,18.2561321258545,18.2566928863525,18.2572498321533,18.2578105926514,18.2583713531494,18.2589302062988,18.2594909667969,18.2600498199463,18.2606105804443,18.261173248291,18.2617301940918,18.2622909545898,18.2628517150879,18.2634143829346,18.263973236084,18.2645359039307,18.2650966644287,18.2656574249268,18.2662162780762,18.2667770385742,18.2673358917236,18.2678985595703,18.2684574127197,18.2690200805664,18.2695808410645,18.2701416015625,18.2707042694092,18.2712650299072,18.2718257904053,18.272388458252,18.2729511260986,18.2735118865967,18.2740726470947,18.2746334075928,18.2751960754395,18.2757549285889,18.2763175964355,18.2768802642822,18.2774429321289,18.278003692627,18.278564453125,18.2791290283203,18.2796878814697,18.2802486419678,18.2808151245117,18.2813739776611,18.2819347381592,18.2824993133545,18.2830600738525,18.2836227416992,18.2841854095459,18.2847480773926,18.2853088378906,18.2858715057373,18.2864322662354,18.2869968414307,18.2875576019287,18.2881183624268,18.2886810302734,18.2892456054688,18.2898082733154,18.2903690338135,18.2909336090088,18.2914943695068,18.2920570373535,18.2926197052002,18.2931842803955,18.2937450408936,18.2943077087402,18.2948722839355,18.2954349517822,18.2959976196289,18.2965621948242,18.2971229553223,18.2976837158203,18.298246383667,18.2988128662109,18.299373626709,18.2999362945557,18.3005027770996,18.3010635375977,18.3016262054443,10.0022954940796,9.958083152771,9.91426086425781,9.87082290649414,9.82776355743408,9.78507804870605,9.74276256561279,9.70081043243408,9.65921878814697,9.61798191070557,9.57709503173828,9.53655529022217,9.49635696411133,9.4564962387085,9.42519474029541,9.40462112426758,9.38413715362549,9.36374187469482,9.34343528747559,9.32321643829346,9.30308532714844,9.28304100036621,9.26308250427246,9.24320888519287,9.22342109680176,9.2037181854248,9.1840991973877,9.16456317901611,9.14511108398438,9.12574005126953,9.10645198822021,9.08724498748779,9.06811809539795,9.049072265625,9.03010654449463,9.01121997833252,8.99241161346436,8.97368240356445,8.95503044128418,8.93645572662354,8.91795825958252,8.89953708648682,8.88119220733643,8.86292266845703,8.84472846984863,8.82660865783691,8.80856227874756,8.79059028625488,8.77269077301025,8.75486469268799,8.73711013793945,8.71942806243896,8.70181751251221,8.68427753448486,8.66680812835693,8.64940929412842,8.63207912445068,8.61481857299805,8.59762763977051,8.58050346374512,8.56344890594482,8.54646110534668,8.529541015625,8.51268768310547,8.49590110778809,8.44477939605713,8.4173755645752,8.39014911651611,8.36309814453125,8.33622074127197,8.30951595306396,8.28298187255859,8.25661659240723,8.23041820526123,8.20438575744629,8.17851734161377,8.15281200408936,8.1272668838501,8.10188007354736,8.0766487121582,8.05157470703125,8.02665519714355,8.0018892288208,7.97727632522583,7.95267724990845,7.92534732818604,7.89820432662964,7.87124681472778,7.84447240829468,7.81787967681885,7.79146671295166,7.76523160934448,7.73917293548584,7.71328783035278,7.68757581710815,7.66203451156616,7.63859462738037,7.61581993103027,7.59318113327026,7.57067584991455,7.54830408096313,7.52606391906738,7.50395441055298,7.48197460174561,7.46012306213379
17.9953479766846,17.9958915710449,17.9964389801025,17.9969825744629,17.9975261688232,17.9980697631836,17.9986171722412,17.9991588592529,17.9997062683105,18.0002517700195,18.0007934570312,18.001335144043,18.001880645752,18.0024261474609,18.0029697418213,18.0035133361816,18.0040588378906,18.004602432251,18.0051498413086,18.0056915283203,18.0062389373779,18.0067825317383,18.00732421875,18.007869720459,18.008415222168,18.008960723877,18.0095062255859,18.0100479125977,18.0105953216553,18.0111408233643,18.0116882324219,18.0122318267822,18.0127792358398,18.0133171081543,18.0138645172119,18.0144081115723,18.0149536132812,18.0155010223389,18.0160465240479,18.0165920257568,18.0171375274658,18.0176811218262,18.0182285308838,18.0187740325928,18.0193138122559,18.0198612213135,18.0204086303711,18.0209560394287,18.0215034484863,18.022045135498,18.022590637207,18.023136138916,18.023681640625,18.0242290496826,18.0247764587402,18.0253219604492,18.0258655548096,18.0264091491699,18.0269584655762,18.0275020599365,18.0280494689941,18.0285930633545,18.0291442871094,18.0296897888184,18.0302352905273,18.030782699585,18.0313282012939,18.0318717956543,18.032413482666,18.0329627990723,18.0335102081299,18.0340576171875,18.0346031188965,18.0351505279541,18.0356960296631,18.0362453460693,18.0367908477783,18.0373382568359,18.0378799438477,18.0384292602539,18.0389747619629,18.0395202636719,18.0400695800781,18.0406169891357,18.0411624908447,18.0417060852051,18.04225730896,18.0428047180176,18.0433521270752,18.0438938140869,18.0444412231445,18.0449905395508,18.0455379486084,18.0460834503174,18.046630859375,18.0471801757812,18.0477275848389,18.0482730865479,18.0488204956055,18.0493679046631,18.0499153137207,18.0504608154297,18.0510082244873,18.0515575408936,18.0521049499512,18.0526523590088,18.0531997680664,18.0537452697754,18.054292678833,18.0548419952393,18.0553894042969,18.0559368133545,18.0564842224121,18.0570316314697,18.0575790405273,18.0581283569336,18.0586757659912,18.0592250823975,18.0597705841064,18.0603199005127,18.0608673095703,18.0614166259766,18.0619659423828,18.0625133514404,18.063060760498,18.063606262207,18.0641574859619,18.0647048950195,18.0652542114258,18.0658016204834,18.0663509368896,18.0668983459473,18.0674457550049,18.0679931640625,18.0685443878174,18.069091796875,18.0696411132812,18.0701885223389,18.0707378387451,18.0712871551514,18.071834564209,18.0723819732666,18.0729331970215,18.0734806060791,18.0740280151367,18.074577331543,18.0751266479492,18.0756759643555,18.0762233734131,18.0767726898193,18.0773220062256,18.0778713226318,18.0784187316895,18.0789699554443,18.0795192718506,18.0800666809082,18.0806159973145,18.0811653137207,18.0817165374756,18.0822639465332,18.0828132629395,18.0833625793457,18.0839138031006,18.0844612121582,18.0850105285645,18.0855598449707,18.0861129760742,18.0866584777832,18.0872097015381,18.0877590179443,18.0883102416992,18.0888576507568,18.0894088745117,18.089958190918,18.0905075073242,18.0910568237305,18.0916080474854,18.0921573638916,18.0927085876465,18.0932559967041,18.093807220459,18.0943565368652,18.0949058532715,18.0954570770264,18.0960083007812,18.0965576171875,18.0971088409424,18.09765625,18.0982074737549,18.0987567901611,18.0993099212646,18.0998592376709,18.1004123687744,18.1009616851807,18.1015129089355,18.1020660400391,18.1026153564453,18.1031665802002,18.1037158966064,18.10426902771,18.1048183441162,18.1053695678711,18.105920791626,18.1064720153809,18.1070232391357,18.1075744628906,18.1081275939941,18.108678817749,18.1092262268066,18.1097812652588,18.1103324890137,18.1108837127686,18.1114349365234,18.111988067627,18.1125392913818,18.1130905151367,18.1136417388916,18.1141929626465,18.11474609375,18.1152954101562,18.1158485412598,18.1164016723633,18.1169509887695,18.1175022125244,18.1180572509766,18.1186084747314,18.1191596984863,18.1197147369385,18.1202640533447,18.1208171844482,18.1213684082031,18.1219215393066,18.1224727630615,18.123025894165,18.1235790252686,18.1241302490234,18.1246814727783,18.1252326965332,18.1257877349854,18.1263389587402,18.1268901824951,18.1274433135986,18.1279964447021,18.128547668457,18.1291027069092,18.1296539306641,9.97865390777588,9.93465042114258,9.89103412628174,9.84779834747314,9.80493927001953,9.76245212554932,9.72033023834229,9.6785717010498,9.63716983795166,9.59612083435059,9.55541896820068,9.51506233215332,9.47504425048828,9.43662166595459,9.4159984588623,9.39546489715576,9.37502002716064,9.35466480255127,9.334397315979,9.31421756744385,9.2941255569458,9.27411937713623,9.25419902801514,9.23436450958252,9.21461486816406,9.19494915008545,9.17536735534668,9.15586853027344,9.13645267486572,9.11711883544922,9.09786701202393,9.07869529724121,9.05960559844971,9.04059505462646,9.0216646194458,9.0028133392334,8.98404026031494,8.96534538269043,8.94672775268555,8.92818832397461,8.90972518920898,8.89133739471436,8.87302684783936,8.85479068756104,8.83662891387939,8.81854248046875,8.80052947998047,8.78258991241455,8.76472282409668,8.74692916870117,8.72920703887939,8.71155643463135,8.69397735595703,8.67646980285645,8.65903186798096,8.64166355133057,8.62436485290527,8.60713577270508,8.58997440338135,8.5728816986084,8.55585670471191,8.53889942169189,8.52200889587402,8.5051851272583,8.48842811584473,8.47173595428467,8.41976547241211,8.39252376556396,8.36545753479004,8.33856582641602,8.31184577941895,8.28529644012451,8.25891590118408,8.23270320892334,8.20665645599365,8.18077373504639,8.15505409240723,8.12949562072754,8.10409641265869,8.07885265350342,8.05376529693604,8.02883243560791,8.00405311584473,7.97942638397217,7.95495128631592,7.92960643768311,7.90243434906006,7.87544775009155,7.84864521026611,7.82202434539795,7.79558324813843,7.76932048797607,7.74323415756226,7.71732234954834,7.69158315658569,7.66601514816284,7.64061689376831,7.61762094497681,7.59497117996216,7.57245588302612,7.55007314682007,7.52782249450684,7.50570297241211,7.48371267318726,7.46185064315796,7.44011640548706
17.8295974731445,17.8301334381104,17.8306674957275,17.8312034606934,17.8317337036133,17.8322677612305,17.8327980041504,17.8333320617676,17.833869934082,17.8344058990479,17.8349361419678,17.8354721069336,17.8360080718994,17.8365440368652,17.8370800018311,17.8376121520996,17.8381443023682,17.8386821746826,17.8392124176025,17.8397464752197,17.8402843475342,17.8408184051514,17.8413524627686,17.8418865203857,17.8424224853516,17.8429565429688,17.8434906005859,17.8440284729004,17.8445606231689,17.8450946807861,17.845630645752,17.8461666107178,17.846700668335,17.8472385406494,17.8477745056152,17.8483066558838,17.8488445281982,17.8493785858154,17.8499145507812,17.8504524230957,17.850980758667,17.8515167236328,17.85205078125,17.8525886535645,17.8531265258789,17.8536586761475,17.8541927337646,17.8547306060791,17.8552684783936,17.8558044433594,17.8563404083252,17.8568706512451,17.8574066162109,17.8579444885254,17.8584804534912,17.859016418457,17.8595523834229,17.8600845336914,17.8606224060059,17.8611583709717,17.8616962432861,17.862232208252,17.8627643585205,17.8633041381836,17.8638381958008,17.8643779754639,17.8649120330811,17.8654479980469,17.8659839630127,17.8665180206299,17.8670616149902,17.8675937652588,17.8681316375732,17.8686637878418,17.8692016601562,17.8697357177734,17.8702735900879,17.8708095550537,17.8713474273682,17.871883392334,17.8724212646484,17.8729572296143,17.8734931945801,17.8740310668945,17.8745670318604,17.8751049041748,17.8756408691406,17.8761768341064,17.8767147064209,17.877254486084,17.8777885437012,17.8783264160156,17.8788642883301,17.8793964385986,17.8799343109131,17.8804721832275,17.8810081481934,17.8815460205078,17.8820819854736,17.8826217651367,17.8831577301025,17.8836975097656,17.8842334747314,17.8847713470459,17.8853073120117,17.8858451843262,17.8863830566406,17.8869209289551,17.8874568939209,17.8879928588867,17.8885326385498,17.8890705108643,17.8896064758301,17.8901443481445,17.8906841278076,17.8912220001221,17.8917579650879,17.8922958374023,17.8928337097168,17.8933715820312,17.8939094543457,17.8944473266602,17.894983291626,17.8955230712891,17.8960590362549,17.896598815918,17.8971366882324,17.8976764678955,17.8982124328613,17.8987503051758,17.8992881774902,17.8998279571533,17.9003658294678,17.9009056091309,17.9014434814453,17.9019832611084,17.9025192260742,17.9030590057373,17.9035987854004,17.9041366577148,17.9046745300293,17.9052143096924,17.9057502746582,17.9062919616699,17.9068279266357,17.9073677062988,17.9079055786133,17.9084453582764,17.9089832305908,17.9095230102539,17.9100608825684,17.9106025695801,17.9111385345459,17.911678314209,17.9122180938721,17.9127559661865,17.913293838501,17.9138355255127,17.9143733978271,17.9149150848389,17.9154510498047,17.9159908294678,17.9165306091309,17.9170684814453,17.9176082611084,17.9181480407715,17.9186859130859,17.9192237854004,17.9197654724121,17.9203052520752,17.9208450317383,17.9213848114014,17.9219264984131,17.9224662780762,17.9230041503906,17.9235439300537,17.9240837097168,17.9246253967285,17.9251651763916,17.9257030487061,17.9262428283691,17.9267845153809,17.9273223876953,17.9278602600098,17.9284000396729,17.9289436340332,17.9294834136963,17.9300231933594,17.9305629730225,17.9311027526855,17.9316425323486,17.9321823120117,17.9327239990234,17.9332637786865,17.9338035583496,17.9343433380127,17.934886932373,17.9354267120361,17.9359683990479,17.9365062713623,17.9370498657227,17.9375896453857,17.9381313323975,17.9386730194092,17.9392147064209,17.939754486084,17.9402942657471,17.9408397674561,17.9413776397705,17.9419174194336,17.9424610137939,17.943000793457,17.9435424804688,17.9440841674805,17.9446258544922,17.9451675415039,17.9457092285156,17.9462509155273,17.9467906951904,17.9473342895508,17.9478740692139,17.9484176635742,17.9489593505859,17.949499130249,17.9500427246094,17.9505844116211,17.9511241912842,17.9516658782959,17.9522094726562,17.952751159668,17.9532928466797,17.9538345336914,17.9543781280518,17.9549198150635,17.9554615020752,17.9560050964355,17.9565448760986,17.9570865631104,17.9576282501221,17.9581718444824,17.9587135314941,17.9592552185059,17.9597988128662,17.9603424072266,17.9608840942383,9.95512390136719,9.91132736206055,9.86791515350342,9.8248815536499,9.7822208404541,9.73992919921875,9.69800186157227,9.65643405914307,9.61522102355957,9.5743579864502,9.53384113311768,9.49366569519043,9.45382785797119,9.42740345001221,9.40682029724121,9.38632583618164,9.36592197418213,9.34560585021973,9.32537746429443,9.30523681640625,9.28518295288086,9.26521492004395,9.24533367156982,9.22553634643555,9.20582389831543,9.18619632720947,9.16665172576904,9.14719009399414,9.12781047821045,9.10851287841797,9.0892972946167,9.07016277313232,9.05110836029053,9.03213310241699,9.01323795318604,8.99442195892334,8.97568416595459,8.95702362060547,8.93844127655029,8.91993522644043,8.9015064239502,8.88315296173096,8.86487579345703,8.84667301177979,8.82854461669922,8.81049060821533,8.79251098632812,8.77460384368896,8.75677013397217,8.7390079498291,8.72131824493408,8.70370006561279,8.68615245819092,8.66867542266846,8.65126895904541,8.63393211364746,8.61666488647461,8.59946537017822,8.58233547210693,8.56527233123779,8.54827785491943,8.53135013580322,8.51449012756348,8.49769592285156,8.4809684753418,8.46430587768555,8.42215728759766,8.39490032196045,8.36781883239746,8.34091091156006,8.31417655944824,8.28761196136475,8.26121711730957,8.23499011993408,8.20892906188965,8.18303203582764,8.15729808807373,8.1317253112793,8.10631275177002,8.08105754852295,8.05595684051514,8.03101062774658,8.00621795654297,7.98157835006714,7.95708990097046,7.93275117874146,7.90666913986206,7.8796534538269,7.85282230377197,7.82617282867432,7.79970407485962,7.77341365814209,7.7472996711731,7.72136068344116,7.69559478759766,7.67000007629395,7.64457559585571,7.61942291259766,7.59676218032837,7.5742359161377,7.55184316635132,7.52958202362061,7.5074520111084,7.48545169830322,7.4635796546936,7.44183540344238,7.42021751403809
17.6668663024902,17.6673927307129,17.6679134368896,17.6684379577637,17.6689624786377,17.6694889068604,17.6700134277344,17.6705379486084,17.6710643768311,17.6715850830078,17.6721153259277,17.6726398468018,17.6731624603271,17.6736831665039,17.6742057800293,17.6747360229492,17.6752586364746,17.6757831573486,17.6763095855713,17.6768341064453,17.6773624420166,17.6778869628906,17.678409576416,17.6789379119873,17.6794605255127,17.6799850463867,17.6805114746094,17.681037902832,17.6815605163574,17.6820869445801,17.6826114654541,17.6831378936768,17.6836624145508,17.6841888427734,17.6847133636475,17.6852378845215,17.6857604980469,17.6862888336182,17.6868114471436,17.6873397827148,17.6878681182861,17.6883907318115,17.6889171600342,17.6894416809082,17.6899719238281,17.6904983520508,17.6910228729248,17.6915397644043,17.6920680999756,17.6925964355469,17.6931228637695,17.6936454772949,17.6941738128662,17.6947002410889,17.6952285766602,17.6957550048828,17.6962776184082,17.6968040466309,17.6973285675049,17.6978549957275,17.6983814239502,17.6989097595215,17.6994380950928,17.6999645233154,17.7004890441895,17.7010154724121,17.7015399932861,17.7020664215088,17.7025947570801,17.7031173706055,17.7036437988281,17.7041702270508,17.7047004699707,17.7052268981934,17.7057552337646,17.7062816619873,17.7068061828613,17.7073345184326,17.7078590393066,17.7083911895752,17.7089138031006,17.7094383239746,17.7099647521973,17.7104930877686,17.7110195159912,17.7115497589111,17.7120723724365,17.7126007080078,17.7131309509277,17.7136573791504,17.7141857147217,17.7147102355957,17.7152347564697,17.7157669067383,17.7162914276123,17.7168159484863,17.7173461914062,17.7178707122803,17.7183990478516,17.7189254760742,17.7194557189941,17.7199802398682,17.7205085754395,17.7210369110107,17.721565246582,17.7220897674561,17.722620010376,17.7231464385986,17.7236747741699,17.7242031097412,17.7247295379639,17.7252578735352,17.7257881164551,17.7263145446777,17.726842880249,17.7273712158203,17.7278995513916,17.7284259796143,17.7289543151855,17.7294826507568,17.7300090789795,17.7305393218994,17.7310676574707,17.731595993042,17.732120513916,17.7326507568359,17.7331790924072,17.7337074279785,17.7342338562012,17.7347640991211,17.7352924346924,17.7358207702637,17.736349105835,17.7368755340576,17.7374057769775,17.7379360198975,17.7384624481201,17.73899269104,17.7395210266113,17.7400493621826,17.7405776977539,17.7411060333252,17.7416343688965,17.7421646118164,17.7426929473877,17.7432231903076,17.7437515258789,17.7442798614502,17.7448081970215,17.74534034729,17.7458667755127,17.7463970184326,17.7469253540039,17.7474555969238,17.7479839324951,17.748514175415,17.7490425109863,17.7495708465576,17.7501010894775,17.7506294250488,17.7511596679688,17.75168800354,17.7522163391113,17.7527484893799,17.7532749176025,17.7538070678711,17.7543354034424,17.7548637390137,17.7553958892822,17.7559242248535,17.7564544677734,17.7569828033447,17.7575149536133,17.7580432891846,17.7585735321045,17.7590999603271,17.7596340179443,17.7601623535156,17.7606925964355,17.7612228393555,17.7617511749268,17.7622814178467,17.7628135681152,17.7633399963379,17.7638740539551,17.764404296875,17.7649345397949,17.7654628753662,17.7659950256348,17.7665252685547,17.7670555114746,17.7675838470459,17.7681140899658,17.7686462402344,17.7691764831543,17.7697048187256,17.7702369689941,17.7707672119141,17.7712993621826,17.7718296051025,17.7723617553711,17.772891998291,17.7734222412109,17.7739524841309,17.774486541748,17.7750186920166,17.7755470275879,17.7760791778564,17.776611328125,17.7771415710449,17.7776718139648,17.778205871582,17.778736114502,17.7792663574219,17.7797985076904,17.780330657959,17.7808628082275,17.7813930511475,17.781925201416,17.7824573516846,17.7829856872559,17.783519744873,17.7840518951416,17.7845821380615,17.7851142883301,17.7856483459473,17.7861804962158,17.7867126464844,17.7872428894043,17.7877769470215,17.7883071899414,17.7888374328613,17.7893714904785,17.7899036407471,17.7904376983643,17.7909660339355,17.7915000915527,17.7920341491699,17.7925643920898,17.7930965423584,17.7936305999756,17.7941627502441,17.7946949005127,17.7952270507812,9.93170547485352,9.8881139755249,9.84490394592285,9.80207061767578,9.75960731506348,9.71751022338867,9.6757755279541,9.63439750671387,9.5933723449707,9.55269432067871,9.51236057281494,9.4723653793335,9.43883609771729,9.41820240020752,9.39765930175781,9.37720584869385,9.35684013366699,9.33656406402588,9.31637477874756,9.29627323150635,9.27625751495361,9.25632858276367,9.23648452758789,9.21672534942627,9.19705104827881,9.17745971679688,9.15795230865479,9.13852787017822,9.11918544769287,9.09992408752441,9.08074474334717,9.0616455078125,9.04262733459473,9.0236873626709,9.00482749938965,8.98604679107666,8.9673433303833,8.94871807098389,8.9301700592041,8.91169834136963,8.89330291748047,8.87498378753662,8.85673999786377,8.8385705947876,8.82047557830811,8.80245494842529,8.78450679779053,8.76663303375244,8.74883079528809,8.73110103607178,8.71344375610352,8.69585704803467,8.67834091186523,8.66089534759521,8.64352035522461,8.62621402740479,8.60897731781006,8.59180927276611,8.57470989227295,8.55767726898193,8.54071235656738,8.5238151550293,8.50698471069336,8.49022006988525,8.47352123260498,8.45688819885254,8.44032096862793,8.39727783203125,8.3701810836792,8.34325885772705,8.31650829315186,8.28992938995361,8.26352024078369,8.23727798461914,8.21120262145996,8.1852912902832,8.15954303741455,8.13395595550537,8.10852909088135,8.08326148986816,8.05815029144287,8.03318977355957,8.00838375091553,7.98373079299927,7.95922899246216,7.93487739562988,7.91067409515381,7.88386392593384,7.85700368881226,7.83032608032227,7.80382919311523,7.77751111984253,7.75136947631836,7.72540330886841,7.69961071014404,7.67398929595947,7.64853811264038,7.62325477600098,7.5985541343689,7.57601737976074,7.55361413955688,7.53134250640869,7.509202003479,7.48719167709351,7.46530961990356,7.44355535507202,7.42192697525024,7.4004340171814
17.5070858001709,17.5075969696045,17.5081119537354,17.5086269378662,17.5091419219971,17.5096569061279,17.5101737976074,17.5106887817383,17.5112018585205,17.5117149353027,17.512228012085,17.5127487182617,17.5132617950439,17.5137805938721,17.5142936706543,17.5148086547852,17.5153274536133,17.5158424377441,17.516357421875,17.5168724060059,17.5173854827881,17.5178966522217,17.5184173583984,17.5189323425293,17.5194454193115,17.5199661254883,17.5204792022705,17.5209941864014,17.5215110778809,17.5220279693604,17.5225467681885,17.5230541229248,17.5235729217529,17.5240879058838,17.5246067047119,17.5251235961914,17.5256385803223,17.5261554718018,17.526668548584,17.5271854400635,17.527702331543,17.5282192230225,17.5287322998047,17.5292472839355,17.529764175415,17.5302829742432,17.530797958374,17.5313129425049,17.531831741333,17.5323505401611,17.5328636169434,17.5333824157715,17.533899307251,17.5344123840332,17.53493309021,17.5354461669922,17.5359630584717,17.5364799499512,17.5369987487793,17.5375099182129,17.538028717041,17.5385456085205,17.5390625,17.5395812988281,17.540096282959,17.5406131744385,17.5411281585693,17.5416450500488,17.5421619415283,17.5426788330078,17.5432014465332,17.5437202453613,17.5442333221436,17.5447483062744,17.5452671051025,17.545783996582,17.5463008880615,17.5468158721924,17.5473346710205,17.5478496551514,17.5483703613281,17.548885345459,17.5494022369385,17.549919128418,17.5504398345947,17.5509567260742,17.5514755249023,17.5519924163818,17.5525074005127,17.5530281066895,17.5535411834717,17.5540618896484,17.5545787811279,17.5550975799561,17.5556125640869,17.5561351776123,17.5566520690918,17.5571727752686,17.5576858520508,17.5582027435303,17.5587215423584,17.5592384338379,17.5597553253174,17.5602760314941,17.5607948303223,17.5613117218018,17.5618305206299,17.5623474121094,17.5628681182861,17.5633850097656,17.5639019012451,17.5644207000732,17.56494140625,17.5654563903809,17.565975189209,17.5664920806885,17.5670127868652,17.5675296783447,17.5680503845215,17.5685691833496,17.5690879821777,17.5696029663086,17.5701217651367,17.5706424713135,17.571159362793,17.5716781616211,17.5721969604492,17.572717666626,17.5732345581055,17.5737552642822,17.5742740631104,17.5747928619385,17.5753116607666,17.5758323669434,17.5763492584229,17.576868057251,17.5773868560791,17.5779056549072,17.578426361084,17.5789451599121,17.5794620513916,17.5799827575684,17.5805034637451,17.5810203552246,17.5815391540527,17.5820598602295,17.5825805664062,17.5830993652344,17.5836181640625,17.5841369628906,17.5846557617188,17.5851764678955,17.585693359375,17.5862159729004,17.5867347717285,17.5872535705566,17.5877742767334,17.5882930755615,17.5888137817383,17.5893325805664,17.5898532867432,17.5903720855713,17.590892791748,17.5914154052734,17.5919322967529,17.5924510955811,17.5929737091064,17.5934944152832,17.5940113067627,17.5945320129395,17.5950527191162,17.595573425293,17.5960922241211,17.5966129302979,17.5971336364746,17.5976524353027,17.5981750488281,17.5986957550049,17.599214553833,17.5997333526611,17.6002540588379,17.6007747650146,17.6012954711914,17.6018161773682,17.6023368835449,17.6028575897217,17.6033782958984,17.6038970947266,17.604419708252,17.6049404144287,17.6054611206055,17.6059799194336,17.6065006256104,17.6070232391357,17.6075439453125,17.6080627441406,17.6085834503174,17.6091060638428,17.6096286773682,17.6101493835449,17.610668182373,17.6111907958984,17.6117134094238,17.6122341156006,17.6127548217773,17.6132774353027,17.6137981414795,17.6143188476562,17.6148414611816,17.615364074707,17.6158828735352,17.6164073944092,17.6169281005859,17.6174507141113,17.6179714202881,17.6184940338135,17.6190166473389,17.6195373535156,17.6200580596924,17.6205825805664,17.6211051940918,17.6216259002686,17.6221485137939,17.6226692199707,17.6231918334961,17.6237125396729,17.6242370605469,17.6247596740723,17.6252822875977,17.625804901123,17.6263256072998,17.6268482208252,17.6273708343506,17.627893447876,17.62841796875,17.6289386749268,17.6294612884521,17.6299839019775,17.6305065155029,17.6310272216797,17.6315536499023,17.6320743560791,17.6325969696045,9.90839576721191,9.86500930786133,9.82200050354004,9.77936458587646,9.73709774017334,9.69519519805908,9.65365123748779,9.61246204376221,9.57162284851074,9.53112888336182,9.49097633361816,9.4511604309082,9.429612159729,9.40901947021484,9.38851642608643,9.36810207366943,9.34777641296387,9.32753944396973,9.30738925933838,9.28732585906982,9.26734924316406,9.24745845794678,9.22765254974365,9.20793056488037,9.18829345703125,9.16874027252197,9.14927005767822,9.12988185882568,9.11057567596436,9.09135150909424,9.0722074508667,9.05314445495605,9.03416156768799,9.01525783538818,8.99643325805664,8.97768688201904,8.95901870727539,8.94042778015137,8.92191314697266,8.90347671508789,8.8851146697998,8.86682891845703,8.84861850738525,8.83048248291016,8.81242084503174,8.79443264007568,8.77651786804199,8.75867652893066,8.74090671539307,8.72320938110352,8.70558261871338,8.68802833557129,8.6705436706543,8.65312957763672,8.63578510284424,8.61851024627686,8.60130405426025,8.58416748046875,8.56709766387939,8.5500955581665,8.53316116333008,8.5162935256958,8.49949169158936,8.48275756835938,8.46608829498291,8.44948387145996,8.43294525146484,8.41647148132324,8.37254428863525,8.34560680389404,8.3188419342041,8.2922477722168,8.26582336425781,8.23956680297852,8.21347713470459,8.18755149841309,8.16178894042969,8.13618850708008,8.11074733734131,8.08546543121338,8.06034088134766,8.03537082672119,8.01055145263672,7.98588466644287,7.96136951446533,7.93700456619263,7.91278839111328,7.8880786895752,7.86118984222412,7.83448362350464,7.80795860290527,7.78161287307739,7.75544357299805,7.72945022583008,7.7036304473877,7.67798233032227,7.65250492095947,7.62719583511353,7.60205364227295,7.57779979705811,7.55538558959961,7.53310394287109,7.51095294952393,7.48893213272095,7.46704006195068,7.44527530670166,7.42363739013672,7.40212488174438,7.38076257705688
17.3501605987549,17.3506698608398,17.3511734008789,17.3516807556152,17.352180480957,17.3526878356934,17.3531951904297,17.353702545166,17.3542079925537,17.35471534729,17.3552207946777,17.3557262420654,17.3562316894531,17.3567409515381,17.3572463989258,17.3577499389648,17.3582572937012,17.3587627410889,17.3592662811279,17.3597736358643,17.3602809906006,17.3607883453369,17.3612937927246,17.3618011474609,17.3623065948486,17.362813949585,17.3633193969727,17.363826751709,17.3643321990967,17.3648376464844,17.3653450012207,17.3658542633057,17.3663597106934,17.3668651580811,17.367374420166,17.3678817749023,17.36838722229,17.3688945770264,17.3694000244141,17.3699035644531,17.3704128265381,17.370922088623,17.3714275360107,17.3719367980957,17.3724384307861,17.3729476928711,17.3734550476074,17.3739624023438,17.3744697570801,17.3749732971191,17.3754806518555,17.3759880065918,17.3764953613281,17.3770046234131,17.3775119781494,17.3780212402344,17.3785266876221,17.379035949707,17.3795413970947,17.3800506591797,17.3805541992188,17.3810615539551,17.3815746307373,17.3820781707764,17.3825855255127,17.383092880249,17.3836040496826,17.3841094970703,17.3846168518066,17.3851261138916,17.3856315612793,17.3861389160156,17.386646270752,17.3871555328369,17.3876647949219,17.3881702423096,17.3886814117432,17.3891906738281,17.3896980285645,17.3902053833008,17.3907165527344,17.3912181854248,17.3917293548584,17.3922309875488,17.3927421569824,17.3932514190674,17.3937606811523,17.39426612854,17.3947792053223,17.39528465271,17.3957958221436,17.3963012695312,17.3968124389648,17.3973217010498,17.3978271484375,17.3983345031738,17.3988456726074,17.3993549346924,17.3998584747314,17.4003715515137,17.4008769989014,17.4013843536377,17.4018936157227,17.4024047851562,17.4029121398926,17.4034214019775,17.4039306640625,17.4044399261475,17.4049491882324,17.4054565429688,17.4059658050537,17.4064769744873,17.4069843292236,17.4074935913086,17.4080009460449,17.4085102081299,17.4090213775635,17.4095287322998,17.4100379943848,17.4105491638184,17.4110565185547,17.4115657806396,17.4120769500732,17.4125843048096,17.4130954742432,17.4136047363281,17.4141120910645,17.4146213531494,17.415132522583,17.415641784668,17.4161510467529,17.4166603088379,17.4171676635742,17.4176788330078,17.4181880950928,17.4186992645264,17.4192066192627,17.4197177886963,17.4202289581299,17.4207401275635,17.4212455749512,17.4217567443848,17.422269821167,17.422779083252,17.4232864379883,17.4237995147705,17.4243087768555,17.4248199462891,17.425329208374,17.4258365631104,17.4263496398926,17.4268589019775,17.4273681640625,17.4278774261475,17.4283885955811,17.4288997650146,17.4294090270996,17.4299201965332,17.4304313659668,17.4309406280518,17.4314498901367,17.4319610595703,17.4324722290039,17.4329853057861,17.4334926605225,17.4340038299561,17.4345149993896,17.4350261688232,17.4355354309082,17.4360446929932,17.4365577697754,17.4370708465576,17.4375782012939,17.4380893707275,17.4386005401611,17.4391117095947,17.4396228790283,17.4401340484619,17.4406452178955,17.4411544799805,17.4416656494141,17.4421787261963,17.4426879882812,17.4431991577148,17.4437103271484,17.4442234039307,17.4447345733643,17.4452457427979,17.4457550048828,17.446268081665,17.4467811584473,17.4472904205322,17.4477996826172,17.4483127593994,17.4488258361816,17.4493350982666,17.4498481750488,17.4503574371338,17.450870513916,17.4513816833496,17.4518928527832,17.4524040222168,17.452917098999,17.4534282684326,17.4539394378662,17.4544525146484,17.4549655914307,17.4554767608643,17.4559898376465,17.4565029144287,17.4570121765137,17.4575271606445,17.4580402374268,17.4585514068604,17.4590644836426,17.4595756530762,17.460090637207,17.460599899292,17.4611148834229,17.4616279602051,17.4621410369873,17.4626522064209,17.4631633758545,17.463680267334,17.4641895294189,17.4647026062012,17.465217590332,17.4657306671143,17.4662418365479,17.4667549133301,17.4672679901123,17.4677810668945,17.4682941436768,17.468807220459,17.4693202972412,17.4698333740234,17.4703464508057,17.4708595275879,17.4713745117188,17.4718856811523,17.4724025726318,17.4729118347168,9.8851957321167,9.84201145172119,9.79920291900635,9.75676441192627,9.71469211578369,9.67298221588135,9.63162803649902,9.59062576293945,9.54997158050537,9.50965976715088,9.46968746185303,9.44105052947998,9.42040729522705,9.39985466003418,9.37939167022705,9.35901737213135,9.33873081207275,9.31853199005127,9.29842090606689,9.27839660644531,9.25845813751221,9.23860549926758,9.21883678436279,9.19915390014648,9.1795539855957,9.16003704071045,9.14060401916504,9.12125205993652,9.10198307037354,9.08279418945312,9.06368732452393,9.04465961456299,9.02571201324463,9.00684356689453,8.9880542755127,8.96934223175049,8.95070838928223,8.93215274810791,8.91367244720459,8.8952693939209,8.8769416809082,8.8586893081665,8.8405122756958,8.82240962982178,8.80438041687012,8.78642559051514,8.7685432434082,8.75073337554932,8.73299598693848,8.71533107757568,8.6977367401123,8.68021297454834,8.66276073455811,8.64537715911865,8.62806415557861,8.61081981658936,8.5936450958252,8.5765380859375,8.55949878692627,8.5425271987915,8.52562236785889,8.50878429412842,8.4920129776001,8.47530746459961,8.45866775512695,8.44209289550781,8.42558288574219,8.40913677215576,8.39275550842285,8.34795665740967,8.32117652893066,8.29456806182861,8.26812839508057,8.24185752868652,8.21575260162354,8.18981266021729,8.16403675079346,8.13842105865479,8.11296653747559,8.08767127990723,8.06253242492676,8.03754901885986,8.01271915435791,7.98803949356079,7.96351146697998,7.939133644104,7.91490411758423,7.8908224105835,7.86538028717041,7.83864593505859,7.81209278106689,7.78571844100952,7.75952196121216,7.73350143432617,7.70765447616577,7.68197965621948,7.65647554397583,7.63114023208618,7.60597229003906,7.58096933364868,7.55715799331665,7.53486585617065,7.51270484924316,7.49067354202271,7.46877145767212,7.44699668884277,7.42534875869751,7.40382623672485,7.38242816925049,7.36119508743286
17.1960296630859,17.1965255737305,17.1970176696777,17.1975173950195,17.1980133056641,17.1985130310059,17.199010848999,17.1995067596436,17.2000045776367,17.2005004882812,17.2010021209717,17.2014923095703,17.2019901275635,17.2024898529053,17.2029838562012,17.203483581543,17.2039813995361,17.2044773101807,17.2049770355225,17.205472946167,17.2059688568115,17.2064685821533,17.2069625854492,17.2074604034424,17.2079563140869,17.2084541320801,17.2089557647705,17.2094535827637,17.2099514007568,17.21044921875,17.2109470367432,17.211446762085,17.2119388580322,17.2124347686768,17.2129306793213,17.2134304046631,17.2139282226562,17.214427947998,17.2149257659912,17.2154216766357,17.2159233093262,17.2164211273193,17.2169189453125,17.2174167633057,17.2179145812988,17.2184104919434,17.2189083099365,17.2194080352783,17.2199039459229,17.2204036712646,17.2209033966064,17.2214031219482,17.2218990325928,17.2223968505859,17.2228946685791,17.2233924865723,17.2238903045654,17.2243881225586,17.2248859405518,17.2253875732422,17.2258853912354,17.2263813018799,17.2268829345703,17.2273807525635,17.2278823852539,17.2283782958984,17.2288818359375,17.2293758392334,17.2298755645752,17.2303733825684,17.2308731079102,17.2313709259033,17.2318706512451,17.2323684692383,17.2328662872314,17.2333679199219,17.2338638305664,17.2343654632568,17.2348613739014,17.2353591918945,17.235860824585,17.2363605499268,17.2368583679199,17.2373580932617,17.2378597259521,17.2383594512939,17.2388572692871,17.2393550872803,17.2398567199707,17.240348815918,17.2408504486084,17.2413501739502,17.2418518066406,17.2423515319824,17.2428512573242,17.2433471679688,17.2438507080078,17.2443504333496,17.2448482513428,17.2453479766846,17.245849609375,17.2463474273682,17.2468452453613,17.2473449707031,17.2478446960449,17.2483425140381,17.2488441467285,17.2493438720703,17.2498416900635,17.2503414154053,17.2508430480957,17.2513427734375,17.2518424987793,17.2523441314697,17.2528438568115,17.2533416748047,17.2538433074951,17.2543430328369,17.2548446655273,17.2553462982178,17.2558460235596,17.2563438415527,17.2568454742432,17.2573471069336,17.2578468322754,17.2583465576172,17.2588481903076,17.2593460083008,17.2598495483398,17.2603454589844,17.2608489990234,17.2613487243652,17.261848449707,17.2623500823975,17.2628517150879,17.2633533477783,17.2638511657715,17.2643527984619,17.2648544311523,17.2653541564941,17.2658557891846,17.2663555145264,17.2668571472168,17.2673568725586,17.2678565979004,17.2683582305908,17.2688598632812,17.2693614959717,17.2698612213135,17.2703628540039,17.2708644866943,17.2713642120361,17.2718658447266,17.272367477417,17.2728691101074,17.2733726501465,17.2738723754883,17.2743721008301,17.2748756408691,17.2753753662109,17.27587890625,17.2763786315918,17.2768802642822,17.2773818969727,17.2778835296631,17.2783851623535,17.2788867950439,17.279390335083,17.2798881530762,17.2803916931152,17.2808933258057,17.2813949584961,17.2818946838379,17.2824001312256,17.2828979492188,17.2834014892578,17.2839031219482,17.2844047546387,17.2849063873291,17.2854099273682,17.2859115600586,17.2864112854004,17.2869148254395,17.2874164581299,17.2879180908203,17.2884197235107,17.2889232635498,17.2894248962402,17.2899265289307,17.2904281616211,17.2909336090088,17.2914352416992,17.2919368743896,17.2924385070801,17.2929420471191,17.2934436798096,17.2939453125,17.2944507598877,17.2949523925781,17.2954540252686,17.295955657959,17.2964611053467,17.2969608306885,17.2974624633789,17.297966003418,17.298469543457,17.2989730834961,17.2994747161865,17.2999782562256,17.3004817962646,17.3009853363037,17.3014869689941,17.3019905090332,17.3024940490723,17.3029956817627,17.3035011291504,17.3040046691895,17.3045082092285,17.3050117492676,17.305513381958,17.3060188293457,17.3065223693848,17.3070240020752,17.3075313568115,17.3080348968506,17.3085346221924,17.3090400695801,17.3095455169678,17.3100490570068,17.3105506896973,17.3110542297363,17.3115577697754,17.3120632171631,17.3125667572021,17.3130722045898,17.3135776519775,17.314079284668,17.3145809173584,17.3150882720947,17.3155899047852,17.3160953521729,9.86210441589355,9.81912136077881,9.77651119232178,9.73426914215088,9.69238948822021,9.65087032318115,9.60970401763916,9.56888771057129,9.52841758728027,9.48828792572021,9.45251655578613,9.43182277679443,9.41122055053711,9.39070796966553,9.37028408050537,9.34994888305664,9.32970237731934,9.30954265594482,9.28947067260742,9.2694845199585,9.24958419799805,9.22976875305176,9.21003913879395,9.19039249420166,9.17082977294922,9.15135097503662,9.13195419311523,9.11263942718506,9.09340572357178,9.07425403594971,9.05518245697021,9.03619003295898,9.01727867126465,8.99844551086426,8.97969055175781,8.96101379394531,8.94241428375244,8.9238920211792,8.90544700622559,8.88707733154297,8.86878395080566,8.85056495666504,8.83242130279541,8.81435108184814,8.79635524749756,8.77843284606934,8.76058292388916,8.74280548095703,8.72510051727295,8.7074670791626,8.68990421295166,8.67241287231445,8.65499114990234,8.63763904571533,8.62035655975342,8.6031436920166,8.58599853515625,8.56892204284668,8.55191421508789,8.53497219085693,8.51809692382812,8.50128936767578,8.48454666137695,8.46787071228027,8.45125961303711,8.43471431732178,8.41823291778564,8.40181636810303,8.38546276092529,8.36917400360107,8.32351207733154,8.29688930511475,8.27043533325195,8.24414920806885,8.21802997589111,8.19207572937012,8.16628551483154,8.14065647125244,8.1151876449585,8.08987808227539,8.06472587585449,8.03972911834717,8.0148868560791,7.99019575119019,7.96565437316895,7.9412636756897,7.91702127456665,7.89292669296265,7.86897802352905,7.84281206130981,7.81623077392578,7.78982877731323,7.76360464096069,7.73755693435669,7.71168279647827,7.68598127365112,7.66045045852661,7.63508892059326,7.60989475250244,7.58486604690552,7.56000185012817,7.53662872314453,7.51445722579956,7.49241590499878,7.47050333023071,7.44871854782104,7.42706060409546,7.40552854537964,7.38412046432495,7.36283588409424,7.34173154830933
17.0446109771729,17.0450992584229,17.0455875396729,17.0460758209229,17.0465660095215,17.0470542907715,17.0475444793701,17.0480270385742,17.0485172271729,17.0490016937256,17.0494918823242,17.0499801635742,17.0504665374756,17.0509586334229,17.0514469146729,17.0519351959229,17.0524253845215,17.0529136657715,17.0534000396729,17.0538864135742,17.0543746948242,17.0548686981201,17.0553550720215,17.0558452606201,17.0563316345215,17.0568180084229,17.0573120117188,17.0577964782715,17.0582885742188,17.0587730407715,17.0592613220215,17.0597534179688,17.0602416992188,17.060733795166,17.0612182617188,17.0617084503174,17.0622005462646,17.062686920166,17.0631809234619,17.0636672973633,17.0641536712646,17.0646419525146,17.0651359558105,17.0656242370605,17.0661087036133,17.0665988922119,17.0670871734619,17.0675792694092,17.0680713653564,17.0685577392578,17.0690498352051,17.0695323944092,17.0700263977051,17.0705165863037,17.0710029602051,17.071496963501,17.0719871520996,17.0724773406982,17.0729656219482,17.0734558105469,17.0739479064941,17.0744361877441,17.0749244689941,17.0754127502441,17.0759029388428,17.0763874053955,17.0768814086914,17.0773696899414,17.0778636932373,17.0783538818359,17.0788440704346,17.0793342590332,17.0798244476318,17.0803146362305,17.0808029174805,17.0812911987305,17.0817832946777,17.082275390625,17.082763671875,17.083251953125,17.0837421417236,17.0842304229736,17.0847263336182,17.0852165222168,17.0857067108154,17.0861930847168,17.0866832733154,17.0871753692627,17.0876693725586,17.0881576538086,17.0886478424072,17.0891399383545,17.0896282196045,17.0901222229004,17.090612411499,17.091100692749,17.0915927886963,17.0920791625977,17.0925731658936,17.0930633544922,17.0935535430908,17.0940475463867,17.0945339202881,17.095027923584,17.0955181121826,17.0960083007812,17.0964984893799,17.0969924926758,17.0974826812744,17.097972869873,17.0984630584717,17.0989551544189,17.0994453430176,17.0999355316162,17.1004276275635,17.1009178161621,17.101411819458,17.101900100708,17.1023921966553,17.1028842926025,17.1033763885498,17.1038646697998,17.1043586730957,17.104850769043,17.1053409576416,17.1058330535889,17.1063251495361,17.1068172454834,17.107307434082,17.1077976226807,17.1082916259766,17.1087837219238,17.1092758178711,17.1097679138184,17.1102600097656,17.1107521057129,17.1112442016602,17.1117343902588,17.1122264862061,17.1127185821533,17.1132106781006,17.1137027740479,17.1141948699951,17.1146869659424,17.115177154541,17.1156692504883,17.1161632537842,17.1166553497314,17.1171455383301,17.117639541626,17.1181335449219,17.1186256408691,17.1191158294678,17.119607925415,17.1201000213623,17.1205940246582,17.1210842132568,17.1215782165527,17.1220703125,17.1225624084473,17.1230545043945,17.1235485076904,17.1240406036377,17.124532699585,17.1250247955322,17.1255168914795,17.1260108947754,17.1265048980713,17.1269950866699,17.1274909973145,17.1279850006104,17.1284790039062,17.1289672851562,17.1294612884521,17.129955291748,17.1304492950439,17.1309394836426,17.1314334869385,17.1319274902344,17.1324214935303,17.1329116821289,17.1334075927734,17.1338996887207,17.134391784668,17.1348857879639,17.1353797912598,17.135871887207,17.1363658905029,17.1368579864502,17.1373500823975,17.1378479003906,17.1383380889893,17.1388320922852,17.1393260955811,17.1398181915283,17.1403121948242,17.1408061981201,17.1412982940674,17.1417922973633,17.1422843933105,17.1427803039551,17.143274307251,17.1437683105469,17.1442604064941,17.1447563171387,17.1452503204346,17.1457462310791,17.1462383270264,17.1467323303223,17.1472263336182,17.1477203369141,17.1482124328613,17.1487083435059,17.1492023468018,17.1496963500977,17.1501884460449,17.1506843566895,17.1511783599854,17.1516742706299,17.1521682739258,17.1526641845703,17.1531581878662,17.1536540985107,17.154146194458,17.1546440124512,17.1551361083984,17.155632019043,17.1561298370361,17.1566219329834,17.1571178436279,17.1576099395752,17.1581077575684,17.1586017608643,17.1590976715088,17.1595916748047,17.1600894927979,17.1605834960938,17.1610774993896,17.1615734100342,17.1620693206787,9.83912086486816,9.79633712768555,9.7539234161377,9.71187591552734,9.67018985748291,9.62885856628418,9.58788013458252,9.54724884033203,9.50696086883545,9.46701145172119,9.44326591491699,9.42261409759521,9.40205097198486,9.38157844543457,9.3611946105957,9.34089851379395,9.32069110870361,9.30057048797607,9.28053665161133,9.26058864593506,9.24072742462158,9.22095012664795,9.20125770568848,9.18164825439453,9.16212368011475,9.14268112182617,9.12332057952881,9.10404205322266,9.08484554290771,9.06572914123535,9.04669284820557,9.02773761749268,9.00886058807373,8.99006175994873,8.97134208679199,8.9527006149292,8.93413543701172,8.91564750671387,8.89723682403564,8.8789005279541,8.86064052581787,8.84245491027832,8.82434463500977,8.80630779266357,8.78834438323975,8.77045440673828,8.75263690948486,8.73489189147949,8.71721935272217,8.69961738586426,8.68208599090576,8.664626121521,8.64723587036133,8.62991523742676,8.61266326904297,8.59548091888428,8.57836627960205,8.56132030487061,8.54434204101562,8.52743053436279,8.51058483123779,8.49380683898926,8.47709369659424,8.46044731140137,8.4438648223877,8.42734813690186,8.41089630126953,8.39450740814209,8.37818336486816,8.36192226409912,8.34572410583496,8.2992115020752,8.27274227142334,8.24644184112549,8.22030830383301,8.19433975219727,8.16853523254395,8.1428918838501,8.11740970611572,8.09208583831787,8.06692028045654,8.04191017150879,8.01705455780029,7.99235200881958,7.96779870986938,7.94339418411255,7.91913890838623,7.89503145217896,7.87107038497925,7.84698295593262,7.82037353515625,7.79394340515137,7.76769161224365,7.74161624908447,7.7157154083252,7.68998718261719,7.66442966461182,7.63904190063477,7.61382150650024,7.58876705169678,7.56387710571289,7.53914976119995,7.51621055603027,7.49415874481201,7.47223615646362,7.45044136047363,7.42877340316772,7.40723085403442,7.38581323623657,7.3645191192627,7.34335994720459,7.3223705291748
16.8958358764648,16.8963146209717,16.8967933654785,16.897274017334,16.8977527618408,16.8982334136963,16.8987159729004,16.8991928100586,16.8996734619141,16.9001541137695,16.900634765625,16.9011154174805,16.9015922546387,16.9020709991455,16.9025497436523,16.9030303955078,16.9035129547119,16.9039916992188,16.9044742584229,16.9049510955811,16.9054336547852,16.905912399292,16.9063968658447,16.9068737030029,16.9073524475098,16.9078311920166,16.9083156585693,16.9087963104248,16.9092769622803,16.9097518920898,16.9102344512939,16.9107151031494,16.9111976623535,16.9116764068604,16.9121589660645,16.9126358032227,16.9131145477295,16.913595199585,16.9140758514404,16.9145584106445,16.9150390625,16.9155197143555,16.9160003662109,16.9164810180664,16.9169635772705,16.9174480438232,16.9179267883301,16.9184055328369,16.9188842773438,16.9193668365479,16.9198455810547,16.9203281402588,16.9208087921143,16.9212875366211,16.9217681884766,16.9222545623779,16.9227352142334,16.9232139587402,16.9236907958984,16.9241752624512,16.9246578216553,16.9251365661621,16.9256210327148,16.9261035919189,16.9265842437744,16.9270668029785,16.927547454834,16.9280300140381,16.9285106658936,16.9289894104004,16.9294700622559,16.9299507141113,16.9304313659668,16.9309158325195,16.931396484375,16.9318790435791,16.9323635101318,16.9328422546387,16.9333267211914,16.9338054656982,16.9342918395996,16.9347667694092,16.9352512359619,16.935733795166,16.9362125396729,16.9366970062256,16.9371795654297,16.9376602172852,16.9381446838379,16.9386234283447,16.9391078948975,16.9395885467529,16.940071105957,16.9405498504639,16.9410343170166,16.9415168762207,16.9419994354248,16.9424819946289,16.9429626464844,16.9434452056885,16.9439277648926,16.9444122314453,16.944896697998,16.9453735351562,16.945858001709,16.9463348388672,16.9468212127686,16.947301864624,16.9477844238281,16.9482650756836,16.9487495422363,16.9492340087891,16.9497184753418,16.9501991271973,16.9506816864014,16.9511642456055,16.9516468048096,16.9521293640137,16.9526119232178,16.9530963897705,16.9535789489746,16.9540615081787,16.9545421600342,16.9550266265869,16.9555110931396,16.9559936523438,16.9564743041992,16.956958770752,16.9574432373047,16.9579257965088,16.9584083557129,16.958890914917,16.9593753814697,16.9598560333252,16.9603404998779,16.960823059082,16.9613075256348,16.9617900848389,16.962272644043,16.9627571105957,16.9632396697998,16.9637241363525,16.9642066955566,16.9646911621094,16.9651737213135,16.9656581878662,16.9661407470703,16.966625213623,16.9671096801758,16.9675922393799,16.968074798584,16.9685611724854,16.9690437316895,16.9695262908936,16.9700107574463,16.970495223999,16.9709777832031,16.9714622497559,16.9719467163086,16.9724292755127,16.9729137420654,16.9734001159668,16.9738826751709,16.9743671417236,16.9748497009277,16.9753341674805,16.9758186340332,16.9763031005859,16.9767875671387,16.9772701263428,16.9777545928955,16.9782390594482,16.9787216186523,16.9792079925537,16.9796924591064,16.9801769256592,16.9806613922119,16.9811458587646,16.981632232666,16.9821147918701,16.9825954437256,16.983081817627,16.9835662841797,16.9840545654297,16.9845371246338,16.9850234985352,16.9855060577393,16.9859924316406,16.9864768981934,16.9869613647461,16.9874458312988,16.9879322052002,16.9884147644043,16.988899230957,16.9893856048584,16.9898719787598,16.9903545379639,16.9908390045166,16.991325378418,16.9918079376221,16.9922943115234,16.9927806854248,16.9932651519775,16.9937496185303,16.9942359924316,16.9947204589844,16.9952068328857,16.9956893920898,16.9961757659912,16.9966621398926,16.9971466064453,16.9976329803467,16.9981174468994,16.9986038208008,16.9990882873535,16.9995708465576,17.0000591278076,17.0005435943604,17.0010318756104,17.0015163421631,17.0020008087158,17.0024890899658,17.0029754638672,17.0034618377686,17.0039482116699,17.0044345855713,17.004919052124,17.0054054260254,17.0058937072754,17.0063781738281,17.0068645477295,17.0073490142822,17.0078372955322,17.0083236694336,17.008810043335,17.0092964172363,17.0097827911377,17.0102691650391,17.0107555389404,9.81624412536621,9.77365875244141,9.73144054412842,9.6895866394043,9.64809036254883,9.60694789886475,9.56615543365479,9.52570819854736,9.48560047149658,9.45473766326904,9.43403434753418,9.41342258453369,9.39289951324463,9.37246704101562,9.35212230682373,9.33186626434326,9.31169700622559,9.29161548614502,9.27162075042725,9.25171089172363,9.2318868637085,9.21214771270752,9.19249248504639,9.1729211807251,9.15343284606934,9.1340274810791,9.11470317840576,9.09546184539795,9.07630062103271,9.05722045898438,9.03822040557861,9.01929950714111,9.00045776367188,8.9816951751709,8.96300983428955,8.94440269470215,8.92587184906006,8.9074182510376,8.88904094696045,8.8707389831543,8.85251235961914,8.83436012268066,8.81628322601318,8.79827880859375,8.780348777771,8.76249122619629,8.74470615386963,8.72699356079102,8.70935153961182,8.69178199768066,8.67428207397461,8.65685272216797,8.63949394226074,8.6222038269043,8.60498332977295,8.58783149719238,8.57074737548828,8.55373191833496,8.53678321838379,8.51990222930908,8.50308609008789,8.48633766174316,8.46965408325195,8.45303630828857,8.43648338317871,8.41999530792236,8.40357208251953,8.38721179962158,8.37091636657715,8.35468292236328,8.3385124206543,8.3224048614502,8.27505207061768,8.24873638153076,8.22258853912354,8.19660472869873,8.17078590393066,8.14512825012207,8.11963272094727,8.09429454803467,8.06911563873291,8.04409122467041,8.0192232131958,7.99450731277466,7.96994352340698,7.94552659988403,7.92125844955444,7.8971381187439,7.87316370010376,7.84933471679688,7.82452058792114,7.79806232452393,7.77178335189819,7.74568033218384,7.71975183486938,7.69399690628052,7.66841316223145,7.64299869537354,7.61775207519531,7.5926718711853,7.56775665283203,7.54300355911255,7.51841259002686,7.49590301513672,7.47396993637085,7.45216512680054,7.43048715591431,7.40893459320068,7.38750743865967,7.36620330810547,7.34502172470093,7.32399082183838,7.30311155319214
