14.0111131668091,14.0111312866211,14.0111474990845,14.0111627578735,14.0111780166626,14.0111970901489,14.011212348938,14.01123046875,14.0112428665161,14.0112619400024,14.0112771987915,14.0112924575806,14.0113086700439,14.011326789856,14.0113363265991,14.0113554000854,14.0113706588745,14.0113897323608,14.0114049911499,14.011420249939,14.0114364624023,14.0114517211914,14.0114669799805,14.0114860534668,14.0115013122559,14.0115175247192,14.0115327835083,14.0115489959717,14.0115642547607,14.0115804672241,14.0115957260132,14.0116081237793,14.0116271972656,14.0116424560547,14.0116586685181,14.0116739273071,14.0116930007935,14.0117082595825,14.0117244720459,14.011739730835,14.0117559432983,14.0117712020874,14.0117902755737,14.0117998123169,14.0118188858032,14.0118341445923,14.0118503570557,14.011866569519,14.0118846893311,14.0119009017944,14.0119161605835,14.0119295120239,14.0119485855103,14.0119638442993,14.0119800567627,14.0119953155518,14.0120143890381,14.0120239257812,14.0120429992676,14.012059211731,14.0120754241943,14.0120906829834,14.0121068954468,14.0121231079102,14.0121412277222,14.0121545791626,14.0121736526489,14.012188911438,14.0122051239014,14.0122213363647,14.0122375488281,14.0122499465942,14.0122690200806,14.0122814178467,14.0122976303101,14.0123138427734,14.0123329162598,14.0123453140259,14.0123643875122,14.0123805999756,14.012396812439,14.0124101638794,14.0124254226685,14.0124444961548,14.0124578475952,14.0124769210815,14.0124864578247,14.012505531311,14.0125217437744,14.0125379562378,14.0125541687012,14.0125732421875,14.0125865936279,14.012601852417,14.0126180648804,14.0126342773438,14.0126504898071,14.0126695632935,14.0126829147339,14.0127019882202,14.0127115249634,14.012731552124,14.0127477645874,14.0127639770508,14.0127763748169,14.0127954483032,14.0128087997437,14.01282787323,14.0128412246704,14.0128602981567,14.0128765106201,14.0128927230835,14.0129060745239,14.0129251480103,14.0129384994507,14.0129547119141,14.0129680633545,14.0129871368408,14.0130004882812,14.0130195617676,14.013035774231,14.0130519866943,14.0130681991577,14.0130844116211,14.0130977630615,14.0131177902222,14.0131301879883,14.0131502151489,14.0131635665894,14.0131769180298,14.0131931304932,14.0132093429565,14.0132255554199,14.0132417678833,14.0132579803467,14.0132741928101,14.0132913589478,14.0133047103882,14.0133237838745,14.0133371353149,14.0133562088013,14.0133695602417,14.0133895874023,14.0134057998657,14.0134191513062,14.0134325027466,14.0134515762329,14.0134649276733,14.013482093811,14.0134983062744,14.0135145187378,14.0135307312012,14.0135478973389,14.0135641098022,14.0135803222656,14.0135974884033,14.0136108398438,14.0136270523071,14.0136432647705,14.0136566162109,14.0136737823486,14.013689994812,14.0137042999268,14.0137224197388,14.0137376785278,14.0137510299683,14.0137720108032,14.0137872695923,14.0138006210327,14.0138187408447,14.0138339996338,14.0138502120972,14.0138673782349,14.0138826370239,14.0138969421387,14.0139141082764,14.0139293670654,14.0139427185059,14.0139608383179,14.0139789581299,11.9534006118774,11.9408645629883,11.9283542633057,11.9158706665039,11.9034128189087,11.8909816741943,11.8785762786865,11.8661956787109,11.8538417816162,11.841513633728,11.8292112350464,11.816933631897,11.8046817779541,11.7924556732178,11.7802543640137,11.7680788040161,11.7559280395508,11.6623029708862,11.5117092132568,11.3649549484253,11.2218961715698,11.0823936462402,10.9463167190552,10.8135404586792,10.6839475631714,10.5574235916138,10.4338607788086,10.3131580352783,10.1952152252197,10.0799398422241,9.96724224090576,9.85703659057617,9.74924087524414,9.64377784729004,9.54057216644287,9.45013427734375,9.39875888824463,9.34793949127197,9.29766654968262,9.25362777709961,9.23916912078857,9.22475528717041,9.21038722991943,9.19606304168701,9.18178367614746,9.16754817962646,9.15335750579834,9.13904190063477,9.12466526031494,9.1103343963623,9.09604740142822,9.08180618286133,9.06760883331299,9.0534553527832,9.03934669494629,9.02395343780518,9.00488567352295,8.9858980178833,8.96699047088623,8.94816207885742,8.92941188812256,8.91074085235596,8.8921480178833,8.87363243103027,8.85519313812256,8.83683109283447,8.81854438781738,8.80033397674561,8.78219795227051,8.76413726806641,8.74615001678467,8.72823715209961,8.7103967666626,8.69262886047363,8.67493438720703,8.65731143951416,8.63976001739502,8.62227916717529,8.60486888885498,8.58752918243408,8.57025909423828,8.55305862426758,8.53592586517334,8.5188627243042,8.50186729431152,8.48493957519531,8.46807956695557,8.45128631591797,8.4345588684082,8.41789817810059,8.4013032913208,8.38477325439453,8.36830806732178,8.35190773010254,8.3355712890625,8.31929874420166,8.30309009552002,8.28694343566895,8.27086067199707,8.25483894348145,8.2388801574707,8.22298240661621,8.20714569091797,8.19137001037598,8.17565536499023,8.16000080108643,8.14440631866455,8.12887096405029,8.11339473724365,8.09797668457031,8.08261775970459,8.06731700897217,8.05207443237305,8.03688907623291,8.02175998687744,8.00668907165527,7.99167346954346,7.97671413421631,7.96181011199951,7.94696140289307,7.93216848373413,7.91743040084839,7.90274715423584,7.88811826705933,7.87354326248169,7.85902166366577,7.84455394744873,7.83013963699341,7.81577777862549,7.80146884918213,7.78721189498901,7.77300691604614,7.75885391235352,7.74475240707397,7.73070192337036,7.71670246124268,7.70275354385376,7.68885469436646,7.67500591278076,7.66120719909668,7.64745807647705,7.63375806808472,7.62010717391968,7.60650491714478,7.5338077545166,7.5119948387146,7.49030780792236,7.46874570846558,7.44730710983276,7.42599153518677,7.40479755401611,7.38372421264648,7.36276960372925,7.34193277359009,7.32121276855469,7.30061054229736,7.27776193618774,7.25495719909668,7.23229455947876,7.20977354049683,7.1873927116394,7.1651496887207,7.14304399490356,7.12107467651367,7.09923982620239,7.07753849029541,7.05596971511841,7.03453159332275,7.01322364807129
13.9105958938599,13.9106121063232,13.9106292724609,13.9106416702271,13.9106588363647,13.9106750488281,13.9106941223145,13.9107074737549,13.9107236862183,13.9107398986816,13.9107570648193,13.9107704162598,13.9107894897461,13.9107999801636,13.910816192627,13.9108324050903,13.9108486175537,13.9108657836914,13.9108819961548,13.9108953475952,13.9109144210815,13.910927772522,13.9109449386597,13.910961151123,13.9109773635864,13.9109907150269,13.9110107421875,13.911021232605,13.9110403060913,13.9110536575317,13.9110708236694,13.9110841751099,13.9111032485962,13.9111166000366,13.9111299514771,13.9111499786377,13.9111633300781,13.9111804962158,13.9111967086792,13.9112129211426,13.911226272583,13.9112462997437,13.9112567901611,13.9112768173218,13.9112873077393,13.9113063812256,13.911319732666,13.9113368988037,13.9113531112671,13.9113702774048,13.9113836288452,13.9114036560059,13.9114170074463,13.9114332199097,13.9114475250244,13.9114665985107,13.9114770889282,13.9114942550659,13.9115076065063,13.911527633667,13.9115409851074,13.9115581512451,13.9115743637085,13.9115915298462,13.9116048812866,13.9116220474243,13.9116382598877,13.9116554260254,13.9116687774658,13.9116859436035,13.9117021560669,13.9117164611816,13.9117298126221,13.9117469787598,13.9117631912231,13.9117803573608,13.9117937088013,13.911810874939,13.9118280410767,13.91184425354,13.9118585586548,13.9118785858154,13.9118890762329,13.9119062423706,13.911922454834,13.9119367599487,13.9119501113892,13.9119672775269,13.9119844436646,13.911997795105,13.9120149612427,13.9120283126831,13.9120483398438,13.9120626449585,13.9120798110962,13.9120931625366,13.9121103286743,13.912127494812,13.9121437072754,13.9121551513672,13.9121751785278,13.9121856689453,13.912205696106,13.9122200012207,13.9122371673584,13.9122505187988,13.9122676849365,13.9122848510742,13.9123020172119,13.9123153686523,13.91233253479,13.9123468399048,13.9123640060425,13.9123811721802,13.9123945236206,13.9124059677124,13.912425994873,13.9124402999878,13.9124565124512,13.9124708175659,13.9124908447266,13.9125022888184,13.912522315979,13.9125366210938,13.9125537872314,13.9125671386719,13.9125843048096,13.9125986099243,13.9126129150391,13.9126300811768,13.9126443862915,13.9126615524292,13.9126749038696,13.9126920700073,13.9127063751221,13.912727355957,13.9127378463745,13.9127578735352,13.9127721786499,13.9127893447876,13.9128036499023,13.91282081604,13.9128351211548,13.9128494262695,13.9128665924072,13.912880897522,13.9128980636597,13.9129152297974,13.9129295349121,13.9129467010498,13.9129610061646,13.9129781723022,13.912992477417,13.9130096435547,13.9130239486694,13.9130411148071,13.9130554199219,13.9130735397339,13.9130840301514,13.9131050109863,13.9131193161011,13.9131364822388,13.9131507873535,13.9131650924683,13.9131803512573,13.9131994247437,13.9132137298584,13.9132289886475,13.9132471084595,13.9132614135742,13.913275718689,13.9132928848267,13.9133071899414,13.9133234024048,13.9133386611938,13.9133529663086,11.9571447372437,11.9446001052856,11.9320831298828,11.9195909500122,11.9071254730225,11.8946866989136,11.8822727203369,11.8698854446411,11.8575239181519,11.8451881408691,11.832878112793,11.820592880249,11.8083333969116,11.7960996627808,11.7838907241821,11.77170753479,11.7595491409302,11.7474164962769,11.7102012634277,11.5583753585815,11.410436630249,11.2662372589111,11.1256370544434,10.9885025024414,10.8547077178955,10.7241325378418,10.5966606140137,10.4721832275391,10.3505964279175,10.23180103302,10.115701675415,10.0022077560425,9.89123153686523,9.78269100189209,9.67650699615479,9.57260322570801,9.48701858520508,9.43524265289307,9.38402843475342,9.33336734771729,9.28325080871582,9.2472448348999,9.2328052520752,9.21841239929199,9.20406341552734,9.18975830078125,9.17549896240234,9.16128349304199,9.14711093902588,9.13298320770264,9.11884784698486,9.10453414916992,9.09026622772217,9.07604217529297,9.06186294555664,9.04772853851318,9.03363704681396,9.01959037780762,9.00558662414551,8.99162673950195,8.97763633728027,8.95876312255859,8.93996906280518,8.92125415802002,8.90261745452881,8.88405799865723,8.86557579040527,8.84717082977295,8.82884120941162,8.81058788299561,8.79240989685059,8.77430725097656,8.7562780380249,8.73832321166992,8.7204418182373,8.70263385772705,8.68489837646484,8.66723442077637,8.64964294433594,8.63212203979492,8.61467266082764,8.59729290008545,8.57998371124268,8.562744140625,8.54557323455811,8.52847099304199,8.51143741607666,8.49447154998779,8.47757339477539,8.46074199676514,8.44397830963135,8.42727947235107,8.41064739227295,8.39408111572266,8.37757968902588,8.3611421585083,8.34477043151855,8.32846164703369,8.31221675872803,8.29603576660156,8.27991676330566,8.26386070251465,8.2478666305542,8.23193454742432,8.21606349945068,8.2002534866333,8.18450450897217,8.16881656646729,8.15318775177002,8.13761901855469,8.12210941314697,8.10665893554688,8.09126663208008,8.0759334564209,8.0606575012207,8.04543972015381,8.0302791595459,8.01517581939697,8.00012874603271,7.98513889312744,7.9702033996582,7.95532417297363,7.94049978256226,7.92573070526123,7.9110164642334,7.89635705947876,7.881751537323,7.86719989776611,7.85270214080811,7.83825778961182,7.82386636734009,7.80952739715576,7.79524087905884,7.78100728988647,7.76682472229004,7.75269412994385,7.73861503601074,7.72458648681641,7.71060943603516,7.69668245315552,7.68280553817749,7.66897869110107,7.65520143508911,7.6414737701416,7.62779521942139,7.61416578292847,7.60058450698853,7.58705186843872,7.5140233039856,7.49232482910156,7.47075080871582,7.44930076599121,7.42797374725342,7.40676879882812,7.38568449020386,7.36471939086914,7.3438720703125,7.32314157485962,7.3025279045105,7.28146076202393,7.25863313674927,7.23594808578491,7.21340370178223,7.19099998474121,7.16873502731323,7.14660739898682,7.12461614608765,7.10275983810425,7.08103704452515,7.05944633483887,7.03798770904541,7.01665830612183,6.99545812606812
13.8115100860596,13.8115243911743,13.811541557312,13.8115558624268,13.8115739822388,13.8115882873535,13.8116025924683,13.811619758606,13.8116340637207,13.8116521835327,13.8116664886475,13.8116836547852,13.811695098877,13.811713218689,13.8117275238037,13.8117418289185,13.8117589950562,13.8117742538452,13.8117914199829,13.8118057250977,13.8118209838867,13.8118381500244,13.8118524551392,13.8118705749512,13.8118848800659,13.8118991851807,13.8119106292725,13.8119316101074,13.8119430541992,13.8119611740112,13.811975479126,13.8119926452637,13.8120079040527,13.8120250701904,13.8120365142822,13.8120574951172,13.812068939209,13.812087059021,13.8121013641357,13.8121156692505,13.8121337890625,13.8121452331543,13.8121633529663,13.8121747970581,13.8121919631958,13.8122072219849,13.8122243881226,13.8122396469116,13.8122539520264,13.8122720718384,13.8122863769531,13.8123044967651,13.8123188018799,13.8123340606689,13.812352180481,13.8123636245728,13.8123779296875,13.8123960494995,13.8124103546143,13.8124256134033,13.8124437332153,13.8124580383301,13.8124732971191,13.8124876022339,13.8125057220459,13.8125200271606,13.8125381469727,13.8125495910645,13.8125677108765,13.8125829696655,13.8125972747803,13.8126125335693,13.8126306533813,13.8126420974731,13.8126602172852,13.8126745223999,13.8126926422119,13.812707901001,13.8127222061157,13.8127374649048,13.8127555847168,13.8127708435059,13.8127880096436,13.8128004074097,13.8128156661987,13.8128299713135,13.8128452301025,13.8128595352173,13.8128747940063,13.8128929138184,13.8129081726074,13.8129224777222,13.8129377365112,13.8129558563232,13.8129711151123,13.8129892349243,13.8130006790161,13.8130187988281,13.8130340576172,13.8130493164062,13.813060760498,13.8130788803101,13.8130941390991,13.8131093978882,13.8131246566772,13.8131427764893,13.8131542205811,13.8131723403931,13.8131875991821,13.8132057189941,13.8132209777832,13.8132362365723,13.8132514953613,13.8132658004761,13.8132781982422,13.8132963180542,13.8133115768433,13.8133268356323,13.8133449554443,13.8133602142334,13.8133754730225,13.8133907318115,13.8134059906006,13.8134241104126,13.8134355545044,13.8134546279907,13.8134689331055,13.8134841918945,13.8134965896606,13.8135147094727,13.8135299682617,13.8135452270508,13.8135604858398,13.8135786056519,13.8135938644409,13.813606262207,13.8136215209961,13.8136396408081,13.8136548995972,13.8136701583862,13.8136854171753,13.8137006759644,13.8137168884277,13.8137321472168,13.8137474060059,13.8137626647949,13.813777923584,13.813793182373,13.8138113021851,13.8138236999512,13.8138418197632,13.8138570785522,13.8138732910156,13.8138885498047,13.8139038085938,13.8139190673828,13.8139314651489,13.8139495849609,13.81396484375,13.8139801025391,13.8139963150024,13.8140115737915,13.8140296936035,13.8140420913696,13.814061164856,13.8140726089478,13.8140897750854,13.8141069412231,13.8141202926636,13.8141355514526,13.8141527175903,13.8141670227051,13.8141822814941,11.9483394622803,11.9358139038086,11.9233140945435,11.9108409881592,11.8983936309814,11.8859729766846,11.8735771179199,11.8612079620361,11.8488645553589,11.8365468978882,11.8242540359497,11.8119869232178,11.7997455596924,11.7875299453735,11.7753391265869,11.7631731033325,11.7510328292847,11.738917350769,11.7268266677856,11.6054220199585,11.4562835693359,11.3109302520752,11.1692199707031,11.0310153961182,10.8961896896362,10.7646198272705,10.6361894607544,10.5107879638672,10.3883085250854,10.268651008606,10.1517181396484,10.0374183654785,9.92566394805908,9.81637096405029,9.70945835113525,9.60484981536865,9.52419090270996,9.47200965881348,9.42039680480957,9.36934375762939,9.31884098052979,9.26887989044189,9.24086952209473,9.22645092010498,9.21207714080811,9.1977481842041,9.18346309661865,9.16922283172607,9.15502643585205,9.14087390899658,9.12676525115967,9.11270046234131,9.09867763519287,9.08449172973633,9.07028675079346,9.05612468719482,9.04200839996338,9.02793502807617,9.01390552520752,8.99991989135742,8.98597717285156,8.97207736968994,8.95822143554688,8.94440746307373,8.93063640594482,8.91311073303223,8.89450836181641,8.8759822845459,8.85753345489502,8.83916187286377,8.82086563110352,8.80264568328857,8.78450012207031,8.76642990112305,8.74843311309814,8.73051071166992,8.71266078948975,8.69488430023193,8.67718029022217,8.65954780578613,8.64198780059814,8.62449836730957,8.60707855224609,8.58973026275635,8.5724515914917,8.55524158477783,8.53810119628906,8.52102851867676,8.50402545928955,8.48708915710449,8.47021961212158,8.45341777801514,8.43668270111084,8.42001342773438,8.40340995788574,8.38687133789062,8.37039852142334,8.35398960113525,8.33764553070068,8.321364402771,8.30514717102051,8.2889928817749,8.27290153503418,8.25687313079834,8.24090576171875,8.22500038146973,8.20915603637695,8.19337272644043,8.17765045166016,8.16198825836182,8.14638614654541,8.13084316253662,8.11535930633545,8.09993457794189,8.08456802368164,8.06925964355469,8.05400943756104,8.03881645202637,8.02368068695068,8.00860214233398,7.99358034133911,7.97861433029175,7.96370363235474,7.94884872436523,7.93404817581177,7.91930341720581,7.90461301803589,7.889976978302,7.87539529800415,7.86086702346802,7.84639263153076,7.83197116851807,7.81760263442993,7.80328702926636,7.78902339935303,7.7748122215271,7.76065254211426,7.7465443611145,7.73248720169067,7.71848154067993,7.7045259475708,7.69062089920044,7.67676591873169,7.66296052932739,7.64920520782471,7.63549900054932,7.62184190750122,7.60823345184326,7.59467363357544,7.5811619758606,7.56769800186157,7.49434280395508,7.47275733947754,7.45129585266113,7.4299578666687,7.40874099731445,7.38764524459839,7.36666917800903,7.34581184387207,7.32507085800171,7.30444669723511,7.28393793106079,7.26231241226196,7.23960447311401,7.21703815460205,7.19461154937744,7.17232418060303,7.15017461776733,7.12816143035889,7.10628271102905,7.08453845977783,7.06292724609375,7.04144668579102,7.02009677886963,6.99887609481812,6.977783203125
13.7138252258301,13.7138376235962,13.7138566970825,13.7138690948486,13.713888168335,13.7139005661011,13.7139196395874,13.7139329910278,13.7139482498169,13.7139616012573,13.7139806747437,13.7139902114868,13.7140092849731,13.7140245437622,13.7140407562256,13.714054107666,13.7140693664551,13.7140855789185,13.7141017913818,13.7141170501709,13.7141332626343,13.7141466140747,13.714165687561,13.7141780853271,13.7141942977905,13.7142066955566,13.71422290802,13.7142362594604,13.7142553329468,13.7142677307129,13.7142868041992,13.7143001556396,13.714316368103,13.7143287658691,13.7143478393555,13.7143611907959,13.7143802642822,13.7143926620483,13.7144088745117,13.7144222259521,13.7144355773926,13.7144508361816,13.7144641876221,13.7144832611084,13.7144994735718,13.7145156860352,13.7145290374756,13.714545249939,13.7145576477051,13.7145767211914,13.7145900726318,13.7146091461182,13.7146224975586,13.714638710022,13.7146520614624,13.7146682739258,13.7146806716919,13.7146968841553,13.7147130966187,13.714729309082,13.7147426605225,13.7147588729858,13.7147750854492,13.7147912979126,13.714804649353,13.7148237228394,13.7148370742798,13.7148532867432,13.7148666381836,13.714882850647,13.7148952484131,13.7149124145508,13.7149248123169,13.7149448394775,13.7149572372437,13.7149744033813,13.7149906158447,13.7150068283081,13.7150201797485,13.7150363922119,13.7150526046753,13.7150688171387,13.7150821685791,13.7150983810425,13.7151117324829,13.7151279449463,13.7151412963867,13.7151575088501,13.7151737213135,13.7151908874512,13.7152042388916,13.7152166366577,13.7152338027954,13.7152500152588,13.7152662277222,13.7152795791626,13.7152996063232,13.7153129577637,13.7153263092041,13.7153396606445,13.7153558731079,13.7153692245483,13.7153854370117,13.7154016494751,13.7154188156128,13.7154321670532,13.7154483795166,13.71546459198,13.7154817581177,13.7154951095581,13.7155113220215,13.7155275344849,13.7155408859253,13.71555519104,13.7155714035034,13.7155847549438,13.7156009674072,13.7156143188477,13.7156343460083,13.7156476974487,13.7156648635864,13.7156782150269,13.7156944274902,13.7157077789307,13.7157278060913,13.7157411575317,13.7157545089722,13.7157716751099,13.7157878875732,13.7158012390137,13.7158184051514,13.7158317565918,13.7158489227295,13.7158622741699,13.7158784866333,13.715892791748,13.7159090042114,13.7159261703491,13.7159395217896,13.7159557342529,13.7159700393677,13.7159833908081,13.7159996032715,13.7160167694092,13.7160301208496,13.7160472869873,13.7160606384277,13.7160778045654,13.7160911560059,13.7161083221436,13.716121673584,13.7161388397217,13.7161521911621,13.7161693572998,13.7161855697632,13.7161998748779,13.7162132263184,13.7162303924561,13.7162437438965,13.7162609100342,13.7162742614746,13.7162914276123,13.7163047790527,13.7163248062134,13.7163381576538,13.7163553237915,13.7163696289062,13.7163858413696,13.7164011001587,11.9520797729492,11.939546585083,11.9270391464233,11.9145584106445,11.9021034240723,11.8896741867065,11.8772716522217,11.8648948669434,11.8525428771973,11.840217590332,11.8279180526733,11.8156433105469,11.803394317627,11.7911701202393,11.7789716720581,11.7667989730835,11.7546510696411,11.742527961731,11.730429649353,11.7183570861816,11.6528520584106,11.5025005340576,11.3559799194336,11.2131452560425,11.0738582611084,10.9379901885986,10.8054151535034,10.6760149002075,10.5496778488159,10.4262962341309,10.3057670593262,10.1879920959473,10.0728788375854,9.96033763885498,9.8502836227417,9.74263572692871,9.63731479644775,9.56165599822998,9.50906467437744,9.4570484161377,9.40559864044189,9.35470485687256,9.30435943603516,9.25455284118652,9.23450374603271,9.22010517120361,9.20575046539307,9.19144153594971,9.1771764755249,9.16295528411865,9.14877796173096,9.13464546203613,9.12055587768555,9.1065092086792,9.09250640869141,9.07854652404785,9.06453800201416,9.05039405822754,9.03629493713379,9.02223968505859,9.00822830200195,8.99425983428955,8.98033428192139,8.96645259857178,8.95261383056641,8.93881702423096,8.92506313323975,8.91135120391846,8.89768123626709,8.88405323028564,8.86792182922363,8.84950637817383,8.83116817474365,8.81290531158447,8.79471778869629,8.77660465240479,8.75856685638428,8.74060249328613,8.72271156311035,8.70489406585693,8.68714904785156,8.66947650909424,8.65187549591064,8.63434600830078,8.61688709259033,8.5994987487793,8.58218097686768,8.56493186950684,8.54775238037109,8.53064250946045,8.51359939575195,8.49662494659424,8.47971820831299,8.4628791809082,8.44610595703125,8.42939949035645,8.41275882720947,8.39618396759033,8.37967395782471,8.3632287979126,8.346848487854,8.33053207397461,8.31427955627441,8.2980899810791,8.28196334838867,8.26589870452881,8.24989700317383,8.23395729064941,8.21807861328125,8.20226097106934,8.18650436401367,8.17080783843994,8.15517139434814,8.13959503173828,8.12407779693604,8.10861968994141,8.09322071075439,8.07787990570068,8.06259727478027,8.04737186431885,8.03220367431641,8.01709365844727,8.00203895568848,7.98704195022583,7.97210025787354,7.95721483230591,7.94238376617432,7.92760753631592,7.91288661956787,7.89822006225586,7.88360738754272,7.86904907226562,7.8545446395874,7.84009313583374,7.8256950378418,7.81134939193726,7.79705667495728,7.78281593322754,7.76862716674805,7.75448989868164,7.74040412902832,7.72636938095093,7.71238565444946,7.69845199584961,7.68456888198853,7.67073583602905,7.65695238113403,7.64321851730347,7.6295337677002,7.61589765548706,7.60231065750122,7.58877182006836,7.57528066635132,7.56183815002441,7.54844284057617,7.47476482391357,7.45329189300537,7.43194198608398,7.4107141494751,7.38960742950439,7.36861991882324,7.34775161743164,7.32700157165527,7.30636644363403,7.28584718704224,7.26544237136841,7.24326467514038,7.22067546844482,7.19822645187378,7.17591667175293,7.15374517440796,7.13170957565308,7.10980987548828,7.08804368972778,7.06641101837158,7.04490947723389,7.02353858947754,7.00229692459106,6.98118352890015,6.96019697189331
13.6175117492676,13.6175270080566,13.6175413131714,13.6175584793091,13.6175699234009,13.6175880432129,13.6176023483276,13.6176195144653,13.6176338195801,13.6176490783691,13.6176605224609,13.6176776885986,13.6176919937134,13.6177072525024,13.6177215576172,13.6177387237549,13.6177539825439,13.6177711486816,13.6177825927734,13.6178007125854,13.6178150177002,13.6178321838379,13.617847442627,13.6178617477417,13.6178760528564,13.6178874969482,13.6179027557373,13.617919921875,13.6179351806641,13.6179523468018,13.6179637908936,13.6179819107056,13.6179962158203,13.6180143356323,13.6180257797241,13.6180400848389,13.6180553436279,13.6180734634399,13.6180877685547,13.6181020736694,13.6181173324585,13.6181316375732,13.6181468963623,13.6181612014771,13.6181755065918,13.6181907653809,13.6182050704956,13.6182203292847,13.6182384490967,13.6182527542114,13.6182680130005,13.6182823181152,13.6183004379272,13.6183090209961,13.6183271408081,13.6183414459229,13.6183567047119,13.6183710098267,13.6183891296387,13.6184005737305,13.6184186935425,13.6184339523315,13.6184511184692,13.6184635162354,13.6184816360474,13.6184959411621,13.6185111999512,13.6185255050659,13.618537902832,13.6185522079468,13.6185703277588,13.6185817718506,13.6185998916626,13.6186151504517,13.6186304092407,13.6186447143555,13.6186628341675,13.6186752319336,13.6186895370483,13.6187047958374,13.6187229156494,13.6187381744385,13.6187496185303,13.6187648773193,13.6187829971313,13.6187973022461,13.6188097000122,13.6188249588013,13.6188430786133,13.6188545227051,13.6188726425171,13.6188879013062,13.6189031600952,13.61891746521,13.618932723999,13.6189479827881,13.6189632415771,13.6189746856689,13.618989944458,13.6190052032471,13.6190204620361,13.6190385818481,13.6190500259399,13.619068145752,13.619083404541,13.6190986633301,13.6191139221191,13.6191291809082,13.6191444396973,13.6191625595093,13.6191740036011,13.6191864013672,13.6192016601562,13.6192197799683,13.6192321777344,13.6192502975464,13.6192655563354,13.6192808151245,13.6192960739136,13.6193113327026,13.6193256378174,13.6193408966064,13.6193532943726,13.6193714141846,13.6193866729736,13.6194019317627,13.6194143295288,13.6194324493408,13.6194448471069,13.6194629669189,13.6194753646851,13.6194906234741,13.6195058822632,13.6195211410522,13.6195363998413,13.6195516586304,13.6195669174194,13.6195821762085,13.6195974349976,13.6196126937866,13.6196250915527,13.6196403503418,13.6196556091309,13.619668006897,13.6196870803833,13.6197023391724,13.6197175979614,13.6197328567505,13.6197481155396,13.6197633743286,13.6197786331177,13.6197938919067,13.6198101043701,13.6198253631592,13.6198377609253,13.6198501586914,13.6198682785034,13.6198806762695,13.6198987960815,13.6199111938477,13.619930267334,13.6199426651001,13.6199607849121,13.6199731826782,13.6199922561646,13.6200046539307,11.9432821273804,11.9307670593262,11.9182777404785,11.9058151245117,11.8933792114258,11.8809680938721,11.8685836791992,11.8562240600586,11.8438911437988,11.8315830230713,11.8193016052246,11.8070449829102,11.7948131561279,11.7826080322266,11.7704267501831,11.7582712173462,11.7461414337158,11.7340354919434,11.7219552993774,11.7098989486694,11.697868347168,11.5490922927856,11.4013900756836,11.257417678833,11.1170358657837,10.9801120758057,10.8465204238892,10.716139793396,10.5888566970825,10.4645624160767,10.3431510925293,10.2245254516602,10.1085901260376,9.99525451660156,9.88443183898926,9.77604007720947,9.66999912261963,9.5994176864624,9.54641056060791,9.49398612976074,9.44213485717773,9.39084625244141,9.34011173248291,9.2899227142334,9.2425708770752,9.22814655303955,9.21376800537109,9.19943332672119,9.18514347076416,9.17089748382568,9.15669631958008,9.14253902435303,9.12842464447021,9.11435413360596,9.10032749176025,9.08634376525879,9.07240200042725,9.05850410461426,9.04464817047119,9.03058910369873,9.01655197143555,9.0025577545166,8.98860645294189,8.97469902038574,8.96083450317383,8.94701290130615,8.9332332611084,8.91949653625488,8.90580177307129,8.89214897155762,8.87853813171387,8.86496925354004,8.85144138336182,8.8379545211792,8.82318782806396,8.80495834350586,8.78680324554443,8.768723487854,8.75071716308594,8.73278522491455,8.71492671966553,8.69714069366455,8.67942810058594,8.66178607940674,8.64421653747559,8.62671756744385,8.60929012298584,8.59193229675293,8.57464408874512,8.55742645263672,8.54027652740479,8.52319622039795,8.50618362426758,8.48923873901367,8.47236156463623,8.45555114746094,8.43880653381348,8.42212963104248,8.405517578125,8.38897037506104,8.3724889755249,8.35607242584229,8.33971977233887,8.32343101501465,8.30720615386963,8.29104423522949,8.27494430541992,8.25890731811523,8.24293327331543,8.22701930999756,8.21116733551025,8.1953763961792,8.17964649200439,8.16397666931152,8.14836692810059,8.13281631469727,8.11732482910156,8.10189247131348,8.08651828765869,8.07120323181152,8.05594539642334,8.04074478149414,8.02560234069824,8.01051616668701,7.99548721313477,7.98051404953003,7.96559715270996,7.9507360458374,7.93592929840088,7.92117691040039,7.90647983551025,7.89183712005615,7.87724828720093,7.86271333694458,7.84823226928711,7.8338041305542,7.81942892074585,7.8051061630249,7.79083633422852,7.77661800384521,7.76245212554932,7.74833726882935,7.73427391052246,7.72026109695435,7.70629930496216,7.69238805770874,7.67852640151978,7.66471529006958,7.65095329284668,7.63724088668823,7.62357759475708,7.60996294021606,7.59639692306519,7.58287906646729,7.56940937042236,7.5559868812561,7.54261255264282,7.5292854309082,7.45528936386108,7.43392753601074,7.41268825531006,7.39157056808472,7.37057209014893,7.34969234466553,7.32893133163452,7.30828666687012,7.28775691986084,7.26734161376953,7.24692916870117,7.22431659698486,7.20184516906738,7.1795129776001,7.15731906890869,7.13526153564453,7.11333990097046,7.09155225753784,7.06989812850952,7.04837560653687,7.02698373794556,7.00572109222412,6.9845871925354,6.96358013153076,6.94269895553589
13.5225429534912,13.5225563049316,13.522572517395,13.5225858688354,13.5226020812988,13.5226154327393,13.522632598877,13.5226488113403,13.5226650238037,13.5226755142212,13.5226917266846,13.522705078125,13.5227222442627,13.5227355957031,13.5227518081665,13.5227651596069,13.5227823257446,13.5227956771851,13.5228118896484,13.5228252410889,13.5228424072266,13.522855758667,13.5228719711304,13.5228853225708,13.5228996276855,13.522912979126,13.5229291915894,13.5229425430298,13.5229597091675,13.5229759216309,13.5229892730713,13.523003578186,13.5230197906494,13.5230369567871,13.5230503082275,13.523063659668,13.5230808258057,13.5230941772461,13.5231075286865,13.523120880127,13.5231380462646,13.5231513977051,13.5231714248657,13.5231819152832,13.5231981277466,13.5232124328613,13.5232286453247,13.5232429504395,13.5232563018799,13.5232734680176,13.523286819458,13.5233030319214,13.5233144760132,13.5233306884766,13.5233449935913,13.5233612060547,13.5233745574951,13.5233917236328,13.5234050750732,13.5234222412109,13.5234365463257,13.5234527587891,13.5234632492065,13.5234804153442,13.5234975814819,13.5235137939453,13.5235252380371,13.5235414505005,13.523551940918,13.5235691070557,13.5235834121704,13.5235996246338,13.5236139297485,13.5236310958862,13.5236444473267,13.5236616134644,13.5236749649048,13.5236921310425,13.5237064361572,13.5237197875977,13.5237340927124,13.5237474441528,13.5237617492676,13.5237789154053,13.5237922668457,13.5238094329834,13.5238227844238,13.5238399505615,13.5238542556763,13.523871421814,13.5238847732544,13.5238990783691,13.5239124298096,13.5239295959473,13.523943901062,13.5239610671997,13.5239715576172,13.5239858627319,13.5240030288696,13.5240163803101,13.5240306854248,13.5240449905396,13.5240621566772,13.5240755081177,13.5240926742554,13.5241069793701,13.5241241455078,13.5241346359253,13.524151802063,13.5241661071777,13.5241804122925,13.5241937637329,13.5242109298706,13.5242223739624,13.5242395401001,13.5242538452148,13.5242710113525,13.524284362793,13.524302482605,13.5243158340454,13.5243301391602,13.5243444442749,13.5243616104126,13.5243759155273,13.524393081665,13.5244035720825,13.5244178771973,13.524432182312,13.5244493484497,13.5244636535645,13.5244808197021,13.5244951248169,13.5245122909546,13.5245237350464,13.5245409011841,13.5245552062988,13.5245695114136,13.524582862854,13.524600982666,13.5246114730835,13.5246286392212,13.5246429443359,13.5246572494507,13.5246715545654,13.5246887207031,13.5247030258179,13.5247144699097,13.5247316360474,13.5247459411621,13.5247631072998,13.5247774124146,13.5247917175293,13.524806022644,13.5248241424561,13.5248346328735,13.5248489379883,13.524863243103,13.524881362915,13.5248918533325,13.5249099731445,13.5249242782593,13.524941444397,11.9470195770264,11.9344968795776,11.9219999313354,11.9095296859741,11.8970851898193,11.8846673965454,11.8722743988037,11.8599081039429,11.8475666046143,11.8352518081665,11.822961807251,11.810697555542,11.7984590530396,11.7862453460693,11.7740573883057,11.7618942260742,11.749755859375,11.7376432418823,11.7255554199219,11.7134923934937,11.7014541625977,11.6894407272339,11.5960626602173,11.4471635818481,11.3020401000977,11.1605501174927,11.0225591659546,10.887939453125,10.7565670013428,10.6283283233643,10.5031108856201,10.3808088302612,10.2613229751587,10.1445560455322,10.0304164886475,9.9188175201416,9.80967426300049,9.70290660858154,9.63747787475586,9.58405208587646,9.53121376037598,9.47895622253418,9.42726802825928,9.37614059448242,9.32556438446045,9.27553081512451,9.23620319366455,9.22179889678955,9.20743942260742,9.19312381744385,9.17885398864746,9.16462802886963,9.15044593811035,9.13630771636963,9.12221240997314,9.10816192626953,9.09415340423584,9.0801887512207,9.06626605987549,9.05238723754883,9.03854942321777,9.02475547790527,9.01087093353271,8.99689388275146,8.98296070098877,8.96907043457031,8.95522403717041,8.94141864776611,8.92765712738037,8.91393756866455,8.90025997161865,8.88662433624268,8.8730297088623,8.85947704315186,8.84596633911133,8.83249664306641,8.81906700134277,8.80567932128906,8.79233169555664,8.77890396118164,8.76085662841797,8.74288272857666,8.72498226165771,8.70715618133545,8.68940162658691,8.67171955108643,8.65410995483398,8.63657093048096,8.61910343170166,8.60170650482178,8.58437919616699,8.5671215057373,8.54993343353271,8.53281402587891,8.51576328277588,8.49878025054932,8.48186492919922,8.46501636505127,8.44823551177979,8.43152046203613,8.41487121582031,8.39828777313232,8.38177013397217,8.36531639099121,8.34892845153809,8.33260345458984,8.3163423538208,8.30014514923096,8.28400993347168,8.26793766021729,8.25192832946777,8.23598003387451,8.22009372711182,8.20426845550537,8.18850421905518,8.17280006408691,8.1571569442749,8.14157295227051,8.12604808807373,8.11058235168457,8.09517574310303,8.07982730865479,8.06453704833984,8.0493049621582,8.03412914276123,8.01901149749756,8.00395011901855,7.98894548416138,7.97399711608887,7.95910453796387,7.94426727294922,7.92948532104492,7.9147572517395,7.90008354187012,7.88546466827393,7.87089920043945,7.85638761520386,7.84192943572998,7.82752466201782,7.81317234039307,7.79887294769287,7.78462553024292,7.77043008804321,7.75628662109375,7.74219417572021,7.72815275192261,7.71416282653809,7.70022296905518,7.68633317947388,7.67249393463135,7.65870428085327,7.64496374130249,7.63127279281616,7.61763048171997,7.60403728485107,7.59049224853516,7.57699537277222,7.56354665756226,7.55014514923096,7.53679132461548,7.52348470687866,7.51022481918335,7.43591451644897,7.41466379165649,7.3935341835022,7.37252521514893,7.35163450241089,7.33086204528809,7.31020736694336,7.28966760635376,7.26924180984497,7.24892997741699,7.22796154022217,7.20546770095825,7.18311309814453,7.16089677810669,7.13881731033325,7.1168737411499,7.09506464004517,7.07338905334473,7.05184507369995,7.03043222427368,7.00914907455444,6.98799419403076,6.96696662902832,6.94606494903564,6.92528867721558
13.4288902282715,13.4289026260376,13.4289150238037,13.42893409729,13.4289464950562,13.4289627075195,13.4289751052856,13.428994178772,13.4290037155151,13.4290218353271,13.4290342330933,13.4290504455566,13.4290628433228,13.4290819168091,13.4290943145752,13.4291105270386,13.4291229248047,13.429141998291,13.4291543960571,13.4291696548462,13.4291830062866,13.4291982650757,13.4292106628418,13.4292268753052,13.4292392730713,13.4292554855347,13.429271697998,13.4292840957642,13.4292993545532,13.4293155670166,13.4293279647827,13.4293441772461,13.4293603897095,13.4293756484985,13.4293880462646,13.429404258728,13.4294204711914,13.4294328689575,13.4294462203979,13.429461479187,13.4294748306274,13.4294939041138,13.4295063018799,13.4295225143433,13.4295349121094,13.4295511245728,13.4295635223389,13.4295825958252,13.4295959472656,13.4296112060547,13.4296245574951,13.4296369552612,13.4296531677246,13.4296627044678,13.4296817779541,13.4296951293945,13.4297103881836,13.429723739624,13.4297428131104,13.4297523498535,13.4297714233398,13.4297847747803,13.4298009872437,13.4298133850098,13.4298295974731,13.4298429489136,13.4298553466797,13.4298715591431,13.4298877716064,13.4299001693726,13.4299163818359,13.4299297332764,13.4299459457397,13.4299621582031,13.4299745559692,13.4299907684326,13.430006980896,13.4300203323364,13.4300365447998,13.4300489425659,13.4300622940063,13.4300746917725,13.4300947189331,13.4301042556763,13.4301233291626,13.430136680603,13.4301528930664,13.4301662445068,13.4301824569702,13.4301948547363,13.4302110671997,13.4302244186401,13.4302434921265,13.4302539825439,13.4302730560303,13.4302835464478,13.4302997589111,13.4303121566772,13.4303283691406,13.4303417205811,13.4303579330444,13.4303712844849,13.4303874969482,13.4304008483887,13.4304170608521,13.4304332733154,13.4304466247559,13.4304628372192,13.4304761886597,13.4304895401001,13.4305019378662,13.4305181503296,13.43053150177,13.4305477142334,13.4305610656738,13.4305782318115,13.4305906295776,13.4306077957153,13.4306201934814,13.4306373596191,13.4306507110596,13.4306697845459,13.4306802749634,13.4306993484497,13.4307098388672,13.4307231903076,13.430739402771,13.4307527542114,13.4307689666748,13.4307823181152,13.4307985305786,13.430811882019,13.4308290481567,13.4308423995972,13.4308586120605,13.430871963501,13.4308881759644,13.4309015274048,13.4309120178223,13.4309310913086,13.4309415817261,13.4309616088867,13.4309720993042,13.4309911727905,13.431001663208,13.4310216903687,13.4310312271118,13.4310512542725,13.4310617446899,13.4310779571533,13.4310913085938,13.4311084747314,13.4311218261719,13.4311351776123,13.4311485290527,13.4311647415161,13.4311790466309,13.4311952590942,13.4312086105347,11.9382286071777,11.925724029541,11.9132461547852,11.9007940292358,11.8883676528931,11.8759679794312,11.8635931015015,11.8512449264526,11.838921546936,11.8266248703003,11.8143529891968,11.8021068572998,11.7898855209351,11.7776899337769,11.7655191421509,11.7533740997314,11.7412538528442,11.7291584014893,11.7170877456665,11.705041885376,11.6930208206177,11.6810245513916,11.6434164047241,11.4933071136475,11.3470191955566,11.2044076919556,11.0653371810913,10.9296760559082,10.7973012924194,10.6680946350098,10.5419435501099,10.4187412261963,10.2983856201172,10.180778503418,10.0658273696899,9.95344352722168,9.84354114532471,9.73603916168213,9.67584228515625,9.62199020385742,9.56873512268066,9.51606559753418,9.46397304534912,9.41244792938232,9.36148071289062,9.31106185913086,9.2611837387085,9.22984313964844,9.21545886993408,9.2011194229126,9.18682384490967,9.17257308959961,9.15836620330811,9.14420413970947,9.13008499145508,9.11600971221924,9.10197734832764,9.08798789978027,9.07404232025146,9.06013870239258,9.04627799987793,9.0324592590332,9.01868343353271,9.00494861602783,8.99123764038086,8.97732257843018,8.96344947814941,8.94961929321289,8.93583202362061,8.92208766937256,8.90838527679443,8.89472389221191,8.88110542297363,8.86752796173096,8.8539924621582,8.84049797058105,8.82704448699951,8.81363201141357,8.80026054382324,8.7869291305542,8.77363872528076,8.7603874206543,8.74717712402344,8.73400592803955,8.71719360351562,8.6993989944458,8.68167591094971,8.66402530670166,8.64644718170166,8.62893867492676,8.6115026473999,8.59413528442383,8.57683944702148,8.55961132049561,8.54245376586914,8.52536392211914,8.50834274291992,8.49138927459717,8.47450351715088,8.45768451690674,8.44093227386475,8.42424583435059,8.40762615203857,8.39107131958008,8.3745813369751,8.35815620422363,8.34179592132568,8.32549858093262,8.30926609039307,8.29309558868408,8.27698802947998,8.26094341278076,8.24496078491211,8.22904014587402,8.21318054199219,8.19738101959229,8.18164348602295,8.16596603393555,8.15034770965576,8.13479042053223,8.11929130554199,8.10385131835938,8.08847045898438,8.07314777374268,8.05788230895996,8.04267501831055,8.02752494812012,8.01243209838867,7.99739503860474,7.98241519927979,7.96749114990234,7.95262241363525,7.93780946731567,7.92305135726929,7.90834760665894,7.89369773864746,7.87910223007202,7.86456060409546,7.85007238388062,7.83563756942749,7.82125568389893,7.80692625045776,7.792649269104,7.7784252166748,7.76425218582153,7.75013065338135,7.73606109619141,7.72204208374023,7.70807361602783,7.6941556930542,7.68028831481934,7.66647052764893,7.65270233154297,7.63898372650146,7.6253137588501,7.61169290542603,7.59812068939209,7.58459663391113,7.57112073898315,7.55769300460815,7.54431247711182,7.53097915649414,7.51769304275513,7.50445365905762,7.49126052856445,7.41664028167725,7.39549922943115,7.37447929382324,7.35357761383057,7.33279418945312,7.31212854385376,7.29157829284668,7.27114295959473,7.25082063674927,7.23061180114746,7.20909357070923,7.18671655654907,7.16447782516479,7.14237642288208,7.12041091918945,7.0985803604126,7.07688283920288,7.05531787872314,7.03388404846191,7.01257991790771,6.99140453338623,6.97035646438599,6.94943475723267,6.92863845825195,6.90796566009521
13.3365230560303,13.3365383148193,13.3365535736084,13.3365688323975,13.3365802764893,13.3365955352783,13.3366107940674,13.3366231918335,13.3366374969482,13.3366498947144,13.3366651535034,13.3366804122925,13.3366956710815,13.3367109298706,13.3367261886597,13.3367414474487,13.3367557525635,13.3367681503296,13.3367862701416,13.3367986679077,13.3368139266968,13.3368291854858,13.336841583252,13.3368530273438,13.3368682861328,13.3368835449219,13.3368988037109,13.3369140625,13.3369293212891,13.3369417190552,13.3369598388672,13.3369722366333,13.3369874954224,13.3370027542114,13.3370180130005,13.3370304107666,13.3370428085327,13.3370580673218,13.3370733261108,13.337085723877,13.337100982666,13.3371162414551,13.3371315002441,13.3371467590332,13.3371620178223,13.3371744155884,13.3371896743774,13.3372049331665,13.3372201919556,13.3372325897217,13.3372478485107,13.3372602462769,13.3372755050659,13.337290763855,13.3373031616211,13.3373193740845,13.3373308181763,13.3373498916626,13.3373622894287,13.3373775482178,13.3373928070068,13.3374080657959,13.337420463562,13.3374366760254,13.3374519348145,13.3374643325806,13.3374767303467,13.3374919891357,13.3375043869019,13.3375234603882,13.3375358581543,13.3375511169434,13.3375663757324,13.3375816345215,13.3375940322876,13.3376131057739,13.33762550354,13.3376407623291,13.3376531600952,13.3376693725586,13.3376817703247,13.3376970291138,13.3377094268799,13.3377256393433,13.3377408981323,13.3377532958984,13.3377685546875,13.3377847671509,13.337797164917,13.3378124237061,13.3378248214722,13.3378438949585,13.3378562927246,13.337872505188,13.3378820419312,13.3378973007202,13.3379125595093,13.3379287719727,13.3379411697388,13.3379602432251,13.3379726409912,13.3379878997803,13.3380012512207,13.3380136489868,13.3380289077759,13.338041305542,13.3380603790283,13.3380727767944,13.3380861282349,13.338098526001,13.3381147384644,13.3381299972534,13.3381462097168,13.3381586074829,13.338173866272,13.3381872177124,13.3382024765015,13.3382158279419,13.3382339477539,13.3382472991943,13.3382625579834,13.3382759094238,13.3382911682129,13.3383045196533,13.3383197784424,13.3383321762085,13.3383483886719,13.338360786438,13.3383769989014,13.3383932113647,13.3384084701538,13.3384218215942,13.3384342193604,13.3384504318237,13.3384666442871,13.3384790420532,13.3384952545166,13.3385047912598,13.3385238647461,13.3385362625122,13.3385496139526,13.3385648727417,13.3385810852051,13.3385944366455,13.3386096954346,13.338623046875,13.3386383056641,13.3386516571045,13.3386707305908,13.3386840820312,13.3386964797974,13.3387126922607,13.3387250900269,13.3387384414673,13.3387508392334,11.9419631958008,11.9294509887695,11.9169654846191,11.9045057296753,11.892071723938,11.8796634674072,11.867280960083,11.8549251556396,11.8425941467285,11.8302898406982,11.8180103302002,11.8057565689087,11.7935276031494,11.7813243865967,11.7691459655762,11.7569932937622,11.7448654174805,11.7327632904053,11.720685005188,11.7086324691772,11.6966037750244,11.6845998764038,11.6726207733154,11.6606664657593,11.5398235321045,11.3923568725586,11.248610496521,11.1084470748901,10.971734046936,10.8383445739746,10.7081594467163,10.5810651779175,10.4569520950317,10.3357172012329,10.2172613143921,10.1014890670776,9.98831176757812,9.87764167785645,9.76940727233887,9.71451282501221,9.66023063659668,9.60655212402344,9.553466796875,9.5009651184082,9.44903755187988,9.39767360687256,9.3468656539917,9.29660415649414,9.24688053131104,9.22349262237549,9.20912837982178,9.19480800628662,9.18053245544434,9.16630077362061,9.15211391448975,9.13796997070312,9.12387084960938,9.10981464385986,9.09580135345459,9.08183097839355,9.06790447235107,9.05401992797852,9.04017734527588,9.02637767791748,9.012619972229,8.99890422821045,8.9852294921875,8.97159671783447,8.95783519744873,8.94402313232422,8.93025302886963,8.91652488708496,8.90283966064453,8.88919544219971,8.87559413909912,8.86203384399414,8.84851455688477,8.83503723144531,8.82159996032715,8.80820465087891,8.79484939575195,8.78153419494629,8.76825904846191,8.75502490997314,8.74182987213135,8.72867488861084,8.71555995941162,8.70248413085938,8.68944644927979,8.67396450042725,8.65634536743164,8.63879776000977,8.6213207244873,8.60391426086426,8.58657836914062,8.56931209564209,8.55211544036865,8.534987449646,8.5179271697998,8.50093555450439,8.48401165008545,8.46715545654297,8.45036506652832,8.43364238739014,8.41698455810547,8.40039348602295,8.38386726379395,8.36740589141846,8.35100841522217,8.33467578887939,8.31840705871582,8.30220127105713,8.28605842590332,8.26997852325439,8.25396060943604,8.23800468444824,8.22211074829102,8.20627784729004,8.19050598144531,8.17479419708252,8.15914249420166,8.14355087280273,8.12801837921143,8.11254596710205,8.09713172912598,8.0817756652832,8.06647872924805,8.05123805999756,8.03605651855469,8.02093124389648,8.00586223602295,7.99085092544556,7.97589492797852,7.96099519729614,7.94615125656128,7.93136215209961,7.91662788391113,7.90194845199585,7.88732194900513,7.87274980545044,7.85823202133179,7.84376668930054,7.82935523986816,7.81499624252319,7.80069017410278,7.78643608093262,7.7722339630127,7.75808382034302,7.74398517608643,7.72993755340576,7.71594047546387,7.7019944190979,7.68809843063354,7.6742525100708,7.66045665740967,7.64670991897583,7.63301277160645,7.6193642616272,7.60576486587524,7.59221363067627,7.57871055603027,7.56525564193726,7.55184841156006,7.53848838806152,7.52517557144165,7.51190996170044,7.49869108200073,7.48551845550537,7.47239208221436,7.39746570587158,7.37643432617188,7.35552167892456,7.33472728729248,7.31405067443848,7.29348993301392,7.27304410934448,7.25271224975586,7.23249244689941,7.21238565444946,7.19032335281372,7.16806268692017,7.14593935012817,7.12395191192627,7.10209941864014,7.08038091659546,7.05879402160645,7.03733921051025,7.01601457595825,6.99481773376465,6.9737491607666,6.95280742645264,6.93199062347412,6.9112982749939,6.89072942733765
13.2454214096069,13.245433807373,13.2454481124878,13.2454633712769,13.2454776763916,13.2454929351807,13.2455043792725,13.2455196380615,13.2455310821533,13.2455453872681,13.2455606460571,13.2455759048462,13.245587348938,13.24560546875,13.2456169128418,13.2456321716309,13.2456464767456,13.2456645965576,13.2456769943237,13.2456912994385,13.2457065582275,13.2457180023193,13.2457332611084,13.2457485198975,13.2457599639893,13.2457752227783,13.2457895278931,13.2458047866821,13.2458171844482,13.2458353042603,13.2458467483521,13.2458620071411,13.2458763122559,13.2458915710449,13.245906829834,13.2459182739258,13.2459306716919,13.245945930481,13.2459602355957,13.2459783554077,13.2459907531738,13.2460060119629,13.2460174560547,13.2460355758667,13.2460479736328,13.2460622787476,13.2460775375366,13.2460927963257,13.2461051940918,13.2461204528809,13.2461318969727,13.2461471557617,13.2461585998535,13.2461776733398,13.2461891174316,13.2462043762207,13.2462196350098,13.2462348937988,13.2462501525879,13.2462615966797,13.2462768554688,13.2462892532349,13.2463073730469,13.246319770813,13.2463312149048,13.2463464736938,13.2463617324829,13.246374130249,13.2463893890381,13.2464046478271,13.2464199066162,13.246431350708,13.2464466094971,13.2464590072632,13.2464771270752,13.2464923858643,13.2465076446533,13.2465200424194,13.2465353012085,13.2465476989746,13.2465629577637,13.2465753555298,13.2465906143188,13.2466020584106,13.246621131897,13.2466325759888,13.2466487884521,13.2466602325439,13.246675491333,13.2466907501221,13.2467069625854,13.2467222213745,13.2467374801636,13.2467460632324,13.2467613220215,13.2467775344849,13.2467927932739,13.2468042373657,13.2468204498291,13.2468318939209,13.2468481063843,13.2468633651733,13.2468786239624,13.2468910217285,13.2469062805176,13.2469186782837,13.2469339370728,13.2469491958618,13.246958732605,13.246973991394,13.2469863891602,13.2470054626465,13.2470178604126,13.2470331192017,13.2470483779907,13.2470636367798,13.2470760345459,13.247091293335,13.2471036911011,13.2471199035645,13.2471323013306,13.2471504211426,13.2471599578857,13.2471752166748,13.2471876144409,13.2472038269043,13.2472190856934,13.2472343444824,13.2472467422485,13.2472629547119,13.247278213501,13.24729347229,13.2473058700562,13.2473220825195,13.2473344802856,13.2473497390747,13.2473621368408,13.2473783493042,13.2473907470703,13.2474060058594,13.2474184036255,13.2474346160889,13.247447013855,13.247462272644,13.2474746704102,13.2474908828735,13.2475061416626,13.247522354126,13.2475347518921,13.2475500106812,13.2475624084473,13.2475786209106,11.9331798553467,11.9206867218018,11.9082183837891,11.8957767486572,11.8833618164062,11.8709716796875,11.8586072921753,11.8462696075439,11.8339567184448,11.8216695785522,11.8094081878662,11.7971725463867,11.7849617004395,11.7727756500244,11.7606153488159,11.7484798431396,11.7363700866699,11.7242851257324,11.7122240066528,11.7001886367798,11.688178062439,11.6761913299561,11.6642293930054,11.6522922515869,11.5867185592651,11.4380578994751,11.2931642532349,11.1518955230713,11.0141172409058,10.8797016143799,10.7485265731812,10.6204776763916,10.4954442977905,10.3733196258545,10.2540054321289,10.1374044418335,10.0234251022339,9.91198062896729,9.80883121490479,9.753493309021,9.69877624511719,9.64466953277588,9.59116363525391,9.53824806213379,9.48591232299805,9.43414878845215,9.38294696807861,9.33229732513428,9.28219223022461,9.23262214660645,9.21715068817139,9.202805519104,9.18850517272949,9.17424964904785,9.16003704071045,9.14586925506592,9.13174533843994,9.11766529083252,9.10362720489502,9.08963394165039,9.07568264007568,9.06177425384521,9.04790878295898,9.03408527374268,9.02030372619629,9.00656414031982,8.9928674697876,8.97921085357666,8.96559619903564,8.95202350616455,8.93843269348145,8.92467975616455,8.91096973419189,8.89730072021484,8.88367462158203,8.87008953094482,8.85654544830322,8.84304332733154,8.82958221435547,8.816162109375,8.80278301239014,8.78944396972656,8.77614498138428,8.7628870010376,8.74966907501221,8.73649024963379,8.72335147857666,8.7102518081665,8.69719123840332,8.68417072296143,8.67118835449219,8.65824508666992,8.64533996582031,8.6311616897583,8.61371517181396,8.59634017944336,8.57903480529785,8.56179904937744,8.54463195800781,8.52753353118896,8.5105037689209,8.4935417175293,8.47664737701416,8.45981979370117,8.44305896759033,8.42636394500732,8.40973567962646,8.39317321777344,8.37667465209961,8.36024188995361,8.34387302398682,8.32756805419922,8.3113260269165,8.29514789581299,8.27903270721436,8.26298046112061,8.24698925018311,8.23106098175049,8.21519374847412,8.19938659667969,8.18364143371582,8.16795635223389,8.15233039855957,8.1367654800415,8.12125873565674,8.10581111907959,8.09042263031006,8.07509231567383,8.0598201751709,8.04460525512695,8.02944850921631,8.01434803009033,7.99930429458618,7.9843168258667,7.96938562393188,7.95451021194458,7.93969011306763,7.92492532730103,7.91021490097046,7.89555931091309,7.88095712661743,7.8664083480835,7.85191345214844,7.8374719619751,7.82308340072632,7.80874729156494,7.79446411132812,7.78023242950439,7.76605319976807,7.75192546844482,7.73784875869751,7.72382354736328,7.70984888076782,7.69592428207397,7.6820502281189,7.66822624206543,7.65445184707642,7.64072704315186,7.62705087661743,7.6134238243103,7.59984540939331,7.58631563186646,7.57283353805542,7.55939912796021,7.54601287841797,7.53267383575439,7.51938152313232,7.50613594055176,7.4929370880127,7.47978496551514,7.46667861938477,7.45361804962158,7.37839031219482,7.35746669769287,7.33666133880615,7.31597328186035,7.29540205001831,7.2749457359314,7.25460386276245,7.23437452316284,7.21425676345825,7.19393396377563,7.17165088653564,7.14950561523438,7.12749624252319,7.10562229156494,7.08388185501099,7.06227397918701,7.0407977104187,7.01945209503174,6.99823474884033,6.97714614868164,6.95618343353271,6.93534660339355,6.91463422775269,6.89404535293579,6.8735785484314
13.1555509567261,13.1555681228638,13.1555805206299,13.1555948257446,13.1556100845337,13.1556243896484,13.1556358337402,13.1556510925293,13.1556625366211,13.1556777954102,13.1556921005249,13.155707359314,13.1557216644287,13.1557340621948,13.1557483673096,13.1557636260986,13.1557779312134,13.1557903289795,13.1558046340942,13.1558198928833,13.1558313369751,13.1558437347412,13.1558618545532,13.155873298645,13.1558885574341,13.1559028625488,13.1559181213379,13.1559324264526,13.1559476852417,13.1559600830078,13.1559743881226,13.1559896469116,13.1560049057007,13.1560163497925,13.1560277938843,13.1560430526733,13.1560583114624,13.1560697555542,13.1560878753662,13.1561002731323,13.1561145782471,13.1561298370361,13.1561450958252,13.156156539917,13.1561717987061,13.1561870574951,13.1562023162842,13.156213760376,13.156231880188,13.1562404632568,13.1562557220459,13.156268119812,13.156286239624,13.1562976837158,13.1563129425049,13.1563282012939,13.1563405990601,13.1563549041748,13.1563701629639,13.15638256073,13.156400680542,13.1564130783081,13.1564245223999,13.156436920166,13.1564521789551,13.1564674377441,13.1564788818359,13.1564970016479,13.1565093994141,13.1565246582031,13.1565370559692,13.156551361084,13.156566619873,13.1565818786621,13.1565942764282,13.1566095352173,13.1566247940063,13.1566371917725,13.1566486358643,13.1566638946533,13.1566791534424,13.1566944122314,13.1567068099976,13.1567220687866,13.1567344665527,13.1567497253418,13.1567649841309,13.1567802429199,13.1567916870117,13.1568069458008,13.1568193435669,13.156834602356,13.1568470001221,13.1568622589111,13.1568746566772,13.1568899154663,13.1569023132324,13.1569175720215,13.1569328308105,13.1569480895996,13.1569604873657,13.1569757461548,13.1569910049438,13.15700340271,13.157018661499,13.1570339202881,13.1570463180542,13.1570615768433,13.1570739746094,13.1570863723755,13.1571016311646,13.1571140289307,13.1571292877197,13.1571416854858,13.1571607589722,13.1571731567383,13.1571884155273,13.1572008132935,13.1572160720825,13.1572284698486,13.1572437286377,13.1572561264038,13.1572685241699,13.157283782959,13.1572999954224,13.1573123931885,13.1573276519775,13.1573400497437,13.1573581695557,13.1573705673218,13.1573829650879,13.1573991775513,13.1574144363403,13.1574268341064,13.1574420928955,13.1574544906616,13.1574668884277,13.1574792861938,13.1574954986572,13.1575107574463,13.1575260162354,13.1575393676758,13.1575546264648,13.157567024231,13.15758228302,13.1575956344604,13.1576108932495,13.1576232910156,11.9369115829468,11.924409866333,11.9119348526001,11.8994846343994,11.8870620727539,11.8746643066406,11.8622922897339,11.849946975708,11.8376264572144,11.8253316879272,11.8130626678467,11.8008193969727,11.7886009216309,11.7764072418213,11.7642393112183,11.7520971298218,11.7399787902832,11.7278861999512,11.7158184051514,11.7037754058838,11.6917572021484,11.6797637939453,11.6677942276001,11.6558504104614,11.6439294815063,11.6320343017578,11.4841279983521,11.3380718231201,11.1956844329834,11.0568284988403,10.9213743209839,10.7891998291016,10.6601858139038,10.5342206954956,10.4111976623535,10.291015625,10.1735754013062,10.0587863922119,9.94655799865723,9.84857368469238,9.79278755187988,9.73762989044189,9.68309020996094,9.62915897369385,9.57582378387451,9.5230770111084,9.47090721130371,9.41930675506592,9.36826515197754,9.31777381896973,9.26782417297363,9.22518730163574,9.21081733703613,9.19649219512939,9.18221187591553,9.1679744720459,9.15378284454346,9.13963413238525,9.12552928924561,9.1114673614502,9.09744930267334,9.08347415924072,9.06954193115234,9.0556526184082,9.04180526733398,9.028000831604,9.01423835754395,9.00051689147949,8.98683834075928,8.97320079803467,8.95960426330566,8.94604873657227,8.93253517150879,8.9190616607666,8.90542030334473,8.89176940917969,8.87815952301025,8.86459159851074,8.85106468200684,8.83757877349854,8.82413482666016,8.81073093414307,8.79736804962158,8.78404521942139,8.7707633972168,8.75752067565918,8.74431896209717,8.73115634918213,8.71803379058838,8.7049503326416,8.6919059753418,8.67890071868896,8.66593456268311,8.6530065536499,8.64011764526367,8.6272668838501,8.61445426940918,8.6016788482666,8.58877944946289,8.57150363922119,8.55429840087891,8.53716087341309,8.52009296417236,8.50309276580811,8.48616027832031,8.46929550170898,8.45249652862549,8.43576526641846,8.41909885406494,8.40249919891357,8.38596439361572,8.3694953918457,8.35309028625488,8.33674907684326,8.32047176361084,8.30425834655762,8.28810787200928,8.2720193862915,8.25599384307861,8.24003028869629,8.22412872314453,8.20828819274902,8.19250774383545,8.17678833007812,8.16112995147705,8.14553070068359,8.12999057769775,8.11451053619385,8.09908866882324,8.08372497558594,8.06842041015625,8.05317306518555,8.03798389434814,8.02285099029541,8.00777530670166,7.99275636672974,7.97779369354248,7.96288681030273,7.9480357170105,7.93323945999146,7.91849851608276,7.90381240844727,7.88918018341064,7.8746018409729,7.86007690429688,7.84560537338257,7.83118677139282,7.81682109832764,7.80250787734985,7.78824758529663,7.77403879165649,7.7598819732666,7.74577665328979,7.73172235488892,7.71771907806396,7.70376682281494,7.68986415863037,7.67601203918457,7.66220951080322,7.64845705032349,7.63475322723389,7.62109899520874,7.60749292373657,7.59393548965454,7.58042669296265,7.56696557998657,7.55355215072632,7.54018640518188,7.52686786651611,7.51359605789185,7.50037097930908,7.48719263076782,7.47406005859375,7.46097373962402,7.44793319702148,7.43493843078613,7.42198848724365,7.33859634399414,7.31789779663086,7.29731559753418,7.27684879302979,7.2564959526062,7.23625755310059,7.21612930297852,7.19611310958862,7.17524290084839,7.15307521820068,7.13104391098022,7.1091480255127,7.08738613128662,7.06575727462769,7.04426002502441,7.02289295196533,7.00165510177612,6.98054552078247,6.9595627784729,6.9387059211731,6.91797351837158,6.89736461639404,6.87687826156616,6.85651302337646
13.0668964385986,13.0669116973877,13.0669231414795,13.0669384002686,13.0669536590576,13.0669622421265,13.0669803619385,13.0669889450073,13.0670070648193,13.0670194625854,13.0670347213745,13.0670490264893,13.0670642852783,13.0670766830444,13.0670909881592,13.0671062469482,13.0671148300171,13.0671339035034,13.0671453475952,13.0671577453613,13.0671730041504,13.0671844482422,13.0671997070312,13.0672149658203,13.0672264099121,13.0672416687012,13.0672569274902,13.0672693252563,13.0672845840454,13.0672998428345,13.0673112869263,13.0673265457153,13.0673418045044,13.0673542022705,13.0673656463623,13.0673809051514,13.0673933029175,13.0674085617065,13.0674238204956,13.0674390792847,13.0674505233765,13.0674657821655,13.0674781799316,13.0674934387207,13.0675086975098,13.0675210952759,13.0675363540649,13.067551612854,13.0675601959229,13.0675754547119,13.067587852478,13.0676031112671,13.0676183700562,13.0676307678223,13.0676460266113,13.0676612854004,13.0676736831665,13.0676889419556,13.0677042007446,13.0677165985107,13.0677318572998,13.0677471160889,13.0677556991577,13.0677709579468,13.0677833557129,13.067795753479,13.0678110122681,13.0678234100342,13.0678386688232,13.0678539276123,13.0678663253784,13.0678815841675,13.0678977966309,13.0679092407227,13.067925453186,13.0679368972778,13.0679559707642,13.0679655075073,13.0679807662964,13.0679931640625,13.0680084228516,13.0680208206177,13.0680360794067,13.0680484771729,13.0680637359619,13.068076133728,13.0680913925171,13.0681037902832,13.0681200027466,13.0681324005127,13.0681505203247,13.0681600570679,13.0681753158569,13.0681848526001,13.0682029724121,13.0682153701782,13.0682287216187,13.0682439804077,13.0682592391968,13.0682716369629,13.0682878494263,13.0683002471924,13.0683155059814,13.0683279037476,13.0683431625366,13.0683555603027,13.0683689117432,13.0683813095093,13.0683965682983,13.0684089660645,13.0684280395508,13.0684375762939,13.068452835083,13.0684680938721,13.0684776306152,13.0684938430786,13.0685091018677,13.0685214996338,13.0685377120972,13.0685529708862,13.0685625076294,13.0685777664185,13.0685873031616,13.0686063766479,13.0686187744141,13.0686321258545,13.0686473846436,13.0686626434326,13.0686721801758,13.0686883926392,13.0687036514282,13.0687170028687,13.0687294006348,13.0687484741211,13.0687580108643,13.0687732696533,13.0687828063965,13.0687990188599,13.0688142776489,13.0688276290894,13.0688400268555,13.0688562393188,13.0688714981079,13.068883895874,13.0688972473145,11.9281358718872,11.9156522750854,11.9031953811646,11.8907642364502,11.8783588409424,11.8659801483154,11.8536262512207,11.8412981033325,11.8289957046509,11.8167190551758,11.8044681549072,11.7922420501709,11.7800416946411,11.7678661346436,11.7557163238525,11.7435903549194,11.7314901351929,11.7194156646729,11.7073650360107,11.6953392028809,11.6833381652832,11.6713619232178,11.6594095230103,11.6474828720093,11.6355791091919,11.6237010955811,11.5305700302124,11.3833379745483,11.239818572998,11.0998725891113,10.9633684158325,10.8301811218262,10.7001914978027,10.5732851028442,10.4493532180786,10.3282928466797,10.2100067138672,10.0943975448608,9.98137855529785,9.88863945007324,9.83240032196045,9.7767972946167,9.7218189239502,9.66745567321777,9.61369705200195,9.56053352355957,9.50795364379883,9.4559497833252,9.40451145172119,9.35363006591797,9.30329608917236,9.25350093841553,9.21884346008301,9.20449256896973,9.19018745422363,9.17592620849609,9.16170883178711,9.147536277771,9.13340663909912,9.1193208694458,9.10527896881104,9.09127998352051,9.0773229598999,9.06340980529785,9.04953956604004,9.03571128845215,9.02192497253418,9.00818061828613,8.99447822570801,8.9808177947998,8.96719837188721,8.95361995697021,8.94008255004883,8.92658710479736,8.91313171386719,8.8997163772583,8.88624382019043,8.87265110015869,8.85910034179688,8.84559059143066,8.83212184906006,8.81869316101074,8.80530643463135,8.79195976257324,8.77865409851074,8.76538753509521,8.75216197967529,8.73897552490234,8.72582912445068,8.71272277832031,8.6996545791626,8.68662643432617,8.67363739013672,8.66068649291992,8.6477746963501,8.63490104675293,8.62206554412842,8.60926818847656,8.59650897979736,8.5837869644165,8.5711030960083,8.55845737457275,8.54584789276123,8.52970409393311,8.51266574859619,8.49569511413574,8.47879219055176,8.46195602416992,8.44518661499023,8.4284839630127,8.41184711456299,8.3952751159668,8.37876892089844,8.36232757568359,8.34595012664795,8.32963752746582,8.31338787078857,8.29720211029053,8.28107833862305,8.26501846313477,8.24901962280273,8.23308277130127,8.21720790863037,8.20139408111572,8.18564033508301,8.16994762420654,8.1543140411377,8.1387414932251,8.1232271194458,8.10777282714844,8.09237670898438,8.07703876495361,8.06175899505615,8.04653739929199,8.0313720703125,8.01626491546631,8.00121402740479,7.98621940612793,7.97128105163574,7.95639848709106,7.9415717124939,7.92679977416992,7.91208267211914,7.89741992950439,7.88281154632568,7.86825704574585,7.85375547409058,7.83930683135986,7.82491159439087,7.81056928634644,7.79627895355225,7.78204107284546,7.76785516738892,7.75372076034546,7.73963785171509,7.72560596466064,7.71162462234497,7.69769382476807,7.68381357192993,7.66998338699341,7.65620231628418,7.64247131347656,7.62878894805908,7.6151556968689,7.60157108306885,7.58803510665894,7.57454681396484,7.56110668182373,7.54771375656128,7.53436899185181,7.52107095718384,7.50781917572021,7.49461460113525,7.48145627975464,7.46834421157837,7.45527791976929,7.44225740432739,7.42928218841553,7.41635179519653,7.40346670150757,7.31982278823853,7.29922962188721,7.27875232696533,7.25838899612427,7.23813962936401,7.2180027961731,7.19797611236572,7.17806005477905,7.15664863586426,7.13459539413452,7.11267805099487,7.09089469909668,7.06924390792847,7.04772567749023,7.02633762359619,7.00507879257202,6.98394870758057,6.96294546127319,6.94206809997559,6.92131567001343,6.9006872177124,6.88018083572388,6.85979604721069,6.83953189849854
12.9794273376465,12.9794397354126,12.9794521331787,12.9794673919678,12.9794769287109,12.9794960021973,12.9795045852661,12.9795236587524,12.9795360565186,12.9795513153076,12.9795637130737,12.9795761108398,12.9795913696289,12.979603767395,12.9796199798584,12.9796323776245,12.9796476364136,12.9796600341797,12.9796695709229,12.9796848297119,12.979697227478,12.9797124862671,12.9797248840332,12.9797410964966,12.9797534942627,12.9797687530518,12.9797811508179,12.979793548584,12.9798097610474,12.9798221588135,12.9798374176025,12.9798498153687,12.979866027832,12.9798755645752,12.9798908233643,12.9799032211304,12.9799194335938,12.9799318313599,12.9799470901489,12.979959487915,12.9799757003784,12.9799880981445,12.9800033569336,12.980016708374,12.9800319671631,12.9800415039062,12.9800605773926,12.9800701141357,12.9800825119019,12.9800987243652,12.9801111221313,12.9801235198975,12.9801397323608,12.980152130127,12.980167388916,12.9801807403564,12.9801959991455,12.9802083969116,12.9802217483521,12.9802341461182,12.9802503585815,12.9802627563477,12.9802751541138,12.9802875518799,12.9803037643433,12.9803161621094,12.9803323745728,12.9803447723389,12.980354309082,12.9803733825684,12.9803829193115,12.9803991317749,12.980411529541,12.9804277420044,12.9804401397705,12.9804563522339,12.9804658889771,12.9804792404175,12.9804944992065,12.980507850647,12.9805202484131,12.9805364608765,12.9805488586426,12.980565071106,12.9805774688721,12.9805908203125,12.9806060791016,12.980619430542,12.9806318283081,12.9806480407715,12.9806575775146,12.980673789978,12.9806871414185,12.9807024002075,12.980712890625,12.9807281494141,12.9807415008545,12.9807577133179,12.980770111084,12.9807863235474,12.9807958602905,12.9808120727539,12.9808254241943,12.9808406829834,12.9808540344238,12.980863571167,12.9808797836304,12.9808931350708,12.9809055328369,12.9809217453003,12.9809350967407,12.9809474945068,12.9809637069702,12.9809770584106,12.9809894561768,12.9810056686401,12.9810190200806,12.9810285568237,12.9810485839844,12.9810552597046,12.981071472168,12.9810838699341,12.9810972213745,12.9811134338379,12.9811267852783,12.9811391830444,12.9811553955078,12.9811687469482,12.9811820983887,12.9811944961548,12.9812107086182,12.9812240600586,12.981237411499,12.9812498092651,12.9812631607056,12.981276512146,12.9812927246094,12.9813022613525,12.9813184738159,12.9813318252563,12.9813480377197,11.93186378479,11.9193725585938,11.9069080352783,11.8944692611694,11.8820562362671,11.8696689605713,11.857307434082,11.8449726104736,11.8326625823975,11.8203783035278,11.8081188201904,11.7958860397339,11.7836780548096,11.7714948654175,11.7593374252319,11.7472047805786,11.7350969314575,11.7230138778687,11.7109565734863,11.6989231109619,11.6869144439697,11.6749315261841,11.6629724502563,11.6510372161865,11.6391267776489,11.6272411346436,11.6153793334961,11.5773897171021,11.4289674758911,11.2843017578125,11.143253326416,11.0056867599487,10.8714752197266,10.7404985427856,10.6126394271851,10.4877891540527,10.3658418655396,10.2466983795166,10.1302623748779,10.0164432525635,9.92903327941895,9.87233448028564,9.81628036499023,9.7608585357666,9.70605945587158,9.65187168121338,9.59828567504883,9.54529190063477,9.49287891387939,9.4410400390625,9.38976287841797,9.33904075622559,9.28886222839355,9.23922157287598,9.2125072479248,9.19817733764648,9.18389129638672,9.16964912414551,9.15545177459717,9.14129829406738,9.12718772888184,9.11312103271484,9.09909820556641,9.08511829376221,9.07118129730225,9.05728626251221,9.04343414306641,9.02962493896484,9.01585674285889,9.00213146209717,8.98844718933105,8.97480487823486,8.96120357513428,8.9476432800293,8.93412494659424,8.92064666748047,8.90720844268799,8.89381217956543,8.88045501708984,8.86713790893555,8.85361576080322,8.84012222290039,8.82667064666748,8.81325912475586,8.79988861083984,8.78655815124512,8.773268699646,8.76001834869385,8.7468090057373,8.73363876342773,8.72050857543945,8.70741748809814,8.69436645507812,8.68135356903076,8.66837978363037,8.65544509887695,8.64254856109619,8.62969017028809,8.61687088012695,8.60408878326416,8.59134483337402,8.57863903045654,8.56596946716309,8.55333805084229,8.54074382781982,8.5281867980957,8.51566696166992,8.50318336486816,8.48830986022949,8.471435546875,8.45462894439697,8.43788909912109,8.42121505737305,8.40460681915283,8.38806343078613,8.37158584594727,8.3551721572876,8.33882331848145,8.32253837585449,8.30631637573242,8.29015731811523,8.27406215667725,8.25802803039551,8.24205684661865,8.22614669799805,8.21029853820801,8.19451141357422,8.17878437042236,8.16311740875244,8.14751052856445,8.1319637298584,8.11647510528564,8.10104656219482,8.08567523956299,8.07036304473877,8.05510902404785,8.03991222381592,8.02477264404297,8.00968933105469,7.99466323852539,7.97969341278076,7.96477937698364,7.94992113113403,7.93511772155762,7.92037010192871,7.90567684173584,7.891037940979,7.8764533996582,7.86192226409912,7.8474440574646,7.83301877975464,7.81864643096924,7.8043270111084,7.7900595664978,7.77584457397461,7.7616810798645,7.74756908416748,7.73350858688354,7.71949863433838,7.70553970336914,7.69163131713867,7.67777252197266,7.66396379470825,7.6502046585083,7.63649463653564,7.62283372879028,7.60922193527222,7.59565877914429,7.58214330673218,7.56867647171021,7.55525684356689,7.5418848991394,7.52856016159058,7.51528263092041,7.50205183029175,7.48886728286743,7.47572898864746,7.46263694763184,7.4495906829834,7.43658971786499,7.42363452911377,7.41072368621826,7.39785814285278,7.38503742218018,7.30114507675171,7.2806568145752,7.26028299331665,7.24002313613892,7.21987581253052,7.19984006881714,7.17991399765015,7.1600980758667,7.13815069198608,7.1162109375,7.09440612792969,7.07273387908936,7.051194190979,7.02978515625,7.00850582122803,6.98735523223877,6.96633148193359,6.94543361663818,6.92466115951538,6.90401268005371,6.8834867477417,6.86308240890503,6.84279918670654,6.82263469696045
12.893120765686,12.8931341171265,12.8931503295898,12.893159866333,12.8931732177734,12.8931865692139,12.8932027816772,12.8932123184204,12.8932285308838,12.8932418823242,12.8932580947876,12.8932676315308,12.8932838439941,12.8932971954346,12.893310546875,12.8933238983154,12.8933401107788,12.893349647522,12.8933629989624,12.8933763504028,12.8933897018433,12.8934059143066,12.8934154510498,12.8934288024902,12.8934450149536,12.893458366394,12.8934717178345,12.8934850692749,12.893497467041,12.8935146331787,12.8935241699219,12.8935403823853,12.8935508728027,12.8935670852661,12.8935775756836,12.893593788147,12.8936071395874,12.8936204910278,12.8936328887939,12.8936500549316,12.8936595916748,12.8936758041382,12.8936862945557,12.893702507019,12.8937158584595,12.8937292098999,12.8937397003174,12.8937559127808,12.8937692642212,12.8937826156616,12.8937959671021,12.8938121795654,12.8938226699829,12.8938360214233,12.8938522338867,12.8938655853271,12.8938789367676,12.893892288208,12.8939056396484,12.8939189910889,12.8939323425293,12.8939456939697,12.8939599990845,12.8939733505249,12.8939867019653,12.8940000534058,12.8940134048462,12.8940267562866,12.8940401077271,12.8940563201904,12.8940668106079,12.8940801620483,12.8940935134888,12.8941068649292,12.8941240310669,12.8941345214844,12.8941478729248,12.8941612243652,12.8941745758057,12.8941879272461,12.8942012786865,12.894214630127,12.8942289352417,12.8942422866821,12.8942584991455,12.894268989563,12.8942861557007,12.8942966461182,12.8943128585815,12.894323348999,12.8943367004395,12.8943500518799,12.8943672180176,12.8943777084351,12.8943910598755,12.8944044113159,12.8944215774536,12.8944320678711,12.8944454193115,12.8944625854492,12.8944759368896,12.8944864273071,12.8945026397705,12.8945169448853,12.8945274353027,12.8945407867432,12.8945541381836,12.8945684432983,12.8945817947388,12.8945951461792,12.8946094512939,12.8946228027344,12.8946361541748,12.8946504592896,12.8946666717529,12.8946771621704,12.8946914672852,12.8947048187256,12.8947153091431,12.8947296142578,12.8947429656982,12.8947563171387,12.8947706222534,12.8947839736938,12.8947982788086,12.894811630249,12.8948259353638,12.8948392868042,12.8948497772217,12.8948669433594,12.8948802947998,12.8948945999146,12.894907951355,12.8949222564697,12.8949327468872,12.8949460983276,12.8949575424194,12.8949737548828,11.923095703125,11.9106225967407,11.8981761932373,11.8857555389404,11.8733606338501,11.8609914779663,11.8486490249634,11.8363313674927,11.8240394592285,11.8117733001709,11.7995319366455,11.7873163223267,11.77512550354,11.76296043396,11.7508201599121,11.7387056350708,11.7266149520874,11.7145500183105,11.7025098800659,11.6904935836792,11.678503036499,11.6665363311768,11.6545944213867,11.6426763534546,11.6307830810547,11.618914604187,11.6070699691772,11.5952491760254,11.4749631881714,11.3291387557983,11.1869735717773,11.0483331680298,10.9130859375,10.7811107635498,10.6522884368896,10.5265092849731,10.4036655426025,10.283655166626,10.1663827896118,10.0517549514771,9.96975803375244,9.91259479522705,9.85608386993408,9.80021286010742,9.74497222900391,9.69035053253174,9.63633728027344,9.58292293548584,9.53009796142578,9.47785186767578,9.42617607116699,9.37506008148193,9.32449626922607,9.27447414398193,9.22498607635498,9.20618057250977,9.19186973571777,9.17760372161865,9.16338157653809,9.14920330047607,9.13506889343262,9.1209774017334,9.10693073272705,9.09292602539062,9.07896518707275,9.0650463104248,9.05117034912109,9.03733730316162,9.02354621887207,9.00979709625244,8.99608993530273,8.98242378234863,8.96879959106445,8.9552173614502,8.94167518615723,8.92817401885986,8.91471385955811,8.90129470825195,8.88791465759277,8.8745756149292,8.86127662658691,8.8480167388916,8.83466148376465,8.82122611999512,8.80783176422119,8.79447746276855,8.78116321563721,8.76788997650146,8.75465679168701,8.74146270751953,8.72830867767334,8.71519470214844,8.70211982727051,8.68908405303955,8.67608737945557,8.66312885284424,8.65020942687988,8.6373291015625,8.62448596954346,8.61168193817139,8.59891605377197,8.5861873626709,8.57349586486816,8.56084251403809,8.54822635650635,8.53564739227295,8.52310466766357,8.51059913635254,8.49813079833984,8.48569869995117,8.47330284118652,8.4609432220459,8.44731521606445,8.43060398101807,8.41395854949951,8.39737892150879,8.38086414337158,8.36441516876221,8.34802913665771,8.33170795440674,8.31545066833496,8.29925632476807,8.28312587738037,8.26705741882324,8.25105094909668,8.23510646820068,8.21922302246094,8.20340156555176,8.18764019012451,8.17193984985352,8.15629863739014,8.14071846008301,8.12519645690918,8.10973453521729,8.09433078765869,8.07898616790771,8.06369876861572,8.04846954345703,8.03329753875732,8.0181827545166,8.00312423706055,7.98812294006348,7.97317743301392,7.95828819274902,7.94345378875732,7.92867517471313,7.91395092010498,7.89928150177002,7.88466644287109,7.87010526657104,7.85559749603271,7.8411431312561,7.82674121856689,7.81239175796509,7.79809522628784,7.78385019302368,7.76965808868408,7.75551700592041,7.74142742156982,7.72738885879517,7.71340131759644,7.69946432113647,7.68557786941528,7.67174100875854,7.65795373916626,7.64421606063843,7.63052797317505,7.61688852310181,7.6032977104187,7.58975505828857,7.57626104354858,7.56281471252441,7.54941606521606,7.53606510162354,7.52276039123535,7.50950336456299,7.49629306793213,7.48312854766846,7.47001075744629,7.45693826675415,7.44391202926636,7.43093109130859,7.4179949760437,7.40510416030884,7.39225816726685,7.37945652008057,7.36669921875,7.28256225585938,7.26217794418335,7.24190759658813,7.22174978256226,7.20170402526855,7.18176889419556,7.16194248199463,7.1417088508606,7.11974763870239,7.0979208946228,7.07622766494751,7.05466651916504,7.03323698043823,7.01193618774414,6.99076461791992,6.96972036361694,6.94880247116089,6.92800998687744,6.90734148025513,6.88679599761963,6.86637210845947,6.8460693359375,6.82588577270508,6.80582094192505
12.8079538345337,12.8079681396484,12.8079786300659,12.8079929351807,12.8080043792725,12.8080205917358,12.8080348968506,12.8080492019653,12.8080596923828,12.8080739974976,12.8080883026123,12.8081026077271,12.8081130981445,12.8081274032593,12.808141708374,12.8081588745117,12.8081665039062,12.808180809021,12.8081941604614,12.8082084655762,12.808219909668,12.8082370758057,12.8082475662231,12.8082618713379,12.8082733154297,12.8082904815674,12.8083009719849,12.8083124160767,12.8083295822144,12.8083400726318,12.8083581924438,12.8083658218384,12.8083801269531,12.8083944320679,12.8084087371826,12.8084192276001,12.8084335327148,12.8084478378296,12.8084621429443,12.8084726333618,12.8084869384766,12.8085012435913,12.8085155487061,12.8085298538208,12.8085441589355,12.8085517883301,12.8085699081421,12.8085803985596,12.8085947036743,12.8086061477661,12.8086204528809,12.8086347579956,12.8086490631104,12.8086605072021,12.8086776733398,12.8086891174316,12.8087034225464,12.8087177276611,12.8087320327759,12.8087425231934,12.8087539672852,12.8087682723999,12.8087825775146,12.8087940216064,12.8088083267212,12.808819770813,12.8088369369507,12.8088483810425,12.8088655471802,12.808876991272,12.8088912963867,12.8089027404785,12.8089170455933,12.808931350708,12.8089427947998,12.8089542388916,12.8089656829834,12.8089799880981,12.8089942932129,12.8090085983276,12.8090229034424,12.8090372085571,12.8090486526489,12.8090629577637,12.8090744018555,12.8090887069702,12.8091039657593,12.809118270874,12.8091297149658,12.8091411590576,12.8091554641724,12.8091697692871,12.8091812133789,12.8091955184937,12.8092098236084,12.8092250823975,12.8092365264893,12.809250831604,12.8092622756958,12.8092765808105,12.8092880249023,12.8093023300171,12.8093175888062,12.8093290328979,12.8093404769897,12.8093576431274,12.8093690872192,12.809383392334,12.8093948364258,12.8094100952148,12.8094244003296,12.8094387054443,12.8094511032104,12.8094654083252,12.809476852417,12.809494972229,12.8095064163208,12.8095140457153,12.8095293045044,12.8095436096191,12.8095550537109,12.8095703125,12.8095846176147,12.8095989227295,12.8096113204956,12.8096227645874,12.8096370697021,12.8096485137939,12.809666633606,12.8096780776978,12.8096933364868,12.8097047805786,12.8097162246704,12.8097276687622,11.9268207550049,11.9143400192261,11.9018859863281,11.8894577026367,11.8770551681519,11.8646783828735,11.8523273468018,11.8400020599365,11.8277025222778,11.8154287338257,11.8031797409058,11.7909564971924,11.7787590026855,11.7665863037109,11.7544384002686,11.7423162460327,11.7302188873291,11.7181463241577,11.7060976028442,11.6940746307373,11.6820764541626,11.6701030731201,11.6581535339355,11.6462287902832,11.6343278884888,11.6224517822266,11.6105995178223,11.5987720489502,11.586968421936,11.5213317871094,11.3743333816528,11.2310390472412,11.0913105010986,10.9550161361694,10.8220300674438,10.692234992981,10.5655155181885,10.4417657852173,10.3208799362183,10.2027616500854,10.0873165130615,10.0108184814453,9.95318508148193,9.89621067047119,9.83988571166992,9.78419780731201,9.72913646697998,9.67469215393066,9.62085342407227,9.5676097869873,9.51495361328125,9.46287250518799,9.4113597869873,9.3604040145874,9.30999660491943,9.26012992858887,9.21419811248779,9.19986248016357,9.18557167053223,9.17132472991943,9.1571216583252,9.14296245574951,9.1288480758667,9.11477565765381,9.10074806213379,9.08676242828369,9.07281970977783,9.05892086029053,9.04506397247314,9.03124904632568,9.01747608184814,9.00374603271484,8.99005699157715,8.97640895843506,8.96280288696289,8.94923877716064,8.93571472167969,8.92223167419434,8.90878963470459,8.89538764953613,8.88202571868896,8.8687047958374,8.85542297363281,8.8421802520752,8.82897853851318,8.81578826904297,8.80241012573242,8.78907203674316,8.77577495574951,8.76251792907715,8.74930095672607,8.73612308502197,8.72298526763916,8.70988750457764,8.69682788848877,8.68380832672119,8.67082691192627,8.65788459777832,8.64498138427734,8.63211536407471,8.61928844451904,8.60649967193604,8.59374904632568,8.58103561401367,8.568359375,8.55572128295898,8.54311943054199,8.53055572509766,8.51802825927734,8.50553798675537,8.49308395385742,8.4806661605835,8.46828556060791,8.45594024658203,8.44363117218018,8.43135738372803,8.4191198348999,8.40671443939209,8.39016342163086,8.37367725372314,8.35725593566895,8.34089851379395,8.32460498809814,8.30837535858154,8.29220867156982,8.27610492706299,8.26006412506104,8.24408435821533,8.2281665802002,8.21231079101562,8.19651508331299,8.1807804107666,8.16510581970215,8.14949131011963,8.13393688201904,8.11844158172607,8.10300445556641,8.08762645721436,8.07230758666992,8.05704498291016,8.04184150695801,8.02669429779053,8.01160430908203,7.99657106399536,7.9815936088562,7.96667289733887,7.95180702209473,7.93699741363525,7.92224216461182,7.90754222869873,7.89289665222168,7.87830495834351,7.86376714706421,7.84928274154663,7.83485221862793,7.82047319412231,7.8061466217041,7.79187297821045,7.77765083312988,7.76348114013672,7.74936246871948,7.73529529571533,7.72127914428711,7.70731353759766,7.69339847564697,7.6795334815979,7.66571855545044,7.65195322036743,7.63823699951172,7.6245698928833,7.61095190048218,7.59738206863403,7.58386087417603,7.570387840271,7.55696201324463,7.54358434677124,7.53025341033936,7.51696968078613,7.50373315811157,7.49054288864136,7.47739887237549,7.46430063247681,7.45124864578247,7.43824195861816,7.42528057098389,7.41236448287964,7.39949321746826,7.38666677474976,7.3738842010498,7.36114645004272,7.34845161437988,7.26407384872437,7.24379301071167,7.22362470626831,7.20356845855713,7.18362379074097,7.16378784179688,7.1440601348877,7.12328767776489,7.10143947601318,7.07972478866577,7.05814218521118,7.03669118881226,7.01537036895752,6.99417734146118,6.97311305999756,6.9521746635437,6.93136215209961,6.91067314147949,6.89010810852051,6.86966466903687,6.84934186935425,6.82913970947266,6.8090558052063,6.78909015655518
12.7239074707031,12.7239170074463,12.7239322662354,12.7239437103271,12.7239589691162,12.7239713668823,12.7239866256714,12.7239980697632,12.7240104675293,12.7240228652954,12.7240381240845,12.7240495681763,12.7240648269653,12.7240772247314,12.7240924835205,12.7241020202637,12.7241134643555,12.7241258621216,12.7241411209106,12.7241535186768,12.7241687774658,12.7241811752319,12.724196434021,12.7242078781128,12.7242231369019,12.724235534668,12.724250793457,12.7242631912231,12.7242755889893,12.7242879867554,12.7243003845215,12.7243118286133,12.7243242263794,12.7243394851685,12.7243518829346,12.7243671417236,12.7243795394897,12.7243919372559,12.724404335022,12.724419593811,12.7244319915771,12.7244472503662,12.7244596481323,12.7244749069214,12.7244844436646,12.7244968414307,12.7245082855225,12.7245244979858,12.724536895752,12.724552154541,12.7245645523071,12.7245798110962,12.7245922088623,12.7246046066284,12.7246170043945,12.7246322631836,12.7246446609497,12.7246570587158,12.7246694564819,12.724681854248,12.7246942520142,12.7247095108032,12.7247219085693,12.7247371673584,12.7247495651245,12.7247619628906,12.7247743606567,12.7247905731201,12.7248029708862,12.7248153686523,12.7248277664185,12.7248430252075,12.7248554229736,12.7248678207397,12.7248773574829,12.724892616272,12.7249050140381,12.7249212265015,12.7249336242676,12.7249460220337,12.7249612808228,12.7249736785889,12.7249870300293,12.7249994277954,12.7250146865845,12.7250270843506,12.7250394821167,12.7250528335571,12.7250652313232,12.7250776290894,12.7250928878784,12.7251052856445,12.725118637085,12.7251310348511,12.7251462936401,12.7251558303833,12.7251720428467,12.7251844406128,12.7251968383789,12.725209236145,12.7252254486084,12.7252378463745,12.7252502441406,12.7252597808838,12.7252759933472,12.7252883911133,12.7253036499023,12.7253131866455,12.7253293991089,12.725341796875,12.7253580093384,12.7253704071045,12.7253828048706,12.725396156311,12.7254114151001,12.7254209518433,12.7254371643066,12.7254467010498,12.7254619598389,12.7254753112793,12.7254877090454,12.7255001068115,12.7255163192749,12.725528717041,12.7255420684814,12.7255544662476,12.7255668640137,12.7255802154541,12.7255926132202,12.7256088256836,12.7256183624268,11.9180593490601,11.9055976867676,11.8931617736816,11.8807516098022,11.8683671951294,11.8560085296631,11.8436756134033,11.8313684463501,11.8190870285034,11.806830406189,11.7945995330811,11.7823944091797,11.7702140808105,11.7580585479736,11.7459287643433,11.7338237762451,11.7217435836792,11.7096891403198,11.6976585388184,11.6856527328491,11.6736717224121,11.661714553833,11.6497821807861,11.6378746032715,11.6259918212891,11.6141319274902,11.6022977828979,11.5904865264893,11.5786991119385,11.5669364929199,11.4198904037476,11.2754535675049,11.1346244812012,10.9972696304321,10.8632621765137,10.7324819564819,10.6048126220703,10.4801454544067,10.3583745956421,10.2394018173218,10.1231307983398,10.0522184371948,9.99410820007324,9.93666648864746,9.87988090515137,9.82374095916748,9.768235206604,9.71335315704346,9.65908432006836,9.60541820526123,9.55234622955322,9.49985599517822,9.44794082641602,9.3965892791748,9.34579277038574,9.29554271697998,9.24583053588867,9.20786952972412,9.19355297088623,9.17928123474121,9.16505432128906,9.15087032318115,9.13673114776611,9.12263488769531,9.10858249664307,9.09457302093506,9.08060741424561,9.06668376922607,9.05280303955078,9.03896427154541,9.02516841888428,9.01141452789307,8.99770164489746,8.98403167724609,8.97040271759033,8.95681476593018,8.94326782226562,8.92976188659668,8.91629695892334,8.90287303924561,8.88948822021484,8.87614440917969,8.86284065246582,8.84957695007324,8.83635234832764,8.823166847229,8.81002140045166,8.79691505432129,8.7836742401123,8.77039337158203,8.75715255737305,8.74395179748535,8.73079013824463,8.7176685333252,8.70458602905273,8.69154262542725,8.67853832244873,8.66557312011719,8.65264701843262,8.63975811004639,8.62690925598145,8.61409759521484,8.6013240814209,8.58858776092529,8.57588958740234,8.56322956085205,8.55060577392578,8.53802013397217,8.52547073364258,8.51295852661133,8.5004825592041,8.48804378509521,8.47564029693604,8.4632740020752,8.45094394683838,8.43864917755127,8.42638969421387,8.41416645050049,8.40197849273682,8.38982582092285,8.37770843505859,8.36562538146973,8.3501091003418,8.33378028869629,8.31751441955566,8.30131244659424,8.2851734161377,8.26909637451172,8.25308227539062,8.2371301651001,8.22123908996582,8.20541000366211,8.18964099884033,8.1739330291748,8.15828418731689,8.14269638061523,8.12716770172119,8.11169719696045,8.09628677368164,8.08093357086182,8.06563949584961,8.05040264129639,8.03522396087646,8.02010154724121,8.00503635406494,7.99002742767334,7.97507524490356,7.96017837524414,7.94533729553223,7.93055105209351,7.91582012176514,7.90114402770996,7.88652181625366,7.8719539642334,7.85743951797485,7.84297847747803,7.82857084274292,7.81421518325806,7.7999119758606,7.78566074371338,7.77146148681641,7.75731420516968,7.74321794509888,7.72917318344116,7.71517896652222,7.70123529434204,7.68734264373779,7.67349910736084,7.65970611572266,7.64596223831177,7.63226747512817,7.61862182617188,7.60502481460571,7.59147644042969,7.57797574996948,7.56452369689941,7.55111885070801,7.53776168823242,7.52445125579834,7.51118803024292,7.49797201156616,7.48480176925659,7.47167778015137,7.45859956741333,7.44556760787964,7.43258094787598,7.41963911056519,7.40674257278442,7.39389085769653,7.38108348846436,7.36832046508789,7.35560178756714,7.34292602539062,7.33029508590698,7.24567937850952,7.22550058364868,7.20543384552002,7.18547868728638,7.16563367843628,7.14589643478394,7.1262674331665,7.10496139526367,7.08322525024414,7.06162166595459,7.04014921188354,7.01880741119385,6.99759387969971,6.97650861740112,6.95555019378662,6.93471717834473,6.91400861740112,6.89342355728149,6.87296009063721,6.85261869430542,6.83239650726318,6.8122935295105,6.79230880737305,6.77244091033936
12.6409492492676,12.6409664154053,12.6409769058228,12.6409931182861,12.6410036087036,12.641016960144,12.6410303115845,12.6410436630249,12.6410570144653,12.6410713195801,12.6410846710205,12.6410980224609,12.6411085128784,12.6411247253418,12.6411352157593,12.641149520874,12.6411590576172,12.6411762237549,12.6411867141724,12.6412000656128,12.6412134170532,12.641227722168,12.6412382125854,12.6412544250488,12.6412649154663,12.6412782669067,12.6412925720215,12.6413059234619,12.6413192749023,12.6413297653198,12.6413431167603,12.641357421875,12.6413679122925,12.6413812637329,12.6413946151733,12.6414051055908,12.6414222717285,12.641432762146,12.6414499282837,12.6414604187012,12.6414737701416,12.641487121582,12.6415014266968,12.6415090560913,12.6415252685547,12.6415357589722,12.6415500640869,12.6415634155273,12.6415777206421,12.6415882110596,12.6416044235229,12.6416149139404,12.6416320800781,12.6416425704956,12.6416568756104,12.6416702270508,12.6416845321655,12.641695022583,12.6417083740234,12.6417188644409,12.6417331695557,12.6417465209961,12.6417608261108,12.6417713165283,12.6417856216431,12.6417989730835,12.6418132781982,12.6418237686157,12.6418409347534,12.6418514251709,12.6418647766113,12.6418762207031,12.6418895721436,12.6419038772583,12.6419143676758,12.6419277191162,12.641942024231,12.6419563293457,12.6419696807861,12.6419801712036,12.6419944763184,12.6420049667358,12.6420192718506,12.642032623291,12.6420469284058,12.6420612335205,12.642071723938,12.6420860290527,12.6420965194702,12.642110824585,12.6421241760254,12.6421384811401,12.6421489715576,12.6421632766724,12.6421766281128,12.6421880722046,12.6422023773193,12.6422157287598,12.6422300338745,12.642240524292,12.6422548294067,12.6422653198242,12.642276763916,12.6422939300537,12.6423044204712,12.6423187255859,12.6423292160034,12.6423463821411,12.6423578262329,12.6423721313477,12.6423826217651,12.6423997879028,12.6424112319946,12.6424245834351,12.6424360275269,12.6424531936646,12.6424608230591,12.6424751281738,12.6424856185913,12.6425037384033,12.6425142288208,12.6425285339355,12.642539024353,12.642557144165,12.6425647735596,12.6425819396973,12.6425924301147,11.921781539917,11.9093112945557,11.8968677520752,11.8844499588013,11.8720579147339,11.859691619873,11.8473510742188,11.835036277771,11.8227472305298,11.8104829788208,11.7982444763184,11.7860317230225,11.7738437652588,11.7616815567017,11.7495441436768,11.7374315261841,11.7253446578979,11.7132816314697,11.7012434005737,11.6892309188843,11.6772422790527,11.6652784347534,11.653338432312,11.6414241790771,11.6295328140259,11.6176671981812,11.60582447052,11.5940065383911,11.5822124481201,11.570442199707,11.5586957931519,11.4658136367798,11.3202199935913,11.178277015686,11.0398502349854,10.9048099517822,10.7730331420898,10.6444034576416,10.5188093185425,10.3961429595947,10.2763061523438,10.1591997146606,10.0939626693726,10.0353698730469,9.97745418548584,9.92020320892334,9.86360454559326,9.80764865875244,9.75232410430908,9.6976203918457,9.64352703094482,9.59003353118896,9.53713035583496,9.48480701446533,9.43305492401123,9.38186550140381,9.33122730255127,9.2811336517334,9.23157501220703,9.20154857635498,9.18725204467773,9.17300033569336,9.15879249572754,9.14462852478027,9.13050746917725,9.11643123626709,9.10239791870117,9.08840751647949,9.07446002960205,9.06055545806885,9.04669380187988,9.03287410736084,9.01909637451172,9.00536060333252,8.99166679382324,8.97801494598389,8.96440410614014,8.95083427429199,8.93730545043945,8.92381763458252,8.91037082672119,8.89696407318115,8.8835973739624,8.87027168273926,8.85698509216309,8.8437385559082,8.83053112030029,8.81736373901367,8.80423545837402,8.79114532470703,8.77809524536133,8.76501846313477,8.75179386138916,8.73860836029053,8.7254638671875,8.71235752105713,8.69929122924805,8.68626403808594,8.6732759475708,8.66032600402832,8.64741516113281,8.63454246520996,8.62170791625977,8.60891151428223,8.59615421295166,8.58343315124512,8.57075023651123,8.55810451507568,8.54549694061279,8.53292560577393,8.5203914642334,8.50789356231689,8.49543285369873,8.48300838470459,8.47062110900879,8.4582691192627,8.44595241546631,8.43367290496826,8.42142772674561,8.40921878814697,8.39704513549805,8.38490676879883,8.37280368804932,8.3607349395752,8.34870147705078,8.33670234680176,8.32473754882812,8.3104362487793,8.29426097869873,8.27814960479736,8.26210021972656,8.24611282348633,8.23018741607666,8.21432304382324,8.19852066040039,8.18277835845947,8.16709613800049,8.15147399902344,8.13591194152832,8.12040901184082,8.10496425628662,8.08957958221436,8.07425212860107,8.05898284912109,8.04377174377441,8.0286169052124,8.01352024078369,7.99847936630249,7.98349523544312,7.96856689453125,7.95369434356689,7.93887758255005,7.9241156578064,7.90940856933594,7.89475584030151,7.88015747070312,7.86561298370361,7.85112190246582,7.83668422698975,7.82229948043823,7.80796766281128,7.79368686676025,7.77945852279663,7.76528167724609,7.7511568069458,7.73708295822144,7.72306060791016,7.70908832550049,7.69516706466675,7.68129587173462,7.66747426986694,7.65370273590088,7.63998031616211,7.62630701065063,7.61268281936646,7.59910678863525,7.58557939529419,7.5721001625061,7.55866861343384,7.54528427124023,7.53194761276245,7.51865816116333,7.50541543960571,7.49221897125244,7.47906923294067,7.46596527099609,7.45290756225586,7.43989515304565,7.42692804336548,7.41400623321533,7.4011287689209,7.38829708099365,7.3755087852478,7.36276483535767,7.35006523132324,7.33740901947021,7.32479667663574,7.31222724914551,7.22737741470337,7.20730018615723,7.1873345375061,7.16747951507568,7.14773321151733,7.12809467315674,7.10848665237427,7.08672904968262,7.06510400772095,7.04361057281494,7.02224779129028,7.00101375579834,6.97990798950195,6.95892906188965,6.93807601928711,6.91734743118286,6.89674186706543,6.87625932693481,6.85589790344238,6.83565664291382,6.8155345916748,6.79553079605103,6.77564382553101,6.75587320327759
