11.8803339004517,11.8803215026855,11.8803119659424,11.8803062438965,11.8802967071533,11.8802852630615,11.8802757263184,11.8802661895752,11.8802604675293,11.8802518844604,11.8802394866943,11.8802299499512,11.8802213668823,11.8802118301392,11.880202293396,11.8801965713501,11.880184173584,11.8801755905151,11.880166053772,11.8801603317261,11.8801507949829,11.8801383972168,11.8801298141479,11.8801202774048,11.8801107406616,11.8801021575928,11.8800897598267,11.8800868988037,11.8800745010376,11.8800649642944,11.8800563812256,11.8800468444824,11.8800373077393,11.8800287246704,11.8800191879272,11.8800096511841,11.8800010681152,11.8799886703491,11.8799819946289,11.879976272583,11.8799667358398,11.8799543380737,11.8799457550049,11.8799362182617,11.8799266815186,11.8799171447754,11.8799047470093,11.8799018859863,11.8798923492432,11.8798809051514,11.8798742294312,11.879861831665,11.8798522949219,11.879843711853,11.8798370361328,11.8798274993896,11.8798151016235,11.8798093795776,11.8797998428345,11.8797903060913,11.8797817230225,11.879768371582,11.8797626495361,11.879753112793,11.8797435760498,11.879734992981,11.8797254562378,11.8797159194946,11.8797063827515,11.8796968460083,11.8796911239624,11.8796787261963,11.8796691894531,11.87965965271,11.8796539306641,11.8796443939209,11.8796319961548,11.8796224594116,11.8796157836914,11.8796062469482,11.8795976638794,11.879584312439,11.8795785903931,11.8795690536499,11.8795595169067,11.8795499801636,11.8795404434204,11.8795309066772,11.8795223236084,11.8795127868652,11.879506111145,11.8794937133789,11.8794841766357,11.8794746398926,11.8794679641724,11.8794593811035,11.8794498443604,11.8794403076172,11.879433631897,11.409743309021,11.3981676101685,11.3866167068481,11.3750886917114,11.3635845184326,11.3521022796631,11.3406448364258,11.3292093276978,11.3177976608276,11.3064079284668,11.2950420379639,11.2836980819702,11.2723779678345,11.261079788208,11.2498044967651,11.2385520935059,11.2273216247559,11.2161140441895,11.2049283981323,11.1937646865845,11.1826238632202,11.1715049743652,11.1604089736938,11.1493339538574,11.1382808685303,11.1272506713867,11.1162414550781,11.1052541732788,11.0942888259888,11.0833444595337,11.0724220275879,11.0615215301514,11.0506420135498,11.0397834777832,11.0289468765259,10.9949731826782,10.8867702484131,10.7806777954102,10.6766319274902,10.5745754241943,10.4744520187378,10.3762063980103,10.2797870635986,10.1851425170898,10.0922250747681,10.0009880065918,9.91138553619385,9.82337379455566,9.7381010055542,9.68762969970703,9.63767910003662,9.58824062347412,9.539306640625,9.49086952209473,9.44292259216309,9.39545631408691,9.34846591949463,9.30194282531738,9.25588130950928,9.21027278900146,9.16511154174805,9.12039184570312,9.07610511779785,9.03224754333496,8.98881149291992,8.94579124450684,8.90318012237549,8.86097431182861,8.81916522979736,8.77775001525879,8.73672199249268,8.70535945892334,8.69240474700928,8.67948913574219,8.66661262512207,8.65377330780029,8.64097213745117,8.62820911407471,8.61548328399658,8.6027946472168,8.59014415740967,8.57752990722656,8.56495380401611,8.55241394042969,8.53991031646729,8.52744388580322,8.51501369476318,8.50261878967285,8.49026107788086,8.47793865203857,8.46565246582031,8.45340061187744,8.44118499755859,8.42900466918945,8.41685962677002,8.40474987030029,8.39267349243164,8.38063335418701,8.36862659454346,8.35665416717529,8.34471702575684,8.33281326293945,8.32094287872314,8.30910682678223,8.2973051071167,8.28553581237793,8.27379989624023,8.26209735870361,8.25020599365234,8.23834896087646,8.22652626037598,8.21473693847656,8.20298194885254,8.19125938415527,8.1795711517334,8.1679162979126,8.15629482269287,8.1447057723999,8.13315010070801,8.12162685394287,8.11013603210449,8.09867858886719,8.08725261688232,8.07585906982422,8.06449699401855,8.05316734313965,8.0418701171875,8.03060436248779,8.01936912536621,8.00816631317139,7.99699401855469,7.98585319519043,7.97474336624146,7.96366453170776,7.9526162147522,7.94159841537476,7.9306116104126,7.91965484619141,7.90872812271118,7.89783191680908,7.88696527481079,7.87612867355347,7.86532163619995,7.8545446395874,7.8437967300415,7.83307838439941,7.82057285308838,7.80605936050415,7.7915997505188,7.77719306945801,7.76284027099609,7.74853992462158,7.73429250717163,7.72009706497192,7.70595359802246,7.69186210632324,7.67782163619995,7.66383266448975,7.64989471435547,7.63600730895996,7.62216997146606,7.60838270187378,7.59464550018311,7.58095788955688,7.5673189163208,7.55372953414917,7.54018878936768,7.52669620513916,7.51325225830078,7.49985599517822,7.48650741577148,7.47320604324341,7.45995235443115,7.4467453956604,7.43358469009399,7.42047071456909,7.40740299224854,7.39438152313232,7.38140535354614,7.36847448348999,7.35558938980103,7.34274864196777,7.32995319366455,7.31720209121704,7.30449485778809,7.29183197021484,7.27921295166016,7.26663732528687,7.25410556793213,7.24161624908447,7.22917032241821,7.21676731109619,7.20440626144409,7.19208765029907,7.17981100082397,7.1675763130188,7.15538311004639,7.14323139190674,7.13112115859985,7.11905193328857,7.10702323913574,7.09503507614136,7.08308744430542,7.07117986679077,7.05931234359741,7.04748439788818,7.03569602966309,7.02394723892212,7.01223754882812,7.0005669593811,6.9889349937439,6.9773416519165,6.96578645706177,6.95426988601685,6.94279098510742,6.93135023117065,6.91994714736938,6.90858125686646,6.89725255966187,6.88596153259277,6.87470674514771,6.86348915100098,6.85230779647827,6.84116315841675,6.7622218132019,6.74472332000732,6.72731494903564,6.70999622344971,6.69276714324951,6.67562532424927,6.65857219696045,6.64160633087158,6.62331342697144,6.60463047027588,6.58605241775513,6.56757879257202,6.54920864105225,6.53094100952148,6.51277494430542,6.49470949172974,6.47674369812012,6.45887756347656,6.4411096572876,6.42343902587891,6.40586519241333,6.38838720321655,6.37100458145142,6.35371589660645,6.33652114868164,6.31941890716553,6.30240869522095,6.28549003601074,6.2686619758606,6.25192403793335,6.23668384552002
11.8082132339478,11.8082036972046,11.8081979751587,11.8081893920898,11.808177947998,11.8081693649292,11.808159828186,11.8081512451172,11.8081426620483,11.8081312179565,11.8081216812134,11.8081159591675,11.8081073760986,11.8080987930298,11.8080863952637,11.8080749511719,11.8080720901489,11.8080606460571,11.808051109314,11.8080396652222,11.8080339431763,11.8080253601074,11.8080158233643,11.8080043792725,11.8079957962036,11.8079900741577,11.8079776763916,11.8079690933228,11.8079595565796,11.8079481124878,11.8079423904419,11.807933807373,11.8079242706299,11.807915687561,11.8079071044922,11.8078947067261,11.8078889846802,11.8078804016113,11.8078680038452,11.8078594207764,11.8078498840332,11.8078413009644,11.8078327178955,11.8078231811523,11.8078145980835,11.8078060150146,11.8077964782715,11.8077850341797,11.8077821731567,11.8077697753906,11.8077583312988,11.8077487945557,11.8077430725098,11.8077344894409,11.8077220916748,11.807713508606,11.8077039718628,11.8076982498169,11.807689666748,11.8076772689819,11.8076686859131,11.8076591491699,11.807653427124,11.8076410293579,11.8076324462891,11.8076229095459,11.8076143264771,11.8076057434082,11.807599067688,11.8075876235962,11.8075752258301,11.8075695037842,11.807559967041,11.8075513839722,11.8075389862061,11.8075332641602,11.807523727417,11.8075151443481,11.807505607605,11.8074941635132,11.807487487793,11.8074789047241,11.807469367981,11.8074607849121,11.8074512481689,11.8074426651001,11.8074331283569,11.8074245452881,11.8074150085449,11.8074064254761,11.8073968887329,11.8073883056641,11.8073787689209,11.807373046875,11.8073606491089,11.4131994247437,11.4016180038452,11.3900594711304,11.3785247802734,11.3670129776001,11.3555240631104,11.3440589904785,11.3326177597046,11.3211984634399,11.3098020553589,11.2984294891357,11.2870788574219,11.2757520675659,11.2644472122192,11.2531652450562,11.2419052124023,11.2306690216064,11.2194538116455,11.2082624435425,11.1970920562744,11.1859445571899,11.1748189926147,11.1637163162231,11.1526346206665,11.1415748596191,11.1305379867554,11.1195220947266,11.1085290908813,11.0975570678711,11.0866060256958,11.0756778717041,11.064769744873,11.0538845062256,11.0430202484131,11.0321769714355,11.021354675293,11.0105543136597,10.9209413528442,10.8141841888428,10.709493637085,10.6068115234375,10.5060796737671,10.4072427749634,10.3102474212646,10.2150440216064,10.1215829849243,10.0298166275024,9.93969917297363,9.85118675231934,9.77449226379395,9.7236442565918,9.6733226776123,9.6235179901123,9.5742244720459,9.52543354034424,9.47713756561279,9.42932796478271,9.38199901580811,9.33514213562012,9.28875160217285,9.24281978607178,9.19734001159668,9.15230464935303,9.10770893096924,9.0635461807251,9.01980876922607,8.97649192810059,8.93358898162842,8.89109516143799,8.84900283813477,8.80730724334717,8.7660026550293,8.72508335113525,8.69964981079102,8.68671226501465,8.67381381988525,8.66095352172852,8.64813041687012,8.63534641265869,8.62259960174561,8.60989093780518,8.59721851348877,8.58458423614502,8.57198715209961,8.55942630767822,8.54690265655518,8.53441524505615,8.52196502685547,8.50955009460449,8.49717235565186,8.48482990264893,8.4725227355957,8.4602518081665,8.44801712036133,8.43581676483154,8.42365169525146,8.41152191162109,8.39942741394043,8.38736724853516,8.37534141540527,8.36334991455078,8.35139274597168,8.33946990966797,8.32758140563965,8.3157262802124,8.30390548706055,8.29211711883545,8.28036308288574,8.26864242553711,8.25695419311523,8.24529933929443,8.23355770111084,8.22174835205078,8.20997333526611,8.19823169708252,8.1865234375,8.17484855651855,8.16320705413818,8.15159797668457,8.14002323150635,8.12847995758057,8.11697006225586,8.10549259185791,8.09404754638672,8.08263492584229,8.07125473022461,8.05990600585938,8.0485897064209,8.03730487823486,8.02605152130127,8.01482963562012,8.00363826751709,7.99247932434082,7.98135089874268,7.97025394439697,7.95918750762939,7.94815158843994,7.93714618682861,7.92617130279541,7.91522693634033,7.90431261062622,7.89342832565308,7.8825740814209,7.87174940109253,7.86095476150513,7.85018920898438,7.83945369720459,7.8287467956543,7.81806945800781,7.80742120742798,7.79680204391479,7.78530979156494,7.77092695236206,7.75659704208374,7.74231958389282,7.72809505462646,7.71392202377319,7.69980144500732,7.68573236465454,7.67171478271484,7.65774774551392,7.64383172988892,7.62996625900269,7.61615085601807,7.60238552093506,7.5886697769165,7.5750036239624,7.56138610839844,7.54781818389893,7.53429841995239,7.52082681655884,7.50740385055542,7.49402809143066,7.48070049285889,7.46742010116577,7.45418643951416,7.44099998474121,7.42785978317261,7.41476583480835,7.40171813964844,7.38871669769287,7.37576007843018,7.36284923553467,7.34998369216919,7.33716297149658,7.32438659667969,7.31165504455566,7.29896688461304,7.28632307052612,7.27372312545776,7.2611665725708,7.24865341186523,7.23618316650391,7.22375583648682,7.21137094497681,7.19902849197388,7.18672847747803,7.17446994781494,7.16225337982178,7.15007829666138,7.13794469833374,7.12585210800171,7.11380052566528,7.10178995132446,7.08981943130493,7.07788944244385,7.06599903106689,7.05414867401123,7.04233837127686,7.03056764602661,7.01883554458618,7.00714302062988,6.9954891204834,6.98387384414673,6.97229766845703,6.96075916290283,6.94925928115845,6.93779706954956,6.92637252807617,6.91498565673828,6.90363597869873,6.89232397079468,6.88104820251465,6.86981010437012,6.85860824584961,6.84744310379028,6.83631372451782,6.82522058486938,6.74636125564575,6.72894430160522,6.7116174697876,6.69437980651855,6.67722988128662,6.66016817092896,6.64319372177124,6.62630605697632,6.60765218734741,6.58905696868896,6.57056665420532,6.55217933654785,6.53389549255371,6.51571321487427,6.49763107299805,6.47964954376221,6.46176719665527,6.44398307800293,6.42629718780518,6.40870761871338,6.39121389389038,6.37381601333618,6.35651254653931,6.33930206298828,6.32218503952026,6.30516004562378,6.28822660446167,6.27138376235962,6.25463151931763,6.23798036575317,6.22287940979004
11.736967086792,11.7369585037231,11.7369508743286,11.7369394302368,11.736930847168,11.7369222640991,11.7369108200073,11.7369060516357,11.7368946075439,11.7368860244751,11.7368812561035,11.7368669509888,11.7368583679199,11.7368507385254,11.7368421554565,11.7368335723877,11.7368221282959,11.7368135452271,11.7368059158325,11.7367973327637,11.7367887496948,11.736777305603,11.7367725372314,11.7367610931396,11.7367525100708,11.736743927002,11.7367324829102,11.7367248535156,11.7367162704468,11.7367076873779,11.7366991043091,11.7366876602173,11.7366800308228,11.736668586731,11.7366628646851,11.7366542816162,11.7366428375244,11.7366352081299,11.736626625061,11.7366180419922,11.7366094589233,11.7365980148315,11.7365894317627,11.7365818023682,11.7365732192993,11.7365617752075,11.7365560531616,11.7365446090698,11.736536026001,11.7365274429321,11.7365198135376,11.7365074157715,11.736499786377,11.7364912033081,11.7364826202393,11.7364740371704,11.7364625930786,11.7364540100098,11.7364492416382,11.7364368438721,11.7364292144775,11.7364206314087,11.7364120483398,11.736400604248,11.7363948822021,11.7363862991333,11.7363748550415,11.7363662719727,11.7363548278809,11.736349105835,11.7363405227661,11.7363290786743,11.7363176345825,11.7363119125366,11.7363033294678,11.7362947463989,11.7362833023071,11.7362785339355,11.7362661361694,11.7362575531006,11.7362489700317,11.7362413406372,11.7362327575684,11.7362203598022,11.7362117767334,11.7362070083618,11.7361946105957,11.7361831665039,11.736177444458,11.7361688613892,11.7361602783203,11.7361488342285,11.4050693511963,11.3935041427612,11.3819618225098,11.3704433441162,11.3589487075806,11.3474760055542,11.3360271453857,11.3246011734009,11.3131990432739,11.3018188476562,11.2904615402222,11.279128074646,11.2678165435791,11.2565279006958,11.2452611923218,11.2340173721313,11.2227964401245,11.211597442627,11.200421333313,11.1892671585083,11.1781349182129,11.1670246124268,11.1559371948242,11.144871711731,11.1338272094727,11.1228055953979,11.1118049621582,11.1008262634277,11.0898694992065,11.0789346694946,11.0680208206177,11.05712890625,11.0462579727173,11.0354089736938,11.0245800018311,11.0137739181519,11.0029878616333,10.9553270339966,10.8478994369507,10.7425584793091,10.6392440795898,10.5378980636597,10.4384641647339,10.3408899307251,10.2451219558716,10.1511125564575,10.0588121414185,9.96817493438721,9.87915706634521,9.8111572265625,9.75992774963379,9.70923042297363,9.65905666351318,9.60939979553223,9.5602502822876,9.51160049438477,9.46344375610352,9.41577243804932,9.36857891082764,9.32185649871826,9.27559757232666,9.2297945022583,9.1844425201416,9.13953399658203,9.09506225585938,9.05102157592773,9.00740528106689,8.96420669555664,8.92142105102539,8.87904167175293,8.83706378936768,8.7954797744751,8.75428581237793,8.71347618103027,8.69394683837891,8.68102645874023,8.66814517974854,8.65530109405518,8.64249610900879,8.62972831726074,8.61699771881104,8.60430526733398,8.59165000915527,8.5790319442749,8.56645011901855,8.55390644073486,8.5413990020752,8.52892780303955,8.51649284362793,8.50409412384033,8.49173164367676,8.47940540313721,8.46711444854736,8.45485973358154,8.44263935089111,8.43045520782471,8.41830539703369,8.40619087219238,8.39411163330078,8.38206672668457,8.37005615234375,8.35807991027832,8.34613800048828,8.33423042297363,8.32235622406006,8.31051635742188,8.29870986938477,8.28693675994873,8.27519702911377,8.26349067687988,8.25181770324707,8.24017715454102,8.22856998443604,8.21697616577148,8.20521450042725,8.19348621368408,8.18179225921631,8.17013072967529,8.15850257873535,8.14690780639648,8.13534545898438,8.12381553649902,8.11231899261475,8.10085487365723,8.08942317962646,8.07802391052246,8.0666561126709,8.05531978607178,8.04401588439941,8.03274440765381,8.02150344848633,8.01029491424561,7.99911642074585,7.98796987533569,7.97685384750366,7.96576929092407,7.95471525192261,7.94369173049927,7.93269872665405,7.92173624038696,7.91080379486084,7.89990186691284,7.88902997970581,7.87818765640259,7.86737489700317,7.85659217834473,7.84583854675293,7.8351149559021,7.82441997528076,7.81375455856323,7.80311822891235,7.79251050949097,7.78193187713623,7.77138185501099,7.76086044311523,7.75036334991455,7.73610925674438,7.72190713882446,7.70775747299194,7.69365930557251,7.679612159729,7.66561698913574,7.65167236328125,7.63777828216553,7.62393474578857,7.61014127731323,7.59639739990234,7.58270359039307,7.56905841827393,7.55546283721924,7.54191589355469,7.52841711044312,7.51496648788452,7.50156450271606,7.48820972442627,7.47490262985229,7.46164226531982,7.44842958450317,7.43526315689087,7.42214345932007,7.40907001495361,7.39604234695435,7.38306045532227,7.37012386322021,7.35723257064819,7.3443865776062,7.33158540725708,7.31882858276367,7.30611610412598,7.29344749450684,7.28082275390625,7.26824188232422,7.25570392608643,7.24320936203003,7.23075819015503,7.21834897994995,7.20598268508911,7.19365882873535,7.18137693405151,7.1691370010376,7.15693855285645,7.14478158950806,7.13266611099243,7.12059164047241,7.10855722427368,7.09656429290771,7.08461141586304,7.07269859313965,7.06082582473755,7.04899311065674,7.03719997406006,7.02544593811035,7.01373147964478,7.00205564498901,6.99041891098022,6.97882080078125,6.96726083755493,6.95573902130127,6.94425582885742,6.93280982971191,6.92140197753906,6.91003131866455,6.89869785308838,6.88740205764771,6.87614250183105,6.86492013931274,6.85373449325562,6.84258460998535,6.83147144317627,6.82039451599121,6.80935287475586,6.73057460784912,6.7132396697998,6.69599342346191,6.67883539199829,6.66176509857178,6.64478254318237,6.6278862953186,6.61067628860474,6.59206438064575,6.57355690002441,6.55515336990356,6.53685235977173,6.51865339279175,6.50055551528931,6.48255777359009,6.46465921401978,6.44685935974121,6.42915773391724,6.41155242919922,6.39404344558716,6.37662982940674,6.3593111038208,6.34208583831787,6.32495355606079,6.3079137802124,6.29096555709839,6.27410840988159,6.25734090805054,6.24066305160522,6.22417020797729,6.20913553237915
11.6665735244751,11.6665658950806,11.6665554046631,11.6665449142456,11.6665372848511,11.6665296554565,11.666522026062,11.6665143966675,11.66650390625,11.6664934158325,11.666485786438,11.6664781570435,11.6664705276489,11.6664562225342,11.6664485931396,11.6664409637451,11.6664333343506,11.6664228439331,11.6664123535156,11.666407585144,11.6663970947266,11.666389465332,11.6663789749146,11.66637134552,11.6663608551025,11.666353225708,11.6663417816162,11.6663341522217,11.6663265228271,11.6663160324097,11.6663084030151,11.6663007736206,11.6662931442261,11.6662788391113,11.6662712097168,11.6662635803223,11.6662530899048,11.6662454605103,11.6662349700928,11.6662302017212,11.6662197113037,11.6662120819092,11.6662006378174,11.6661930084229,11.6661825180054,11.6661748886108,11.6661672592163,11.6661596298218,11.66614818573,11.6661376953125,11.666130065918,11.6661224365234,11.6661148071289,11.6661033630371,11.6660928726196,11.666088104248,11.6660776138306,11.6660690307617,11.6660585403442,11.6660509109497,11.6660432815552,11.6660356521606,11.6660242080688,11.6660165786743,11.6660060882568,11.665994644165,11.6659870147705,11.6659822463989,11.6659717559814,11.6659603118896,11.6659526824951,11.6659450531006,11.6659374237061,11.6659259796143,11.6659154891968,11.6659107208252,11.6659002304077,11.6658916473389,11.6658811569214,11.6658735275269,11.665864944458,11.6658573150635,11.665846824646,11.6658353805542,11.6658277511597,11.6658201217651,11.6658124923706,11.6658039093018,11.4085235595703,11.3969507217407,11.385401725769,11.3738765716553,11.3623743057251,11.3508949279785,11.3394393920898,11.3280067443848,11.3165969848633,11.3052101135254,11.2938470840454,11.2825059890747,11.2711877822876,11.2598915100098,11.2486190795898,11.2373685836792,11.2261409759521,11.2149353027344,11.2037525177002,11.1925916671753,11.1814527511597,11.1703357696533,11.1592416763306,11.1481695175171,11.1371192932129,11.1260900497437,11.115083694458,11.1040983200073,11.0931358337402,11.0821933746338,11.0712738037109,11.060375213623,11.0494976043701,11.0386419296265,11.0278072357178,11.0169944763184,11.0062026977539,10.9954309463501,10.9846811294556,10.8818264007568,10.7758283615112,10.6718759536743,10.5699110031128,10.469874382019,10.37171459198,10.2753782272339,10.180814743042,10.0879755020142,9.9968147277832,9.90728664398193,9.8480978012085,9.79648303985596,9.74540615081787,9.69485855102539,9.6448335647583,9.59532165527344,9.54631614685059,9.4978084564209,9.44979095458984,9.40225601196289,9.35519790649414,9.30860805511475,9.26247978210449,9.21680641174316,9.17158222198486,9.12679862976074,9.08245086669922,9.03853130340576,8.99503517150879,8.95195484161377,8.90928554534912,8.86702156066895,8.82515621185303,8.78368473052979,8.742600440979,8.70189952850342,8.68825244903564,8.67534923553467,8.66248416900635,8.64965724945068,8.63686847686768,8.62411689758301,8.611403465271,8.59872722625732,8.58608818054199,8.573486328125,8.56092166900635,8.54839324951172,8.53590202331543,8.52344703674316,8.51102828979492,8.4986457824707,8.48629856109619,8.4739875793457,8.46171283721924,8.44947338104248,8.43726921081543,8.42510032653809,8.41296577453613,8.40086650848389,8.38880252838135,8.3767728805542,8.36477756500244,8.35281658172607,8.3408899307251,8.3289966583252,8.31713771820068,8.30531215667725,8.2935209274292,8.28176212310791,8.27003765106201,8.25834560394287,8.2466869354248,8.2350606918335,8.22346782684326,8.21190738677979,8.20037937164307,8.18874740600586,8.1770658493042,8.16541862487793,8.15380382537842,8.14222240447998,8.1306734085083,8.11915683746338,8.10767364501953,8.09622192382812,8.08480358123779,8.0734167098999,8.06206226348877,8.05073928833008,8.03944873809814,8.02818870544434,8.01696109771729,8.00576496124268,7.99459934234619,7.98346519470215,7.97236204147339,7.96128988265991,7.95024824142456,7.93923711776733,7.92825651168823,7.9173059463501,7.90638589859009,7.89549589157104,7.88463592529297,7.87380599975586,7.8630051612854,7.85223436355591,7.84149312973022,7.83078098297119,7.82009840011597,7.80944442749023,7.79881954193115,7.78822374343872,7.77765655517578,7.76711797714233,7.75660800933838,7.74612665176392,7.73567342758179,7.72524833679199,7.71485137939453,7.70160245895386,7.68752670288086,7.67350244522095,7.65952920913696,7.64560651779175,7.6317343711853,7.61791276931763,7.60414123535156,7.59041929244995,7.57674646377563,7.56312322616577,7.54954862594604,7.53602266311646,7.52254486083984,7.50911569595337,7.49573421478271,7.48239994049072,7.46911382675171,7.45587396621704,7.44268178939819,7.42953538894653,7.41643619537354,7.40338230133057,7.39037466049194,7.37741279602051,7.3644962310791,7.35162448883057,7.33879804611206,7.32601594924927,7.31327867507935,7.30058526992798,7.28793621063232,7.27533054351807,7.26276826858521,7.25024938583374,7.23777389526367,7.22534084320068,7.21295070648193,7.20060300827026,7.18829727172852,7.17603349685669,7.16381168365479,7.1516318321228,7.13949251174927,7.12739515304565,7.11533832550049,7.10332202911377,7.0913462638855,7.07941102981567,7.06751585006714,7.05566072463989,7.04384517669678,7.03206872940063,7.02033233642578,7.00863456726074,6.99697589874268,6.98535585403442,6.97377443313599,6.96223115921021,6.95072603225708,6.93925905227661,6.92782974243164,6.91643810272217,6.90508413314819,6.8937668800354,6.88248682022095,6.87124395370483,6.86003732681274,6.84886741638184,6.83773374557495,6.82663583755493,6.81557464599609,6.80454874038696,6.7935585975647,6.71486186981201,6.69760751724243,6.68044137954712,6.66336297988892,6.64637184143066,6.62946701049805,6.61264896392822,6.59507417678833,6.57655000686646,6.55812978744507,6.5398120880127,6.52159690856934,6.50348281860352,6.48546886444092,6.46755409240723,6.44973850250244,6.43202066421509,6.41440010070801,6.39687538146973,6.37944650650024,6.36211204528809,6.34487199783325,6.32772445678711,6.31066989898682,6.2937068939209,6.2768349647522,6.2600531578064,6.24336051940918,6.22675704956055,6.21042060852051,6.19545269012451
11.5970191955566,11.5970125198364,11.5970029830933,11.5969934463501,11.5969867706299,11.5969772338867,11.5969667434692,11.596960067749,11.5969505310059,11.5969438552856,11.5969305038452,11.596923828125,11.5969142913818,11.5969076156616,11.5969009399414,11.596887588501,11.5968809127808,11.5968713760376,11.5968647003174,11.5968551635742,11.5968446731567,11.5968351364136,11.5968284606934,11.5968217849731,11.5968084335327,11.5968017578125,11.5967922210693,11.5967855453491,11.596776008606,11.5967683792114,11.5967559814453,11.5967493057251,11.5967388153076,11.5967321395874,11.5967254638672,11.5967121124268,11.5967054367065,11.5966958999634,11.5966892242432,11.5966787338257,11.5966691970825,11.5966625213623,11.5966520309448,11.5966453552246,11.5966358184814,11.596625328064,11.5966157913208,11.5966091156006,11.5965986251831,11.5965919494629,11.5965824127197,11.5965719223022,11.596565246582,11.5965557098389,11.5965490341187,11.5965356826782,11.596529006958,11.5965213775635,11.5965118408203,11.5965051651001,11.5964918136597,11.5964879989624,11.5964784622192,11.5964679718018,11.5964612960815,11.5964508056641,11.5964441299438,11.5964345932007,11.5964269638062,11.596417427063,11.5964069366455,11.5963973999023,11.5963907241821,11.5963802337646,11.5963735580444,11.596363067627,11.5963563919067,11.5963459014893,11.5963363647461,11.5963296890259,11.5963191986084,11.5963125228882,11.5963020324707,11.5962924957275,11.5962886810303,11.4004001617432,11.388843536377,11.377311706543,11.3658027648926,11.3543167114258,11.3428535461426,11.3314142227173,11.3199977874756,11.3086042404175,11.297233581543,11.2858858108521,11.2745609283447,11.2632579803467,11.2519788742065,11.2407217025757,11.2294874191284,11.2182750701904,11.2070846557617,11.1959180831909,11.1847724914551,11.1736488342285,11.1625480651855,11.1514692306519,11.1404123306274,11.1293773651123,11.1183643341064,11.1073722839355,11.0964031219482,11.0854549407959,11.0745277404785,11.0636234283447,11.0527400970459,11.041877746582,11.0310363769531,11.0202169418335,11.0094184875488,10.9986419677734,10.9878854751587,10.9771499633789,10.9159650802612,10.80930519104,10.7047090530396,10.6021175384521,10.5014743804932,10.4027242660522,10.3058128356934,10.2106914520264,10.1173095703125,10.0256195068359,9.93787574768066,9.8853178024292,9.83331298828125,9.78185176849365,9.73092746734619,9.6805305480957,9.63065242767334,9.58128547668457,9.53242301940918,9.484055519104,9.43617630004883,9.38877868652344,9.3418550491333,9.29539775848389,9.24940013885498,9.20385551452637,9.15875720977783,9.11409854888916,9.06987380981445,9.02607536315918,8.98269844055176,8.93973636627197,8.89718341827393,8.85503387451172,8.81328105926514,8.77192115783691,8.73094654083252,8.69548988342285,8.6825647354126,8.66967868804932,8.65682983398438,8.64402008056641,8.63124752044678,8.6185131072998,8.60581588745117,8.59315586090088,8.58053398132324,8.56794834136963,8.55539989471436,8.54288768768311,8.53041172027588,8.51797294616699,8.50557041168213,8.49320316314697,8.48087310791016,8.46857738494873,8.45631790161133,8.44409370422363,8.43190574645996,8.41975212097168,8.40763282775879,8.39554882049561,8.38350009918213,8.37148571014404,8.35950565338135,8.34755992889404,8.33564758300781,8.32376956939697,8.31192588806152,8.30011558532715,8.28833866119385,8.27659511566162,8.26488399505615,8.25320720672607,8.24156284332275,8.22995185852051,8.2183723449707,8.20682621002197,8.1953125,8.18383121490479,8.1723461151123,8.16071128845215,8.14910984039307,8.13754177093506,8.12600612640381,8.11450290679932,8.1030330657959,8.09159469604492,8.0801887512207,8.06881523132324,8.05747413635254,8.04616355895996,8.03488540649414,8.02363872528076,8.01242351531982,8.00123977661133,7.99008750915527,7.97896575927734,7.9678750038147,7.95681524276733,7.9457859992981,7.93478727340698,7.92381906509399,7.91288089752197,7.90197324752808,7.89109516143799,7.88024711608887,7.86942911148071,7.85864067077637,7.84788179397583,7.83715200424194,7.82645225524902,7.8157811164856,7.80513906478882,7.79452562332153,7.78394174575806,7.77338600158691,7.76285934448242,7.75236082077026,7.74189043045044,7.73144865036011,7.72103500366211,7.71064949035645,7.70029163360596,7.68996143341064,7.67965936660767,7.6674017906189,7.65345048904419,7.63955020904541,7.62569999694824,7.61190032958984,7.5981502532959,7.58444976806641,7.57079887390137,7.55719661712646,7.54364347457886,7.53013849258423,7.51668214797974,7.50327396392822,7.48991298675537,7.47659969329834,7.46333360671997,7.45011472702026,7.43694257736206,7.4238166809082,7.41073703765869,7.39770364761353,7.38471603393555,7.3717737197876,7.35887670516968,7.34602499008179,7.33321809768677,7.32045555114746,7.30773735046387,7.29506301879883,7.2824330329895,7.26984643936157,7.25730323791504,7.2448034286499,7.23234605789185,7.21993207931519,7.20756053924561,7.19523096084595,7.18294382095337,7.17069864273071,7.15849447250366,7.14633274078369,7.13421154022217,7.12213182449341,7.1100926399231,7.09809446334839,7.08613634109497,7.07421827316284,7.06234073638916,7.05050277709961,7.03870439529419,7.0269455909729,7.01522541046143,7.00354528427124,6.99190330505371,6.980299949646,6.9687352180481,6.95720911026001,6.94572019577026,6.93426990509033,6.9228572845459,6.9114818572998,6.90014362335205,6.88884305953979,6.87757873535156,6.86635208129883,6.85516119003296,6.84400701522827,6.83288955688477,6.82180738449097,6.81076145172119,6.79975128173828,6.78877639770508,6.77783727645874,6.69922256469727,6.68204832077026,6.66496181488037,6.64796209335327,6.63104915618896,6.61422300338745,6.59748125076294,6.57954597473145,6.56110906600952,6.54277467727661,6.52454280853271,6.50641202926636,6.48838186264038,6.47045135498047,6.45262002944946,6.43488645553589,6.41724967956543,6.39970970153809,6.38226509094238,6.36491584777832,6.34766006469727,6.33049821853638,6.31342840194702,6.2964506149292,6.27956390380859,6.26276731491089,6.24606084823608,6.22944259643555,6.21291303634644,6.19673204421997,6.18182992935181
11.5282917022705,11.5282831192017,11.5282745361328,11.528265953064,11.5282564163208,11.528247833252,11.5282392501831,11.5282335281372,11.5282220840454,11.5282135009766,11.5282039642334,11.5281982421875,11.5281896591187,11.5281782150269,11.528172492981,11.5281639099121,11.5281543731689,11.5281457901001,11.5281372070312,11.5281286239624,11.5281200408936,11.5281076431274,11.5281019210815,11.5280933380127,11.5280809402466,11.5280752182007,11.5280694961548,11.5280609130859,11.5280494689941,11.528039932251,11.5280342102051,11.5280227661133,11.5280170440674,11.5280046463013,11.5279989242554,11.5279903411865,11.5279788970947,11.5279731750488,11.5279636383057,11.5279521942139,11.527946472168,11.5279369354248,11.527928352356,11.5279197692871,11.5279102325439,11.5279016494751,11.5278959274292,11.5278873443604,11.5278749465942,11.5278663635254,11.5278606414795,11.5278511047363,11.5278425216675,11.5278301239014,11.5278244018555,11.5278158187866,11.5278072357178,11.5277976989746,11.5277891159058,11.5277805328369,11.5277709960938,11.5277624130249,11.527756690979,11.5277442932129,11.527735710144,11.5277299880981,11.527720451355,11.5277118682861,11.527702331543,11.5276908874512,11.5276880264282,11.5276784896851,11.5276670455933,11.5276575088501,11.5276517868042,11.5276432037354,11.5276336669922,11.5276250839233,11.5276155471802,11.5276069641113,11.5275974273682,11.4038505554199,11.3922882080078,11.3807487487793,11.3692321777344,11.3577394485474,11.3462696075439,11.3348236083984,11.3234004974365,11.3119993209839,11.3006219863892,11.289267539978,11.2779359817505,11.2666273117065,11.2553405761719,11.2440767288208,11.2328357696533,11.2216167449951,11.2104196548462,11.1992454528809,11.1880941390991,11.1769647598267,11.1658563613892,11.1547708511353,11.1437072753906,11.1326665878296,11.1216468811035,11.1106481552124,11.0996723175049,11.0887174606323,11.077784538269,11.066873550415,11.055983543396,11.0451145172119,11.0342674255371,11.0234413146973,11.0126371383667,11.0018539428711,10.9910907745361,10.9803495407104,10.9696292877197,10.9503192901611,10.8429899215698,10.7377443313599,10.6345224380493,10.5332651138306,10.4339189529419,10.3364286422729,10.240743637085,10.1468133926392,10.054591178894,9.9757776260376,9.92282009124756,9.87042045593262,9.81857204437256,9.76726531982422,9.71649169921875,9.66624355316162,9.61651229858398,9.56729030609131,9.51856994628906,9.4703426361084,9.4226016998291,9.37533950805664,9.3285493850708,9.28222465515137,9.23635673522949,9.19093990325928,9.14596843719482,9.10143375396729,9.05733108520508,9.0136547088623,8.97039604187012,8.92755126953125,8.8851146697998,8.84307861328125,8.801438331604,8.76018905639648,8.71932411193848,8.68979263305664,8.67688465118408,8.6640157699585,8.65118408203125,8.63839054107666,8.62563514709473,8.61291694641113,8.60023593902588,8.58759307861328,8.57498645782471,8.56241703033447,8.54988479614258,8.53738880157471,8.52492904663086,8.51250648498535,8.50011920928955,8.48776817321777,8.47545337677002,8.46317386627197,8.45093059539795,8.43872165679932,8.42654800415039,8.41441059112549,8.40230751037598,8.39023876190186,8.37820434570312,8.3662052154541,8.35424041748047,8.34230899810791,8.33041191101074,8.31854915618896,8.30671977996826,8.29492473602295,8.28316211700439,8.27143287658691,8.25973796844482,8.24807453155518,8.23644542694092,8.2248477935791,8.21328353881836,8.20175170898438,8.19025230407715,8.17878437042236,8.16734886169434,8.15594577789307,8.14442253112793,8.13286685943604,8.12134456634521,8.10985469818115,8.09839820861816,8.08697319030762,8.07557964324951,8.06421947479248,8.05289077758789,8.04159355163574,8.03032779693604,8.01909446716309,8.00789165496826,7.99672079086304,7.98558044433594,7.97447156906128,7.96339321136475,7.9523458480835,7.94132900238037,7.93034267425537,7.91938638687134,7.90846061706543,7.89756488800049,7.88669919967651,7.87586355209351,7.86505746841431,7.85428094863892,7.84353351593018,7.8328161239624,7.82212781906128,7.81146860122681,7.80083799362183,7.79023694992065,7.77966403961182,7.76912021636963,7.75860500335693,7.74811792373657,7.7376594543457,7.72722864151001,7.71682643890381,7.70645189285278,7.69610548019409,7.68578672409058,7.67549562454224,7.66523218154907,7.65499591827393,7.6447868347168,7.63350343704224,7.6196756362915,7.60589742660522,7.5921688079834,7.57849025726318,7.56486034393311,7.55127954483032,7.53774785995483,7.52426385879517,7.51082801818848,7.49744081497192,7.48410081863403,7.4708080291748,7.4575629234314,7.44436407089233,7.43121194839478,7.41810655593872,7.40504741668701,7.39203357696533,7.379065990448,7.36614370346069,7.35326623916626,7.34043407440186,7.32764625549316,7.31490325927734,7.30220413208008,7.28954935073853,7.27693843841553,7.26437091827393,7.25184631347656,7.2393651008606,7.22692728042603,7.21453142166138,7.20217800140381,7.18986749649048,7.17759799957275,7.16537094116211,7.15318536758423,7.14104127883911,7.1289381980896,7.11687612533569,7.10485458374023,7.09287405014038,7.08093357086182,7.0690336227417,7.05717277526855,7.0453519821167,7.03357124328613,7.02182960510254,7.01012659072876,6.99846315383911,6.98683834075928,6.9752516746521,6.96370363235474,6.95219373703003,6.94072198867798,6.92928791046143,6.91789150238037,6.90653228759766,6.89521074295044,6.8839259147644,6.87267780303955,6.86146688461304,6.85029220581055,6.83915376663208,6.82805156707764,6.81698560714722,6.80595541000366,6.79496049880981,6.78400135040283,6.77307748794556,6.76218843460083,6.75133466720581,6.66656112670898,6.6495532989502,6.6326322555542,6.61579704284668,6.59904813766479,6.58238363265991,6.56409072875977,6.54574012756348,6.52749156951904,6.50934457778931,6.49129819869995,6.47335147857666,6.45550394058228,6.43775463104248,6.4201021194458,6.40254640579224,6.38508701324463,6.36772203445435,6.35045099258423,6.33327388763428,6.31618928909302,6.29919672012329,6.28229522705078,6.26548433303833,6.24876308441162,6.23213052749634,6.21558666229248,6.19913005828857,6.18310356140137,6.16826677322388
11.460373878479,11.4603633880615,11.460355758667,11.4603481292725,11.4603414535522,11.4603271484375,11.460319519043,11.4603118896484,11.4603080749512,11.4602975845337,11.4602861404419,11.4602756500244,11.4602718353271,11.4602642059326,11.4602537155151,11.4602422714233,11.4602384567261,11.4602270126343,11.4602165222168,11.4602088928223,11.4602012634277,11.4601936340332,11.4601831436157,11.4601755142212,11.4601678848267,11.4601573944092,11.4601497650146,11.4601392745972,11.4601345062256,11.4601268768311,11.4601163864136,11.4601058959961,11.4600982666016,11.460090637207,11.4600830078125,11.460072517395,11.4600648880005,11.460057258606,11.4600496292114,11.4600381851196,11.4600305557251,11.4600200653076,11.4600124359131,11.4600048065186,11.459997177124,11.4599866867065,11.459979057312,11.4599714279175,11.4599628448486,11.4599523544312,11.4599418640137,11.4599342346191,11.4599294662476,11.4599189758301,11.4599113464355,11.4598999023438,11.4598951339722,11.4598846435547,11.4598770141602,11.4598665237427,11.4598588943481,11.4598503112793,11.4598398208618,11.4598321914673,11.4598274230957,11.4598169326782,11.4598054885864,11.4597978591919,11.4597902297974,11.4597826004028,11.4597721099854,11.4597644805908,11.459755897522,11.4597482681274,11.4597406387329,11.4597301483154,11.4597225189209,11.4597139358521,11.395733833313,11.3841876983643,11.3726644515991,11.3611650466919,11.3496885299683,11.3382349014282,11.3268051147461,11.3153972625732,11.3040132522583,11.292652130127,11.2813129425049,11.2699975967407,11.2587041854858,11.2474336624146,11.2361860275269,11.2249603271484,11.2137565612793,11.2025766372681,11.1914176940918,11.1802816390991,11.1691675186157,11.1580753326416,11.1470050811768,11.1359567642212,11.1249303817749,11.1139259338379,11.1029434204102,11.0919828414917,11.0810432434082,11.070125579834,11.0592288970947,11.0483541488647,11.0375003814697,11.026668548584,11.0158576965332,11.0050678253174,10.9942989349365,10.9835510253906,10.9728240966797,10.962119102478,10.951434135437,10.8768863677979,10.7709846496582,10.66712474823,10.5652494430542,10.4653015136719,10.367226600647,10.2709732055664,10.1764907836914,10.0837297439575,10.0139713287354,9.96060752868652,9.90780925750732,9.85556888580322,9.80387496948242,9.75272178649902,9.70209884643555,9.65199947357178,9.60241413116455,9.55333614349365,9.50475692749023,9.45666885375977,9.40906620025635,9.36193943023682,9.31528282165527,9.26908874511719,9.22335052490234,9.17806148529053,9.13321495056152,9.08880424499512,9.04482364654541,9.0012674331665,8.95812797546387,8.9153995513916,8.87307739257812,8.83115577697754,8.78962707519531,8.7484884262085,8.70773220062256,8.68410301208496,8.6712121963501,8.65835952758789,8.64554500579834,8.63276767730713,8.62002849578857,8.60732746124268,8.59466361999512,8.58203601837158,8.5694465637207,8.55689334869385,8.54437732696533,8.53189754486084,8.51945400238037,8.50704669952393,8.4946756362915,8.48234081268311,8.47004127502441,8.45777702331543,8.44554901123047,8.43335628509521,8.42119884490967,8.40907573699951,8.39698791503906,8.384934425354,8.37291622161865,8.36093139648438,8.3489818572998,8.33706569671631,8.3251838684082,8.31333541870117,8.30152130126953,8.28974056243896,8.27799224853516,8.26627826690674,8.25459671020508,8.24294853210449,8.23133373260498,8.21975135803223,8.20820045471191,8.19668292999268,8.1851978302002,8.17374420166016,8.16232299804688,8.15093326568604,8.13957595825195,8.12819766998291,8.11668872833252,8.10521221160889,8.09376811981201,8.08235549926758,8.07097625732422,8.0596284866333,8.04831218719482,8.03702831268311,8.02577590942383,8.01455497741699,8.00336456298828,7.99220609664917,7.98107862472534,7.9699821472168,7.95891618728638,7.94788122177124,7.93687677383423,7.92590284347534,7.91495895385742,7.90404510498047,7.89316177368164,7.88230800628662,7.87148427963257,7.86069011688232,7.84992551803589,7.83919048309326,7.82848501205444,7.81780815124512,7.8071608543396,7.79654216766357,7.7859525680542,7.77539157867432,7.76485919952393,7.75435543060303,7.74387979507446,7.73343276977539,7.72301340103149,7.71262264251709,7.70225954055786,7.69192409515381,7.68161630630493,7.67133665084839,7.66108417510986,7.65085887908936,7.64066076278687,7.63049030303955,7.6203465461731,7.6102294921875,7.59990406036377,7.58619737625122,7.57253980636597,7.55893135070801,7.54537200927734,7.53186130523682,7.51839828491211,7.50498390197754,7.49161720275879,7.4782977104187,7.46502542495728,7.45180082321167,7.43862247467041,7.42549085617065,7.41240549087524,7.39936590194702,7.38637256622314,7.3734245300293,7.36052179336548,7.34766387939453,7.33485126495361,7.32208299636841,7.30935955047607,7.29667949676514,7.28404378890991,7.27145195007324,7.25890350341797,7.24639797210693,7.23393535614014,7.22151565551758,7.2091383934021,7.19680404663086,7.18451118469238,7.17226028442383,7.16005182266235,7.14788389205933,7.13575792312622,7.12367248535156,7.11162853240967,7.09962463378906,7.08766174316406,7.07573890686035,7.06385612487793,7.05201292037964,7.04020929336548,7.02844524383545,7.01672077178955,7.00503540039062,6.99338817596436,6.98178052902222,6.97021102905273,6.95867919921875,6.94718599319458,6.93573045730591,6.92431306838989,6.91293287277222,6.90159034729004,6.89028453826904,6.87901592254639,6.86778402328491,6.85658884048462,6.84542989730835,6.83430767059326,6.82322120666504,6.81217050552368,6.80115556716919,6.79017686843872,6.7792329788208,6.76832437515259,6.75745058059692,6.74661207199097,6.7358078956604,6.65114545822144,6.63421630859375,6.6173734664917,6.60061502456665,6.58394289016724,6.56707525253296,6.54870796203613,6.53044271469116,6.51227951049805,6.49421691894531,6.47625398635864,6.45839071273804,6.44062519073486,6.42295742034912,6.40538597106934,6.38791036605835,6.37053060531616,6.35324478149414,6.33605194091797,6.3189525604248,6.30194520950317,6.28502893447876,6.2682032585144,6.25146770477295,6.23482084274292,6.21826267242432,6.20179224014282,6.18540859222412,6.16953468322754,6.15476274490356
11.3932476043701,11.393238067627,11.3932323455811,11.3932228088379,11.393214225769,11.3932046890259,11.3932018280029,11.3931894302368,11.3931798934937,11.3931703567505,11.3931646347046,11.3931550979614,11.3931455612183,11.3931369781494,11.3931303024292,11.3931245803833,11.3931150436401,11.393102645874,11.3930969238281,11.393087387085,11.3930778503418,11.3930721282959,11.3930625915527,11.3930530548096,11.3930473327637,11.3930377960205,11.3930282592773,11.3930187225342,11.3930101394653,11.3930034637451,11.3929967880249,11.3929882049561,11.3929786682129,11.3929691314697,11.3929595947266,11.3929538726807,11.3929443359375,11.3929347991943,11.3929290771484,11.3929195404053,11.3929100036621,11.3929033279419,11.3928909301758,11.3928852081299,11.3928756713867,11.3928689956665,11.3928604125977,11.3928508758545,11.3928413391113,11.3928346633911,11.3928251266479,11.3928165435791,11.3928070068359,11.3928003311157,11.3927936553955,11.3927850723267,11.3927755355835,11.3927659988403,11.3927564620972,11.392749786377,11.3927402496338,11.3927345275879,11.3927249908447,11.3927154541016,11.3927059173584,11.3927030563354,11.392689704895,11.3926811218262,11.392671585083,11.3926649093628,11.3926582336426,11.3926486968994,11.3926391601562,11.3926334381104,11.3926210403442,11.3876285552979,11.3760986328125,11.3645925521851,11.3531084060669,11.3416481018066,11.3302116394043,11.3187971115112,11.3074064254761,11.2960376739502,11.2846927642822,11.2733697891235,11.2620697021484,11.2507925033569,11.239538192749,11.2283058166504,11.2170963287354,11.2059087753296,11.1947431564331,11.1836004257202,11.1724796295166,11.1613807678223,11.1503047943115,11.1392498016357,11.1282167434692,11.117205619812,11.1062164306641,11.0952491760254,11.084303855896,11.0733795166016,11.0624761581421,11.0515947341919,11.040735244751,11.029896736145,11.019079208374,11.0082836151123,10.9975080490112,10.9867544174194,10.9760217666626,10.9653091430664,10.9546184539795,10.9439477920532,10.9109945297241,10.8044309616089,10.6999282836914,10.5974283218384,10.4968738555908,10.3982086181641,10.3013820648193,10.2063417434692,10.1130390167236,10.0524578094482,9.99868392944336,9.94548320770264,9.89284515380859,9.84076118469238,9.78922271728516,9.73822116851807,9.68774890899658,9.63779640197754,9.58835697174072,9.53942203521729,9.4909839630127,9.44303512573242,9.39556884765625,9.34857749938965,9.30205345153809,9.25599002838135,9.21038055419922,9.16521835327148,9.12049674987793,9.07621002197266,9.03235054016113,8.98891353607178,8.94589233398438,8.90328121185303,8.86107349395752,8.81926441192627,8.77784729003906,8.73681831359863,8.69617080688477,8.67842102050781,8.66554737091064,8.65271091461182,8.63991355895996,8.62715339660645,8.61443042755127,8.60174560546875,8.58909797668457,8.57648658752441,8.56391334533691,8.55137634277344,8.5388765335083,8.52641296386719,8.51398468017578,8.50159358978271,8.48923873901367,8.47691917419434,8.46463584899902,8.45238780975342,8.44017505645752,8.42799758911133,8.41585540771484,8.40374755859375,8.39167499542236,8.37963676452637,8.36763381958008,8.35566425323486,8.34372901916504,8.33182811737061,8.31996154785156,8.30812835693359,8.2963285446167,8.28456211090088,8.27282905578613,8.26112937927246,8.24946308135986,8.23782920837402,8.22622871398926,8.21465969085693,8.20312404632568,8.19162082672119,8.18014907836914,8.16871070861816,8.15730285644531,8.14592742919922,8.13458442687988,8.12327194213867,8.1119909286499,8.1005744934082,8.08914279937744,8.07774448394775,8.06637763977051,8.05504322052002,8.04373931884766,8.03246784210205,8.0212287902832,8.01002025604248,7.9988431930542,7.9876971244812,7.97658205032349,7.96549797058105,7.95444440841675,7.94342184066772,7.93242979049683,7.92146778106689,7.91053628921509,7.89963483810425,7.88876342773438,7.87792205810547,7.86711025238037,7.85632801055908,7.8455753326416,7.83485221862793,7.82415819168091,7.8134937286377,7.80285787582397,7.7922511100769,7.78167295455933,7.77112340927124,7.76060247421265,7.75011014938354,7.73964643478394,7.7292103767395,7.71880292892456,7.70842313766479,7.69807147979736,7.68774700164795,7.67745065689087,7.66718196868896,7.65694046020508,7.64672660827637,7.63653945922852,7.62637948989868,7.61624670028687,7.60614109039307,7.59606218338013,7.58600950241089,7.57598352432251,7.56598424911499,7.55301189422607,7.53947353363037,7.5259838104248,7.51254224777222,7.49914836883545,7.4858021736145,7.47250366210938,7.45925188064575,7.44604730606079,7.43288946151733,7.41977834701538,7.40671253204346,7.39369344711304,7.38071966171265,7.36779165267944,7.35490846633911,7.34207057952881,7.32927703857422,7.3165283203125,7.30382394790649,7.29116344451904,7.27854681015015,7.2659740447998,7.2534441947937,7.24095773696899,7.22851371765137,7.21611261367798,7.20375394821167,7.19143772125244,7.17916345596313,7.16693067550659,7.15473985671997,7.14259052276611,7.13048219680786,7.11841487884521,7.10638856887817,7.09440231323242,7.08245706558228,7.07055139541626,7.05868577957153,7.0468602180481,7.03507423400879,7.02332735061646,7.01161956787109,6.99995088577271,6.98832082748413,6.97672986984253,6.96517705917358,6.95366239547729,6.9421854019165,6.93074655532837,6.91934537887573,6.90798139572144,6.89665508270264,6.88536548614502,6.87411308288574,6.86289739608765,6.85171794891357,6.84057474136353,6.82946825027466,6.81839752197266,6.80736255645752,6.79636335372925,6.78539943695068,6.77447080612183,6.76357793807983,6.75271940231323,6.74189615249634,6.73110723495483,6.72035264968872,6.63580083847046,6.61894989013672,6.60218381881714,6.58550310134888,6.56890678405762,6.55167818069458,6.53339719772339,6.51521730422974,6.49713802337646,6.47915935516357,6.46127986907959,6.4434986114502,6.42581510543823,6.40822792053223,6.39073705673218,6.37334156036377,6.35604047775269,6.33883285522461,6.32171821594238,6.30469608306885,6.28776502609253,6.27092504501343,6.25417423248291,6.23751354217529,6.22094106674194,6.20445585250854,6.18805885314941,6.17174768447876,6.15602588653564,6.14131832122803
11.3269052505493,11.3268976211548,11.3268899917603,11.3268823623657,11.3268747329712,11.3268632888794,11.3268556594849,11.3268480300903,11.3268404006958,11.3268327713013,11.3268222808838,11.3268146514893,11.3268070220947,11.3267984390259,11.3267908096313,11.3267803192139,11.3267726898193,11.3267650604248,11.3267574310303,11.3267498016357,11.3267383575439,11.3267307281494,11.3267230987549,11.3267154693604,11.3267078399658,11.326696395874,11.3266887664795,11.326681137085,11.3266735076904,11.3266658782959,11.3266544342041,11.3266496658325,11.326639175415,11.3266315460205,11.326623916626,11.3266162872314,11.3266077041626,11.3265972137451,11.3265895843506,11.326584815979,11.3265733718872,11.3265657424927,11.3265552520752,11.3265504837036,11.3265428543091,11.3265314102173,11.3265237808228,11.3265161514282,11.3265075683594,11.3264999389648,11.3264865875244,11.3264818191528,11.326470375061,11.3264627456665,11.326455116272,11.3264465332031,11.3264389038086,11.3264284133911,11.3264198303223,11.3264150619507,11.3264045715332,11.3263969421387,11.3263883590698,11.3263807296753,11.3263731002808,11.326361656189,11.3263540267944,11.3263463973999,11.3263378143311,11.3263301849365,11.3263187408447,11.3263139724731,11.3263063430786,11.3262948989868,11.3262872695923,11.3262796401978,11.3262720108032,11.3221988677979,11.3108005523682,11.2994260787964,11.2880735397339,11.2767448425293,11.265438079834,11.2541532516479,11.2428922653198,11.231653213501,11.2204370498657,11.2092428207397,11.198070526123,11.1869211196899,11.1757936477661,11.1646890640259,11.1536054611206,11.1425447463989,11.1315050125122,11.1204872131348,11.1094923019409,11.098518371582,11.0875654220581,11.0766353607178,11.0657262802124,11.054838180542,11.0439720153809,11.0331268310547,11.0223035812378,11.0115013122559,11.0007200241089,10.9899597167969,10.9792203903198,10.9685020446777,10.9578046798706,10.9471282958984,10.9364728927612,10.9258375167847,10.8380851745605,10.7329339981079,10.6298036575317,10.528636932373,10.4293766021729,10.3319711685181,10.2363681793213,10.1460180282593,10.0912408828735,10.0370531082153,9.98344421386719,9.93040466308594,9.87792491912842,9.82599830627441,9.77461338043213,9.72376441955566,9.67344093322754,9.62363624572754,9.5743408203125,9.52554893493652,9.47725105285645,9.42944049835205,9.38211059570312,9.33525276184082,9.28886127471924,9.24292755126953,9.19744682312012,9.15241146087646,9.10781478881836,9.06365013122559,9.01991271972656,8.97659492492676,8.93369102478027,8.89119529724121,8.84910202026367,8.80740547180176,8.76609992980957,8.72517967224121,8.68564224243164,8.6727466583252,8.65988922119141,8.64706993103027,8.6342887878418,8.62154579162598,8.60883903503418,8.59617042541504,8.58353900909424,8.57094478607178,8.55838775634766,8.54586696624756,8.53338241577148,8.52093505859375,8.50852394104004,8.49614810943604,8.48380851745605,8.4715051651001,8.45923709869385,8.4470043182373,8.43480777740479,8.42264556884766,8.41051864624023,8.39842700958252,8.38636875152588,8.37434673309326,8.36235809326172,8.35040378570557,8.3384838104248,8.32659816741943,8.31474590301514,8.30292701721191,8.29114246368408,8.27939128875732,8.26767253875732,8.25598812103271,8.24433517456055,8.23271656036377,8.22112941741943,8.20957565307617,8.19805431365967,8.18656444549561,8.17510795593262,8.16368293762207,8.15228939056396,8.14092826843262,8.12959766387939,8.11829948425293,8.10703277587891,8.09579753875732,8.08452415466309,8.07313823699951,8.0617847442627,8.05046272277832,8.03917217254639,8.02791309356689,8.01668643951416,8.00549030303955,7.99432611465454,7.98319292068481,7.97209024429321,7.96101856231689,7.94997787475586,7.93896722793579,7.92798757553101,7.91703796386719,7.90611886978149,7.89522933959961,7.88437032699585,7.8735408782959,7.86274099349976,7.85197067260742,7.8412299156189,7.83051872253418,7.81983661651611,7.8091835975647,7.79855966567993,7.78796434402466,7.77739810943604,7.76686000823975,7.75635099411011,7.7458701133728,7.73541736602783,7.72499322891235,7.71459674835205,7.70422840118408,7.69388771057129,7.68357467651367,7.67328977584839,7.66303205490112,7.65280151367188,7.6425986289978,7.63242244720459,7.62227344512939,7.61215162277222,7.6020565032959,7.5919885635376,7.581946849823,7.5719313621521,7.56194257736206,7.55198049545288,7.54204416275024,7.53213405609131,7.5201153755188,7.50669479370117,7.49332189559937,7.47999620437622,7.4667181968689,7.45348739624023,7.44030332565308,7.42716550827026,7.41407442092896,7.40102910995483,7.3880295753479,7.37507581710815,7.36216735839844,7.34930419921875,7.33648538589478,7.32371187210083,7.31098222732544,7.29829692840576,7.28565549850464,7.27305793762207,7.2605037689209,7.24799299240112,7.23552513122559,7.22310018539429,7.21071767807007,7.19837760925293,7.18607902526855,7.17382335662842,7.16160917282104,7.14943599700928,7.13730478286743,7.12521457672119,7.1131649017334,7.10115623474121,7.08918762207031,7.07726001739502,7.06537199020386,7.05352354049683,7.04171514511108,7.02994632720947,7.01821660995483,7.00652599334717,6.99487447738647,6.98326110839844,6.97168684005737,6.96015024185181,6.94865226745605,6.9371919631958,6.9257698059082,6.91438484191895,6.90303707122803,6.89172697067261,6.88045358657837,6.86921691894531,6.85801696777344,6.84685373306274,6.83572673797607,6.82463550567627,6.81358051300049,6.80256128311157,6.79157733917236,6.78062915802002,6.76971578598022,6.75883769989014,6.74799489974976,6.73718643188477,6.72641277313232,6.71567296981812,6.70496797561646,6.62052726745605,6.60375308990479,6.58706426620483,6.57045936584473,6.55393886566162,6.53635358810425,6.51815748214722,6.50006246566772,6.4820671081543,6.46417140960693,6.44637441635132,6.42867517471313,6.41107225418091,6.3935661315918,6.37615537643433,6.35883855819702,6.34161615371704,6.32448625564575,6.30744934082031,6.29050350189209,6.27364873886108,6.25688362121582,6.2402081489563,6.2236213684082,6.20712232589722,6.19071102142334,6.17438554763794,6.15814638137817,6.14257574081421,6.12793254852295
11.2613306045532,11.2613277435303,11.2613153457642,11.2613067626953,11.2612972259521,11.2612915039062,11.2612857818604,11.2612733840942,11.2612648010254,11.2612581253052,11.2612495422363,11.2612400054932,11.2612314224243,11.2612247467041,11.2612190246582,11.2612104415894,11.2612009048462,11.261191368103,11.2611827850342,11.2611770629883,11.2611675262451,11.2611618041992,11.2611494064331,11.2611398696899,11.2611312866211,11.2611246109009,11.261118888855,11.2611093521118,11.2611036300659,11.2610940933228,11.2610855102539,11.2610759735107,11.2610664367676,11.2610607147217,11.2610511779785,11.2610425949097,11.2610368728638,11.2610244750977,11.2610177993774,11.2610120773315,11.2610054016113,11.2609968185425,11.2609844207764,11.2609748840332,11.2609691619873,11.2609624862671,11.2609539031982,11.2609415054321,11.2609348297119,11.2609262466431,11.2609195709229,11.260913848877,11.2609043121338,11.2608947753906,11.2608861923218,11.2608766555786,11.2608709335327,11.2608613967896,11.2608518600464,11.2608423233032,11.2608366012573,11.2608270645142,11.260817527771,11.2608118057251,11.2608060836792,11.260796546936,11.2607870101929,11.2607774734497,11.2607717514038,11.2607622146606,11.2607526779175,11.2607469558716,11.2607374191284,11.2607278823853,11.2607192993164,11.2607126235962,11.260705947876,11.2606973648071,11.260687828064,11.2575168609619,11.2462482452393,11.2350025177002,11.2237796783447,11.2125787734985,11.2014007568359,11.1902446746826,11.1791105270386,11.1679983139038,11.1569089889526,11.1458406448364,11.1347951889038,11.1237716674805,11.1127691268921,11.101788520813,11.0908298492432,11.0798931121826,11.068977355957,11.0580835342407,11.0472106933594,11.036358833313,11.0255289077759,11.014720916748,11.0039329528809,10.9931659698486,10.9824209213257,10.9716968536377,10.9609928131104,10.9503107070923,10.9396486282349,10.9290075302124,10.9183864593506,10.8719501495361,10.7661447525024,10.6623783111572,10.5605926513672,10.460732460022,10.3627424240112,10.2665719985962,10.1855278015137,10.1303253173828,10.0757179260254,10.0216960906982,9.9682502746582,9.91537094116211,9.86305046081543,9.811279296875,9.76004791259766,9.70934963226318,9.65917491912842,9.60951709747314,9.56036567687988,9.51171588897705,9.46355819702148,9.41588497161865,9.36869049072266,9.32196617126465,9.27570629119873,9.22990322113037,9.18454933166504,9.13963985443115,9.09516716003418,9.05112552642822,9.00750827789307,8.9643087387085,8.92152214050293,8.87914180755615,8.83716201782227,8.79557800292969,8.7543830871582,8.71357250213623,8.67995834350586,8.66707992553711,8.6542387008667,8.64143657684326,8.62867164611816,8.61594486236572,8.60325527191162,8.59060287475586,8.57798767089844,8.56540966033936,8.55286884307861,8.54036426544189,8.5278959274292,8.51546478271484,8.5030689239502,8.49070930480957,8.47838592529297,8.46609783172607,8.4538459777832,8.44162845611572,8.42944717407227,8.4173002243042,8.40518856048584,8.39311218261719,8.38107013702393,8.36906242370605,8.35708904266357,8.34514999389648,8.33324527740479,8.32137393951416,8.30953693389893,8.29773330688477,8.28596305847168,8.27422618865967,8.26252269744873,8.25085163116455,8.23921394348145,8.22760963439941,8.21603679656982,8.20449733734131,8.19299030303955,8.18151473999023,8.17007255554199,8.15866088867188,8.14728164672852,8.1359338760376,8.12461853027344,8.1133337020874,8.10208034515381,8.09085845947266,8.07966804504395,8.06850719451904,8.05719661712646,8.0458869934082,8.0346097946167,8.02336406707764,8.01214981079102,8.00096607208252,7.98981428146362,7.97869348526001,7.96760368347168,7.95654439926147,7.94551610946655,7.9345178604126,7.92355060577393,7.91261291503906,7.90170621871948,7.89082908630371,7.87998151779175,7.86916446685791,7.85837650299072,7.84761810302734,7.83688974380493,7.82618999481201,7.8155198097229,7.80487823486328,7.79426574707031,7.78368234634399,7.77312755584717,7.76260137557983,7.75210380554199,7.74163436889648,7.73119306564331,7.72077989578247,7.71039533615112,7.70003795623779,7.6897087097168,7.67940711975098,7.66913270950317,7.65888643264771,7.6486668586731,7.63847494125366,7.62831020355225,7.61817216873169,7.60806083679199,7.59797668457031,7.58791923522949,7.57788848876953,7.56788396835327,7.55790615081787,7.54795408248901,7.53802871704102,7.52812910079956,7.51825523376465,7.50840759277344,7.49858570098877,7.48750448226929,7.4741997718811,7.46094226837158,7.44773149490356,7.43456745147705,7.4214506149292,7.40837907791138,7.3953537940979,7.38237428665161,7.36944055557251,7.35655164718628,7.34370803833008,7.33090877532959,7.31815433502197,7.30544424057007,7.29277801513672,7.28015613555908,7.26757764816284,7.25504207611084,7.24254989624023,7.23010110855103,7.2176947593689,7.20533037185669,7.19300889968872,7.18072938919067,7.16849136352539,7.15629529953003,7.14414024353027,7.13202667236328,7.11995410919189,7.10792255401611,7.09593152999878,7.08398056030273,7.07207012176514,7.06019973754883,7.04836893081665,7.0365777015686,7.02482604980469,7.01311302185059,7.00143957138062,6.98980474472046,6.97820854187012,6.96665048599243,6.95513105392456,6.94364976882935,6.93220567703247,6.92079973220825,6.90943145751953,6.89809989929199,6.88680601119995,6.87554836273193,6.86432790756226,6.85314416885376,6.84199666976929,6.83088493347168,6.81980991363525,6.80877017974854,6.79776620864868,6.78679800033569,6.77586507797241,6.76496744155884,6.75410461425781,6.74327707290649,6.73248338699341,6.72172451019287,6.71099996566772,6.70030975341797,6.68965339660645,6.60532379150391,6.58862638473511,6.57201385498047,6.55548477172852,6.53903961181641,6.52110052108765,6.50298881530762,6.48497772216797,6.46706581115723,6.44925260543823,6.43153762817383,6.41391944885254,6.39639759063721,6.37897109985352,6.36163949966431,6.34440183639526,6.32725715637207,6.31020498275757,6.29324436187744,6.27637481689453,6.25959539413452,6.2429051399231,6.22630405426025,6.20979118347168,6.19336557388306,6.17702627182007,6.16077327728271,6.14460563659668,6.12918376922607,6.11460447311401
11.196515083313,11.1965074539185,11.1964998245239,11.1964902877808,11.1964826583862,11.1964721679688,11.1964683532715,11.196457862854,11.1964511871338,11.196436882019,11.1964330673218,11.1964263916016,11.1964159011841,11.1964082717896,11.1964015960693,11.1963939666748,11.1963834762573,11.1963768005371,11.1963691711426,11.1963586807251,11.1963481903076,11.1963443756104,11.1963367462158,11.1963300704956,11.1963157653809,11.1963090896606,11.1963014602661,11.1962938308716,11.1962871551514,11.1962766647339,11.1962690353394,11.1962623596191,11.1962547302246,11.1962442398071,11.1962366104126,11.1962299346924,11.1962194442749,11.1962118148804,11.1962080001831,11.1961975097656,11.1961870193481,11.1961793899536,11.1961717605591,11.1961650848389,11.1961545944214,11.1961469650269,11.1961393356323,11.1961288452148,11.1961221694946,11.1961145401001,11.1961069107056,11.1960964202881,11.1960897445679,11.1960821151733,11.1960744857788,11.1960668563843,11.1960563659668,11.1960496902466,11.1960420608521,11.1960315704346,11.19602394104,11.1960163116455,11.1960096359253,11.1960020065308,11.1959886550903,11.1959838867188,11.1959762573242,11.1959686279297,11.1959581375122,11.1959476470947,11.1959409713745,11.1959362030029,11.1959257125854,11.1959180831909,11.1959104537964,11.1958999633789,11.1958961486816,11.1958856582642,11.1958780288696,11.1958675384521,11.1958599090576,11.1935691833496,11.1824283599854,11.1713104248047,11.160213470459,11.1491394042969,11.138087272644,11.1270570755005,11.1160478591919,11.1050615310669,11.0940961837769,11.0831527709961,11.0722303390503,11.0613298416138,11.0504512786865,11.0395936965942,11.0287570953369,11.0179414749146,11.0071477890015,10.9963750839233,10.9856233596802,10.974892616272,10.9641828536987,10.9534940719604,10.9428262710571,10.9321784973145,10.9215526580811,10.910945892334,10.9003610610962,10.799560546875,10.6951522827148,10.5927429199219,10.4922771453857,10.3936986923218,10.2969551086426,10.2253475189209,10.1697130203247,10.1146812438965,10.0602416992188,10.0063848495483,9.95310211181641,9.90038394927979,9.84822082519531,9.79660415649414,9.74552631378174,9.69497871398926,9.64495182037354,9.59543895721436,9.54643154144287,9.49792289733887,9.4499044418335,9.40236854553223,9.35530853271484,9.30871772766113,9.26258850097656,9.21691513061523,9.1716890335083,9.12690448760986,9.08255481719971,9.03863525390625,8.99513721466064,8.95205688476562,8.90938663482666,8.86712169647217,8.82525539398193,8.78378295898438,8.74269771575928,8.70199584960938,8.67428207397461,8.66141986846924,8.64859580993652,8.63580989837646,8.62306213378906,8.6103515625,8.59767818450928,8.58504295349121,8.57244396209717,8.55988216400146,8.5473575592041,8.53486824035645,8.52241706848145,8.51000118255615,8.49762153625488,8.48527717590332,8.4729700088501,8.46069717407227,8.44846057891846,8.43625926971436,8.42409324645996,8.41196250915527,8.39986610412598,8.38780498504639,8.37577724456787,8.36378479003906,8.35182666778564,8.33990287780762,8.32801342010498,8.3161563873291,8.30433464050293,8.29254531860352,8.28079032897949,8.26906776428223,8.25737857818604,8.24572277069092,8.23409938812256,8.22250938415527,8.21095085144043,8.19942569732666,8.18793201446533,8.17647171020508,8.16504287719727,8.15364551544189,8.14228057861328,8.13094711303711,8.11964511871338,8.10837364196777,8.09713459014893,8.0859260559082,8.07474899291992,8.06360244750977,8.05248641967773,8.04131698608398,8.03005218505859,8.01881885528564,8.00761795043945,7.99644708633423,7.98530769348145,7.97419929504395,7.96312189102173,7.95207548141479,7.94105911254883,7.93007373809814,7.91911840438843,7.90819311141968,7.89729833602905,7.88643312454224,7.87559795379639,7.8647928237915,7.85401678085327,7.84327077865601,7.83255386352539,7.82186603546143,7.81120729446411,7.80057811737061,7.78997707366943,7.77940511703491,7.76886224746704,7.7583475112915,7.74786138534546,7.73740339279175,7.72697353363037,7.71657180786133,7.70619821548462,7.69585227966309,7.68553400039673,7.67524385452271,7.6649808883667,7.65474510192871,7.6445369720459,7.63435554504395,7.62420177459717,7.61407470703125,7.60397481918335,7.59390115737915,7.58385467529297,7.57383441925049,7.56384086608887,7.55387306213379,7.54393196105957,7.53401708602905,7.52412796020508,7.5142650604248,7.50442790985107,7.49461603164673,7.48483037948608,7.47506999969482,7.46533489227295,7.45517492294312,7.4419846534729,7.42884111404419,7.41574382781982,7.4026927947998,7.38968753814697,7.37672805786133,7.36381387710571,7.35094451904297,7.33812046051025,7.32534074783325,7.31260585784912,7.29991483688354,7.28726768493652,7.27466487884521,7.26210498809814,7.24958848953247,7.23711538314819,7.224684715271,7.21229696273804,7.199951171875,7.1876482963562,7.17538690567017,7.16316699981689,7.15098905563354,7.1388521194458,7.12675666809082,7.11470222473145,7.10268783569336,7.09071445465088,7.07878160476685,7.06688833236694,7.05503511428833,7.04322147369385,7.03144788742065,7.01971292495728,7.00801753997803,6.99636077880859,6.98474264144897,6.97316312789917,6.96162223815918,6.95011901855469,6.93865394592285,6.92722702026367,6.91583728790283,6.90448474884033,6.89316987991333,6.88189172744751,6.87065029144287,6.85944604873657,6.84827756881714,6.83714628219604,6.82605075836182,6.81499052047729,6.80396699905396,6.79297876358032,6.7820258140564,6.77110815048218,6.76022577285767,6.7493782043457,6.73856544494629,6.72778701782227,6.71704292297363,6.70633411407471,6.6956582069397,6.68501663208008,6.67440891265869,6.5901894569397,6.57356882095337,6.55703210830688,6.54057836532593,6.52404546737671,6.50591802597046,6.48789072036743,6.46996259689331,6.4521336555481,6.43440294265747,6.41676902770996,6.39923143386841,6.38178968429565,6.36444282531738,6.34718990325928,6.33003044128418,6.31296300888062,6.29598760604858,6.27910327911377,6.26230955123901,6.24560499191284,6.22898960113525,6.21246194839478,6.19602251052856,6.17966938018799,6.16340208053589,6.14722061157227,6.1311240196228,6.11585092544556,6.10133457183838
11.1324405670166,11.1324291229248,11.132420539856,11.1324129104614,11.1324071884155,11.132399559021,11.1323909759521,11.1323795318604,11.1323747634888,11.1323661804199,11.1323575973511,11.1323461532593,11.1323413848877,11.1323356628418,11.13232421875,11.1323165893555,11.1323080062866,11.1323022842407,11.1322908401489,11.1322832107544,11.1322774887085,11.1322689056396,11.1322612762451,11.1322498321533,11.1322469711304,11.1322393417358,11.132227897644,11.1322193145752,11.1322135925293,11.1322059631348,11.1321973800659,11.1321859359741,11.1321802139282,11.1321716308594,11.1321640014648,11.1321582794189,11.1321468353271,11.1321382522583,11.1321296691895,11.1321249008179,11.132116317749,11.1321048736572,11.1320991516113,11.1320915222168,11.1320829391479,11.1320743560791,11.1320657730103,11.1320610046387,11.1320486068726,11.132043838501,11.1320352554321,11.1320266723633,11.1320180892944,11.1320095062256,11.1320018768311,11.1319961547852,11.1319875717163,11.1319789886475,11.1319675445557,11.1319618225098,11.1319570541382,11.1319456100464,11.1319370269775,11.1319284439087,11.1319227218628,11.1319141387939,11.1319026947021,11.1318969726562,11.1318893432617,11.1318807601929,11.131872177124,11.1318664550781,11.1318578720093,11.1318492889404,11.1318407058716,11.1318359375,11.1318235397339,11.1318159103394,11.1318073272705,11.1318016052246,11.1317930221558,11.131781578064,11.1317758560181,11.1303443908691,11.1193294525146,11.1083354949951,11.0973644256592,11.0864143371582,11.0754852294922,11.0645790100098,11.053692817688,11.0428295135498,11.0319862365723,11.021164894104,11.0103645324707,10.9995861053467,10.9888277053833,10.9780912399292,10.9673748016357,10.9566793441772,10.946005821228,10.9353523254395,10.9247188568115,10.9141073226929,10.9035158157349,10.8929443359375,10.8331851959229,10.7281284332275,10.6250905990601,10.5240125656128,10.4248390197754,10.3275175094604,10.2654790878296,10.2094087600708,10.1539478302002,10.0990858078003,10.0448141098022,9.99112129211426,9.93800067901611,9.88544178009033,9.83343505859375,9.78197383880615,9.73104763031006,9.68064880371094,9.63076972961426,9.58140182495117,9.53253841400146,9.48416996002197,9.43628978729248,9.38889026641846,9.341965675354,9.29550743103027,9.24950885772705,9.20396327972412,9.15886306762695,9.11420440673828,9.06997776031494,9.02617931365967,8.98280143737793,8.93983840942383,8.89728450775146,8.85513305664062,8.81338024139404,8.77201843261719,8.73104381561279,8.69044971466064,8.66861248016357,8.6557674407959,8.64296054840088,8.6301908493042,8.61746025085449,8.60476589202881,8.59210872650146,8.57948970794678,8.56690692901611,8.55436134338379,8.5418529510498,8.52937984466553,8.51694393157959,8.50454425811768,8.49218082427979,8.4798526763916,8.46756076812744,8.45530414581299,8.44308280944824,8.4308967590332,8.41874599456787,8.40663051605225,8.39454936981201,8.38250350952148,8.37049198150635,8.3585147857666,8.34657096862793,8.33466243743896,8.32278728485107,8.31094551086426,8.29913806915283,8.28736400604248,8.2756233215332,8.263916015625,8.25224113464355,8.24059963226318,8.22899055480957,8.21741485595703,8.20587158203125,8.19435977935791,8.18288135528564,8.17143440246582,8.16001987457275,8.14863681793213,8.13728523254395,8.1259651184082,8.11467742919922,8.10342025756836,8.09219455718994,8.08100032806396,8.06983661651611,8.05870342254639,8.04760074615479,8.03652954101562,8.02548789978027,8.01428031921387,8.00309085845947,7.99193286895752,7.98080635070801,7.96971035003662,7.95864534378052,7.9476113319397,7.93660736083984,7.92563390731812,7.91469097137451,7.90377807617188,7.89289522171021,7.8820424079895,7.87121963500977,7.86042594909668,7.84966230392456,7.83892774581909,7.82822275161743,7.81754684448242,7.80690002441406,7.79628229141235,7.78569316864014,7.77513313293457,7.76460123062134,7.7540979385376,7.74362325668335,7.73317670822144,7.72275829315186,7.71236801147461,7.7020058631897,7.6916708946228,7.68136405944824,7.67108488082886,7.66083288192749,7.6506085395813,7.64041137695312,7.63024091720581,7.62009811401367,7.60998201370239,7.59989261627197,7.58983039855957,7.57979393005371,7.56978464126587,7.55980157852173,7.54984474182129,7.53991413116455,7.53000974655151,7.52013111114502,7.51027870178223,7.50045204162598,7.49065065383911,7.48087501525879,7.47112512588501,7.46140050888062,7.45170068740845,7.44202661514282,7.43237733840942,7.42275333404541,7.41004610061646,7.39701509475708,7.38402986526489,7.37108993530273,7.35819530487061,7.34534597396851,7.33254146575928,7.31978130340576,7.30706548690796,7.29439353942871,7.28176593780518,7.26918172836304,7.25664091110229,7.24414348602295,7.23168897628784,7.21927690505981,7.20690774917603,7.19458055496216,7.18229532241821,7.17005252838135,7.15785121917725,7.14569091796875,7.13357210159302,7.12149429321289,7.10945749282837,7.09746122360229,7.08550548553467,7.07358932495117,7.06171417236328,7.04987812042236,7.03808164596558,7.02632522583008,7.01460742950439,7.00292873382568,6.99128913879395,6.97968769073486,6.96812534332275,6.95660066604614,6.94511413574219,6.93366575241089,6.92225503921509,6.91088151931763,6.89954566955566,6.88824653625488,6.87698459625244,6.86575937271118,6.8545708656311,6.84341859817505,6.83230257034302,6.82122278213501,6.81017875671387,6.79917049407959,6.78819751739502,6.77725982666016,6.76635789871216,6.75549077987671,6.74465799331665,6.7338604927063,6.72309732437134,6.71236848831177,6.70167398452759,6.69101333618164,6.68038606643677,6.66979312896729,6.65923404693604,6.57512474060059,6.55857992172241,6.54211854934692,6.52573919296265,6.50884962081909,6.49080610275269,6.47286224365234,6.45501756668091,6.4372706413269,6.41962099075317,6.40206813812256,6.38461065292358,6.36724853515625,6.34998035430908,6.33280563354492,6.31572341918945,6.29873371124268,6.2818341255188,6.2650260925293,6.24830675125122,6.23167705535889,6.21513557434082,6.19868135452271,6.18231439590454,6.16603326797485,6.14983797073364,6.13372755050659,6.11770105361938,6.10257530212402,6.08812189102173
11.0690898895264,11.0690832138062,11.0690746307373,11.0690650939941,11.0690593719482,11.0690498352051,11.0690402984619,11.069034576416,11.0690250396729,11.069019317627,11.0690097808838,11.0690002441406,11.0689945220947,11.0689888000488,11.0689764022827,11.0689697265625,11.0689601898193,11.0689573287964,11.0689487457275,11.0689363479614,11.0689296722412,11.0689239501953,11.0689144134521,11.0689086914062,11.0688962936401,11.0688924789429,11.068883895874,11.0688743591309,11.0688676834106,11.0688591003418,11.0688495635986,11.0688428878784,11.0688343048096,11.0688304901123,11.0688180923462,11.0688095092773,11.0688028335571,11.0687971115112,11.0687875747681,11.0687780380249,11.0687685012817,11.0687656402588,11.0687561035156,11.0687465667725,11.0687379837036,11.0687313079834,11.0687217712402,11.0687160491943,11.0687065124512,11.068699836731,11.0686912536621,11.0686817169189,11.0686750411987,11.0686693191528,11.0686569213867,11.0686502456665,11.0686407089233,11.0686378479004,11.0686283111572,11.0686187744141,11.0686092376709,11.068603515625,11.0685939788818,11.0685873031616,11.0685777664185,11.0685720443726,11.0685625076294,11.0685558319092,11.068546295166,11.0685405731201,11.068531036377,11.0685243606567,11.0685148239136,11.0685091018677,11.0684995651245,11.0684900283813,11.0684833526611,11.0684776306152,11.0684680938721,11.0684585571289,11.0684490203857,11.0684452056885,11.0684356689453,11.0684270858765,11.0684175491333,11.0678291320801,11.0569372177124,11.046067237854,11.0352182388306,11.0243902206421,11.0135841369629,11.0027980804443,10.9920339584351,10.9812908172607,10.9705686569214,10.959867477417,10.9491872787476,10.9385271072388,10.9278879165649,10.9172697067261,10.9066724777222,10.8960952758789,10.8855390548706,10.8670196533203,10.7613086700439,10.6576347351074,10.5559396743774,10.4561672210693,10.3630657196045,10.3059272766113,10.249415397644,10.1935195922852,10.1382303237915,10.0835380554199,10.0294322967529,9.97590446472168,9.92294406890869,9.87054443359375,9.81869411468506,9.7673864364624,9.71661186218262,9.66636180877686,9.6166296005249,9.56740665435791,9.51868438720703,9.47045612335205,9.42271423339844,9.37545108795166,9.3286600112915,9.28233337402344,9.23646450042725,9.19104766845703,9.14607429504395,9.10153865814209,9.05743598937988,9.01375770568848,8.97049808502197,8.92765235900879,8.88521480560303,8.84317779541016,8.80153656005859,8.76028633117676,8.71942043304443,8.67893409729004,8.66295051574707,8.65012264251709,8.63733196258545,8.62457942962646,8.61186504364014,8.59918689727783,8.58654689788818,8.57394409179688,8.56137752532959,8.54884815216064,8.53635501861572,8.52389907836914,8.51147842407227,8.49909496307373,8.4867467880249,8.4744348526001,8.462158203125,8.44991779327393,8.43771171569824,8.42554187774658,8.41340637207031,8.40130615234375,8.38924026489258,8.37720966339111,8.36521244049072,8.35325050354004,8.34132194519043,8.32942867279053,8.31756782531738,8.30574131011963,8.29394912719727,8.28218936920166,8.27046298980713,8.25876998901367,8.24711036682129,8.23548316955566,8.2238883972168,8.212327003479,8.20079803466797,8.18930053710938,8.17783546447754,8.16640281677246,8.15500259399414,8.14363288879395,8.13229560852051,8.12098979949951,8.10971546173096,8.09847259521484,8.08726024627686,8.07607936859131,8.06492900848389,8.05381011962891,8.04272079467773,8.031662940979,8.02063465118408,8.00963687896729,7.99856948852539,7.98742389678955,7.97630977630615,7.96522665023804,7.95417404174805,7.94315195083618,7.93216037750244,7.92119932174683,7.91026878356934,7.89936828613281,7.8884973526001,7.87765693664551,7.86684560775757,7.8560643196106,7.84531211853027,7.83458995819092,7.82389640808105,7.813232421875,7.8025975227356,7.79199123382568,7.78141403198242,7.77086544036865,7.76034498214722,7.74985361099243,7.73938989639282,7.72895479202271,7.71854782104492,7.70816898345947,7.6978178024292,7.6874942779541,7.67719888687134,7.66693067550659,7.65668964385986,7.64647626876831,7.63629007339478,7.62613105773926,7.6159987449646,7.60589361190796,7.59581518173218,7.58576345443726,7.57573795318604,7.56573963165283,7.55576705932617,7.54582071304321,7.53590059280396,7.5260066986084,7.51613903045654,7.50629663467407,7.4964804649353,7.48668956756592,7.47692441940308,7.46718454360962,7.45746994018555,7.44778060913086,7.43811655044556,7.42847776412964,7.41886377334595,7.40927457809448,7.39971017837524,7.39017009735107,7.37838077545166,7.36546087265015,7.3525857925415,7.33975601196289,7.32697057723999,7.31422996520996,7.30153322219849,7.28888082504272,7.27627229690552,7.26370716094971,7.25118494033813,7.23870611190796,7.22627019882202,7.21387720108032,7.20152616500854,7.18921756744385,7.17695093154907,7.16472578048706,7.15254259109497,7.14040040969849,7.12829971313477,7.11624002456665,7.10422039031982,7.0922417640686,7.08030366897583,7.06840562820435,7.05654716491699,7.04472875595093,7.03294944763184,7.02120971679688,7.00950908660889,6.99784755706787,6.98622465133667,6.97464036941528,6.96309423446655,6.95158672332764,6.94011688232422,6.9286847114563,6.91729021072388,6.90593290328979,6.89461326599121,6.88333034515381,6.87208461761475,6.86087512969971,6.84970283508301,6.83856630325317,6.82746601104736,6.81640195846558,6.8053731918335,6.79438018798828,6.78342294692993,6.77250099182129,6.7616138458252,6.75076198577881,6.73994493484497,6.72916221618652,6.71841382980347,6.70770025253296,6.69702005386353,6.68637418746948,6.67576217651367,6.66518402099609,6.65463924407959,6.644127368927,6.56012868881226,6.54365921020508,6.52727222442627,6.51096725463867,6.49372434616089,6.47576427459717,6.45790338516235,6.44014072418213,6.42247581481934,6.40490674972534,6.3874340057373,6.37005662918091,6.35277318954468,6.33558368682861,6.31848669052124,6.30148124694824,6.28456783294678,6.26774454116821,6.25101089477539,6.23436689376831,6.2178111076355,6.20134305953979,6.18496179580688,6.16866683959961,6.15245771408081,6.13633346557617,6.12029361724854,6.10433721542358,6.08935737609863,6.07496690750122
11.0064611434937,11.0064506530762,11.006441116333,11.0064373016357,11.0064268112183,11.006420135498,11.0064105987549,11.0064039230347,11.0063962936401,11.006386756897,11.0063800811768,11.0063724517822,11.006365776062,11.0063562393188,11.0063486099243,11.0063419342041,11.0063323974609,11.0063247680664,11.0063180923462,11.006311416626,11.0063047409058,11.0062913894653,11.0062847137451,11.0062770843506,11.0062704086304,11.0062637329102,11.0062503814697,11.0062465667725,11.006236076355,11.0062294006348,11.0062227249146,11.0062160491943,11.0062055587769,11.0061988830566,11.0061883926392,11.0061845779419,11.0061740875244,11.0061674118042,11.006157875061,11.0061502456665,11.0061435699463,11.0061330795288,11.0061292648315,11.0061197280884,11.0061120986938,11.0061025619507,11.0060987472534,11.0060882568359,11.0060815811157,11.0060710906982,11.006067276001,11.0060567855835,11.0060501098633,11.0060396194458,11.0060329437256,11.0060253143311,11.0060157775879,11.0060081481934,11.0060014724731,11.0059947967529,11.0059843063354,11.0059776306152,11.0059700012207,11.0059633255005,11.005952835083,11.0059461593628,11.0059385299683,11.005931854248,11.0059213638306,11.0059146881104,11.0059070587158,11.0058975219727,11.0058898925781,11.0058794021606,11.0058755874634,11.0058689117432,11.0058584213257,11.0058479309082,11.0058441162109,11.0058374404907,11.0058298110962,11.0058164596558,11.0058126449585,11.005805015564,11.0057983398438,11.0057878494263,11.0057811737061,11.0057706832886,10.9952421188354,10.9844932556152,10.9737644195557,10.9630565643311,10.9523696899414,10.941704750061,10.931058883667,10.9204349517822,10.9098310470581,10.8992481231689,10.8886852264404,10.8781423568726,10.8676204681396,10.7946949005127,10.6903800964355,10.588062286377,10.4876842498779,10.4042882919312,10.3466949462891,10.2897367477417,10.2334012985229,10.177680015564,10.1225624084473,10.0680379867554,10.0140981674194,9.96073341369629,9.90793418884277,9.85569190979004,9.80399703979492,9.75284194946289,9.7022180557251,9.65211772918701,9.60253143310547,9.55345153808594,9.5048713684082,9.45678234100342,9.40917778015137,9.36205005645752,9.31539249420166,9.26919746398926,9.2234582901001,9.17816829681396,9.13332080841064,9.08890914916992,9.0449275970459,9.00136947631836,8.95822906494141,8.91550064086914,8.87317752838135,8.83125400543213,8.7897253036499,8.74858474731445,8.70782852172852,8.67014598846436,8.6572961807251,8.6444845199585,8.63171100616455,8.61897563934326,8.606276512146,8.59361553192139,8.58099174499512,8.56840515136719,8.55585479736328,8.54334163665771,8.53086471557617,8.51842403411865,8.50602054595947,8.49365234375,8.48132038116455,8.46902370452881,8.45676326751709,8.44453811645508,8.43234729766846,8.42019271850586,8.40807247161865,8.39598751068115,8.38393783569336,8.37192153930664,8.35994052886963,8.34799289703369,8.33607959747314,8.32420063018799,8.31235504150391,8.30054378509521,8.2887659072876,8.27702140808105,8.26530933380127,8.25363063812256,8.24198532104492,8.23037242889404,8.21879291534424,8.20724487304688,8.19573020935059,8.18424797058105,8.17279720306396,8.16137790679932,8.14999103546143,8.13863658905029,8.12731266021729,8.11602115631104,8.10476016998291,8.09353065490723,8.08233261108398,8.07116508483887,8.06002807617188,8.04892253875732,8.0378475189209,8.02680206298828,8.01578712463379,8.00480270385742,7.99384880065918,7.98292016983032,7.97181844711304,7.96074771881104,7.94970750808716,7.93869781494141,7.92771863937378,7.91676998138428,7.90585136413574,7.89496278762817,7.88410425186157,7.87327575683594,7.86247634887695,7.85170698165894,7.84096717834473,7.83025646209717,7.81957530975342,7.80892276763916,7.79829931259155,7.7877049446106,7.77713918685913,7.76660203933716,7.75609350204468,7.74561357498169,7.73516130447388,7.72473812103271,7.71434211730957,7.70397424697876,7.69363451004028,7.68332242965698,7.67303800582886,7.66278076171875,7.65255117416382,7.6423487663269,7.63217353820801,7.62202501296997,7.61190414428711,7.60180950164795,7.59174203872681,7.58170080184937,7.57168626785278,7.5616979598999,7.55173635482788,7.54180097579956,7.53189134597778,7.52200794219971,7.51215076446533,7.50231885910034,7.49251270294189,7.48273229598999,7.47297763824463,7.46324777603149,7.4535436630249,7.4438648223877,7.43421077728271,7.42458200454712,7.41497802734375,7.40539884567261,7.39584445953369,7.38631439208984,7.37680912017822,7.36732816696167,7.35787200927734,7.34698486328125,7.33417463302612,7.32140874862671,7.30868721008301,7.29601001739502,7.28337669372559,7.27078676223755,7.25824022293091,7.24573755264282,7.23327732086182,7.22086000442505,7.20848512649536,7.19615316390991,7.18386268615723,7.17161417007446,7.15940713882446,7.14724206924438,7.13511800765991,7.12303495407104,7.11099290847778,7.09899139404297,7.0870304107666,7.07510948181152,7.06322908401489,7.05138778686523,7.03958654403687,7.02782487869263,7.01610231399536,7.00441884994507,6.99277400970459,6.98116779327393,6.96960020065308,6.95807075500488,6.94657945632935,6.93512630462646,6.92371082305908,6.91233253479004,6.90099143981934,6.88968801498413,6.87842130661011,6.86719131469727,6.85599803924561,6.84484148025513,6.83372068405151,6.82263612747192,6.81158781051636,6.8005747795105,6.7895975112915,6.77865552902222,6.76774883270264,6.75687694549561,6.74604034423828,6.73523807525635,6.7244701385498,6.71373701095581,6.70303821563721,6.69237327575684,6.6817421913147,6.67114448547363,6.66058111190796,6.6500506401062,6.63955354690552,6.62908935546875,6.6186580657959,6.52880620956421,6.51249361038208,6.496262550354,6.47866868972778,6.46079206466675,6.4430136680603,6.42533254623413,6.40774822235107,6.39026021957397,6.37286710739136,6.35556888580322,6.33836364746094,6.32125186920166,6.30423164367676,6.28730344772339,6.27046537399292,6.25371789932251,6.23705911636353,6.22048902511597,6.20400667190552,6.18761157989502,6.17130279541016,6.15507936477661,6.13894176483154,6.12288808822632,6.10691833496094,6.09103155136108,6.07619667053223,6.06186819076538
10.9445323944092,10.9445247650146,10.9445180892944,10.9445066452026,10.9444999694824,10.9444952011108,10.9444847106934,10.9444770812988,10.9444723129272,10.9444618225098,10.9444541931152,10.9444465637207,10.9444389343262,10.9444284439087,10.9444208145142,10.9444169998169,10.9444093704224,10.9444017410278,10.9443912506104,10.9443836212158,10.9443759918213,10.9443683624268,10.9443607330322,10.9443502426147,10.9443454742432,10.9443378448486,10.9443302154541,10.9443197250366,10.9443159103394,10.9443044662476,10.944296836853,10.9442892074585,10.9442853927612,10.9442749023438,10.9442672729492,10.9442596435547,10.9442520141602,10.9442443847656,10.9442329406738,10.9442253112793,10.944221496582,10.9442138671875,10.944206237793,10.9441947937012,10.9441909790039,10.9441795349121,10.9441719055176,10.9441680908203,10.9441566467285,10.944149017334,10.9441413879395,10.9441337585449,10.9441261291504,10.9441184997559,10.9441080093384,10.9441032409668,10.9440984725952,10.9440879821777,10.9440803527832,10.9440698623657,10.9440650939941,10.9440574645996,10.9440498352051,10.9440383911133,10.944034576416,10.9440269470215,10.9440155029297,10.9440116882324,10.9440002441406,10.9439926147461,10.9439849853516,10.943977355957,10.9439725875854,10.943962097168,10.9439544677734,10.9439458847046,10.9439420700073,10.9439306259155,10.943922996521,10.9439153671265,10.9439077377319,10.9439029693604,10.9438924789429,10.9438848495483,10.9438762664795,10.943868637085,10.9438610076904,10.9438533782959,10.9438457489014,10.9438381195068,10.9342317581177,10.9236011505127,10.9129915237427,10.9024019241333,10.8918333053589,10.8812847137451,10.8707571029663,10.8602495193481,10.8282890319824,10.7233266830444,10.6203804016113,10.5193920135498,10.4458389282227,10.3877868652344,10.330376625061,10.2735967636108,10.2174377441406,10.1618900299072,10.1069421768188,10.0525856018066,9.99881076812744,9.94560813903809,9.89296913146973,9.8408842086792,9.78934383392334,9.73834133148193,9.68786811828613,9.63791465759277,9.58847332000732,9.53953742980957,9.49109840393066,9.44314861297607,9.39568042755127,9.34868812561035,9.30216312408447,9.25609874725342,9.21048831939697,9.16532516479492,9.12060260772705,9.07631492614746,9.03245449066162,8.98901653289795,8.94599437713623,8.90338134765625,8.86117267608643,8.81936264038086,8.77794551849365,8.73691558837891,8.69626712799072,8.66448211669922,8.65164947509766,8.63885498046875,8.62609767913818,8.61337852478027,8.6006965637207,8.58805179595947,8.57544422149658,8.56287288665771,8.5503396987915,8.53784275054932,8.52538204193115,8.51295757293701,8.50056934356689,8.48821640014648,8.47590065002441,8.46362018585205,8.45137500762939,8.43916511535645,8.4269905090332,8.41485118865967,8.40274620056152,8.39067649841309,8.37864112854004,8.3666410446167,8.35467433929443,8.34274196624756,8.33084392547607,8.31898021697998,8.30714988708496,8.29535293579102,8.28358936309814,8.27185916900635,8.26016235351562,8.24849796295166,8.23686695098877,8.22526931762695,8.21370315551758,8.20217037200928,8.19066905975342,8.17920112609863,8.16776371002197,8.15635967254639,8.14498710632324,8.13364601135254,8.12233638763428,8.11105823516846,8.09981060028076,8.08859539031982,8.07741069793701,8.06625652313232,8.05513381958008,8.04404067993164,8.03297901153564,8.02194786071777,8.01094627380371,7.99997520446777,7.9890341758728,7.97812271118164,7.96724128723145,7.95627355575562,7.94524621963501,7.93424892425537,7.92328214645386,7.91234540939331,7.90143918991089,7.89056253433228,7.87971639633179,7.86889934539795,7.85811233520508,7.84735488891602,7.83662700653076,7.82592821121216,7.81525850296021,7.8046178817749,7.79400634765625,7.78342342376709,7.77286911010742,7.7623438835144,7.75184679031372,7.74137830734253,7.73093748092651,7.72052526473999,7.71014070510864,7.69978427886963,7.68945550918579,7.67915487289429,7.6688814163208,7.65863513946533,7.6484169960022,7.63822555541992,7.62806129455566,7.61792373657227,7.60781335830688,7.59772968292236,7.58767318725586,7.57764291763306,7.56763887405396,7.55766153335571,7.54771041870117,7.53778553009033,7.52788639068604,7.51801347732544,7.50816679000854,7.49834537506104,7.48854970932007,7.47877931594849,7.46903467178345,7.45931577682495,7.44962167739868,7.4399528503418,7.4303092956543,7.42069005966187,7.41109609603882,7.401526927948,7.3919825553894,7.38246297836304,7.37296772003174,7.36349630355835,7.35404968261719,7.34462738037109,7.33522891998291,7.32585430145264,7.31585502624512,7.3031530380249,7.29049444198608,7.27788019180298,7.26530933380127,7.25278186798096,7.24029779434204,7.22785663604736,7.21545791625977,7.20310163497925,7.19078779220581,7.17851543426514,7.16628551483154,7.15409660339355,7.14194917678833,7.12984323501587,7.11777830123901,7.10575389862061,7.09377002716064,7.08182668685913,7.06992340087891,7.05805969238281,7.04623651504517,7.03445243835449,7.02270746231079,7.01100206375122,6.99933528900146,6.98770761489868,6.97611808776855,6.9645676612854,6.95305490493774,6.94157981872559,6.93014287948608,6.91874408721924,6.90738201141357,6.89605760574341,6.88476991653442,6.87351942062378,6.86230516433716,6.85112810134888,6.83998680114746,6.82888221740723,6.81781339645386,6.80678033828735,6.79578304290771,6.78482103347778,6.77389430999756,6.76300287246704,6.75214672088623,6.74132490158081,6.73053789138794,6.71978521347046,6.70906686782837,6.69838285446167,6.6877326965332,6.67711639404297,6.66653347015381,6.65598440170288,6.64546823501587,6.63498592376709,6.62453603744507,6.61411905288696,6.60373497009277,6.51402044296265,6.49778127670288,6.48157644271851,6.46368312835693,6.44588899612427,6.42819213867188,6.41059255599976,6.39308881759644,6.37568044662476,6.3583664894104,6.34114646911621,6.32401943206787,6.30698490142822,6.29004144668579,6.27318906784058,6.25642681121826,6.23975372314453,6.22316932678223,6.20667266845703,6.19026327133179,6.17394065856934,6.15770387649536,6.14155197143555,6.12548494338989,6.10950136184692,6.09360122680664,6.07778406143188,6.06309270858765,6.04882526397705
