19.242208480835,19.2426929473877,19.2431697845459,19.24365234375,19.2441329956055,19.2446136474609,19.245096206665,19.2455768585205,19.2460613250732,19.2465438842773,19.2470226287842,19.2475051879883,19.2479877471924,19.2484703063965,19.2489528656006,19.2494316101074,19.2499122619629,19.250394821167,19.2508773803711,19.2513599395752,19.2518424987793,19.2523231506348,19.2528076171875,19.2532863616943,19.2537670135498,19.2542514801025,19.254732131958,19.2552146911621,19.2556972503662,19.2561779022217,19.2566604614258,19.2571411132812,19.257625579834,19.2581062316895,19.2585926055908,19.2590732574463,19.2595520019531,19.2600345611572,19.2605171203613,19.2609996795654,19.2614822387695,19.2619647979736,19.2624473571777,19.2629280090332,19.2634124755859,19.2638931274414,19.2643775939941,19.2648582458496,19.2653388977051,19.2658233642578,19.2663040161133,19.2667903900146,19.2672729492188,19.2677536010742,19.2682361602783,19.2687168121338,19.2692012786865,19.2696838378906,19.2701663970947,19.2706489562988,19.2711315155029,19.2716159820557,19.2720985412598,19.2725811004639,19.2730617523193,19.2735443115234,19.2740287780762,19.2745094299316,19.274995803833,19.2754783630371,19.2759609222412,19.2764434814453,19.2769260406494,19.2774105072021,19.2778911590576,19.2783756256104,19.2788600921631,19.2793407440186,19.2798252105713,19.2803058624268,19.2807922363281,19.2812747955322,19.2817573547363,19.2822418212891,19.2827224731445,19.2832088470459,19.28369140625,19.2841758728027,19.2846584320068,19.2851448059082,19.2856254577637,19.2861099243164,19.2865924835205,19.2870769500732,19.287561416626,19.2880420684814,19.2885265350342,19.2890090942383,19.289493560791,19.2899780273438,19.2904605865479,19.2909450531006,19.2914295196533,19.2919120788574,19.2923965454102,19.2928810119629,19.2933654785156,19.2938480377197,19.2943286895752,19.2948131561279,19.2952995300293,19.2957820892334,19.2962684631348,19.2967529296875,19.2972354888916,19.297721862793,19.2982063293457,19.2986927032471,19.2991733551025,19.2996578216553,19.3001441955566,19.3006286621094,19.3011131286621,19.3015995025635,19.3020839691162,19.3025684356689,19.3030548095703,19.3035373687744,19.3040218353271,19.3045063018799,19.3049926757812,19.305477142334,19.3059635162354,19.3064479827881,19.3069343566895,19.3074188232422,19.3079032897949,19.3083896636963,19.308874130249,19.3093585968018,19.3098430633545,19.3103275299072,19.3108139038086,19.31130027771,19.3117847442627,19.3122711181641,19.3127555847168,19.3132419586182,19.3137264251709,19.3142108917236,19.3146953582764,19.3151817321777,19.3156681060791,19.3161525726318,19.3166389465332,19.3171253204346,19.3176116943359,19.3180961608887,19.31858253479,19.3190689086914,19.3195514678955,19.3200378417969,19.3205261230469,19.3210105895996,19.3214950561523,19.3219833374023,19.3224678039551,19.3229541778564,19.3234405517578,19.3239250183105,19.3244094848633,19.3248958587646,19.325382232666,19.3258686065674,19.3263549804688,19.3268432617188,19.3273277282715,19.3278141021729,19.3282985687256,19.3287868499756,19.3292713165283,19.3297576904297,19.3302440643311,19.3307285308838,19.3312168121338,19.3317031860352,19.3321895599365,19.3326759338379,19.3331623077393,19.3336486816406,19.3341331481934,19.3346214294434,19.3351078033447,19.3355922698975,19.3360824584961,19.3365688323975,19.3370532989502,19.3375396728516,19.3380279541016,19.3385143280029,19.3389987945557,19.339485168457,19.339973449707,19.3404598236084,19.3409461975098,19.3414344787598,19.3419208526611,19.3424072265625,19.3428936004639,19.3433818817139,19.3438682556152,19.344352722168,19.344841003418,19.345329284668,19.3458156585693,19.3463039398193,19.3467884063721,19.3472766876221,19.3477649688721,19.3482513427734,19.3487358093262,19.3492240905762,19.3497142791748,19.3502006530762,19.3506851196289,19.3511734008789,19.3516616821289,19.3521499633789,19.3526382446289,19.3531246185303,19.3536109924316,19.3540992736816,19.3545875549316,19.355073928833,19.3555603027344,19.3560485839844,19.3565368652344,19.3570232391357,19.3575115203857,19.3579998016357,19.3584861755371,19.3589725494385,19.3594608306885,19.3599491119385,19.3604373931885,19.3609237670898,19.3614120483398,19.3619003295898,19.3623905181885,19.3628768920898,19.3633651733398,19.3638515472412,19.3643398284912,19.3648262023926,19.3653144836426,19.3658046722412,19.3662910461426,19.3667812347412,19.3672676086426,10.0428886413574,9.66566467285156,9.31575202941895,8.99028968811035,8.92344760894775,8.89065170288086,8.8580961227417,8.82577800750732,8.7936954498291,8.76184463500977,8.73022365570068,8.69883060455322,8.66766262054443,8.63671684265137,8.60599136352539,8.57548332214355,8.54519081115723,8.51511192321777,8.48524379730225,8.45558452606201,8.42613220214844,8.39688396453857,8.36783885955811,8.33899307250977,8.31034564971924,8.28189468383789,8.25363731384277,8.22557353973389,8.19769859313965,8.17001247406006,8.14251232147217,8.11519718170166,8.08806419372559,8.06111240386963,8.03433895111084,8.0077428817749,7.9813232421875,7.95507669448853,7.92900228500366,7.90309858322144,7.87736320495605,7.85179471969604,7.82639217376709,7.81023073196411,7.795485496521,7.78079605102539,7.76616144180298,7.75158214569092,7.73705768585205,7.72258710861206,7.70817089080811,7.69380807876587,7.67949867248535,7.66524267196655,7.65103960037231,7.63688850402832,7.62279033660889,7.60874366760254,7.59474897384644,7.58080530166626,7.56691312789917,7.55307149887085,7.5392804145813,7.52553987503052,7.51184892654419,7.49820804595947,7.48461627960205,7.47107410430908,7.45758056640625,7.44413566589355,7.430739402771,7.32685375213623,7.30645799636841,7.28617525100708,7.26600503921509,7.24594593048096,7.22599697113037,7.20615816116333,7.1864275932312,7.16680526733398,7.14728927612305,7.12787961959839,7.10857486724854,7.08937454223633,7.07027673721313,7.05127811431885,7.03238105773926,7.01358509063721,6.99488925933838,6.97629308700562,6.95779514312744,6.93939590454102,6.92109298706055,6.90288639068604,6.88477563858032,6.86675930023193,6.84883689880371,6.83072710037231,6.81116724014282,6.79171895980835,6.77238178253174,6.75315427780151,6.73403549194336,6.71502494812012,6.69612121582031,6.67732334136963
19.054536819458,19.0550136566162,19.0554809570312,19.0559539794922,19.0564250946045,19.0569019317627,19.0573673248291,19.0578422546387,19.058313369751,19.0587863922119,19.059253692627,19.0597305297852,19.0602016448975,19.0606746673584,19.0611419677734,19.0616188049316,19.0620918273926,19.0625610351562,19.0630321502686,19.0635089874268,19.0639820098877,19.0644550323486,19.0649242401123,19.0653972625732,19.0658702850342,19.0663452148438,19.0668182373047,19.0672912597656,19.0677623748779,19.0682334899902,19.0687065124512,19.0691795349121,19.0696544647217,19.070125579834,19.0705986022949,19.0710716247559,19.0715446472168,19.0720176696777,19.07248878479,19.072961807251,19.0734329223633,19.0739059448242,19.0743808746338,19.0748538970947,19.0753288269043,19.0757999420166,19.0762710571289,19.0767478942871,19.0772190093994,19.077693939209,19.0781631469727,19.0786380767822,19.0791110992432,19.0795822143555,19.080057144165,19.0805320739746,19.0810050964355,19.0814762115479,19.0819492340088,19.0824222564697,19.0828971862793,19.0833702087402,19.0838451385498,19.0843200683594,19.0847911834717,19.085262298584,19.0857391357422,19.0862121582031,19.0866851806641,19.087158203125,19.0876312255859,19.0881061553955,19.0885791778564,19.089054107666,19.089527130127,19.0900001525879,19.0904731750488,19.0909481048584,19.091423034668,19.0918941497803,19.0923690795898,19.0928440093994,19.0933170318604,19.0937900543213,19.0942649841309,19.0947399139404,19.0952110290527,19.0956878662109,19.0961589813232,19.0966339111328,19.0971088409424,19.0975818634033,19.0980567932129,19.0985298156738,19.099006652832,19.0994815826416,19.0999546051025,19.1004276275635,19.100902557373,19.1013774871826,19.1018505096436,19.1023235321045,19.1028003692627,19.1032733917236,19.1037483215332,19.1042213439941,19.1046981811523,19.1051712036133,19.1056442260742,19.1061191558838,19.1065940856934,19.1070709228516,19.1075439453125,19.1080169677734,19.1084938049316,19.1089687347412,19.1094436645508,19.1099166870117,19.1103935241699,19.1108684539795,19.1113452911377,19.1118183135986,19.1122951507568,19.1127700805664,19.1132431030273,19.1137218475342,19.1141967773438,19.1146717071533,19.1151447296143,19.1156215667725,19.116096496582,19.1165714263916,19.1170482635498,19.1175231933594,19.1179981231689,19.1184768676758,19.1189517974854,19.1194267272949,19.1199016571045,19.1203784942627,19.1208534240723,19.1213302612305,19.12180519104,19.1222820281982,19.1227569580078,19.123233795166,19.1237106323242,19.1241855621338,19.1246604919434,19.1251354217529,19.1256122589111,19.1260871887207,19.1265640258789,19.1270389556885,19.1275177001953,19.1279926300049,19.1284694671631,19.1289463043213,19.1294212341309,19.1298961639404,19.1303730010986,19.1308498382568,19.131326675415,19.1318016052246,19.1322784423828,19.1327571868896,19.1332321166992,19.1337089538574,19.1341857910156,19.1346607208252,19.1351356506348,19.135612487793,19.1360893249512,19.1365661621094,19.1370410919189,19.1375198364258,19.1379947662354,19.1384735107422,19.1389503479004,19.13942527771,19.1399021148682,19.1403789520264,19.1408557891846,19.1413326263428,19.141809463501,19.1422863006592,19.1427631378174,19.1432399749756,19.1437168121338,19.144193649292,19.1446704864502,19.1451473236084,19.1456241607666,19.1461009979248,19.146577835083,19.1470565795898,19.147533416748,19.1480102539062,19.1484870910645,19.1489639282227,19.1494407653809,19.1499195098877,19.1503963470459,19.1508731842041,19.1513500213623,19.1518268585205,19.1523036956787,19.1527824401855,19.1532611846924,19.1537380218506,19.1542129516602,19.1546897888184,19.1551685333252,19.1556453704834,19.1561241149902,19.1566028594971,19.1570777893066,19.1575584411621,19.1580352783203,19.1585121154785,19.1589889526367,19.1594676971436,19.1599445343018,19.16042137146,19.1609001159668,19.1613788604736,19.1618556976318,19.1623344421387,19.1628131866455,19.1632900238037,19.1637668609619,19.1642456054688,19.1647243499756,19.1651992797852,19.1656799316406,19.1661567687988,19.1666355133057,19.1671123504639,19.1675930023193,19.1680698394775,19.1685466766357,19.1690235137939,19.1695022583008,19.1699810028076,19.1704597473145,19.1709384918213,19.1714153289795,19.171895980835,19.1723728179932,19.1728515625,19.1733322143555,19.1738090515137,19.1742858886719,19.1747646331787,19.1752433776855,19.1757221221924,19.1761989593506,19.1766815185547,10.037522315979,9.66069316864014,9.31113433837891,8.98598861694336,8.90602016448975,8.87335205078125,8.84092235565186,8.80873012542725,8.77677059173584,8.745041847229,8.71354198455811,8.6822681427002,8.65121841430664,8.62038993835449,8.5897798538208,8.55938720703125,8.52920818328857,8.49924182891846,8.46948432922363,8.4399356842041,8.41059112548828,8.38145065307617,8.35251140594482,8.32377147674561,8.29522895812988,8.26688098907471,8.23872566223145,8.21076202392578,8.18298816680908,8.15540027618408,8.1279993057251,8.10078048706055,8.07374382019043,8.04688739776611,8.02020835876465,7.99370622634888,7.96737861633301,7.94122362136841,7.9152398109436,7.88942527770996,7.86377906799316,7.83829879760742,7.81841564178467,7.80363988876343,7.78891944885254,7.774254322052,7.75964498519897,7.74509000778198,7.73058938980103,7.7161431312561,7.70175075531006,7.68741226196289,7.67312669754028,7.65889406204224,7.64471435546875,7.63058710098267,7.61651182174683,7.60248804092407,7.58851623535156,7.57459592819214,7.56072616577148,7.5469069480896,7.53313875198364,7.51942014694214,7.50575160980225,7.49213266372681,7.47856330871582,7.46504259109497,7.45157098770142,7.438148021698,7.42477321624756,7.4114465713501,7.30825614929199,7.28796339035034,7.26778268814087,7.24771404266357,7.22775602340698,7.20790719985962,7.18816709518433,7.16853523254395,7.149010181427,7.12959051132202,7.11027669906616,7.09106731414795,7.07196140289307,7.05295658111572,7.03405094146729,7.01524591445923,6.99654150009155,6.97793626785278,6.95943021774292,6.94102144241333,6.92270994186401,6.90449523925781,6.88637590408325,6.86835145950317,6.85042095184326,6.83258390426636,6.81424427032471,6.79477882385254,6.77542400360107,6.756178855896,6.7370433807373,6.71801567077637,6.69909524917603,6.68028116226196,6.66157197952271
18.8704891204834,18.8709506988525,18.8714122772217,18.8718776702881,18.8723430633545,18.8728046417236,18.8732643127441,18.8737297058105,18.874195098877,18.8746566772461,18.8751201629639,18.8755798339844,18.8760433197021,18.8765106201172,18.8769721984863,18.8774356842041,18.8778991699219,18.8783645629883,18.8788261413574,18.8792915344238,18.879753112793,18.8802185058594,18.8806781768799,18.8811435699463,18.8816051483154,18.8820705413818,18.8825340270996,18.8829975128174,18.8834609985352,18.8839244842529,18.8843879699707,18.8848514556885,18.8853168487549,18.8857765197754,18.8862400054932,18.8867053985596,18.8871688842773,18.8876342773438,18.8880958557129,18.8885593414307,18.8890247344971,18.8894882202148,18.8899517059326,18.8904151916504,18.8908805847168,18.8913440704346,18.8918075561523,18.8922710418701,18.8927345275879,18.8931999206543,18.8936634063721,18.8941268920898,18.8945922851562,18.895055770874,18.8955211639404,18.8959846496582,18.896448135376,18.8969135284424,18.8973751068115,18.8978424072266,18.8983039855957,18.8987693786621,18.8992328643799,18.8996963500977,18.9001617431641,18.9006252288818,18.9010887145996,18.901554107666,18.9020175933838,18.9024829864502,18.9029483795166,18.9034118652344,18.9038772583008,18.9043426513672,18.9048080444336,18.9052715301514,18.9057350158691,18.9062004089355,18.9066638946533,18.9071273803711,18.9075946807861,18.9080581665039,18.9085216522217,18.9089889526367,18.9094524383545,18.9099178314209,18.9103813171387,18.9108486175537,18.9113121032715,18.9117774963379,18.9122428894043,18.9127063751221,18.9131717681885,18.9136371612549,18.9141025543213,18.9145679473877,18.9150314331055,18.9154968261719,18.9159622192383,18.9164276123047,18.9168910980225,18.9173564910889,18.9178218841553,18.9182872772217,18.9187545776367,18.9192180633545,18.9196834564209,18.9201488494873,18.9206142425537,18.9210815429688,18.9215450286865,18.9220123291016,18.9224758148193,18.9229412078857,18.9234066009521,18.9238719940186,18.924337387085,18.9247989654541,18.9252681732178,18.9257335662842,18.9261989593506,18.9266662597656,18.9271335601807,18.9275989532471,18.9280662536621,18.9285335540771,18.9289989471436,18.9294624328613,18.9299297332764,18.9303970336914,18.9308624267578,18.9313297271729,18.9317951202393,18.9322605133057,18.9327278137207,18.9331970214844,18.9336605072021,18.9341278076172,18.9345932006836,18.9350605010986,18.935525894165,18.9359931945801,18.9364624023438,18.9369258880615,18.9373931884766,18.9378604888916,18.9383277893066,18.9387950897217,18.9392604827881,18.9397277832031,18.9401931762695,18.9406604766846,18.9411296844482,18.941593170166,18.9420623779297,18.9425296783447,18.9429950714111,18.9434623718262,18.9439296722412,18.9443950653076,18.9448623657227,18.9453296661377,18.9457969665527,18.9462642669678,18.9467315673828,18.9472007751465,18.9476661682129,18.9481315612793,18.9485988616943,18.949068069458,18.9495334625244,18.9500026702881,18.9504699707031,18.9509372711182,18.9514045715332,18.9518737792969,18.9523391723633,18.9528064727783,18.9532737731934,18.9537391662598,18.9542083740234,18.9546756744385,18.9551448822021,18.9556102752686,18.9560794830322,18.9565467834473,18.9570140838623,18.957483291626,18.957950592041,18.9584140777588,18.9588832855225,18.9593505859375,18.9598197937012,18.9602870941162,18.9607563018799,18.9612255096436,18.96169090271,18.9621620178223,18.9626293182373,18.9630928039551,18.9635620117188,18.9640312194824,18.9644985198975,18.9649677276611,18.9654350280762,18.9659042358398,18.9663715362549,18.9668388366699,18.9673080444336,18.9677753448486,18.9682445526123,18.9687118530273,18.969181060791,18.9696483612061,18.9701175689697,18.9705867767334,18.9710540771484,18.9715213775635,18.9719905853271,18.9724578857422,18.9729270935059,18.9733943939209,18.9738636016846,18.9743328094482,18.9748001098633,18.975269317627,18.9757385253906,18.9762077331543,18.976676940918,18.9771461486816,18.977611541748,18.9780826568604,18.9785499572754,18.9790191650391,18.9794864654541,18.9799556732178,18.9804248809814,18.9808940887451,18.9813632965088,18.9818325042725,18.9822998046875,18.9827690124512,18.9832382202148,18.9837055206299,18.9841766357422,18.9846439361572,18.9851131439209,18.9855842590332,18.9860515594482,18.9865207672119,18.9869899749756,18.9874591827393,18.9879264831543,18.9883975982666,18.9888668060303,18.9893341064453,18.9898052215576,10.0321626663208,9.65572834014893,9.30652141571045,8.98169231414795,8.8886604309082,8.85611915588379,8.82381534576416,8.79174709320068,8.75991058349609,8.72830390930176,8.69692420959473,8.66576957702637,8.63483715057373,8.60412502288818,8.57363033294678,8.54335117340088,8.51328468322754,8.48342990875244,8.45378303527832,8.42434310913086,8.39510822296143,8.36607456207275,8.33724117279053,8.30860614776611,8.28016662597656,8.25192165374756,8.22386837005615,8.19600486755371,8.16833019256592,8.14084148406982,8.1135368347168,8.08641529083252,8.05947494506836,8.03271198272705,8.00612735748291,7.97971820831299,7.95348215103149,7.92741823196411,7.90152454376221,7.87579965591431,7.85024118423462,7.82661819458008,7.8118109703064,7.79706001281738,7.78236436843872,7.76772403717041,7.75313901901245,7.73860836029053,7.72413206100464,7.70971012115479,7.69534158706665,7.68102645874023,7.66676473617554,7.6525559425354,7.63839960098267,7.62429571151733,7.61024332046509,7.59624290466309,7.58229398727417,7.56839609146118,7.55454921722412,7.54075288772583,7.52700662612915,7.51331090927124,7.49966430664062,7.48606777191162,7.47251987457275,7.45902109146118,7.4455714225769,7.43216991424561,7.41881656646729,7.40551090240479,7.31005477905273,7.28975200653076,7.26956224441528,7.24948358535767,7.22951555252075,7.20965719223022,7.18990755081177,7.17026567459106,7.15073108673096,7.13130283355713,7.11197948455811,7.09276103973389,7.07364559173584,7.05463361740112,7.03572177886963,7.01690769195557,6.99819421768188,6.97958040237427,6.96106576919556,6.94264841079712,6.92432832717896,6.90610456466675,6.8879771232605,6.86994409561157,6.85200548171997,6.83416032791138,6.81640768051147,6.79784107208252,6.7784686088562,6.75920677185059,6.74005365371704,6.72100925445557,6.70207166671753,6.68324089050293,6.66451549530029,6.6458945274353
18.689962387085,18.6904182434082,18.6908721923828,18.6913280487061,18.6917819976807,18.692232131958,18.6926860809326,18.6931438446045,18.6936016082764,18.6940460205078,18.6944999694824,18.6949596405029,18.6954135894775,18.6958656311035,18.6963195800781,18.69677734375,18.6972312927246,18.6976871490479,18.6981391906738,18.6985931396484,18.6990489959717,18.6995067596436,18.6999568939209,18.7004127502441,18.7008686065674,18.7013244628906,18.7017765045166,18.7022304534912,18.7026882171631,18.7031421661377,18.7035980224609,18.7040519714355,18.7045078277588,18.7049617767334,18.705415725708,18.7058715820312,18.7063255310059,18.7067813873291,18.7072353363037,18.7076892852783,18.7081470489502,18.7085990905762,18.7090549468994,18.709508895874,18.7099628448486,18.7104206085205,18.7108764648438,18.711332321167,18.711784362793,18.7122421264648,18.7126960754395,18.7131500244141,18.7136077880859,18.7140617370605,18.7145175933838,18.7149715423584,18.7154273986816,18.7158813476562,18.7163372039795,18.7167930603027,18.7172470092773,18.7177047729492,18.7181587219238,18.7186145782471,18.7190723419189,18.7195243835449,18.7199821472168,18.7204360961914,18.720890045166,18.7213478088379,18.7218017578125,18.722261428833,18.7227153778076,18.7231712341309,18.7236270904541,18.7240810394287,18.724536895752,18.7249927520752,18.7254505157471,18.7259044647217,18.7263603210449,18.7268161773682,18.7272720336914,18.7277278900146,18.7281837463379,18.7286415100098,18.7290954589844,18.7295513153076,18.7300090789795,18.7304649353027,18.7309188842773,18.7313766479492,18.7318325042725,18.7322883605957,18.7327442169189,18.7332000732422,18.7336559295654,18.7341136932373,18.7345695495605,18.7350254058838,18.735481262207,18.7359390258789,18.7363948822021,18.7368507385254,18.7373085021973,18.7377624511719,18.7382183074951,18.738676071167,18.7391300201416,18.7395896911621,18.7400455474854,18.74049949646,18.7409572601318,18.7414150238037,18.7418727874756,18.7423286437988,18.7427864074707,18.7432403564453,18.7436981201172,18.7441539764404,18.7446117401123,18.7450675964355,18.7455253601074,18.7459812164307,18.7464389801025,18.746898651123,18.7473564147949,18.7478103637695,18.7482681274414,18.7487258911133,18.7491817474365,18.749641418457,18.7500991821289,18.7505569458008,18.7510147094727,18.7514705657959,18.7519283294678,18.752384185791,18.7528438568115,18.7533016204834,18.7537574768066,18.7542171478271,18.754674911499,18.7551307678223,18.7555904388428,18.7560482025146,18.7565059661865,18.7569618225098,18.7574214935303,18.7578792572021,18.7583351135254,18.7587947845459,18.7592544555664,18.7597103118896,18.7601680755615,18.7606258392334,18.7610855102539,18.7615432739258,18.761999130249,18.7624568939209,18.7629165649414,18.7633743286133,18.7638320922852,18.7642917633057,18.7647495269775,18.765209197998,18.7656650543213,18.7661247253418,18.7665824890137,18.7670383453369,18.7674980163574,18.7679576873779,18.7684154510498,18.7688732147217,18.7693328857422,18.7697906494141,18.7702503204346,18.7707099914551,18.7711658477783,18.7716236114502,18.7720813751221,18.7725410461426,18.7729988098145,18.773458480835,18.7739181518555,18.774377822876,18.7748355865479,18.7752933502197,18.7757511138916,18.7762107849121,18.776668548584,18.7771282196045,18.7775859832764,18.7780456542969,18.7785053253174,18.7789630889893,18.7794227600098,18.7798824310303,18.7803421020508,18.780797958374,18.7812576293945,18.781717300415,18.7821750640869,18.7826347351074,18.7830944061279,18.7835540771484,18.7840137481689,18.7844734191895,18.78493309021,18.7853908538818,18.7858486175537,18.7863082885742,18.7867660522461,18.7872276306152,18.7876873016357,18.7881469726562,18.7886047363281,18.7890663146973,18.7895259857178,18.7899837493896,18.7904434204102,18.7909030914307,18.7913627624512,18.7918224334717,18.7922840118408,18.7927398681641,18.7932014465332,18.7936611175537,18.7941207885742,18.7945785522461,18.7950401306152,18.7954998016357,18.7959575653076,18.7964172363281,18.7968788146973,18.7973384857178,18.7977981567383,18.7982578277588,18.7987174987793,18.7991771697998,18.7996368408203,18.8000946044922,18.8005561828613,18.8010158538818,18.801477432251,18.8019371032715,18.802396774292,18.8028583526611,18.803316116333,18.8037776947021,18.804235458374,18.8046951293945,18.8051567077637,18.8056163787842,18.8060779571533,10.3139533996582,10.0268077850342,9.65076732635498,9.30191326141357,8.9773998260498,8.87136745452881,8.83895301818848,8.8067741394043,8.77482891082764,8.74311447143555,8.71162891387939,8.68036937713623,8.64933300018311,8.61851787567139,8.58792114257812,8.55754089355469,8.52737522125244,8.49742126464844,8.46767711639404,8.43813991546631,8.40880870819092,8.37968063354492,8.35075378417969,8.32202625274658,8.29349517822266,8.26515865325928,8.23701572418213,8.20906352996826,8.18130111694336,8.15372467041016,8.12633419036865,8.0991268157959,8.07210159301758,8.04525566101074,8.01858806610107,7.99209594726562,7.96577882766724,7.93963432312012,7.91366100311279,7.88785696029663,7.86222076416016,7.83675050735474,7.81999921798706,7.80521726608276,7.79049110412598,7.77582025527954,7.76120471954346,7.74664402008057,7.73213768005371,7.71768569946289,7.70328760147095,7.68894290924072,7.67465162277222,7.66041374206543,7.64622831344604,7.63209533691406,7.61801433563232,7.60398578643799,7.59000825881958,7.57608222961426,7.56220722198486,7.54838275909424,7.53460884094238,7.52088499069214,7.50721120834351,7.49358701705933,7.4800124168396,7.46648645401001,7.45300960540771,7.43958139419556,7.42620134353638,7.41286945343018,7.39958524703979,7.38634872436523,7.29154205322266,7.2713418006897,7.25125360488892,7.23127555847168,7.21140766143799,7.19164848327637,7.17199754714966,7.15245342254639,7.13301563262939,7.11368322372437,7.09445524215698,7.07533121109009,7.05630970001221,7.03739023208618,7.01857042312622,6.99984788894653,6.98122549057007,6.96270132064819,6.94427585601807,6.92594718933105,6.90771532058716,6.8895788192749,6.87153768539429,6.85359048843384,6.83573722839355,6.8179759979248,6.80030727386475,6.78151607513428,6.76223707199097,6.74306678771973,6.72400522232056,6.70505094528198,6.68620347976685,6.66746139526367,6.6488242149353,6.63029098510742
18.5128555297852,18.5133037567139,18.5137462615967,18.514196395874,18.5146389007568,18.5150852203369,18.515531539917,18.5159778594971,18.5164222717285,18.5168647766113,18.5173149108887,18.5177631378174,18.5182075500488,18.5186500549316,18.5190963745117,18.5195446014404,18.5199909210205,18.5204334259033,18.520881652832,18.5213279724121,18.5217761993408,18.5222206115723,18.5226631164551,18.5231094360352,18.5235595703125,18.5240039825439,18.524450302124,18.5248966217041,18.5253429412842,18.5257892608643,18.5262355804443,18.5266799926758,18.5271263122559,18.5275726318359,18.528018951416,18.5284652709961,18.5289115905762,18.5293560028076,18.529806137085,18.5302505493164,18.5306987762451,18.5311450958252,18.5315895080566,18.5320358276367,18.5324821472168,18.5329303741455,18.5333766937256,18.5338230133057,18.5342693328857,18.5347137451172,18.5351600646973,18.535608291626,18.5360565185547,18.5365009307861,18.5369491577148,18.5373954772949,18.537841796875,18.5382881164551,18.5387344360352,18.5391826629639,18.5396289825439,18.5400733947754,18.5405216217041,18.5409679412842,18.5414142608643,18.541862487793,18.5423107147217,18.5427570343018,18.5432033538818,18.5436496734619,18.544095993042,18.5445442199707,18.5449924468994,18.5454387664795,18.5458850860596,18.5463333129883,18.546781539917,18.5472278594971,18.5476741790771,18.5481224060059,18.5485687255859,18.5490169525146,18.5494632720947,18.5499114990234,18.5503578186035,18.5508060455322,18.5512523651123,18.5516986846924,18.5521488189697,18.5525951385498,18.5530433654785,18.5534896850586,18.5539379119873,18.5543842315674,18.5548305511475,18.5552806854248,18.5557270050049,18.5561752319336,18.5566215515137,18.5570697784424,18.5575160980225,18.5579624176025,18.5584144592285,18.5588607788086,18.55930519104,18.5597553253174,18.5602035522461,18.5606517791748,18.5610980987549,18.5615482330322,18.5619945526123,18.562442779541,18.5628910064697,18.5633373260498,18.5637855529785,18.5642337799072,18.5646820068359,18.5651321411133,18.5655784606934,18.5660285949707,18.5664749145508,18.5669231414795,18.5673713684082,18.5678176879883,18.5682678222656,18.5687141418457,18.569164276123,18.5696105957031,18.5700607299805,18.5705089569092,18.5709590911865,18.5714073181152,18.5718555450439,18.5723037719727,18.57275390625,18.5732021331787,18.5736522674561,18.5740966796875,18.5745487213135,18.5749950408936,18.5754470825195,18.5758953094482,18.5763454437256,18.5767936706543,18.5772438049316,18.5776920318604,18.5781421661377,18.5785884857178,18.5790386199951,18.5794868469238,18.5799388885498,18.5803871154785,18.5808353424072,18.5812854766846,18.5817356109619,18.5821838378906,18.582633972168,18.5830821990967,18.5835304260254,18.5839786529541,18.5844306945801,18.5848808288574,18.5853290557861,18.5857791900635,18.5862293243408,18.5866794586182,18.5871276855469,18.5875759124756,18.5880260467529,18.5884761810303,18.5889263153076,18.589376449585,18.5898246765137,18.590274810791,18.5907249450684,18.5911769866943,18.591625213623,18.592077255249,18.5925235748291,18.5929718017578,18.5934238433838,18.5938739776611,18.5943222045898,18.5947723388672,18.5952243804932,18.5956726074219,18.5961246490479,18.5965728759766,18.5970230102539,18.5974731445312,18.5979232788086,18.5983734130859,18.5988235473633,18.5992736816406,18.599723815918,18.6001758575439,18.6006259918213,18.6010761260986,18.6015243530273,18.6019744873047,18.6024265289307,18.602876663208,18.6033248901367,18.6037769317627,18.6042289733887,18.6046772003174,18.6051273345947,18.6055793762207,18.6060256958008,18.6064777374268,18.6069278717041,18.6073799133301,18.6078319549561,18.6082820892334,18.6087341308594,18.6091823577881,18.6096343994141,18.61008644104,18.6105327606201,18.6109828948975,18.6114368438721,18.6118850708008,18.6123371124268,18.6127891540527,18.6132392883301,18.6136913299561,18.614143371582,18.6145935058594,18.6150436401367,18.6154937744141,18.6159439086914,18.6163940429688,18.6168460845947,18.6172981262207,18.6177501678467,18.6181983947754,18.6186504364014,18.6191024780273,18.6195526123047,18.6200008392334,18.620454788208,18.6209049224854,18.6213569641113,18.6218070983887,18.6222591400146,18.6227111816406,18.6231651306152,18.6236133575439,18.6240653991699,18.6245155334473,18.6249675750732,18.6254177093506,18.6258697509766,10.33957862854,10.3156023025513,10.0214586257935,9.64581203460693,9.29730987548828,8.97311210632324,8.8541431427002,8.82185363769531,8.78979969024658,8.75797653198242,8.72638416290283,8.69501781463623,8.66387748718262,8.63295841217041,8.60225963592529,8.57177829742432,8.54151248931885,8.51145935058594,8.48161697387695,8.45198249816895,8.4225549697876,8.39333152770996,8.3643102645874,8.33548927307129,8.30686569213867,8.27843856811523,8.25020503997803,8.22216415405273,8.19431209564209,8.16664886474609,8.1391716003418,8.11187839508057,8.08476734161377,8.05783748626709,8.03108692169189,8.00451278686523,7.97811365127563,7.95188808441162,7.92583465576172,7.89995145797729,7.87423658370972,7.84868860244751,7.82820510864258,7.813392162323,7.79863500595093,7.78393363952637,7.769287109375,7.75469636917114,7.74015998840332,7.72567796707153,7.71124982833862,7.69687557220459,7.68255519866943,7.66828775405884,7.6540732383728,7.63991117477417,7.62580156326294,7.61174392700195,7.59773778915405,7.5837836265564,7.56988000869751,7.55602788925171,7.54222583770752,7.52847480773926,7.51477336883545,7.50112152099609,7.48751926422119,7.47396659851074,7.46046257019043,7.44700765609741,7.43360090255737,7.42024230957031,7.40693140029907,7.39366865158081,7.38045310974121,7.36728477478027,7.27312278747559,7.25302457809448,7.23303699493408,7.21315908432007,7.19339036941528,7.17372989654541,7.15417623519897,7.13472938537598,7.11538743972778,7.09615039825439,7.07701683044434,7.05798673629761,7.03905820846558,7.02023124694824,7.0015025138855,6.98287105560303,6.9643383026123,6.94590377807617,6.92756700515747,6.90932655334473,6.89118146896362,6.87313222885132,6.85517692565918,6.83731508255005,6.81954574584961,6.80186891555786,6.78428363800049,6.76526975631714,6.74608278274536,6.7270040512085,6.70803260803223,6.68916845321655,6.67040967941284,6.65175628662109,6.63320636749268,6.61475992202759
18.3390789031982,18.3395137786865,18.3399524688721,18.3403911590576,18.3408279418945,18.3412647247314,18.341703414917,18.3421401977539,18.3425750732422,18.3430156707764,18.343448638916,18.3438892364502,18.3443241119385,18.344762802124,18.3451995849609,18.3456382751465,18.3460788726807,18.3465118408203,18.3469543457031,18.3473892211914,18.3478260040283,18.3482627868652,18.3486995697021,18.349142074585,18.3495788574219,18.3500156402588,18.350456237793,18.3508892059326,18.3513298034668,18.3517665863037,18.3522052764893,18.3526439666748,18.3530807495117,18.3535175323486,18.3539562225342,18.3543949127197,18.3548316955566,18.3552703857422,18.3557071685791,18.356143951416,18.3565864562988,18.3570213317871,18.357458114624,18.3578968048096,18.3583354949951,18.3587741851807,18.3592109680176,18.3596515655518,18.3600883483887,18.3605270385742,18.3609657287598,18.3614025115967,18.3618412017822,18.3622798919678,18.3627166748047,18.3631572723389,18.3635940551758,18.3640327453613,18.3644714355469,18.3649101257324,18.3653469085693,18.3657855987549,18.3662242889404,18.366662979126,18.3670997619629,18.3675403594971,18.3679809570312,18.3684177398682,18.3688545227051,18.3692951202393,18.3697319030762,18.3701725006104,18.3706092834473,18.3710479736328,18.371488571167,18.3719253540039,18.3723659515381,18.372802734375,18.3732452392578,18.3736801147461,18.3741188049316,18.3745594024658,18.375,18.3754386901855,18.3758754730225,18.376314163208,18.3767528533936,18.3771934509277,18.3776321411133,18.3780708312988,18.3785095214844,18.3789482116699,18.3793869018555,18.3798274993896,18.3802661895752,18.3807067871094,18.3811454772949,18.3815822601318,18.382022857666,18.3824615478516,18.3829021453857,18.3833408355713,18.3837814331055,18.384220123291,18.3846588134766,18.3850975036621,18.3855381011963,18.3859767913818,18.386417388916,18.3868560791016,18.3872947692871,18.3877353668213,18.3881740570068,18.388614654541,18.3890533447266,18.3894920349121,18.3899326324463,18.3903713226318,18.390811920166,18.3912525177002,18.3916912078857,18.3921298980713,18.3925704956055,18.393009185791,18.3934497833252,18.3938903808594,18.3943309783936,18.3947696685791,18.3952083587646,18.3956470489502,18.3960876464844,18.3965301513672,18.3969707489014,18.3974113464355,18.3978500366211,18.3982906341553,18.3987312316895,18.399169921875,18.3996105194092,18.400053024292,18.4004936218262,18.4009342193604,18.4013748168945,18.4018154144287,18.4022560119629,18.4026966094971,18.4031372070312,18.4035778045654,18.4040184020996,18.4044609069824,18.4049015045166,18.4053421020508,18.4057807922363,18.4062232971191,18.4066638946533,18.4071063995361,18.4075450897217,18.4079856872559,18.40842628479,18.4088668823242,18.409309387207,18.4097499847412,18.410192489624,18.4106311798096,18.4110736846924,18.4115161895752,18.4119567871094,18.4123973846436,18.4128360748291,18.4132804870605,18.4137210845947,18.4141616821289,18.4146022796631,18.4150428771973,18.4154853820801,18.4159278869629,18.4163684844971,18.4168090820312,18.4172477722168,18.4176921844482,18.4181327819824,18.4185752868652,18.4190158843994,18.4194564819336,18.4198989868164,18.4203414916992,18.420783996582,18.4212245941162,18.4216651916504,18.4221057891846,18.4225482940674,18.4229927062988,18.423433303833,18.4238719940186,18.42431640625,18.4247570037842,18.425199508667,18.4256420135498,18.426082611084,18.4265232086182,18.4269676208496,18.4274082183838,18.427848815918,18.4282932281494,18.4287338256836,18.4291744232178,18.4296188354492,18.430061340332,18.4305000305176,18.4309425354004,18.4313850402832,18.431827545166,18.4322681427002,18.432710647583,18.4331550598145,18.4335975646973,18.4340400695801,18.4344806671143,18.4349212646484,18.4353637695312,18.4358081817627,18.4362487792969,18.4366931915283,18.4371356964111,18.4375782012939,18.4380207061768,18.4384613037109,18.4389038085938,18.4393444061279,18.4397888183594,18.4402294158936,18.4406719207764,18.4411144256592,18.441556930542,18.4420013427734,18.4424438476562,18.4428863525391,18.4433307647705,18.4437713623047,18.4442138671875,18.4446563720703,18.4450988769531,18.4455413818359,18.4459838867188,18.4464282989502,18.446870803833,18.4473152160645,18.4477558135986,18.4482002258301,18.4486408233643,10.4328174591064,10.3984985351562,10.3644046783447,10.3305339813232,10.0161151885986,9.64086151123047,9.29271030426025,8.96882820129395,8.83698463439941,8.80482006072998,8.77288913726807,8.74118900299072,8.709716796875,8.67847061157227,8.64744758605957,8.61664581298828,8.58606243133545,8.55569553375244,8.52554321289062,8.49560165405273,8.46587085723877,8.43634605407715,8.40702724456787,8.37791156768799,8.34899711608887,8.32028102874756,8.29176139831543,8.26343727111816,8.23530578613281,8.20736598968506,8.17961406707764,8.15205001831055,8.12467002868652,8.09747409820557,8.07045936584473,8.04362487792969,8.0169677734375,7.99048662185669,7.96417999267578,7.93804597854614,7.9120831489563,7.88628911972046,7.86066293716431,7.83642768859863,7.82158374786377,7.80679559707642,7.79206323623657,7.77738666534424,7.76276540756226,7.74819850921631,7.73368644714355,7.71922874450684,7.70482492446899,7.69047451019287,7.67617797851562,7.66193389892578,7.6477427482605,7.63360452651978,7.61951780319214,7.6054835319519,7.59150075912476,7.57756900787354,7.56368827819824,7.54985857009888,7.53607940673828,7.5223503112793,7.50867128372192,7.495041847229,7.48146152496338,7.46793079376221,7.45444869995117,7.44101524353027,7.42762994766235,7.41429281234741,7.40100336074829,7.38776159286499,7.37456750869751,7.36142015457153,7.34831953048706,7.25479602813721,7.23479890823364,7.21491146087646,7.19513320922852,7.17546319961548,7.15590047836304,7.13644361495972,7.11709260940552,7.09784650802612,7.07870388031006,7.05966424942017,7.04072713851929,7.02189111709595,7.00315523147583,6.98451709747314,6.96597576141357,6.94753313064575,6.92918729782104,6.91093826293945,6.89278507232666,6.87472677230835,6.85676336288452,6.8388934135437,6.82111644744873,6.80343103408813,6.78583765029907,6.76830530166626,6.74910116195679,6.73000526428223,6.71101713180542,6.69213628768921,6.67336082458496,6.65469074249268,6.63612461090088,6.61766195297241,6.59930181503296
18.1685276031494,18.1689567565918,18.1693859100342,18.1698169708252,18.1702442169189,18.1706733703613,18.171106338501,18.171537399292,18.1719627380371,18.1723937988281,18.1728248596191,18.1732521057129,18.173677444458,18.1741104125977,18.17453956604,18.1749706268311,18.1753997802734,18.1758289337158,18.1762580871582,18.1766891479492,18.1771183013916,18.1775455474854,18.1779766082764,18.1784057617188,18.178840637207,18.1792640686035,18.1796932220459,18.1801242828369,18.1805553436279,18.180980682373,18.1814117431641,18.1818447113037,18.1822738647461,18.1827030181885,18.1831340789795,18.1835632324219,18.1839923858643,18.1844215393066,18.1848526000977,18.18528175354,18.1857128143311,18.1861438751221,18.1865711212158,18.1870021820068,18.1874313354492,18.1878643035889,18.1882915496826,18.188720703125,18.189151763916,18.189582824707,18.1900119781494,18.1904430389404,18.1908721923828,18.1913032531738,18.1917324066162,18.1921634674072,18.1925926208496,18.1930255889893,18.1934547424316,18.1938858032227,18.194314956665,18.1947422027588,18.1951770782471,18.1956043243408,18.1960353851318,18.1964664459229,18.1968955993652,18.1973266601562,18.1977577209473,18.1981887817383,18.1986179351807,18.1990489959717,18.1994800567627,18.1999092102051,18.2003421783447,18.2007732391357,18.2012042999268,18.2016315460205,18.2020606994629,18.2024936676025,18.2029247283936,18.2033576965332,18.2037868499756,18.204216003418,18.204647064209,18.205078125,18.2055110931396,18.205940246582,18.206371307373,18.2068023681641,18.2072315216064,18.2076644897461,18.2080936431885,18.2085266113281,18.2089557647705,18.2093887329102,18.2098178863525,18.2102489471436,18.2106819152832,18.2111110687256,18.2115421295166,18.2119731903076,18.2124042510986,18.2128372192383,18.2132663726807,18.2136993408203,18.2141284942627,18.2145614624023,18.214994430542,18.215425491333,18.2158546447754,18.2162857055664,18.2167186737061,18.2171497344971,18.2175807952881,18.2180118560791,18.2184429168701,18.2188739776611,18.2193050384521,18.2197380065918,18.2201690673828,18.2206001281738,18.2210330963135,18.2214622497559,18.2218952178955,18.2223262786865,18.2227611541748,18.2231903076172,18.2236213684082,18.2240543365479,18.2244853973389,18.2249183654785,18.2253494262695,18.2257804870605,18.2262134552002,18.2266445159912,18.2270755767822,18.2275085449219,18.2279415130615,18.2283725738525,18.2288074493408,18.2292385101318,18.2296695709229,18.2301025390625,18.2305374145508,18.2309684753418,18.2313995361328,18.2318305969238,18.2322673797607,18.2326984405518,18.2331295013428,18.2335624694824,18.2339954376221,18.2344284057617,18.2348613739014,18.2352924346924,18.235725402832,18.2361583709717,18.2365913391113,18.237024307251,18.2374572753906,18.2378902435303,18.2383232116699,18.2387580871582,18.2391891479492,18.2396202087402,18.2400550842285,18.2404880523682,18.2409191131592,18.2413520812988,18.2417869567871,18.2422199249268,18.2426509857178,18.2430858612061,18.2435207366943,18.2439517974854,18.244384765625,18.244815826416,18.2452507019043,18.2456836700439,18.2461185455322,18.2465496063232,18.2469825744629,18.2474174499512,18.2478504180908,18.2482833862305,18.2487182617188,18.2491493225098,18.2495822906494,18.2500152587891,18.2504501342773,18.250883102417,18.2513160705566,18.2517509460449,18.2521858215332,18.2526168823242,18.2530517578125,18.2534847259521,18.2539176940918,18.2543506622314,18.2547855377197,18.2552185058594,18.2556533813477,18.2560863494873,18.2565212249756,18.2569541931152,18.2573890686035,18.2578220367432,18.2582550048828,18.2586879730225,18.2591228485107,18.2595558166504,18.2599906921387,18.260425567627,18.2608585357666,18.2612915039062,18.2617263793945,18.2621631622314,18.2625942230225,18.2630290985107,18.2634620666504,18.26389503479,18.264331817627,18.2647647857666,18.2651977539062,18.2656326293945,18.2660675048828,18.2665004730225,18.2669334411621,18.2673683166504,18.2678050994873,18.268238067627,18.2686729431152,18.2691078186035,18.2695407867432,18.2699756622314,18.2704124450684,18.270845413208,18.2712783813477,18.2717113494873,18.2721481323242,18.2725830078125,18.2730178833008,18.2734508514404,18.2738857269287,18.274320602417,18.2747573852539,18.2751903533936,18.2756233215332,18.2760581970215,18.2764930725098,10.3893508911133,10.3553171157837,10.0107774734497,9.6359167098999,9.28811645507812,8.96454811096191,8.81989288330078,8.78785228729248,8.75604438781738,8.72446537017822,8.69311332702637,8.66198539733887,8.63108062744141,8.60039520263672,8.56992626190186,8.53967380523682,8.50963306427002,8.47980403900146,8.45018291473389,8.42076778411865,8.39155673980713,8.36254787445068,8.33373928070068,8.30512714385986,8.27671241760254,8.24849033355713,8.22045993804932,8.19262027740479,8.16496849060059,8.13750267028809,8.11022090911865,8.08312129974365,8.05620193481445,8.02946186065674,8.00289821624756,7.97650957107544,7.95029497146606,7.92425155639648,7.89837884902954,7.87267398834229,7.84713649749756,7.82979249954224,7.8149733543396,7.80021047592163,7.78550291061401,7.77085113525391,7.75625419616699,7.74171209335327,7.72722387313843,7.71279048919678,7.69841051101685,7.68408393859863,7.6698112487793,7.65559101104736,7.64142322540283,7.6273078918457,7.61324501037598,7.59923362731934,7.58527326583862,7.57136487960815,7.55750703811646,7.54369974136353,7.52994298934937,7.51623630523682,7.50257921218872,7.48897171020508,7.47541379928589,7.46190452575684,7.44844436645508,7.4350323677063,7.4216685295105,7.40835285186768,7.39508485794067,7.38186407089233,7.36869096755981,7.3555645942688,7.34248495101929,7.32945156097412,7.23656177520752,7.21666479110718,7.19687700271606,7.17719745635986,7.15762519836426,7.13815927505493,7.11879920959473,7.09954309463501,7.08039140701294,7.0613431930542,7.04239654541016,7.02355146408081,7.004807472229,6.9861626625061,6.96761465072632,6.94916248321533,6.93080854415894,6.9125509262085,6.89438962936401,6.87632274627686,6.85835075378418,6.84047269821167,6.82268714904785,6.80499410629272,6.78739261627197,6.76988172531128,6.75212240219116,6.73300933837891,6.71400451660156,6.69510650634766,6.67631483078003,6.65762805938721,6.63904571533203,6.62056684494019,6.60219049453735,6.58391571044922
18.0011234283447,18.0015468597412,18.0019683837891,18.0023880004883,18.0028114318848,18.0032329559326,18.0036563873291,18.0040740966797,18.0044975280762,18.004919052124,18.0053424835205,18.0057621002197,18.0061779022217,18.0066013336182,18.0070247650146,18.0074462890625,18.0078659057617,18.0082874298096,18.0087108612061,18.0091323852539,18.0095500946045,18.0099716186523,18.0104007720947,18.0108222961426,18.0112400054932,18.0116634368896,18.0120849609375,18.0125045776367,18.0129241943359,18.0133476257324,18.0137748718262,18.0141944885254,18.0146160125732,18.0150394439697,18.0154609680176,18.0158824920654,18.0163059234619,18.0167255401611,18.0171489715576,18.0175704956055,18.017993927002,18.0184135437012,18.018835067749,18.0192604064941,18.0196800231934,18.0201034545898,18.0205249786377,18.0209445953369,18.0213680267334,18.0217914581299,18.0222148895264,18.0226345062256,18.0230579376221,18.0234813690186,18.0239028930664,18.0243263244629,18.0247478485107,18.0251712799072,18.0255908966064,18.0260124206543,18.0264358520508,18.0268592834473,18.0272808074951,18.0277042388916,18.0281257629395,18.0285491943359,18.0289707183838,18.0293960571289,18.0298175811768,18.0302410125732,18.0306606292725,18.0310840606689,18.0315074920654,18.0319290161133,18.0323524475098,18.0327739715576,18.0331993103027,18.033618927002,18.0340423583984,18.0344657897949,18.0348873138428,18.0353107452393,18.0357341766357,18.0361576080322,18.0365810394287,18.0370025634766,18.037425994873,18.0378475189209,18.038272857666,18.0386943817139,18.0391159057617,18.0395412445068,18.0399627685547,18.0403881072998,18.0408096313477,18.0412330627441,18.041654586792,18.0420780181885,18.042501449585,18.0429229736328,18.0433464050293,18.0437717437744,18.0441951751709,18.0446186065674,18.0450401306152,18.0454654693604,18.0458889007568,18.0463104248047,18.0467357635498,18.0471572875977,18.0475807189941,18.0480041503906,18.0484275817871,18.0488510131836,18.0492744445801,18.0496978759766,18.050121307373,18.0505447387695,18.050968170166,18.0513935089111,18.0518169403076,18.0522384643555,18.0526638031006,18.0530872344971,18.0535106658936,18.05393409729,18.0543575286865,18.054780960083,18.0552043914795,18.0556297302246,18.0560512542725,18.0564765930176,18.0569000244141,18.0573234558105,18.057746887207,18.0581722259521,18.0585975646973,18.0590171813965,18.0594425201416,18.0598678588867,18.0602931976318,18.0607166290283,18.0611400604248,18.0615653991699,18.0619888305664,18.0624141693115,18.062837600708,18.0632648468018,18.0636882781982,18.0641117095947,18.0645370483398,18.0649604797363,18.0653877258301,18.0658130645752,18.0662364959717,18.0666618347168,18.0670852661133,18.0675086975098,18.0679340362549,18.0683574676514,18.0687847137451,18.0692081451416,18.0696353912354,18.0700607299805,18.070484161377,18.0709095001221,18.0713329315186,18.0717601776123,18.0721817016602,18.0726089477539,18.073034286499,18.0734596252441,18.0738830566406,18.0743083953857,18.0747356414795,18.075159072876,18.0755844116211,18.0760097503662,18.0764350891113,18.0768604278564,18.0772857666016,18.0777111053467,18.0781364440918,18.0785617828369,18.0789852142334,18.0794105529785,18.0798358917236,18.0802612304688,18.0806865692139,18.0811138153076,18.0815372467041,18.0819644927979,18.082389831543,18.0828170776367,18.0832405090332,18.0836658477783,18.0840911865234,18.0845165252686,18.0849418640137,18.0853672027588,18.0857944488525,18.086217880249,18.0866451263428,18.0870704650879,18.0874977111816,18.0879230499268,18.0883502960205,18.0887718200684,18.0891990661621,18.0896244049072,18.090051651001,18.0904769897461,18.0909023284912,18.091329574585,18.0917549133301,18.0921802520752,18.0926074981689,18.0930309295654,18.0934581756592,18.0938835144043,18.094310760498,18.0947360992432,18.0951633453369,18.095588684082,18.0960140228271,18.0964431762695,18.0968685150146,18.0972919464111,18.0977191925049,18.0981464385986,18.0985698699951,18.0989971160889,18.099422454834,18.0998516082764,18.1002750396729,18.1007041931152,18.1011295318604,18.1015548706055,18.1019821166992,18.102409362793,18.1028347015381,18.1032600402832,18.1036891937256,18.1041164398193,18.1045398712158,18.1049671173096,18.105396270752,18.1058216094971,18.1062450408936,18.1066741943359,18.1070976257324,10.3802194595337,10.005446434021,9.63097667694092,9.28352642059326,8.96027183532715,8.80286693572998,8.77095031738281,8.7392635345459,8.70780563354492,8.67657279968262,8.64556312561035,8.61477470397949,8.58420467376709,8.55385112762451,8.52371120452881,8.49378299713135,8.4640645980835,8.4345531463623,8.40524673461914,8.37614345550537,8.34724044799805,8.31853675842285,8.29002952575684,8.26171684265137,8.23359775543213,8.20566844940186,8.17792797088623,8.15037536621094,8.12300682067871,8.09582233428955,8.06881809234619,8.04199409484863,8.01534843444824,7.98887777328491,7.96258163452148,7.93645811080933,7.91050577163696,7.8847222328186,7.85910606384277,7.83801889419556,7.82316875457764,7.80837440490723,7.79363632202148,7.77895355224609,7.76432657241821,7.74975395202637,7.73523616790771,7.72077226638794,7.7063627243042,7.69200658798218,7.67770433425903,7.66345500946045,7.64925813674927,7.63511419296265,7.62102222442627,7.60698223114014,7.59299373626709,7.57905673980713,7.5651707649231,7.55133533477783,7.5375509262085,7.52381610870361,7.5101318359375,7.49649715423584,7.48291158676147,7.46937561035156,7.45588827133179,7.44244956970215,7.42905902862549,7.41571664810181,7.4024224281311,7.38917541503906,7.37597608566284,7.36282396316528,7.34971809387207,7.33665943145752,7.32364654541016,7.23832559585571,7.21841907501221,7.19862127304077,7.17893218994141,7.15935039520264,7.1398754119873,7.12050580978394,7.10124063491821,7.08207988739014,7.06302213668823,7.0440673828125,7.02521324157715,7.00645971298218,6.98780632019043,6.96925210952759,6.95079326629639,6.93243026733398,6.91416454315186,6.89599418640137,6.87791919708252,6.85993909835815,6.8420524597168,6.82425880432129,6.80655765533447,6.78894805908203,6.77142906188965,6.75400066375732,6.73601627349854,6.7169942855835,6.69807958602905,6.67927122116089,6.66056776046753,6.64196920394897,6.62347412109375,6.60508155822754,6.58679103851318,6.56860113143921
17.8367767333984,17.8371887207031,17.8376064300537,17.8380165100098,17.8384323120117,17.838846206665,17.839262008667,17.839672088623,17.8400859832764,17.8405017852783,17.8409156799316,17.8413276672363,17.8417434692383,17.842155456543,17.8425674438477,17.8429832458496,17.8433990478516,17.8438129425049,17.8442287445068,17.8446426391602,17.8450546264648,17.8454685211182,17.8458824157715,17.8462963104248,17.8467082977295,17.8471221923828,17.8475360870361,17.8479518890381,17.8483638763428,17.8487777709961,17.849193572998,17.8496055603027,17.8500213623047,17.8504371643066,17.8508529663086,17.8512649536133,17.8516807556152,17.8520927429199,17.8525085449219,17.8529243469238,17.8533382415771,17.8537502288818,17.8541660308838,17.8545818328857,17.8549957275391,17.8554096221924,17.8558235168457,17.856237411499,17.8566551208496,17.8570671081543,17.8574829101562,17.8578968048096,17.8583106994629,17.8587245941162,17.8591403961182,17.8595542907715,17.8599681854248,17.8603839874268,17.8607978820801,17.8612117767334,17.861629486084,17.8620433807373,17.8624591827393,17.8628730773926,17.8632869720459,17.8637027740479,17.8641185760498,17.8645324707031,17.8649444580078,17.8653621673584,17.8657760620117,17.866189956665,17.866605758667,17.8670196533203,17.8674354553223,17.8678493499756,17.8682651519775,17.8686809539795,17.8690967559814,17.8695106506348,17.8699264526367,17.87034034729,17.8707542419434,17.8711719512939,17.8715877532959,17.8719997406006,17.8724174499512,17.8728332519531,17.8732452392578,17.8736629486084,17.8740768432617,17.8744926452637,17.874906539917,17.8753261566162,17.8757400512695,17.8761539459229,17.8765697479248,17.8769855499268,17.8774032592773,17.8778171539307,17.878231048584,17.8786468505859,17.8790626525879,17.8794784545898,17.8798923492432,17.8803081512451,17.8807258605957,17.881139755249,17.8815574645996,17.8819713592529,17.8823890686035,17.8828029632568,17.8832168579102,17.8836345672607,17.8840484619141,17.8844661712646,17.884880065918,17.8852977752686,17.8857135772705,17.8861293792725,17.8865451812744,17.8869609832764,17.8873767852783,17.8877925872803,17.8882102966309,17.8886222839355,17.8890380859375,17.8894577026367,17.8898735046387,17.8902893066406,17.8907051086426,17.8911190032959,17.8915386199951,17.8919525146484,17.8923683166504,17.8927841186523,17.8932018280029,17.8936176300049,17.8940334320068,17.8944492340088,17.8948650360107,17.8952808380127,17.8956966400146,17.8961143493652,17.8965320587158,17.8969459533691,17.8973655700684,17.8977813720703,17.8981971740723,17.8986148834229,17.8990325927734,17.8994483947754,17.899866104126,17.9002838134766,17.9007015228271,17.9011154174805,17.9015350341797,17.9019508361816,17.9023666381836,17.9027843475342,17.9032020568848,17.9036197662354,17.9040374755859,17.9044532775879,17.9048709869385,17.9052867889404,17.905704498291,17.9061222076416,17.9065380096436,17.9069576263428,17.9073734283447,17.9077911376953,17.9082069396973,17.9086265563965,17.9090423583984,17.9094619750977,17.9098777770996,17.9102935791016,17.9107112884521,17.9111289978027,17.911548614502,17.9119644165039,17.9123840332031,17.9128017425537,17.9132175445557,17.9136352539062,17.9140529632568,17.9144706726074,17.9148864746094,17.91530418396,17.9157238006592,17.9161415100098,17.9165592193604,17.9169788360596,17.9173946380615,17.9178123474121,17.9182281494141,17.9186458587646,17.9190635681152,17.9194831848145,17.919900894165,17.9203205108643,17.9207382202148,17.9211559295654,17.9215717315674,17.921989440918,17.9224071502686,17.9228248596191,17.9232425689697,17.9236640930176,17.9240798950195,17.9244976043701,17.9249172210693,17.9253349304199,17.9257545471191,17.9261722564697,17.9265899658203,17.9270076751709,17.9274253845215,17.9278430938721,17.9282608032227,17.9286804199219,17.9290981292725,17.9295177459717,17.9299354553223,17.9303550720215,17.9307727813721,17.9311904907227,17.9316082000732,17.9320259094238,17.9324474334717,17.9328632354736,17.9332828521729,17.9336986541748,17.934118270874,17.9345397949219,17.9349594116211,17.935375213623,17.9357948303223,17.9362125396729,17.9366302490234,17.9370498657227,17.9374694824219,17.9378871917725,17.938304901123,17.9387245178223,17.9391460418701,17.9395618438721,17.9399795532227,17.9403991699219,17.9408168792725,10.0001201629639,9.62604141235352,9.27894020080566,8.95600032806396,8.78590679168701,8.75411224365234,8.72254753112793,8.6912088394165,8.66009521484375,8.62920379638672,8.59853076934814,8.56807613372803,8.5378360748291,8.50780868530273,8.47799205780029,8.44838333129883,8.41898059844971,8.38978290557861,8.36078548431396,8.33198928833008,8.30338954925537,8.27498626708984,8.24677562713623,8.21875762939453,8.1909294128418,8.16328811645508,8.13583374023438,8.10856246948242,8.08147430419922,8.05456638336182,8.02783679962158,8.00128364562988,7.97490644454956,7.94870233535767,7.92266941070557,7.89680671691895,7.87111282348633,7.84626197814941,7.83138084411621,7.81655597686768,7.80178689956665,7.78707361221313,7.77241563796997,7.7578125,7.74326467514038,7.72877073287964,7.71433162689209,7.69994592666626,7.68561363220215,7.67133522033691,7.65710926055908,7.64293575286865,7.62881517410278,7.61474657058716,7.60072946548462,7.58676385879517,7.5728497505188,7.55898666381836,7.54517412185669,7.53141164779663,7.51769971847534,7.50403738021851,7.49042463302612,7.47686147689819,7.4633469581604,7.4498815536499,7.43646430969238,7.423095703125,7.40977478027344,7.3965015411377,7.38327598571777,7.37009763717651,7.35696601867676,7.34388113021851,7.33084297180176,7.31785106658936,7.30490493774414,7.22017431259155,7.20036697387695,7.18066835403442,7.16107702255249,7.14159202575684,7.12221336364746,7.10293912887573,7.08376932144165,7.0647029876709,7.04573822021484,7.02687549591064,7.00811338424683,6.98945093154907,6.97088766098022,6.95242309570312,6.93405294418335,6.91577863693237,6.89759969711304,6.8795166015625,6.86152791976929,6.84363317489624,6.82583141326904,6.80812168121338,6.79050445556641,6.77297735214233,6.75554084777832,6.73819398880005,6.71998691558838,6.70105504989624,6.68222999572754,6.6635103225708,6.64489507675171,6.62638378143311,6.60797500610352,6.58966875076294,6.57146310806274,6.55335807800293
17.6754035949707,17.6758098602295,17.676212310791,17.6766223907471,17.6770286560059,17.6774349212646,17.6778430938721,17.6782474517822,17.678653717041,17.6790618896484,17.6794681549072,17.6798706054688,17.6802787780762,17.6806869506836,17.6810913085938,17.6814975738525,17.6819019317627,17.6823081970215,17.6827182769775,17.6831207275391,17.6835289001465,17.6839351654053,17.6843433380127,17.6847457885742,17.6851539611816,17.6855602264404,17.6859703063965,17.6863784790039,17.6867790222168,17.6871871948242,17.6875991821289,17.6880035400391,17.6884098052979,17.688814163208,17.6892261505127,17.6896324157715,17.6900386810303,17.6904449462891,17.6908512115479,17.6912593841553,17.6916656494141,17.6920738220215,17.6924781799316,17.6928863525391,17.6932926177979,17.6936988830566,17.6941070556641,17.6945114135742,17.6949214935303,17.6953277587891,17.6957359313965,17.6961421966553,17.6965503692627,17.6969566345215,17.6973628997803,17.6977710723877,17.6981773376465,17.6985836029053,17.6989917755127,17.6993980407715,17.6998081207275,17.7002124786377,17.7006206512451,17.7010288238525,17.7014331817627,17.7018432617188,17.7022495269775,17.702657699585,17.7030639648438,17.7034721374512,17.70387840271,17.704288482666,17.7046966552734,17.7051010131836,17.705509185791,17.7059173583984,17.7063236236572,17.706729888916,17.7071399688721,17.7075462341309,17.7079544067383,17.7083625793457,17.7087688446045,17.7091770172119,17.7095851898193,17.7099914550781,17.7104015350342,17.710807800293,17.7112159729004,17.7116241455078,17.7120304107666,17.712438583374,17.7128448486328,17.7132530212402,17.7136631011963,17.7140712738037,17.7144775390625,17.7148857116699,17.715295791626,17.7157001495361,17.7161083221436,17.716516494751,17.7169246673584,17.7173347473145,17.7177429199219,17.7181491851807,17.7185592651367,17.7189674377441,17.7193756103516,17.7197818756104,17.7201919555664,17.7205982208252,17.7210083007812,17.7214164733887,17.7218227386475,17.7222309112549,17.7226390838623,17.7230472564697,17.7234554290771,17.7238636016846,17.7242755889893,17.724681854248,17.7250900268555,17.7254981994629,17.7259063720703,17.7263164520264,17.7267246246338,17.7271327972412,17.7275409698486,17.7279510498047,17.7283592224121,17.7287635803223,17.729175567627,17.7295818328857,17.7299938201904,17.7304000854492,17.7308082580566,17.7312183380127,17.7316265106201,17.7320365905762,17.732442855835,17.7328548431396,17.7332611083984,17.7336692810059,17.7340793609619,17.7344837188721,17.7348957061768,17.7353057861328,17.7357139587402,17.7361240386963,17.7365341186523,17.7369422912598,17.7373523712158,17.7377624511719,17.7381706237793,17.7385787963867,17.7389888763428,17.7393989562988,17.7398071289062,17.7402172088623,17.7406272888184,17.7410373687744,17.7414474487305,17.7418575286865,17.7422657012939,17.7426738739014,17.7430858612061,17.7434940338135,17.7439041137695,17.7443141937256,17.744722366333,17.7451324462891,17.7455444335938,17.7459545135498,17.7463645935059,17.7467727661133,17.7471809387207,17.7475910186768,17.7480010986328,17.7484130859375,17.7488231658936,17.749231338501,17.749641418457,17.7500534057617,17.7504634857178,17.7508697509766,17.7512817382812,17.7516918182373,17.7521018981934,17.7525119781494,17.7529220581055,17.7533321380615,17.7537422180176,17.7541542053223,17.7545642852783,17.7549743652344,17.7553825378418,17.7557926177979,17.7562026977539,17.75661277771,17.7570247650146,17.7574348449707,17.7578449249268,17.7582569122314,17.7586669921875,17.7590789794922,17.7594871520996,17.7598972320557,17.7603073120117,17.7607192993164,17.7611274719238,17.7615375518799,17.7619495391846,17.7623596191406,17.7627696990967,17.7631816864014,17.7635917663574,17.7640018463135,17.7644138336182,17.7648220062256,17.7652339935303,17.765645980835,17.7660541534424,17.7664661407471,17.7668762207031,17.7672882080078,17.7676982879639,17.7681083679199,17.768518447876,17.7689323425293,17.7693405151367,17.76975440979,17.7701644897461,17.7705745697021,17.7709846496582,17.7713966369629,17.7718067169189,17.7722187042236,17.7726306915283,17.7730407714844,17.7734508514404,17.7738628387451,17.7742748260498,17.7746849060059,17.7750968933105,17.7755088806152,17.7759189605713,17.7763290405273,17.7767391204834,17.7771530151367,9.99479961395264,9.6211109161377,9.27435970306396,8.95173263549805,8.76901149749756,8.73733901977539,8.70589447021484,8.67467594146729,8.64367961883545,8.61290454864502,8.58234786987305,8.5520076751709,8.52188110351562,8.49196529388428,8.46225929260254,8.43276023864746,8.40346622467041,8.37437534332275,8.34548473358154,8.31679248809814,8.28829765319824,8.25999736785889,8.23188877105713,8.20397186279297,8.17624282836914,8.14870166778564,8.12134456634521,8.09417057037354,8.06717777252197,8.04036426544189,8.01372909545898,7.98726940155029,7.9609842300415,7.93487119674683,7.90892887115479,7.88315534591675,7.8575496673584,7.83961009979248,7.82475423812866,7.80995416641235,7.79520988464355,7.78052139282227,7.76588821411133,7.75130987167358,7.73678588867188,7.72231674194336,7.70790147781372,7.6935396194458,7.67923164367676,7.66497611999512,7.6507740020752,7.63662433624268,7.6225266456604,7.60848093032837,7.59448719024658,7.58054494857788,7.56665325164795,7.55281257629395,7.53902244567871,7.52528285980225,7.51159286499023,7.49795293807983,7.48436212539673,7.47082090377808,7.45732831954956,7.44388437271118,7.43048906326294,7.41714143753052,7.40384197235107,7.39059019088745,7.37738561630249,7.36422824859619,7.3511176109314,7.33805370330811,7.32503604888916,7.31206464767456,7.29913902282715,7.28625917434692,7.20211315155029,7.18240451812744,7.1628041267395,7.14331007003784,7.1239218711853,7.10463857650757,7.08545970916748,7.06638383865356,7.0474100112915,7.0285382270813,7.00976753234863,6.99109649658203,6.97252464294434,6.95405101776123,6.93567562103271,6.91739320755005,6.89920616149902,6.88111448287964,6.86311769485474,6.84521436691284,6.82740449905396,6.80968713760376,6.79206132888794,6.77452611923218,6.75708150863647,6.73972702026367,6.72246074676514,6.70403337478638,6.68519163131714,6.66645526885986,6.64782381057739,6.62929582595825,6.61087131500244,6.59254884719849,6.57432746887207,6.55620622634888,6.53818511962891
17.5169219970703,17.5173244476318,17.5177173614502,17.5181179046631,17.518518447876,17.5189189910889,17.5193157196045,17.5197162628174,17.520112991333,17.5205135345459,17.5209083557129,17.521312713623,17.5217113494873,17.5221099853516,17.5225124359131,17.5229072570801,17.5233058929443,17.5237064361572,17.5241088867188,17.5245037078857,17.5249042510986,17.5253067016602,17.5257034301758,17.5261039733887,17.5265007019043,17.5269012451172,17.5273017883301,17.5276947021484,17.5280990600586,17.5284957885742,17.5288982391357,17.5292930603027,17.5296974182129,17.5300960540771,17.5304985046387,17.5308952331543,17.5312938690186,17.5316944122314,17.5320930480957,17.5324954986572,17.5328922271729,17.5332946777344,17.53369140625,17.5340938568115,17.5344944000244,17.5348930358887,17.5352935791016,17.5356922149658,17.5360908508301,17.5364933013916,17.5368900299072,17.5372905731201,17.537691116333,17.5380897521973,17.5384902954102,17.5388927459717,17.5392894744873,17.5396881103516,17.5400905609131,17.5404891967773,17.5408897399902,17.5412902832031,17.5416889190674,17.5420913696289,17.5424900054932,17.5428905487061,17.5432891845703,17.5436916351318,17.5440902709961,17.5444889068604,17.5448894500732,17.5452880859375,17.545690536499,17.5460910797119,17.5464897155762,17.5468902587891,17.547290802002,17.5476913452148,17.5480918884277,17.5484924316406,17.5488929748535,17.5492916107178,17.5496921539307,17.5500926971436,17.5504932403564,17.5508937835693,17.5512924194336,17.5516948699951,17.5520935058594,17.5524959564209,17.5528945922852,17.5532970428467,17.5536956787109,17.5540962219238,17.5544967651367,17.5548992156982,17.5553016662598,17.5557022094727,17.5561008453369,17.5565013885498,17.5569019317627,17.5573024749756,17.5577030181885,17.55810546875,17.5585060119629,17.5589065551758,17.5593090057373,17.5597057342529,17.5601081848145,17.5605087280273,17.5609111785889,17.5613117218018,17.5617122650146,17.5621147155762,17.5625133514404,17.562915802002,17.5633163452148,17.5637168884277,17.5641174316406,17.5645179748535,17.564920425415,17.5653209686279,17.5657215118408,17.5661239624023,17.5665245056152,17.5669250488281,17.567325592041,17.5677280426025,17.5681285858154,17.5685291290283,17.5689315795898,17.5693340301514,17.5697345733643,17.5701370239258,17.5705375671387,17.5709381103516,17.5713367462158,17.571741104126,17.5721397399902,17.5725440979004,17.5729427337646,17.5733451843262,17.5737476348877,17.5741481781006,17.5745506286621,17.574951171875,17.5753536224365,17.5757541656494,17.5761566162109,17.5765571594238,17.5769596099854,17.5773601531982,17.5777626037598,17.5781650543213,17.5785655975342,17.5789680480957,17.5793704986572,17.5797710418701,17.5801753997803,17.5805778503418,17.5809803009033,17.5813827514648,17.5817852020264,17.5821895599365,17.5825881958008,17.5829887390137,17.5833930969238,17.5837936401367,17.5841979980469,17.5846004486084,17.5850009918213,17.5854053497314,17.585807800293,17.5862102508545,17.586612701416,17.5870151519775,17.5874156951904,17.5878200531006,17.5882225036621,17.5886249542236,17.5890254974365,17.5894298553467,17.5898342132568,17.5902366638184,17.5906372070312,17.5910396575928,17.5914421081543,17.5918445587158,17.592248916626,17.5926513671875,17.593053817749,17.5934562683105,17.5938606262207,17.5942630767822,17.5946674346924,17.5950679779053,17.5954704284668,17.5958728790283,17.5962772369385,17.5966796875,17.5970802307129,17.5974864959717,17.5978889465332,17.5982913970947,17.5986957550049,17.5990962982178,17.5995006561279,17.5999031066895,17.600305557251,17.6007099151611,17.6011123657227,17.6015148162842,17.601921081543,17.6023235321045,17.6027278900146,17.6031303405762,17.6035308837891,17.6039333343506,17.6043376922607,17.6047420501709,17.6051445007324,17.6055488586426,17.6059532165527,17.6063556671143,17.6067581176758,17.6071624755859,17.6075630187988,17.6079692840576,17.6083698272705,17.6087741851807,17.6091785430908,17.609582901001,17.6099853515625,17.6103897094727,17.6107940673828,17.611198425293,17.6115989685059,17.612003326416,17.6124095916748,17.6128101348877,17.6132144927979,17.613618850708,17.6140232086182,17.6144256591797,17.6148300170898,17.615234375,17.6156349182129,17.616039276123,17.6164436340332,9.9894847869873,9.61618614196777,9.26978302001953,8.94746875762939,8.75218105316162,8.72063064575195,8.68930530548096,8.65820503234863,8.62732696533203,8.5966682434082,8.5662260055542,8.5359992980957,8.50598526000977,8.47618103027344,8.44658470153809,8.41719532012939,8.3880090713501,8.35902404785156,8.33023929595947,8.30165195465088,8.27326011657715,8.24506282806396,8.21705532073975,8.18923854827881,8.1616096496582,8.13416576385498,8.10690593719482,8.07982921600342,8.0529317855835,8.02621269226074,7.99967098236084,7.97330379486084,7.94711017608643,7.92108774185181,7.89523553848267,7.86955165863037,7.8478569984436,7.83296966552734,7.81813859939575,7.80336380004883,7.78864431381226,7.77398061752319,7.75937175750732,7.74481773376465,7.73031854629517,7.71587324142456,7.70148181915283,7.68714427947998,7.67285966873169,7.65862798690796,7.64444923400879,7.63032293319702,7.6162486076355,7.60222625732422,7.58825540542603,7.57433557510376,7.56046676635742,7.54664897918701,7.53288125991821,7.51916408538818,7.50549650192261,7.49187850952148,7.47830963134766,7.46478986740112,7.45131921768188,7.43789720535278,7.4245228767395,7.41119718551636,7.39791870117188,7.38468790054321,7.37150478363037,7.35836791992188,7.34527826309204,7.33223533630371,7.31923818588257,7.30628728866577,7.29338216781616,7.28052234649658,7.26770782470703,7.18414211273193,7.16453218460083,7.14502859115601,7.12563133239746,7.10633850097656,7.08715057373047,7.06806564331055,7.04908275604248,7.03020191192627,7.01142263412476,6.99274253845215,6.97416210174561,6.95567989349365,6.93729543685913,6.91900825500488,6.90081357955933,6.88271331787109,6.86470794677734,6.84679651260376,6.82897853851318,6.81125259399414,6.79361915588379,6.77607583999634,6.7586236000061,6.74126052856445,6.72398662567139,6.70680093765259,6.68815565109253,6.66940307617188,6.65075492858887,6.63221073150635,6.61377000808716,6.59543132781982,6.57719373703003,6.55905723571777,6.54102039337158,6.52308225631714
17.3612594604492,17.3616523742676,17.3620433807373,17.3624382019043,17.3628273010254,17.3632221221924,17.3636112213135,17.3640060424805,17.3643970489502,17.3647918701172,17.365177154541,17.365571975708,17.3659610748291,17.3663539886475,17.3667430877686,17.3671360015869,17.3675289154053,17.3679256439209,17.3683128356934,17.3687057495117,17.3691005706787,17.3694915771484,17.3698844909668,17.3702754974365,17.3706665039062,17.3710613250732,17.3714561462402,17.3718414306641,17.3722362518311,17.3726329803467,17.3730220794678,17.3734130859375,17.3738059997559,17.3742027282715,17.3745918273926,17.3749828338623,17.3753776550293,17.3757724761963,17.3761653900146,17.3765525817871,17.3769474029541,17.3773422241211,17.3777332305908,17.3781261444092,17.3785190582275,17.3789100646973,17.3793029785156,17.379695892334,17.380090713501,17.3804817199707,17.3808746337891,17.3812675476074,17.3816585540771,17.3820533752441,17.3824462890625,17.3828372955322,17.3832321166992,17.3836231231689,17.3840179443359,17.3844108581543,17.3848037719727,17.385196685791,17.3855876922607,17.3859825134277,17.3863735198975,17.3867664337158,17.3871574401855,17.3875503540039,17.3879451751709,17.3883380889893,17.3887310028076,17.3891258239746,17.389518737793,17.3899097442627,17.3903026580811,17.390697479248,17.3910903930664,17.3914852142334,17.3918781280518,17.3922672271729,17.3926620483398,17.3930549621582,17.3934497833252,17.3938407897949,17.3942356109619,17.3946285247803,17.3950214385986,17.3954162597656,17.395809173584,17.3962059020996,17.3965950012207,17.3969879150391,17.3973827362061,17.3977756500244,17.3981685638428,17.3985633850098,17.3989562988281,17.3993511199951,17.3997440338135,17.4001369476318,17.4005298614502,17.4009227752686,17.4013175964355,17.4017124176025,17.4021034240723,17.4024982452393,17.4028930664062,17.4032859802246,17.4036808013916,17.40407371521,17.4044666290283,17.4048614501953,17.4052543640137,17.4056491851807,17.406042098999,17.406436920166,17.4068298339844,17.4072246551514,17.4076175689697,17.4080104827881,17.4084053039551,17.4087982177734,17.4091911315918,17.4095897674561,17.4099807739258,17.4103755950928,17.4107704162598,17.4111652374268,17.4115581512451,17.4119510650635,17.4123458862305,17.4127407073975,17.4131355285645,17.4135284423828,17.4139213562012,17.4143161773682,17.4147090911865,17.4151039123535,17.4154987335205,17.4158935546875,17.4162902832031,17.4166812896729,17.4170761108398,17.4174690246582,17.4178676605225,17.4182605743408,17.4186534881592,17.4190464019775,17.4194412231445,17.4198379516602,17.4202327728271,17.4206256866455,17.4210186004639,17.4214134216309,17.4218063354492,17.4222030639648,17.4225978851318,17.4229927062988,17.4233875274658,17.4237842559814,17.4241771697998,17.4245738983154,17.4249706268311,17.425365447998,17.4257564544678,17.4261531829834,17.426549911499,17.4269428253174,17.427339553833,17.427734375,17.4281311035156,17.4285259246826,17.4289226531982,17.4293155670166,17.4297103881836,17.4301052093506,17.4305038452148,17.4308967590332,17.4312934875488,17.4316883087158,17.4320831298828,17.4324779510498,17.4328746795654,17.4332695007324,17.4336643218994,17.434061050415,17.434455871582,17.434850692749,17.4352493286133,17.4356441497803,17.4360370635986,17.4364337921143,17.4368305206299,17.4372253417969,17.4376220703125,17.4380168914795,17.4384117126465,17.4388065338135,17.4392032623291,17.4395999908447,17.4399948120117,17.4403915405273,17.440788269043,17.4411811828613,17.4415798187256,17.4419746398926,17.4423694610596,17.4427661895752,17.4431610107422,17.4435577392578,17.4439544677734,17.4443511962891,17.4447479248047,17.4451427459717,17.4455394744873,17.4459342956543,17.4463291168213,17.4467258453369,17.4471225738525,17.4475193023682,17.4479141235352,17.4483108520508,17.4487075805664,17.4491024017334,17.449499130249,17.4498958587646,17.4502925872803,17.4506874084473,17.4510841369629,17.4514789581299,17.4518775939941,17.4522724151611,17.4526710510254,17.4530658721924,17.4534645080566,17.4538612365723,17.4542560577393,17.4546508789062,17.4550476074219,17.4554424285889,17.4558410644531,17.4562397003174,17.4566345214844,17.45703125,17.4574279785156,17.4578247070312,17.4582195281982,17.4586162567139,9.98417472839355,9.61126613616943,9.26521110534668,8.94320964813232,8.7354154586792,8.7039852142334,8.67278003692627,8.64179706573486,8.61103534698486,8.58049201965332,8.5501651763916,8.52005100250244,8.49014854431152,8.4604549407959,8.43096828460693,8.401686668396,8.37260818481445,8.34372997283936,8.31505012512207,8.28656673431396,8.25827789306641,8.23018169403076,8.2022762298584,8.17455863952637,8.14702796936035,8.11968231201172,8.09251976013184,8.06553840637207,8.03873538970947,8.01211071014404,7.98566198348999,7.95938730239868,7.93328475952148,7.90735244750977,7.88158988952637,7.85612106323242,7.84120273590088,7.82634019851685,7.81153440475464,7.79678440093994,7.7820897102356,7.7674503326416,7.75286626815796,7.73833703994751,7.72386169433594,7.70944023132324,7.69507312774658,7.68075895309448,7.6664981842041,7.65229034423828,7.63813495635986,7.62403202056885,7.60998106002808,7.59598159790039,7.58203363418579,7.56813669204712,7.55429077148438,7.54049491882324,7.52675008773804,7.51305484771729,7.49940919876099,7.4858136177063,7.47226667404175,7.45876884460449,7.44532012939453,7.43191909790039,7.41856670379639,7.4052619934082,7.39200496673584,7.3787956237793,7.36563301086426,7.35251760482788,7.33944845199585,7.32642602920532,7.31344938278198,7.30051898956299,7.28763389587402,7.27479457855225,7.2620005607605,7.18588066101074,7.16626119613647,7.14674806594849,7.12734127044678,7.10803937911987,7.08884191513062,7.06974792480469,7.05075645446777,7.03186702728271,7.01307821273804,6.99438953399658,6.97580003738403,6.95730924606323,6.93891668319702,6.92062044143677,6.90242052078247,6.88431310653687,6.86629915237427,6.84837961196899,6.83055305480957,6.81281900405884,6.79517698287964,6.77762603759766,6.76016569137573,6.74279499053955,6.72551345825195,6.70832014083862,6.69112300872803,6.67235326766968,6.65368843078613,6.63512849807739,6.61667108535767,6.59831619262695,6.5800633430481,6.56191062927246,6.54385805130005,6.52590465545654,6.50804948806763
17.2083377838135,17.2087230682373,17.2091083526611,17.2094898223877,17.2098751068115,17.2102603912354,17.2106475830078,17.2110328674316,17.2114200592041,17.2118034362793,17.2121868133545,17.212574005127,17.2129592895508,17.2133464813232,17.2137279510498,17.2141151428223,17.2145004272461,17.2148876190186,17.2152690887451,17.2156581878662,17.21604347229,17.2164287567139,17.2168102264404,17.2171955108643,17.2175827026367,17.2179679870605,17.2183513641357,17.2187385559082,17.219123840332,17.2195110321045,17.2198944091797,17.2202777862549,17.2206630706787,17.2210502624512,17.2214336395264,17.2218227386475,17.2222061157227,17.2225952148438,17.2229804992676,17.2233619689941,17.2237510681152,17.2241363525391,17.2245216369629,17.2249069213867,17.2252941131592,17.225679397583,17.2260684967041,17.2264518737793,17.2268371582031,17.2272243499756,17.2276077270508,17.2279949188232,17.2283802032471,17.2287673950195,17.2291507720947,17.2295379638672,17.229923248291,17.2303085327148,17.2306957244873,17.2310810089111,17.231466293335,17.2318515777588,17.2322368621826,17.2326259613037,17.2330112457275,17.2333984375,17.2337837219238,17.2341690063477,17.2345561981201,17.2349414825439,17.2353286743164,17.2357139587402,17.2360992431641,17.2364864349365,17.2368717193604,17.2372589111328,17.2376441955566,17.2380294799805,17.2384166717529,17.2388019561768,17.2391910552979,17.2395763397217,17.2399635314941,17.2403469085693,17.2407341003418,17.2411212921143,17.2415084838867,17.2418956756592,17.2422790527344,17.2426681518555,17.2430534362793,17.2434387207031,17.2438259124756,17.244213104248,17.2446002960205,17.244987487793,17.2453727722168,17.2457599639893,17.2461471557617,17.2465324401855,17.246919631958,17.2473087310791,17.2476940155029,17.2480773925781,17.2484645843506,17.2488536834717,17.2492408752441,17.249626159668,17.2500133514404,17.2503986358643,17.2507839202881,17.2511749267578,17.2515602111816,17.2519474029541,17.2523326873779,17.252721786499,17.2531089782715,17.2534942626953,17.2538833618164,17.2542686462402,17.2546558380127,17.2550430297852,17.255428314209,17.2558174133301,17.2562026977539,17.256591796875,17.2569770812988,17.2573623657227,17.2577533721924,17.2581386566162,17.2585277557373,17.2589111328125,17.2593040466309,17.2596893310547,17.2600765228271,17.260461807251,17.2608489990234,17.2612380981445,17.2616233825684,17.2620124816895,17.2623996734619,17.2627868652344,17.2631759643555,17.2635631561279,17.2639484405518,17.2643356323242,17.264720916748,17.2651119232178,17.2654972076416,17.2658863067627,17.2662734985352,17.2666606903076,17.2670478820801,17.2674350738525,17.2678241729736,17.2682113647461,17.2685985565186,17.268985748291,17.2693748474121,17.2697620391846,17.270149230957,17.2705364227295,17.2709274291992,17.2713146209717,17.2717018127441,17.2720890045166,17.2724781036377,17.2728652954102,17.2732563018799,17.2736434936523,17.2740306854248,17.2744197845459,17.274808883667,17.2751960754395,17.2755832672119,17.275972366333,17.2763614654541,17.2767486572266,17.2771396636963,17.2775268554688,17.2779140472412,17.2783031463623,17.2786922454834,17.2790813446045,17.279468536377,17.279857635498,17.2802448272705,17.2806358337402,17.2810230255127,17.2814121246338,17.2817993164062,17.282190322876,17.2825794219971,17.2829666137695,17.283353805542,17.2837448120117,17.2841300964355,17.2845230102539,17.2849102020264,17.2852973937988,17.2856864929199,17.2860774993896,17.2864665985107,17.2868556976318,17.2872428894043,17.2876319885254,17.2880210876465,17.2884101867676,17.28879737854,17.2891864776611,17.2895755767822,17.289966583252,17.2903537750244,17.2907428741455,17.2911357879639,17.2915210723877,17.2919082641602,17.2923011779785,17.2926902770996,17.2930774688721,17.2934684753418,17.2938575744629,17.294246673584,17.2946338653564,17.2950248718262,17.2954139709473,17.2958011627197,17.2961921691895,17.2965812683105,17.2969703674316,17.2973594665527,17.2977504730225,17.2981376647949,17.2985286712646,17.2989177703857,17.2993049621582,17.2996959686279,17.3000869750977,17.3004760742188,17.3008632659912,17.3012542724609,17.3016452789307,17.3020324707031,17.3024234771729,17.3028144836426,17.303201675415,10.3814487457275,9.97887134552002,9.60635185241699,9.26064395904541,8.9389533996582,8.71871376037598,8.68740367889404,8.65631675720215,8.62545204162598,8.59480571746826,8.56437683105469,8.53416347503662,8.5041618347168,8.4743709564209,8.44478702545166,8.41541004180908,8.3862361907959,8.35726356506348,8.3284912109375,8.2999153137207,8.27153587341309,8.24334907531738,8.21535396575928,8.18754863739014,8.15993118286133,8.1324987411499,8.10525035858154,8.07818412780762,8.05129718780518,8.02458953857422,7.9980583190918,7.97170209884644,7.9455189704895,7.91950702667236,7.89366483688354,7.86799049377441,7.84945249557495,7.83455896377563,7.81972217559814,7.80494117736816,7.79021596908569,7.77554607391357,7.76093149185181,7.74637174606323,7.73186635971069,7.71741533279419,7.70301866531372,7.68867492675781,7.67438459396362,7.66014766693115,7.64596319198608,7.63183116912842,7.61775159835815,7.60372352600098,7.58974695205688,7.57582187652588,7.5619478225708,7.54812431335449,7.53435134887695,7.52062845230103,7.50695562362671,7.49333238601685,7.47975826263428,7.46623373031616,7.45275783538818,7.43933010101318,7.42595100402832,7.41262006759644,7.39933681488037,7.38610076904297,7.37291240692139,7.35977077484131,7.34667587280273,7.33362770080566,7.32062578201294,7.30767011642456,7.29475975036621,7.28189516067505,7.26907587051392,7.25630187988281,7.24357223510742,7.16799068450928,7.14846849441528,7.12905216217041,7.1097412109375,7.09053468704224,7.0714316368103,7.05243110656738,7.03353214263916,7.01473474502563,6.99603700637817,6.97743892669678,6.95893955230713,6.94053792953491,6.92223358154297,6.90402555465698,6.88591289520264,6.86789083480835,6.84996271133423,6.83212852478027,6.81438636779785,6.79673624038696,6.77917718887329,6.76170873641968,6.74432992935181,6.72704029083252,6.70983934402466,6.69272613525391,6.67530584335327,6.65662479400635,6.63804817199707,6.61957502365112,6.60120391845703,6.58293485641479,6.56476640701294,6.54669809341431,6.52872943878174,6.5108585357666,6.4930853843689
17.0580863952637,17.058464050293,17.0588455200195,17.0592231750488,17.0596027374268,17.0599784851074,17.060359954834,17.0607376098633,17.0611133575439,17.0614910125732,17.0618705749512,17.0622520446777,17.0626277923584,17.0630073547363,17.0633811950684,17.0637626647949,17.0641403198242,17.0645160675049,17.0648975372314,17.0652770996094,17.0656547546387,17.0660343170166,17.0664081573486,17.0667896270752,17.0671710968018,17.0675487518311,17.0679264068604,17.0683059692383,17.0686874389648,17.0690631866455,17.0694427490234,17.0698204040527,17.0701999664307,17.0705795288086,17.0709590911865,17.0713367462158,17.0717163085938,17.0720920562744,17.0724754333496,17.0728530883789,17.0732345581055,17.0736122131348,17.0739917755127,17.0743637084961,17.0747451782227,17.0751266479492,17.0755062103271,17.0758857727051,17.0762634277344,17.0766429901123,17.0770225524902,17.0774021148682,17.0777797698975,17.0781574249268,17.0785369873047,17.0789165496826,17.0792961120605,17.0796775817871,17.080057144165,17.0804347991943,17.0808143615723,17.0811939239502,17.0815715789795,17.0819511413574,17.0823287963867,17.0827102661133,17.0830898284912,17.0834693908691,17.0838489532471,17.084228515625,17.0846080780029,17.0849876403809,17.0853652954102,17.0857448577881,17.0861263275146,17.0865058898926,17.0868854522705,17.0872631072998,17.0876426696777,17.088020324707,17.0884017944336,17.0887813568115,17.0891609191895,17.0895404815674,17.0899181365967,17.0903015136719,17.0906791687012,17.0910606384277,17.091438293457,17.091817855835,17.0921993255615,17.0925788879395,17.0929584503174,17.0933380126953,17.0937175750732,17.0940971374512,17.0944766998291,17.0948581695557,17.0952377319336,17.0956172943115,17.0959968566895,17.096378326416,17.0967559814453,17.0971374511719,17.0975170135498,17.0978965759277,17.0982780456543,17.0986576080322,17.0990371704102,17.0994167327881,17.099796295166,17.1001777648926,17.1005573272705,17.1009387969971,17.101318359375,17.1016960144043,17.1020774841309,17.1024570465088,17.1028385162354,17.1032180786133,17.1035976409912,17.1039772033691,17.1043586730957,17.1047382354736,17.1051197052002,17.1055030822754,17.1058807373047,17.1062602996826,17.1066436767578,17.1070213317871,17.1074028015137,17.1077823638916,17.1081638336182,17.1085433959961,17.1089248657227,17.1093044281006,17.1096858978271,17.1100673675537,17.110445022583,17.1108264923096,17.1112060546875,17.1115875244141,17.1119709014893,17.1123504638672,17.1127281188965,17.1131114959717,17.1134910583496,17.1138725280762,17.1142520904541,17.1146335601807,17.1150150299072,17.1153945922852,17.1157741546631,17.1161575317383,17.1165370941162,17.1169166564941,17.1172962188721,17.1176795959473,17.1180610656738,17.1184425354004,17.1188220977783,17.1192035675049,17.1195850372314,17.1199626922607,17.1203441619873,17.1207294464111,17.1211071014404,17.1214904785156,17.1218738555908,17.1222534179688,17.1226348876953,17.1230163574219,17.1233997344971,17.123779296875,17.1241588592529,17.1245422363281,17.1249237060547,17.1253051757812,17.1256885528564,17.126070022583,17.1264514923096,17.1268348693848,17.1272163391113,17.1275959014893,17.1279773712158,17.1283588409424,17.1287403106689,17.1291217803955,17.1295051574707,17.1298866271973,17.1302680969238,17.1306495666504,17.1310329437256,17.1314163208008,17.1317958831787,17.1321773529053,17.1325588226318,17.132942199707,17.1333236694336,17.1337051391602,17.1340885162354,17.1344718933105,17.1348514556885,17.1352348327637,17.1356163024902,17.1359996795654,17.136381149292,17.1367626190186,17.1371440887451,17.1375274658203,17.1379070281982,17.1382904052734,17.138671875,17.1390552520752,17.1394367218018,17.1398181915283,17.1402015686035,17.1405830383301,17.1409664154053,17.1413478851318,17.141731262207,17.1421146392822,17.1424961090088,17.142879486084,17.1432590484619,17.1436424255371,17.1440258026123,17.1444091796875,17.1447906494141,17.1451721191406,17.1455554962158,17.145938873291,17.1463203430176,17.1467037200928,17.147087097168,17.1474666595459,17.1478500366211,17.1482334136963,17.1486148834229,17.148998260498,17.1493816375732,17.1497669219971,17.150146484375,17.1505317687988,17.1509132385254,10.375714302063,9.97357368469238,9.60144138336182,9.25608062744141,8.93470191955566,8.70207595825195,8.67088413238525,8.63991546630859,8.60916709899902,8.57863712310791,8.5483226776123,8.51822185516357,8.48833179473877,8.45865154266357,8.42917728424072,8.3999080657959,8.37084197998047,8.34197521209717,8.313307762146,8.284836769104,8.25655937194824,8.22847461700439,8.20058059692383,8.17287445068359,8.14535522460938,8.11802101135254,8.09086990356445,8.06389904022217,8.03710746765137,8.01049327850342,7.98405504226685,7.95779085159302,7.9316987991333,7.90577697753906,7.88002443313599,7.85772037506104,7.84279537200928,7.82792711257935,7.81311511993408,7.79835891723633,7.78365850448608,7.76901340484619,7.75442361831665,7.73988819122314,7.72540712356567,7.71098041534424,7.69660711288452,7.68228769302368,7.6680212020874,7.65380764007568,7.63964653015137,7.62553787231445,7.61148118972778,7.5974760055542,7.58352279663086,7.56962060928345,7.5557689666748,7.54196834564209,7.52821779251099,7.51451730728149,7.50086641311646,7.48726511001587,7.47371339797974,7.46021032333374,7.44675588607788,7.43335008621216,7.41999244689941,7.40668296813965,7.39342069625854,7.38020610809326,7.36703872680664,7.35391807556152,7.34084415435791,7.32781648635864,7.31483507156372,7.30189943313599,7.28900957107544,7.27616548538208,7.26336622238159,7.25061225891113,7.23790264129639,7.22523784637451,7.15018939971924,7.13076400756836,7.11144351959229,7.09222793579102,7.07311582565308,7.05410575866699,7.03519868850708,7.01639175415039,6.99768543243408,6.97907876968384,6.96057081222534,6.94216060638428,6.92384767532349,6.90563058853149,6.88750982284546,6.86948347091675,6.85154724121094,6.83370447158813,6.81595420837402,6.79829597473145,6.78072881698608,6.76325273513794,6.74586582183838,6.72856855392456,6.71135950088501,6.69423866271973,6.67720413208008,6.65956401824951,6.6409707069397,6.62248134613037,6.6040940284729,6.58580923080444,6.56762504577637,6.54954099655151,6.53155612945557,6.51366996765137,6.4958815574646,6.47818994522095
16.9104347229004,16.9108085632324,16.9111804962158,16.9115543365479,16.911922454834,16.912296295166,16.912670135498,16.9130401611328,16.9134140014648,16.913782119751,16.9141578674316,16.914529800415,16.9148998260498,16.9152717590332,16.9156436920166,16.9160175323486,16.916389465332,16.9167594909668,16.9171314239502,16.9175033569336,16.9178771972656,16.9182434082031,16.9186172485352,16.9189910888672,16.919361114502,16.919734954834,16.920108795166,16.9204807281494,16.9208526611328,16.9212265014648,16.921594619751,16.9219665527344,16.9223384857178,16.9227142333984,16.9230861663818,16.9234580993652,16.9238300323486,16.9242038726807,16.9245738983154,16.9249458312988,16.9253196716309,16.9256954193115,16.9260635375977,16.9264373779297,16.9268074035645,16.9271850585938,16.9275550842285,16.9279289245605,16.9282989501953,16.9286766052246,16.9290466308594,16.9294185638428,16.9297924041748,16.9301624298096,16.9305381774902,16.930908203125,16.931282043457,16.9316558837891,16.9320259094238,16.9323997497559,16.9327697753906,16.9331455230713,16.9335155487061,16.9338912963867,16.9342613220215,16.9346332550049,16.9350090026855,16.9353828430176,16.935754776001,16.9361267089844,16.9364986419678,16.9368743896484,16.9372444152832,16.9376163482666,16.9379901885986,16.9383640289307,16.9387378692627,16.9391098022461,16.9394836425781,16.9398555755615,16.9402275085449,16.940601348877,16.9409732818604,16.941349029541,16.9417190551758,16.9420948028564,16.9424667358398,16.9428424835205,16.9432144165039,16.9435863494873,16.9439601898193,16.9443340301514,16.9447078704834,16.9450778961182,16.9454536437988,16.9458274841309,16.9461975097656,16.9465732574463,16.9469451904297,16.9473209381104,16.9476947784424,16.9480667114258,16.9484405517578,16.9488124847412,16.9491863250732,16.9495620727539,16.9499340057373,16.9503078460693,16.9506797790527,16.9510536193848,16.9514255523682,16.9518032073975,16.9521751403809,16.9525470733643,16.9529228210449,16.9532928466797,16.9536685943604,16.9540424346924,16.954418182373,16.9547920227051,16.9551639556885,16.9555377960205,16.9559116363525,16.9562854766846,16.956657409668,16.95703125,16.957405090332,16.9577789306641,16.9581546783447,16.9585266113281,16.9589023590088,16.9592761993408,16.9596481323242,16.9600238800049,16.9603958129883,16.9607715606689,16.9611434936523,16.9615173339844,16.961893081665,16.9622669219971,16.9626426696777,16.9630126953125,16.9633884429932,16.9637622833252,16.9641361236572,16.9645118713379,16.9648857116699,16.9652576446533,16.9656314849854,16.9660053253174,16.966381072998,16.9667549133301,16.9671306610107,16.9675045013428,16.9678783416748,16.9682521820068,16.9686260223389,16.9690017700195,16.9693737030029,16.9697513580322,16.9701251983643,16.9704971313477,16.9708709716797,16.9712467193604,16.9716205596924,16.971996307373,16.9723682403564,16.9727420806885,16.9731197357178,16.9734935760498,16.9738693237305,16.9742431640625,16.9746170043945,16.9749927520752,16.9753684997559,16.9757423400879,16.9761180877686,16.9764938354492,16.9768695831299,16.9772434234619,16.9776210784912,16.9779949188232,16.9783687591553,16.9787445068359,16.979118347168,16.9794960021973,16.9798698425293,16.9802436828613,16.9806213378906,16.980993270874,16.9813709259033,16.9817447662354,16.982120513916,16.9824962615967,16.9828720092773,16.9832458496094,16.98362159729,16.9839992523193,16.9843730926514,16.984748840332,16.9851245880127,16.9854984283447,16.9858741760254,16.9862499237061,16.9866237640381,16.9869995117188,16.987377166748,16.9877510070801,16.9881267547607,16.9885025024414,16.9888782501221,16.9892559051514,16.9896278381348,16.9900074005127,16.9903793334961,16.9907569885254,16.9911327362061,16.9915084838867,16.9918842315674,16.992259979248,16.9926357269287,16.9930114746094,16.99338722229,16.9937629699707,16.9941368103027,16.994514465332,16.9948883056641,16.9952659606934,16.9956398010254,16.9960174560547,16.996395111084,16.9967708587646,16.9971446990967,16.9975204467773,16.997896194458,16.9982719421387,16.9986476898193,16.9990253448486,16.9993991851807,16.99977684021,17.0001525878906,17.0005283355713,17.0009059906006,17.0012836456299,10.369987487793,9.96828079223633,9.59653663635254,9.25152206420898,8.93045425415039,8.68550109863281,8.65442848205566,8.62357711791992,8.59294509887695,8.56252956390381,8.53232860565186,8.50233936309814,8.47256088256836,8.44299030303955,8.41362476348877,8.3844633102417,8.35550403594971,8.32674312591553,8.29817962646484,8.26981163024902,8.24163722991943,8.21365356445312,8.18585968017578,8.15825271606445,8.13083171844482,8.10359477996826,8.07653903961182,8.04966449737549,8.02296733856201,7.99644660949707,7.97010087966919,7.94392824172974,7.91792631149292,7.89209461212158,7.86643075942993,7.85104894638062,7.83614921569824,7.8213062286377,7.80651950836182,7.79178810119629,7.77711248397827,7.76249217987061,7.74792623519897,7.73341512680054,7.71895837783813,7.70455551147461,7.69020652770996,7.67591047286987,7.6616678237915,7.64747762680054,7.63334035873413,7.61925458908081,7.60522127151489,7.59123945236206,7.57730865478516,7.56342887878418,7.54960012435913,7.53582191467285,7.52209377288818,7.50841569900513,7.49478721618652,7.48120784759521,7.46767807006836,7.45419645309448,7.4407639503479,7.4273796081543,7.41404342651367,7.40075492858887,7.38751411437988,7.37432050704956,7.3611741065979,7.34807443618774,7.33502101898193,7.32201433181763,7.30905342102051,7.29613828659058,7.28326892852783,7.27044486999512,7.25766563415527,7.24493169784546,7.23224210739136,7.21959686279297,7.20699596405029,7.13247680664062,7.11314725875854,7.09392213821411,7.07480049133301,7.05578184127808,7.036865234375,7.01805019378662,6.99933481216431,6.98071956634521,6.96220254898071,6.9437837600708,6.925461769104,6.90723705291748,6.8891077041626,6.87107276916504,6.8531322479248,6.83528137207031,6.81752300262451,6.79985618591309,6.78228139877319,6.7647967338562,6.74740266799927,6.73009729385376,6.71288061141968,6.69575166702271,6.67870998382568,6.6617546081543,6.64389610290527,6.62539005279541,6.60698699951172,6.58868598937988,6.57048606872559,6.55238628387451,6.53438568115234,6.51648426055908,6.49868059158325,6.48097372055054,6.46336269378662
