10.9769039154053,11.0302820205688,11.0841817855835,11.1386108398438,11.1935768127441,11.2490711212158,11.3051118850708,11.3617153167725,11.4188871383667,11.476637840271,11.5349750518799,11.5939092636108,11.6534481048584,11.7136011123657,11.7743797302246,11.8357915878296,11.8978471755981,11.9605569839478,12.0239315032959,12.0879821777344,12.152717590332,12.218165397644,12.2843246459961,12.3512048721313,12.4188165664673,12.4871730804443,12.5562858581543,12.6261682510376,12.6968326568604,12.768292427063,12.8405609130859,12.9136524200439,12.9875812530518,13.0623607635498,13.1380071640015,13.3274965286255,13.4055862426758,13.4846038818359,13.5645580291748,13.6454668045044,13.7273454666138,13.8102130889893,13.8940858840942,13.9789800643921,14.0649175643921,14.1519184112549,14.2400245666504,15.5161819458008,15.5165090560913,15.5168266296387,15.5171508789062,15.5174751281738,15.5177965164185,15.5181179046631,15.518443107605,15.5187616348267,15.5190868377686,15.5194082260132,15.5197305679321,15.5200529098511,15.5203790664673,15.5206985473633,15.5210208892822,15.5213441848755,15.5216665267944,15.5219926834106,15.5223159790039,15.5226364135742,15.5229568481445,15.5232810974121,15.5236043930054,15.5239286422729,15.5242528915405,15.5245704650879,15.5248956680298,15.5252199172974,15.525541305542,15.5258665084839,15.5261878967285,15.5265130996704,15.5268325805664,15.5271549224854,15.5274829864502,15.5278053283691,15.5281286239624,15.5284509658813,15.5287714004517,15.5290937423706,15.5294208526611,15.5297441482544,15.5300674438477,15.5303907394409,15.5307083129883,15.5310325622559,15.5313568115234,15.531681060791,15.5320024490356,15.5323266983032,15.5326519012451,15.5329732894897,15.5332984924316,15.5336227416992,15.5339450836182,15.5342674255371,15.5345897674561,15.534912109375,15.5352382659912,15.5355606079102,15.5358839035034,15.5362100601196,15.5365333557129,15.5368537902832,15.5371770858765,15.5375003814697,15.5378246307373,15.5381517410278,15.5384750366211,15.5387964248657,15.5391178131104,15.5394420623779,15.5397672653198,15.5400915145874,15.5404167175293,15.540735244751,15.5410575866699,15.5413827896118,15.5417051315308,15.5420303344727,15.5423564910889,15.5426759719849,15.5429992675781,15.5433254241943,15.5436515808105,15.5439748764038,15.5442981719971,15.5446214675903,15.544942855835,15.5452699661255,15.5455932617188,15.5459175109863,15.546238899231,15.5465631484985,15.5468845367432,15.5472097396851,15.5475339889526,15.5478591918945,15.5481815338135,15.5485067367554,15.5488290786743,15.5491542816162,15.5494804382324,15.5498027801514,15.5501289367676,15.5504522323608,15.5507717132568,15.5510988235474,15.5514249801636,15.5517482757568,15.5520725250244,15.5523958206177,15.5527172088623,15.5530414581299,15.5533657073975,15.553689956665,15.5540142059326,15.5543422698975,15.5546674728394,15.554988861084,15.5553140640259,15.5556364059448,15.5559616088867,15.5562868118286,15.5566101074219,15.5569324493408,15.557258605957,15.5575819015503,15.5579080581665,15.5582313537598,15.558554649353,15.5588779449463,15.5592021942139,15.5595254898071,15.5598526000977,15.5601797103882,15.5605039596558,15.5608253479004,15.561149597168,15.5614748001099,15.5617990493774,15.5621242523193,15.5624494552612,15.5627746582031,15.5630970001221,15.563422203064,15.5637454986572,15.5640707015991,15.5643939971924,15.5647201538086,15.5650434494019,15.565372467041,15.5656957626343,15.5660190582275,15.5663461685181,15.5666732788086,15.566990852356,15.5673179626465,15.5676422119141,15.5679664611816,15.5682945251465,15.5686187744141,15.568941116333,15.5692625045776,15.5695905685425,15.5699157714844,15.5702409744263,15.5705699920654,15.5708894729614,15.5712156295776,15.5715408325195,15.5718669891357,15.572190284729,15.5725164413452,15.5728435516357,15.5731639862061,15.5734872817993,15.5738143920898,15.5741376876831,15.5744647979736,15.5747928619385,15.5751142501831,15.5754384994507,15.5757627487183,15.5760908126831,15.5764188766479,15.5767440795898,15.5770664215088,15.5773887634277,15.5777168273926,15.5780429840088,15.5783653259277,15.5786924362183,15.5790176391602,15.5793437957764,15.5796680450439,15.5799932479858,15.5803165435791,15.5806446075439,15.5809688568115,15.5812959671021,15.581618309021,15.5819444656372,15.5822687149048,15.5825958251953,15.5829210281372,15.5832452774048,15.5835704803467,15.5838956832886,15.5842208862305,15.5845489501953,15.5848731994629,15.5851974487305,15.585524559021,15.5858488082886,15.5861730575562,15.586501121521,15.5868263244629,15.5871524810791,15.5874757766724,15.5878009796143,15.5881261825562,15.5884552001953,15.5887794494629,15.5891046524048,15.589430809021,15.5897569656372,15.5900802612305,15.590407371521,15.5907325744629,15.5910577774048,15.5913848876953,15.5917081832886,15.5920352935791,15.5923624038696,15.5926885604858,15.5930128097534,15.5933389663696,15.5936632156372,15.5939893722534,15.5943164825439,15.5946416854858,15.5949678421021,15.5952930450439,15.5956192016602,15.5959444046021,15.5962734222412,15.5965976715088,15.596923828125,15.5972480773926,15.5975761413574,15.5979013442993,15.5982275009155,15.5985527038574,15.5988779067993,15.5992050170898,15.5995292663574,15.5998582839966,15.6001844406128,15.600510597229,15.6008348464966,15.6011610031128,15.6014862060547,15.6018142700195,15.6021413803101,15.602466583252,15.6027917861938,15.6031179428101,15.6034450531006,15.6037712097168,15.6040983200073,15.6044235229492,15.6047496795654,15.6050758361816,15.6054010391235,15.6057291030884,15.6060562133789,15.6063814163208,15.606707572937,15.6070346832275,15.6073589324951,15.6076879501343,15.6080131530762,15.6083393096924,15.6086654663086,15.6089925765991,15.609317779541,15.6096477508545,15.6099710464478,15.6102991104126,15.6106243133545,15.6109504699707,15.6112766265869,15.6116037368774,15.6119318008423,15.6122570037842,15.6125841140747,15.6129093170166,15.6132373809814,15.613564491272,15.6138916015625,15.6142177581787,15.6145448684692,15.6148691177368,15.615195274353,15.6155252456665,15.6158504486084,15.6161785125732,15.6165037155151,15.61683177948,15.6171569824219,15.617486000061,15.6178121566772,15.6181392669678,15.618465423584,15.6187934875488,15.619119644165,15.6194458007812,15.6197729110718,15.6201000213623,15.6204261779785,15.6207523345947,15.6210823059082,15.6214084625244,15.6217336654663,15.6220598220825,15.6223878860474,15.6227140426636,15.6230421066284,15.6233711242676,15.6236963272095,15.6240224838257
10.9767513275146,11.0301284790039,11.0840263366699,11.138445854187,11.1933879852295,11.2488746643066,11.304913520813,11.3615140914917,11.4186840057373,11.476432800293,11.5347681045532,11.5937004089355,11.6532373428345,11.7133884429932,11.7741641998291,11.8355731964111,11.8976278305054,11.960334777832,12.0237073898315,12.0877599716187,12.1525115966797,12.2179594039917,12.2841167449951,12.3509941101074,12.4186038970947,12.4869575500488,12.5560684204102,12.6259479522705,12.6966104507446,12.7680673599243,12.8403339385986,12.9134225845337,12.9873485565186,13.062126159668,13.1377687454224,13.3272352218628,13.4053287506104,13.4843435287476,13.5642948150635,13.6451997756958,13.7270755767822,13.8099365234375,13.8938016891479,13.9786930084229,14.0646266937256,14.1516246795654,14.239688873291,15.3940315246582,15.3943510055542,15.3946704864502,15.3949861526489,15.395302772522,15.3956203460693,15.3959369659424,15.3962564468384,15.3965768814087,15.3968944549561,15.3972082138062,15.3975257873535,15.3978471755981,15.3981647491455,15.3984794616699,15.3988008499146,15.399115562439,15.3994312286377,15.3997526168823,15.4000682830811,15.4003868103027,15.4007053375244,15.4010219573975,15.4013404846191,15.4016571044922,15.4019794464111,15.4022960662842,15.4026155471802,15.4029293060303,15.4032459259033,15.4035663604736,15.4038829803467,15.404200553894,15.4045209884644,15.4048385620117,15.4051532745361,15.4054708480835,15.4057893753052,15.4061098098755,15.4064283370972,15.4067440032959,15.4070625305176,15.4073810577393,15.4076995849609,15.4080190658569,15.4083375930786,15.4086542129517,15.4089736938477,15.4092893600464,15.4096059799194,15.4099254608154,15.4102458953857,15.4105625152588,15.4108800888062,15.4111967086792,15.4115142822266,15.4118347167969,15.4121522903442,15.4124736785889,15.4127941131592,15.4131088256836,15.4134273529053,15.413745880127,15.4140644073486,15.4143829345703,15.414701461792,15.4150171279907,15.4153366088867,15.4156551361084,15.4159746170044,15.4162940979004,15.4166107177734,15.4169273376465,15.4172468185425,15.4175634384155,15.4178867340088,15.4182071685791,15.4185247421265,15.4188413619995,15.4191589355469,15.4194765090942,15.4197978973389,15.4201154708862,15.4204339981079,15.4207525253296,15.421067237854,15.4213886260986,15.4217071533203,15.4220266342163,15.422345161438,15.422664642334,15.4229831695557,15.4233026504517,15.4236221313477,15.4239416122437,15.4242582321167,15.424578666687,15.4248952865601,15.4252119064331,15.4255323410034,15.4258527755737,15.4261703491211,15.4264907836914,15.4268054962158,15.4271268844604,15.4274444580078,15.4277658462524,15.4280843734741,15.4284057617188,15.4287214279175,15.4290428161621,15.4293584823608,15.4296808242798,15.4300003051758,15.4303188323975,15.4306354522705,15.4309549331665,15.4312715530396,15.4315910339355,15.4319114685059,15.4322309494019,15.4325513839722,15.4328660964966,15.4331865310669,15.4335069656372,15.4338274002075,15.4341487884521,15.4344692230225,15.4347848892212,15.4351024627686,15.4354238510132,15.4357423782349,15.4360609054565,15.4363832473755,15.4366989135742,15.4370183944702,15.4373369216919,15.4376564025879,15.4379758834839,15.4382953643799,15.4386148452759,15.4389352798462,15.4392547607422,15.4395751953125,15.4398956298828,15.4402160644531,15.4405364990234,15.4408512115479,15.4411716461182,15.4414901733398,15.4418106079102,15.4421319961548,15.4424505233765,15.4427652359009,15.4430875778198,15.4434061050415,15.4437284469604,15.4440469741821,15.4443693161011,15.4446849822998,15.4450044631958,15.4453277587891,15.4456472396851,15.4459667205811,15.4462871551514,15.4466037750244,15.4469242095947,15.447244644165,15.4475650787354,15.4478826522827,15.448203086853,15.4485206604004,15.4488391876221,15.4491596221924,15.449481010437,15.4498023986816,15.4501247406006,15.4504461288452,15.4507617950439,15.4510803222656,15.4514026641846,15.4517221450806,15.4520416259766,15.4523639678955,15.4526805877686,15.4530000686646,15.4533205032349,15.4536428451538,15.4539604187012,15.4542808532715,15.4545974731445,15.4549188613892,15.4552421569824,15.4555635452271,15.4558820724487,15.4562034606934,15.4565229415894,15.4568433761597,15.4571628570557,15.4574813842773,15.4578018188477,15.4581241607666,15.4584445953369,15.4587640762329,15.4590845108032,15.4594039916992,15.4597234725952,15.4600448608398,15.4603643417358,15.4606857299805,15.4610042572021,15.4613265991211,15.4616451263428,15.4619674682617,15.4622859954834,15.4626083374023,15.4629278182983,15.4632472991943,15.4635677337646,15.463888168335,15.4642086029053,15.4645290374756,15.4648504257202,15.4651689529419,15.4654893875122,15.4658117294312,15.4661331176758,15.4664516448975,15.4667730331421,15.4670925140381,15.4674119949341,15.4677352905273,15.4680557250977,15.468376159668,15.468695640564,15.4690160751343,15.4693374633789,15.4696598052979,15.4699783325195,15.4702997207642,15.4706192016602,15.4709405899048,15.4712600708008,15.4715824127197,15.4719038009644,15.472222328186,15.472544670105,15.4728631973267,15.4731845855713,15.4735069274902,15.4738292694092,15.4741487503052,15.4744682312012,15.4747886657715,15.4751119613647,15.4754333496094,15.4757518768311,15.47607421875,15.4763927459717,15.4767150878906,15.4770374298096,15.4773588180542,15.4776782989502,15.4779996871948,15.4783191680908,15.4786405563354,15.4789638519287,15.479284286499,15.4796047210693,15.4799251556396,15.48024559021,15.4805669784546,15.4808902740479,15.4812097549438,15.4815311431885,15.4818515777588,15.4821729660034,15.4824924468994,15.4828176498413,15.4831380844116,15.4834585189819,15.4837789535522,15.4840984344482,15.4844207763672,15.4847440719604,15.4850645065308,15.4853849411011,15.48570728302,15.4860277175903,15.486349105835,15.4866714477539,15.4869937896729,15.4873142242432,15.4876337051392,15.4879560470581,15.4882764816284,15.4885997772217,15.4889211654663,15.4892425537109,15.4895620346069,15.4898862838745,15.4902048110962,15.4905300140381,15.4908504486084,15.4911727905273,15.4914922714233,15.4918127059937,15.4921340942383,15.4924583435059,15.4927797317505,15.4931001663208,15.4934215545654,15.4937419891357,15.494065284729,15.4943876266479,15.4947099685669,15.4950313568115,15.4953517913818,15.4956731796265,15.4959945678711,15.4963188171387,15.496639251709,15.4969625473022,15.4972829818726,15.4976043701172,15.4979267120361,15.4982509613037,15.4985694885254,15.4988927841187,15.499213218689,15.4995346069336,15.4998598098755,15.5001792907715
10.9765996932983,11.029974937439,11.0838499069214,11.1382532119751,11.1931934356689,11.2486772537231,11.3047151565552,11.3613138198853,11.4184818267822,11.4762277603149,11.5345611572266,11.5934915542603,11.6530256271362,11.7131748199463,11.7739486694336,11.835355758667,11.8974075317383,11.9601125717163,12.0234966278076,12.0875587463379,12.152307510376,12.2177543640137,12.2839088439941,12.3507843017578,12.4183912277222,12.4867429733276,12.555850982666,12.6257286071777,12.6963882446289,12.76784324646,12.8401069641113,12.9131927490234,12.9871168136597,13.0618906021118,13.1375312805176,13.3269805908203,13.4050712585449,13.4840822219849,13.5640306472778,13.6449317932129,13.7267999649048,13.8096561431885,13.893518447876,13.9784049987793,14.0643358230591,14.1513299942017,14.2392730712891,15.2737979888916,15.2741098403931,15.2744216918945,15.2747344970703,15.2750463485718,15.2753620147705,15.2756681442261,15.2759809494019,15.2762975692749,15.2766103744507,15.2769231796265,15.2772369384766,15.2775468826294,15.2778568267822,15.2781705856323,15.2784881591797,15.2788019180298,15.2791156768799,15.2794237136841,15.2797384262085,15.2800493240356,15.2803640365601,15.2806787490845,15.2809906005859,15.2812995910645,15.2816114425659,15.2819271087646,15.2822389602661,15.2825517654419,15.2828674316406,15.2831764221191,15.2834930419922,15.283805847168,15.2841186523438,15.2844324111938,15.2847452163696,15.2850589752197,15.2853698730469,15.285680770874,15.2859945297241,15.2863082885742,15.2866220474243,15.2869367599487,15.2872447967529,15.2875595092773,15.2878742218018,15.2881860733032,15.288501739502,15.2888164520264,15.2891283035278,15.2894411087036,15.2897529602051,15.2900686264038,15.2903814315796,15.2906942367554,15.2910041809082,15.2913179397583,15.2916307449341,15.2919473648071,15.2922611236572,15.2925710678101,15.2928848266602,15.2931957244873,15.2935104370117,15.2938241958618,15.2941417694092,15.2944564819336,15.2947673797607,15.2950792312622,15.2953939437866,15.2957067489624,15.2960214614868,15.2963333129883,15.296648979187,15.2969579696655,15.2972707748413,15.29758644104,15.2979030609131,15.2982158660889,15.2985286712646,15.2988395690918,15.2991552352905,15.2994689941406,15.2997856140137,15.3000993728638,15.3004140853882,15.3007211685181,15.3010387420654,15.3013496398926,15.301664352417,15.3019790649414,15.3022937774658,15.3026084899902,15.3029174804688,15.3032331466675,15.3035449981689,15.3038606643677,15.3041763305664,15.3044919967651,15.3048048019409,15.3051176071167,15.3054332733154,15.3057470321655,15.3060598373413,15.3063735961914,15.3066835403442,15.3070001602173,15.3073139190674,15.3076286315918,15.3079423904419,15.3082571029663,15.3085680007935,15.3088827133179,15.3091974258423,15.3095121383667,15.3098268508911,15.3101444244385,15.3104572296143,15.3107690811157,15.3110847473145,15.3113975524902,15.311713218689,15.3120260238647,15.3123416900635,15.3126516342163,15.3129644393921,15.3132810592651,15.3135976791382,15.3139114379883,15.3142251968384,15.3145351409912,15.3148527145386,15.3151702880859,15.315484046936,15.3157987594604,15.3161134719849,15.316424369812,15.3167390823364,15.3170509338379,15.3173666000366,15.317681312561,15.3179969787598,15.3183088302612,15.318621635437,15.3189373016357,15.3192529678345,15.3195657730103,15.3198852539062,15.3202018737793,15.3205118179321,15.3208284378052,15.3211421966553,15.3214559555054,15.3217725753784,15.3220863342285,15.32239818573,15.3227119445801,15.3230295181274,15.3233442306519,15.3236589431763,15.3239736557007,15.3242855072021,15.3246002197266,15.3249158859253,15.325231552124,15.3255462646484,15.3258619308472,15.3261747360229,15.3264904022217,15.3268070220947,15.3271198272705,15.3274364471436,15.3277530670166,15.3280630111694,15.3283767700195,15.3286933898926,15.3290071487427,15.32932472229,15.3296384811401,15.3299531936646,15.330267906189,15.3305854797363,15.3309001922607,15.3312149047852,15.3315296173096,15.331844329834,15.3321571350098,15.3324718475342,15.3327875137329,15.3331031799316,15.3334188461304,15.3337354660034,15.3340454101562,15.334361076355,15.334677696228,15.3349943161011,15.3353071212769,15.3356256484985,15.3359394073486,15.3362550735474,15.3365688323975,15.3368864059448,15.3371992111206,15.337516784668,15.3378314971924,15.3381462097168,15.3384609222412,15.3387746810913,15.3390913009644,15.3394079208374,15.3397235870361,15.3400373458862,15.340353012085,15.3406677246094,15.3409833908081,15.3412990570068,15.3416156768799,15.3419303894043,15.3422451019287,15.3425607681274,15.3428745269775,15.3431930541992,15.3435068130493,15.343822479248,15.3441362380981,15.3444528579712,15.3447666168213,15.3450860977173,15.3453998565674,15.3457155227661,15.3460292816162,15.3463459014893,15.3466596603394,15.346978187561,15.3472929000854,15.3476085662842,15.3479242324829,15.3482389450073,15.3485546112061,15.3488712310791,15.3491868972778,15.3495025634766,15.349817276001,15.3501329421997,15.3504467010498,15.3507671356201,15.3510789871216,15.3513965606689,15.351713180542,15.3520269393921,15.3523435592651,15.3526611328125,15.3529767990112,15.3532915115356,15.3536062240601,15.3539218902588,15.3542375564575,15.3545551300049,15.3548707962036,15.3551864624023,15.3555021286011,15.3558168411255,15.3561363220215,15.3564500808716,15.3567676544189,15.357081413269,15.3573980331421,15.3577136993408,15.3580322265625,15.3583469390869,15.358660697937,15.3589782714844,15.3592929840088,15.3596096038818,15.3599271774292,15.3602437973022,15.360559463501,15.360876083374,15.3611898422241,15.3615064620972,15.3618240356445,15.3621416091919,15.3624563217163,15.3627700805664,15.3630886077881,15.3634033203125,15.3637228012085,15.3640375137329,15.364354133606,15.3646697998047,15.3649873733521,15.3653011322021,15.3656215667725,15.3659353256226,15.3662519454956,15.36656665802,15.3668823242188,15.3671989440918,15.3675174713135,15.3678340911865,15.3681497573853,15.3684663772583,15.368782043457,15.3690977096558,15.3694171905518,15.3697347640991,15.3700485229492,15.3703632354736,15.3706817626953,15.3709964752197,15.3713159561157,15.3716316223145,15.3719482421875,15.3722639083862,15.3725814819336,15.3728971481323,15.3732166290283,15.3735313415527,15.3738489151001,15.3741636276245,15.3744802474976,15.3747978210449,15.3751153945923,15.375433921814,15.3757476806641,15.3760662078857,15.3763799667358,15.3767013549805,15.3770151138306,15.3773345947266,15.377649307251,15.3779678344727,15.3782825469971
10.9764347076416,11.0297861099243,11.0836591720581,11.1380605697632,11.1929979324341,11.248480796814,11.3045167922974,11.3611135482788,11.4182796478271,11.4760236740112,11.5343551635742,11.593282699585,11.6528148651123,11.7129621505737,11.7737331390381,11.8351383209229,11.8971920013428,11.9599123001099,12.0232973098755,12.0873575210571,12.1521043777466,12.2175483703613,12.2837009429932,12.3505735397339,12.4181785583496,12.4865283966064,12.5556335449219,12.625509262085,12.6961660385132,12.7676181793213,12.839879989624,12.9129638671875,12.9868841171265,13.06165599823,13.1372938156128,13.3267259597778,13.4048128128052,13.4838209152222,13.5637645721436,13.6446590423584,13.726523399353,13.8093757629395,13.8932342529297,13.9781179428101,14.0640459060669,14.151047706604,15.1551141738892,15.1554222106934,15.1557235717773,15.1560316085815,15.1563405990601,15.1566486358643,15.1569604873657,15.1572694778442,15.1575746536255,15.157883644104,15.1581897735596,15.1584997177124,15.158805847168,15.1591148376465,15.1594219207764,15.1597280502319,15.1600351333618,15.1603450775146,15.1606521606445,15.1609630584717,15.1612701416016,15.1615743637085,15.1618852615356,15.1621961593628,15.162504196167,15.1628122329712,15.1631202697754,15.1634254455566,15.1637306213379,15.1640424728394,15.1643476486206,15.1646595001221,15.1649656295776,15.1652746200562,15.1655807495117,15.1658868789673,15.1661968231201,15.1665067672729,15.1668157577515,15.1671257019043,15.1674327850342,15.1677398681641,15.1680469512939,15.1683578491211,15.168664932251,15.1689758300781,15.1692800521851,15.1695880889893,15.1698989868164,15.1702041625977,15.1705160140991,15.1708240509033,15.1711292266846,15.1714382171631,15.1717472076416,15.1720561981201,15.1723680496216,15.1726770401001,15.1729803085327,15.1732892990112,15.1735992431641,15.1739091873169,15.1742153167725,15.1745252609253,15.1748361587524,15.1751394271851,15.1754503250122,15.175760269165,15.1760654449463,15.1763763427734,15.1766834259033,15.1769914627075,15.177303314209,15.1776113510132,15.1779193878174,15.1782312393188,15.178539276123,15.1788454055786,15.1791543960571,15.1794633865356,15.1797723770142,15.1800813674927,15.1803913116455,15.1806974411011,15.1810073852539,15.1813135147095,15.1816234588623,15.1819334030151,15.182240486145,15.1825485229492,15.182861328125,15.1831693649292,15.1834802627563,15.1837873458862,15.1840953826904,15.1844062805176,15.1847114562988,15.1850204467773,15.1853313446045,15.185640335083,15.1859493255615,15.1862573623657,15.1865634918213,15.1868724822998,15.1871852874756,15.1874942779541,15.1878042221069,15.1881170272827,15.1884202957153,15.1887302398682,15.189040184021,15.1893501281738,15.1896572113037,15.1899681091309,15.1902751922607,15.1905860900879,15.1908941268921,15.1912050247192,15.1915130615234,15.1918239593506,15.1921319961548,15.1924381256104,15.1927528381348,15.193060874939,15.1933698654175,15.193678855896,15.1939878463745,15.194296836853,15.1946067810059,15.1949157714844,15.1952257156372,15.19553565979,15.1958456039429,15.1961488723755,15.1964588165283,15.1967697143555,15.1970796585083,15.1973905563354,15.1977014541626,15.1980085372925,15.1983194351196,15.1986303329468,15.198938369751,15.1992502212524,15.1995582580566,15.1998643875122,15.2001752853394,15.2004842758179,15.2007932662964,15.2011051177979,15.2014150619507,15.2017240524292,15.2020301818848,15.2023401260376,15.2026529312134,15.2029628753662,15.203275680542,15.2035856246948,15.2038927078247,15.2042036056519,15.2045135498047,15.2048215866089,15.205132484436,15.2054433822632,15.2057476043701,15.2060594558716,15.2063703536987,15.2066783905029,15.2069902420044,15.2072992324829,15.2076082229614,15.2079162597656,15.2082290649414,15.2085409164429,15.2088499069214,15.2091627120972,15.20947265625,15.2097787857056,15.2100887298584,15.2104015350342,15.2107086181641,15.2110195159912,15.211332321167,15.2116365432739,15.2119474411011,15.2122583389282,15.2125692367554,15.2128801345825,15.2131881713867,15.2135000228882,15.2138109207153,15.2141199111938,15.214430809021,15.2147426605225,15.215051651001,15.2153577804565,15.215669631958,15.2159824371338,15.2162914276123,15.2166013717651,15.2169122695923,15.2172250747681,15.2175340652466,15.2178449630737,15.2181539535522,15.2184648513794,15.2187747955322,15.2190866470337,15.2193965911865,15.219705581665,15.2200155258179,15.220326423645,15.2206392288208,15.220947265625,15.2212591171265,15.2215671539307,15.2218780517578,15.2221879959106,15.2224998474121,15.2228107452393,15.2231216430664,15.2234306335449,15.2237405776978,15.2240514755249,15.2243633270264,15.2246742248535,15.224983215332,15.2252950668335,15.225604057312,15.2259159088135,15.2262277603149,15.2265386581421,15.2268476486206,15.2271585464478,15.2274684906006,15.2277784347534,15.2280912399292,15.228401184082,15.2287130355835,15.229022026062,15.2293338775635,15.229642868042,15.2299566268921,15.2302656173706,15.2305784225464,15.2308855056763,15.2311973571777,15.2315082550049,15.2318201065063,15.2321319580078,15.2324419021606,15.2327518463135,15.2330627441406,15.2333726882935,15.2336854934692,15.2339963912964,15.2343072891235,15.2346181869507,15.2349281311035,15.2352390289307,15.2355527877808,15.2358627319336,15.2361726760864,15.2364835739136,15.2367935180664,15.2371063232422,15.2374181747437,15.2377281188965,15.2380399703979,15.2383499145508,15.2386617660522,15.238974571228,15.2392845153809,15.2395963668823,15.2399053573608,15.2402172088623,15.2405271530151,15.2408409118652,15.2411518096924,15.2414627075195,15.2417726516724,15.2420854568481,15.242395401001,15.2427101135254,15.2430181503296,15.2433290481567,15.2436428070068,15.243950843811,15.2442636489868,15.2445755004883,15.2448883056641,15.2451982498169,15.2455101013184,15.2458200454712,15.2461318969727,15.2464447021484,15.2467565536499,15.2470674514771,15.2473773956299,15.2476892471313,15.2480001449585,15.2483139038086,15.2486248016357,15.2489366531372,15.2492475509644,15.2495594024658,15.2498693466187,15.2501840591431,15.2504959106445,15.250807762146,15.2511177062988,15.2514276504517,15.2517395019531,15.2520523071289,15.2523641586304,15.2526760101318,15.2529888153076,15.2532968521118,15.2536106109619,15.2539234161377,15.2542352676392,15.2545461654663,15.2548580169678,15.2551689147949,15.2554807662964,15.2557935714722,15.2561044692993,15.2564172744751,15.2567272186279,15.257040977478,15.2573537826538,15.2576656341553,15.2579774856567,15.2582893371582
10.9762477874756,11.0295972824097,11.0834684371948,11.137866973877,11.1928033828735,11.2482843399048,11.3043184280396,11.360912322998,11.4180765151978,11.4758186340332,11.5341482162476,11.5930738449097,11.6526041030884,11.7127485275269,11.7735176086426,11.8349332809448,11.8969974517822,11.9597148895264,12.0230979919434,12.0871562957764,12.1519002914429,12.217342376709,12.2834930419922,12.3503637313843,12.4179668426514,12.4863138198853,12.5554170608521,12.6252889633179,12.6959438323975,12.7673940658569,12.8396520614624,12.9127340316772,12.9866514205933,13.0614204406738,13.1370553970337,13.326470375061,13.4045553207397,13.4835577011108,13.563494682312,13.6443853378296,13.726245880127,13.8090953826904,13.8929510116577,13.9778308868408,14.0637550354004,14.1507701873779,15.0385627746582,15.0388641357422,15.0391693115234,15.0394744873047,15.0397729873657,15.040078163147,15.040379524231,15.0406847000122,15.0409870147705,15.0412902832031,15.0415925979614,15.0418949127197,15.0422010421753,15.0425043106079,15.0428075790405,15.0431108474731,15.0434169769287,15.0437145233154,15.044017791748,15.044322013855,15.0446252822876,15.0449295043945,15.0452337265015,15.0455322265625,15.0458364486694,15.0461406707764,15.0464458465576,15.0467472076416,15.0470523834229,15.0473575592041,15.0476589202881,15.0479612350464,15.048267364502,15.0485696792603,15.0488748550415,15.0491781234741,15.0494775772095,15.0497808456421,15.0500869750977,15.0503902435303,15.0506935119629,15.0509967803955,15.0512981414795,15.0516014099121,15.051905632019,15.0522127151489,15.0525169372559,15.0528211593628,15.0531196594238,15.0534238815308,15.053729057312,15.0540332794189,15.0543384552002,15.0546436309814,15.0549392700195,15.0552453994751,15.0555505752563,15.0558557510376,15.0561590194702,15.0564613342285,15.0567617416382,15.0570678710938,15.0573740005493,15.0576801300049,15.0579833984375,15.0582876205444,15.0585908889771,15.0588912963867,15.0591983795166,15.0594997406006,15.0598039627075,15.0601081848145,15.0604124069214,15.0607147216797,15.0610189437866,15.0613212585449,15.0616254806519,15.0619306564331,15.0622367858887,15.062539100647,15.0628442764282,15.0631494522095,15.0634527206421,15.0637588500977,15.064061164856,15.0643615722656,15.0646677017212,15.0649709701538,15.0652780532837,15.0655813217163,15.0658855438232,15.0661888122559,15.0664901733398,15.0667943954468,15.0670986175537,15.0674028396606,15.0677137374878,15.0680150985718,15.0683164596558,15.068621635437,15.0689268112183,15.0692291259766,15.0695371627808,15.0698394775391,15.0701417922974,15.07044506073,15.0707502365112,15.0710563659668,15.0713596343994,15.071665763855,15.0719661712646,15.0722723007202,15.0725793838501,15.0728826522827,15.0731868743896,15.0734939575195,15.0737943649292,15.0740985870361,15.0744066238403,15.0747079849243,15.0750150680542,15.0753173828125,15.0756254196167,15.0759267807007,15.076229095459,15.0765342712402,15.0768394470215,15.0771446228027,15.0774507522583,15.0777530670166,15.0780591964722,15.0783653259277,15.0786685943604,15.0789747238159,15.0792779922485,15.0795812606812,15.0798854827881,15.0801916122437,15.0804958343506,15.0808029174805,15.0811071395874,15.0814085006714,15.0817127227783,15.0820169448853,15.0823249816895,15.0826292037964,15.0829372406006,15.0832395553589,15.0835447311401,15.0838499069214,15.0841550827026,15.0844612121582,15.0847663879395,15.0850696563721,15.0853719711304,15.0856781005859,15.0859813690186,15.0862874984741,15.086594581604,15.0868978500366,15.0872011184692,15.0875053405762,15.087815284729,15.0881195068359,15.0884237289429,15.0887308120728,15.0890321731567,15.089337348938,15.0896444320679,15.0899496078491,15.0902547836304,15.0905599594116,15.0908622741699,15.0911674499512,15.0914726257324,15.091778755188,15.0920839309692,15.0923900604248,15.0926961898804,15.0930023193359,15.0933055877686,15.0936117172241,15.093918800354,15.0942220687866,15.0945291519165,15.0948295593262,15.0951366424561,15.0954437255859,15.0957479476929,15.0960559844971,15.096360206604,15.096661567688,15.0969696044922,15.0972747802734,15.0975799560547,15.0978841781616,15.0981931686401,15.0984983444214,15.0988006591797,15.0991096496582,15.0994129180908,15.0997180938721,15.1000242233276,15.1003322601318,15.1006374359131,15.10094165802,15.1012487411499,15.1015520095825,15.101861000061,15.1021642684937,15.1024703979492,15.1027755737305,15.1030807495117,15.103385925293,15.1036920547485,15.1039991378784,15.104305267334,15.1046104431152,15.1049156188965,15.1052207946777,15.1055269241333,15.1058340072632,15.1061382293701,15.1064424514771,15.1067485809326,15.1070528030396,15.1073627471924,15.1076669692993,15.1079730987549,15.1082782745361,15.1085834503174,15.1088886260986,15.1091976165771,15.1095027923584,15.109808921814,15.1101140975952,15.1104192733765,15.1107244491577,15.1110315322876,15.1113386154175,15.1116437911987,15.1119508743286,15.1122560501099,15.1125612258911,15.112868309021,15.1131753921509,15.1134805679321,15.1137866973877,15.1140909194946,15.1143960952759,15.1147050857544,15.1150102615356,15.1153163909912,15.1156215667725,15.1159286499023,15.1162338256836,15.1165418624878,15.1168479919434,15.1171531677246,15.1174573898315,15.1177654266357,15.1180715560913,15.1183776855469,15.1186857223511,15.1189889907837,15.1192970275879,15.1196012496948,15.119909286499,15.1202163696289,15.1205244064331,15.12082862854,15.1211357116699,15.1214399337769,15.1217498779297,15.1220560073853,15.1223602294922,15.1226654052734,15.1229724884033,15.1232795715332,15.1235866546631,15.123893737793,15.1241989135742,15.1245050430298,15.1248121261597,15.1251182556152,15.1254262924194,15.1257314682007,15.1260395050049,15.1263446807861,15.1266508102417,15.1269559860229,15.1272649765015,15.1275701522827,15.1278791427612,15.1281833648682,15.1284914016724,15.1287956237793,15.1291055679321,15.1294116973877,15.1297168731689,15.1300230026245,15.1303300857544,15.1306371688843,15.1309442520142,15.131251335144,15.1315574645996,15.1318645477295,15.1321706771851,15.1324787139893,15.1327857971191,15.133092880249,15.1333990097046,15.1337041854858,15.1340131759644,15.1343183517456,15.1346273422241,15.1349325180054,15.1352396011353,15.1355457305908,15.135853767395,15.1361598968506,15.1364688873291,15.136775970459,15.1370820999146,15.1373891830444,15.1376943588257,15.1380014419556,15.1383104324341,15.138617515564,15.1389236450195,15.139232635498,15.1395387649536,15.1398448944092,15.140154838562
10.9760608673096,11.029408454895,11.0832767486572,11.137674331665,11.192608833313,11.2480878829956,11.3041191101074,11.3607120513916,11.4178743362427,11.4756145477295,11.5339412689209,11.5928649902344,11.6523933410645,11.7125396728516,11.773323059082,11.8347406387329,11.8968019485474,11.9595184326172,12.0228986740112,12.0869550704956,12.1516971588135,12.217137336731,12.2832851409912,12.3501539230347,12.4177541732788,12.4860982894897,12.5551996231079,12.6250696182251,12.6957216262817,12.7671689987183,12.8394250869751,12.912504196167,12.9864187240601,13.061185836792,13.1368179321289,13.3262157440186,13.4042930603027,13.4832906723022,13.5632238388062,13.6441116333008,13.7259693145752,13.8088150024414,13.8926677703857,13.9775438308716,14.0634641647339,14.1504926681519,14.9237871170044,14.9240884780884,14.9243898391724,14.9246883392334,14.9249877929688,14.9252862930298,14.9255857467651,14.9258785247803,14.9261808395386,14.9264764785767,14.9267768859863,14.9270763397217,14.927375793457,14.9276695251465,14.9279699325562,14.9282665252686,14.9285669326782,14.9288673400879,14.9291648864746,14.9294624328613,14.929762840271,14.930061340332,14.9303617477417,14.9306602478027,14.9309587478638,14.9312534332275,14.9315547943115,14.9318504333496,14.9321527481079,14.9324512481689,14.9327507019043,14.9330463409424,14.9333457946777,14.9336452484131,14.9339447021484,14.9342441558838,14.9345436096191,14.9348440170288,14.9351406097412,14.9354381561279,14.9357385635376,14.9360389709473,14.9363355636597,14.9366369247437,14.9369316101074,14.9372320175171,14.9375333786011,14.9378280639648,14.9381294250488,14.9384279251099,14.9387235641479,14.9390249252319,14.9393262863159,14.9396257400513,14.9399280548096,14.9402236938477,14.940523147583,14.9408187866211,14.9411182403564,14.9414186477661,14.9417181015015,14.9420175552368,14.9423151016235,14.9426116943359,14.9429121017456,14.9432125091553,14.9435129165649,14.9438104629517,14.9441146850586,14.9444122314453,14.9447107315063,14.945011138916,14.9453096389771,14.9456081390381,14.9459095001221,14.9462051391602,14.9465065002441,14.9468059539795,14.9471044540405,14.9474039077759,14.9477033615112,14.9479990005493,14.9482984542847,14.9485988616943,14.9489011764526,14.9492044448853,14.9495010375977,14.9497985839844,14.9500980377197,14.9503984451294,14.9506998062134,14.9509963989258,14.9512977600098,14.9515981674194,14.9518938064575,14.9521942138672,14.9524927139282,14.9527940750122,14.9530954360962,14.9533948898315,14.9536895751953,14.9539918899536,14.9542942047119,14.9545927047729,14.9548950195312,14.9551916122437,14.955491065979,14.9557905197144,14.956090927124,14.9563903808594,14.956690788269,14.9569902420044,14.9572877883911,14.9575881958008,14.9578886032104,14.9581890106201,14.9584875106812,14.9587879180908,14.9590864181519,14.9593906402588,14.9596881866455,14.9599895477295,14.9602880477905,14.9605865478516,14.9608888626099,14.9611845016479,14.9614868164062,14.9617891311646,14.9620876312256,14.9623870849609,14.9626865386963,14.9629831314087,14.9632863998413,14.9635858535767,14.9638862609863,14.9641895294189,14.9644899368286,14.964786529541,14.965087890625,14.9653882980347,14.9656887054443,14.9659900665283,14.9662914276123,14.9665861129761,14.9668874740601,14.967188835144,14.9674873352051,14.9677886962891,14.9680871963501,14.9683895111084,14.9686851501465,14.9689874649048,14.9692897796631,14.9695920944214,14.9698915481567,14.9701919555664,14.9704885482788,14.9707908630371,14.9710912704468,14.9713916778564,14.9716920852661,14.9719924926758,14.9722900390625,14.9725904464722,14.9728908538818,14.9731950759888,14.9734935760498,14.9737939834595,14.9740924835205,14.9743938446045,14.9746952056885,14.9749975204468,14.9752988815308,14.9755983352661,14.9758968353271,14.9761962890625,14.9764986038208,14.9767980575562,14.9771003723145,14.9773998260498,14.9777030944824,14.9779996871948,14.9783000946045,14.9786005020142,14.9789037704468,14.9792041778564,14.9795074462891,14.9798049926758,14.9801063537598,14.9804067611694,14.9807081222534,14.9810094833374,14.9813108444214,14.9816093444824,14.9819078445435,14.9822120666504,14.9825105667114,14.9828128814697,14.983115196228,14.9834108352661,14.9837131500244,14.9840126037598,14.9843187332153,14.9846181869507,14.9849185943604,14.9852209091187,14.985523223877,14.9858226776123,14.986123085022,14.9864234924316,14.9867258071899,14.9870281219482,14.9873275756836,14.9876279830933,14.9879293441772,14.9882287979126,14.9885339736938,14.9888334274292,14.9891347885132,14.9894342422485,14.9897356033325,14.9900360107422,14.9903402328491,14.9906406402588,14.9909410476685,14.9912405014038,14.9915409088135,14.9918413162231,14.9921445846558,14.9924459457397,14.9927463531494,14.9930477142334,14.9933481216431,14.9936504364014,14.9939527511597,14.9942531585693,14.9945545196533,14.9948568344116,14.995156288147,14.9954557418823,14.9957599639893,14.9960603713989,14.9963617324829,14.9966621398926,14.9969644546509,14.9972648620605,14.9975681304932,14.9978694915771,14.9981698989868,14.9984712600708,14.9987716674805,14.9990730285645,14.9993762969971,14.9996776580811,14.9999780654907,15.0002794265747,15.0005798339844,15.0008821487427,15.0011863708496,15.0014867782593,15.0017871856689,15.0020885467529,15.0023899078369,15.0026893615723,15.0029954910278,15.0032958984375,15.0035972595215,15.0038976669312,15.0041990280151,15.0045003890991,15.0048055648804,15.0051040649414,15.0054082870483,15.0057077407837,15.0060091018677,15.0063123703003,15.0066137313843,15.0069169998169,15.0072164535522,15.0075187683105,15.0078191757202,15.0081243515015,15.0084247589111,15.0087270736694,15.0090284347534,15.0093307495117,15.0096302032471,15.009934425354,15.010235786438,15.0105361938477,15.0108375549316,15.0111398696899,15.0114431381226,15.0117454528809,15.0120487213135,15.0123500823975,15.0126504898071,15.0129518508911,15.0132551193237,15.013557434082,15.0138607025146,15.0141620635986,15.0144624710083,15.0147638320923,15.0150661468506,15.0153703689575,15.0156707763672,15.0159730911255,15.0162754058838,15.0165786743164,15.0168790817261,15.0171823501587,15.0174837112427,15.0177850723267,15.0180883407593,15.0183887481689,15.0186929702759,15.0189943313599,15.0192985534668,15.0195999145508,15.0199003219604,15.0202035903931,15.0205059051514,15.020809173584,15.0211114883423,15.0214138031006,15.0217142105103,15.0220174789429,15.0223188400269,15.0226230621338,15.0229253768921,15.0232276916504,15.0235290527344,15.0238332748413
10.9758729934692,11.0292196273804,11.0830860137939,11.1374816894531,11.1924142837524,11.2478914260864,11.3039207458496,11.3605117797852,11.4176712036133,11.4754095077515,11.5337343215942,11.5926561355591,11.6521940231323,11.7123508453369,11.7731323242188,11.834547996521,11.8966073989868,11.9593210220337,12.0226993560791,12.0867538452148,12.1514940261841,12.2169313430786,12.2830772399902,12.3499431610107,12.4175415039062,12.4858837127686,12.5549821853638,12.6248502731323,12.695499420166,12.7669448852539,12.8391981124878,12.9122724533081,12.9861831665039,13.0713415145874,13.2487859725952,13.3259553909302,13.4040288925171,13.4830236434937,13.5629539489746,13.643837928772,13.7256927490234,13.8085346221924,13.8923835754395,13.9772567749023,14.0631761550903,14.1502141952515,14.8107595443726,14.8110551834106,14.8113451004028,14.811637878418,14.8119344711304,14.8122272491455,14.8125238418579,14.812816619873,14.8131103515625,14.813404083252,14.8137006759644,14.8139944076538,14.8142881393433,14.814582824707,14.8148765563965,14.8151683807373,14.8154621124268,14.8157567977905,14.8160514831543,14.8163471221924,14.8166389465332,14.816930770874,14.8172264099121,14.8175210952759,14.817816734314,14.8181123733521,14.8184080123901,14.8186979293823,14.8189935684204,14.8192873001099,14.8195829391479,14.8198795318604,14.8201694488525,14.820463180542,14.8207597732544,14.8210506439209,14.8213481903076,14.8216419219971,14.8219356536865,14.8222303390503,14.8225221633911,14.8228158950806,14.8231143951416,14.8234090805054,14.8237037658691,14.8239984512329,14.824291229248,14.8245859146118,14.8248815536499,14.825177192688,14.8254699707031,14.8257656097412,14.8260555267334,14.8263511657715,14.8266477584839,14.826940536499,14.8272371292114,14.8275308609009,14.8278245925903,14.8281211853027,14.8284149169922,14.8287124633789,14.8290061950684,14.8293008804321,14.8295984268188,14.8298864364624,14.8301839828491,14.8304786682129,14.8307733535767,14.8310689926147,14.8313636779785,14.8316526412964,14.8319511413574,14.8322439193726,14.8325424194336,14.8328380584717,14.8331346511841,14.8334245681763,14.8337202072144,14.8340167999268,14.8343095779419,14.8346061706543,14.8348999023438,14.8351936340332,14.8354902267456,14.8357849121094,14.8360786437988,14.8363761901855,14.836669921875,14.8369617462158,14.8372564315796,14.8375539779663,14.8378486633301,14.8381471633911,14.8384418487549,14.838737487793,14.8390293121338,14.8393249511719,14.83962059021,14.839916229248,14.8402118682861,14.8405046463013,14.8407974243164,14.8410940170288,14.8413906097412,14.8416833877563,14.8419799804688,14.8422737121582,14.8425674438477,14.8428649902344,14.8431615829468,14.8434591293335,14.84375,14.8440475463867,14.8443393707275,14.8446369171143,14.844931602478,14.8452272415161,14.8455219268799,14.8458204269409,14.8461122512817,14.8464078903198,14.8467035293579,14.846999168396,14.8472948074341,14.8475942611694,14.8478899002075,14.8481798171997,14.8484764099121,14.8487730026245,14.8490657806396,14.8493661880493,14.8496599197388,14.8499536514282,14.8502473831177,14.8505449295044,14.8508386611938,14.8511333465576,14.8514308929443,14.8517227172852,14.8520202636719,14.8523149490356,14.8526163101196,14.8529109954834,14.8532066345215,14.8534994125366,14.8537940979004,14.8540897369385,14.8543863296509,14.8546848297119,14.8549776077271,14.8552742004395,14.8555669784546,14.855863571167,14.8561601638794,14.8564567565918,14.8567504882812,14.8570470809937,14.8573408126831,14.8576412200928,14.8579359054565,14.8582334518433,14.8585271835327,14.8588256835938,14.8591203689575,14.8594150543213,14.8597097396851,14.8600053787231,14.8603029251099,14.8605985641479,14.8608913421631,14.8611898422241,14.8614854812622,14.8617811203003,14.8620777130127,14.8623762130737,14.8626699447632,14.8629655838013,14.8632621765137,14.8635587692261,14.8638525009155,14.8641500473022,14.8644466400146,14.8647403717041,14.8650379180908,14.8653326034546,14.8656301498413,14.865927696228,14.8662223815918,14.8665170669556,14.8668146133423,14.8671073913574,14.8674087524414,14.8677034378052,14.8680019378662,14.8682947158813,14.8685903549194,14.8688888549805,14.8691854476929,14.869481086731,14.8697776794434,14.8700704574585,14.8703670501709,14.8706636428833,14.8709602355957,14.8712577819824,14.8715543746948,14.8718528747559,14.8721504211426,14.872444152832,14.8727416992188,14.8730363845825,14.8733339309692,14.8736305236816,14.873927116394,14.8742237091064,14.8745193481445,14.8748159408569,14.875114440918,14.8754100799561,14.8757057189941,14.8760032653809,14.8762989044189,14.8765964508057,14.8768920898438,14.8771905899048,14.8774852752686,14.8777799606323,14.8780784606934,14.8783740997314,14.8786725997925,14.8789682388306,14.8792667388916,14.8795604705811,14.8798580169678,14.8801527023315,14.8804540634155,14.8807487487793,14.8810453414917,14.8813419342041,14.8816366195679,14.8819351196289,14.8822317123413,14.8825302124023,14.8828248977661,14.8831224441528,14.8834180831909,14.8837156295776,14.8840131759644,14.8843097686768,14.8846063613892,14.8849039077759,14.885199546814,14.8854942321777,14.8857946395874,14.8860902786255,14.8863887786865,14.886682510376,14.8869800567627,14.8872766494751,14.8875770568848,14.8878717422485,14.8881683349609,14.888466835022,14.8887615203857,14.8890581130981,14.8893566131592,14.8896551132202,14.8899507522583,14.890248298645,14.8905439376831,14.8908414840698,14.8911399841309,14.8914375305176,14.89173412323,14.8920316696167,14.8923273086548,14.8926267623901,14.8929243087769,14.8932189941406,14.8935165405273,14.8938140869141,14.8941116333008,14.8944091796875,14.8947067260742,14.8950033187866,14.8953008651733,14.8955974578857,14.8958959579468,14.8961925506592,14.8964891433716,14.8967866897583,14.8970832824707,14.8973808288574,14.8976764678955,14.8979778289795,14.8982753753662,14.8985710144043,14.8988676071167,14.8991661071777,14.8994626998901,14.8997621536255,14.9000577926636,14.900354385376,14.9006538391113,14.9009504318237,14.9012470245361,14.9015455245972,14.9018449783325,14.9021396636963,14.9024391174316,14.902735710144,14.9030323028564,14.9033327102661,14.9036293029785,14.9039258956909,14.9042234420776,14.9045209884644,14.9048185348511,14.9051170349121,14.9054145812988,14.9057130813599,14.9060087203979,14.906307220459,14.9066038131714,14.9069032669067,14.9072017669678,14.9074974060059,14.9077959060669,14.9080924987793,14.9083909988403,14.9086904525757,14.9089879989624,14.9092855453491
10.9756860733032,11.0290307998657,11.0828952789307,11.1372890472412,11.1922197341919,11.2476949691772,11.3037223815918,11.3603105545044,11.4174690246582,11.4752054214478,11.5335311889648,11.5924663543701,11.6520071029663,11.7121620178223,11.7729406356812,11.8343544006348,11.896411895752,11.9591236114502,12.0225009918213,12.0865526199341,12.1512899398804,12.2167253494263,12.2828693389893,12.3497333526611,12.4173288345337,12.4856691360474,12.5547647476196,12.6246290206909,12.6952743530273,12.7667140960693,12.8389625549316,12.912034034729,13.0180397033691,13.1999731063843,13.2485275268555,13.3256940841675,13.4037656784058,13.4827566146851,13.5626840591431,13.6435642242432,13.7254152297974,13.8082551956177,13.8921003341675,13.9769697189331,14.0629024505615,14.1499223709106,14.6994276046753,14.6997184753418,14.700005531311,14.7002964019775,14.7005834579468,14.7008714675903,14.7011623382568,14.7014532089233,14.7017412185669,14.7020330429077,14.7023239135742,14.7026090621948,14.7028980255127,14.7031898498535,14.7034816741943,14.7037734985352,14.704062461853,14.7043485641479,14.7046375274658,14.704930305481,14.7052202224731,14.7055101394653,14.7057991027832,14.7060861587524,14.7063760757446,14.7066669464111,14.7069568634033,14.7072467803955,14.707537651062,14.7078256607056,14.7081127166748,14.7084074020386,14.7086982727051,14.7089891433716,14.7092771530151,14.709566116333,14.7098541259766,14.7101459503174,14.7104377746582,14.7107267379761,14.7110157012939,14.7113075256348,14.7115936279297,14.7118864059448,14.7121753692627,14.7124652862549,14.7127552032471,14.7130441665649,14.7133350372314,14.7136249542236,14.7139177322388,14.7142086029053,14.7144985198975,14.714789390564,14.7150735855103,14.7153673171997,14.7156553268433,14.7159461975098,14.7162380218506,14.7165288925171,14.716817855835,14.7171058654785,14.7173976898193,14.7176866531372,14.717978477478,14.7182731628418,14.7185621261597,14.7188482284546,14.7191410064697,14.7194309234619,14.7197198867798,14.7200126647949,14.7203025817871,14.7205896377563,14.7208795547485,14.721170425415,14.7214632034302,14.7217540740967,14.7220411300659,14.7223291397095,14.722620010376,14.7229108810425,14.7232046127319,14.7234964370728,14.7237873077393,14.7240762710571,14.7243680953979,14.7246561050415,14.7249479293823,14.7252368927002,14.725528717041,14.7258148193359,14.7261075973511,14.7263965606689,14.7266893386841,14.7269792556763,14.7272720336914,14.7275619506836,14.7278518676758,14.7281446456909,14.7284355163574,14.7287254333496,14.7290191650391,14.7293100357056,14.7295942306519,14.7298851013184,14.7301759719849,14.7304706573486,14.7307615280151,14.731053352356,14.7313385009766,14.7316303253174,14.7319221496582,14.732213973999,14.7325029373169,14.7327976226807,14.7330875396729,14.7333765029907,14.7336692810059,14.7339611053467,14.7342510223389,14.734543800354,14.7348337173462,14.7351236343384,14.7354145050049,14.7357044219971,14.7359981536865,14.7362880706787,14.7365789413452,14.7368669509888,14.7371578216553,14.7374486923218,14.7377433776855,14.7380342483521,14.7383260726929,14.7386140823364,14.7389059066772,14.7391977310181,14.7394866943359,14.7397813796997,14.7400703430176,14.7403602600098,14.7406520843506,14.7409420013428,14.7412347793579,14.7415237426758,14.7418174743652,14.7421035766602,14.7423973083496,14.7426900863647,14.7429838180542,14.7432746887207,14.7435646057129,14.7438583374023,14.7441463470459,14.7444372177124,14.7447280883789,14.7450199127197,14.7453145980835,14.74560546875,14.7458944320679,14.7461824417114,14.7464742660522,14.7467660903931,14.7470588684082,14.747353553772,14.7476434707642,14.747935295105,14.7482252120972,14.7485179901123,14.7488107681274,14.7491006851196,14.7493906021118,14.749680519104,14.7499742507935,14.7502641677856,14.7505578994751,14.7508487701416,14.7511367797852,14.7514305114746,14.7517213821411,14.7520122528076,14.7523069381714,14.7526016235352,14.7528924942017,14.7531814575195,14.7534732818604,14.7537651062012,14.754056930542,14.7543487548828,14.7546415328979,14.7549304962158,14.755223274231,14.7555131912231,14.7558059692383,14.7560987472534,14.7563915252686,14.7566785812378,14.7569713592529,14.7572679519653,14.7575588226318,14.757848739624,14.7581424713135,14.758430480957,14.7587242126465,14.7590160369873,14.7593097686768,14.7596025466919,14.7598924636841,14.7601890563965,14.7604789733887,14.7607707977295,14.761061668396,14.7613544464111,14.7616453170776,14.7619380950928,14.7622299194336,14.7625217437744,14.7628135681152,14.7631053924561,14.7634000778198,14.7636909484863,14.7639827728271,14.764274597168,14.7645664215088,14.7648572921753,14.7651519775391,14.7654428482056,14.7657337188721,14.7660284042358,14.7663173675537,14.7666120529175,14.7669048309326,14.7671966552734,14.7674875259399,14.7677812576294,14.7680711746216,14.7683639526367,14.7686576843262,14.768949508667,14.7692422866821,14.7695331573486,14.7698249816895,14.7701168060303,14.770411491394,14.7707042694092,14.77099609375,14.7712869644165,14.7715787887573,14.7718715667725,14.7721662521362,14.7724571228027,14.7727489471436,14.7730398178101,14.7733325958252,14.7736253738403,14.7739181518555,14.7742109298706,14.7745027542114,14.7747964859009,14.7750883102417,14.7753801345825,14.7756748199463,14.7759675979614,14.7762594223022,14.7765522003174,14.7768430709839,14.777135848999,14.7774305343628,14.7777214050293,14.7780141830444,14.7783060073853,14.7785997390747,14.7788915634155,14.779185295105,14.7794771194458,14.7797708511353,14.7800617218018,14.7803544998169,14.780647277832,14.7809410095215,14.7812347412109,14.7815256118774,14.7818193435669,14.7821111679077,14.7824058532715,14.7826976776123,14.7829914093018,14.7832822799683,14.7835760116577,14.7838687896729,14.7841625213623,14.7844552993774,14.7847471237183,14.7850408554077,14.7853317260742,14.785626411438,14.7859191894531,14.7862129211426,14.7865047454834,14.7867984771729,14.7870893478394,14.7873840332031,14.7876777648926,14.7879705429077,14.7882633209229,14.788556098938,14.7888479232788,14.7891397476196,14.789436340332,14.7897281646729,14.7900218963623,14.7903137207031,14.7906074523926,14.7908983230591,14.7911958694458,14.7914867401123,14.7917785644531,14.7920732498169,14.792366027832,14.7926588058472,14.7929525375366,14.7932462692261,14.7935400009155,14.793833732605,14.7941236495972,14.7944183349609,14.7947120666504,14.7950067520142,14.7952976226807,14.7955923080444,14.7958850860596,14.7961769104004,14.7964735031128
10.9754991531372,11.0288410186768,11.0827045440674,11.1370964050293,11.1920251846313,11.2474985122681,11.303524017334,11.3601102828979,11.4172668457031,11.4750108718872,11.5333480834961,11.5922813415527,11.651819229126,11.7119731903076,11.7727499008179,11.8341617584229,11.8962173461914,11.958927154541,12.0223016738892,12.0863513946533,12.151086807251,12.2165193557739,12.2826614379883,12.3495225906372,12.4171133041382,12.4854488372803,12.5545406341553,12.6244010925293,12.6950435638428,12.7664804458618,12.8387269973755,12.9651699066162,13.1091070175171,13.2136631011963,13.2482814788818,13.3254337310791,13.4035015106201,13.4824886322021,13.5624132156372,13.6432905197144,13.7251386642456,13.8079748153687,13.8918161392212,13.9766826629639,14.0626277923584,14.5894680023193,14.589750289917,14.5900354385376,14.5903244018555,14.5906095504761,14.5908918380737,14.5911836624146,14.5914669036865,14.5917491912842,14.5920352935791,14.5923223495483,14.5926084518433,14.5928945541382,14.5931777954102,14.5934619903564,14.5937490463257,14.5940322875977,14.5943193435669,14.5946035385132,14.5948905944824,14.595175743103,14.5954599380493,14.5957441329956,14.5960321426392,14.5963201522827,14.5966053009033,14.5968866348267,14.5971717834473,14.5974607467651,14.5977430343628,14.5980319976807,14.5983171463013,14.5986003875732,14.5988826751709,14.5991716384888,14.5994577407837,14.5997447967529,14.6000280380249,14.6003141403198,14.6006011962891,14.6008882522583,14.6011714935303,14.6014585494995,14.6017427444458,14.602029800415,14.6023111343384,14.6025991439819,14.6028861999512,14.6031713485718,14.6034593582153,14.6037435531616,14.6040258407593,14.6043138504028,14.6045999526978,14.6048851013184,14.605170249939,14.6054592132568,14.6057424545288,14.6060276031494,14.6063137054443,14.6065998077393,14.6068868637085,14.6071729660034,14.6074590682983,14.6077432632446,14.6080293655396,14.6083164215088,14.608603477478,14.6088876724243,14.6091747283936,14.6094589233398,14.6097440719604,14.6100311279297,14.6103191375732,14.6106071472168,14.6108951568604,14.6111764907837,14.6114616394043,14.6117506027222,14.6120357513428,14.6123208999634,14.6126070022583,14.6128931045532,14.6131782531738,14.6134643554688,14.6137504577637,14.6140375137329,14.6143236160278,14.6146068572998,14.614896774292,14.6151838302612,14.6154699325562,14.6157569885254,14.6160411834717,14.616325378418,14.6166124343872,14.6169004440308,14.6171846389771,14.6174726486206,14.6177606582642,14.6180458068848,14.6183271408081,14.6186151504517,14.6189012527466,14.6191892623901,14.619478225708,14.6197662353516,14.6200494766235,14.6203355789185,14.6206207275391,14.6209106445312,14.6211967468262,14.6214828491211,14.6217660903931,14.6220531463623,14.6223402023315,14.6226263046265,14.6229133605957,14.6232004165649,14.6234846115112,14.6237726211548,14.624059677124,14.6243438720703,14.6246347427368,14.6249198913574,14.625207901001,14.6254930496216,14.6257781982422,14.6260662078857,14.6263513565063,14.6266403198242,14.6269264221191,14.6272087097168,14.6274976730347,14.6277837753296,14.6280727386475,14.6283588409424,14.6286458969116,14.6289319992065,14.6292190551758,14.6295080184937,14.6297950744629,14.6300821304321,14.6303691864014,14.6306533813477,14.6309413909912,14.6312284469604,14.631516456604,14.6318035125732,14.6320886611938,14.6323738098145,14.632661819458,14.6329498291016,14.6332349777222,14.6335229873657,14.6338090896606,14.6341009140015,14.6343832015991,14.634672164917,14.6349582672119,14.6352443695068,14.635534286499,14.6358203887939,14.6361036300659,14.6363897323608,14.636679649353,14.6369667053223,14.6372537612915,14.6375436782837,14.637825012207,14.6381120681763,14.6384000778198,14.6386871337891,14.6389780044556,14.6392660140991,14.6395511627197,14.6398391723633,14.6401243209839,14.6404123306274,14.6407012939453,14.6409893035889,14.6412754058838,14.6415615081787,14.6418466567993,14.6421356201172,14.6424217224121,14.6427116394043,14.6429977416992,14.6432809829712,14.6435708999634,14.6438608169556,14.6441478729248,14.644434928894,14.6447248458862,14.6450090408325,14.6452932357788,14.6455841064453,14.6458711624146,14.6461591720581,14.6464471817017,14.6467323303223,14.6470203399658,14.6473054885864,14.64759349823,14.6478824615479,14.6481704711914,14.6484594345093,14.6487455368042,14.6490345001221,14.6493234634399,14.6496076583862,14.6498966217041,14.6501846313477,14.6504726409912,14.6507596969604,14.651047706604,14.6513328552246,14.6516218185425,14.6519107818604,14.6521978378296,14.6524848937988,14.6527729034424,14.6530599594116,14.6533498764038,14.653636932373,14.6539239883423,14.6542119979858,14.6544981002808,14.6547870635986,14.6550750732422,14.6553640365601,14.6556510925293,14.6559381484985,14.6562261581421,14.6565132141113,14.6568031311035,14.6570901870728,14.6573781967163,14.6576652526855,14.6579532623291,14.6582403182983,14.6585302352905,14.6588172912598,14.659104347229,14.6593923568726,14.6596784591675,14.6599674224854,14.6602582931519,14.6605443954468,14.6608324050903,14.6611204147339,14.6614084243774,14.6616954803467,14.6619853973389,14.6622734069824,14.6625604629517,14.6628475189209,14.6631355285645,14.6634225845337,14.6637134552002,14.6640014648438,14.664288520813,14.6645765304565,14.6648664474487,14.6651515960693,14.6654434204102,14.6657295227051,14.6660184860229,14.6663055419922,14.6665945053101,14.6668815612793,14.6671705245972,14.6674604415894,14.6677474975586,14.6680355072021,14.6683235168457,14.6686115264893,14.6689014434814,14.6691904067993,14.6694774627686,14.6697673797607,14.6700525283813,14.6703405380249,14.6706304550171,14.6709203720093,14.6712074279785,14.6714935302734,14.6717853546143,14.6720743179321,14.67236328125,14.6726493835449,14.6729383468628,14.6732263565063,14.6735153198242,14.6738061904907,14.6740913391113,14.6743803024292,14.6746683120728,14.6749563217163,14.6752452850342,14.6755352020264,14.6758251190186,14.6761131286621,14.6764001846313,14.6766901016235,14.6769771575928,14.6772680282593,14.6775569915771,14.6778440475464,14.6781330108643,14.6784210205078,14.6787090301514,14.6789999008179,14.6792898178101,14.6795749664307,14.6798648834229,14.6801519393921,14.6804418563843,14.6807317733765,14.6810188293457,14.6813097000122,14.6815977096558,14.6818866729736,14.6821727752686,14.6824655532837,14.6827535629272,14.6830434799194,14.6833295822144,14.6836185455322,14.6839075088501,14.6841974258423,14.6844863891602,14.684775352478,14.6850643157959,14.6853504180908
10.9753122329712,11.0286521911621,11.0825138092041,11.1369037628174,11.1918306350708,11.2473020553589,11.3033256530762,11.3599128723145,11.4170818328857,11.4748296737671,11.5331649780273,11.5920963287354,11.65163230896,11.7117834091187,11.7725591659546,11.8339681625366,11.8960218429565,11.9587297439575,12.022102355957,12.0861492156982,12.1508808135986,12.2163095474243,12.2824468612671,12.3493032455444,12.4168930053711,12.4852256774902,12.5543146133423,12.6241722106934,12.6948127746582,12.7731056213379,12.912727355957,13.0554971694946,13.2242488861084,13.2273817062378,13.2480506896973,13.3251724243164,13.4032373428345,13.4822216033936,13.5621433258057,13.6430177688599,13.7248620986938,13.8076944351196,13.8915328979492,13.9763956069946,14.0623531341553,14.481427192688,14.481707572937,14.4819889068604,14.4822692871094,14.4825496673584,14.4828310012817,14.4831113815308,14.4833927154541,14.4836769104004,14.4839525222778,14.4842338562012,14.4845151901245,14.4847974777222,14.4850826263428,14.4853639602661,14.4856433868408,14.4859228134155,14.4862051010132,14.4864873886108,14.4867668151855,14.4870491027832,14.4873294830322,14.4876089096069,14.4878921508789,14.4881725311279,14.4884519577026,14.4887361526489,14.4890193939209,14.489294052124,14.4895811080933,14.4898614883423,14.4901428222656,14.4904232025146,14.4907073974609,14.4909858703613,14.4912672042847,14.491548538208,14.4918308258057,14.492112159729,14.4923944473267,14.4926767349243,14.4929552078247,14.4932346343994,14.49351978302,14.4937992095947,14.4940824508667,14.4943675994873,14.4946451187134,14.494927406311,14.495210647583,14.495491027832,14.495774269104,14.496054649353,14.4963321685791,14.4966154098511,14.4968967437744,14.4971809387207,14.4974613189697,14.4977426528931,14.4980211257935,14.4983024597168,14.4985866546631,14.4988679885864,14.499153137207,14.4994354248047,14.4997138977051,14.4999961853027,14.5002784729004,14.500560760498,14.5008401870728,14.5011224746704,14.5014047622681,14.5016851425171,14.5019674301147,14.5022478103638,14.5025310516357,14.5028142929077,14.5030975341797,14.5033750534058,14.5036582946777,14.503942489624,14.504222869873,14.5045070648193,14.5047883987427,14.5050659179688,14.5053510665894,14.5056324005127,14.505913734436,14.5061988830566,14.50648021698,14.5067586898804,14.507040977478,14.5073232650757,14.5076055526733,14.507887840271,14.5081701278687,14.5084562301636,14.5087327957153,14.509015083313,14.509298324585,14.5095815658569,14.509861946106,14.5101480484009,14.510425567627,14.5107088088989,14.5109901428223,14.5112733840942,14.5115547180176,14.5118389129639,14.5121164321899,14.5124006271362,14.5126819610596,14.5129671096802,14.5132513046265,14.5135335922241,14.5138120651245,14.5140943527222,14.5143756866455,14.5146579742432,14.5149440765381,14.5152263641357,14.5155029296875,14.5157880783081,14.5160713195801,14.5163507461548,14.5166368484497,14.5169172286987,14.5172004699707,14.5174808502197,14.517767906189,14.518048286438,14.51833152771,14.5186157226562,14.5188970565796,14.5191774368286,14.519458770752,14.5197429656982,14.5200252532959,14.5203094482422,14.5205907821655,14.5208702087402,14.5211544036865,14.5214366912842,14.5217189788818,14.5220012664795,14.5222864151001,14.5225696563721,14.5228490829468,14.5231351852417,14.5234174728394,14.5236978530884,14.5239839553833,14.5242643356323,14.524543762207,14.5248279571533,14.5251111984253,14.5253915786743,14.5256757736206,14.5259599685669,14.5262403488159,14.5265254974365,14.5268058776855,14.5270872116089,14.5273752212524,14.527660369873,14.5279388427734,14.5282201766968,14.5285024642944,14.528787612915,14.5290699005127,14.5293550491333,14.529634475708,14.52991771698,14.5302000045776,14.5304832458496,14.5307655334473,14.5310525894165,14.5313291549683,14.5316123962402,14.5318994522095,14.5321826934814,14.5324659347534,14.5327501296997,14.533034324646,14.5333118438721,14.5335960388184,14.5338802337646,14.534161567688,14.5344467163086,14.5347280502319,14.5350093841553,14.5352945327759,14.5355768203735,14.5358619689941,14.5361433029175,14.5364255905151,14.5367116928101,14.5369939804077,14.5372772216797,14.5375595092773,14.5378456115723,14.5381288528442,14.5384082794189,14.5386924743652,14.5389757156372,14.5392589569092,14.5395421981812,14.5398263931274,14.5401067733765,14.5403909683228,14.5406723022461,14.5409564971924,14.5412425994873,14.5415258407593,14.5418119430542,14.5420951843262,14.5423765182495,14.5426597595215,14.5429439544678,14.5432252883911,14.5435094833374,14.543794631958,14.54407787323,14.5443601608276,14.5446443557739,14.5449275970459,14.5452117919922,14.5454969406128,14.5457782745361,14.5460615158081,14.5463438034058,14.5466299057007,14.546914100647,14.547194480896,14.5474786758423,14.5477628707886,14.5480451583862,14.5483303070068,14.5486164093018,14.5488977432251,14.5491809844971,14.549464225769,14.549747467041,14.5500326156616,14.5503158569336,14.5505981445312,14.5508823394775,14.5511665344238,14.5514488220215,14.5517349243164,14.5520172119141,14.5523023605347,14.5525846481323,14.5528697967529,14.5531520843506,14.5534381866455,14.5537204742432,14.5540037155151,14.5542879104614,14.5545701980591,14.5548543930054,14.555139541626,14.5554246902466,14.5557069778442,14.5559902191162,14.5562734603882,14.5565586090088,14.5568428039551,14.5571279525757,14.5574102401733,14.5576944351196,14.5579776763916,14.5582599639893,14.5585479736328,14.5588321685791,14.5591163635254,14.5593976974487,14.559681892395,14.559965133667,14.5602521896362,14.5605354309082,14.5608186721802,14.5611028671265,14.5613842010498,14.5616703033447,14.561954498291,14.5622396469116,14.5625228881836,14.5628089904785,14.5630912780762,14.5633773803711,14.5636606216431,14.5639448165894,14.5642280578613,14.5645132064819,14.5647964477539,14.5650825500488,14.5653676986694,14.5656490325928,14.5659341812134,14.5662174224854,14.5665016174316,14.5667877197266,14.5670728683472,14.5673561096191,14.5676403045654,14.5679244995117,14.5682077407837,14.5684928894043,14.5687770843506,14.5690612792969,14.5693454742432,14.5696296691895,14.5699138641357,14.5701999664307,14.5704851150513,14.5707693099976,14.5710515975952,14.5713376998901,14.5716199874878,14.571907043457,14.5721921920776,14.5724744796753,14.5727586746216,14.5730438232422,14.5733289718628,14.5736141204834,14.5738973617554,14.574182510376,14.5744667053223,14.5747509002686,14.5750370025635,14.5753221511841,14.5756063461304,14.5758895874023
10.9751243591309,11.0284633636475,11.0823230743408,11.1367111206055,11.1916360855103,11.2471046447754,11.3031368255615,11.3597354888916,11.4169025421143,11.474648475647,11.5329818725586,11.591911315918,11.6514453887939,11.711594581604,11.7723684310913,11.8337755203247,11.895824432373,11.9585285186768,12.0218963623047,12.0859394073486,12.1506690979004,12.2160959243774,12.2822303771973,12.349084854126,12.4166717529297,12.4850025177002,12.5540885925293,12.6239442825317,12.7221832275391,12.8607082366943,13.0023231506348,13.2348518371582,13.2379894256592,13.2411279678345,13.2477960586548,13.3249340057373,13.4029731750488,13.481954574585,13.5618724822998,13.6427440643311,13.7245855331421,13.8074140548706,13.8912496566772,13.9761180877686,14.0620784759521,14.3749675750732,14.3752470016479,14.3755235671997,14.3758029937744,14.3760824203491,14.3763551712036,14.3766326904297,14.3769092559814,14.3771886825562,14.3774633407593,14.377742767334,14.3780174255371,14.3782949447632,14.3785724639893,14.3788461685181,14.3791246414185,14.3794021606445,14.3796806335449,14.379955291748,14.3802366256714,14.3805112838745,14.3807897567749,14.3810682296753,14.3813438415527,14.3816204071045,14.3818960189819,14.3821744918823,14.3824510574341,14.3827304840088,14.3830060958862,14.383279800415,14.3835592269897,14.3838357925415,14.3841123580933,14.3843927383423,14.3846702575684,14.3849468231201,14.3852243423462,14.3855018615723,14.3857793807983,14.3860569000244,14.3863344192505,14.3866119384766,14.386887550354,14.3871650695801,14.3874435424805,14.3877182006836,14.387996673584,14.3882761001587,14.3885507583618,14.3888273239136,14.389105796814,14.3893814086914,14.3896636962891,14.3899402618408,14.3902168273926,14.3904933929443,14.3907699584961,14.3910493850708,14.3913259506226,14.3916063308716,14.3918800354004,14.3921575546265,14.3924341201782,14.3927145004272,14.3929920196533,14.3932695388794,14.3935441970825,14.3938226699829,14.3941030502319,14.3943815231323,14.3946571350098,14.3949384689331,14.3952131271362,14.3954887390137,14.3957681655884,14.3960466384888,14.3963222503662,14.3966016769409,14.3968772888184,14.3971538543701,14.3974332809448,14.3977098464966,14.3979892730713,14.398265838623,14.3985452651978,14.3988227844238,14.3990993499756,14.3993797302246,14.3996572494507,14.3999347686768,14.4002151489258,14.4004898071289,14.400767326355,14.4010448455811,14.4013233184814,14.4016017913818,14.4018793106079,14.4021577835083,14.4024333953857,14.4027118682861,14.4029903411865,14.4032697677612,14.4035482406616,14.4038276672363,14.4041004180908,14.4043798446655,14.4046592712402,14.4049386978149,14.4052152633667,14.4054946899414,14.4057683944702,14.4060487747192,14.4063262939453,14.40660572052,14.4068832397461,14.4071607589722,14.4074382781982,14.4077157974243,14.4079971313477,14.4082746505737,14.4085559844971,14.4088344573975,14.4091062545776,14.409387588501,14.4096660614014,14.4099445343018,14.4102230072021,14.4104986190796,14.4107780456543,14.4110536575317,14.4113330841064,14.4116125106812,14.4118919372559,14.4121685028076,14.4124479293823,14.4127244949341,14.4130048751831,14.4132814407349,14.4135618209839,14.4138422012329,14.414119720459,14.4143934249878,14.4146747589111,14.4149522781372,14.4152297973633,14.4155082702637,14.4157886505127,14.4160642623901,14.4163427352905,14.4166240692139,14.4169025421143,14.4171781539917,14.4174633026123,14.4177417755127,14.4180173873901,14.4182939529419,14.4185724258423,14.418851852417,14.4191312789917,14.4194116592407,14.4196844100952,14.4199647903442,14.4202442169189,14.420521736145,14.420802116394,14.4210824966431,14.4213562011719,14.4216337203979,14.4219179153442,14.4221954345703,14.4224758148193,14.4227571487427,14.4230318069458,14.4233102798462,14.4235887527466,14.423867225647,14.4241485595703,14.4244241714478,14.4247026443481,14.4249820709229,14.4252605438232,14.4255399703979,14.4258193969727,14.4260988235474,14.4263782501221,14.4266548156738,14.4269342422485,14.4272146224976,14.4274940490723,14.4277744293213,14.4280519485474,14.4283285140991,14.4286060333252,14.4288864135742,14.4291677474976,14.4294452667236,14.429726600647,14.4300012588501,14.4302825927734,14.4305572509766,14.4308385848999,14.4311170578003,14.4314022064209,14.4316778182983,14.4319562911987,14.4322357177734,14.4325141906738,14.4327936172485,14.4330759048462,14.433349609375,14.4336290359497,14.4339084625244,14.4341878890991,14.4344682693481,14.4347476959229,14.4350280761719,14.4353084564209,14.435585975647,14.435866355896,14.4361438751221,14.4364213943481,14.4367036819458,14.4369812011719,14.4372615814209,14.4375410079956,14.4378204345703,14.4380970001221,14.438380241394,14.4386596679688,14.4389381408691,14.4392156600952,14.4394960403442,14.4397764205933,14.4400539398193,14.4403352737427,14.4406127929688,14.4408922195435,14.4411706924438,14.4414539337158,14.4417304992676,14.4420118331909,14.4422903060913,14.4425706863403,14.4428482055664,14.4431304931641,14.4434089660645,14.4436874389648,14.4439668655396,14.4442462921143,14.444525718689,14.4448070526123,14.445086479187,14.4453649520874,14.4456453323364,14.4459238052368,14.4462041854858,14.4464845657349,14.4467630386353,14.44704246521,14.4473218917847,14.447603225708,14.4478807449341,14.4481620788574,14.4484415054321,14.4487218856812,14.4490003585815,14.4492797851562,14.449559211731,14.4498405456543,14.4501209259033,14.450400352478,14.4506778717041,14.4509582519531,14.4512376785278,14.4515190124512,14.4517984390259,14.4520788192749,14.4523582458496,14.45263671875,14.452917098999,14.4531984329224,14.4534788131714,14.4537582397461,14.4540367126465,14.4543161392212,14.4545955657959,14.4548778533936,14.4551563262939,14.4554386138916,14.455717086792,14.455997467041,14.4562759399414,14.4565591812134,14.4568376541138,14.4571180343628,14.4573965072632,14.4576759338379,14.4579601287842,14.4582376480103,14.4585189819336,14.4587984085083,14.459077835083,14.4593572616577,14.4596395492554,14.4599180221558,14.4601993560791,14.4604778289795,14.4607582092285,14.4610376358032,14.4613199234009,14.4616003036499,14.461877822876,14.4621591567993,14.462438583374,14.4627199172974,14.4630012512207,14.4632816314697,14.4635620117188,14.4638414382935,14.4641218185425,14.4644021987915,14.4646835327148,14.4649620056152,14.4652442932129,14.4655227661133,14.4658031463623,14.4660835266113,14.466365814209,14.466646194458,14.4669256210327,14.4672060012817,14.4674863815308,14.4677648544312,14.4680490493774
10.9749374389648,11.0282745361328,11.0821323394775,11.1365184783936,11.1914434432983,11.2469253540039,11.3029613494873,11.3595571517944,11.4167232513428,11.4744672775269,11.5327987670898,11.5917253494263,11.6512565612793,11.7114019393921,11.7721710205078,11.8335752487183,11.895622253418,11.9583234786987,12.021689414978,12.0857305526733,12.1504573822021,12.2158823013306,12.2820148468018,12.3488664627075,12.4164505004883,12.4847793579102,12.5538635253906,12.6716642379761,12.8091058731079,12.9495801925659,13.0931701660156,13.2486143112183,13.2517576217651,13.254903793335,13.2580509185791,13.3247003555298,13.4027147293091,13.4816875457764,13.5616025924683,13.6424703598022,13.724308013916,13.8071336746216,13.890965461731,13.9758472442627,14.0618047714233,14.2700700759888,14.2703418731689,14.2706146240234,14.2708864212036,14.2711591720581,14.2714347839355,14.27170753479,14.2719774246216,14.2722501754761,14.2725257873535,14.2727994918823,14.2730751037598,14.2733459472656,14.2736225128174,14.273889541626,14.2741632461548,14.2744369506836,14.2747106552124,14.2749853134155,14.2752561569214,14.2755270004272,14.2758016586304,14.2760763168335,14.2763471603394,14.2766218185425,14.2768974304199,14.2771692276001,14.2774410247803,14.2777166366577,14.2779884338379,14.2782611846924,14.2785367965698,14.2788057327271,14.2790784835815,14.279354095459,14.2796239852905,14.2799005508423,14.2801733016968,14.2804441452026,14.2807168960571,14.2809906005859,14.2812643051147,14.2815408706665,14.2818155288696,14.2820892333984,14.2823572158813,14.2826309204102,14.2829055786133,14.2831802368164,14.2834548950195,14.2837295532227,14.2839975357056,14.284273147583,14.2845449447632,14.2848196029663,14.2850923538208,14.2853679656982,14.2856369018555,14.2859125137329,14.2861881256104,14.2864608764648,14.2867336273193,14.2870101928711,14.2872800827026,14.2875537872314,14.2878265380859,14.2881031036377,14.2883768081665,14.2886505126953,14.2889184951782,14.28919506073,14.2894697189331,14.289740562439,14.2900152206421,14.2902889251709,14.290563583374,14.2908382415771,14.2911100387573,14.2913846969604,14.2916603088379,14.291934967041,14.2922077178955,14.2924795150757,14.2927522659302,14.2930250167847,14.2933006286621,14.2935762405396,14.293848991394,14.2941188812256,14.2943916320801,14.2946681976318,14.2949419021606,14.2952146530151,14.2954950332642,14.29576587677,14.2960395812988,14.2963132858276,14.2965869903564,14.2968616485596,14.2971353530884,14.2974100112915,14.2976818084717,14.2979526519775,14.2982273101807,14.2985029220581,14.2987775802612,14.2990493774414,14.2993221282959,14.299596786499,14.2998723983765,14.3001480102539,14.3004236221313,14.3006963729858,14.3009691238403,14.3012428283691,14.3015155792236,14.3017921447754,14.3020677566528,14.3023414611816,14.3026123046875,14.3028860092163,14.3031625747681,14.3034334182739,14.3037099838257,14.3039846420288,14.3042554855347,14.3045330047607,14.3048076629639,14.305082321167,14.3053569793701,14.3056316375732,14.3059072494507,14.3061790466309,14.306450843811,14.3067264556885,14.3070020675659,14.3072738647461,14.3075494766235,14.3078193664551,14.3080949783325,14.3083715438843,14.3086442947388,14.3089208602905,14.3091974258423,14.3094673156738,14.3097438812256,14.3100175857544,14.3102941513062,14.310567855835,14.3108425140381,14.3111133575439,14.3113880157471,14.3116617202759,14.311936378479,14.3122138977051,14.3124885559082,14.3127632141113,14.3130350112915,14.3133106231689,14.3135852813721,14.3138608932495,14.314136505127,14.3144121170044,14.3146848678589,14.3149576187134,14.3152332305908,14.3155088424683,14.3157825469971,14.3160581588745,14.3163318634033,14.3166046142578,14.3168783187866,14.3171548843384,14.3174285888672,14.3177061080933,14.3179769515991,14.3182535171509,14.318528175354,14.3188056945801,14.3190803527832,14.3193550109863,14.3196258544922,14.3199014663696,14.3201761245728,14.3204507827759,14.3207263946533,14.3210010528564,14.3212766647339,14.3215494155884,14.3218250274658,14.3221006393433,14.3223762512207,14.3226490020752,14.3229284286499,14.3231983184814,14.3234748840332,14.323751449585,14.3240251541138,14.3243017196655,14.3245754241943,14.3248491287231,14.3251266479492,14.325400352478,14.3256750106812,14.32594871521,14.326226234436,14.3264980316162,14.3267726898193,14.3270473480225,14.3273258209229,14.327600479126,14.3278751373291,14.3281536102295,14.328426361084,14.3287019729614,14.3289747238159,14.3292512893677,14.3295259475708,14.3298034667969,14.3300762176514,14.3303527832031,14.3306274414062,14.3309020996094,14.3311758041382,14.3314542770386,14.3317289352417,14.3320026397705,14.3322782516479,14.3325529098511,14.3328285217285,14.333104133606,14.3333806991577,14.3336534500122,14.3339309692383,14.3342056274414,14.3344802856445,14.334755897522,14.3350305557251,14.3353061676025,14.3355798721313,14.3358573913574,14.3361339569092,14.3364095687866,14.3366842269897,14.3369598388672,14.3372344970703,14.3375091552734,14.3377857208252,14.3380603790283,14.3383359909058,14.3386106491089,14.3388872146606,14.3391618728638,14.3394384384155,14.339714050293,14.3399896621704,14.3402643203735,14.340539932251,14.3408145904541,14.3410940170288,14.3413667678833,14.3416423797607,14.3419189453125,14.3421926498413,14.3424673080444,14.3427457809448,14.3430213928223,14.3432960510254,14.3435726165771,14.3438472747803,14.3441228866577,14.3443994522095,14.3446750640869,14.3449506759644,14.3452253341675,14.3455018997192,14.3457765579224,14.3460550308228,14.3463287353516,14.3466062545776,14.3468799591064,14.3471555709839,14.3474321365356,14.3477096557617,14.3479843139648,14.3482618331909,14.3485345840454,14.3488111495972,14.3490867614746,14.3493633270264,14.3496398925781,14.3499155044556,14.350191116333,14.3504667282104,14.3507423400879,14.351019859314,14.3512954711914,14.3515701293945,14.3518447875977,14.3521223068237,14.3523988723755,14.3526754379272,14.3529510498047,14.3532257080078,14.3535013198853,14.3537788391113,14.3540554046631,14.3543310165405,14.3546075820923,14.3548851013184,14.3551597595215,14.3554344177246,14.3557119369507,14.3559865951538,14.3562631607056,14.356538772583,14.3568172454834,14.3570909500122,14.3573694229126,14.35764503479,14.3579225540161,14.3581962585449,14.358473777771,14.3587484359741,14.3590259552002,14.359302520752,14.3595781326294,14.3598546981812,14.3601293563843,14.360405921936,14.3606834411621,14.3609600067139,14.3612356185913,14.3615112304688,14.3617877960205
10.9747505187988,11.0280857086182,11.0819416046143,11.1363344192505,11.1912708282471,11.2467517852783,11.3027849197388,11.3593788146973,11.4165420532227,11.4742822647095,11.5326099395752,11.5915336608887,11.6510620117188,11.7112054824829,11.77197265625,11.8333740234375,11.8954191207886,11.9581184387207,12.0214824676514,12.085521697998,12.1502466201782,12.2156677246094,12.2817983627319,12.3486480712891,12.4162302017212,12.4881763458252,12.6215476989746,12.7579164505005,12.8972644805908,13.0396900177002,13.2592554092407,13.2624053955078,13.2655553817749,13.2687072753906,13.271861076355,13.3244667053223,13.4024782180786,13.4814205169678,13.5613317489624,13.6421966552734,13.7240314483643,13.8068542480469,13.890682220459,13.9755764007568,14.1664218902588,14.166690826416,14.1669588088989,14.1672277450562,14.1674957275391,14.1677646636963,14.1680335998535,14.1683025360107,14.168571472168,14.1688432693481,14.1691064834595,14.169379234314,14.1696453094482,14.1699151992798,14.1701850891113,14.1704549789429,14.1707220077515,14.170991897583,14.1712617874146,14.1715326309204,14.171802520752,14.1720705032349,14.1723403930664,14.1726055145264,14.1728763580322,14.1731443405151,14.173415184021,14.1736831665039,14.1739549636841,14.174220085144,14.1744890213013,14.1747608184814,14.1750288009644,14.1753005981445,14.175573348999,14.1758394241333,14.1761083602905,14.1763772964478,14.1766471862793,14.1769161224365,14.1771860122681,14.1774530410767,14.1777191162109,14.1779928207397,14.1782627105713,14.1785326004028,14.1788005828857,14.1790704727173,14.1793384552002,14.1796054840088,14.1798801422119,14.1801471710205,14.1804189682007,14.1806898117065,14.1809549331665,14.1812257766724,14.1814947128296,14.1817665100098,14.1820344924927,14.1823034286499,14.1825723648071,14.1828413009644,14.1831102371216,14.1833801269531,14.1836490631104,14.1839218139648,14.1841878890991,14.1844606399536,14.1847305297852,14.1850004196167,14.1852703094482,14.1855411529541,14.1858110427856,14.1860780715942,14.1863489151001,14.186616897583,14.1868867874146,14.1871576309204,14.1874294281006,14.1876935958862,14.1879615783691,14.1882333755493,14.1885013580322,14.1887788772583,14.1890478134155,14.1893138885498,14.1895818710327,14.1898546218872,14.1901264190674,14.1903953552246,14.1906652450562,14.1909313201904,14.1912040710449,14.1914730072021,14.1917428970337,14.1920127868652,14.1922826766968,14.1925497055054,14.1928195953369,14.1930904388428,14.1933641433716,14.1936340332031,14.193904876709,14.1941728591919,14.1944408416748,14.1947116851807,14.1949825286865,14.1952533721924,14.1955223083496,14.1957931518555,14.1960620880127,14.1963310241699,14.1965990066528,14.1968717575073,14.1971406936646,14.1974124908447,14.197681427002,14.1979541778564,14.1982231140137,14.1984930038452,14.1987657546997,14.1990356445312,14.1993026733398,14.1995725631714,14.1998424530029,14.2001123428345,14.2003831863403,14.2006530761719,14.2009210586548,14.2011919021606,14.2014627456665,14.2017335891724,14.2020044326782,14.2022790908813,14.2025499343872,14.2028150558472,14.2030868530273,14.2033586502075,14.2036266326904,14.2038984298706,14.2041673660278,14.2044363021851,14.2047061920166,14.2049779891968,14.2052478790283,14.2055196762085,14.20578956604,14.2060565948486,14.2063293457031,14.2065992355347,14.2068719863892,14.207142829895,14.2074127197266,14.2076835632324,14.207950592041,14.2082214355469,14.2084951400757,14.2087659835815,14.2090368270874,14.2093076705933,14.2095727920532,14.2098445892334,14.2101154327393,14.2103872299194,14.2106590270996,14.2109279632568,14.2111968994141,14.2114715576172,14.2117404937744,14.2120132446289,14.2122850418091,14.2125549316406,14.2128210067749,14.2130937576294,14.2133636474609,14.2136335372925,14.2139072418213,14.2141771316528,14.2144441604614,14.214714050293,14.2149877548218,14.2152585983276,14.2155294418335,14.2158002853394,14.2160711288452,14.2163419723511,14.2166128158569,14.2168846130371,14.217155456543,14.2174272537231,14.2176990509033,14.2179679870605,14.2182359695435,14.2185087203979,14.2187805175781,14.2190523147583,14.2193222045898,14.2195911407471,14.2198610305786,14.2201328277588,14.2204065322876,14.2206792831421,14.2209520339966,14.2212162017822,14.2214889526367,14.2217597961426,14.2220325469971,14.2223033905029,14.2225742340088,14.2228450775146,14.2231159210205,14.2233867645264,14.2236576080322,14.2239294052124,14.2242002487183,14.2244720458984,14.2247400283813,14.2250146865845,14.2252864837646,14.2255554199219,14.2258262634277,14.2260999679565,14.2263717651367,14.2266416549683,14.2269124984741,14.22718334198,14.2274532318115,14.2277278900146,14.2279977798462,14.2282686233521,14.2285394668579,14.2288103103638,14.2290811538696,14.2293548583984,14.2296257019043,14.2298974990845,14.2301664352417,14.2304372787476,14.2307100296021,14.2309818267822,14.2312545776367,14.2315244674683,14.2317953109741,14.23206615448,14.2323408126831,14.2326107025146,14.2328815460205,14.2331523895264,14.2334260940552,14.2336950302124,14.2339687347412,14.2342386245728,14.2345094680786,14.2347822189331,14.2350521087646,14.2353248596191,14.2355966567993,14.2358684539795,14.2361392974854,14.2364110946655,14.2366809844971,14.2369537353516,14.2372274398804,14.2374982833862,14.2377691268921,14.2380399703979,14.2383117675781,14.2385816574097,14.2388572692871,14.2391271591187,14.2393989562988,14.239670753479,14.2399415969849,14.2402124404907,14.2404870986938,14.2407569885254,14.2410287857056,14.2412996292114,14.2415714263916,14.2418441772461,14.2421169281006,14.2423896789551,14.242657661438,14.2429313659668,14.243203163147,14.2434749603271,14.2437467575073,14.2440204620361,14.2442903518677,14.2445621490479,14.2448348999023,14.2451047897339,14.2453784942627,14.2456502914429,14.2459230422974,14.2461929321289,14.2464666366577,14.2467365264893,14.2470111846924,14.2472820281982,14.2475538253784,14.2478246688843,14.2480974197388,14.2483711242676,14.2486419677734,14.2489147186279,14.2491846084595,14.249457359314,14.2497291564941,14.2500019073486,14.2502756118774,14.2505474090576,14.2508182525635,14.2510900497437,14.2513608932495,14.2516345977783,14.2519083023071,14.2521781921387,14.2524509429932,14.252721786499,14.2529954910278,14.2532682418823,14.2535400390625,14.253812789917,14.2540845870972,14.254355430603,14.2546262741089,14.254900932312,14.2551736831665,14.255446434021,14.2557172775269,14.2559900283813,14.2562608718872,14.2565355300903,14.2568073272705,14.2570819854736
10.9745626449585,11.0278978347778,11.08176612854,11.1361637115479,11.1910972595215,11.2465734481812,11.3026037216187,11.3591947555542,11.4163551330566,11.4740934371948,11.5324192047119,11.5913410186768,11.6508674621582,11.7110090255737,11.7717742919922,11.8331737518311,11.8952169418335,11.957914352417,12.0212755203247,12.0853118896484,12.15003490448,12.2154541015625,12.2815818786621,12.3484296798706,12.4394950866699,12.5718431472778,12.7071342468262,12.8453693389893,13.2686443328857,13.2722225189209,13.2758026123047,13.2793846130371,13.2829685211182,13.2865543365479,13.2901401519775,13.3242244720459,13.4022426605225,13.4811697006226,13.5610618591309,13.6419229507446,13.7237548828125,13.8065738677979,13.890398979187,13.975305557251,14.0645294189453,14.064793586731,14.0650587081909,14.0653238296509,14.0655889511108,14.0658540725708,14.0661172866821,14.066385269165,14.0666513442993,14.0669174194336,14.0671796798706,14.0674486160278,14.0677089691162,14.0679750442505,14.0682411193848,14.0685043334961,14.0687713623047,14.0690383911133,14.0693016052246,14.0695657730103,14.0698328018188,14.0700969696045,14.0703611373901,14.0706310272217,14.0708951950073,14.0711603164673,14.0714244842529,14.0716896057129,14.0719575881958,14.0722227096558,14.0724878311157,14.0727500915527,14.0730152130127,14.0732803344727,14.0735454559326,14.0738143920898,14.0740776062012,14.0743398666382,14.0746088027954,14.0748720169067,14.0751419067383,14.0754079818726,14.0756740570068,14.0759344100952,14.0762014389038,14.0764646530151,14.0767316818237,14.0769987106323,14.077262878418,14.0775299072266,14.0777940750122,14.0780591964722,14.0783262252808,14.0785913467407,14.0788555145264,14.0791234970093,14.0793857574463,14.0796537399292,14.0799217224121,14.0801868438721,14.0804529190063,14.0807180404663,14.0809803009033,14.0812463760376,14.0815124511719,14.0817813873291,14.0820474624634,14.0823135375977,14.082573890686,14.0828399658203,14.0831069946289,14.0833730697632,14.0836400985718,14.0839071273804,14.084174156189,14.0844383239746,14.0847024917603,14.0849695205688,14.0852375030518,14.0855016708374,14.0857696533203,14.086030960083,14.086296081543,14.0865640640259,14.0868291854858,14.0870943069458,14.0873622894287,14.0876245498657,14.087890625,14.08815574646,14.0884246826172,14.0886936187744,14.0889596939087,14.08922290802,14.0894889831543,14.0897550582886,14.0900211334229,14.0902881622314,14.09055519104,14.0908184051514,14.09108543396,14.0913496017456,14.0916166305542,14.0918836593628,14.0921506881714,14.0924158096313,14.092679977417,14.0929479598999,14.0932149887085,14.0934829711914,14.0937480926514,14.0940132141113,14.0942783355713,14.0945434570312,14.0948123931885,14.0950775146484,14.0953435897827,14.0956087112427,14.095874786377,14.0961408615112,14.0964069366455,14.0966730117798,14.0969390869141,14.0972089767456,14.0974721908569,14.0977392196655,14.0980062484741,14.0982732772827,14.0985403060913,14.0988073348999,14.0990743637085,14.0993356704712,14.0996026992798,14.0998706817627,14.1001377105713,14.1004028320312,14.1006708145142,14.1009321212769,14.1012010574341,14.101466178894,14.1017370223999,14.1020059585571,14.1022710800171,14.1025342941284,14.1027994155884,14.1030683517456,14.1033344268799,14.1036005020142,14.1038703918457,14.104133605957,14.1043996810913,14.1046657562256,14.1049327850342,14.1051998138428,14.1054668426514,14.1057300567627,14.1059980392456,14.1062679290771,14.1065349578857,14.1068000793457,14.1070671081543,14.1073350906372,14.1075963973999,14.1078643798828,14.1081323623657,14.1084003448486,14.1086654663086,14.1089344024658,14.1091966629028,14.1094655990601,14.10973072052,14.1099996566772,14.1102657318115,14.1105346679688,14.110800743103,14.1110668182373,14.1113367080688,14.1116027832031,14.1118698120117,14.112135887146,14.1124000549316,14.1126670837402,14.1129341125488,14.1132040023804,14.113471031189,14.1137351989746,14.1139993667603,14.1142673492432,14.1145353317261,14.114803314209,14.1150712966919,14.1153392791748,14.1156072616577,14.1158723831177,14.1161375045776,14.1164064407349,14.1166744232178,14.1169404983521,14.1172065734863,14.1174716949463,14.1177377700806,14.1180076599121,14.1182737350464,14.1185426712036,14.1188097000122,14.1190729141235,14.1193399429321,14.1196126937866,14.1198797225952,14.1201438903809,14.1204137802124,14.120677947998,14.1209449768066,14.1212129592896,14.1214799880981,14.1217479705811,14.122015953064,14.1222839355469,14.1225461959839,14.1228141784668,14.1230821609497,14.1233520507812,14.1236171722412,14.1238880157471,14.1241550445557,14.1244220733643,14.1246881484985,14.1249542236328,14.1252222061157,14.1254901885986,14.1257591247559,14.1260242462158,14.1262941360474,14.1265592575073,14.1268253326416,14.1270961761475,14.1273641586304,14.1276302337646,14.1278972625732,14.1281642913818,14.1284303665161,14.128701210022,14.1289663314819,14.1292343139648,14.1295022964478,14.1297702789307,14.1300382614136,14.1303062438965,14.1305723190308,14.1308403015137,14.1311063766479,14.1313743591309,14.1316423416138,14.131911277771,14.1321783065796,14.1324453353882,14.1327123641968,14.1329793930054,14.1332502365112,14.1335172653198,14.1337833404541,14.1340503692627,14.1343193054199,14.1345844268799,14.1348562240601,14.1351222991943,14.1353893280029,14.1356573104858,14.1359243392944,14.1361923217773,14.1364603042603,14.1367282867432,14.1369953155518,14.1372632980347,14.1375303268433,14.1377983093262,14.1380681991577,14.1383361816406,14.1386032104492,14.1388692855835,14.1391382217407,14.1394052505493,14.1396751403809,14.1399421691895,14.1402101516724,14.140477180481,14.1407470703125,14.1410131454468,14.1412839889526,14.1415510177612,14.1418161392212,14.1420850753784,14.142352104187,14.1426210403442,14.1428899765015,14.143159866333,14.1434240341187,14.1436939239502,14.1439619064331,14.1442279815674,14.1444997787476,14.1447668075562,14.1450338363647,14.1453018188477,14.1455698013306,14.1458368301392,14.1461067199707,14.1463747024536,14.1466426849365,14.1469097137451,14.147177696228,14.1474475860596,14.1477174758911,14.1479835510254,14.1482524871826,14.1485195159912,14.1487865447998,14.14905834198,14.1493234634399,14.1495943069458,14.1498603820801,14.1501293182373,14.1503973007202,14.1506681442261,14.150936126709,14.1512041091919,14.1514701843262,14.1517400741577,14.1520071029663,14.1522760391235,14.1525440216064,14.1528129577637,14.1530799865723,14.1533479690552,14.153618812561,14.1538858413696
