16.4179248809814,16.418478012085,16.4190254211426,16.4195804595947,16.4201374053955,16.420690536499,16.4212379455566,16.4217910766602,16.422342300415,16.4228992462158,16.4234523773193,16.4240055084229,16.4245548248291,16.4251117706299,16.4256629943848,16.4262180328369,16.4267692565918,16.4273223876953,16.4278755187988,16.428430557251,16.4289836883545,16.429536819458,16.4300899505615,16.430643081665,16.4311943054199,16.4317493438721,16.4323024749756,16.4328556060791,16.4334106445312,16.4339618682861,16.4345169067383,16.4350700378418,16.4356231689453,16.4361782073975,16.4367294311523,16.4372863769531,16.4378395080566,16.4383926391602,16.4389476776123,16.4395027160645,16.4400539398193,16.4406070709229,16.441162109375,16.4417171478271,16.4422702789307,16.4428234100342,16.443380355835,16.4439334869385,16.444486618042,16.4450416564941,16.4455947875977,16.4461517333984,16.446704864502,16.4472599029541,16.4478149414062,16.4483680725098,16.4489212036133,16.4494781494141,16.4500312805176,16.4505863189697,16.4511413574219,16.451696395874,16.4522514343262,16.4528045654297,16.4533596038818,16.453914642334,16.4544696807861,16.4550266265869,16.4555797576904,16.4561347961426,16.4566898345947,16.4572448730469,16.457799911499,16.4583568572998,16.4589099884033,16.4594669342041,16.4600219726562,16.4605770111084,16.4611320495605,16.4616870880127,16.4622421264648,16.4627990722656,16.4633541107178,16.4639091491699,16.4644641876221,16.4650211334229,16.465576171875,16.4661312103271,16.4666900634766,16.4672431945801,16.4678001403809,16.4683570861816,16.4689121246338,16.4694652557373,16.4700241088867,16.4705791473389,16.471134185791,16.4716892242432,16.4722480773926,16.4728050231934,16.4733600616455,16.4739170074463,16.4744720458984,16.4750289916992,16.4755859375,16.4761409759521,16.4766998291016,16.4772548675537,16.4778118133545,16.4783687591553,16.4789237976074,16.4794807434082,16.480037689209,16.4805927276611,16.4811515808105,16.4817066192627,16.4822616577148,16.4828186035156,16.483377456665,16.4839344024658,16.4844913482666,16.485050201416,16.4856052398682,16.4861621856689,16.4867191314697,16.4872779846191,16.4878330230713,16.4883899688721,16.4889469146729,16.4895057678223,16.490062713623,16.4906196594238,16.4911766052246,16.4917335510254,16.4922924041748,16.4928512573242,16.493408203125,16.4939670562744,16.4945220947266,16.495080947876,16.4956378936768,16.4961929321289,16.4967517852783,16.4973106384277,16.4978694915771,16.4984264373779,16.4989852905273,16.4995422363281,16.5001029968262,16.500659942627,16.5012187957764,16.5017776489258,16.5023365020752,16.502893447876,16.5034523010254,16.5040130615234,16.5045700073242,16.5051288604736,16.5056858062744,16.5062484741211,16.5068054199219,16.5073642730713,16.5079212188721,16.5084819793701,16.5090408325195,16.5096015930176,16.5101585388184,16.5107154846191,16.5112781524658,16.5118370056152,16.5123958587646,16.5129547119141,16.5135135650635,16.5140724182129,16.5146312713623,16.5151882171631,16.5157508850098,16.5163078308105,16.5168685913086,16.517427444458,16.5179901123047,16.5185470581055,16.5191078186035,16.5196647644043,16.520227432251,16.5207843780518,16.5213470458984,16.5219058990479,16.5224647521973,16.5230274200439,16.5235862731934,16.5241451263428,16.5247058868408,16.5252666473389,16.5258274078369,16.5263862609863,16.5269470214844,16.5275077819824,16.5280685424805,16.5286254882812,16.5291862487793,16.529748916626,16.5303077697754,16.5308685302734,16.5314292907715,16.5319919586182,16.5325489044189,16.5331115722656,16.5336723327637,16.5342330932617,16.5347938537598,16.5353546142578,16.5359153747559,16.5364742279053,16.5370388031006,16.5375957489014,16.538158416748,16.5387172698975,16.5392818450928,16.5398406982422,16.5404014587402,16.5409622192383,16.5415267944336,16.5420837402344,9.79124736785889,9.55794620513916,9.33550453186035,9.12318134307861,8.92030048370361,8.72624683380127,8.54045677185059,8.36241340637207,8.2337532043457,8.20640468597412,8.17923641204834,8.15224838256836,8.12543678283691,8.098801612854,8.07234001159668,8.04605102539062,8.01993274688721,7.99398422241211,7.96820211410522,7.94258594512939,7.91713380813599,7.89184474945068,7.8667163848877,7.84174776077271,7.81693696975708,7.79228258132935,7.76778364181519,7.74343776702881,7.71924448013306,7.69520139694214,7.6713080406189,7.6475625038147,7.62396335601807,7.60050964355469,7.57719945907593,7.55403184890747,7.531005859375,7.50811958312988,7.4853720664978,7.46276187896729,7.44028806686401,7.41794872283936,7.39574337005615,7.37367057800293,7.35172939300537,7.329918384552,7.31563949584961,7.30249309539795,7.28939437866211,7.27634191513062,7.26333665847778,7.2503776550293,7.23746490478516,7.2245979309082,7.21177673339844,7.1990008354187,7.18627023696899,7.17358446121216,7.16094350814819,7.14834690093994,7.1357946395874,7.12328624725342,7.11082172393799,7.09840059280396,7.08602285385132,7.07368850708008,7.06139659881592,7.049147605896,7.03694105148315,7.02477645874023,7.01265430450439,7.00057363510132,6.98853445053101,6.97653675079346,6.96458005905151,6.95266437530518,6.94078922271729,6.92895460128784,6.91716051101685,6.90540599822998,6.89369201660156,6.88201713562012,6.8703818321228,6.85878610610962,6.84722948074341,6.83571147918701,6.82423114776611,6.81278991699219,6.80138683319092,6.7900218963623,6.77869462966919,6.76740550994873,6.68697929382324,6.67001152038574,6.65313005447388,6.63633346557617,6.61962175369263,6.60299396514893,6.58644914627075,6.56998729705811,6.55360794067383,6.53730964660645,6.5210919380188,6.50495481491089,6.4888973236084,6.47291898727417,6.45701932907104,6.44119691848755,6.425452709198,6.40978384017944,6.39419174194336,6.37867498397827,6.36323356628418,6.34786653518677,6.33257389068604,6.31735420227051,6.30220794677734,6.28713417053223,6.27213191986084,6.25720167160034,6.2423415184021,6.22755241394043,6.21283340454102,6.19691801071167,6.18094301223755,6.16505002975464,6.14923858642578,6.13350820541382,6.11785840988159,6.10228776931763,6.08679628372192,6.07138299942017,6.05604839324951,6.04079055786133,6.02560901641846,6.01050424575806,5.99556112289429,5.98175859451294,5.96801948547363,5.95434331893921,5.94072961807251,5.92717838287354,5.91368865966797,5.90025997161865,5.88689231872559,5.87358474731445,5.86033773422241,5.84714984893799,5.83402156829834,5.82095193862915,5.80794095993042,5.79498767852783,5.78209209442139,5.76925373077393,5.75647258758545,5.74374771118164,5.7310791015625,5.71846628189087,5.70593404769897,5.69345808029175,5.68103694915771,5.6686692237854,5.65635585784912,5.64409589767456,5.6318883895874,5.61973428726196,5.60763216018677,5.59558200836182,5.58358335494995,5.57163667678833,5.55974054336548,5.5478949546814,5.53609991073608,5.52435541152954,5.51266002655029
16.2812824249268,16.2818279266357,16.2823715209961,16.2829151153564,16.2834568023682,16.2840023040771,16.2845478057861,16.2850894927979,16.2856330871582,16.2861747741699,16.2867202758789,16.2872657775879,16.2878074645996,16.2883491516113,16.2888927459717,16.2894401550293,16.2899837493896,16.29052734375,16.2910709381104,16.2916164398193,16.2921600341797,16.29270362854,16.2932453155518,16.2937927246094,16.2943344116211,16.2948799133301,16.2954254150391,16.295970916748,16.2965126037598,16.2970581054688,16.2976016998291,16.2981472015381,16.2986927032471,16.2992343902588,16.2997779846191,16.3003234863281,16.3008689880371,16.3014144897461,16.3019580841064,16.3025016784668,16.3030471801758,16.3035907745361,16.3041381835938,16.3046798706055,16.3052272796631,16.3057727813721,16.3063163757324,16.3068599700928,16.3074073791504,16.3079509735107,16.3084964752197,16.3090419769287,16.3095874786377,16.3101348876953,16.3106784820557,16.3112239837646,16.311767578125,16.3123149871826,16.3128604888916,16.313404083252,16.3139495849609,16.3144950866699,16.3150424957275,16.3155879974365,16.3161315917969,16.3166770935059,16.3172245025635,16.3177700042725,16.3183174133301,16.3188610076904,16.3194065093994,16.319953918457,16.320499420166,16.3210468292236,16.321590423584,16.3221378326416,16.3226833343506,16.3232288360596,16.3237762451172,16.3243217468262,16.3248691558838,16.3254127502441,16.3259601593018,16.3265056610107,16.327054977417,16.3275985717773,16.328145980835,16.3286914825439,16.3292388916016,16.3297863006592,16.3303318023682,16.3308773040771,16.3314247131348,16.3319721221924,16.3325176239014,16.333065032959,16.3336124420166,16.3341579437256,16.3347053527832,16.3352527618408,16.3358001708984,16.3363456726074,16.3368911743164,16.3374404907227,16.3379878997803,16.3385353088379,16.3390808105469,16.3396282196045,16.3401756286621,16.3407230377197,16.3412704467773,16.341817855835,16.3423633575439,16.3429107666016,16.3434600830078,16.3440074920654,16.3445529937744,16.3451023101807,16.3456516265869,16.3461990356445,16.3467464447021,16.3472957611084,16.3478393554688,16.348388671875,16.3489360809326,16.3494853973389,16.3500347137451,16.3505783081055,16.3511295318604,16.351676940918,16.3522243499756,16.3527736663818,16.3533210754395,16.3538684844971,16.3544178009033,16.3549652099609,16.3555145263672,16.3560619354248,16.3566093444824,16.35715675354,16.3577060699463,16.3582553863525,16.3588066101074,16.3593502044678,16.359899520874,16.3604507446289,16.3609981536865,16.3615455627441,16.3620948791504,16.3626441955566,16.3631935119629,16.3637409210205,16.3642921447754,16.3648414611816,16.3653907775879,16.3659381866455,16.3664894104004,16.367036819458,16.3675880432129,16.3681373596191,16.3686866760254,16.3692359924316,16.3697853088379,16.3703346252441,16.3708839416504,16.3714351654053,16.3719844818115,16.3725337982178,16.373083114624,16.3736324310303,16.3741836547852,16.3747329711914,16.3752822875977,16.3758335113525,16.3763828277588,16.3769340515137,16.3774814605713,16.3780326843262,16.3785820007324,16.3791332244873,16.3796844482422,16.3802337646484,16.3807849884033,16.3813343048096,16.3818836212158,16.3824348449707,16.3829860687256,16.3835353851318,16.3840866088867,16.384635925293,16.3851871490479,16.3857383728027,16.3862915039062,16.3868408203125,16.3873901367188,16.3879413604736,16.3884944915771,16.3890438079834,16.3895950317383,16.3901462554932,16.390697479248,16.3912467956543,16.3917999267578,16.3923511505127,16.3929023742676,16.3934535980225,16.3940010070801,16.3945541381836,16.3951034545898,16.3956565856934,16.3962059020996,16.3967609405518,16.397310256958,16.3978614807129,16.3984146118164,16.3989658355713,16.3995170593262,16.4000701904297,16.4006195068359,16.4011707305908,16.4017238616943,16.4022750854492,16.4028263092041,9.78710460662842,9.55399799346924,9.33173847198486,9.11958408355713,8.91686153411865,8.72295570373535,8.53730487823486,8.35939121246338,8.21908378601074,8.19183254241943,8.16476058959961,8.13786697387695,8.11115074157715,8.08460807800293,8.05823993682861,8.03204250335693,8.00601482391357,7.98015546798706,7.95446252822876,7.9289345741272,7.9035701751709,7.87836694717407,7.85332441329956,7.82844066619873,7.80371379852295,7.77914237976074,7.75472593307495,7.73046207427979,7.70634937286377,7.68238639831543,7.65857219696045,7.63490533828735,7.61138439178467,7.58800792694092,7.56477403640747,7.54168272018433,7.51873159408569,7.49591970443726,7.4732460975647,7.45070886611938,7.428307056427,7.40603971481323,7.38390588760376,7.36190319061279,7.34003210067749,7.32288503646851,7.3097128868103,7.29658794403076,7.28350973129272,7.27047872543335,7.25749444961548,7.24455642700195,7.23166418075562,7.21881771087646,7.2060170173645,7.19326162338257,7.18055105209351,7.16788530349731,7.15526437759399,7.14268779754639,7.13015556335449,7.11766672134399,7.10522222518921,7.09282064437866,7.08046245574951,7.0681471824646,7.05587482452393,7.04364490509033,7.03145694732666,7.01931190490723,7.0072078704834,6.99514627456665,6.98312568664551,6.97114658355713,6.9592080116272,6.94731092453003,6.93545389175415,6.92363739013672,6.91186141967773,6.90012502670288,6.88842868804932,6.87677192687988,6.86515474319458,6.85357618331909,6.84203720092773,6.83053636550903,6.81907415390015,6.80765008926392,6.79626417160034,6.78491640090942,6.773606300354,6.76233386993408,6.75109910964966,6.67146587371826,6.65457677841187,6.63777303695679,6.62105417251587,6.60441875457764,6.58786725997925,6.57139825820923,6.55501174926758,6.53870630264282,6.52248191833496,6.50633811950684,6.49027395248413,6.47428846359253,6.45838212966919,6.44255304336548,6.42680168151855,6.41112756729126,6.39552879333496,6.38000583648682,6.36455774307251,6.34918451309204,6.33388519287109,6.31865930557251,6.30350685119629,6.28842639923096,6.27341842651367,6.25848197937012,6.24361610412598,6.22882080078125,6.21409511566162,6.19940328598022,6.18341541290283,6.16751003265381,6.15168619155884,6.1359429359436,6.12028074264526,6.10469770431519,6.08919429779053,6.07376909255981,6.05842161178589,6.04315185546875,6.02795886993408,6.01284217834473,5.99780082702637,5.982834815979,5.96908664703369,5.95540571212769,5.94178676605225,5.92823076248169,5.91473627090454,5.90130281448364,5.88793039321899,5.87461853027344,5.86136627197266,5.84817409515381,5.83504104614258,5.82196712493896,5.80895137786865,5.79599380493164,5.78309392929077,5.77025127410889,5.75746536254883,5.7447361946106,5.73206329345703,5.71944570541382,5.70688390731812,5.69440412521362,5.68197870254517,5.66960716247559,5.65728950500488,5.6450252532959,5.63281440734863,5.62065601348877,5.60854959487915,5.59649562835693,5.58449363708496,5.57254266738892,5.5606427192688,5.54879331588745,5.53699445724487,5.52524614334106,5.51354694366455,5.50189733505249
16.146900177002,16.1474323272705,16.1479663848877,16.1485061645508,16.1490383148193,16.1495723724365,16.1501083374023,16.1506423950195,16.1511783599854,16.1517086029053,16.1522464752197,16.1527786254883,16.1533126831055,16.1538505554199,16.1543884277344,16.1549205780029,16.1554527282715,16.1559925079346,16.1565246582031,16.1570625305176,16.1575946807861,16.1581325531006,16.1586685180664,16.159200668335,16.1597347259521,16.1602725982666,16.1608085632324,16.1613426208496,16.1618785858154,16.1624145507812,16.1629486083984,16.1634845733643,16.1640224456787,16.1645565032959,16.1650905609131,16.1656246185303,16.1661605834961,16.1667003631592,16.167236328125,16.1677684783936,16.1683044433594,16.1688404083252,16.1693782806396,16.1699123382568,16.170446395874,16.1709842681885,16.1715202331543,16.1720561981201,16.1725921630859,16.1731281280518,16.1736640930176,16.174201965332,16.1747379302979,16.1752758026123,16.1758098602295,16.1763458251953,16.1768836975098,16.1774196624756,16.1779556274414,16.1784934997559,16.179027557373,16.1795635223389,16.1801013946533,16.1806392669678,16.1811752319336,16.1817111968994,16.1822490692139,16.1827831268311,16.1833209991455,16.1838607788086,16.1843948364258,16.1849308013916,16.1854686737061,16.1860065460205,16.186544418335,16.1870765686035,16.1876163482666,16.1881542205811,16.1886920928955,16.1892280578613,16.1897659301758,16.1903038024902,16.1908397674561,16.1913795471191,16.191915512085,16.1924533843994,16.1929893493652,16.1935291290283,16.1940650939941,16.1946029663086,16.195140838623,16.1956768035889,16.1962146759033,16.1967544555664,16.1972923278809,16.1978282928467,16.1983661651611,16.1989040374756,16.19944190979,16.1999797821045,16.2005176544189,16.2010555267334,16.2015914916992,16.2021312713623,16.2026691436768,16.2032070159912,16.2037467956543,16.2042827606201,16.2048225402832,16.2053623199463,16.2059001922607,16.2064380645752,16.2069759368896,16.2075157165527,16.2080516815186,16.2085914611816,16.2091293334961,16.2096652984619,16.210205078125,16.2107448577881,16.2112827301025,16.2118244171143,16.2123584747314,16.2128982543945,16.213436126709,16.2139778137207,16.2145175933838,16.2150554656982,16.2155914306641,16.2161331176758,16.2166709899902,16.2172107696533,16.2177505493164,16.2182865142822,16.2188282012939,16.2193660736084,16.2199058532715,16.2204475402832,16.2209854125977,16.2215232849121,16.2220611572266,16.2226028442383,16.2231426239014,16.2236804962158,16.2242202758789,16.224760055542,16.2252998352051,16.2258396148682,16.2263793945312,16.2269172668457,16.2274570465088,16.2279968261719,16.2285404205322,16.2290802001953,16.2296180725098,16.2301578521729,16.2306995391846,16.2312393188477,16.2317790985107,16.2323188781738,16.2328605651855,16.2334003448486,16.2339420318604,16.2344799041748,16.2350234985352,16.2355632781982,16.2361030578613,16.236644744873,16.2371845245361,16.2377262115479,16.2382640838623,16.2388076782227,16.2393474578857,16.2398891448975,16.2404289245605,16.2409687042236,16.2415103912354,16.2420539855957,16.2425918579102,16.2431354522705,16.2436752319336,16.2442169189453,16.2447566986084,16.2453002929688,16.2458400726318,16.2463817596436,16.2469215393066,16.247465133667,16.2480049133301,16.2485485076904,16.2490901947021,16.2496299743652,16.250171661377,16.2507152557373,16.2512550354004,16.2517986297607,16.2523365020752,16.2528800964355,16.2534217834473,16.253963470459,16.2545051574707,16.2550468444824,16.2555904388428,16.2561302185059,16.2566757202148,16.2572135925293,16.2577571868896,16.25830078125,16.2588405609131,16.2593822479248,16.2599258422852,16.2604694366455,16.2610111236572,16.2615509033203,16.2620964050293,16.2626399993896,16.2631797790527,16.2637214660645,16.2642631530762,16.2648067474365,16.2653484344482,16.2658920288086,9.7829647064209,9.55005359649658,9.32797431945801,9.11598968505859,8.91342544555664,8.71966743469238,8.53415393829346,8.35637092590332,8.20446681976318,8.17731094360352,8.15033531188965,8.12353706359863,8.09691429138184,8.07046508789062,8.04418849945068,8.01808166503906,7.99214506149292,7.96637487411499,7.94077014923096,7.9153299331665,7.890052318573,7.86493539810181,7.83997774124146,7.81517839431763,7.79053497314453,7.76604700088501,7.74171209335327,7.717529296875,7.69349718093872,7.66961431503296,7.64587926864624,7.62229061126709,7.59884691238403,7.57554721832275,7.55238962173462,7.52937364578247,7.50649738311768,7.48375940322876,7.46115875244141,7.4386944770813,7.41636514663696,7.39416933059692,7.37210607528687,7.35017395019531,7.33014488220215,7.31694650650024,7.303795337677,7.29069185256958,7.27763509750366,7.26462507247925,7.25166130065918,7.23874425888062,7.22587251663208,7.21304655075073,7.20026636123657,7.18753147125244,7.17484092712402,7.16219568252563,7.14959478378296,7.137038230896,7.12452554702759,7.11205673217773,7.09963130950928,7.08724927902222,7.07491064071655,7.06261444091797,7.05036115646362,7.03815031051636,7.02598190307617,7.01385498046875,7.00177049636841,6.98972702026367,6.9777250289917,6.96576452255249,6.95384454727173,6.94196557998657,6.93012714385986,6.91832876205444,6.90657043457031,6.89485263824463,6.88317394256592,6.87153482437134,6.85993480682373,6.84837436676025,6.83685255050659,6.82536935806274,6.81392478942871,6.80251789093018,6.7911491394043,6.77981853485107,6.76852512359619,6.75726985931396,6.74605178833008,6.67292070388794,6.65602445602417,6.63921308517456,6.62248706817627,6.60584449768066,6.5892858505249,6.57280969619751,6.55641603469849,6.54010391235352,6.52387237548828,6.50772142410278,6.49165058135986,6.47565841674805,6.45974540710449,6.44390964508057,6.42815208435059,6.41247081756592,6.39686632156372,6.38133668899536,6.365882396698,6.35050296783447,6.33519697189331,6.31996488571167,6.30480623245239,6.289719581604,6.27470541000366,6.25976276397705,6.24489068984985,6.23008966445923,6.2153582572937,6.20069646835327,6.18589019775391,6.16997194290161,6.15413522720337,6.13837957382202,6.12270498275757,6.10710954666138,6.09159374237061,6.07615661621094,6.06079721450806,6.04551553726196,6.03031063079834,6.01518201828003,6.00012922286987,5.98515129089355,5.97024822235107,5.956467628479,5.94284439086914,5.929283618927,5.91578388214111,5.90234565734863,5.8889684677124,5.87565183639526,5.86239528656006,5.84919834136963,5.83606100082397,5.82298231124878,5.80996179580688,5.79699993133545,5.784095287323,5.77124834060669,5.75845813751221,5.74572467803955,5.7330470085144,5.72042560577393,5.7078595161438,5.69535064697266,5.68292093276978,5.67054557800293,5.6582236289978,5.64595556259155,5.63374042510986,5.62157773971558,5.60946798324585,5.59740972518921,5.58540344238281,5.5734486579895,5.56154489517212,5.54969215393066,5.53788948059082,5.52613687515259,5.51443433761597,5.50278091430664,5.49117660522461
16.0147113800049,16.0152416229248,16.0157680511475,16.0162906646729,16.0168190002441,16.0173454284668,16.0178737640381,16.0183982849121,16.0189208984375,16.0194454193115,16.0199756622314,16.0204982757568,16.0210266113281,16.0215511322021,16.0220794677734,16.0226039886475,16.0231323242188,16.0236549377441,16.0241813659668,16.0247116088867,16.0252380371094,16.025764465332,16.0262908935547,16.026819229126,16.02734375,16.0278720855713,16.0283985137939,16.0289249420166,16.0294494628906,16.0299758911133,16.0305023193359,16.0310306549072,16.0315570831299,16.0320854187012,16.0326080322266,16.0331363677979,16.0336647033691,16.0341911315918,16.0347213745117,16.0352458953857,16.0357723236084,16.0363006591797,16.0368251800537,16.037353515625,16.0378818511963,16.0384063720703,16.0389366149902,16.0394630432129,16.0399894714355,16.0405178070068,16.0410442352295,16.0415706634521,16.0421009063721,16.0426273345947,16.0431537628174,16.0436820983887,16.0442085266113,16.0447387695312,16.0452651977539,16.0457954406738,16.0463199615479,16.0468463897705,16.0473747253418,16.0479049682617,16.0484313964844,16.0489616394043,16.0494861602783,16.0500144958496,16.0505447387695,16.0510711669922,16.0515995025635,16.0521278381348,16.0526542663574,16.0531845092773,16.0537109375,16.0542411804199,16.0547676086426,16.0552959442139,16.0558242797852,16.0563526153564,16.0568828582764,16.057409286499,16.0579376220703,16.0584678649902,16.0589962005615,16.0595245361328,16.0600528717041,16.0605812072754,16.0611095428467,16.0616397857666,16.0621700286865,16.0626964569092,16.0632247924805,16.0637531280518,16.064281463623,16.064811706543,16.0653400421143,16.0658683776855,16.0663986206055,16.0669269561768,16.0674571990967,16.0679836273193,16.0685138702393,16.0690460205078,16.0695743560791,16.070104598999,16.0706329345703,16.0711612701416,16.0716915130615,16.0722217559814,16.0727500915527,16.073278427124,16.0738105773926,16.0743370056152,16.0748672485352,16.0753974914551,16.075927734375,16.0764579772949,16.0769863128662,16.0775184631348,16.0780467987061,16.0785751342773,16.0791072845459,16.0796356201172,16.0801658630371,16.080696105957,16.081226348877,16.0817565917969,16.0822849273682,16.0828151702881,16.083345413208,16.0838794708252,16.0844078063965,16.0849380493164,16.0854663848877,16.0859985351562,16.0865287780762,16.0870590209961,16.087589263916,16.0881195068359,16.0886497497559,16.0891819000244,16.0897102355957,16.0902423858643,16.0907707214355,16.0913028717041,16.0918350219727,16.0923652648926,16.0928955078125,16.0934276580811,16.093957901001,16.0944881439209,16.0950202941895,16.0955486297607,16.0960807800293,16.0966129302979,16.0971431732178,16.0976753234863,16.0982074737549,16.0987377166748,16.0992698669434,16.0998001098633,16.1003322601318,16.1008644104004,16.1013965606689,16.1019268035889,16.1024589538574,16.1029930114746,16.1035251617432,16.1040515899658,16.1045875549316,16.1051197052002,16.1056518554688,16.1061820983887,16.1067142486572,16.1072463989258,16.1077785491943,16.1083106994629,16.1088409423828,16.109375,16.1099071502686,16.1104393005371,16.1109714508057,16.1115055084229,16.1120376586914,16.11256980896,16.1131019592285,16.1136322021484,16.1141681671143,16.1147003173828,16.1152324676514,16.1157665252686,16.1162967681885,16.1168308258057,16.1173610687256,16.1178932189941,16.11842918396,16.1189632415771,16.1194934844971,16.1200275421143,16.1205596923828,16.1210918426514,16.1216259002686,16.1221580505371,16.1226940155029,16.1232261657715,16.1237564086914,16.1242904663086,16.1248245239258,16.125358581543,16.1258907318115,16.1264228820801,16.1269569396973,16.1274909973145,16.1280250549316,16.1285591125488,16.1290912628174,16.1296253204346,16.1301593780518,16.1306934356689,16.1312255859375,9.77882862091064,9.54611206054688,9.32421398162842,9.11239814758301,8.90999126434326,8.71638107299805,8.53100681304932,8.35335254669189,8.18990135192871,8.162841796875,8.13596153259277,8.10925674438477,8.08272743225098,8.05637073516846,8.03018569946289,8.00417041778564,7.97832250595093,7.95264148712158,7.92712545394897,7.90177202224731,7.87658071517944,7.85154962539673,7.82667684555054,7.80196094512939,7.77740097045898,7.75299501419067,7.72874164581299,7.70463991165161,7.68068790435791,7.65688419342041,7.63322782516479,7.60971689224243,7.586350440979,7.56312704086304,7.54004573822021,7.5171046257019,7.49430274963379,7.47163867950439,7.44911098480225,7.42671918869019,7.40446138381958,7.38233709335327,7.36034393310547,7.33848142623901,7.32419443130493,7.31101751327515,7.29788780212402,7.28480529785156,7.27177000045776,7.25878095626831,7.2458381652832,7.23294115066528,7.22009038925171,7.20728492736816,7.19452524185181,7.18181037902832,7.16914033889771,7.15651512145996,7.14393377304077,7.13139724731445,7.11890411376953,7.10645484924316,7.09404945373535,7.08168697357178,7.06936740875244,7.05709075927734,7.04485654830933,7.03266477584839,7.02051496505737,7.00840711593628,6.99634122848511,6.98431634902954,6.9723334312439,6.9603910446167,6.94848966598511,6.93662881851196,6.92480850219727,6.91302824020386,6.90128803253174,6.88958787918091,6.87792682647705,6.86630535125732,6.85472345352173,6.84318017959595,6.83167600631714,6.82021045684814,6.80878305435181,6.79739332199097,6.78604173660278,6.7747278213501,6.76345205307007,6.75221347808838,6.74101209640503,6.72984790802002,6.65747261047363,6.64065408706665,6.62392044067383,6.60727119445801,6.59070491790771,6.57422208786011,6.55782079696655,6.54150199890137,6.52526378631592,6.50910568237305,6.49302768707275,6.47702932357788,6.46110916137695,6.44526720046997,6.42950248718262,6.41381502151489,6.39820384979248,6.38266801834106,6.36720752716064,6.3518214225769,6.33650922775269,6.32127141952515,6.30610609054565,6.29101324081421,6.27599287033081,6.26104402542114,6.24616622924805,6.23135900497437,6.21662139892578,6.20195388793945,6.18735504150391,6.17243576049805,6.15658664703369,6.14081859588623,6.12513065338135,6.1095232963562,6.09399509429932,6.07854604721069,6.06317472457886,6.04788064956665,6.03266382217407,6.01752376556396,6.00245904922485,5.98746967315674,5.97255516052246,5.95771455764771,5.94390249252319,5.93033647537231,5.91683197021484,5.90338945388794,5.89000749588013,5.87668609619141,5.86342477798462,5.85022306442261,5.83708095550537,5.82399797439575,5.81097316741943,5.79800653457642,5.78509759902954,5.77224588394165,5.75945138931274,5.74671363830566,5.73403167724609,5.72140550613403,5.70883512496948,5.69632005691528,5.68386316299438,5.67148399353027,5.65915822982788,5.64688587188721,5.63466691970825,5.6225004196167,5.61038637161255,5.59832429885864,5.58631420135498,5.5743556022644,5.5624475479126,5.55059099197388,5.53878450393677,5.52702808380127,5.51532173156738,5.50366449356079,5.49205684661865,5.48049783706665
15.8846769332886,15.8851919174194,15.8857078552246,15.8862323760986,15.8867483139038,15.8872652053833,15.8877811431885,15.888298034668,15.8888177871704,15.889331817627,15.8898496627808,15.8903675079346,15.8908882141113,15.8914060592651,15.8919248580933,15.8924398422241,15.8929557800293,15.8934745788574,15.8939905166626,15.894510269165,15.8950262069702,15.8955459594727,15.8960666656494,15.8965854644775,15.897102355957,15.8976202011108,15.8981380462646,15.8986577987671,15.8991756439209,15.899694442749,15.9002103805542,15.9007272720337,15.9012470245361,15.9017648696899,15.9022846221924,15.9028015136719,15.9033193588257,15.9038381576538,15.9043579101562,15.9048767089844,15.9053945541382,15.9059114456177,15.9064292907715,15.9069480895996,15.9074687957764,15.9079875946045,15.9085054397583,15.9090242385864,15.9095439910889,15.910062789917,15.9105825424194,15.911096572876,15.9116172790527,15.9121370315552,15.9126558303833,15.9131755828857,15.9136924743652,15.914213180542,15.9147329330444,15.9152526855469,15.9157733917236,15.9162893295288,15.9168081283569,15.9173278808594,15.9178476333618,15.9183664321899,15.9188871383667,15.9194049835205,15.9199266433716,15.920446395874,15.9209661483765,15.9214859008789,15.9220018386841,15.9225225448608,15.9230422973633,15.9235610961914,15.9240827560425,15.9246015548706,15.925121307373,15.9256420135498,15.9261627197266,15.9266834259033,15.9272012710571,15.9277200698853,15.9282398223877,15.9287614822388,15.9292821884155,15.9298009872437,15.9303207397461,15.9308414459229,15.9313631057739,15.9318828582764,15.9324035644531,15.9329204559326,15.9334411621094,15.9339628219604,15.9344835281372,15.9350051879883,15.9355230331421,15.9360456466675,15.9365653991699,15.9370880126953,15.9376087188721,15.9381256103516,15.9386472702026,15.9391670227051,15.9396886825562,15.9402112960815,15.9407300949097,15.9412517547607,15.9417724609375,15.9422941207886,15.9428157806396,15.9433374404907,15.9438552856445,15.9443759918213,15.9448986053467,15.9454193115234,15.9459409713745,15.9464616775513,15.9469833374023,15.9475059509277,15.9480266571045,15.9485492706299,15.9490671157837,15.9495887756348,15.9501104354858,15.9506320953369,15.9511547088623,15.9516754150391,15.9521980285645,15.9527196884155,15.9532403945923,15.9537630081177,15.9542827606201,15.9548053741455,15.9553260803223,15.9558486938477,15.956371307373,15.9568929672241,15.9574155807495,15.9579372406006,15.958459854126,15.9589815139771,15.9595041275024,15.9600229263306,15.9605464935303,15.9610681533813,15.9615917205811,15.9621133804321,15.9626350402832,15.9631576538086,15.963680267334,15.9642038345337,15.9647254943848,15.9652442932129,15.9657688140869,15.966290473938,15.9668140411377,15.9673357009888,15.9678583145142,15.9683818817139,15.9689054489136,15.9694261550903,15.9699487686157,15.9704751968384,15.9709978103638,15.9715204238892,15.9720420837402,15.9725675582886,15.9730911254883,15.9736127853394,15.9741373062134,15.9746618270874,15.9751853942871,15.9757070541382,15.9762306213379,15.9767551422119,15.9772777557373,15.9778003692627,15.9783239364624,15.9788465499878,15.9793720245361,15.9798946380615,15.9804201126099,15.9809427261353,15.981466293335,15.981990814209,15.982515335083,15.9830389022827,15.9835615158081,15.9840860366821,15.9846096038818,15.9851341247559,15.9856576919556,15.9861831665039,15.9867067337036,15.987229347229,15.9877548217773,15.9882802963257,15.9888048171997,15.9893264770508,15.9898519515991,15.9903774261475,15.9909029006958,15.9914236068726,15.9919500350952,15.9924745559692,15.9930009841919,15.993522644043,15.9940481185913,15.9945735931396,15.9951000213623,15.9956207275391,15.9961462020874,15.9966735839844,15.9971961975098,15.9977216720581,15.9982471466064,15.9987726211548,9.77469539642334,9.54217338562012,9.32045650482178,9.10880851745605,8.90655994415283,8.71309757232666,8.52786064147949,8.3503360748291,8.18005275726318,8.14842319488525,8.12163734436035,8.09502696990967,8.06859016418457,8.04232597351074,8.01623153686523,7.99030637741089,7.96454811096191,7.93895578384399,7.91352701187134,7.88826084136963,7.86315488815308,7.83820915222168,7.81342077255249,7.78878831863403,7.76431083679199,7.73998737335205,7.71581506729126,7.69179391860962,7.66792154312134,7.64419651031494,7.62061834335327,7.5971851348877,7.57389545440674,7.55074787139893,7.5277419090271,7.50487565994263,7.48214769363403,7.459557056427,7.4371018409729,7.41478204727173,7.39259576797485,7.37054204940796,7.34861898422241,7.33145713806152,7.31825399398804,7.30509853363037,7.29199028015137,7.27892875671387,7.26591396331787,7.25294589996338,7.24002361297607,7.22714757919312,7.21431732177734,7.2015323638916,7.18879318237305,7.17609834671021,7.16344833374023,7.15084314346313,7.13828182220459,7.12576484680176,7.11329174041748,7.1008620262146,7.08847618103027,7.07613277435303,7.06383275985718,7.05157518386841,7.03936004638672,7.02718734741211,7.01505661010742,7.00296783447266,6.9909200668335,6.97891426086426,6.96694946289062,6.9550256729126,6.94314241409302,6.93130016326904,6.91949796676636,6.90773582458496,6.8960132598877,6.88433074951172,6.87268781661987,6.86108446121216,6.84951972961426,6.83799409866333,6.82650709152222,6.81505870819092,6.80364894866943,6.79227685928345,6.78094244003296,6.76964569091797,6.75838613510132,6.74716424942017,6.73597955703735,6.72483205795288,6.71372127532959,6.6420955657959,6.6253547668457,6.60869789123535,6.59212493896484,6.57563447952271,6.55922651290894,6.54290056228638,6.52665519714355,6.51049089431763,6.49440574645996,6.47840023040771,6.46247339248657,6.44662475585938,6.43085384368896,6.41515970230103,6.3995418548584,6.38399982452393,6.36853313446045,6.35314083099365,6.33782243728638,6.32257795333862,6.30740642547607,6.29230785369873,6.27728080749512,6.26232576370239,6.2474422454834,6.2326283454895,6.21788501739502,6.20321178436279,6.18860721588135,6.17407083511353,6.15903949737549,6.14325904846191,6.12755918502808,6.11193943023682,6.09639883041382,6.08093690872192,6.06555366516113,6.05024814605713,6.0350193977356,6.01986742019653,6.00479078292847,5.98978996276855,5.97486352920532,5.96001148223877,5.94523334503174,5.93138980865479,5.91788053512573,5.90443325042725,5.89104652404785,5.87772035598755,5.86445474624634,5.8512487411499,5.83810186386108,5.82501411437988,5.81198453903198,5.79901361465454,5.78609991073608,5.77324390411377,5.76044511795044,5.74770259857178,5.73501634597778,5.72238636016846,5.70981168746948,5.6972918510437,5.68482732772827,5.67242240905762,5.66009283065796,5.64781618118286,5.63559341430664,5.62342262268066,5.61130475997925,5.59923887252808,5.58722496032715,5.57526206970215,5.56335067749023,5.55148983001709,5.53968000411987,5.52791976928711,5.51620960235596,5.5045485496521,5.4929370880127,5.48137426376343,5.4698600769043
15.7567310333252,15.7572431564331,15.7577495574951,15.7582626342773,15.7587699890137,15.7592763900757,15.7597904205322,15.7602977752686,15.7608051300049,15.7613134384155,15.7618246078491,15.7623329162598,15.7628440856934,15.7633533477783,15.7638626098633,15.7643747329712,15.7648811340332,15.7653903961182,15.7659006118774,15.7664070129395,15.766918182373,15.7674312591553,15.7679395675659,15.7684497833252,15.7689609527588,15.7694711685181,15.7699794769287,15.770489692688,15.7710008621216,15.7715101242065,15.7720193862915,15.7725276947021,15.7730369567871,15.7735471725464,15.7740592956543,15.7745685577393,15.7750787734985,15.7755880355835,15.7760992050171,15.776611328125,15.77712059021,15.7776279449463,15.7781391143799,15.7786493301392,15.7791585922241,15.7796697616577,15.7801818847656,15.7806901931763,15.7812013626099,15.7817125320435,15.7822227478027,15.782732963562,15.783242225647,15.7837533950806,15.7842655181885,15.7847757339478,15.7852878570557,15.7857961654663,15.7863073348999,15.7868185043335,15.7873296737671,15.7878398895264,15.7883491516113,15.7888612747192,15.7893714904785,15.7898826599121,15.7903957366943,15.7909049987793,15.7914171218872,15.7919282913208,15.7924404144287,15.7929515838623,15.7934608459473,15.7939720153809,15.7944831848145,15.7949953079224,15.795506477356,15.7960186004639,15.7965297698975,15.7970418930054,15.797553062439,15.7980661392212,15.7985744476318,15.7990846633911,15.7995986938477,15.8001108169556,15.8006219863892,15.8011341094971,15.8016443252563,15.8021574020386,15.8026695251465,15.8031826019287,15.8036947250366,15.8042049407959,15.8047161102295,15.8052272796631,15.8057413101196,15.8062534332275,15.8067655563354,15.807276725769,15.807788848877,15.8083028793335,15.8088159561157,15.809326171875,15.8098363876343,15.8103494644165,15.8108625411987,15.8113765716553,15.8118877410889,15.8123989105225,15.8129119873047,15.8134250640869,15.8139390945435,15.8144493103027,15.8149604797363,15.8154745101929,15.8159875869751,15.8165006637573,15.8170146942139,15.8175277709961,15.8180389404297,15.8185529708862,15.8190650939941,15.8195781707764,15.8200912475586,15.8206014633179,15.8211154937744,15.821629524231,15.8221435546875,15.822657585144,15.8231687545776,15.8236818313599,15.8241968154907,15.8247108459473,15.8252210617065,15.8257341384888,15.8262481689453,15.8267631530762,15.8272743225098,15.8277893066406,15.8283033370972,15.8288164138794,15.8293294906616,15.8298435211182,15.8303565979004,15.8308696746826,15.8313827514648,15.8318967819214,15.8324117660522,15.8329248428345,15.8334407806396,15.8339519500732,15.8344669342041,15.834981918335,15.8354949951172,15.8360080718994,15.8365201950073,15.8370342254639,15.837550163269,15.8380651473999,15.8385801315308,15.8390922546387,15.8396043777466,15.8401222229004,15.8406362533569,15.8411512374878,15.8416624069214,15.8421792984009,15.8426942825317,15.8432083129883,15.8437223434448,15.8442401885986,15.8447542190552,15.8452663421631,15.8457832336426,15.8462963104248,15.8468151092529,15.8473262786865,15.8478422164917,15.8483581542969,15.8488750457764,15.8493881225586,15.8499040603638,15.8504190444946,15.8509368896484,15.8514490127563,15.8519659042358,15.8524799346924,15.8529958724976,15.8535108566284,15.8540258407593,15.8545417785645,15.8550567626953,15.8555727005005,15.8560886383057,15.8566055297852,15.8571195602417,15.8576364517212,15.8581523895264,15.8586683273315,15.8591833114624,15.8596992492676,15.8602161407471,15.8607311248779,15.8612451553345,15.8617639541626,15.8622798919678,15.8627939224243,15.8633098602295,15.8638277053833,15.8643436431885,15.8648586273193,15.8653745651245,15.8658924102783,15.8664083480835,15.8669233322144,15.8674402236938,15.867959022522,15.8684759140015,9.7705659866333,9.53823757171631,9.31670188903809,9.10522270202637,8.90313148498535,8.70981597900391,8.52471733093262,8.34732246398926,8.17716026306152,8.13405609130859,8.10736465454102,8.08084678649902,8.05450248718262,8.02832984924316,8.00232601165771,7.97649049758911,7.95082139968872,7.92531681060791,7.89997529983521,7.87479543685913,7.84977531433105,7.8249135017395,7.80020952224731,7.77566003799438,7.75126504898071,7.72702264785767,7.70293188095093,7.67898988723755,7.65519714355469,7.63155078887939,7.60805034637451,7.58469438552856,7.56148099899292,7.53840970993042,7.51547813415527,7.49268627166748,7.47003173828125,7.44751405715942,7.42513132095337,7.40288352966309,7.38076829910278,7.35878467559814,7.3387336730957,7.32550477981567,7.31232309341431,7.2991886138916,7.28610181808472,7.27306127548218,7.26006746292114,7.24712038040161,7.23421907424927,7.22136354446411,7.20855379104614,7.1957893371582,7.18306970596313,7.1703953742981,7.15776586532593,7.14518022537231,7.13263893127441,7.12014198303223,7.10768842697144,7.09527826309204,7.08291149139404,7.07058763504028,7.05830669403076,7.04606866836548,7.03387260437012,7.02171850204468,7.00960683822632,6.99753665924072,6.98550796508789,6.97352027893066,6.9615740776062,6.94966888427734,6.93780374526978,6.92597961425781,6.91419506072998,6.9024510383606,6.8907470703125,6.87908220291138,6.86745691299438,6.85587120056152,6.84432411193848,6.83281564712524,6.82134628295898,6.80991506576538,6.79852247238159,6.7871675491333,6.77585029602051,6.76457023620605,6.7533278465271,6.74212312698364,6.73095512390137,6.71982383728027,6.70872974395752,6.69767189025879,6.62678956985474,6.61012554168701,6.59354496002197,6.57704782485962,6.56063318252563,6.54429960250854,6.52804756164551,6.51187610626221,6.49578475952148,6.47977209091187,6.46383857727051,6.4479832649231,6.43220567703247,6.41650438308716,6.40088033676147,6.38533210754395,6.36985921859741,6.35446071624756,6.33913612365723,6.32388496398926,6.30870723724365,6.29360246658325,6.27856969833374,6.26360845565796,6.24871826171875,6.23389911651611,6.21914958953857,6.20446968078613,6.18985939025879,6.17531728744507,6.16084384918213,6.14570140838623,6.12998914718628,6.11435699462891,6.09880447387695,6.08333015441895,6.0679349899292,6.05261707305908,6.03737640380859,6.02221250534058,6.00712442398071,5.99211168289185,5.97717428207397,5.96231079101562,5.94752073287964,5.93280410766602,5.91892957687378,5.90547752380371,5.89208602905273,5.87875556945801,5.86548471450806,5.85227394104004,5.8391227722168,5.82603025436401,5.81299638748169,5.80002069473267,5.78710269927979,5.77424240112305,5.76143884658813,5.74869203567505,5.73600149154663,5.72336721420288,5.71078777313232,5.69826412200928,5.68579530715942,5.67338037490845,5.6610279083252,5.64874744415283,5.63651990890503,5.62434577941895,5.61222362518311,5.60015392303467,5.58813571929932,5.57616949081421,5.56425428390503,5.55238962173462,5.54057550430298,5.52881145477295,5.51709747314453,5.50543308258057,5.4938178062439,5.48225116729736,5.47073364257812,5.45926380157471
15.6308355331421,15.6313352584839,15.6318359375,15.6323404312134,15.6328411102295,15.633339881897,15.6338415145874,15.6343402862549,15.6348447799683,15.6353445053101,15.6358432769775,15.6363430023193,15.6368494033813,15.6373519897461,15.6378526687622,15.638352394104,15.6388530731201,15.6393508911133,15.6398553848267,15.6403560638428,15.6408576965332,15.6413593292236,15.6418619155884,15.6423664093018,15.6428632736206,15.6433706283569,15.6438703536987,15.6443710327148,15.6448745727539,15.6453762054443,15.6458768844604,15.6463794708252,15.6468801498413,15.6473817825317,15.6478843688965,15.6483879089355,15.648889541626,15.6493902206421,15.6498918533325,15.6503944396973,15.6508960723877,15.6513986587524,15.6518993377686,15.6524019241333,15.652904510498,15.6534070968628,15.6539106369019,15.6544103622437,15.654914855957,15.6554164886475,15.6559200286865,15.6564197540283,15.6569223403931,15.6574249267578,15.6579275131226,15.6584300994873,15.6589345932007,15.6594362258911,15.6599388122559,15.6604404449463,15.6609449386597,15.6614456176758,15.6619482040405,15.662449836731,15.66295337677,15.6634569168091,15.6639604568481,15.6644649505615,15.6649675369263,15.6654682159424,15.6659727096558,15.6664743423462,15.6669778823853,15.66748046875,15.6679840087891,15.6684865951538,15.6689910888672,15.6694936752319,15.6699991226196,15.6705007553101,15.6710042953491,15.6715087890625,15.6720094680786,15.672513961792,15.6730165481567,15.6735200881958,15.6740236282349,15.6745281219482,15.6750326156616,15.6755352020264,15.6760387420654,15.6765432357788,15.6770448684692,15.6775503158569,15.6780519485474,15.6785573959351,15.6790618896484,15.6795644760132,15.6800699234009,15.6805753707886,15.6810779571533,15.6815814971924,15.6820859909058,15.6825895309448,15.6830921173096,15.6835966110229,15.684100151062,15.684606552124,15.6851100921631,15.6856155395508,15.6861181259155,15.6866235733032,15.6871280670166,15.6876316070557,15.688136100769,15.6886377334595,15.6891450881958,15.6896486282349,15.6901540756226,15.6906585693359,15.6911640167236,15.691668510437,15.6921730041504,15.6926755905151,15.6931810379028,15.6936864852905,15.6941909790039,15.6946954727173,15.695200920105,15.695707321167,15.6962127685547,15.6967163085938,15.6972227096558,15.6977262496948,15.6982307434082,15.6987361907959,15.699239730835,15.699746131897,15.7002515792847,15.7007570266724,15.7012634277344,15.7017679214478,15.7022724151611,15.7027788162231,15.7032833099365,15.7037887573242,15.7042942047119,15.7047986984253,15.705304145813,15.7058124542236,15.706316947937,15.7068243026733,15.7073278427124,15.7078332901001,15.7083377838135,15.7088441848755,15.7093505859375,15.7098550796509,15.7103624343872,15.7108678817749,15.7113742828369,15.7118825912476,15.7123870849609,15.7128925323486,15.713399887085,15.713903427124,15.714409828186,15.7149171829224,15.7154216766357,15.7159290313721,15.7164373397827,15.7169437408447,15.7174491882324,15.7179555892944,15.7184629440308,15.7189702987671,15.7194747924805,15.7199811935425,15.7204914093018,15.7209959030151,15.7215032577515,15.7220106124878,15.7225179672241,15.7230224609375,15.7235307693481,15.7240381240845,15.7245464324951,15.7250518798828,15.7255592346191,15.7260665893555,15.7265739440918,15.7270822525024,15.7275886535645,15.7280969619751,15.7286033630371,15.7291107177734,15.7296180725098,15.7301263809204,15.7306308746338,15.7311401367188,15.7316484451294,15.7321557998657,15.7326612472534,15.7331705093384,15.7336797714233,15.7341871261597,15.7346925735474,15.7352018356323,15.735710144043,15.7362174987793,15.7367238998413,15.7372341156006,15.7377424240112,15.7382497787476,15.7387571334839,15.7392654418945,15.7397737503052,15.7402801513672,9.76644039154053,9.53430557250977,9.31295013427734,9.10163974761963,8.89970588684082,8.7065372467041,8.52157688140869,8.34431076049805,8.1742696762085,8.1197395324707,8.09314155578613,8.06671714782715,8.04046440124512,8.01438236236572,7.98846912384033,7.96272277832031,7.93714189529419,7.91172456741333,7.88646984100342,7.86137580871582,7.83644104003906,7.81166362762451,7.78704261779785,7.76257610321045,7.73826313018799,7.71410179138184,7.69009113311768,7.66622877120972,7.64251470565796,7.61894702911377,7.59552383422852,7.57224464416504,7.54910707473755,7.52611112594604,7.50325441360474,7.48053646087646,7.4579553604126,7.43551015853882,7.41319990158081,7.39102268218994,7.36897850036621,7.34706497192383,7.33276987075806,7.31956195831299,7.30640172958374,7.29328870773315,7.28022241592407,7.26720333099365,7.25423049926758,7.24130392074585,7.22842359542847,7.21558856964111,7.20279932022095,7.19005489349365,7.17735576629639,7.16470146179199,7.15209197998047,7.1395263671875,7.12700510025024,7.11452770233154,7.10209369659424,7.08970308303833,7.07735586166382,7.06505155563354,7.05278968811035,7.04057025909424,7.02839326858521,7.01625823974609,7.0041651725769,6.99211406707764,6.98010396957397,6.96813488006592,6.95620727539062,6.94431972503662,6.93247318267822,6.92066717147827,6.90890073776245,6.89717483520508,6.88548851013184,6.87384128570557,6.86223411560059,6.85066556930542,6.83913612365723,6.82764530181885,6.81619310379028,6.80477952957153,6.79340362548828,6.78206586837769,6.77076578140259,6.75950288772583,6.74827718734741,6.73708915710449,6.72593784332275,6.7148232460022,6.70374584197998,6.69270420074463,6.68169927597046,6.61155366897583,6.59496593475342,6.57846164703369,6.56203985214233,6.54569959640503,6.52944040298462,6.5132622718811,6.49716377258301,6.48114442825317,6.4652042388916,6.44934225082397,6.43355751037598,6.41785049438477,6.40221977233887,6.38666439056396,6.37118530273438,6.35578060150146,6.34045028686523,6.32519292831421,6.31000900268555,6.29489755630493,6.27985858917236,6.26489162445068,6.24999523162842,6.23516941070557,6.22041416168213,6.20572853088379,6.19111251831055,6.17656469345093,6.16208457946777,6.1476731300354,6.13242101669312,6.11677646636963,6.10121154785156,6.0857253074646,6.07031774520874,6.05498790740967,6.03973579406738,6.02455949783325,6.00945997238159,5.99443578720093,5.9794864654541,5.96461153030396,5.94981002807617,5.93508243560791,5.9204273223877,5.90652227401733,5.89312601089478,5.87979078292847,5.86651515960693,5.85330009460449,5.84014368057251,5.8270468711853,5.81400871276855,5.80102825164795,5.78810596466064,5.77524089813232,5.76243305206299,5.74968194961548,5.73698711395264,5.72434854507446,5.71176481246948,5.69923686981201,5.68676376342773,5.67434453964233,5.66198015213013,5.6496787071228,5.63744735717773,5.62526893615723,5.61314296722412,5.60106897354126,5.5890474319458,5.57707691192627,5.56515789031982,5.55328941345215,5.54147148132324,5.52970361709595,5.51798582077026,5.50631761550903,5.4946985244751,5.48312854766846,5.47160673141479,5.46013355255127,5.44870853424072
15.5069332122803,15.5074281692505,15.5079174041748,15.5084133148193,15.5089063644409,15.5094022750854,15.5098924636841,15.5103855133057,15.5108757019043,15.5113697052002,15.5118637084961,15.5123586654663,15.5128526687622,15.5133447647095,15.5138359069824,15.5143308639526,15.5148239135742,15.5153188705444,15.515811920166,15.5163011550903,15.5168008804321,15.5172939300537,15.5177879333496,15.5182781219482,15.5187721252441,15.51926612854,15.5197610855103,15.5202550888062,15.5207481384277,15.5212430953979,15.5217351913452,15.5222311019897,15.522723197937,15.5232162475586,15.5237121582031,15.5242071151733,15.5247001647949,15.5251960754395,15.525689125061,15.5261831283569,15.5266761779785,15.5271711349487,15.5276651382446,15.5281591415405,15.5286521911621,15.5291471481323,15.5296430587769,15.5301370620728,15.5306301116943,15.5311250686646,15.5316181182861,15.5321130752563,15.5326070785522,15.5331020355225,15.5335960388184,15.5340909957886,15.5345869064331,15.5350818634033,15.5355768203735,15.5360698699951,15.5365657806396,15.5370578765869,15.5375556945801,15.538049697876,15.5385437011719,15.5390386581421,15.5395345687866,15.5400304794312,15.5405254364014,15.5410184860229,15.5415143966675,15.5420074462891,15.5425043106079,15.5429992675781,15.543493270874,15.5439882278442,15.5444841384888,15.5449800491333,15.5454759597778,15.545970916748,15.5464658737183,15.5469627380371,15.547456741333,15.5479526519775,15.5484485626221,15.5489435195923,15.5494375228882,15.5499362945557,15.5504312515259,15.5509281158447,15.5514221191406,15.5519180297852,15.5524129867554,15.5529069900513,15.5534057617188,15.5538988113403,15.5543956756592,15.5548915863037,15.5553884506226,15.5558862686157,15.5563812255859,15.5568780899048,15.5573711395264,15.5578680038452,15.5583648681641,15.5588607788086,15.5593566894531,15.559853553772,15.5603494644165,15.5608463287354,15.5613431930542,15.5618381500244,15.5623359680176,15.5628299713135,15.5633277893066,15.5638236999512,15.5643196105957,15.5648155212402,15.5653133392334,15.5658102035522,15.5663080215454,15.5668039321899,15.5673017501831,15.5677947998047,15.5682935714722,15.568790435791,15.5692873001099,15.5697832107544,15.5702810287476,15.5707769393921,15.5712747573853,15.5717716217041,15.5722684860229,15.5727643966675,15.5732612609863,15.5737590789795,15.5742568969727,15.5747537612915,15.5752515792847,15.5757484436035,15.5762453079224,15.5767440795898,15.5772399902344,15.5777397155762,15.5782327651978,15.5787324905396,15.5792293548584,15.5797262191772,15.5802240371704,15.5807228088379,15.5812206268311,15.5817184448242,15.5822162628174,15.5827131271362,15.5832090377808,15.5837078094482,15.5842046737671,15.5847043991089,15.5852022171021,15.5857000350952,15.5861988067627,15.5866966247559,15.587194442749,15.5876913070679,15.5881872177124,15.5886869430542,15.5891847610474,15.5896835327148,15.590181350708,15.5906791687012,15.59117603302,15.5916757583618,15.5921745300293,15.5926733016968,15.5931711196899,15.5936698913574,15.5941696166992,15.5946683883667,15.5951652526855,15.595664024353,15.5961656570435,15.5966653823853,15.5971603393555,15.5976591110229,15.5981597900391,15.5986604690552,15.5991563796997,15.5996561050415,15.6001558303833,15.6006546020508,15.6011543273926,15.6016530990601,15.6021518707275,15.6026515960693,15.6031513214111,15.6036510467529,15.6041507720947,15.6046495437622,15.605149269104,15.6056470870972,15.6061477661133,15.6066474914551,15.6071472167969,15.60764503479,15.6081466674805,15.6086444854736,15.6091451644897,15.6096458435059,15.6101417541504,15.6106433868408,15.6111440658569,15.611644744873,15.6121416091919,15.612642288208,15.6131448745728,15.6136436462402,15.6141424179077,9.7623176574707,9.53037738800049,9.30920219421387,9.09805965423584,8.89628219604492,8.70326137542725,8.5184383392334,8.34130191802979,8.17138195037842,8.10547256469727,8.0789680480957,8.05263614654541,8.02647495269775,8.00048351287842,7.97465944290161,7.94900226593018,7.92350912094116,7.89817905426025,7.87301063537598,7.84800148010254,7.82315158843994,7.79845809936523,7.7739200592041,7.74953603744507,7.72530460357666,7.70122385025024,7.67729330062866,7.65351057052612,7.62987470626831,7.60638475418091,7.58303880691528,7.55983543395996,7.53677368164062,7.51385259628296,7.49107027053833,7.46842575073242,7.44591808319092,7.42354488372803,7.40130615234375,7.37920045852661,7.35722589492798,7.34004926681519,7.32681512832642,7.31362867355347,7.30048990249634,7.28739833831787,7.27435302734375,7.26135492324829,7.24840307235718,7.23549699783325,7.22263717651367,7.20982265472412,7.19705390930176,7.18432998657227,7.1716513633728,7.15901708602905,7.14642715454102,7.13388156890869,7.12137985229492,7.10892200469971,7.09650802612305,7.08413696289062,7.07180881500244,7.0595235824585,7.04728078842163,7.035080909729,7.0229229927063,7.01080656051636,6.9987325668335,6.98669958114624,6.97470808029175,6.96275758743286,6.95084810256958,6.93897914886475,6.92715072631836,6.91536283493042,6.90361452102661,6.89190673828125,6.88023805618286,6.8686089515686,6.85701894760132,6.84546804428101,6.83395624160767,6.82248258590698,6.81104803085327,6.79965114593506,6.7882924079895,6.7769718170166,6.7656888961792,6.75444316864014,6.74323415756226,6.73206281661987,6.72092819213867,6.70983028411865,6.69876909255981,6.687744140625,6.67675542831421,6.61298274993896,6.59638786315918,6.57987642288208,6.56344699859619,6.54710006713867,6.53083419799805,6.51464891433716,6.49854326248169,6.4825177192688,6.46657037734985,6.45070171356201,6.4349102973938,6.41919660568237,6.40355920791626,6.3879976272583,6.3725118637085,6.35710048675537,6.34176397323608,6.32650136947632,6.31131076812744,6.29619359970093,6.2811484336853,6.26617479324341,6.25127267837524,6.23644113540649,6.22168016433716,6.2069878578186,6.1923656463623,6.17781209945679,6.16332674026489,6.14890909194946,6.13455867767334,6.11919784545898,6.1036205291748,6.08812236785889,6.07270288467407,6.05736112594604,6.04209613800049,6.02690887451172,6.01179695129395,5.99676132202148,5.9818000793457,5.96691370010376,5.95210123062134,5.93736171722412,5.92269563674927,5.9081015586853,5.89416599273682,5.88082599639893,5.86754608154297,5.85432624816895,5.84116554260254,5.82806396484375,5.81502103805542,5.80203628540039,5.7891092300415,5.77623987197876,5.763427734375,5.75067234039307,5.7379732131958,5.72532987594604,5.7127423286438,5.70020961761475,5.68773221969604,5.67530918121338,5.66294002532959,5.65062475204468,5.63837480545044,5.62619256973267,5.61406230926514,5.60198497772217,5.58995914459229,5.57798480987549,5.56606149673462,5.55418920516968,5.54236745834351,5.53059577941895,5.51887464523315,5.5072021484375,5.49557971954346,5.48400592803955,5.47248077392578,5.46100378036499,5.44957494735718,5.43819379806519
15.3849782943726,15.3854627609253,15.385947227478,15.386438369751,15.3869228363037,15.3874082565308,15.3878908157349,15.3883762359619,15.3888645172119,15.389347076416,15.3898305892944,15.3903169631958,15.3908033370972,15.3912935256958,15.3917770385742,15.392261505127,15.3927450180054,15.3932294845581,15.3937177658081,15.3942022323608,15.3946876525879,15.3951759338379,15.3956651687622,15.3961505889893,15.3966331481934,15.3971166610718,15.3976030349731,15.3980922698975,15.3985757827759,15.3990650177002,15.3995504379272,15.4000377655029,15.4005241394043,15.4010105133057,15.4014949798584,15.4019832611084,15.4024686813354,15.4029560089111,15.4034433364868,15.4039287567139,15.4044122695923,15.4048986434937,15.4053869247437,15.405873298645,15.4063587188721,15.4068460464478,15.4073343276978,15.4078197479248,15.4083080291748,15.4087924957275,15.4092779159546,15.4097652435303,15.410252571106,15.4107398986816,15.4112253189087,15.4117136001587,15.4121999740601,15.4126882553101,15.4131736755371,15.4136610031128,15.4141464233398,15.4146318435669,15.4151220321655,15.4156084060669,15.4160957336426,15.4165811538696,15.4170703887939,15.4175567626953,15.4180450439453,15.418532371521,15.4190196990967,15.4195051193237,15.4199914932251,15.4204807281494,15.4209671020508,15.4214544296265,15.4219427108765,15.4224300384521,15.4229183197021,15.4234066009521,15.4238929748535,15.4243783950806,15.4248676300049,15.4253549575806,15.4258441925049,15.4263324737549,15.4268188476562,15.4273071289062,15.4277954101562,15.4282827377319,15.4287719726562,15.4292583465576,15.4297456741333,15.4302339553833,15.4307222366333,15.4312105178833,15.431697845459,15.4321870803833,15.432674407959,15.4331636428833,15.4336528778076,15.4341402053833,15.4346265792847,15.435115814209,15.435604095459,15.4360933303833,15.4365797042847,15.437068939209,15.4375591278076,15.4380474090576,15.4385356903076,15.4390258789062,15.439510345459,15.4399995803833,15.4404888153076,15.4409770965576,15.4414663314819,15.4419555664062,15.4424438476562,15.4429330825806,15.4434232711792,15.4439115524292,15.4444007873535,15.4448862075806,15.4453754425049,15.4458656311035,15.4463567733765,15.4468441009521,15.4473314285278,15.4478225708008,15.4483118057251,15.4488010406494,15.4492921829224,15.4497776031494,15.4502668380737,15.450756072998,15.451247215271,15.4517364501953,15.4522247314453,15.4527149200439,15.4532041549683,15.4536943435669,15.4541845321655,15.4546709060669,15.4551610946655,15.4556522369385,15.4561424255371,15.4566307067871,15.4571199417114,15.4576101303101,15.458101272583,15.4585905075073,15.4590797424316,15.4595699310303,15.4600582122803,15.4605493545532,15.4610395431519,15.4615287780762,15.4620199203491,15.4625091552734,15.4629993438721,15.4634895324707,15.4639797210693,15.4644718170166,15.4649572372437,15.4654483795166,15.4659395217896,15.4664297103882,15.4669208526611,15.4674100875854,15.4679012298584,15.4683923721313,15.4688835144043,15.4693698883057,15.4698610305786,15.4703540802002,15.4708452224731,15.4713344573975,15.4718246459961,15.4723176956177,15.472806930542,15.4732971191406,15.4737901687622,15.4742832183838,15.4747705459595,15.4752626419067,15.4757528305054,15.4762468338013,15.4767351150513,15.4772281646729,15.4777202606201,15.4782114028931,15.478702545166,15.4791927337646,15.4796838760376,15.4801778793335,15.4806680679321,15.4811592102051,15.4816513061523,15.4821405410767,15.4826335906982,15.4831266403198,15.4836177825928,15.4841070175171,15.4846000671387,15.4850931167603,15.4855842590332,15.4860744476318,15.4865684509277,15.4870615005493,15.4875526428223,15.4880418777466,15.4885358810425,15.4890270233154,15.4895210266113,15.4900121688843,9.75819873809814,9.52645206451416,9.30545616149902,9.09448146820068,8.89286136627197,8.69998741149902,8.51530170440674,8.33829498291016,8.16849613189697,8.0912561416626,8.06484413146973,8.03860378265381,8.01253414154053,7.98663234710693,7.96089792251587,7.93532848358154,7.90992307662964,7.88467979431152,7.85959720611572,7.8346734046936,7.80990743637085,7.78529739379883,7.76084184646606,7.73653984069824,7.71238899230957,7.68838930130005,7.66453742980957,7.64083385467529,7.61727619171143,7.59386348724365,7.5705943107605,7.54746723175049,7.52448081970215,7.50163412094116,7.47892570495605,7.45635461807251,7.43391895294189,7.41161823272705,7.3894510269165,7.36741542816162,7.34734296798706,7.33408260345459,7.3208703994751,7.30770540237427,7.2945876121521,7.28151702880859,7.26849317550659,7.25551557540894,7.24258470535278,7.22969961166382,7.21685981750488,7.20406627655029,7.19131755828857,7.17861413955688,7.16595554351807,7.15334129333496,7.14077138900757,7.12824583053589,7.11576366424561,7.10332536697388,7.0909309387207,7.07857894897461,7.06627035140991,7.05400419235229,7.04178094863892,7.02959966659546,7.01746082305908,7.00536346435547,6.99330806732178,6.98129367828369,6.96932077407837,6.95738887786865,6.94549751281738,6.93364715576172,6.92183685302734,6.91006660461426,6.89833641052246,6.88664627075195,6.87499523162842,6.86338376998901,6.85181188583374,6.84027862548828,6.82878398895264,6.81732797622681,6.80591011047363,6.79453086853027,6.78318929672241,6.77188587188721,6.76061964035034,6.74939107894897,6.73819875717163,6.72704410552979,6.71592569351196,6.70484447479248,6.69379949569702,6.68279075622559,6.67181873321533,6.66088199615479,6.59780979156494,6.58129167556763,6.56485509872437,6.54850101470947,6.53222799301147,6.51603603363037,6.49992370605469,6.48389101028442,6.46793699264526,6.45206165313721,6.43626403808594,6.4205436706543,6.40489912033081,6.38933134078979,6.37383890151978,6.35842180252075,6.34307861328125,6.32780981063843,6.31261348724365,6.29748964309692,6.28243827819824,6.26745891571045,6.25255060195923,6.23771286010742,6.22294569015503,6.20824813842773,6.19361972808838,6.1790599822998,6.16456890106201,6.15014553070068,6.13578939437866,6.12150001525879,6.10603189468384,6.09052133560181,6.07508945465088,6.0597357749939,6.04445934295654,6.02925968170166,6.01413631439209,5.99908876419067,5.9841160774231,5.96921825408936,5.95439386367798,5.93964338302612,5.92496585845947,5.91036033630371,5.89582681655884,5.8818621635437,5.86857748031616,5.85535287857056,5.84218740463257,5.82908153533936,5.81603384017944,5.80304479598999,5.79011344909668,5.77723932266235,5.76442289352417,5.75166273117065,5.73895931243896,5.72631168365479,5.71371936798096,5.70118284225464,5.68870115280151,5.67627382278442,5.66390085220337,5.65158128738403,5.63931560516357,5.62711620330811,5.61498260498047,5.60290098190308,5.59087085723877,5.57889270782471,5.56696557998657,5.55508947372437,5.54326391220093,5.53148889541626,5.51976346969604,5.50808763504028,5.49646091461182,5.48488330841064,5.47335481643677,5.46187400817871,5.45044183731079,5.43905687332153,5.42772006988525
15.2649297714233,15.2654094696045,15.2658863067627,15.2663631439209,15.2668409347534,15.2673215866089,15.2677993774414,15.268274307251,15.2687520980835,15.2692279815674,15.2697095870972,15.2701854705811,15.2706670761108,15.2711429595947,15.2716197967529,15.2720994949341,15.2725763320923,15.2730531692505,15.2735300064087,15.2740106582642,15.2744884490967,15.2749691009521,15.2754468917847,15.2759246826172,15.276403427124,15.2768821716309,15.2773609161377,15.2778367996216,15.2783155441284,15.2787923812866,15.2792749404907,15.2797536849976,15.2802314758301,15.2807102203369,15.2811880111694,15.2816667556763,15.2821474075317,15.2826251983643,15.2831058502197,15.2835807800293,15.2840604782104,15.2845392227173,15.2850189208984,15.2854976654053,15.2859773635864,15.2864551544189,15.2869348526001,15.2874155044556,15.2878942489624,15.2883739471436,15.2888498306274,15.2893295288086,15.2898092269897,15.2902889251709,15.2907686233521,15.2912454605103,15.2917261123657,15.2922067642212,15.292685508728,15.2931652069092,15.2936420440674,15.2941217422485,15.2946014404297,15.2950820922852,15.295560836792,15.2960414886475,15.2965211868286,15.2969999313354,15.2974796295166,15.2979612350464,15.2984418869019,15.2989177703857,15.2993974685669,15.299877166748,15.3003597259521,15.3008394241333,15.3013172149658,15.3017988204956,15.3022775650024,15.3027582168579,15.3032388687134,15.3037147521973,15.3041963577271,15.3046779632568,15.305157661438,15.3056373596191,15.3061180114746,15.3065986633301,15.3070793151855,15.307559967041,15.3080396652222,15.308518409729,15.3089981079102,15.3094787597656,15.3099603652954,15.3104410171509,15.3109226226807,15.3114013671875,15.3118829727173,15.3123626708984,15.3128452301025,15.3133268356323,15.3138027191162,15.3142852783203,15.3147659301758,15.3152475357056,15.3157272338867,15.3162069320679,15.3166885375977,15.3171691894531,15.3176517486572,15.3181324005127,15.3186101913452,15.319091796875,15.3195753097534,15.3200569152832,15.3205375671387,15.3210191726685,15.3214988708496,15.3219795227051,15.3224620819092,15.322943687439,15.3234224319458,15.3239040374756,15.3243846893311,15.3248672485352,15.3253498077393,15.3258304595947,15.3263120651245,15.3267936706543,15.3272752761841,15.3277568817139,15.328239440918,15.3287172317505,15.3291997909546,15.3296823501587,15.3301639556885,15.3306474685669,15.3311290740967,15.3316097259521,15.3320922851562,15.3325748443604,15.3330574035645,15.3335371017456,15.3340167999268,15.3344993591309,15.3349828720093,15.3354644775391,15.3359489440918,15.3364286422729,15.3369112014771,15.3373928070068,15.3378763198853,15.338357925415,15.3388385772705,15.3393211364746,15.3398036956787,15.3402862548828,15.3407688140869,15.3412504196167,15.3417339324951,15.3422155380249,15.342698097229,15.3431825637817,15.3436632156372,15.344144821167,15.3446273803711,15.3451099395752,15.3455934524536,15.3460779190063,15.3465595245361,15.3470430374146,15.3475246429443,15.3480072021484,15.3484888076782,15.3489713668823,15.3494548797607,15.3499383926392,15.3504228591919,15.3509035110474,15.3513870239258,15.3518714904785,15.3523559570312,15.3528366088867,15.3533210754395,15.3538045883179,15.3542890548706,15.3547716140747,15.3552551269531,15.3557395935059,15.35622215271,15.3567056655884,15.3571891784668,15.3576736450195,15.3581562042236,15.3586406707764,15.3591241836548,15.3596086502075,15.3600912094116,15.36057472229,15.3610591888428,15.3615436553955,15.3620281219482,15.362512588501,15.3629961013794,15.3634796142578,15.3639631271362,15.3644485473633,15.364933013916,15.3654174804688,15.3659000396729,15.3663854598999,15.3668699264526,15.3673524856567,15.3678379058838,9.75408363342285,9.52252960205078,9.30171394348145,9.09090709686279,8.88944435119629,8.69671630859375,8.51216793060303,8.33528995513916,8.16561222076416,8.07708930969238,8.0507698059082,8.02462100982666,7.99864101409912,7.97282934188843,7.94718360900879,7.92170190811157,7.89638376235962,7.87122678756714,7.8462290763855,7.82139015197754,7.79670763015747,7.77218103408813,7.74780750274658,7.72358703613281,7.69951677322388,7.67559671401978,7.65182447433472,7.62819910049438,7.60471963882446,7.58138370513916,7.55819082260132,7.5351390838623,7.51222801208496,7.4894552230835,7.46682071685791,7.44432210922241,7.42195892333984,7.39972972869873,7.3776330947876,7.35566806793213,7.34136486053467,7.32812643051147,7.31493520736694,7.30179166793823,7.28869485855103,7.27564573287964,7.26264238357544,7.2496862411499,7.23677539825439,7.22391128540039,7.21109247207642,7.19831895828247,7.18559074401855,7.17290735244751,7.16026878356934,7.14767456054688,7.13512468338013,7.12261867523193,7.11015653610229,7.09773778915405,7.08536243438721,7.0730299949646,7.06074047088623,7.0484938621521,7.03628969192505,7.02412748336792,7.01200723648071,6.99992847442627,6.98789167404175,6.97589635848999,6.96394157409668,6.95202827453613,6.94015502929688,6.92832279205322,6.91653060913086,6.90477848052979,6.89306640625,6.88139390945435,6.86976099014282,6.85816717147827,6.84661245346069,6.83509683609009,6.82361936569214,6.812180519104,6.80078029632568,6.78941822052002,6.77809381484985,6.76680707931519,6.75555753707886,6.74434614181519,6.73317098617554,6.72203254699707,6.71093082427979,6.69986581802368,6.68883752822876,6.67784547805786,6.66688919067383,6.65596866607666,6.64508438110352,6.58270740509033,6.56626415252686,6.54990291595459,6.53362274169922,6.51742362976074,6.50130462646484,6.48526525497437,6.46930456161499,6.45342254638672,6.43761825561523,6.42189073562622,6.40623998641968,6.39066600799561,6.37516689300537,6.35974311828613,6.34439373016357,6.32911825180054,6.31391620635986,6.29878664016724,6.2837290763855,6.26874303817749,6.25382900238037,6.23898553848267,6.22421169281006,6.20950841903687,6.19487428665161,6.18030881881714,6.16581153869629,6.15138244628906,6.13702058792114,6.12272548675537,6.10844469070435,6.0929217338562,6.07747793197632,6.06211185455322,6.04682350158691,6.03161191940308,6.01647710800171,6.00141763687134,5.98643350601196,5.97152423858643,5.95668840408325,5.9419264793396,5.92723798751831,5.91262149810791,5.89807653427124,5.88360357284546,5.86960887908936,5.85637950897217,5.84320974349976,5.83009910583496,5.81704711914062,5.80405330657959,5.79111766815186,5.77823925018311,5.76541805267334,5.7526535987854,5.73994588851929,5.72729396820068,5.71469736099243,5.70215654373169,5.68967056274414,5.67723894119263,5.66486167907715,5.65253829956055,5.64026832580566,5.62805128097534,5.61590242385864,5.60381698608398,5.59178352355957,5.57980108261108,5.56787014007568,5.55599021911621,5.54416084289551,5.53238153457642,5.52065229415894,5.50897312164307,5.49734258651733,5.48576164245605,5.47422885894775,5.46274471282959,5.4513087272644,5.43992042541504,5.42857980728149,5.41728591918945
15.1467399597168,15.1472091674805,15.1476793289185,15.1481523513794,15.1486225128174,15.1490898132324,15.1495609283447,15.15003490448,15.150502204895,15.1509742736816,15.151442527771,15.1519107818604,15.1523857116699,15.1528577804565,15.1533269882202,15.1537961959839,15.1542663574219,15.1547393798828,15.1552085876465,15.1556787490845,15.1561460494995,15.1566228866577,15.15709400177,15.1575651168823,15.1580333709717,15.158504486084,15.1589736938477,15.15944480896,15.1599168777466,15.1603860855103,15.1608619689941,15.1613311767578,15.1618041992188,15.1622753143311,15.1627473831177,15.1632175445557,15.1636896133423,15.1641626358032,15.1646327972412,15.1651029586792,15.1655740737915,15.1660461425781,15.1665172576904,15.1669893264771,15.1674613952637,15.167932510376,15.1684055328369,15.1688766479492,15.1693477630615,15.1698179244995,15.1702909469604,15.1707620620728,15.1712322235107,15.171706199646,15.1721773147583,15.1726503372192,15.1731204986572,15.1735925674438,15.1740655899048,15.1745376586914,15.1750068664551,15.175479888916,15.1759519577026,15.1764240264893,15.1768970489502,15.1773691177368,15.1778411865234,15.1783142089844,15.1787872314453,15.1792593002319,15.1797294616699,15.1802005767822,15.1806745529175,15.1811475753784,15.181619644165,15.1820917129517,15.1825656890869,15.1830368041992,15.1835088729858,15.1839828491211,15.1844568252563,15.1849269866943,15.1853981018066,15.1858711242676,15.1863441467285,15.1868181228638,15.1872911453247,15.1877632141113,15.1882362365723,15.1887102127075,15.1891822814941,15.1896533966064,15.1901264190674,15.1905994415283,15.1910724639893,15.1915454864502,15.1920204162598,15.192494392395,15.1929664611816,15.1934394836426,15.1939134597778,15.1943845748901,15.1948575973511,15.1953296661377,15.1958045959473,15.1962785720825,15.1967525482178,15.1972255706787,15.1976985931396,15.1981716156006,15.1986465454102,15.1991195678711,15.1995916366577,15.2000637054443,15.2005376815796,15.2010126113892,15.2014865875244,15.2019596099854,15.2024345397949,15.2029066085815,15.2033824920654,15.2038564682007,15.204327583313,15.2048034667969,15.2052745819092,15.2057495117188,15.2062244415283,15.2066984176636,15.2071733474731,15.2076463699341,15.2081203460693,15.2085943222046,15.2090682983398,15.2095432281494,15.2100162506104,15.210488319397,15.2109642028809,15.2114400863647,15.2119140625,15.2123870849609,15.2128620147705,15.2133388519287,15.2138118743896,15.2142839431763,15.2147598266602,15.2152328491211,15.215708732605,15.2161836624146,15.2166585922241,15.2171335220337,15.2176065444946,15.2180824279785,15.2185564041138,15.219030380249,15.2195053100586,15.2199783325195,15.2204551696777,15.2209300994873,15.2214059829712,15.2218799591064,15.2223539352417,15.2228298187256,15.2233057022095,15.2237777709961,15.2242546081543,15.2247295379639,15.2252035140991,15.225679397583,15.2261552810669,15.2266311645508,15.227108001709,15.2275810241699,15.2280559539795,15.2285318374634,15.2290058135986,15.2294807434082,15.2299556732178,15.2304315567017,15.2309083938599,15.2313833236694,15.2318601608276,15.2323322296143,15.2328081130981,15.233283996582,15.2337617874146,15.2342348098755,15.234712600708,15.2351884841919,15.2356653213501,15.236141204834,15.2366161346436,15.2370929718018,15.2375717163086,15.2380456924438,15.2385215759277,15.2389974594116,15.2394762039185,15.2399501800537,15.2404260635376,15.2409038543701,15.2413816452026,15.2418546676636,15.2423334121704,15.2428102493286,15.2432861328125,15.2437629699707,15.2442388534546,15.2447156906128,15.2451906204224,15.2456703186035,15.2461452484131,15.2466220855713,15.2470979690552,9.99286079406738,9.74997234344482,9.51861000061035,9.29797458648682,9.08733558654785,8.88602828979492,8.69344711303711,8.50903606414795,8.3322868347168,8.16273021697998,8.06297206878662,8.03674411773682,8.01068592071533,7.98479652404785,7.95907402038574,7.93351650238037,7.90812253952026,7.88289070129395,7.85781908035278,7.83290672302246,7.80815172195435,7.78355264663696,7.759108543396,7.73481702804565,7.71067714691162,7.68668794631958,7.66284704208374,7.63915348052979,7.6156063079834,7.59220409393311,7.56894445419312,7.54582786560059,7.52285099029541,7.50001430511475,7.47731590270996,7.45475435256958,7.43232870101929,7.41003704071045,7.38787937164307,7.36585330963135,7.34866142272949,7.33539628982544,7.32217931747437,7.30900955200195,7.29588747024536,7.28281211853027,7.26978349685669,7.25680160522461,7.24386548995972,7.23097610473633,7.21813201904297,7.2053337097168,7.19258069992065,7.17987251281738,7.16720962524414,7.15459108352661,7.14201688766479,7.12948656082153,7.11700057983398,7.10455799102783,7.09215879440308,7.07980298995972,7.06748962402344,7.05521965026855,7.04299211502075,7.03080654144287,7.01866340637207,7.00656223297119,6.99450206756592,6.98248386383057,6.97050714492798,6.95857095718384,6.9466757774353,6.93482112884521,6.92300701141357,6.91123294830322,6.89949893951416,6.88780450820923,6.87614965438843,6.86453437805176,6.85295820236206,6.84142112731934,6.82992267608643,6.81846284866333,6.80704164505005,6.79565811157227,6.7843132019043,6.77300548553467,6.7617359161377,6.75050354003906,6.73930835723877,6.72815036773682,6.71702861785889,6.70594358444214,6.69489526748657,6.68388271331787,6.67290687561035,6.6619668006897,6.65106248855591,6.64019441604614,6.62936115264893,6.56767320632935,6.55130529403687,6.53501844406128,6.51881217956543,6.50268602371216,6.48663997650146,6.47067260742188,6.45478343963623,6.43897247314453,6.42323875427246,6.40758180618286,6.39200067520142,6.37649536132812,6.36106538772583,6.34570932388306,6.3304271697998,6.31521940231323,6.30008363723755,6.28502035140991,6.27002859115601,6.25510787963867,6.24025821685791,6.2254786491394,6.21076965332031,6.19612884521484,6.18155765533447,6.16705465316772,6.1526198387146,6.13825178146362,6.12395143508911,6.10971736907959,6.09532451629639,6.07986831665039,6.06449031829834,6.04919004440308,6.03396654129028,6.01881980895996,6.00374889373779,5.98875284194946,5.97383165359497,5.95898485183716,5.94421148300171,5.92951154708862,5.91488361358643,5.90032815933228,5.8858437538147,5.87143039703369,5.8574070930481,5.8442325592041,5.83111715316772,5.81806039810181,5.80506229400635,5.79212188720703,5.77923917770386,5.76641368865967,5.7536449432373,5.74093246459961,5.72827625274658,5.71567583084106,5.70313024520874,5.69063997268677,5.67820405960083,5.66582298278809,5.65349531173706,5.64122104644775,5.62900018692017,5.61683177947998,5.60473346710205,5.59269571304321,5.58070993423462,5.56877517700195,5.55689096450806,5.54505777359009,5.53327465057373,5.52154207229614,5.50985860824585,5.49822473526001,5.48663997650146,5.4751033782959,5.46361589431763,5.45217609405518,5.44078397750854,5.42943954467773,5.41814279556274,5.4068922996521
15.030366897583,15.0308265686035,15.0312900543213,15.031756401062,15.0322160720825,15.0326833724976,15.0331439971924,15.0336084365845,15.0340700149536,15.0345315933228,15.0349960327148,15.035457611084,15.0359258651733,15.0363855361938,15.0368509292603,15.0373163223267,15.0377798080444,15.0382423400879,15.0387029647827,15.0391626358032,15.0396299362183,15.040096282959,15.0405607223511,15.0410223007202,15.0414867401123,15.0419511795044,15.0424127578735,15.0428743362427,15.0433397293091,15.0438051223755,15.0442714691162,15.0447340011597,15.0451965332031,15.0456600189209,15.0461263656616,15.0465927124023,15.0470552444458,15.0475206375122,15.0479831695557,15.0484466552734,15.0489110946655,15.049373626709,15.0498390197754,15.0503044128418,15.0507698059082,15.051233291626,15.0516977310181,15.0521621704102,15.0526266098022,15.0530881881714,15.0535554885864,15.0540189743042,15.054482460022,15.0549478530884,15.0554122924805,15.0558786392212,15.0563430786133,15.0568065643311,15.0572719573975,15.0577383041382,15.0582008361816,15.058666229248,15.0591287612915,15.0595941543579,15.0600595474243,15.0605268478394,15.0609903335571,15.0614557266235,15.0619211196899,15.062385559082,15.0628490447998,15.0633153915405,15.0637788772583,15.0642442703247,15.0647106170654,15.0651741027832,15.0656414031982,15.066107749939,15.0665702819824,15.0670375823975,15.0675001144409,15.0679664611816,15.0684328079224,15.0688972473145,15.0693626403809,15.0698280334473,15.070294380188,15.0707607269287,15.0712251663208,15.0716905593872,15.0721578598022,15.07262134552,15.0730876922607,15.0735511779785,15.0740175247192,15.0744857788086,15.0749521255493,15.0754175186157,15.0758829116821,15.0763483047485,15.0768136978149,15.077278137207,15.0777463912964,15.0782108306885,15.0786771774292,15.0791425704956,15.0796098709106,15.0800771713257,15.0805444717407,15.0810089111328,15.0814752578735,15.0819396972656,15.0824060440063,15.0828733444214,15.0833387374878,15.0838041305542,15.0842723846436,15.08473777771,15.0852060317993,15.0856704711914,15.0861387252808,15.0866060256958,15.0870704650879,15.0875377655029,15.088005065918,15.0884714126587,15.0889358520508,15.0894041061401,15.0898704528809,15.0903396606445,15.0908050537109,15.0912704467773,15.0917367935181,15.0922040939331,15.0926704406738,15.0931377410889,15.0936040878296,15.0940713882446,15.0945405960083,15.0950059890747,15.0954732894897,15.0959396362305,15.0964059829712,15.0968732833862,15.0973405838013,15.097806930542,15.098274230957,15.0987415313721,15.0992097854614,15.0996780395508,15.1001472473145,15.1006126403809,15.1010808944702,15.1015462875366,15.1020135879517,15.102481842041,15.1029481887817,15.1034173965454,15.1038856506348,15.1043519973755,15.1048192977905,15.1052865982056,15.1057558059692,15.10622215271,15.106689453125,15.1071577072144,15.1076240539551,15.1080932617188,15.1085615158081,15.1090307235718,15.1094980239868,15.1099672317505,15.1104335784912,15.1109027862549,15.1113681793213,15.111837387085,15.1123056411743,15.112771987915,15.113242149353,15.1137104034424,15.1141777038574,15.1146459579468,15.1151142120361,15.1155834197998,15.1160507202148,15.1165161132812,15.1169872283936,15.1174564361572,15.1179227828979,15.1183919906616,15.1188631057739,15.1193323135376,15.119797706604,15.1202669143677,15.12073802948,15.121205329895,15.1216735839844,15.1221437454224,15.1226139068604,15.1230812072754,15.1235504150391,15.1240196228027,15.1244888305664,15.1249570846558,15.1254272460938,15.1258964538574,15.1263666152954,15.1268348693848,15.1273050308228,15.1277742385864,15.1282434463501,15.1287117004395,9.98854541778564,9.74586296081543,9.51469421386719,9.29423809051514,9.08376598358154,8.88261604309082,8.69018077850342,8.50590705871582,8.32928562164307,8.15985012054443,8.04890441894531,8.02276706695557,7.9967999458313,7.97100019454956,7.94536590576172,7.91989612579346,7.8945894241333,7.86944341659546,7.84445762634277,7.81962919235229,7.79495859146118,7.77044248580933,7.74607992172241,7.72186994552612,7.69781064987183,7.67390108108521,7.65013933181763,7.62652444839478,7.60305500030518,7.57972955703735,7.55654668807983,7.53350496292114,7.51060342788696,7.48784112930298,7.46521615982056,7.44272708892822,7.42037343978882,7.39815378189087,7.3760666847229,7.35597276687622,7.34268140792847,7.32943773269653,7.31624221801758,7.30309391021729,7.2899923324585,7.27693843841553,7.2639307975769,7.25096940994263,7.23805475234985,7.22518539428711,7.21236228942871,7.19958448410034,7.18685150146484,7.17416381835938,7.16152095794678,7.14892196655273,7.13636779785156,7.12385749816895,7.11139106750488,7.09896802902222,7.08658838272095,7.07425212860107,7.06195831298828,7.04970741271973,7.03749847412109,7.0253324508667,7.01320791244507,7.00112533569336,6.98908424377441,6.97708463668823,6.96512603759766,6.95320844650269,6.94133138656616,6.92949533462524,6.91769886016846,6.90594291687012,6.89422702789307,6.88255071640015,6.8709135055542,6.85931587219238,6.84775733947754,6.83623743057251,6.82475662231445,6.81331396102905,6.80190992355347,6.79054355621338,6.77921581268311,6.76792526245117,6.75667238235474,6.74545669555664,6.73427867889404,6.72313690185547,6.71203231811523,6.70096349716187,6.68993139266968,6.67893552780151,6.66797590255737,6.6570520401001,6.64616394042969,6.63531112670898,6.62449407577515,6.61371231079102,6.5527081489563,6.53641414642334,6.52020120620728,6.50406837463379,6.48801517486572,6.47204113006592,6.45614528656006,6.44032764434814,6.42458724975586,6.40892362594604,6.39333629608154,6.37782430648804,6.36238765716553,6.3470253944397,6.33173751831055,6.3165225982666,6.30138111114502,6.28631162643433,6.27131414413452,6.25638771057129,6.24153184890747,6.22674608230591,6.21203088760376,6.19738435745239,6.18280744552612,6.16829824447632,6.15385723114014,6.13948440551758,6.12517786026001,6.11093759536743,6.09676361083984,6.0822606086731,6.06687068939209,6.05155801773071,6.03632307052612,6.02116441726685,6.00608158111572,5.9910740852356,5.97614145278931,5.9612832069397,5.94649839401245,5.93178701400757,5.91714811325073,5.90258121490479,5.88808584213257,5.87366151809692,5.85930776596069,5.84525537490845,5.83213567733765,5.8190746307373,5.80607175827026,5.79312705993652,5.78023958206177,5.76740980148315,5.75463676452637,5.74191999435425,5.72925901412964,5.7166543006897,5.70410490036011,5.69160985946655,5.67917013168335,5.66678428649902,5.65445232391357,5.642174243927,5.62994909286499,5.61777687072754,5.60565757751465,5.59360885620117,5.58161878585815,5.56968021392822,5.55779218673706,5.54595518112183,5.53416872024536,5.52243185043335,5.51074504852295,5.49910688400269,5.48751831054688,5.4759783744812,5.46448707580566,5.45304346084595,5.44164800643921,5.43029975891113,5.41899919509888,5.40774536132812,5.39653825759888
14.9157609939575,14.9162178039551,14.9166746139526,14.9171352386475,14.9175891876221,14.9180431365967,14.9185009002686,14.9189586639404,14.9194135665894,14.9198694229126,14.9203243255615,14.9207801818848,14.9212417602539,14.9216976165771,14.9221534729004,14.922607421875,14.9230632781982,14.9235200881958,14.9239768981934,14.924430847168,14.9248886108398,14.9253492355347,14.9258041381836,14.9262619018555,14.9267168045044,14.9271717071533,14.9276275634766,14.9280891418457,14.9285449981689,14.9290008544922,14.9294567108154,14.929913520813,14.9303731918335,14.9308300018311,14.9312868118286,14.9317407608032,14.9321975708008,14.9326591491699,14.9331130981445,14.9335708618164,14.934027671814,14.9344863891602,14.9349431991577,14.935399055481,14.9358577728271,14.936315536499,14.9367733001709,14.9372291564941,14.9376878738403,14.9381427764893,14.9385995864868,14.9390592575073,14.9395151138306,14.9399738311768,14.9404315948486,14.9408893585205,14.9413480758667,14.9418048858643,14.9422616958618,14.9427175521851,14.9431762695312,14.9436340332031,14.944091796875,14.9445486068726,14.9450082778931,14.9454669952393,14.9459247589111,14.946382522583,14.9468402862549,14.9472980499268,14.94775390625,14.9482116699219,14.9486722946167,14.9491291046143,14.9495878219604,14.9500465393066,14.9505033493042,14.9509630203247,14.9514198303223,14.9518785476685,14.952335357666,14.9527940750122,14.9532527923584,14.9537105560303,14.9541692733765,14.954628944397,14.9550867080688,14.9555463790894,14.9560050964355,14.9564619064331,14.9569187164307,14.9573774337769,14.9578371047974,14.9582958221436,14.9587526321411,14.9592142105103,14.9596719741821,14.9601306915283,14.9605894088745,14.9610471725464,14.9615058898926,14.9619655609131,14.962423324585,14.9628829956055,14.9633417129517,14.9638004302979,14.9642610549927,14.9647197723389,14.9651784896851,14.9656381607056,14.9660959243774,14.9665546417236,14.9670143127441,14.9674730300903,14.9679317474365,14.968391418457,14.9688520431519,14.9693117141724,14.9697713851929,14.9702310562134,14.9706888198853,14.9711465835571,14.971607208252,14.9720659255981,14.972526550293,14.9729843139648,14.9734439849854,14.9739055633545,14.9743642807007,14.9748249053955,14.9752855300903,14.9757442474365,14.9762020111084,14.9766616821289,14.9771213531494,14.9775829315186,14.9780416488647,14.9785013198853,14.9789619445801,14.9794225692749,14.9798822402954,14.9803419113159,14.9807996749878,14.9812602996826,14.9817218780518,14.9821805953979,14.9826412200928,14.9831018447876,14.9835624694824,14.9840221405029,14.9844837188721,14.9849424362183,14.9854011535645,14.9858627319336,14.9863214492798,14.9867839813232,14.9872436523438,14.9877052307129,14.9881649017334,14.9886245727539,14.989086151123,14.9895467758179,14.9900064468384,14.9904670715332,14.9909267425537,14.9913873672485,14.9918489456177,14.9923095703125,14.992769241333,14.9932317733765,14.9936923980713,14.9941530227661,14.9946126937866,14.9950723648071,14.9955339431763,14.9959955215454,14.9964561462402,14.9969177246094,14.9973783493042,14.9978399276733,14.9983005523682,14.9987640380859,14.9992256164551,14.9996843338013,15.0001440048218,15.0006065368652,15.0010671615601,15.0015296936035,15.001989364624,15.0024528503418,15.0029106140137,15.0033731460571,15.0038347244263,15.0042972564697,15.0047578811646,15.0052194595337,15.0056819915771,15.0061464309692,15.0066051483154,15.0070667266846,15.007529258728,15.0079927444458,15.0084543228149,15.0089149475098,15.0093774795532,15.0098390579224,15.0103015899658,15.010763168335,15.0112266540527,15.0116872787476,15.012149810791,9.98423290252686,9.74175834655762,9.51078224182129,9.29050445556641,9.0802001953125,8.87920570373535,8.68691635131836,8.50277996063232,8.32628726959229,8.15697288513184,8.03488540649414,8.00883960723877,7.98296165466309,7.95725059509277,7.93170499801636,7.90632247924805,7.88110208511353,7.85604190826416,7.83114099502563,7.80639743804932,7.78180932998657,7.75737571716309,7.73309516906738,7.70896625518799,7.68498706817627,7.66115713119507,7.63747406005859,7.61393690109253,7.59054517745972,7.56729602813721,7.54418897628784,7.52122259140015,7.4983959197998,7.47570657730103,7.45315504074097,7.43073892593384,7.40845680236816,7.38630819320679,7.36429166793823,7.34998035430908,7.33671045303345,7.32348871231079,7.3103141784668,7.29718732833862,7.28410720825195,7.27107429504395,7.25808763504028,7.24514722824097,7.232253074646,7.21940469741821,7.20660161972046,7.19384384155273,7.1811318397522,7.16846418380737,7.15584087371826,7.14326238632202,7.13072776794434,7.11823749542236,7.10579061508179,7.09338712692261,7.08102703094482,7.06870985031128,7.05643510818481,7.04420328140259,7.03201389312744,7.01986646652222,7.00776100158691,6.99569702148438,6.9836745262146,6.97169351577759,6.95975351333618,6.94785404205322,6.93599557876587,6.9241771697998,6.91239929199219,6.90066146850586,6.88896322250366,6.8773045539856,6.86568546295166,6.85410499572754,6.84256410598755,6.83106184005737,6.81959819793701,6.80817317962646,6.79678583145142,6.78543710708618,6.77412605285645,6.76285266876221,6.75161647796631,6.74041748046875,6.72925615310669,6.71813106536865,6.70704317092896,6.69599103927612,6.68497514724731,6.67399549484253,6.66305208206177,6.65214443206787,6.64127206802368,6.63043546676636,6.61963415145874,6.60886812210083,6.59813690185547,6.53781032562256,6.52159070968628,6.50545120239258,6.4893913269043,6.47341012954712,6.4575080871582,6.44168329238892,6.42593669891357,6.41026592254639,6.39467239379883,6.37915372848511,6.36371088027954,6.3483419418335,6.33304786682129,6.31782674789429,6.30267858505249,6.28760290145874,6.27259969711304,6.25766754150391,6.24280548095703,6.22801446914673,6.21329259872437,6.1986403465271,6.18405723571777,6.16954278945923,6.15509605407715,6.14071655273438,6.12640428543091,6.11215877532959,6.09797954559326,6.08386564254761,6.06925249099731,6.05392837524414,6.03868103027344,6.02351045608521,6.00841617584229,5.9933967590332,5.97845268249512,5.96358299255371,5.94878673553467,5.93406438827515,5.91941404342651,5.90483617782593,5.89032983779907,5.87589454650879,5.86152982711792,5.84723520278931,5.83315467834473,5.8200888633728,5.80708122253418,5.79413223266602,5.78124046325684,5.76840591430664,5.75562858581543,5.74290704727173,5.73024225234985,5.71763324737549,5.70507907867432,5.6925802230835,5.68013620376587,5.66774606704712,5.6554102897644,5.64312791824341,5.63089847564697,5.61872243881226,5.60659837722778,5.59452676773071,5.58252811431885,5.57058525085449,5.55869388580322,5.54685306549072,5.53506231307983,5.52332210540771,5.51163101196289,5.49998950958252,5.48839712142944,5.4768533706665,5.46535873413086,5.45391130447388,5.44251203536987,5.43116044998169,5.41985654830933,5.40859889984131,5.39738845825195,5.38622379302979
14.8029003143311,14.8033447265625,14.8037919998169,14.8042469024658,14.8046951293945,14.8051462173462,14.8055953979492,14.8060436248779,14.806492805481,14.806939125061,14.807391166687,14.8078413009644,14.8082904815674,14.8087406158447,14.8091907501221,14.8096380233765,14.8100881576538,14.8105363845825,14.8109874725342,14.8114347457886,14.8118829727173,14.8123378753662,14.8127870559692,14.8132352828979,14.8136873245239,14.814136505127,14.81458568573,14.8150329589844,14.8154821395874,14.8159322738647,14.8163890838623,14.8168363571167,14.8172836303711,14.8177337646484,14.8181886672974,14.8186330795288,14.8190841674805,14.8195333480835,14.8199844360352,14.8204364776611,14.8208875656128,14.8213376998901,14.8217887878418,14.8222389221191,14.8226881027222,14.8231401443481,14.8235912322998,14.8240404129028,14.8244905471802,14.8249387741089,14.8253898620605,14.8258409500122,14.8262920379639,14.8267421722412,14.8271923065186,14.8276443481445,14.8280963897705,14.8285465240479,14.8289966583252,14.8294458389282,14.8298959732056,14.8303489685059,14.8307991027832,14.8312473297119,14.8317003250122,14.8321504592896,14.8326034545898,14.8330545425415,14.8335056304932,14.8339538574219,14.8344058990479,14.8348560333252,14.8353080749512,14.8357610702515,14.8362102508545,14.8366632461548,14.8371143341064,14.8375654220581,14.8380174636841,14.8384675979614,14.8389167785645,14.8393697738647,14.8398199081421,14.8402729034424,14.8407230377197,14.8411741256714,14.8416261672974,14.842080116272,14.8425321578979,14.8429822921753,14.843430519104,14.8438835144043,14.844334602356,14.8447875976562,14.8452396392822,14.8456897735596,14.8461437225342,14.8465948104858,14.8470468521118,14.8474998474121,14.8479499816895,14.8484010696411,14.8488531112671,14.8493051528931,14.8497591018677,14.850209236145,14.8506603240967,14.851113319397,14.8515663146973,14.8520193099976,14.8524732589722,14.8529205322266,14.8533735275269,14.8538265228271,14.8542785644531,14.8547315597534,14.8551826477051,14.8556365966797,14.85608959198,14.856541633606,14.8569936752319,14.857442855835,14.8578977584839,14.8583498001099,14.8588018417358,14.8592567443848,14.8597078323364,14.8601598739624,14.860613822937,14.8610668182373,14.8615207672119,14.8619699478149,14.8624229431152,14.8628749847412,14.8633298873901,14.8637819290161,14.8642358779907,14.8646879196167,14.865140914917,14.8655939102173,14.8660478591919,14.8665018081665,14.8669500350952,14.8674039840698,14.8678579330444,14.868311882019,14.8687658309937,14.8692188262939,14.8696699142456,14.8701248168945,14.8705787658691,14.8710317611694,14.8714828491211,14.8719367980957,14.872389793396,14.8728437423706,14.8732986450195,14.8737516403198,14.8742036819458,14.8746585845947,14.875111579895,14.8755664825439,14.8760175704956,14.8764705657959,14.8769254684448,14.8773784637451,14.877833366394,14.8782873153687,14.8787412643433,14.8791942596436,14.8796482086182,14.8801040649414,14.8805570602417,14.881007194519,14.881462097168,14.8819160461426,14.8823719024658,14.8828258514404,14.8832788467407,14.8837327957153,14.8841876983643,14.8846426010132,14.8850955963135,14.8855495452881,14.8860025405884,14.886456489563,14.8869123458862,14.8873662948608,14.8878211975098,14.8882751464844,14.8887281417847,14.8891839981079,14.8896389007568,14.8900899887085,14.8905448913574,14.891001701355,14.891453742981,14.8919086456299,14.8923635482788,14.8928213119507,14.8932733535767,14.8937292098999,14.8941831588745,14.8946399688721,14.895094871521,14.8955478668213,14.8960046768188,14.8964614868164,14.8969144821167,14.8973703384399,9.97992515563965,9.73765659332275,9.50687217712402,9.28677463531494,9.07663631439209,8.87579822540283,8.68365573883057,8.49965476989746,8.32329082489014,8.15409660339355,8.02091503143311,7.99495935440063,7.96917152404785,7.94354915618896,7.9180908203125,7.89279556274414,7.8676609992981,7.84268665313721,7.81786966323853,7.79320955276489,7.76870441436768,7.74435329437256,7.72015380859375,7.69610548019409,7.67220640182495,7.64845514297485,7.62485074996948,7.60139131546021,7.57807588577271,7.55490303039551,7.5318717956543,7.50897979736328,7.48622751235962,7.46361207962036,7.44113302230835,7.41878890991211,7.39657831192017,7.37450075149536,7.3572940826416,7.34399795532227,7.33074951171875,7.31754922866821,7.30439615249634,7.29129028320312,7.27823162078857,7.26521921157837,7.25225353240967,7.23933410644531,7.22646045684814,7.21363258361816,7.20085000991821,7.18811321258545,7.1754207611084,7.16277313232422,7.15017032623291,7.13761138916016,7.12509679794312,7.11262607574463,7.10019874572754,7.08781480789185,7.07547426223755,7.06317615509033,7.05092096328735,7.03870820999146,7.02653789520264,7.01440906524658,7.00232219696045,6.99027729034424,6.97827339172363,6.96631097793579,6.9543890953064,6.94250822067261,6.93066787719727,6.91886758804321,6.90710783004761,6.89538764953613,6.88370752334595,6.87206649780273,6.86046504974365,6.84890222549438,6.83737897872925,6.82589387893677,6.81444787979126,6.80303955078125,6.79166984558105,6.78033781051636,6.76904392242432,6.75778722763062,6.74656820297241,6.73538589477539,6.72424077987671,6.71313285827637,6.70206117630005,6.69102573394775,6.68002653121948,6.66906309127808,6.65813541412354,6.64724397659302,6.63638782501221,6.6255669593811,6.61478185653687,6.60403108596802,6.59331560134888,6.53920745849609,6.52298069000244,6.50683403015137,6.49076747894287,6.47477960586548,6.45887088775635,6.443039894104,6.42728614807129,6.41160917282104,6.39600896835327,6.38048362731934,6.36503458023071,6.34965944290161,6.33435869216919,6.31913137435913,6.30397701263428,6.28889513015747,6.27388572692871,6.25894737243652,6.24408006668091,6.22928237915039,6.21455526351929,6.19989681243896,6.18530797958374,6.17078733444214,6.15633487701416,6.14195013046265,6.12763166427612,6.11338043212891,6.09919548034668,6.08507585525513,6.07102155685425,6.05630016326904,6.04104137420654,6.02585887908936,6.01075267791748,5.9957218170166,5.98076629638672,5.96588468551636,5.95107698440552,5.9363431930542,5.92168188095093,5.90709257125854,5.89257526397705,5.87812900543213,5.86375331878662,5.84944820404053,5.83521223068237,5.8211030960083,5.80809164047241,5.79513788223267,5.7822413444519,5.76940250396729,5.75662088394165,5.74389505386353,5.73122596740723,5.71861219406128,5.70605421066284,5.6935510635376,5.68110227584839,5.66870832443237,5.65636825561523,5.64408159255981,5.63184833526611,5.61966800689697,5.60754013061523,5.59546422958374,5.58344078063965,5.57149124145508,5.55959558486938,5.54775094985962,5.53595638275146,5.52421188354492,5.51251745223999,5.50087261199951,5.48927640914917,5.47772884368896,5.46623039245605,5.45477962493896,5.4433765411377,5.4320216178894,5.42071342468262,5.40945243835449,5.39823865890503,5.38707065582275,5.37594890594482
