12.0341529846191,12.0945663452148,12.155590057373,12.2172317504883,12.279501914978,12.3424110412598,12.405966758728,12.4701814651489,12.5350685119629,12.6006374359131,12.666895866394,12.7338542938232,12.8015251159668,12.8699188232422,12.9390478134155,13.0089225769043,13.0795564651489,13.1509618759155,13.2231502532959,13.2961368560791,13.3699331283569,13.4445533752441,13.5200109481812,14.9887084960938,15.0174026489258,15.0459012985229,15.0744943618774,15.103196144104,15.1368932723999,15.2170820236206,15.2981805801392,15.5241441726685,15.5264835357666,15.6049146652222,15.6898498535156,15.7757148742676,15.8625211715698,15.9502773284912,16.0390110015869,16.1287536621094,16.34641456604,16.3493614196777,16.3523082733154,16.3552551269531,16.3582038879395,16.7157917022705,16.7159576416016,16.7161254882812,16.7198963165283,16.8189392089844,16.9191627502441,17.0205936431885,17.1232471466064,19.3915100097656,19.3917064666748,19.3919086456299,19.3921070098877,19.3923053741455,19.3925037384033,19.3927021026611,19.3929080963135,19.3931064605713,19.3933086395264,19.3935089111328,19.3937034606934,19.3939056396484,19.3941059112549,19.3943042755127,19.3945083618164,19.3947067260742,19.3949069976807,19.3951072692871,19.3953037261963,19.3955059051514,19.3957061767578,19.3959064483643,19.396110534668,19.3963050842285,19.3965072631836,19.3967056274414,19.3969058990479,19.3971099853516,19.3973064422607,19.3975009918213,19.397705078125,19.3979034423828,19.3981075286865,19.3983058929443,19.3985080718994,19.3987083435059,19.398904800415,19.3991031646729,19.3993072509766,19.3995056152344,19.3997077941895,19.3999061584473,19.4001026153564,19.4003086090088,19.4005069732666,19.4007053375244,19.4009056091309,19.4011039733887,19.4013080596924,19.4015064239502,19.4017066955566,19.4019088745117,19.4021091461182,19.4023056030273,19.4025096893311,19.4027061462402,19.4029064178467,19.4031105041504,19.4033107757568,19.403507232666,19.4037075042725,19.4039058685303,19.404109954834,19.4043064117432,19.4045104980469,19.4047088623047,19.4049091339111,19.4051113128662,19.405309677124,19.4055042266846,19.4057121276855,19.4059104919434,19.4061088562012,19.406307220459,19.4065132141113,19.4067115783691,19.406909942627,19.4071083068848,19.4073104858398,19.4075107574463,19.4077129364014,19.4079151153564,19.4081115722656,19.4083137512207,19.4085140228271,19.4087142944336,19.4089126586914,19.4091129302979,19.4093132019043,19.4095153808594,19.4097156524658,19.4099140167236,19.4101142883301,19.4103145599365,19.410514831543,19.4107151031494,19.4109153747559,19.4111156463623,19.4113159179688,19.4115180969238,19.4117164611816,19.4119167327881,19.4121150970459,19.412317276001,19.4125175476074,19.4127178192139,19.4129180908203,19.4131183624268,19.4133167266846,19.4135189056396,19.4137191772461,19.4139194488525,19.414119720459,19.4143199920654,19.4145202636719,19.414722442627,19.4149208068848,19.4151210784912,19.4153232574463,19.4155235290527,19.4157218933105,19.4159240722656,19.4161243438721,19.4163246154785,19.416524887085,19.4167251586914,19.4169254302979,19.4171257019043,19.4173259735107,19.4175262451172,19.4177265167236,19.4179248809814,19.4181270599365,19.418327331543,19.418529510498,19.4187278747559,19.4189300537109,19.4191284179688,19.4193286895752,19.4195308685303,19.4197311401367,19.4199314117432,19.420129776001,19.4203319549561,19.4205322265625,19.4207324981689,19.4209327697754,19.4211330413818,19.4213352203369,19.4215335845947,19.4217338562012,19.4219360351562,19.4221343994141,19.4223346710205,19.4225368499756,19.422737121582,19.4229373931885,19.4231395721436,19.42333984375,19.4235382080078,19.4237403869629,19.4239387512207,19.4241409301758,19.4243412017822,19.4245414733887,19.4247417449951,19.4249439239502,19.425142288208,19.4253444671631,19.4255447387695,19.425745010376,19.4259452819824,19.4261474609375,19.4263458251953,19.4265480041504,19.4267463684082,19.4269466400146,19.4271488189697,19.4273490905762,19.4275512695312,19.4277515411377,19.4279518127441,19.4281520843506,19.4283504486084,19.4285526275635,19.4287509918213,19.4289512634277,19.4291534423828,19.4293537139893,19.4295520782471,19.4297523498535,19.4299545288086,19.430154800415,19.4303531646729,19.4305534362793,19.4307537078857,19.4309539794922,19.4311561584473,19.4313564300537,19.4315547943115,19.431755065918,19.431957244873,19.4321556091309,19.4323577880859,19.4325561523438,19.4327583312988,19.4329566955566,19.4331588745117,19.4333591461182,19.4335594177246,19.4337596893311,19.4339580535889,19.4341602325439,19.4343605041504,19.4345607757568,19.4347610473633,19.4349613189697,19.4351615905762,19.4353618621826,19.4355640411377,19.4357624053955,19.435962677002,19.436164855957,19.4363632202148,19.4365653991699,19.4367656707764,19.4369640350342,19.4371643066406,19.4373664855957,19.4375667572021,19.43776512146,19.437967300415,19.4381675720215,19.4383678436279,19.438570022583,19.4387683868408,19.4389705657959,19.4391708374023,19.4393711090088,19.4395713806152,19.4397716522217,19.4399719238281,19.4401741027832,19.440372467041,19.4405746459961,19.4407749176025,19.440975189209,19.4411754608154,19.4413757324219,19.4415760040283,19.4417762756348,19.4419765472412,19.4421787261963,19.4423770904541,19.4425773620605,19.4427795410156,19.4429798126221,19.4431800842285,19.443380355835,19.44358253479,19.4437808990479,19.4439830780029,19.4441833496094,19.4443836212158,19.4445838928223,19.4447841644287,19.4449844360352,19.4451847076416,19.4453868865967,19.4455871582031,19.4457874298096,19.445987701416,19.4461898803711,19.4463882446289,19.446590423584,19.4467906951904,19.4469909667969,19.447193145752,19.4473915100098,19.4475936889648,19.4477939605713,19.4479942321777,19.4481945037842,19.4483947753906,19.4485969543457,19.4487972259521,19.4489974975586,19.449197769165,19.4493980407715,19.4495983123779,19.449800491333,19.4500007629395,19.4502010345459,19.4504013061523,19.4506015777588,19.4508018493652,19.4510040283203,19.4512062072754,19.4514064788818,19.4516067504883,19.4518070220947,19.4520072937012,19.4522075653076,19.4524097442627,19.4526100158691,19.4528102874756,19.453010559082,19.4532108306885,19.4534130096436,19.45361328125,19.4538154602051,19.4540157318115,19.454216003418,19.4544162750244,19.4546165466309,19.4548187255859,19.4550189971924,19.4552211761475,19.4554195404053,19.4556217193604,19.4558219909668,19.4560222625732,19.4562244415283,19.4564228057861,19.4566249847412,19.4568252563477,19.4570274353027,19.4572277069092,19.4574279785156,19.4576301574707,19.4578304290771,19.4580307006836,19.45823097229,19.4584331512451,19.4586334228516,19.458833694458,19.4590358734131,19.4592380523682,19.459436416626
12.033763885498,12.0941734313965,12.1551933288574,12.2168312072754,12.2790975570679,12.342001914978,12.405553817749,12.4697637557983,12.5346460342407,12.6002101898193,12.666464805603,12.7334184646606,12.8010845184326,12.8694744110107,12.9385976791382,13.0084676742554,13.0790967941284,13.1504964828491,13.2226810455322,13.2956619262695,13.3694524765015,13.4440670013428,13.5195188522339,14.9894790649414,15.0181760787964,15.046950340271,15.0755472183228,15.1042528152466,15.1365270614624,15.2167110443115,15.2977867126465,15.5032606124878,15.5204906463623,15.6045141220093,15.6894454956055,15.7753057479858,15.8621053695679,15.949857711792,16.0385856628418,16.1283054351807,16.2190856933594,16.3567066192627,16.3596591949463,16.3626098632812,16.3655624389648,16.5508117675781,16.5509757995605,16.6214866638184,16.719367980957,16.8184108734131,16.9186325073242,19.1997013092041,19.1998958587646,19.2000904083252,19.2002868652344,19.2004814147949,19.20068359375,19.2008762359619,19.2010726928711,19.2012672424316,19.2014636993408,19.20166015625,19.2018566131592,19.2020492553711,19.2022457122803,19.2024421691895,19.2026424407959,19.2028350830078,19.203031539917,19.2032318115234,19.203426361084,19.2036190032959,19.2038173675537,19.2040138244629,19.2042083740234,19.2044048309326,19.2045993804932,19.2047939300537,19.2049922943115,19.2051868438721,19.2053833007812,19.2055816650391,19.2057800292969,19.2059745788574,19.2061672210693,19.2063636779785,19.2065601348877,19.206750869751,19.2069511413574,19.2071514129639,19.207347869873,19.2075424194336,19.2077350616455,19.2079372406006,19.2081279754639,19.2083225250244,19.2085227966309,19.20871925354,19.2089176177979,19.2091102600098,19.2093048095703,19.2095031738281,19.2096977233887,19.2098941802979,19.2100944519043,19.2102870941162,19.2104873657227,19.2106781005859,19.2108726501465,19.2110729217529,19.2112674713135,19.2114639282227,19.2116622924805,19.2118530273438,19.2120532989502,19.2122478485107,19.2124443054199,19.2126407623291,19.2128391265869,19.2130336761475,19.2132301330566,19.2134284973145,19.2136268615723,19.2138175964355,19.2140140533447,19.2142124176025,19.2144088745117,19.2146034240723,19.2148017883301,19.2149925231934,19.2151908874512,19.2153911590576,19.2155857086182,19.2157821655273,19.2159767150879,19.2161731719971,19.2163715362549,19.2165660858154,19.2167644500732,19.2169570922852,19.2171535491943,19.2173519134521,19.2175464630127,19.2177429199219,19.2179393768311,19.2181358337402,19.2183322906494,19.2185287475586,19.2187252044678,19.2189197540283,19.2191162109375,19.2193145751953,19.2195110321045,19.219705581665,19.2199020385742,19.2200984954834,19.2202949523926,19.2204914093018,19.2206897735596,19.2208843231201,19.2210807800293,19.2212772369385,19.2214736938477,19.2216701507568,19.221866607666,19.2220630645752,19.2222595214844,19.2224559783936,19.2226524353027,19.2228488922119,19.2230453491211,19.2232418060303,19.2234382629395,19.2236347198486,19.2238292694092,19.2240257263184,19.2242240905762,19.2244186401367,19.2246150970459,19.2248134613037,19.2250080108643,19.2252044677734,19.2254028320312,19.2255973815918,19.2257919311523,19.2259922027588,19.2261867523193,19.2263832092285,19.2265815734863,19.2267761230469,19.2269725799561,19.2271709442139,19.2273654937744,19.2275619506836,19.2277603149414,19.227954864502,19.2281513214111,19.2283496856689,19.2285442352295,19.2287406921387,19.2289371490479,19.2291355133057,19.2293319702148,19.2295265197754,19.2297229766846,19.2299213409424,19.2301158905029,19.2303123474121,19.2305088043213,19.2307071685791,19.2309036254883,19.2311000823975,19.2312965393066,19.2314929962158,19.231689453125,19.2318878173828,19.2320823669434,19.2322788238525,19.2324771881104,19.2326717376709,19.2328681945801,19.2330665588379,19.2332611083984,19.2334575653076,19.2336559295654,19.2338523864746,19.2340488433838,19.234245300293,19.2344417572021,19.2346382141113,19.2348346710205,19.2350311279297,19.2352275848389,19.235424041748,19.2356204986572,19.235818862915,19.2360153198242,19.2362117767334,19.2364082336426,19.2366046905518,19.2368011474609,19.2369976043701,19.2371940612793,19.2373905181885,19.2375869750977,19.2377834320068,19.2379779815674,19.2381744384766,19.2383728027344,19.2385673522949,19.2387657165527,19.2389602661133,19.2391586303711,19.2393531799316,19.2395496368408,19.2397480010986,19.2399406433105,19.240140914917,19.2403335571289,19.2405319213867,19.2407283782959,19.2409248352051,19.2411212921143,19.2413177490234,19.2415142059326,19.2417087554932,19.241907119751,19.2421016693115,19.2423000335693,19.2424964904785,19.2426929473877,19.2428894042969,19.2430839538574,19.2432804107666,19.2434768676758,19.243673324585,19.2438716888428,19.2440662384033,19.2442626953125,19.2444591522217,19.2446575164795,19.24485206604,19.2450485229492,19.245246887207,19.2454414367676,19.2456378936768,19.2458343505859,19.2460327148438,19.2462272644043,19.2464256286621,19.2466220855713,19.2468185424805,19.2470149993896,19.2472114562988,19.247407913208,19.2476043701172,19.2478008270264,19.2479972839355,19.2481918334961,19.2483901977539,19.2485866546631,19.2487812042236,19.2489814758301,19.2491760253906,19.2493724822998,19.249568939209,19.2497653961182,19.2499618530273,19.2501602172852,19.2503547668457,19.2505512237549,19.2507476806641,19.2509441375732,19.2511425018311,19.2513389587402,19.2515354156494,19.25172996521,19.2519283294678,19.2521266937256,19.2523212432861,19.2525196075439,19.2527141571045,19.2529125213623,19.2531089782715,19.2533054351807,19.2535018920898,19.2536964416504,19.2538967132568,19.254093170166,19.2542877197266,19.2544841766357,19.2546825408936,19.2548770904541,19.2550735473633,19.2552719116211,19.2554683685303,19.2556629180908,19.2558612823486,19.2560596466064,19.256254196167,19.2564506530762,19.256649017334,19.2568454742432,19.2570419311523,19.2572364807129,19.2574348449707,19.2576313018799,19.2578277587891,19.2580261230469,19.2582225799561,19.2584190368652,19.2586135864258,19.2588119506836,19.2590084075928,19.259204864502,19.2594032287598,19.2595977783203,19.2597961425781,19.2599925994873,19.2601890563965,19.2603874206543,19.2605819702148,19.2607803344727,19.2609767913818,19.261173248291,19.2613697052002,19.2615661621094,19.2617645263672,19.261962890625,19.2621574401855,19.2623538970947,19.2625522613525,19.2627487182617,19.2629451751709,19.2631397247314,19.2633380889893,19.2635345458984,19.2637329101562,19.2639293670654,19.2641258239746,19.2643241882324,19.2645206451416,19.2647171020508,19.26491355896,19.2651100158691,19.265308380127,19.2655029296875,19.2657012939453,19.2658996582031,19.2660942077637,19.2662925720215,19.2664890289307,19.2666854858398
12.033374786377,12.0937805175781,12.1547956466675,12.2164297103882,12.2786922454834,12.3415927886963,12.4051399230957,12.4693460464478,12.5342235565186,12.5997838973999,12.666033744812,12.7329835891724,12.8006448745728,12.869029045105,12.9381475448608,13.0080127716064,13.0786371231079,13.150032043457,13.2222108840942,13.2951860427856,13.368971824646,13.4435806274414,13.5190277099609,14.9902496337891,15.018949508667,15.0477590560913,15.0766000747681,15.1053104400635,15.1361608505249,15.2163410186768,15.2973918914795,15.4824333190918,15.5201025009155,15.6041145324707,15.6890411376953,15.7748975753784,15.8616895675659,15.9494371414185,16.0381603240967,16.1278762817383,16.2186603546143,16.3640594482422,16.3670139312744,16.3699684143066,16.3729248046875,16.4286193847656,16.5242366790771,16.6209735870361,16.7188510894775,19.0116519927979,19.0118427276611,19.0120296478271,19.0122261047363,19.0124187469482,19.0126132965088,19.0128002166748,19.0129928588867,19.0131874084473,19.0133743286133,19.0135688781738,19.0137634277344,19.0139503479004,19.0141448974609,19.0143394470215,19.0145301818848,19.0147247314453,19.0149154663086,19.0151081085205,19.0152988433838,19.0154914855957,19.0156860351562,19.0158748626709,19.0160675048828,19.0162620544434,19.016450881958,19.0166397094727,19.0168361663818,19.0170288085938,19.0172233581543,19.0174160003662,19.0176086425781,19.0177974700928,19.0179920196533,19.018180847168,19.0183734893799,19.0185642242432,19.018762588501,19.0189533233643,19.0191440582275,19.0193405151367,19.01953125,19.019718170166,19.0199146270752,19.0201053619385,19.020299911499,19.0204925537109,19.0206832885742,19.0208759307861,19.0210666656494,19.0212574005127,19.0214557647705,19.0216464996338,19.0218410491943,19.0220317840576,19.0222206115723,19.0224151611328,19.0226078033447,19.0228004455566,19.0229949951172,19.0231838226318,19.0233764648438,19.023567199707,19.0237598419189,19.0239562988281,19.0241451263428,19.0243377685547,19.0245342254639,19.0247192382812,19.0249156951904,19.0251064300537,19.0252990722656,19.0254955291748,19.0256843566895,19.0258712768555,19.0260677337646,19.0262622833252,19.0264587402344,19.0266456604004,19.0268363952637,19.0270328521729,19.0272235870361,19.027416229248,19.02760887146,19.0277976989746,19.0279941558838,19.0281887054443,19.028377532959,19.0285720825195,19.0287628173828,19.0289554595947,19.0291500091553,19.0293407440186,19.0295333862305,19.0297241210938,19.0299186706543,19.0301113128662,19.0303039550781,19.03049659729,19.0306873321533,19.0308818817139,19.0310745239258,19.0312671661377,19.0314598083496,19.0316505432129,19.0318431854248,19.0320358276367,19.0322265625,19.0324211120605,19.0326137542725,19.0328063964844,19.0329971313477,19.0331916809082,19.0333843231201,19.0335750579834,19.0337677001953,19.0339603424072,19.0341529846191,19.0343456268311,19.0345401763916,19.0347328186035,19.0349235534668,19.0351161956787,19.0353088378906,19.0355014801025,19.0356941223145,19.0358867645264,19.0360774993896,19.0362720489502,19.0364646911621,19.0366592407227,19.0368480682373,19.0370407104492,19.0372352600098,19.0374279022217,19.037618637085,19.0378131866455,19.0380039215088,19.0381965637207,19.0383911132812,19.0385818481445,19.0387763977051,19.038969039917,19.0391597747803,19.0393524169922,19.0395469665527,19.039737701416,19.0399322509766,19.0401248931885,19.0403175354004,19.0405082702637,19.0407028198242,19.0408954620361,19.041088104248,19.04128074646,19.0414733886719,19.0416660308838,19.0418586730957,19.0420513153076,19.0422458648682,19.0424365997314,19.0426292419434,19.0428218841553,19.0430164337158,19.0432071685791,19.0434017181396,19.0435924530029,19.0437870025635,19.0439796447754,19.0441722869873,19.0443649291992,19.0445556640625,19.044750213623,19.044942855835,19.0451354980469,19.0453281402588,19.0455207824707,19.0457134246826,19.0459060668945,19.0460987091064,19.046293258667,19.0464839935303,19.0466785430908,19.0468692779541,19.0470638275146,19.0472545623779,19.0474491119385,19.0476417541504,19.0478343963623,19.0480270385742,19.0482196807861,19.0484142303467,19.0486068725586,19.0487995147705,19.0489921569824,19.0491847991943,19.0493755340576,19.0495700836182,19.0497608184814,19.0499534606934,19.0501480102539,19.0503387451172,19.0505313873291,19.050724029541,19.0509166717529,19.0511093139648,19.0513000488281,19.0514945983887,19.051685333252,19.0518779754639,19.0520706176758,19.0522632598877,19.0524578094482,19.0526504516602,19.0528411865234,19.0530338287354,19.0532264709473,19.0534191131592,19.0536117553711,19.053804397583,19.0539970397949,19.0541877746582,19.0543823242188,19.0545749664307,19.0547657012939,19.0549602508545,19.0551509857178,19.0553436279297,19.0555381774902,19.0557308197021,19.0559234619141,19.0561141967773,19.0563087463379,19.0565013885498,19.0566921234131,19.0568866729736,19.0570793151855,19.0572719573975,19.0574645996094,19.0576553344727,19.0578498840332,19.0580406188965,19.058235168457,19.0584297180176,19.0586204528809,19.0588130950928,19.0590057373047,19.0591983795166,19.0593929290771,19.0595836639404,19.0597763061523,19.0599689483643,19.0601615905762,19.0603542327881,19.0605487823486,19.0607395172119,19.0609340667725,19.0611248016357,19.0613174438477,19.0615119934082,19.0617027282715,19.0618953704834,19.0620880126953,19.0622825622559,19.0624732971191,19.0626678466797,19.0628604888916,19.0630531311035,19.0632476806641,19.0634384155273,19.0636310577393,19.0638256072998,19.0640163421631,19.0642108917236,19.0644016265869,19.0645961761475,19.0647888183594,19.0649814605713,19.0651741027832,19.0653667449951,19.065559387207,19.0657539367676,19.0659446716309,19.0661373138428,19.0663318634033,19.0665245056152,19.0667152404785,19.0669097900391,19.067102432251,19.0672950744629,19.0674877166748,19.0676822662354,19.0678749084473,19.0680656433105,19.0682601928711,19.068452835083,19.0686454772949,19.0688381195068,19.0690307617188,19.0692234039307,19.0694160461426,19.0696086883545,19.069803237915,19.069995880127,19.0701866149902,19.0703792572021,19.0705757141113,19.0707664489746,19.0709590911865,19.0711517333984,19.071346282959,19.0715389251709,19.0717315673828,19.0719242095947,19.0721168518066,19.0723114013672,19.0725040435791,19.072696685791,19.0728893280029,19.0730819702148,19.0732746124268,19.0734672546387,19.0736618041992,19.0738544464111,19.0740489959717,19.074239730835,19.0744342803955,19.0746269226074,19.0748195648193,19.0750141143799,19.0752048492432,19.0753993988037,19.0755920410156,19.0757865905762,19.0759792327881,19.0761699676514,19.0763645172119,19.0765552520752,19.0767517089844,19.0769443511963,19.0771350860596,19.0773296356201,19.0775203704834,19.0777149200439
12.0329866409302,12.0933876037598,12.1543989181519,12.2160291671753,12.2782869338989,12.3411827087402,12.4047269821167,12.4689283370972,12.5338020324707,12.5993576049805,12.665602684021,12.7325477600098,12.8002042770386,12.8685836791992,12.9376983642578,13.0075588226318,13.0781774520874,13.1495676040649,13.2217407226562,13.2947111129761,13.3684921264648,13.4430952072144,13.5185346603394,14.9910202026367,15.0197229385376,15.0485353469849,15.0774593353271,15.1063671112061,15.1357946395874,15.215970993042,15.2970008850098,15.4699907302856,15.5197067260742,15.6037149429321,15.6886367797852,15.7744884490967,15.8612747192383,15.9490165710449,16.0377349853516,16.1274471282959,16.2181987762451,16.366418838501,16.3692741394043,16.3721332550049,16.3749904632568,16.4281196594238,16.5237312316895,16.6204624176025,18.8274364471436,18.8276233673096,18.8278121948242,18.8280010223389,18.8281841278076,18.8283748626709,18.8285655975342,18.8287506103516,18.8289432525635,18.8291301727295,18.8293190002441,18.8295059204102,18.8296928405762,18.8298854827881,18.8300724029541,18.8302631378174,18.830451965332,18.8306369781494,18.8308277130127,18.831018447876,18.8311996459961,18.831392288208,18.831579208374,18.8317680358887,18.831958770752,18.832145690918,18.8323345184326,18.8325214385986,18.8327102661133,18.8329010009766,18.8330898284912,18.8332767486572,18.8334693908691,18.8336505889893,18.8338394165039,18.8340320587158,18.8342170715332,18.8344097137451,18.8345985412598,18.8347835540771,18.8349723815918,18.8351650238037,18.8353519439697,18.8355407714844,18.8357276916504,18.8359203338623,18.8361053466797,18.8362922668457,18.8364849090576,18.836669921875,18.8368549346924,18.8370494842529,18.8372383117676,18.8374252319336,18.8376140594482,18.8378028869629,18.8379936218262,18.8381805419922,18.8383693695068,18.8385562896729,18.8387432098389,18.8389377593994,18.8391265869141,18.8393096923828,18.8395023345947,18.8396892547607,18.8398780822754,18.8400688171387,18.8402538299561,18.8404426574707,18.8406352996826,18.8408222198486,18.8410091400146,18.8411979675293,18.8413887023926,18.8415813446045,18.8417644500732,18.8419570922852,18.8421421051025,18.8423290252686,18.8425216674805,18.8427066802979,18.8428974151611,18.8430862426758,18.8432769775391,18.8434658050537,18.8436527252197,18.843843460083,18.8440322875977,18.8442192077637,18.8444061279297,18.8446006774902,18.8447818756104,18.8449783325195,18.8451652526855,18.8453521728516,18.8455410003662,18.8457279205322,18.8459167480469,18.8461074829102,18.8462944030762,18.8464832305908,18.8466720581055,18.8468627929688,18.8470497131348,18.8472385406494,18.8474292755127,18.8476161956787,18.847806930542,18.8479957580566,18.8481826782227,18.8483734130859,18.848560333252,18.848747253418,18.8489379882812,18.8491268157959,18.8493156433105,18.8495044708252,18.8496932983398,18.8498821258545,18.8500709533691,18.8502597808838,18.8504486083984,18.8506374359131,18.8508281707764,18.8510150909424,18.8512058258057,18.8513927459717,18.8515815734863,18.8517723083496,18.8519592285156,18.8521480560303,18.8523387908936,18.8525257110596,18.8527164459229,18.8529033660889,18.8530921936035,18.8532810211182,18.8534698486328,18.8536605834961,18.8538494110107,18.8540363311768,18.85422706604,18.8544158935547,18.8546047210693,18.854793548584,18.85498046875,18.8551712036133,18.8553600311279,18.8555488586426,18.8557395935059,18.8559265136719,18.8561153411865,18.8563041687012,18.8564949035645,18.8566818237305,18.8568725585938,18.8570594787598,18.857250213623,18.8574390411377,18.8576278686523,18.8578147888184,18.8580074310303,18.8581943511963,18.8583850860596,18.8585739135742,18.8587627410889,18.8589515686035,18.8591403961182,18.8593292236328,18.8595161437988,18.8597087860107,18.8598957061768,18.8600845336914,18.8602733612061,18.8604621887207,18.8606510162354,18.8608417510986,18.8610305786133,18.8612174987793,18.8614101409912,18.8615970611572,18.8617877960205,18.8619766235352,18.8621654510498,18.8623542785645,18.8625431060791,18.8627319335938,18.8629207611084,18.863109588623,18.8632984161377,18.8634872436523,18.8636798858643,18.8638668060303,18.8640556335449,18.8642444610596,18.8644332885742,18.8646240234375,18.8648128509521,18.8649997711182,18.8651905059814,18.8653774261475,18.8655681610107,18.8657569885254,18.8659439086914,18.8661346435547,18.8663234710693,18.866512298584,18.8667011260986,18.8668899536133,18.8670787811279,18.8672676086426,18.8674564361572,18.8676452636719,18.8678321838379,18.8680229187012,18.8682117462158,18.8683986663818,18.8685913085938,18.8687782287598,18.868968963623,18.8691558837891,18.8693447113037,18.869535446167,18.8697204589844,18.8699111938477,18.8701019287109,18.870288848877,18.8704776763916,18.8706665039062,18.8708572387695,18.8710441589355,18.8712348937988,18.8714218139648,18.8716106414795,18.8717994689941,18.8719902038574,18.8721790313721,18.8723678588867,18.8725566864014,18.872745513916,18.8729343414307,18.8731212615967,18.87331199646,18.8735008239746,18.8736877441406,18.8738803863525,18.8740673065186,18.8742580413818,18.8744449615479,18.8746356964111,18.8748226165771,18.8750114440918,18.8752021789551,18.8753890991211,18.875581741333,18.875768661499,18.8759574890137,18.8761463165283,18.876335144043,18.8765239715576,18.8767127990723,18.8769035339355,18.8770923614502,18.8772792816162,18.8774719238281,18.8776588439941,18.8778476715088,18.8780364990234,18.8782253265381,18.8784141540527,18.878604888916,18.8787937164307,18.8789825439453,18.8791694641113,18.879358291626,18.8795509338379,18.8797378540039,18.8799285888672,18.8801174163818,18.8803062438965,18.8804950714111,18.8806838989258,18.8808727264404,18.8810615539551,18.8812503814697,18.881441116333,18.8816299438477,18.8818187713623,18.8820095062256,18.8821983337402,18.8823871612549,18.8825740814209,18.8827629089355,18.8829536437988,18.8831424713135,18.8833312988281,18.8835220336914,18.8837089538574,18.8838996887207,18.8840866088867,18.8842792510986,18.8844680786133,18.8846549987793,18.8848457336426,18.8850345611572,18.8852252960205,18.8854122161865,18.8856029510498,18.8857917785645,18.8859806060791,18.8861694335938,18.8863582611084,18.886547088623,18.8867378234863,18.886926651001,18.8871173858643,18.8873043060303,18.8874950408936,18.8876838684082,18.8878707885742,18.8880634307861,18.8882503509521,18.8884410858154,18.8886299133301,18.8888187408447,18.8890075683594,18.8891983032227,18.8893871307373,18.8895778656006,18.8897647857666,18.8899536132812,18.8901443481445,18.8903331756592,18.8905239105225,18.8907127380371,18.8909015655518,18.8910903930664,18.8912792205811,18.8914680480957,18.891658782959,18.8918476104736,18.8920383453369,18.8922271728516,18.8924160003662
12.0325975418091,12.0929956436157,12.1540021896362,12.2156286239624,12.2778825759888,12.3407735824585,12.4043130874634,12.4685106277466,12.5333795547485,12.5989303588867,12.6651706695557,12.7321119308472,12.7997636795044,12.8681392669678,12.9372482299805,13.0071039199829,13.0777177810669,13.1491022109985,13.2212715148926,13.2942361831665,13.3680114746094,13.4426069259644,13.5180368423462,14.9917907714844,15.0204963684082,15.0493125915527,15.078239440918,15.1072769165039,15.1362524032593,15.2156009674072,15.4567737579346,15.4592580795288,15.5193119049072,15.6033153533936,15.688232421875,15.7740802764893,15.8608589172363,15.9485969543457,16.0373096466064,16.1270179748535,16.2177391052246,16.3679389953613,16.3707962036133,16.3736534118652,16.3765125274658,16.427619934082,18.6465702056885,18.6467552185059,18.6469421386719,18.647123336792,18.6473083496094,18.6474914550781,18.6476802825928,18.6478633880615,18.6480464935303,18.6482353210449,18.6484184265137,18.6486072540283,18.6487903594971,18.6489696502686,18.6491622924805,18.6493453979492,18.6495265960693,18.6497135162354,18.6498966217041,18.6500835418701,18.6502666473389,18.6504497528076,18.6506366729736,18.650821685791,18.6510047912598,18.6511936187744,18.6513767242432,18.6515636444092,18.6517486572266,18.651927947998,18.6521186828613,18.6523017883301,18.6524810791016,18.6526699066162,18.6528568267822,18.6530456542969,18.6532249450684,18.6534099578857,18.653600692749,18.6537799835205,18.6539611816406,18.6541538238525,18.654333114624,18.6545219421387,18.6547050476074,18.6548900604248,18.6550769805908,18.6552581787109,18.6554489135742,18.655632019043,18.6558151245117,18.6560001373291,18.6561832427979,18.6563701629639,18.6565570831299,18.6567401885986,18.6569232940674,18.6571102142334,18.6572952270508,18.6574821472168,18.6576652526855,18.6578521728516,18.6580371856689,18.6582202911377,18.6584091186523,18.6585903167725,18.6587734222412,18.6589641571045,18.659143447876,18.6593284606934,18.6595191955566,18.6596984863281,18.6598854064941,18.6600742340088,18.6602554321289,18.6604442596436,18.6606292724609,18.6608123779297,18.6610012054443,18.6611824035645,18.6613655090332,18.6615543365479,18.6617374420166,18.661922454834,18.662109375,18.6622924804688,18.6624774932861,18.6626644134521,18.6628437042236,18.6630363464355,18.6632194519043,18.6634063720703,18.6635894775391,18.6637744903564,18.6639614105225,18.6641445159912,18.66432762146,18.6645183563232,18.664701461792,18.6648845672607,18.6650714874268,18.6652565002441,18.6654415130615,18.6656246185303,18.6658115386963,18.6659984588623,18.6661815643311,18.6663665771484,18.6665515899658,18.6667366027832,18.6669235229492,18.667106628418,18.6672916412354,18.6674766540527,18.6676635742188,18.6678485870361,18.6680335998535,18.6682186126709,18.6684036254883,18.6685905456543,18.668773651123,18.6689605712891,18.6691436767578,18.6693305969238,18.6695156097412,18.6697006225586,18.669885635376,18.6700706481934,18.6702575683594,18.6704425811768,18.6706275939941,18.6708126068115,18.6709976196289,18.6711845397949,18.6713695526123,18.6715545654297,18.6717395782471,18.6719226837158,18.6721096038818,18.6722946166992,18.6724815368652,18.672664642334,18.6728496551514,18.6730365753174,18.6732215881348,18.6734066009521,18.6735916137695,18.6737766265869,18.6739616394043,18.6741485595703,18.6743316650391,18.6745185852051,18.6747035980225,18.6748905181885,18.6750736236572,18.6752624511719,18.675443649292,18.675630569458,18.6758155822754,18.6760025024414,18.6761875152588,18.6763706207275,18.6765575408936,18.6767444610596,18.676929473877,18.6771144866943,18.6772994995117,18.6774864196777,18.6776714324951,18.6778545379639,18.6780414581299,18.6782245635986,18.6784133911133,18.6785984039307,18.6787815093994,18.6789684295654,18.6791515350342,18.6793403625488,18.6795234680176,18.6797103881836,18.679895401001,18.6800804138184,18.6802673339844,18.6804504394531,18.6806354522705,18.6808223724365,18.6810073852539,18.6811943054199,18.6813793182373,18.6815643310547,18.6817474365234,18.6819343566895,18.6821212768555,18.6823062896729,18.6824932098389,18.6826763153076,18.682861328125,18.683048248291,18.6832332611084,18.6834182739258,18.6836051940918,18.6837902069092,18.6839752197266,18.6841602325439,18.68434715271,18.6845321655273,18.6847171783447,18.6849040985107,18.6850872039795,18.6852722167969,18.6854591369629,18.6856441497803,18.6858291625977,18.6860122680664,18.6861991882324,18.6863842010498,18.6865692138672,18.6867561340332,18.686939239502,18.6871242523193,18.6873092651367,18.6874961853027,18.6876811981201,18.6878643035889,18.6880512237549,18.6882362365723,18.6884212493896,18.6886081695557,18.688793182373,18.6889781951904,18.6891632080078,18.6893482208252,18.6895351409912,18.68971824646,18.689905166626,18.6900901794434,18.6902751922607,18.6904602050781,18.6906452178955,18.6908321380615,18.6910171508789,18.6912021636963,18.6913871765137,18.6915721893311,18.6917552947998,18.6919422149658,18.6921291351318,18.6923141479492,18.6924991607666,18.692684173584,18.69287109375,18.6930541992188,18.6932411193848,18.6934242248535,18.6936111450195,18.6937980651855,18.6939811706543,18.6941661834717,18.6943511962891,18.6945362091064,18.6947250366211,18.6949081420898,18.6950931549072,18.6952781677246,18.6954650878906,18.6956520080566,18.6958351135254,18.6960220336914,18.6962051391602,18.6963920593262,18.6965770721436,18.6967639923096,18.696949005127,18.6971321105957,18.6973171234131,18.6975040435791,18.6976909637451,18.6978759765625,18.6980609893799,18.6982460021973,18.6984329223633,18.698616027832,18.6988010406494,18.6989879608154,18.6991748809814,18.6993598937988,18.6995449066162,18.6997299194336,18.699914932251,18.700101852417,18.700288772583,18.7004718780518,18.7006587982178,18.7008438110352,18.7010288238525,18.7012138366699,18.7014007568359,18.7015857696533,18.7017707824707,18.7019577026367,18.7021427154541,18.7023258209229,18.7025127410889,18.7026996612549,18.7028827667236,18.7030696868896,18.7032566070557,18.703441619873,18.7036266326904,18.7038116455078,18.7039966583252,18.7041835784912,18.7043685913086,18.7045555114746,18.704740524292,18.704927444458,18.7051105499268,18.7052974700928,18.7054843902588,18.7056674957275,18.7058544158936,18.7060394287109,18.7062244415283,18.7064094543457,18.7065982818604,18.7067832946777,18.7069683074951,18.7071533203125,18.7073402404785,18.7075252532959,18.7077102661133,18.7078952789307,18.7080821990967,18.7082672119141,18.7084522247314,18.7086372375488,18.7088222503662,18.7090091705322,18.7091960906982,18.7093811035156,18.709566116333,18.709753036499,18.7099380493164,18.7101249694824,18.7103099822998,18.7104949951172,18.7106819152832
12.032208442688,12.0926027297974,12.1536054611206,12.2152271270752,12.2774772644043,12.3403654098511,12.4039001464844,12.468092918396,12.5329570770264,12.5985040664673,12.6647396087646,12.7316761016846,12.7993240356445,12.867693901062,12.9367980957031,13.006649017334,13.0772581100464,13.1486377716064,13.2208013534546,13.2937612533569,13.3675270080566,13.4421148300171,13.517539024353,14.9925622940063,15.0212707519531,15.0500888824463,15.0790185928345,15.1104412078857,15.1489992141724,15.2551431655884,15.4460592269897,15.448540687561,15.5189161300659,15.6029148101807,15.6878290176392,15.7736692428589,15.8604431152344,15.9481763839722,16.03688621521,16.1265869140625,16.2172985076904,18.4686031341553,18.468786239624,18.4689655303955,18.4691505432129,18.4693336486816,18.4695091247559,18.4696922302246,18.4698753356934,18.4700546264648,18.4702339172363,18.4704170227051,18.4705963134766,18.4707794189453,18.4709606170654,18.4711437225342,18.4713230133057,18.4715061187744,18.4716873168945,18.4718704223633,18.4720478057861,18.4722328186035,18.472412109375,18.4725933074951,18.4727745056152,18.4729595184326,18.4731330871582,18.4733200073242,18.4735012054443,18.4736843109131,18.4738655090332,18.4740428924561,18.4742279052734,18.4744071960449,18.4745903015137,18.4747695922852,18.4749546051025,18.4751358032227,18.4753150939941,18.4754943847656,18.475679397583,18.4758625030518,18.476037979126,18.4762229919434,18.4764041900635,18.4765892028809,18.4767684936523,18.4769477844238,18.4771308898926,18.4773101806641,18.4774932861328,18.4776763916016,18.4778575897217,18.4780406951904,18.4782238006592,18.4783973693848,18.4785842895508,18.4787654876709,18.4789447784424,18.4791259765625,18.4793071746826,18.4794902801514,18.4796676635742,18.4798526763916,18.4800357818604,18.4802150726318,18.480396270752,18.4805812835693,18.4807586669922,18.4809436798096,18.4811248779297,18.4813041687012,18.4814853668213,18.4816703796387,18.4818477630615,18.4820308685303,18.4822120666504,18.4823970794678,18.4825744628906,18.4827556610107,18.4829406738281,18.4831218719482,18.4833011627197,18.4834861755371,18.4836654663086,18.4838485717773,18.4840278625488,18.4842109680176,18.4843940734863,18.4845733642578,18.4847564697266,18.4849376678467,18.4851207733154,18.4853019714355,18.485481262207,18.4856624603271,18.4858493804932,18.486026763916,18.4862079620361,18.4863948822021,18.486572265625,18.4867553710938,18.4869346618652,18.487117767334,18.4872970581055,18.4874801635742,18.4876613616943,18.4878425598145,18.4880256652832,18.4882068634033,18.4883861541748,18.4885692596436,18.4887523651123,18.4889335632324,18.4891166687012,18.4892959594727,18.4894790649414,18.4896602630615,18.4898433685303,18.4900226593018,18.4902057647705,18.4903869628906,18.4905681610107,18.4907512664795,18.4909324645996,18.4911136627197,18.4912967681885,18.4914779663086,18.4916591644287,18.4918403625488,18.4920215606689,18.4922046661377,18.4923858642578,18.4925670623779,18.4927501678467,18.4929313659668,18.4931144714355,18.493293762207,18.4934768676758,18.4936599731445,18.493839263916,18.4940223693848,18.4942054748535,18.494384765625,18.4945678710938,18.4947490692139,18.494930267334,18.4951114654541,18.4952945709229,18.495475769043,18.4956569671631,18.4958400726318,18.496021270752,18.4962043762207,18.4963855743408,18.4965667724609,18.4967479705811,18.4969310760498,18.4971122741699,18.49729347229,18.4974765777588,18.4976577758789,18.4978408813477,18.4980220794678,18.4982032775879,18.498384475708,18.4985675811768,18.4987487792969,18.4989318847656,18.4991130828857,18.4992942810059,18.4994773864746,18.4996585845947,18.4998397827148,18.5000228881836,18.5002040863037,18.5003852844238,18.5005683898926,18.5007495880127,18.5009326934814,18.5011138916016,18.5012969970703,18.5014781951904,18.5016613006592,18.5018405914307,18.5020236968994,18.5022068023682,18.5023880004883,18.5025672912598,18.5027503967285,18.5029335021973,18.5031147003174,18.5032978057861,18.5034809112549,18.5036602020264,18.5038433074951,18.5040245056152,18.504207611084,18.5043888092041,18.5045700073242,18.504753112793,18.5049362182617,18.5051174163818,18.505298614502,18.5054798126221,18.5056629180908,18.5058441162109,18.5060272216797,18.5062065124512,18.5063915252686,18.5065727233887,18.5067558288574,18.5069370269775,18.5071182250977,18.5073013305664,18.5074825286865,18.5076637268066,18.5078468322754,18.5080261230469,18.5082092285156,18.5083904266357,18.5085735321045,18.5087547302246,18.5089378356934,18.5091190338135,18.5093002319336,18.5094833374023,18.5096626281738,18.5098457336426,18.5100250244141,18.5102100372314,18.5103912353516,18.5105724334717,18.5107555389404,18.5109367370605,18.5111179351807,18.5112991333008,18.5114803314209,18.511661529541,18.5118446350098,18.5120258331299,18.5122089385986,18.5123901367188,18.5125713348389,18.5127544403076,18.5129375457764,18.5131168365479,18.5132999420166,18.5134811401367,18.5136623382568,18.513843536377,18.5140247344971,18.5142097473145,18.5143909454346,18.5145721435547,18.5147533416748,18.5149364471436,18.5151176452637,18.5152988433838,18.5154819488525,18.5156631469727,18.5158462524414,18.5160274505615,18.5162086486816,18.5163898468018,18.5165729522705,18.5167541503906,18.5169353485107,18.5171203613281,18.5172996520996,18.5174827575684,18.5176620483398,18.5178470611572,18.5180263519287,18.5182075500488,18.5183906555176,18.5185718536377,18.5187549591064,18.5189361572266,18.5191192626953,18.5193004608154,18.5194816589355,18.5196647644043,18.519847869873,18.5200271606445,18.5202102661133,18.520393371582,18.5205745697021,18.5207557678223,18.520938873291,18.5211200714111,18.5213031768799,18.5214824676514,18.5216655731201,18.5218467712402,18.522029876709,18.5222110748291,18.5223922729492,18.522575378418,18.5227584838867,18.5229415893555,18.523120880127,18.5233039855957,18.5234870910645,18.5236682891846,18.5238513946533,18.5240325927734,18.5242137908936,18.5243968963623,18.5245800018311,18.5247611999512,18.5249443054199,18.52512550354,18.5253067016602,18.5254898071289,18.525671005249,18.5258522033691,18.5260353088379,18.526216506958,18.5264015197754,18.5265808105469,18.5267639160156,18.5269451141357,18.5271282196045,18.5273094177246,18.5274906158447,18.5276756286621,18.5278568267822,18.5280380249023,18.5282192230225,18.5284023284912,18.52858543396,18.5287666320801,18.5289497375488,18.5291290283203,18.5293121337891,18.5294952392578,18.5296764373779,18.5298595428467,18.5300407409668,18.5302238464355,18.5304069519043,18.5305881500244,18.5307693481445,18.5309505462646,18.531135559082,18.5313167572021,18.5314979553223,18.531681060791,18.5318641662598,18.5320453643799,18.5322284698486,18.5324077606201
12.0318193435669,12.092209815979,12.153208732605,12.2148265838623,12.2770729064941,12.3399562835693,12.4034872055054,12.4676752090454,12.5325355529785,12.5980777740479,12.6643085479736,12.731240272522,12.7988834381104,12.8672485351562,12.9363489151001,13.0061941146851,13.0767984390259,13.1481733322144,13.2203321456909,13.2932815551758,13.367039680481,13.4416217803955,13.5170412063599,14.9996700286865,15.0324420928955,15.0653591156006,15.0984191894531,15.1316261291504,15.1945610046387,15.3013467788696,15.435359954834,15.437837600708,15.5185203552246,15.6025152206421,15.687424659729,15.7732582092285,15.8600273132324,15.9477558135986,16.0364608764648,16.1261577606201,16.2168636322021,18.2948970794678,18.2950706481934,18.2952480316162,18.2954292297363,18.2956066131592,18.2957801818848,18.2959613800049,18.2961387634277,18.2963199615479,18.2964954376221,18.2966728210449,18.296854019165,18.2970275878906,18.2972068786621,18.297384262085,18.2975597381592,18.2977447509766,18.2979202270508,18.298095703125,18.2982749938965,18.2984523773193,18.2986278533936,18.298807144165,18.2989864349365,18.299165725708,18.2993412017822,18.2995204925537,18.2996997833252,18.299877166748,18.3000564575195,18.3002319335938,18.3004093170166,18.3005905151367,18.3007678985596,18.3009471893311,18.3011245727539,18.3013019561768,18.3014793395996,18.3016586303711,18.3018321990967,18.3020153045654,18.3021926879883,18.3023681640625,18.3025512695312,18.3027267456055,18.3029003143311,18.3030834197998,18.303258895874,18.3034362792969,18.303617477417,18.3037929534912,18.3039703369141,18.3041515350342,18.3043270111084,18.3045063018799,18.3046836853027,18.3048648834229,18.3050403594971,18.3052158355713,18.30539894104,18.3055744171143,18.3057498931885,18.3059329986572,18.3061084747314,18.3062877655029,18.3064670562744,18.3066425323486,18.3068199157715,18.306999206543,18.3071784973145,18.3073577880859,18.3075351715088,18.3077144622803,18.3078899383545,18.3080654144287,18.3082485198975,18.3084278106689,18.3086013793945,18.3087825775146,18.3089618682861,18.309139251709,18.3093147277832,18.3094940185547,18.3096752166748,18.3098526000977,18.3100280761719,18.310209274292,18.3103828430176,18.3105640411377,18.3107414245605,18.3109169006348,18.3111019134521,18.3112773895264,18.3114490509033,18.3116340637207,18.3118114471436,18.3119869232178,18.3121662139893,18.3123455047607,18.3125267028809,18.3127021789551,18.3128795623779,18.313060760498,18.3132343292236,18.3134136199951,18.3135929107666,18.3137722015381,18.3139495849609,18.3141288757324,18.3143043518066,18.3144836425781,18.3146648406982,18.3148403167725,18.3150196075439,18.3151969909668,18.3153762817383,18.3155555725098,18.3157329559326,18.3159103393555,18.3160877227783,18.3162689208984,18.3164463043213,18.3166255950928,18.316801071167,18.3169803619385,18.31715965271,18.3173389434814,18.3175163269043,18.3176937103271,18.3178730010986,18.3180503845215,18.318229675293,18.3184070587158,18.3185863494873,18.3187656402588,18.3189430236816,18.3191204071045,18.319299697876,18.3194789886475,18.3196563720703,18.3198356628418,18.3200130462646,18.3201904296875,18.320369720459,18.3205490112305,18.3207263946533,18.3209056854248,18.3210830688477,18.3212604522705,18.321439743042,18.3216190338135,18.3217945098877,18.3219757080078,18.3221530914307,18.3223323822021,18.3225116729736,18.3226890563965,18.3228664398193,18.3230438232422,18.3232231140137,18.3234024047852,18.323579788208,18.3237590789795,18.323938369751,18.3241176605225,18.3242950439453,18.3244724273682,18.3246517181396,18.3248310089111,18.325008392334,18.3251876831055,18.3253650665283,18.3255443572998,18.3257236480713,18.3259010314941,18.326078414917,18.3262577056885,18.32643699646,18.3266143798828,18.3267936706543,18.3269729614258,18.3271503448486,18.3273277282715,18.3275089263916,18.3276863098145,18.3278656005859,18.3280429840088,18.3282203674316,18.3284015655518,18.3285789489746,18.3287582397461,18.3289356231689,18.3291149139404,18.3292922973633,18.3294715881348,18.3296489715576,18.3298282623291,18.3300075531006,18.3301868438721,18.3303661346436,18.3305435180664,18.3307209014893,18.3309001922607,18.3310775756836,18.3312568664551,18.3314361572266,18.331615447998,18.3317928314209,18.3319721221924,18.3321514129639,18.3323287963867,18.3325080871582,18.3326873779297,18.3328647613525,18.333044052124,18.3332214355469,18.3334007263184,18.3335800170898,18.3337574005127,18.3339366912842,18.334114074707,18.3342914581299,18.3344707489014,18.3346500396729,18.3348274230957,18.3350067138672,18.3351860046387,18.3353633880615,18.3355407714844,18.3357200622559,18.3358974456787,18.3360767364502,18.336254119873,18.3364334106445,18.3366107940674,18.3367900848389,18.3369674682617,18.3371467590332,18.3373241424561,18.3375034332275,18.3376808166504,18.3378601074219,18.3380374908447,18.3382167816162,18.3383941650391,18.3385715484619,18.3387508392334,18.3389282226562,18.3391075134277,18.3392848968506,18.3394660949707,18.3396415710449,18.339822769165,18.3400001525879,18.3401794433594,18.3403568267822,18.3405361175537,18.3407135009766,18.340892791748,18.3410720825195,18.3412494659424,18.3414287567139,18.3416061401367,18.3417835235596,18.3419628143311,18.3421401977539,18.342321395874,18.3424987792969,18.3426780700684,18.3428554534912,18.3430347442627,18.3432140350342,18.343391418457,18.3435688018799,18.34375,18.3439273834229,18.3441047668457,18.3442821502686,18.34446144104,18.3446407318115,18.3448181152344,18.3449993133545,18.3451747894287,18.3453540802002,18.3455333709717,18.3457126617432,18.345890045166,18.3460674285889,18.346248626709,18.3464260101318,18.3466053009033,18.3467826843262,18.3469619750977,18.3471393585205,18.347318649292,18.3474960327148,18.3476753234863,18.3478546142578,18.3480319976807,18.3482112884521,18.348388671875,18.3485698699951,18.348747253418,18.3489265441895,18.3491058349609,18.3492832183838,18.3494625091553,18.3496398925781,18.349817276001,18.3499984741211,18.3501758575439,18.3503532409668,18.3505325317383,18.3507118225098,18.3508930206299,18.3510684967041,18.3512477874756,18.3514270782471,18.3516063690186,18.3517837524414,18.3519611358643,18.3521423339844,18.3523197174072,18.3524990081787,18.3526782989502,18.352855682373,18.3530330657959,18.353214263916,18.3533916473389,18.3535690307617,18.3537483215332,18.3539276123047,18.3541088104248,18.354284286499,18.3544635772705,18.3546409606934,18.3548202514648,18.355001449585,18.3551788330078,18.3553581237793,18.3555355072021,18.3557147979736,18.3558959960938,18.356071472168,18.3562526702881,18.3564300537109,18.3566093444824,18.3567886352539,18.3569660186768,18.3571453094482,18.3573246002197,18.3575038909912
12.0314311981201,12.0918169021606,12.1528120040894,12.2144260406494,12.2766675949097,12.3395471572876,12.4030733108521,12.4672574996948,12.5321130752563,12.5976505279541,12.6638784408569,12.7308053970337,12.7984428405762,12.8668041229248,12.9358987808228,13.0057401657104,13.0763387680054,13.1477079391479,13.2198553085327,13.292799949646,13.3665533065796,13.4411296844482,13.5165424346924,15.0211391448975,15.0534086227417,15.0864171981812,15.1195707321167,15.1528701782227,15.2403974533081,15.4222021102905,15.424674987793,15.4349565505981,15.5181255340576,15.6021156311035,15.6870203018188,15.7728471755981,15.8596115112305,15.9473361968994,16.0360355377197,16.1257286071777,16.2164287567139,18.124418258667,18.1245937347412,18.1247673034668,18.124942779541,18.1251182556152,18.1252918243408,18.1254692077637,18.1256427764893,18.1258182525635,18.1259899139404,18.1261653900146,18.1263427734375,18.1265144348145,18.1266899108887,18.1268653869629,18.1270408630371,18.1272125244141,18.1273860931396,18.1275672912598,18.1277389526367,18.1279125213623,18.1280899047852,18.1282615661621,18.1284370422363,18.1286106109619,18.1287822723389,18.1289615631104,18.1291370391846,18.1293106079102,18.1294860839844,18.1296615600586,18.1298389434814,18.1300086975098,18.130184173584,18.1303596496582,18.1305294036865,18.1307048797607,18.1308841705322,18.1310539245605,18.131233215332,18.1314086914062,18.1315822601318,18.1317577362061,18.1319313049316,18.1321067810059,18.1322803497314,18.1324577331543,18.1326313018799,18.1328067779541,18.1329784393311,18.1331539154053,18.1333255767822,18.1335010528564,18.1336784362793,18.1338558197021,18.1340293884277,18.134204864502,18.1343784332275,18.1345520019531,18.1347274780273,18.1349010467529,18.1350765228271,18.1352500915527,18.1354312896729,18.1356010437012,18.1357746124268,18.1359539031982,18.1361255645752,18.1363010406494,18.1364784240723,18.1366500854492,18.1368293762207,18.1370010375977,18.1371746063232,18.1373519897461,18.1375274658203,18.1376972198486,18.1378765106201,18.1380500793457,18.1382255554199,18.1383991241455,18.1385746002197,18.1387481689453,18.1389236450195,18.1390972137451,18.1392726898193,18.1394462585449,18.139627456665,18.1398010253906,18.1399707794189,18.1401500701904,18.140323638916,18.1404991149902,18.1406726837158,18.1408500671387,18.1410274505615,18.1412010192871,18.1413726806641,18.1415500640869,18.1417236328125,18.1418952941895,18.1420726776123,18.1422481536865,18.1424255371094,18.1425971984863,18.1427726745605,18.1429500579834,18.1431217193604,18.1432991027832,18.1434726715088,18.143648147583,18.1438236236572,18.1439971923828,18.144172668457,18.1443481445312,18.1445217132568,18.1446971893311,18.1448707580566,18.1450462341309,18.1452217102051,18.1453971862793,18.1455726623535,18.1457462310791,18.145923614502,18.1460971832275,18.1462707519531,18.146448135376,18.1466236114502,18.1467990875244,18.14697265625,18.1471481323242,18.1473217010498,18.1474990844727,18.1476726531982,18.1478462219238,18.1480236053467,18.1481971740723,18.1483726501465,18.1485481262207,18.1487236022949,18.1488971710205,18.1490726470947,18.1492481231689,18.1494235992432,18.1495990753174,18.149772644043,18.1499481201172,18.1501235961914,18.1502990722656,18.1504726409912,18.1506481170654,18.1508235931396,18.1509990692139,18.1511745452881,18.1513500213623,18.1515235900879,18.1516971588135,18.1518745422363,18.1520481109619,18.1522235870361,18.1523990631104,18.1525745391846,18.1527500152588,18.152925491333,18.1530990600586,18.1532764434814,18.1534519195557,18.1536273956299,18.1538009643555,18.1539745330811,18.1541500091553,18.1543254852295,18.1545009613037,18.1546764373779,18.1548519134521,18.1550254821777,18.155200958252,18.1553783416748,18.1555519104004,18.1557273864746,18.1559028625488,18.156078338623,18.1562519073486,18.1564292907715,18.1566028594971,18.1567764282227,18.1569538116455,18.1571292877197,18.1573047637939,18.1574802398682,18.1576538085938,18.157829284668,18.1580066680908,18.1581802368164,18.1583557128906,18.1585292816162,18.1587066650391,18.1588802337646,18.1590576171875,18.1592311859131,18.1594066619873,18.1595840454102,18.1597576141357,18.15993309021,18.1601085662842,18.1602840423584,18.160457611084,18.1606349945068,18.1608085632324,18.160982131958,18.1611614227295,18.1613349914551,18.1615104675293,18.1616840362549,18.1618614196777,18.162036895752,18.1622104644775,18.1623878479004,18.162561416626,18.1627368927002,18.162914276123,18.1630878448486,18.1632652282715,18.1634387969971,18.1636123657227,18.1637878417969,18.1639633178711,18.1641407012939,18.1643142700195,18.1644897460938,18.164665222168,18.1648387908936,18.1650142669678,18.165189743042,18.1653614044189,18.1655387878418,18.165714263916,18.1658897399902,18.1660652160645,18.1662368774414,18.1664161682129,18.1665897369385,18.1667652130127,18.1669406890869,18.1671142578125,18.1672897338867,18.1674652099609,18.1676406860352,18.1678161621094,18.167989730835,18.1681652069092,18.1683406829834,18.1685161590576,18.1686897277832,18.1688652038574,18.1690425872803,18.1692161560059,18.1693916320801,18.1695652008057,18.1697406768799,18.1699180603027,18.1700916290283,18.1702651977539,18.1704406738281,18.1706161499023,18.1707935333252,18.1709651947021,18.1711406707764,18.1713161468506,18.1714916229248,18.171667098999,18.1718425750732,18.1720180511475,18.1721935272217,18.1723690032959,18.1725444793701,18.1727199554443,18.1728935241699,18.1730690002441,18.1732444763184,18.1734199523926,18.1735935211182,18.173770904541,18.1739444732666,18.1741199493408,18.174295425415,18.1744709014893,18.1746463775635,18.1748218536377,18.1749973297119,18.1751708984375,18.1753482818604,18.1755218505859,18.1756992340088,18.1758708953857,18.1760482788086,18.1762237548828,18.176399230957,18.1765747070312,18.1767482757568,18.1769218444824,18.1771011352539,18.1772747039795,18.1774520874023,18.1776256561279,18.1778011322021,18.1779766082764,18.1781520843506,18.1783256530762,18.1785011291504,18.1786766052246,18.1788539886475,18.179027557373,18.1792030334473,18.1793785095215,18.1795539855957,18.1797294616699,18.1799049377441,18.1800785064697,18.1802558898926,18.1804294586182,18.180606842041,18.1807804107666,18.1809558868408,18.1811332702637,18.1813087463379,18.1814823150635,18.1816577911377,18.1818332672119,18.1820087432861,18.1821842193604,18.1823616027832,18.1825332641602,18.1827087402344,18.1828861236572,18.1830615997314,18.183235168457,18.1834106445312,18.1835861206055,18.1837635040283,18.1839370727539,18.1841144561768,18.1842880249023,18.1844635009766,18.1846408843994,18.184814453125,18.1849899291992,18.1851654052734,18.1853427886963,18.1855182647705,18.1856918334961,18.1858673095703
12.031042098999,12.0914239883423,12.1524152755737,12.2140254974365,12.2762622833252,12.3391380310059,12.402660369873,12.4668407440186,12.5316905975342,12.5972242355347,12.6634473800659,12.7303695678711,12.7980031967163,12.866358757019,12.9354486465454,13.0052852630615,13.0758771896362,13.1472368240356,13.2193794250488,13.2923183441162,13.3660659790039,13.440637588501,13.5160446166992,15.046914100647,15.0744333267212,15.1075344085693,15.1407804489136,15.1799173355103,15.2865114212036,15.418830871582,15.4214458465576,15.4345922470093,15.5177297592163,15.6017160415649,15.686616897583,15.7724361419678,15.8591966629028,15.9469156265259,16.0356101989746,16.1252994537354,16.2159900665283,17.9570903778076,17.9572658538818,17.9574356079102,17.9576110839844,17.9577808380127,17.957950592041,17.9581203460693,17.9582939147949,17.9584636688232,17.9586353302002,17.9588069915771,17.9589824676514,17.9591522216797,17.9593238830566,17.9594974517822,17.9596672058105,17.9598350524902,17.9600086212158,17.9601783752441,17.9603519439697,17.9605236053467,17.9606952667236,17.9608631134033,17.9610404968262,17.9612083435059,17.9613819122314,17.9615497589111,17.9617252349854,17.961893081665,17.962064743042,17.9622402191162,17.9624080657959,17.9625797271729,17.9627552032471,17.9629230499268,17.9630928039551,17.9632682800293,17.9634399414062,17.9636116027832,17.9637775421143,17.9639511108398,17.9641284942627,17.9642944335938,17.9644680023193,17.9646377563477,17.9648094177246,17.9649829864502,17.9651527404785,17.9653224945068,17.9654998779297,17.965669631958,17.9658432006836,17.9660129547119,17.9661827087402,17.9663562774658,17.9665241241455,17.9666976928711,17.9668712615967,17.9670391082764,17.967212677002,17.9673862457275,17.9675579071045,17.9677276611328,17.9678955078125,17.9680709838867,17.968240737915,17.968412399292,17.9685878753662,17.9687557220459,17.9689273834229,17.9691028594971,17.9692707061768,17.9694423675537,17.9696140289307,17.9697856903076,17.9699573516846,17.9701309204102,17.9702987670898,17.9704742431641,17.9706439971924,17.9708156585693,17.9709892272949,17.9711570739746,17.9713344573975,17.9715023040771,17.9716720581055,17.9718456268311,17.9720211029053,17.972188949585,17.9723606109619,17.9725341796875,17.9727039337158,17.9728755950928,17.973051071167,17.9732189178467,17.973388671875,17.9735660552979,17.9737339019775,17.9739036560059,17.9740810394287,17.974250793457,17.9744186401367,17.9745960235596,17.9747676849365,17.9749355316162,17.9751110076904,17.9752807617188,17.975456237793,17.9756240844727,17.9757957458496,17.9759674072266,17.9761409759521,17.9763126373291,17.9764823913574,17.9766540527344,17.9768257141113,17.9769992828369,17.9771709442139,17.9773406982422,17.9775123596191,17.9776878356934,17.9778575897217,17.9780292510986,17.9782009124756,17.9783706665039,17.9785442352295,17.9787178039551,17.9788875579834,17.9790592193604,17.9792308807373,17.9794044494629,17.9795742034912,17.9797477722168,17.9799175262451,17.9800891876221,17.9802627563477,17.9804344177246,17.9806060791016,17.9807777404785,17.9809494018555,17.9811210632324,17.981294631958,17.9814643859863,17.9816360473633,17.9818077087402,17.9819793701172,17.9821529388428,17.9823246002197,17.9824962615967,17.982666015625,17.9828395843506,17.9830112457275,17.9831809997559,17.9833545684814,17.9835262298584,17.983699798584,17.9838714599609,17.9840431213379,17.9842147827148,17.9843864440918,17.9845581054688,17.9847297668457,17.9849033355713,17.9850749969482,17.9852466583252,17.9854183197021,17.9855899810791,17.9857635498047,17.985933303833,17.98610496521,17.9862766265869,17.9864482879639,17.9866218566895,17.9867935180664,17.9869651794434,17.9871368408203,17.9873085021973,17.9874801635742,17.9876518249512,17.9878253936768,17.9879970550537,17.9881706237793,17.9883403778076,17.9885139465332,17.9886856079102,17.9888572692871,17.9890308380127,17.989200592041,17.989372253418,17.9895439147949,17.9897155761719,17.9898910522461,17.990062713623,17.990234375,17.9904041290283,17.9905757904053,17.9907493591309,17.9909210205078,17.9910926818848,17.9912643432617,17.9914360046387,17.9916095733643,17.9917831420898,17.9919528961182,17.9921264648438,17.9922981262207,17.992467880249,17.9926414489746,17.9928150177002,17.9929847717285,17.9931564331055,17.9933300018311,17.993501663208,17.993673324585,17.9938468933105,17.9940185546875,17.9941902160645,17.9943618774414,17.9945335388184,17.9947052001953,17.9948787689209,17.9950523376465,17.9952239990234,17.9953956604004,17.9955654144287,17.9957408905029,17.9959125518799,17.9960823059082,17.9962539672852,17.9964256286621,17.9965991973877,17.9967708587646,17.9969425201416,17.9971141815186,17.9972858428955,17.9974594116211,17.9976291656494,17.997802734375,17.9979724884033,17.9981441497803,17.9983177185059,17.9984874725342,17.9986610412598,17.9988327026367,17.9990062713623,17.9991760253906,17.9993457794189,17.9995212554932,17.9996910095215,17.9998645782471,18.0000343322754,18.0002059936523,18.0003795623779,18.0005512237549,18.0007228851318,18.0008945465088,18.0010662078857,18.0012378692627,18.0014095306396,18.0015811920166,18.0017528533936,18.0019264221191,18.0020980834961,18.002269744873,18.00244140625,18.0026149749756,18.0027866363525,18.0029563903809,18.0031299591064,18.0033016204834,18.0034732818604,18.0036449432373,18.0038166046143,18.0039882659912,18.0041599273682,18.0043334960938,18.0045051574707,18.0046768188477,18.0048503875732,18.0050201416016,18.0051937103271,18.0053653717041,18.0055370330811,18.005708694458,18.005880355835,18.0060520172119,18.0062255859375,18.0063972473145,18.0065689086914,18.0067386627197,18.0069141387939,18.0070858001709,18.0072555541992,18.0074291229248,18.0076007843018,18.0077743530273,18.0079460144043,18.0081157684326,18.0082893371582,18.0084609985352,18.0086345672607,18.0088024139404,18.0089778900146,18.0091495513916,18.0093231201172,18.0094947814941,18.0096645355225,18.009838104248,18.010009765625,18.010181427002,18.0103549957275,18.0105247497559,18.0106964111328,18.0108699798584,18.0110416412354,18.0112133026123,18.0113868713379,18.0115585327148,18.0117301940918,18.0119018554688,18.0120735168457,18.0122451782227,18.0124206542969,18.0125923156738,18.0127639770508,18.0129337310791,18.0131072998047,18.0132808685303,18.0134525299072,18.0136222839355,18.0137958526611,18.0139656066895,18.014139175415,18.0143127441406,18.0144824981689,18.0146560668945,18.0148296356201,18.0150012969971,18.015172958374,18.015344619751,18.0155162811279,18.0156898498535,18.0158634185791,18.0160331726074,18.0162048339844,18.01637840271,18.0165519714355,18.0167236328125,18.0168952941895,18.0170669555664,18.017240524292,18.0174140930176
12.0306529998779,12.0910310745239,12.1520185470581,12.2136240005493,12.275857925415,12.3387289047241,12.402247428894,12.466423034668,12.5312690734863,12.5967979431152,12.6630163192749,12.7299337387085,12.7975625991821,12.8659143447876,12.9349994659424,13.0048274993896,13.0754117965698,13.1467657089233,13.2189035415649,13.2918367385864,13.3655796051025,13.4401445388794,13.5155467987061,15.0727777481079,15.0980367660522,15.1287107467651,15.1620502471924,15.2256689071655,15.4136571884155,15.4162712097168,15.4188852310181,15.4342279434204,15.517333984375,15.6013164520264,15.6862125396729,15.7720251083374,15.8587808609009,15.9464960098267,16.0351867675781,16.1248683929443,16.2155513763428,17.7928295135498,17.7929954528809,17.7931690216064,17.7933292388916,17.7934989929199,17.7936687469482,17.7938365936279,17.7940101623535,17.7941761016846,17.794340133667,17.7945098876953,17.7946815490723,17.7948474884033,17.795015335083,17.7951831817627,17.7953567504883,17.7955207824707,17.7956886291504,17.7958602905273,17.7960243225098,17.7961921691895,17.7963638305664,17.7965316772461,17.796703338623,17.7968692779541,17.7970333099365,17.7972049713135,17.7973728179932,17.7975387573242,17.7977085113525,17.7978801727295,17.7980480194092,17.7982177734375,17.7983798980713,17.7985553741455,17.7987213134766,17.7988872528076,17.7990589141846,17.7992248535156,17.7993946075439,17.7995643615723,17.7997303009033,17.7999000549316,17.8000640869141,17.8002376556396,17.8004035949707,17.8005714416504,17.8007431030273,17.800910949707,17.8010749816895,17.801248550415,17.8014144897461,17.8015823364258,17.8017501831055,17.8019199371338,17.8020915985107,17.8022556304932,17.8024253845215,17.8025932312012,17.8027610778809,17.8029289245605,17.8031005859375,17.8032646179199,17.8034400939941,17.8036041259766,17.8037700653076,17.8039436340332,17.8041095733643,17.8042755126953,17.8044490814209,17.804615020752,17.8047866821289,17.80495262146,17.805118560791,17.8052940368652,17.8054599761963,17.8056259155273,17.8057975769043,17.8059635162354,17.8061332702637,17.806303024292,17.806468963623,17.8066387176514,17.8068084716797,17.8069725036621,17.8071422576904,17.8073120117188,17.8074836730957,17.8076477050781,17.8078155517578,17.8079891204834,17.8081550598145,17.8083229064941,17.8084926605225,17.8086605072021,17.8088340759277,17.8089981079102,17.8091697692871,17.8093376159668,17.8095054626465,17.8096733093262,17.8098430633545,17.8100109100342,17.8101825714111,17.8103485107422,17.8105163574219,17.8106880187988,17.8108558654785,17.8110218048096,17.8111953735352,17.8113613128662,17.8115272521973,17.811695098877,17.8118648529053,17.8120346069336,17.8122024536133,17.812370300293,17.8125381469727,17.812707901001,17.8128757476807,17.813045501709,17.8132133483887,17.8133811950684,17.8135509490967,17.8137187957764,17.8138885498047,17.814058303833,17.8142242431641,17.8143920898438,17.8145618438721,17.8147315979004,17.8148994445801,17.8150691986084,17.8152389526367,17.8154067993164,17.8155727386475,17.8157424926758,17.8159122467041,17.8160800933838,17.8162479400635,17.8164176940918,17.8165874481201,17.8167572021484,17.8169250488281,17.8170928955078,17.8172607421875,17.8174304962158,17.8175983428955,17.8177680969238,17.8179359436035,17.8181056976318,17.8182735443115,17.8184432983398,17.8186111450195,17.8187808990479,17.8189487457275,17.8191184997559,17.8192882537842,17.8194541931152,17.8196220397949,17.8197937011719,17.8199615478516,17.8201313018799,17.8202991485596,17.8204689025879,17.8206367492676,17.8208045959473,17.8209743499756,17.8211421966553,17.821310043335,17.8214817047119,17.8216495513916,17.8218173980713,17.8219890594482,17.8221549987793,17.8223247528076,17.8224925994873,17.822660446167,17.8228302001953,17.8229999542236,17.823169708252,17.8233394622803,17.82350730896,17.8236751556396,17.823844909668,17.8240127563477,17.8241806030273,17.8243503570557,17.8245182037354,17.8246879577637,17.8248596191406,17.8250255584717,17.8251934051514,17.8253631591797,17.825532913208,17.8257007598877,17.825870513916,17.8260383605957,17.8262062072754,17.8263778686523,17.826545715332,17.8267154693604,17.82688331604,17.8270530700684,17.827220916748,17.8273906707764,17.8275585174561,17.8277263641357,17.8278961181641,17.8280658721924,17.8282356262207,17.828405380249,17.8285732269287,17.8287410736084,17.8289127349854,17.8290786743164,17.8292484283447,17.8294162750244,17.8295879364014,17.8297557830811,17.8299236297607,17.8300933837891,17.8302631378174,17.8304328918457,17.8306007385254,17.8307685852051,17.8309383392334,17.8311061859131,17.83127784729,17.8314456939697,17.8316135406494,17.8317832946777,17.8319530487061,17.8321208953857,17.8322887420654,17.8324584960938,17.8326263427734,17.8327960968018,17.8329620361328,17.8331317901611,17.8332996368408,17.8334693908691,17.8336410522461,17.8338069915771,17.8339767456055,17.8341445922852,17.8343124389648,17.8344841003418,17.8346519470215,17.8348217010498,17.8349895477295,17.8351573944092,17.8353252410889,17.8354930877686,17.8356628417969,17.8358325958252,17.8360004425049,17.8361701965332,17.8363380432129,17.8365077972412,17.8366756439209,17.8368453979492,17.8370132446289,17.8371829986572,17.8373508453369,17.8375205993652,17.8376865386963,17.8378582000732,17.8380260467529,17.8381958007812,17.8383636474609,17.8385334014893,17.8387031555176,17.8388710021973,17.839038848877,17.8392086029053,17.839376449585,17.8395462036133,17.839714050293,17.8398838043213,17.840051651001,17.8402194976807,17.840389251709,17.8405590057373,17.8407287597656,17.8408966064453,17.841064453125,17.8412342071533,17.8414039611816,17.84157371521,17.841739654541,17.8419075012207,17.842077255249,17.8422470092773,17.842414855957,17.8425846099854,17.8427543640137,17.8429222106934,17.8430919647217,17.8432598114014,17.8434295654297,17.8435974121094,17.8437690734863,17.843936920166,17.8441028594971,17.8442726135254,17.8444423675537,17.844612121582,17.8447780609131,17.84494972229,17.8451175689697,17.845287322998,17.8454570770264,17.8456230163574,17.8457927703857,17.8459625244141,17.8461322784424,17.8463001251221,17.8464679718018,17.8466396331787,17.846809387207,17.8469772338867,17.8471450805664,17.8473148345947,17.8474826812744,17.8476543426514,17.8478221893311,17.8479900360107,17.8481578826904,17.8483295440674,17.8484992980957,17.8486652374268,17.8488349914551,17.8490028381348,17.8491744995117,17.84934425354,17.8495121002197,17.8496799468994,17.8498497009277,17.8500194549561,17.8501892089844,17.8503551483154,17.8505249023438,17.8506946563721,17.8508644104004,17.8510322570801,17.8512020111084,17.8513698577881,17.851541519165,17.8517093658447,17.8518772125244,17.8520469665527
12.0302639007568,12.0906381607056,12.1516218185425,12.2132234573364,12.2754535675049,12.3383197784424,12.4018335342407,12.4660053253174,12.5308465957642,12.5963716506958,12.6625852584839,12.7294988632202,12.7971229553223,12.8654689788818,12.9345455169678,13.0043668746948,13.0749454498291,13.146294593811,13.2184267044067,13.2913551330566,13.3650922775269,13.4396524429321,13.5150489807129,15.0987310409546,15.1240768432617,15.1499471664429,15.1833801269531,15.2716979980469,15.4110994338989,15.4137115478516,15.4163255691528,15.4338359832764,15.516939163208,15.6009168624878,15.6858081817627,15.7716150283813,15.8583650588989,15.9460754394531,16.034761428833,16.1244335174561,16.2151203155518,17.6315383911133,17.6317081451416,17.631872177124,17.6320381164551,17.6322059631348,17.6323661804199,17.6325340270996,17.6326999664307,17.6328601837158,17.6330280303955,17.6331901550293,17.633358001709,17.63352394104,17.6336860656738,17.6338539123535,17.6340198516846,17.6341857910156,17.6343517303467,17.6345157623291,17.6346855163574,17.6348476409912,17.635009765625,17.6351795196533,17.6353416442871,17.6355075836182,17.6356735229492,17.6358375549316,17.63600730896,17.6361694335938,17.6363372802734,17.6364994049072,17.6366672515869,17.636833190918,17.6369972229004,17.6371631622314,17.6373310089111,17.6374912261963,17.6376571655273,17.637825012207,17.6379852294922,17.6381530761719,17.6383209228516,17.6384868621826,17.6386489868164,17.6388168334961,17.6389808654785,17.6391448974609,17.639310836792,17.6394786834717,17.6396427154541,17.6398067474365,17.6399726867676,17.64013671875,17.6403026580811,17.6404705047607,17.6406364440918,17.6407985687256,17.6409664154053,17.6411323547363,17.6412944793701,17.6414604187012,17.6416263580322,17.6417942047119,17.641960144043,17.6421241760254,17.6422901153564,17.6424560546875,17.6426181793213,17.6427879333496,17.6429500579834,17.6431179046631,17.6432838439941,17.6434440612793,17.6436138153076,17.64377784729,17.6439399719238,17.6441078186035,17.6442737579346,17.6444416046143,17.6446075439453,17.6447715759277,17.6449394226074,17.6450996398926,17.6452674865723,17.645435333252,17.6455974578857,17.6457633972168,17.6459312438965,17.646089553833,17.64626121521,17.6464252471924,17.6465911865234,17.6467590332031,17.6469230651855,17.6470909118652,17.647253036499,17.6474189758301,17.6475868225098,17.6477489471436,17.6479110717773,17.6480808258057,17.6482448577881,17.6484146118164,17.6485805511475,17.6487464904785,17.6489086151123,17.6490745544434,17.6492404937744,17.6494045257568,17.6495704650879,17.6497383117676,17.64990234375,17.6500682830811,17.6502342224121,17.6503982543945,17.6505641937256,17.6507301330566,17.6508960723877,17.6510601043701,17.6512279510498,17.6513938903809,17.6515598297119,17.651725769043,17.6518898010254,17.6520557403564,17.6522197723389,17.6523857116699,17.6525535583496,17.652717590332,17.6528835296631,17.6530494689941,17.6532154083252,17.6533794403076,17.6535472869873,17.6537113189697,17.6538772583008,17.6540412902832,17.6542072296143,17.6543731689453,17.654541015625,17.6547069549561,17.6548709869385,17.6550369262695,17.6552028656006,17.655366897583,17.6555347442627,17.6557006835938,17.6558647155762,17.6560325622559,17.6561985015869,17.6563625335693,17.6565265655518,17.6566925048828,17.6568584442139,17.6570262908936,17.657190322876,17.657356262207,17.6575202941895,17.6576881408691,17.6578521728516,17.6580219268799,17.6581859588623,17.6583499908447,17.6585159301758,17.6586818695068,17.6588478088379,17.6590137481689,17.6591777801514,17.6593456268311,17.6595115661621,17.6596755981445,17.6598415374756,17.6600093841553,17.6601734161377,17.6603393554688,17.6605052947998,17.6606693267822,17.6608371734619,17.661003112793,17.661169052124,17.6613330841064,17.6615009307861,17.6616668701172,17.6618309020996,17.6619968414307,17.6621627807617,17.6623287200928,17.6624965667725,17.6626625061035,17.6628265380859,17.662992477417,17.663158416748,17.6633224487305,17.6634902954102,17.6636543273926,17.6638202667236,17.6639862060547,17.6641540527344,17.6643180847168,17.6644840240479,17.6646518707275,17.66481590271,17.664981842041,17.6651477813721,17.6653137207031,17.6654777526855,17.6656436920166,17.6658115386963,17.6659774780273,17.6661434173584,17.6663093566895,17.6664752960205,17.6666393280029,17.666805267334,17.6669731140137,17.6671371459961,17.6673049926758,17.6674709320068,17.6676368713379,17.6678009033203,17.66796875,17.6681327819824,17.6682987213135,17.6684646606445,17.6686325073242,17.6687965393066,17.6689643859863,17.6691303253174,17.6692943572998,17.6694622039795,17.6696281433105,17.669792175293,17.6699600219727,17.6701240539551,17.6702919006348,17.6704559326172,17.6706218719482,17.6707878112793,17.6709537506104,17.6711196899414,17.6712837219238,17.6714515686035,17.6716136932373,17.6717834472656,17.671947479248,17.6721115112305,17.6722774505615,17.6724433898926,17.6726093292236,17.6727771759033,17.6729412078857,17.6731071472168,17.6732711791992,17.6734390258789,17.67360496521,17.6737689971924,17.6739368438721,17.6740989685059,17.6742668151855,17.6744327545166,17.674596786499,17.6747646331787,17.6749286651611,17.6750965118408,17.6752605438232,17.6754245758057,17.675594329834,17.6757583618164,17.6759243011475,17.6760883331299,17.6762542724609,17.676420211792,17.6765880584717,17.6767501831055,17.6769180297852,17.6770820617676,17.6772499084473,17.6774158477783,17.6775817871094,17.6777458190918,17.6779136657715,17.6780796051025,17.6782455444336,17.678409576416,17.6785755157471,17.6787414550781,17.6789073944092,17.6790733337402,17.6792392730713,17.6794052124023,17.6795711517334,17.6797389984131,17.6799030303955,17.6800689697266,17.6802349090576,17.6804008483887,17.6805648803711,17.6807308197021,17.6808967590332,17.6810626983643,17.6812286376953,17.6813945770264,17.6815624237061,17.6817264556885,17.6818943023682,17.6820583343506,17.6822242736816,17.6823902130127,17.6825561523438,17.6827220916748,17.6828880310059,17.6830539703369,17.683219909668,17.683385848999,17.6835536956787,17.6837177276611,17.6838836669922,17.6840496063232,17.6842155456543,17.6843814849854,17.6845455169678,17.6847114562988,17.6848773956299,17.6850452423096,17.685209274292,17.685375213623,17.6855411529541,17.6857070922852,17.6858749389648,17.6860389709473,17.6862049102783,17.6863708496094,17.6865386962891,17.6867046356201,17.6868686676025,17.6870346069336,17.6872024536133,17.6873683929443,17.6875324249268,17.6876983642578,17.6878643035889,17.6880321502686,17.6881980895996,17.6883640289307,17.6885280609131,17.6886940002441,17.6888618469238,17.6890277862549,17.6891918182373,17.689359664917,17.689525604248,17.6896915435791
12.0298728942871,12.0902452468872,12.1512250900269,12.2128229141235,12.2750482559204,12.3379106521606,12.4014205932617,12.4655876159668,12.5304250717163,12.5959453582764,12.6621541976929,12.7290630340576,12.7966823577881,12.8650188446045,12.9340896606445,13.0039052963257,13.0744800567627,13.1458234786987,13.2179508209229,13.2908735275269,13.3646059036255,13.4391603469849,13.5145511627197,15.1247730255127,15.1502065658569,15.1757259368896,15.2109613418579,15.405930519104,15.4085416793823,15.411153793335,15.4137659072876,15.4334440231323,15.5165433883667,15.6005172729492,15.6854009628296,15.771203994751,15.8579502105713,15.9456558227539,16.0343341827393,16.1239986419678,16.2147006988525,17.4731559753418,17.4733142852783,17.4734783172607,17.4736404418945,17.4738006591797,17.4739646911621,17.4741230010986,17.4742870330811,17.4744510650635,17.4746131896973,17.4747734069824,17.4749412536621,17.4751014709473,17.4752655029297,17.4754257202148,17.4755859375,17.4757499694824,17.4759101867676,17.47607421875,17.4762382507324,17.4763927459717,17.4765644073486,17.4767227172852,17.4768829345703,17.4770469665527,17.4772090911865,17.4773769378662,17.4775314331055,17.4776973724365,17.4778614044189,17.4780197143555,17.4781818389893,17.4783477783203,17.4785060882568,17.4786720275879,17.4788360595703,17.4789962768555,17.4791622161865,17.479320526123,17.4794864654541,17.4796447753906,17.479808807373,17.4799747467041,17.4801330566406,17.4802932739258,17.4804592132568,17.480619430542,17.4807796478271,17.4809474945068,17.481107711792,17.4812717437744,17.4814319610596,17.4815979003906,17.4817562103271,17.4819221496582,17.4820823669434,17.4822463989258,17.4824066162109,17.4825744628906,17.4827308654785,17.4828948974609,17.4830589294434,17.4832172393799,17.4833793640137,17.4835453033447,17.4837074279785,17.4838714599609,17.4840335845947,17.4841918945312,17.4843559265137,17.4845199584961,17.4846820831299,17.4848442077637,17.4850063323975,17.4851741790771,17.4853324890137,17.4854946136475,17.4856567382812,17.4858226776123,17.4859790802002,17.4861469268799,17.486307144165,17.4864711761475,17.4866313934326,17.4867935180664,17.4869594573975,17.4871196746826,17.4872798919678,17.4874477386475,17.4876079559326,17.487771987915,17.4879322052002,17.4880924224854,17.488260269165,17.4884223937988,17.488582611084,17.4887447357178,17.4889087677002,17.4890727996826,17.4892330169678,17.4893932342529,17.4895610809326,17.4897212982178,17.4898834228516,17.4900493621826,17.4902038574219,17.4903755187988,17.4905338287354,17.4906940460205,17.4908618927002,17.491024017334,17.4911823272705,17.4913463592529,17.491512298584,17.4916725158691,17.4918365478516,17.4919967651367,17.4921627044678,17.4923229217529,17.4924869537354,17.4926471710205,17.4928112030029,17.4929733276367,17.4931354522705,17.4933013916016,17.4934616088867,17.4936237335205,17.4937877655029,17.4939498901367,17.4941139221191,17.4942760467529,17.4944362640381,17.4946002960205,17.4947624206543,17.4949264526367,17.4950885772705,17.4952526092529,17.4954147338867,17.4955768585205,17.4957408905029,17.4959030151367,17.4960651397705,17.4962272644043,17.4963912963867,17.4965515136719,17.4967174530029,17.4968795776367,17.4970417022705,17.4972038269043,17.4973678588867,17.4975299835205,17.4976921081543,17.4978542327881,17.4980182647705,17.4981803894043,17.4983425140381,17.4985065460205,17.4986667633057,17.4988307952881,17.4989948272705,17.4991569519043,17.4993190765381,17.4994812011719,17.4996433258057,17.4998054504395,17.4999694824219,17.5001335144043,17.5002956390381,17.5004596710205,17.5006198883057,17.5007839202881,17.5009479522705,17.5011081695557,17.5012722015381,17.5014343261719,17.5015983581543,17.5017604827881,17.5019245147705,17.5020866394043,17.5022487640381,17.5024127960205,17.5025730133057,17.5027370452881,17.5029010772705,17.5030612945557,17.5032272338867,17.5033912658691,17.5035514831543,17.5037155151367,17.5038757324219,17.5040416717529,17.5042037963867,17.5043640136719,17.5045261383057,17.5046901702881,17.5048542022705,17.5050163269043,17.5051803588867,17.5053424835205,17.5055046081543,17.5056686401367,17.5058307647705,17.5059928894043,17.5061569213867,17.5063171386719,17.5064830780029,17.5066471099854,17.5068073272705,17.5069694519043,17.5071334838867,17.5072975158691,17.5074596405029,17.5076217651367,17.5077857971191,17.5079479217529,17.5081119537354,17.5082740783691,17.5084381103516,17.508602142334,17.5087623596191,17.5089244842529,17.5090885162354,17.5092525482178,17.5094127655029,17.509578704834,17.5097427368164,17.5099029541016,17.510066986084,17.5102291107178,17.5103931427002,17.510555267334,17.5107173919678,17.5108795166016,17.511043548584,17.5112075805664,17.5113716125488,17.5115337371826,17.511697769165,17.5118598937988,17.5120220184326,17.5121841430664,17.5123462677002,17.5125102996826,17.5126705169678,17.5128345489502,17.5130004882812,17.513162612915,17.5133247375488,17.5134868621826,17.5136489868164,17.5138130187988,17.5139751434326,17.5141353607178,17.5142993927002,17.5144634246826,17.514627456665,17.5147876739502,17.5149517059326,17.5151138305664,17.5152759552002,17.5154399871826,17.515604019165,17.5157642364502,17.515926361084,17.5160884857178,17.5162544250488,17.516414642334,17.5165786743164,17.5167407989502,17.5169048309326,17.5170669555664,17.5172290802002,17.517391204834,17.5175552368164,17.5177173614502,17.5178813934326,17.5180435180664,17.5182056427002,17.5183696746826,17.5185317993164,17.5186939239502,17.5188579559326,17.5190181732178,17.5191841125488,17.5193462371826,17.5195064544678,17.5196704864502,17.519832611084,17.519998550415,17.5201606750488,17.5203227996826,17.520486831665,17.5206489562988,17.5208110809326,17.5209732055664,17.5211372375488,17.5212993621826,17.521463394165,17.5216274261475,17.5217876434326,17.521951675415,17.5221157073975,17.5222778320312,17.522439956665,17.5226020812988,17.5227661132812,17.5229301452637,17.5230922698975,17.5232543945312,17.523416519165,17.5235805511475,17.5237445831299,17.5239067077637,17.5240688323975,17.5242309570312,17.5243949890137,17.5245590209961,17.5247192382812,17.5248851776123,17.5250453948975,17.5252094268799,17.5253734588623,17.5255336761475,17.5256977081299,17.5258598327637,17.5260238647461,17.5261878967285,17.5263500213623,17.5265121459961,17.5266761779785,17.5268383026123,17.5270023345947,17.5271644592285,17.5273265838623,17.5274906158447,17.5276546478271,17.5278167724609,17.5279788970947,17.5281429290771,17.5283069610596,17.5284690856934,17.5286312103271,17.5287933349609,17.528959274292,17.5291194915771,17.5292835235596,17.5294456481934,17.5296096801758,17.5297718048096,17.529935836792,17.5300979614258,17.5302600860596
12.0294809341431,12.0898494720459,12.1508264541626,12.2124214172363,12.2746438980103,12.3375024795532,12.4010076522827,12.4651708602905,12.5300025939941,12.5955190658569,12.6617231369019,12.7286262512207,12.796236038208,12.8645677566528,12.9336338043213,13.0034446716309,13.074013710022,13.1453523635864,13.217474937439,13.2903919219971,13.3641185760498,13.4386682510376,13.5140542984009,15.3929433822632,15.3955497741699,15.398157119751,15.4007654190063,15.403374671936,15.40598487854,15.4085960388184,15.411208152771,15.4330520629883,15.5161485671997,15.6001176834106,15.6849946975708,15.7707929611206,15.8575344085693,15.9452352523804,16.0339050292969,16.1235637664795,16.214282989502,17.3175830841064,17.3177433013916,17.3179016113281,17.3180637359619,17.3182220458984,17.3183822631836,17.3185405731201,17.3187007904053,17.3188552856445,17.319019317627,17.3191776275635,17.3193340301514,17.3194961547852,17.3196563720703,17.3198165893555,17.3199768066406,17.3201332092285,17.3202953338623,17.3204517364502,17.3206119537354,17.3207721710205,17.320930480957,17.3210926055908,17.321252822876,17.3214073181152,17.3215713500977,17.3217315673828,17.3218860626221,17.3220500946045,17.3222045898438,17.3223686218262,17.3225269317627,17.3226852416992,17.3228492736816,17.3230037689209,17.3231639862061,17.3233261108398,17.3234806060791,17.3236446380615,17.3238048553467,17.3239593505859,17.3241233825684,17.3242816925049,17.3244380950928,17.3246040344238,17.3247623443604,17.3249206542969,17.3250789642334,17.3252353668213,17.3253974914551,17.3255596160889,17.3257141113281,17.3258781433105,17.3260383605957,17.3261966705322,17.3263568878174,17.3265113830566,17.3266735076904,17.3268337249756,17.3269920349121,17.3271522521973,17.3273124694824,17.3274765014648,17.3276290893555,17.3277893066406,17.327953338623,17.3281097412109,17.3282680511475,17.3284320831299,17.3285884857178,17.3287487030029,17.3289108276367,17.3290710449219,17.3292293548584,17.3293895721436,17.3295478820801,17.3297061920166,17.3298664093018,17.3300304412842,17.3301849365234,17.33034324646,17.330509185791,17.3306674957275,17.3308219909668,17.3309860229492,17.3311462402344,17.3313045501709,17.3314628601074,17.3316211700439,17.3317813873291,17.3319435119629,17.3321018218994,17.3322639465332,17.3324203491211,17.3325824737549,17.3327407836914,17.3329010009766,17.3330612182617,17.3332195281982,17.3333797454834,17.3335418701172,17.3337020874023,17.3338623046875,17.3340187072754,17.3341789245605,17.3343391418457,17.3344993591309,17.334659576416,17.3348197937012,17.3349761962891,17.3351402282715,17.3352966308594,17.3354549407959,17.3356151580811,17.3357753753662,17.3359375,17.3360958099365,17.3362560272217,17.3364143371582,17.3365745544434,17.3367328643799,17.336893081665,17.3370532989502,17.3372135162354,17.3373718261719,17.3375339508057,17.3376941680908,17.3378524780273,17.3380126953125,17.338171005249,17.3383312225342,17.3384914398193,17.3386516571045,17.338809967041,17.3389701843262,17.3391304016113,17.3392906188965,17.339448928833,17.3396110534668,17.3397693634033,17.3399295806885,17.340087890625,17.3402481079102,17.3404083251953,17.3405685424805,17.3407287597656,17.3408889770508,17.3410472869873,17.3412075042725,17.3413677215576,17.3415279388428,17.3416862487793,17.3418483734131,17.3420066833496,17.3421669006348,17.3423271179199,17.3424873352051,17.3426456451416,17.3428058624268,17.3429660797119,17.3431243896484,17.3432846069336,17.3434448242188,17.3436031341553,17.3437671661377,17.3439254760742,17.3440856933594,17.3442440032959,17.3444042205811,17.3445644378662,17.3447246551514,17.3448848724365,17.345043182373,17.3452053070068,17.3453674316406,17.3455238342285,17.3456840515137,17.3458442687988,17.346004486084,17.3461647033691,17.3463230133057,17.3464813232422,17.3466415405273,17.3468055725098,17.3469638824463,17.3471221923828,17.347282409668,17.3474426269531,17.3476028442383,17.3477630615234,17.3479232788086,17.3480815887451,17.3482418060303,17.3484039306641,17.3485641479492,17.3487243652344,17.3488826751709,17.3490428924561,17.3492012023926,17.3493633270264,17.3495235443115,17.349681854248,17.3498401641846,17.350004196167,17.3501644134521,17.3503227233887,17.3504829406738,17.350643157959,17.3508014678955,17.3509635925293,17.3511219024658,17.3512802124023,17.3514423370361,17.3516025543213,17.3517627716064,17.3519229888916,17.3520812988281,17.3522434234619,17.3524036407471,17.3525619506836,17.3527202606201,17.3528823852539,17.3530445098877,17.3532028198242,17.3533630371094,17.3535232543945,17.3536834716797,17.3538417816162,17.3540019989014,17.3541622161865,17.3543243408203,17.3544807434082,17.354642868042,17.3548030853271,17.3549633026123,17.3551235198975,17.3552837371826,17.3554439544678,17.3556022644043,17.3557624816895,17.3559265136719,17.3560829162598,17.3562450408936,17.3564033508301,17.3565635681152,17.3567237854004,17.3568820953369,17.3570423126221,17.3572025299072,17.3573627471924,17.3575229644775,17.3576812744141,17.3578414916992,17.3580017089844,17.3581619262695,17.3583221435547,17.3584804534912,17.358642578125,17.3588008880615,17.3589611053467,17.3591213226318,17.3592796325684,17.3594417572021,17.3596000671387,17.3597602844238,17.359920501709,17.3600788116455,17.3602409362793,17.3603992462158,17.360559463501,17.3607177734375,17.3608779907227,17.3610401153564,17.361198425293,17.3613586425781,17.3615188598633,17.3616790771484,17.3618392944336,17.3619976043701,17.3621578216553,17.3623180389404,17.3624782562256,17.3626365661621,17.3627986907959,17.3629589080811,17.3631191253662,17.3632774353027,17.3634376525879,17.363597869873,17.3637580871582,17.3639183044434,17.3640785217285,17.364236831665,17.3643970489502,17.3645572662354,17.3647174835205,17.364875793457,17.3650379180908,17.365198135376,17.3653583526611,17.3655166625977,17.3656768798828,17.365837097168,17.3659992218018,17.3661575317383,17.3663196563721,17.3664741516113,17.3666362762451,17.3667984008789,17.3669567108154,17.3671169281006,17.3672752380371,17.3674373626709,17.3675975799561,17.3677577972412,17.3679161071777,17.3680763244629,17.3682384490967,17.3683967590332,17.3685569763184,17.3687152862549,17.3688774108887,17.3690357208252,17.3691997528076,17.3693561553955,17.3695163726807,17.3696765899658,17.3698387145996,17.3699989318848,17.3701572418213,17.3703155517578,17.3704795837402,17.3706378936768,17.3707981109619,17.3709564208984,17.3711185455322,17.3712787628174,17.3714389801025,17.3715991973877,17.3717575073242,17.3719177246094,17.3720779418945,17.3722400665283,17.3723983764648,17.37255859375,17.3727188110352,17.3728809356689,17.3730373382568,17.3731994628906,17.3733596801758,17.3735218048096,17.3736801147461
12.0290899276733,12.0894536972046,12.150426864624,12.2120180130005,12.2742366790771,12.3370933532715,12.4005947113037,12.4647531509399,12.5295810699463,12.5950927734375,12.6612901687622,12.7281847000122,12.7957897186279,12.8641166687012,12.933177947998,13.002984046936,13.0735483169556,13.1448822021484,13.2169990539551,13.2899112701416,13.3636322021484,13.4381761550903,13.5135564804077,13.589786529541,15.3985023498535,15.4012641906738,15.4040269851685,15.4067907333374,15.409556388855,15.4123220443726,15.4150876998901,15.4326601028442,15.5157527923584,15.5997180938721,15.684588432312,15.7703819274902,15.8571186065674,15.9448118209839,16.0334739685059,16.1231269836426,16.2138652801514,17.1647644042969,17.1649131774902,17.1650772094727,17.1652297973633,17.1653861999512,17.1655445098877,17.1657009124756,17.1658535003662,17.1660118103027,17.1661682128906,17.1663303375244,17.1664867401123,17.1666393280029,17.1667976379395,17.1669521331787,17.1671085357666,17.1672649383545,17.167423248291,17.1675834655762,17.1677379608154,17.1678943634033,17.1680507659912,17.1682052612305,17.168363571167,17.1685180664062,17.1686782836914,17.1688346862793,17.1689891815186,17.1691436767578,17.169303894043,17.1694622039795,17.1696128845215,17.1697731018066,17.1699314117432,17.1700897216797,17.1702442169189,17.1704006195068,17.1705570220947,17.1707134246826,17.1708698272705,17.171028137207,17.1711826324463,17.1713428497314,17.1714992523193,17.1716537475586,17.1718120574951,17.171968460083,17.1721210479736,17.1722793579102,17.1724376678467,17.1725959777832,17.1727523803711,17.1729049682617,17.1730670928955,17.1732234954834,17.173376083374,17.1735363006592,17.1736927032471,17.173849105835,17.1740074157715,17.1741600036621,17.1743202209473,17.1744747161865,17.1746311187744,17.1747913360596,17.1749477386475,17.1751041412354,17.1752586364746,17.1754188537598,17.1755752563477,17.1757297515869,17.1758861541748,17.17604637146,17.176197052002,17.1763610839844,17.1765155792236,17.1766700744629,17.1768283843994,17.1769847869873,17.1771411895752,17.1772975921631,17.1774520874023,17.1776142120361,17.1777687072754,17.1779232025146,17.1780853271484,17.1782379150391,17.1783962249756,17.1785545349121,17.1787090301514,17.1788654327393,17.179027557373,17.179178237915,17.1793384552002,17.1794967651367,17.1796493530273,17.1798076629639,17.1799640655518,17.1801242828369,17.1802787780762,17.1804351806641,17.1805973052979,17.1807518005371,17.1809043884277,17.1810646057129,17.1812229156494,17.1813774108887,17.1815338134766,17.1816902160645,17.1818466186523,17.1820068359375,17.1821613311768,17.1823177337646,17.1824779510498,17.1826324462891,17.1827926635742,17.1829433441162,17.1831073760986,17.1832618713379,17.1834182739258,17.183572769165,17.1837310791016,17.1838893890381,17.184045791626,17.1842021942139,17.1843585968018,17.1845169067383,17.1846714019775,17.1848297119141,17.184986114502,17.1851425170898,17.1853008270264,17.1854572296143,17.1856136322021,17.1857719421387,17.1859302520752,17.1860847473145,17.1862449645996,17.1863994598389,17.1865577697754,17.1867141723633,17.1868686676025,17.1870288848877,17.1871852874756,17.1873416900635,17.1875,17.1876564025879,17.1878128051758,17.1879692077637,17.1881275177002,17.1882820129395,17.188440322876,17.1885986328125,17.1887550354004,17.1889114379883,17.1890697479248,17.1892261505127,17.1893825531006,17.1895408630371,17.1896953582764,17.1898536682129,17.1900100708008,17.1901683807373,17.1903247833252,17.1904830932617,17.1906394958496,17.1907978057861,17.1909523010254,17.1911087036133,17.1912670135498,17.1914253234863,17.1915798187256,17.1917400360107,17.1918964385986,17.1920528411865,17.192211151123,17.1923694610596,17.1925239562988,17.1926803588867,17.1928386688232,17.1929950714111,17.1931533813477,17.1933097839355,17.1934680938721,17.1936225891113,17.1937808990479,17.1939373016357,17.1940937042236,17.1942520141602,17.1944103240967,17.1945667266846,17.1947231292725,17.194881439209,17.1950378417969,17.1951942443848,17.1953525543213,17.1955108642578,17.1956653594971,17.1958236694336,17.1959800720215,17.1961364746094,17.1962966918945,17.1964511871338,17.1966094970703,17.1967658996582,17.1969242095947,17.1970806121826,17.1972370147705,17.197395324707,17.1975517272949,17.1977081298828,17.197868347168,17.1980247497559,17.1981811523438,17.1983375549316,17.1984958648682,17.1986541748047,17.1988086700439,17.1989669799805,17.1991214752197,17.1992816925049,17.1994400024414,17.1995964050293,17.1997528076172,17.1999111175537,17.2000675201416,17.2002239227295,17.200382232666,17.2005405426025,17.2006950378418,17.2008533477783,17.2010116577148,17.2011680603027,17.2013244628906,17.2014827728271,17.201639175415,17.2017974853516,17.2019557952881,17.2021102905273,17.2022666931152,17.2024269104004,17.2025852203369,17.2027416229248,17.2028999328613,17.2030563354492,17.2032127380371,17.2033710479736,17.2035274505615,17.2036838531494,17.2038402557373,17.2039966583252,17.2041549682617,17.2043113708496,17.2044696807861,17.2046279907227,17.2047824859619,17.2049407958984,17.2050971984863,17.2052536010742,17.2054119110107,17.2055683135986,17.2057247161865,17.205883026123,17.2060394287109,17.2061977386475,17.2063541412354,17.2065105438232,17.2066669464111,17.2068252563477,17.2069835662842,17.2071399688721,17.20729637146,17.2074527740479,17.2076110839844,17.2077674865723,17.2079238891602,17.208080291748,17.2082386016846,17.2083950042725,17.208553314209,17.2087097167969,17.2088661193848,17.2090244293213,17.2091808319092,17.2093391418457,17.2094955444336,17.2096519470215,17.209810256958,17.2099666595459,17.2101211547852,17.2102813720703,17.2104377746582,17.2105960845947,17.210750579834,17.2109088897705,17.2110652923584,17.2112236022949,17.2113819122314,17.2115383148193,17.2116928100586,17.2118511199951,17.212007522583,17.2121677398682,17.2123241424561,17.2124786376953,17.2126369476318,17.2127952575684,17.2129516601562,17.2131099700928,17.2132663726807,17.2134246826172,17.2135810852051,17.2137393951416,17.2138938903809,17.2140522003174,17.2142086029053,17.2143669128418,17.2145233154297,17.2146797180176,17.2148380279541,17.2149963378906,17.2151527404785,17.2153091430664,17.2154655456543,17.2156238555908,17.2157821655273,17.2159366607666,17.2160949707031,17.2162532806396,17.2164115905762,17.2165699005127,17.216724395752,17.2168827056885,17.217041015625,17.2171974182129,17.2173557281494,17.2175102233887,17.2176704406738,17.2178249359131,17.2179832458496,17.2181396484375,17.2182960510254,17.2184543609619,17.2186126708984,17.218770980835,17.2189273834229,17.2190837860107,17.2192420959473,17.2193984985352,17.2195568084717,17.2197151184082,17.2198696136475
