11.9608144760132,11.9609880447388,11.9611673355103,11.9613466262817,11.9615259170532,11.961706161499,11.9618854522705,11.9620656967163,11.9622459411621,11.9624261856079,11.9626054763794,11.9627828598022,11.9629602432251,11.9631376266479,11.9633178710938,11.9634981155396,11.9636793136597,11.9638595581055,11.9640369415283,11.9642152786255,11.9643964767456,11.9645738601685,11.9647550582886,11.9649333953857,11.9651117324829,11.965292930603,11.9654712677002,11.9656524658203,11.9658308029175,11.9660091400146,11.9661884307861,11.9663696289062,11.9665460586548,11.966724395752,11.9669036865234,11.9670858383179,11.9672651290894,11.9674444198608,11.9676237106323,11.9678030014038,11.9679822921753,11.9681615829468,11.9683380126953,11.9685182571411,11.9687004089355,11.9688806533813,11.9690599441528,11.9692373275757,11.9694175720215,11.9695978164673,11.9697780609131,11.9699554443359,11.9701356887817,11.9703130722046,11.9704961776733,11.9706745147705,11.9708547592163,11.9710321426392,11.9712104797363,11.9713878631592,11.9715719223022,11.9717502593994,11.9719285964966,11.9721097946167,11.9722909927368,11.972469329834,11.9726476669312,11.9728298187256,11.9730081558228,11.9731864929199,11.9733657836914,11.9735441207886,11.9737234115601,11.9739055633545,11.974084854126,11.9742641448975,11.9744434356689,11.9746227264404,11.9748048782349,11.9749841690063,11.9751605987549,11.9753370285034,11.9755229949951,11.9757032394409,11.9758796691895,11.9760599136353,11.9762401580811,11.9764204025269,11.9766006469727,11.9767780303955,11.9769582748413,11.9771385192871,11.97731590271,11.9774961471558,11.9776773452759,11.9778547286987,11.9780359268188,11.9782133102417,11.9783945083618,11.978572845459,11.9787540435791,11.9789381027222,11.9791164398193,11.9792976379395,11.9794731140137,11.9796514511108,11.9798336029053,11.9800119400024,11.9801902770996,11.980372428894,11.9805517196655,11.98073387146,11.9809122085571,11.9810914993286,11.981273651123,11.9814500808716,11.9816293716431,11.9818086624146,11.9819889068604,11.9821681976318,11.9823513031006,11.9825305938721,11.9827108383179,11.9828901290894,11.9830703735352,11.983250617981,11.9834280014038,11.9836082458496,11.9837856292725,11.9839658737183,11.984148979187,11.9843301773071,11.98450756073,11.9846878051758,11.9848661422729,11.9850473403931,11.9852275848389,11.985408782959,11.9855871200562,11.9857683181763,11.9859495162964,11.9861278533936,11.9863061904907,11.9864873886108,11.9866666793823,11.9868478775024,11.9870271682739,11.9872055053711,11.9873847961426,11.98756980896,11.9877490997314,11.9879245758057,11.9881067276001,11.9882860183716,11.9884653091431,11.9886484146118,11.9888277053833,11.9890041351318,11.9891901016235,11.989369392395,11.9895496368408,11.9897260665894,11.9899063110352,11.990086555481,11.9902667999268,11.9904470443726,11.9906244277954,11.9908075332642,11.99098777771,11.9911689758301,11.9913492202759,11.991530418396,11.9917106628418,11.991888999939,11.9920663833618,11.9922475814819,11.9924259185791,11.9926099777222,11.9927911758423,11.9929695129395,11.9931507110596,11.9933290481567,11.9935111999512,11.9936923980713,11.9938678741455,11.994047164917,11.9942321777344,11.9944114685059,11.9945936203003,11.9947719573975,11.9949512481689,11.9951305389404,11.9953098297119,11.9954929351807,11.9956722259521,11.9958515167236,11.9960346221924,11.9962139129639,11.9963903427124,11.9965705871582,11.996753692627,11.9969339370728,11.9971141815186,11.9972944259644,11.9974746704102,11.9976577758789,11.9978380203247,11.9980163574219,11.9981966018677,11.9983768463135,11.9985551834106,11.9987354278564,11.9989166259766,11.9990978240967,11.9992790222168,11.9994602203369,11.999641418457,11.9998197555542,12.0000009536743,12.0001792907715,12.0003576278687,12.0005397796631,12.0007219314575,12.0009002685547,12.0010824203491,12.0012645721436,12.0014429092407,12.0016222000122,12.0018043518066,12.0019836425781,12.0021629333496,12.0023422241211,12.0025215148926,12.0027017593384,12.0028877258301,12.0030670166016,12.0032472610474,12.0034265518188,12.0036067962646,12.0037870407104,12.0039672851562,12.0041475296021,12.0043315887451,12.0045127868652,12.004693031311,12.0048732757568,12.005054473877,12.0052375793457,12.0054159164429,12.0055961608887,12.0057754516602,12.0059566497803,12.0061378479004,12.0063171386719,12.0064973831177,12.0066785812378,12.0068616867065,12.0070400238037,12.0072202682495,12.0074014663696,12.0075817108154,12.0077610015869,12.007942199707,12.0081233978271,12.0083065032959,12.0084857940674,12.0086660385132,12.0088453292847,12.0090246200562,12.0092058181763,12.0093870162964,12.0095682144165,12.0097494125366,12.0099306106567,12.0101118087769,12.0102920532227,12.0104713439941,12.0106496810913,12.0108318328857,12.0110120773315,12.0111923217773,12.0113754272461,12.0115575790405,12.011736869812,12.0119171142578,12.0120992660522,12.0122776031494,12.0124578475952,12.0126371383667,12.0128211975098,12.0130014419556,12.0131826400757,12.0133638381958,12.0135431289673,12.0137252807617,12.0139045715332,12.014084815979,12.0142650604248,12.0144481658936,12.0146284103394,12.0148086547852,12.014988899231,12.0151710510254,12.0153522491455,12.0155324935913,12.0157108306885,12.0158939361572,12.016074180603,12.0162563323975,12.0164356231689,12.0166168212891,12.0167970657349,12.0169792175293,12.0171594619751,12.0173425674438,12.017520904541,12.0177011489868,12.0178833007812,12.0180635452271,12.0182447433472,12.0184259414673,12.0186080932617,12.0187864303589,12.0189685821533,12.0191497802734,12.0193309783936,12.019510269165,12.0196924209595,12.019871711731,12.0200548171997,12.0202341079712,12.0204172134399,12.0205984115601,12.0207786560059,12.020956993103,12.0211400985718,12.0213203430176,12.0215005874634,12.0216827392578,12.0218648910522,12.022045135498,12.0222263336182,12.0224084854126,12.0225887298584,12.0227680206299,12.0229473114014,12.0231304168701,12.0233116149902,12.0234937667847,12.0236749649048,12.0238571166992,12.0240364074707,12.0242176055908,12.0243968963623,12.0245780944824,12.0247602462769,12.024941444397,12.0251235961914,12.0253038406372,12.0254859924316,12.0256671905518,12.0258474349976,12.0260286331177,12.0262079238892,12.026388168335,12.0265731811523,12.0267534255981,12.0269346237183,12.0271148681641,12.0272960662842,12.0274772644043,12.0276575088501,12.0278377532959,12.028021812439,12.0282020568848,12.0283842086792,12.028564453125,12.0287446975708,12.0289268493652,12.0291080474854,12.0292882919312,12.0294723510742,12.0296516418457,12.0298328399658,12.0300140380859,12.0301952362061,12.0303764343262,12.0305576324463,12.0307397842407,12.0309219360352,12.0311050415039,12.031286239624,12.0314636230469,12.031644821167,12.0318250656128,12.0320072174072,12.032187461853,12.0323696136475,12.0325536727905,12.0327339172363,12.0329170227051,12.0330963134766,12.0332765579224,12.0334577560425,12.0336389541626,12.0338220596313,12.0340042114258,12.0341863632202,12.0343675613403,12.0345487594604
11.8876628875732,11.8878450393677,11.8880205154419,11.8881988525391,11.8883714675903,11.8885498046875,11.888726234436,11.8889017105103,11.8890781402588,11.889256477356,11.8894357681274,11.889612197876,11.8897886276245,11.889967918396,11.8901443481445,11.8903207778931,11.8904972076416,11.8906707763672,11.890851020813,11.8910245895386,11.8912048339844,11.8913841247559,11.8915586471558,11.8917360305786,11.8919124603271,11.89208984375,11.8922672271729,11.8924417495728,11.8926191329956,11.8928003311157,11.8929748535156,11.8931522369385,11.8933305740356,11.8935079574585,11.8936862945557,11.8938646316528,11.8940391540527,11.8942174911499,11.8943929672241,11.8945684432983,11.8947467803955,11.8949251174927,11.8951034545898,11.8952798843384,11.8954553604126,11.8956336975098,11.8958101272583,11.8959856033325,11.896167755127,11.8963441848755,11.896520614624,11.8966970443726,11.8968725204468,11.8970527648926,11.8972291946411,11.8974056243896,11.8975820541382,11.8977584838867,11.8979415893555,11.8981189727783,11.8982925415039,11.8984699249268,11.8986473083496,11.8988237380981,11.899001121521,11.8991785049438,11.8993530273438,11.8995342254639,11.8997116088867,11.8998889923096,11.9000673294067,11.9002447128296,11.9004230499268,11.9005975723267,11.9007720947266,11.9009504318237,11.9011287689209,11.9013071060181,11.9014854431152,11.9016637802124,11.9018392562866,11.9020185470581,11.9021968841553,11.9023723602295,11.902551651001,11.9027271270752,11.9029064178467,11.9030828475952,11.9032621383667,11.9034376144409,11.9036140441895,11.903790473938,11.9039669036865,11.904146194458,11.9043235778809,11.9045057296753,11.9046792984009,11.9048566818237,11.9050369262695,11.9052133560181,11.9053907394409,11.9055681228638,11.9057445526123,11.9059219360352,11.906099319458,11.9062805175781,11.906457901001,11.9066324234009,11.9068098068237,11.9069843292236,11.9071626663208,11.907341003418,11.9075183868408,11.907696723938,11.9078779220581,11.9080533981323,11.9082317352295,11.9084100723267,11.9085855484009,11.9087610244751,11.9089393615723,11.9091176986694,11.909294128418,11.9094724655151,11.9096517562866,11.9098272323608,11.9100103378296,11.9101858139038,11.9103622436523,11.9105386734009,11.9107179641724,11.9108915328979,11.9110708236694,11.9112510681152,11.9114274978638,11.9116039276123,11.9117841720581,11.9119606018066,11.9121379852295,11.9123153686523,11.9124956130981,11.912672996521,11.9128465652466,11.9130306243896,11.9132051467896,11.9133825302124,11.9135599136353,11.9137411117554,11.9139156341553,11.9140930175781,11.9142713546753,11.9144496917725,11.9146270751953,11.9148054122925,11.9149837493896,11.9151592254639,11.915340423584,11.9155158996582,11.9156913757324,11.9158735275269,11.9160490036011,11.9162244796753,11.9164066314697,11.9165859222412,11.9167652130127,11.916937828064,11.9171142578125,11.917293548584,11.9174728393555,11.917649269104,11.9178285598755,11.918007850647,11.9181852340698,11.9183616638184,11.9185419082642,11.9187183380127,11.9188957214355,11.9190721511841,11.9192523956299,11.9194269180298,11.9196071624756,11.9197874069214,11.9199647903442,11.9201421737671,11.9203195571899,11.9204978942871,11.9206781387329,11.9208526611328,11.92103099823,11.9212055206299,11.92138671875,11.9215650558472,11.9217433929443,11.9219217300415,11.9221000671387,11.9222784042358,11.9224538803101,11.9226360321045,11.9228115081787,11.9229869842529,11.9231691360474,11.9233446121216,11.9235239028931,11.9236993789673,11.9238786697388,11.9240579605103,11.9242343902588,11.9244136810303,11.9245901107788,11.9247732162476,11.9249496459961,11.9251260757446,11.9253034591675,11.925482749939,11.9256601333618,11.9258365631104,11.9260168075562,11.926194190979,11.9263715744019,11.9265546798706,11.9267320632935,11.9269094467163,11.9270839691162,11.927264213562,11.9274425506592,11.927619934082,11.9277982711792,11.9279756546021,11.9281568527222,11.9283351898193,11.9285135269165,11.9286918640137,11.9288702011108,11.9290447235107,11.9292240142822,11.9294023513794,11.9295806884766,11.9297561645508,11.9299383163452,11.9301176071167,11.9302959442139,11.9304723739624,11.9306516647339,11.9308271408081,11.9310111999512,11.9311895370483,11.9313669204712,11.9315452575684,11.9317235946655,11.9319009780884,11.9320793151855,11.9322576522827,11.9324378967285,11.9326162338257,11.9327936172485,11.9329719543457,11.9331502914429,11.9333276748657,11.9335069656372,11.9336843490601,11.9338645935059,11.9340419769287,11.9342193603516,11.9343976974487,11.9345769882202,11.9347562789917,11.9349346160889,11.9351119995117,11.9352931976318,11.935471534729,11.9356498718262,11.935827255249,11.9360036849976,11.9361820220947,11.9363603591919,11.9365396499634,11.9367198944092,11.9368982315063,11.9370775222778,11.9372549057007,11.9374313354492,11.9376087188721,11.9377880096436,11.9379653930664,11.9381446838379,11.9383249282837,11.9385042190552,11.9386825561523,11.9388608932495,11.9390382766724,11.9392166137695,11.939395904541,11.9395742416382,11.9397525787354,11.9399309158325,11.940110206604,11.9402885437012,11.9404678344727,11.9406461715698,11.9408226013184,11.9409999847412,11.9411792755127,11.9413604736328,11.9415378570557,11.9417171478271,11.9418973922729,11.9420738220215,11.9422521591187,11.9424314498901,11.942608833313,11.9427900314331,11.9429664611816,11.9431457519531,11.9433240890503,11.9435043334961,11.9436817169189,11.9438600540161,11.9440393447876,11.9442195892334,11.9443960189819,11.9445753097534,11.9447546005249,11.9449319839478,11.9451103210449,11.9452896118164,11.9454679489136,11.9456462860107,11.9458274841309,11.946005821228,11.9461822509766,11.9463605880737,11.9465408325195,11.9467182159424,11.9468984603882,11.9470767974854,11.9472560882568,11.9474363327026,11.9476156234741,11.9477910995483,11.9479703903198,11.9481496810913,11.9483280181885,11.94850730896,11.9486865997314,11.9488658905029,11.9490461349487,11.9492225646973,11.9494009017944,11.9495792388916,11.9497575759888,11.9499359130859,11.9501152038574,11.9502964019775,11.950475692749,11.9506540298462,11.9508333206177,11.9510116577148,11.9511880874634,11.9513673782349,11.9515466690063,11.9517278671265,11.9519052505493,11.9520845413208,11.952262878418,11.9524421691895,11.9526205062866,11.9528007507324,11.952977180481,11.9531583786011,11.9533376693726,11.953516960144,11.9536943435669,11.9538736343384,11.9540538787842,11.954231262207,11.9544115066528,11.9545879364014,11.9547681808472,11.9549474716187,11.9551267623901,11.9553060531616,11.9554843902588,11.9556617736816,11.9558420181274,11.9560213088989,11.956202507019,11.9563798904419,11.9565582275391,11.9567384719849,11.956916809082,11.9570951461792,11.957275390625,11.9574527740479,11.9576320648193,11.9578142166138,11.9579916000366,11.9581689834595,11.9583501815796,11.9585275650024,11.9587068557739,11.9588851928711,11.9590654373169,11.959246635437,11.9594249725342,11.95960521698,11.9597816467285,11.9599599838257,11.9601402282715,11.9603185653687,11.9604988098145
11.8154039382935,11.8155784606934,11.8157539367676,11.8159313201904,11.8161029815674,11.8162813186646,11.8164596557617,11.8166313171387,11.8168039321899,11.8169784545898,11.8171539306641,11.8173294067383,11.8175020217896,11.8176803588867,11.8178567886353,11.8180294036865,11.8182077407837,11.8183813095093,11.8185539245605,11.8187303543091,11.8189029693604,11.8190765380859,11.8192520141602,11.8194284439087,11.8196048736572,11.8197813034058,11.8199548721313,11.8201284408569,11.8203058242798,11.8204793930054,11.8206567764282,11.8208274841309,11.8210010528564,11.8211784362793,11.8213529586792,11.8215293884277,11.8217039108276,11.8218812942505,11.8220529556274,11.8222274780273,11.8224048614502,11.8225765228271,11.8227548599243,11.8229293823242,11.8231048583984,11.8232793807983,11.8234548568726,11.8236293792725,11.8238048553467,11.8239803314209,11.8241558074951,11.8243284225464,11.8245067596436,11.8246822357178,11.824854850769,11.8250274658203,11.8252067565918,11.8253793716431,11.8255558013916,11.8257322311401,11.8259048461914,11.8260841369629,11.8262577056885,11.826434135437,11.8266077041626,11.8267812728882,11.8269577026367,11.8271312713623,11.8273077011108,11.8274822235107,11.8276557922363,11.8278360366821,11.8280096054077,11.8281841278076,11.8283615112305,11.8285360336304,11.828709602356,11.8288841247559,11.8290586471558,11.8292331695557,11.8294115066528,11.8295860290527,11.8297605514526,11.8299388885498,11.8301105499268,11.8302888870239,11.8304643630981,11.8306360244751,11.8308115005493,11.8309869766235,11.8311653137207,11.831337928772,11.8315134048462,11.8316888809204,11.8318653106689,11.8320407867432,11.8322172164917,11.832389831543,11.8325653076172,11.8327417373657,11.8329153060913,11.8330917358398,11.8332681655884,11.8334445953369,11.8336181640625,11.833794593811,11.8339681625366,11.8341445922852,11.834321975708,11.8344955444336,11.8346729278564,11.834846496582,11.8350210189819,11.8351984024048,11.8353719711304,11.8355464935303,11.8357210159302,11.835898399353,11.8360757827759,11.8362512588501,11.83642578125,11.8366031646729,11.8367786407471,11.836950302124,11.8371248245239,11.8373003005981,11.8374757766724,11.8376512527466,11.8378295898438,11.838005065918,11.8381805419922,11.8383560180664,11.8385314941406,11.8387069702148,11.8388795852661,11.8390560150146,11.8392314910889,11.8394107818604,11.8395872116089,11.8397598266602,11.8399362564087,11.8401126861572,11.8402862548828,11.8404626846313,11.8406391143799,11.8408126831055,11.8409872055054,11.8411664962769,11.8413410186768,11.8415174484253,11.8416919708252,11.8418655395508,11.8420429229736,11.8422174453735,11.8423948287964,11.8425693511963,11.8427467346191,11.8429183959961,11.8430957794189,11.8432731628418,11.843448638916,11.8436231613159,11.8437976837158,11.84397315979,11.8441486358643,11.8443231582642,11.8445014953613,11.8446798324585,11.8448553085327,11.845027923584,11.8452033996582,11.8453788757324,11.845555305481,11.8457307815552,11.8459062576294,11.8460855484009,11.8462581634521,11.8464345932007,11.8466138839722,11.8467874526978,11.846960067749,11.8471364974976,11.8473100662231,11.8474903106689,11.8476638793945,11.8478403091431,11.8480176925659,11.8481941223145,11.8483715057373,11.8485450744629,11.8487195968628,11.8488960266113,11.8490705490112,11.8492450714111,11.8494253158569,11.8495998382568,11.8497743606567,11.8499517440796,11.8501272201538,11.8503017425537,11.8504762649536,11.8506546020508,11.8508291244507,11.851001739502,11.8511829376221,11.8513584136963,11.8515367507935,11.8517122268677,11.8518838882446,11.8520631790161,11.8522386550903,11.8524112701416,11.8525905609131,11.8527660369873,11.8529453277588,11.8531179428101,11.8532905578613,11.8534698486328,11.8536434173584,11.8538227081299,11.8539962768555,11.854172706604,11.8543491363525,11.8545293807983,11.8547029495239,11.8548793792725,11.855052947998,11.8552274703979,11.8554039001465,11.8555812835693,11.8557586669922,11.8559331893921,11.8561105728149,11.8562879562378,11.8564624786377,11.8566398620605,11.8568143844604,11.8569889068604,11.8571634292603,11.8573417663574,11.8575162887573,11.8576946258545,11.8578701019287,11.8580484390259,11.8582229614258,11.8584032058716,11.8585767745972,11.8587560653687,11.8589315414429,11.8591089248657,11.8592844009399,11.8594598770142,11.8596353530884,11.8598117828369,11.8599891662598,11.8601655960083,11.8603401184082,11.8605175018311,11.8606929779053,11.8608694076538,11.8610458374023,11.8612203598022,11.8613977432251,11.8615741729736,11.8617525100708,11.8619260787964,11.8621034622192,11.8622789382935,11.8624544143677,11.8626317977905,11.8628072738647,11.862982749939,11.8631601333618,11.863338470459,11.8635129928589,11.8636884689331,11.863862991333,11.8640413284302,11.8642177581787,11.8643922805786,11.8645706176758,11.8647489547729,11.8649244308472,11.8651008605957,11.8652744293213,11.8654499053955,11.8656282424927,11.8658037185669,11.8659791946411,11.8661584854126,11.8663339614868,11.8665113449097,11.8666877746582,11.8668632507324,11.8670377731323,11.8672142028809,11.8673887252808,11.8675699234009,11.8677463531494,11.8679218292236,11.8680982589722,11.8682746887207,11.8684501647949,11.8686246871948,11.868800163269,11.8689794540405,11.8691558837891,11.8693332672119,11.8695087432861,11.869686126709,11.8698616027832,11.8700380325317,11.870213508606,11.8703880310059,11.8705673217773,11.8707437515259,11.8709201812744,11.8710966110229,11.8712730407715,11.87144947052,11.8716259002686,11.8718032836914,11.8719797134399,11.8721551895142,11.8723316192627,11.8725090026855,11.8726844787598,11.8728618621826,11.8730373382568,11.8732147216797,11.8733901977539,11.8735694885254,11.8737440109253,11.8739213943481,11.8740978240967,11.8742742538452,11.8744506835938,11.8746271133423,11.8748035430908,11.874981880188,11.8751583099365,11.8753347396851,11.8755102157593,11.8756875991821,11.8758640289307,11.8760395050049,11.8762168884277,11.8763942718506,11.8765716552734,11.8767471313477,11.8769245147705,11.877100944519,11.8772764205933,11.8774518966675,11.8776292800903,11.8778057098389,11.8779850006104,11.8781614303589,11.8783397674561,11.878514289856,11.8786916732788,11.8788661956787,11.8790435791016,11.8792190551758,11.8793973922729,11.8795747756958,11.8797521591187,11.8799285888672,11.8801050186157,11.8802824020386,11.8804569244385,11.8806324005127,11.8808116912842,11.8809900283813,11.8811655044556,11.8813419342041,11.8815183639526,11.8816967010498,11.8818731307983,11.8820486068726,11.8822250366211,11.8824024200439,11.8825788497925,11.8827571868896,11.8829345703125,11.8831100463867,11.8832874298096,11.8834648132324,11.8836402893066,11.8838195800781,11.883994102478,11.8841714859009,11.884349822998,11.8845243453979,11.8847017288208,11.8848781585693,11.8850545883179,11.885232925415,11.8854112625122,11.8855867385864,11.885763168335,11.8859395980835,11.8861150741577,11.8862943649292,11.8864707946777,11.8866472244263,11.8868274688721,11.8870029449463,11.8871803283691,11.887354850769
11.7440214157104,11.7441959381104,11.744366645813,11.7445411682129,11.7447128295898,11.7448873519897,11.7450580596924,11.7452297210693,11.7454042434692,11.7455797195435,11.7457513809204,11.7459230422974,11.7460947036743,11.7462663650513,11.7464389801025,11.7466144561768,11.7467861175537,11.746958732605,11.7471342086792,11.7473068237305,11.7474784851074,11.7476511001587,11.7478246688843,11.7479972839355,11.7481698989868,11.7483396530151,11.7485122680664,11.7486886978149,11.7488613128662,11.7490348815918,11.7492084503174,11.7493782043457,11.7495517730713,11.7497253417969,11.7498989105225,11.7500696182251,11.7502403259277,11.7504167556763,11.7505912780762,11.7507648468018,11.7509365081787,11.7511072158813,11.7512845993042,11.7514553070068,11.7516269683838,11.7517986297607,11.7519760131836,11.7521476745605,11.7523193359375,11.7524909973145,11.7526655197144,11.7528371810913,11.7530088424683,11.7531843185425,11.7533559799194,11.7535285949707,11.7537069320679,11.7538795471191,11.7540483474731,11.7542238235474,11.7543964385986,11.754566192627,11.7547416687012,11.7549142837524,11.7550868988037,11.7552633285522,11.7554359436035,11.7556095123291,11.7557821273804,11.755952835083,11.7561254501343,11.7562990188599,11.7564725875854,11.7566432952881,11.7568168640137,11.7569932937622,11.7571640014648,11.7573413848877,11.7575120925903,11.7576856613159,11.7578563690186,11.7580280303955,11.7582015991211,11.758373260498,11.7585506439209,11.7587223052979,11.7588968276978,11.7590684890747,11.7592430114746,11.7594146728516,11.7595891952515,11.7597608566284,11.7599334716797,11.7601051330566,11.7602834701538,11.7604551315308,11.760627746582,11.7608032226562,11.7609758377075,11.7611474990845,11.7613201141357,11.7614965438843,11.7616653442383,11.7618417739868,11.7620143890381,11.7621870040894,11.7623605728149,11.7625331878662,11.7627067565918,11.7628793716431,11.7630529403687,11.7632265090942,11.7634000778198,11.7635765075684,11.7637500762939,11.7639207839966,11.7640943527222,11.7642679214478,11.7644395828247,11.7646131515503,11.7647838592529,11.7649583816528,11.7651357650757,11.7653102874756,11.7654809951782,11.7656555175781,11.7658271789551,11.765998840332,11.7661733627319,11.7663478851318,11.7665166854858,11.7666921615601,11.7668695449829,11.7670421600342,11.7672138214111,11.7673892974854,11.7675619125366,11.7677373886108,11.7679061889648,11.7680788040161,11.7682542800903,11.7684297561646,11.7686023712158,11.7687759399414,11.7689485549927,11.7691240310669,11.7692975997925,11.7694673538208,11.7696437835693,11.7698135375977,11.7699871063232,11.7701635360718,11.7703371047974,11.7705106735229,11.7706842422485,11.7708578109741,11.7710313796997,11.7712059020996,11.7713794708252,11.7715501785278,11.7717275619507,11.7718992233276,11.7720727920532,11.7722473144531,11.772421836853,11.77259349823,11.7727651596069,11.7729396820068,11.7731142044067,11.7732858657837,11.7734642028809,11.7736358642578,11.7738075256348,11.773983001709,11.7741546630859,11.7743301391602,11.7745027542114,11.7746782302856,11.7748498916626,11.7750253677368,11.7752017974854,11.7753744125366,11.7755470275879,11.7757196426392,11.7758922576904,11.776065826416,11.7762384414673,11.7764120101929,11.7765874862671,11.7767610549927,11.7769374847412,11.7771110534668,11.7772846221924,11.777458190918,11.7776288986206,11.7778024673462,11.7779760360718,11.7781467437744,11.7783241271973,11.7784986495972,11.7786722183228,11.7788467407227,11.7790212631226,11.7791948318481,11.7793664932251,11.779541015625,11.7797155380249,11.7798871994019,11.780065536499,11.780237197876,11.7804117202759,11.7805833816528,11.7807588577271,11.780930519104,11.7811031341553,11.7812786102295,11.7814531326294,11.7816286087036,11.7817983627319,11.7819738388062,11.7821493148804,11.7823219299316,11.7824954986572,11.7826681137085,11.7828407287598,11.7830171585083,11.7831926345825,11.7833662033081,11.7835397720337,11.7837162017822,11.7838859558105,11.7840595245361,11.7842330932617,11.7844095230103,11.7845802307129,11.7847537994385,11.7849340438843,11.7851047515869,11.7852792739868,11.7854566574097,11.7856273651123,11.7857980728149,11.7859725952148,11.7861471176147,11.7863216400146,11.7864961624146,11.7866706848145,11.7868490219116,11.7870216369629,11.7871932983398,11.7873687744141,11.787543296814,11.7877187728882,11.7878923416138,11.7880659103394,11.7882394790649,11.7884140014648,11.7885875701904,11.7887630462646,11.7889356613159,11.7891111373901,11.7892837524414,11.7894582748413,11.7896318435669,11.7898063659668,11.7899808883667,11.790153503418,11.7903280258179,11.7905044555664,11.790678024292,11.7908496856689,11.7910251617432,11.7911987304688,11.7913732528687,11.7915458679199,11.7917213439941,11.7918968200684,11.7920722961426,11.7922430038452,11.7924184799194,11.7925910949707,11.7927675247192,11.7929401397705,11.7931146621704,11.7932901382446,11.7934637069702,11.7936382293701,11.79381275177,11.7939863204956,11.7941598892212,11.7943344116211,11.7945079803467,11.7946815490723,11.7948589324951,11.7950325012207,11.7952079772949,11.7953796386719,11.7955522537231,11.7957277297974,11.7959003448486,11.7960748672485,11.7962522506714,11.7964267730713,11.7966012954712,11.7967739105225,11.7969484329224,11.7971229553223,11.7972946166992,11.7974700927734,11.7976446151733,11.7978210449219,11.7979946136475,11.798168182373,11.7983436584473,11.7985172271729,11.7986917495728,11.798867225647,11.7990388870239,11.7992153167725,11.799388885498,11.7995653152466,11.7997379302979,11.7999124526978,11.8000869750977,11.8002614974976,11.8004360198975,11.8006105422974,11.8007841110229,11.8009567260742,11.8011331558228,11.8013067245483,11.8014822006226,11.8016557693481,11.8018293380737,11.8020076751709,11.8021812438965,11.8023538589478,11.8025283813477,11.8027019500732,11.8028764724731,11.8030519485474,11.8032264709473,11.8034009933472,11.8035774230957,11.8037519454956,11.8039236068726,11.8040981292725,11.804271697998,11.8044462203979,11.8046226501465,11.8047962188721,11.8049726486206,11.8051462173462,11.8053216934204,11.805495262146,11.8056678771973,11.8058433532715,11.8060178756714,11.806191444397,11.8063659667969,11.8065433502197,11.8067178726196,11.8068923950195,11.8070669174194,11.8072414398193,11.8074131011963,11.8075876235962,11.8077621459961,11.8079385757446,11.8081140518188,11.8082885742188,11.8084621429443,11.8086376190186,11.8088111877441,11.808985710144,11.8091592788696,11.8093366622925,11.8095102310181,11.8096866607666,11.8098602294922,11.8100347518921,11.810209274292,11.8103847503662,11.8105592727661,11.8107328414917,11.8109073638916,11.8110818862915,11.8112573623657,11.8114318847656,11.8116073608398,11.8117818832397,11.811957359314,11.8121309280396,11.8123083114624,11.8124799728394,11.8126554489136,11.8128299713135,11.8130054473877,11.8131799697876,11.8133554458618,11.8135280609131,11.8137054443359,11.8138799667358,11.8140535354614,11.81422996521,11.8144025802612,11.8145780563354,11.8147525787354,11.8149271011353,11.8151025772095
11.6734943389893,11.6736650466919,11.6738357543945,11.6740102767944,11.6741743087769,11.6743459701538,11.6745166778564,11.6746873855591,11.674859046936,11.675030708313,11.6752014160156,11.6753730773926,11.6755447387695,11.6757164001465,11.6758880615234,11.6760540008545,11.6762256622314,11.6763944625854,11.6765661239624,11.6767349243164,11.6769075393677,11.6770801544189,11.6772518157959,11.6774215698242,11.6775941848755,11.6777629852295,11.6779356002808,11.6781024932861,11.6782751083374,11.6784448623657,11.678614616394,11.6787872314453,11.6789579391479,11.6791305541992,11.6793012619019,11.6794710159302,11.6796417236328,11.6798114776611,11.6799821853638,11.6801528930664,11.680323600769,11.6804971694946,11.6806678771973,11.6808385848999,11.6810092926025,11.6811809539795,11.6813516616821,11.6815223693848,11.6816911697388,11.6818618774414,11.6820363998413,11.6822080612183,11.6823759078979,11.6825475692749,11.6827163696289,11.6828880310059,11.6830596923828,11.6832323074341,11.683403968811,11.683572769165,11.6837453842163,11.6839141845703,11.6840829849243,11.6842584609985,11.6844282150269,11.6845970153809,11.6847696304321,11.6849393844604,11.6851119995117,11.6852855682373,11.6854553222656,11.6856250762939,11.6857976913452,11.6859674453735,11.6861381530762,11.6863079071045,11.6864814758301,11.6866521835327,11.686821937561,11.6869926452637,11.6871662139893,11.6873369216919,11.6875076293945,11.6876783370972,11.6878490447998,11.6880168914795,11.6881885528564,11.688362121582,11.688533782959,11.6887044906616,11.6888761520386,11.6890478134155,11.6892156600952,11.6893911361694,11.6895589828491,11.6897306442261,11.6898994445801,11.690071105957,11.6902465820312,11.6904153823853,11.6905879974365,11.6907596588135,11.6909284591675,11.6910982131958,11.6912708282471,11.6914434432983,11.6916160583496,11.6917848587036,11.6919574737549,11.6921272277832,11.6922969818115,11.6924705505371,11.6926403045654,11.6928129196167,11.6929836273193,11.6931562423706,11.6933269500732,11.6935005187988,11.6936702728271,11.6938409805298,11.6940116882324,11.6941795349121,11.6943531036377,11.6945238113403,11.694694519043,11.6948652267456,11.6950397491455,11.6952133178711,11.6953821182251,11.6955556869507,11.6957216262817,11.6958961486816,11.6960639953613,11.6962385177612,11.6964073181152,11.6965818405151,11.6967535018921,11.6969261169434,11.6970977783203,11.6972665786743,11.6974382400513,11.6976079940796,11.6977796554565,11.6979522705078,11.6981210708618,11.6982975006104,11.6984663009644,11.6986389160156,11.6988086700439,11.6989784240723,11.6991510391235,11.6993246078491,11.6994943618774,11.6996641159058,11.699836730957,11.7000074386597,11.7001810073853,11.7003536224365,11.7005214691162,11.7006950378418,11.7008657455444,11.7010364532471,11.7012100219727,11.7013807296753,11.7015542984009,11.7017221450806,11.7018928527832,11.7020673751831,11.7022352218628,11.7024097442627,11.7025814056396,11.7027521133423,11.7029209136963,11.7030954360962,11.7032699584961,11.703441619873,11.7036104202271,11.7037792205811,11.703950881958,11.7041234970093,11.7042951583862,11.7044668197632,11.7046365737915,11.7048120498657,11.7049837112427,11.7051563262939,11.7053289413452,11.7054986953735,11.7056684494019,11.7058382034302,11.7060108184814,11.7061834335327,11.7063570022583,11.7065296173096,11.7066993713379,11.7068700790405,11.7070436477661,11.7072134017944,11.70738697052,11.7075538635254,11.707727432251,11.7078981399536,11.7080726623535,11.7082462310791,11.7084169387817,11.7085876464844,11.7087621688843,11.7089328765869,11.7091007232666,11.7092723846436,11.7094430923462,11.7096176147461,11.709789276123,11.7099609375,11.710132598877,11.7103042602539,11.7104759216309,11.7106475830078,11.7108192443848,11.710991859436,11.711163520813,11.7113361358643,11.7115049362183,11.7116775512695,11.7118492126465,11.7120218276978,11.712194442749,11.7123670578003,11.7125368118286,11.7127094268799,11.7128820419312,11.7130546569824,11.713228225708,11.7133951187134,11.7135677337646,11.7137384414673,11.7139110565186,11.7140817642212,11.7142553329468,11.7144289016724,11.7146024703979,11.7147731781006,11.7149438858032,11.7151174545288,11.7152881622314,11.7154560089111,11.715630531311,11.7158012390137,11.7159719467163,11.7161512374878,11.7163238525391,11.7164936065674,11.716667175293,11.7168369293213,11.7170095443726,11.7171831130981,11.7173547744751,11.7175264358521,11.7176990509033,11.7178707122803,11.7180423736572,11.7182130813599,11.7183856964111,11.7185592651367,11.718731880188,11.7189025878906,11.7190752029419,11.7192459106445,11.7194185256958,11.7195901870728,11.719762802124,11.7199373245239,11.7201051712036,11.7202787399292,11.7204504013062,11.7206220626831,11.7207937240601,11.7209672927856,11.7211389541626,11.7213096618652,11.7214841842651,11.7216567993164,11.7218255996704,11.721999168396,11.7221708297729,11.7223424911499,11.7225151062012,11.7226867675781,11.7228603363037,11.723032951355,11.7232046127319,11.7233772277832,11.7235469818115,11.7237186431885,11.7238922119141,11.724063873291,11.724235534668,11.7244091033936,11.7245826721191,11.7247543334961,11.724925994873,11.7250967025757,11.7252674102783,11.7254409790039,11.7256126403809,11.7257881164551,11.7259588241577,11.726131439209,11.7263021469116,11.7264747619629,11.7266464233398,11.7268180847168,11.7269897460938,11.727165222168,11.7273359298706,11.7275085449219,11.7276802062988,11.7278537750244,11.7280254364014,11.7281980514526,11.728367805481,11.7285404205322,11.7287139892578,11.7288866043091,11.7290592193604,11.7292308807373,11.7294034957886,11.7295751571655,11.7297487258911,11.7299203872681,11.7300930023193,11.7302656173706,11.7304372787476,11.7306089401245,11.7307825088501,11.7309541702271,11.7311267852783,11.7312984466553,11.7314720153809,11.7316455841064,11.7318162918091,11.7319869995117,11.7321605682373,11.7323331832886,11.7325038909912,11.7326774597168,11.7328500747681,11.733024597168,11.7331972122192,11.7333669662476,11.7335395812988,11.7337112426758,11.7338838577271,11.7340574264526,11.7342290878296,11.7344036102295,11.7345771789551,11.734748840332,11.734920501709,11.7350921630859,11.7352647781372,11.7354354858398,11.7356071472168,11.7357816696167,11.7359552383423,11.7361278533936,11.7363004684448,11.7364730834961,11.7366456985474,11.73681640625,11.736988067627,11.7371606826782,11.7373352050781,11.7375068664551,11.7376804351807,11.7378530502319,11.7380256652832,11.7381973266602,11.7383670806885,11.7385406494141,11.7387161254883,11.7388887405396,11.7390604019165,11.7392330169678,11.739405632019,11.739577293396,11.7397499084473,11.7399225234985,11.7400941848755,11.7402687072754,11.740442276001,11.7406139373779,11.7407875061035,11.7409582138062,11.7411317825317,11.7413034439087,11.7414770126343,11.7416505813599,11.7418222427368,11.7419939041138,11.7421674728394,11.7423400878906,11.7425117492676,11.7426843643188,11.7428569793701,11.7430324554443,11.7432050704956,11.7433757781982,11.7435493469238,11.7437219619751
11.6038122177124,11.6039772033691,11.6041479110718,11.6043148040771,11.6044826507568,11.6046533584595,11.6048212051392,11.6049928665161,11.6051607131958,11.6053256988525,11.6054964065552,11.6056652069092,11.6058330535889,11.6060018539429,11.6061697006226,11.6063385009766,11.6065101623535,11.6066789627075,11.6068506240845,11.6070137023926,11.6071825027466,11.6073513031006,11.6075201034546,11.6076889038086,11.6078586578369,11.608024597168,11.6081972122192,11.6083669662476,11.6085357666016,11.6087055206299,11.6088724136353,11.6090383529663,11.6092090606689,11.6093788146973,11.6095457077026,11.609715461731,11.6098852157593,11.6100521087646,11.6102228164673,11.6103935241699,11.6105604171753,11.6107311248779,11.6108951568604,11.611065864563,11.6112337112427,11.6114044189453,11.6115751266479,11.6117429733276,11.6119108200073,11.6120824813843,11.612250328064,11.6124181747437,11.6125860214233,11.6127548217773,11.6129264831543,11.613094329834,11.613263130188,11.613431930542,11.613600730896,11.61376953125,11.613938331604,11.614107131958,11.614275932312,11.614447593689,11.6146144866943,11.6147832870483,11.6149492263794,11.6151189804077,11.615288734436,11.61545753479,11.6156244277954,11.6157970428467,11.615966796875,11.6161365509033,11.6163063049316,11.616473197937,11.6166400909424,11.616810798645,11.6169776916504,11.6171474456787,11.6173181533813,11.6174850463867,11.6176557540894,11.617826461792,11.6179943084717,11.6181612014771,11.618332862854,11.6185035705566,11.6186685562134,11.6188364028931,11.6190071105957,11.6191787719727,11.6193466186523,11.619517326355,11.619686126709,11.619854927063,11.6200227737427,11.6201915740967,11.6203603744507,11.6205291748047,11.6206979751587,11.6208696365356,11.6210384368896,11.6212072372437,11.6213760375977,11.621545791626,11.62171459198,11.6218814849854,11.6220531463623,11.6222229003906,11.622389793396,11.6225624084473,11.6227283477783,11.6228981018066,11.623067855835,11.6232385635376,11.623405456543,11.6235752105713,11.6237449645996,11.6239128112793,11.6240854263306,11.6242532730103,11.6244201660156,11.6245908737183,11.6247587203979,11.6249294281006,11.6251001358032,11.6252670288086,11.6254348754883,11.6256065368652,11.6257772445679,11.6259479522705,11.6261167526245,11.6262845993042,11.6264524459839,11.6266212463379,11.6267900466919,11.6269578933716,11.6271295547485,11.6273012161255,11.6274700164795,11.6276388168335,11.6278076171875,11.6279764175415,11.6281461715698,11.6283149719238,11.6284809112549,11.6286535263062,11.6288194656372,11.6289949417114,11.6291618347168,11.6293306350708,11.6295003890991,11.6296701431274,11.6298398971558,11.6300096511841,11.6301765441895,11.6303472518921,11.6305198669434,11.6306867599487,11.6308574676514,11.6310243606567,11.6311950683594,11.6313619613647,11.6315326690674,11.63170337677,11.6318712234497,11.6320419311523,11.632212638855,11.6323804855347,11.6325483322144,11.632719039917,11.6328907012939,11.6330585479736,11.6332263946533,11.6333980560303,11.6335668563843,11.6337375640869,11.6339063644409,11.6340780258179,11.6342468261719,11.6344127655029,11.6345844268799,11.6347532272339,11.6349220275879,11.6350908279419,11.6352634429932,11.6354360580444,11.6356019973755,11.6357746124268,11.6359434127808,11.6361074447632,11.6362800598145,11.6364498138428,11.6366157531738,11.6367855072021,11.6369590759277,11.6371288299561,11.6372985839844,11.637469291687,11.6376390457153,11.637809753418,11.6379766464233,11.6381435394287,11.6383142471313,11.638484954834,11.6386556625366,11.6388235092163,11.6389942169189,11.6391649246216,11.6393327713013,11.6395034790039,11.6396713256836,11.6398429870605,11.6400108337402,11.6401824951172,11.6403503417969,11.6405220031738,11.6406908035278,11.6408596038818,11.6410312652588,11.6412000656128,11.6413679122925,11.6415405273438,11.6417093276978,11.6418809890747,11.642050743103,11.6422166824341,11.6423854827881,11.6425580978394,11.6427278518677,11.6428966522217,11.64306640625,11.6432361602783,11.6434087753296,11.6435785293579,11.6437482833862,11.6439151763916,11.6440849304199,11.6442556381226,11.6444253921509,11.6445951461792,11.6447629928589,11.6449327468872,11.6451034545898,11.6452741622925,11.6454448699951,11.6456155776978,11.6457834243774,11.6459503173828,11.6461267471313,11.646297454834,11.6464672088623,11.6466360092163,11.6468057632446,11.6469755172729,11.6471452713013,11.6473140716553,11.6474838256836,11.6476573944092,11.6478271484375,11.6479959487915,11.6481657028198,11.6483364105225,11.6485071182251,11.6486759185791,11.6488447189331,11.6490154266357,11.6491842269897,11.6493558883667,11.6495246887207,11.6496953964233,11.6498651504517,11.6500368118286,11.6502046585083,11.6503772735596,11.6505451202393,11.6507158279419,11.6508855819702,11.6510553359985,11.6512241363525,11.6513938903809,11.6515645980835,11.6517343521118,11.6519079208374,11.6520767211914,11.6522445678711,11.6524152755737,11.6525859832764,11.6527547836304,11.6529245376587,11.6530952453613,11.6532678604126,11.6534376144409,11.6536073684692,11.6537752151489,11.6539449691772,11.6541166305542,11.6542844772339,11.6544551849365,11.6546277999878,11.6547985076904,11.6549673080444,11.6551370620728,11.6553087234497,11.6554746627808,11.6556453704834,11.655816078186,11.65598487854,11.6561594009399,11.6563301086426,11.6564979553223,11.6566686630249,11.6568403244019,11.6570081710815,11.6571779251099,11.6573486328125,11.6575183868408,11.6576900482178,11.6578588485718,11.6580305099487,11.6582002639771,11.6583709716797,11.658540725708,11.6587085723877,11.658878326416,11.6590528488159,11.6592216491699,11.6593923568726,11.6595611572266,11.6597318649292,11.6599035263062,11.6600723266602,11.6602439880371,11.6604127883911,11.6605844497681,11.6607542037964,11.6609239578247,11.661093711853,11.66126537323,11.661434173584,11.6616058349609,11.6617774963379,11.6619472503662,11.6621160507202,11.6622867584229,11.6624555587769,11.6626281738281,11.6627969741821,11.6629676818848,11.6631374359131,11.6633110046387,11.663480758667,11.6636486053467,11.6638193130493,11.6639890670776,11.6641607284546,11.6643304824829,11.6645021438599,11.6646738052368,11.6648435592651,11.6650152206421,11.6651840209961,11.6653537750244,11.6655225753784,11.6656932830811,11.6658639907837,11.6660356521606,11.6662063598633,11.6663770675659,11.6665477752686,11.6667184829712,11.6668872833252,11.6670560836792,11.6672286987305,11.6673984527588,11.6675701141357,11.6677408218384,11.667911529541,11.6680812835693,11.6682510375977,11.6684226989746,11.6685914993286,11.6687612533569,11.6689348220825,11.6691055297852,11.6692743301392,11.6694450378418,11.6696166992188,11.6697864532471,11.6699571609497,11.670126914978,11.6702976226807,11.6704702377319,11.6706399917603,11.6708087921143,11.6709823608398,11.6711521148682,11.6713218688965,11.6714916229248,11.6716613769531,11.6718349456787,11.672004699707,11.6721754074097,11.672345161438,11.6725158691406,11.6726846694946,11.6728572845459,11.6730279922485,11.6731996536255
11.534948348999,11.5351190567017,11.5352830886841,11.5354509353638,11.5356187820435,11.5357837677002,11.5359516143799,11.5361194610596,11.5362844467163,11.536452293396,11.5366201400757,11.5367851257324,11.5369510650635,11.5371189117432,11.5372877120972,11.537449836731,11.537618637085,11.537787437439,11.5379495620728,11.5381183624268,11.5382871627808,11.5384559631348,11.5386190414429,11.5387849807739,11.5389518737793,11.5391206741333,11.5392837524414,11.5394506454468,11.5396194458008,11.5397891998291,11.5399560928345,11.5401191711426,11.5402889251709,11.5404558181763,11.5406198501587,11.5407867431641,11.5409507751465,11.5411176681519,11.5412845611572,11.5414552688599,11.5416221618652,11.5417900085449,11.5419540405273,11.542121887207,11.5422897338867,11.5424575805664,11.5426216125488,11.5427894592285,11.5429573059082,11.5431251525879,11.5432901382446,11.5434560775757,11.5436239242554,11.5437917709351,11.5439577102661,11.5441255569458,11.5442914962769,11.5444564819336,11.5446252822876,11.5447940826416,11.5449600219727,11.5451288223267,11.5452947616577,11.5454607009888,11.5456266403198,11.5457925796509,11.5459585189819,11.5461282730103,11.5462970733643,11.5464611053467,11.5466270446777,11.5467939376831,11.5469636917114,11.5471305847168,11.5472965240479,11.5474634170532,11.5476303100586,11.5477981567383,11.5479650497437,11.548131942749,11.5482959747314,11.5484666824341,11.5486335754395,11.5488014221191,11.5489683151245,11.5491333007812,11.5493040084839,11.5494718551636,11.5496368408203,11.5498046875,11.5499696731567,11.5501375198364,11.5503025054932,11.5504674911499,11.5506391525269,11.5508041381836,11.5509719848633,11.5511407852173,11.5513067245483,11.551474571228,11.5516405105591,11.5518093109131,11.5519752502441,11.5521411895752,11.5523071289062,11.5524759292603,11.5526418685913,11.5528116226196,11.5529804229736,11.553147315979,11.5533132553101,11.5534801483154,11.5536460876465,11.5538158416748,11.5539798736572,11.5541496276855,11.5543165206909,11.5544834136963,11.5546503067017,11.554817199707,11.5549840927124,11.5551509857178,11.5553188323975,11.5554857254028,11.5556535720825,11.5558242797852,11.5559883117676,11.5561532974243,11.556321144104,11.5564889907837,11.5566568374634,11.5568208694458,11.5569925308228,11.5571575164795,11.5573282241821,11.5574970245361,11.5576620101929,11.5578269958496,11.5579929351807,11.5581617355347,11.5583267211914,11.5584983825684,11.5586643218994,11.5588331222534,11.5590019226074,11.5591678619385,11.5593338012695,11.5595035552979,11.5596694946289,11.559832572937,11.560001373291,11.5601682662964,11.5603380203247,11.5605068206787,11.5606737136841,11.5608406066895,11.5610074996948,11.5611772537231,11.5613412857056,11.5615110397339,11.5616750717163,11.5618448257446,11.56201171875,11.5621795654297,11.5623464584351,11.5625143051147,11.5626811981201,11.5628490447998,11.5630168914795,11.5631847381592,11.5633525848389,11.5635175704956,11.5636882781982,11.563853263855,11.5640211105347,11.5641860961914,11.5643577575684,11.5645227432251,11.5646915435791,11.5648565292358,11.5650253295898,11.5651969909668,11.5653619766235,11.5655279159546,11.5656938552856,11.5658626556396,11.5660285949707,11.5661973953247,11.566367149353,11.5665330886841,11.5667018890381,11.5668687820435,11.5670375823975,11.5672073364258,11.5673742294312,11.5675401687622,11.5677042007446,11.5678739547729,11.5680408477783,11.5682077407837,11.568377494812,11.5685472488403,11.5687112808228,11.5688819885254,11.5690488815308,11.5692167282104,11.5693807601929,11.5695514678955,11.5697154998779,11.5698833465576,11.5700540542603,11.5702219009399,11.5703897476196,11.5705575942993,11.570725440979,11.5708904266357,11.5710592269897,11.5712270736694,11.5713920593262,11.5715637207031,11.5717325210571,11.5718975067139,11.5720663070679,11.5722322463989,11.5724000930786,11.5725698471069,11.5727386474609,11.572904586792,11.573070526123,11.5732393264771,11.5734081268311,11.5735778808594,11.5737409591675,11.5739107131958,11.5740766525269,11.5742464065552,11.5744161605835,11.5745830535889,11.5747489929199,11.5749197006226,11.5750856399536,11.5752534866333,11.5754203796387,11.575590133667,11.5757570266724,11.5759220123291,11.5760917663574,11.5762624740601,11.5764303207397,11.5765972137451,11.5767650604248,11.5769329071045,11.5771017074585,11.5772695541382,11.5774393081665,11.5776071548462,11.5777759552002,11.5779438018799,11.5781116485596,11.5782804489136,11.5784473419189,11.5786142349243,11.5787811279297,11.578950881958,11.579119682312,11.5792865753174,11.5794544219971,11.5796232223511,11.5797901153564,11.5799579620361,11.5801239013672,11.5802946090698,11.5804624557495,11.5806303024292,11.5807981491089,11.5809659957886,11.5811338424683,11.5813026428223,11.581470489502,11.5816402435303,11.5818042755127,11.5819721221924,11.5821409225464,11.5823097229004,11.5824766159058,11.5826454162598,11.5828123092651,11.5829811096191,11.5831518173218,11.5833196640015,11.5834856033325,11.5836534500122,11.5838203430176,11.5839881896973,11.584156036377,11.5843257904053,11.5844955444336,11.5846633911133,11.5848302841187,11.584997177124,11.5851650238037,11.5853338241577,11.5855016708374,11.5856704711914,11.5858392715454,11.5860080718994,11.5861768722534,11.5863437652588,11.5865125656128,11.5866765975952,11.5868463516235,11.5870132446289,11.5871829986572,11.5873537063599,11.5875196456909,11.5876893997192,11.5878572463989,11.5880250930786,11.588191986084,11.5883588790894,11.5885286331177,11.588698387146,11.5888652801514,11.5890340805054,11.5892019271851,11.5893697738647,11.5895385742188,11.5897073745728,11.5898723602295,11.5900421142578,11.5902118682861,11.5903797149658,11.5905475616455,11.5907163619995,11.5908842086792,11.5910520553589,11.5912199020386,11.5913896560669,11.5915575027466,11.5917263031006,11.591893196106,11.5920629501343,11.592230796814,11.5923976898193,11.5925664901733,11.5927352905273,11.5929050445557,11.5930728912354,11.5932397842407,11.5934085845947,11.5935764312744,11.5937452316284,11.5939140319824,11.5940809249878,11.5942497253418,11.5944194793701,11.5945882797241,11.5947532653809,11.5949230194092,11.5950908660889,11.5952596664429,11.5954294204712,11.5955963134766,11.5957679748535,11.5959348678589,11.5961046218872,11.5962715148926,11.5964393615723,11.5966062545776,11.5967750549316,11.5969438552856,11.597113609314,11.597282409668,11.5974502563477,11.5976190567017,11.5977869033813,11.597954750061,11.5981225967407,11.5982913970947,11.5984592437744,11.5986289978027,11.5987987518311,11.5989665985107,11.5991353988647,11.5993041992188,11.5994720458984,11.5996398925781,11.5998067855835,11.5999784469604,11.6001453399658,11.6003131866455,11.6004838943481,11.6006517410278,11.6008205413818,11.6009883880615,11.6011543273926,11.6013269424438,11.6014947891235,11.6016626358032,11.6018323898315,11.6020002365112,11.6021671295166,11.6023368835449,11.6025056838989,11.6026735305786,11.6028423309326,11.6030111312866,11.6031799316406,11.6033487319946,11.6035175323486
11.4669075012207,11.4670715332031,11.4672365188599,11.4673986434937,11.4675636291504,11.4677314758301,11.4678926467896,11.4680614471436,11.4682235717773,11.4683885574341,11.4685535430908,11.4687156677246,11.4688816070557,11.4690504074097,11.4692153930664,11.4693784713745,11.4695434570312,11.4697065353394,11.4698724746704,11.4700384140015,11.4702014923096,11.4703645706177,11.4705305099487,11.4706935882568,11.4708633422852,11.4710264205933,11.4711894989014,11.4713535308838,11.4715194702148,11.4716835021973,11.4718475341797,11.4720134735107,11.4721775054932,11.4723472595215,11.472508430481,11.4726753234863,11.4728393554688,11.4730043411255,11.473165512085,11.4733324050903,11.4734973907471,11.4736614227295,11.4738264083862,11.4739942550659,11.4741582870483,11.4743232727051,11.4744882583618,11.4746532440186,11.4748182296753,11.4749803543091,11.4751453399658,11.4753103256226,11.4754791259766,11.4756441116333,11.4758062362671,11.4759721755981,11.4761371612549,11.4763031005859,11.476466178894,11.4766321182251,11.4767971038818,11.476957321167,11.477126121521,11.4772891998291,11.4774551391602,11.4776220321655,11.4777851104736,11.4779510498047,11.4781179428101,11.4782810211182,11.4784479141235,11.4786148071289,11.4787750244141,11.4789390563965,11.4791059494019,11.4792699813843,11.4794340133667,11.4796009063721,11.4797649383545,11.4799289703369,11.4800968170166,11.480263710022,11.4804286956787,11.4805927276611,11.4807548522949,11.4809226989746,11.481086730957,11.4812517166138,11.4814167022705,11.4815816879272,11.4817495346069,11.4819116592407,11.4820766448975,11.4822416305542,11.4824075698853,11.482569694519,11.4827346801758,11.4829034805298,11.4830694198608,11.4832315444946,11.4834003448486,11.4835662841797,11.4837293624878,11.4838953018188,11.484058380127,11.484224319458,11.4843902587891,11.4845504760742,11.4847202301025,11.4848861694336,11.485053062439,11.4852161407471,11.4853801727295,11.4855470657349,11.485710144043,11.4858770370483,11.4860439300537,11.4862079620361,11.4863691329956,11.486536026001,11.4867038726807,11.486870765686,11.4870347976685,11.4871997833252,11.4873638153076,11.4875288009644,11.4876956939697,11.4878606796265,11.4880285263062,11.4881935119629,11.4883546829224,11.4885196685791,11.4886846542358,11.4888505935669,11.4890155792236,11.4891834259033,11.4893455505371,11.4895114898682,11.4896802902222,11.4898452758789,11.49001121521,11.4901733398438,11.4903364181519,11.4905052185059,11.490668296814,11.490834236145,11.4910001754761,11.4911661148071,11.4913330078125,11.4914989471436,11.4916620254517,11.491828918457,11.4919948577881,11.4921588897705,11.4923219680786,11.492488861084,11.4926528930664,11.4928197860718,11.4929866790771,11.4931507110596,11.4933176040649,11.4934816360474,11.4936485290527,11.4938135147095,11.4939775466919,11.4941415786743,11.494309425354,11.4944734573364,11.4946413040161,11.4948062896729,11.4949741363525,11.4951362609863,11.4953002929688,11.4954690933228,11.4956340789795,11.4958019256592,11.495964050293,11.4961290359497,11.4962949752808,11.4964637756348,11.4966259002686,11.4967908859253,11.4969568252563,11.4971227645874,11.4972887039185,11.4974546432495,11.4976205825806,11.4977836608887,11.4979496002197,11.4981184005737,11.4982814788818,11.4984483718872,11.4986114501953,11.4987773895264,11.4989442825317,11.4991111755371,11.4992780685425,11.4994440078735,11.499605178833,11.4997720718384,11.4999389648438,11.5001029968262,11.5002698898315,11.500433921814,11.5006017684937,11.5007658004761,11.5009336471558,11.5011005401611,11.5012617111206,11.5014295578003,11.501594543457,11.5017595291138,11.5019235610962,11.5020914077759,11.5022563934326,11.5024251937866,11.5025873184204,11.5027551651001,11.5029201507568,11.5030860900879,11.5032510757446,11.5034170150757,11.5035791397095,11.5037479400635,11.5039167404175,11.5040788650513,11.5042448043823,11.5044107437134,11.5045766830444,11.5047426223755,11.5049085617065,11.5050754547119,11.5052442550659,11.5054044723511,11.5055713653564,11.5057373046875,11.5059041976929,11.5060710906982,11.5062341690063,11.5064010620117,11.5065679550171,11.5067348480225,11.5068988800049,11.5070657730103,11.5072298049927,11.5073976516724,11.5075616836548,11.5077257156372,11.5078935623169,11.5080575942993,11.508225440979,11.5083932876587,11.5085611343384,11.5087223052979,11.5088939666748,11.5090589523315,11.5092239379883,11.509388923645,11.5095567703247,11.5097217559814,11.5098905563354,11.5100555419922,11.5102214813232,11.51038646698,11.510552406311,11.5107164382935,11.5108833312988,11.5110492706299,11.5112152099609,11.511381149292,11.511547088623,11.5117149353027,11.5118808746338,11.5120458602905,11.5122108459473,11.512378692627,11.512544631958,11.5127096176147,11.5128765106201,11.5130414962769,11.5132064819336,11.513373374939,11.51353931427,11.5137071609497,11.5138711929321,11.5140371322632,11.5142040252686,11.5143699645996,11.5145359039307,11.5147018432617,11.5148677825928,11.5150337219238,11.5152015686035,11.5153675079346,11.5155324935913,11.5156984329224,11.5158653259277,11.5160303115845,11.5161952972412,11.5163612365723,11.5165300369263,11.516695022583,11.5168619155884,11.5170259475708,11.5171928405762,11.5173587799072,11.5175256729126,11.5176916122437,11.517858505249,11.5180244445801,11.5181903839111,11.5183563232422,11.5185241699219,11.5186882019043,11.5188550949097,11.5190191268921,11.5191860198975,11.5193538665771,11.5195207595825,11.5196866989136,11.5198535919189,11.5200176239014,11.5201826095581,11.5203495025635,11.5205144882202,11.5206851959229,11.5208492279053,11.5210161209106,11.5211820602417,11.5213489532471,11.5215148925781,11.5216789245605,11.5218458175659,11.5220127105713,11.522180557251,11.5223455429077,11.5225114822388,11.5226783752441,11.5228443145752,11.5230093002319,11.5231761932373,11.5233430862427,11.523509979248,11.5236768722534,11.5238418579102,11.5240068435669,11.5241746902466,11.524341583252,11.524507522583,11.5246725082397,11.5248413085938,11.5250072479248,11.5251722335815,11.5253400802612,11.5255060195923,11.5256719589233,11.5258378982544,11.5260028839111,11.5261707305908,11.5263385772705,11.5265035629272,11.5266704559326,11.5268354415894,11.5270023345947,11.5271692276001,11.5273351669312,11.5275020599365,11.5276689529419,11.5278358459473,11.528003692627,11.5281677246094,11.5283336639404,11.5284996032715,11.5286664962769,11.5288314819336,11.5290021896362,11.529167175293,11.5293350219727,11.5295009613037,11.5296669006348,11.5298318862915,11.5299978256226,11.5301656723022,11.530330657959,11.5305004119873,11.5306663513184,11.5308332443237,11.5309982299805,11.5311651229858,11.5313310623169,11.5314950942993,11.531662940979,11.5318298339844,11.5319976806641,11.5321636199951,11.5323314666748,11.5324974060059,11.5326633453369,11.5328302383423,11.532995223999,11.533164024353,11.5333290100098,11.5334978103638,11.5336627960205,11.5338296890259,11.5339965820312,11.534161567688,11.534330368042,11.5344953536987,11.5346632003784
0,0,0,0,0,0,0,0,0,0,0,0,11.4016132354736,11.4017763137817,11.4019355773926,11.4021015167236,11.4022645950317,11.4024248123169,11.4025907516479,11.4027509689331,11.4029140472412,11.4030780792236,11.4032382965088,11.4034013748169,11.4035654067993,11.4037294387817,11.4038896560669,11.4040536880493,11.4042205810547,11.4043817520142,11.4045419692993,11.4047060012817,11.4048671722412,11.4050321578979,11.4051961898804,11.4053573608398,11.4055185317993,11.405686378479,11.4058475494385,11.4060125350952,11.406174659729,11.4063358306885,11.4064979553223,11.406662940979,11.4068212509155,11.4069871902466,11.4071493148804,11.4073143005371,11.4074792861938,11.4076385498047,11.4078044891357,11.4079666137695,11.4081296920776,11.4082918167114,11.4084548950195,11.4086141586304,11.4087800979614,11.4089431762695,11.4091091156006,11.4092721939087,11.4094352722168,11.409595489502,11.4097585678101,11.4099225997925,11.4100828170776,11.4102458953857,11.4104127883911,11.4105768203735,11.4107398986816,11.4109010696411,11.4110612869263,11.4112253189087,11.4113893508911,11.4115533828735,11.411714553833,11.4118824005127,11.4120435714722,11.4122047424316,11.4123687744141,11.4125337600708,11.4126949310303,11.412859916687,11.4130210876465,11.4131832122803,11.413348197937,11.4135131835938,11.4136781692505,11.413836479187,11.4140024185181,11.4141645431519,11.4143266677856,11.4144887924194,11.4146537780762,11.4148168563843,11.414981842041,11.4151449203491,11.4153079986572,11.415470123291,11.4156332015991,11.4157962799072,11.4159593582153,11.4161224365234,11.4162855148315,11.4164485931396,11.4166116714478,11.4167747497559,11.4169387817383,11.4171018600464,11.4172658920288,11.4174289703369,11.4175891876221,11.4177532196045,11.4179172515869,11.4180812835693,11.4182453155518,11.4184064865112,11.4185705184937,11.4187345504761,11.4188985824585,11.419059753418,11.4192247390747,11.4193859100342,11.4195508956909,11.4197120666504,11.4198799133301,11.4200410842896,11.4202032089233,11.4203681945801,11.4205303192139,11.4206924438477,11.4208574295044,11.4210195541382,11.4211845397949,11.421347618103,11.4215126037598,11.4216747283936,11.4218378067017,11.4219999313354,11.4221630096436,11.4223289489746,11.4224910736084,11.4226570129395,11.4228200912476,11.4229831695557,11.4231462478638,11.4233064651489,11.42347240448,11.4236364364624,11.4237966537476,11.4239597320557,11.424126625061,11.4242906570435,11.4244537353516,11.424617767334,11.4247817993164,11.4249420166016,11.425106048584,11.4252700805664,11.4254312515259,11.4255952835083,11.425763130188,11.4259243011475,11.4260883331299,11.4262533187866,11.4264144897461,11.4265794754028,11.4267406463623,11.426905632019,11.4270677566528,11.4272289276123,11.4273977279663,11.4275588989258,11.4277210235596,11.4278869628906,11.4280490875244,11.4282140731812,11.4283761978149,11.428542137146,11.4287042617798,11.4288673400879,11.4290332794189,11.4291954040527,11.4293584823608,11.4295215606689,11.4296875,11.4298505783081,11.4300136566162,11.4301767349243,11.4303426742554,11.4305067062378,11.4306726455688,11.4308300018311,11.4309968948364,11.4311571121216,11.431324005127,11.4314842224121,11.4316511154175,11.431812286377,11.4319791793823,11.4321432113647,11.4323072433472,11.4324684143066,11.4326324462891,11.4327945709229,11.4329586029053,11.4331197738647,11.4332847595215,11.4334487915039,11.4336137771606,11.4337787628174,11.4339437484741,11.4341049194336,11.4342699050903,11.4344320297241,11.4345970153809,11.4347591400146,11.4349222183228,11.4350900650024,11.4352521896362,11.4354181289673,11.4355802536011,11.4357433319092,11.4359092712402,11.436071395874,11.4362344741821,11.4363975524902,11.4365606307983,11.4367265701294,11.4368896484375,11.4370527267456,11.4372186660767,11.4373817443848,11.4375457763672,11.4377088546753,11.4378728866577,11.4380359649658,11.4382028579712,11.4383640289307,11.4385271072388,11.4386940002441,11.4388551712036,11.439019203186,11.4391832351685,11.4393472671509,11.4395122528076,11.43967628479,11.4398403167725,11.4400053024292,11.4401664733887,11.4403314590454,11.4404954910278,11.4406576156616,11.4408226013184,11.4409847259521,11.4411497116089,11.4413175582886,11.4414806365967,11.4416446685791,11.4418096542358,11.4419727325439,11.4421358108521,11.4422988891602,11.4424657821655,11.4426279067993,11.4427938461304,11.4429578781128,11.4431209564209,11.4432859420776,11.4434480667114,11.4436111450195,11.4437761306763,11.443941116333,11.4441061019897,11.4442701339722,11.4444341659546,11.4445972442627,11.4447612762451,11.4449243545532,11.445086479187,11.4452533721924,11.4454174041748,11.4455814361572,11.4457454681396,11.4459095001221,11.4460735321045,11.4462394714355,11.4464015960693,11.446569442749,11.4467306137085,11.4468946456909,11.447057723999,11.4472227096558,11.4473876953125,11.4475507736206,11.4477157592773,11.4478788375854,11.4480457305908,11.4482078552246,11.4483709335327,11.4485359191895,11.4486999511719,11.4488639831543,11.4490261077881,11.4491901397705,11.4493570327759,11.4495210647583,11.449686050415,11.4498481750488,11.4500122070312,11.4501752853394,11.4503402709961,11.4505043029785,11.4506711959839,11.4508352279663,11.451000213623,11.4511623382568,11.4513273239136,11.451488494873,11.4516544342041,11.4518175125122,11.4519824981689,11.4521493911743,11.4523134231567,11.4524755477905,11.4526414871216,11.452805519104,11.4529676437378,11.4531326293945,11.453296661377,11.453462600708,11.4536266326904,11.4537916183472,11.4539556503296,11.4541206359863,11.4542856216431,11.4544467926025,11.4546098709106,11.454776763916,11.4549417495728,11.4551057815552,11.4552688598633,11.45543384552,11.4555997848511,11.4557619094849,11.4559268951416,11.4560899734497,11.4562568664551,11.4564199447632,11.4565839767456,11.4567499160767,11.4569139480591,11.4570770263672,11.4572410583496,11.4574060440063,11.4575719833374,11.4577350616455,11.4579000473022,11.458065032959,11.4582281112671,11.4583930969238,11.4585580825806,11.4587202072144,11.4588890075684,11.4590530395508,11.4592161178589,11.459379196167,11.4595432281494,11.4597082138062,11.4598722457886,11.4600372314453,11.4602012634277,11.4603681564331,11.4605312347412,11.4606971740723,11.4608592987061,11.4610233306885,11.4611883163452,11.4613513946533,11.4615182876587,11.4616832733154,11.4618482589722,11.4620132446289,11.4621772766113,11.4623422622681,11.4625043869019,11.4626693725586,11.4628324508667,11.4629974365234,11.4631633758545,11.4633293151855,11.463493347168,11.4636573791504,11.4638214111328,11.4639844894409,11.4641494750977,11.4643135070801,11.4644804000854,11.4646463394165,11.4648094177246,11.4649744033813,11.4651384353638,11.4653043746948,11.4654684066772,11.4656314849854,11.4657974243164,11.4659624099731,11.4661264419556,11.466290473938,11.4664554595947,11.4666194915771
0,0,0,0,0,0,0,0,0,0,0,0,0,0,0,0,0,0,0,0,0,0,0,0,0,0,0,0,0,0,0,0,0,0,0,0,0,0,0,0,11.3396320343018,11.3397951126099,11.3399572372437,11.3401193618774,11.3402786254883,11.3404378890991,11.3405981063843,11.3407602310181,11.3409204483032,11.3410835266113,11.3412466049194,11.3414058685303,11.3415689468384,11.3417291641235,11.3418893814087,11.3420524597168,11.342209815979,11.3423700332642,11.3425302505493,11.3426942825317,11.3428573608398,11.3430185317993,11.3431787490845,11.3433399200439,11.3435010910034,11.3436613082886,11.343822479248,11.3439836502075,11.344141960144,11.3443059921265,11.3444671630859,11.3446283340454,11.3447904586792,11.3449516296387,11.3451099395752,11.345272064209,11.3454332351685,11.3455953598022,11.345757484436,11.3459196090698,11.3460779190063,11.3462400436401,11.3464021682739,11.3465614318848,11.3467235565186,11.3468866348267,11.3470458984375,11.3472080230713,11.3473711013794,11.3475332260132,11.347692489624,11.3478527069092,11.34801197052,11.3481750488281,11.3483352661133,11.3484983444214,11.3486585617065,11.3488187789917,11.3489818572998,11.3491449356079,11.3493061065674,11.3494663238525,11.3496294021606,11.3497905731201,11.3499507904053,11.3501119613647,11.3502721786499,11.3504362106323,11.3505973815918,11.3507585525513,11.3509197235107,11.3510808944702,11.3512420654297,11.3514032363892,11.3515644073486,11.3517227172852,11.3518848419189,11.3520488739014,11.3522109985352,11.3523693084717,11.3525342941284,11.3526964187622,11.3528547286987,11.3530168533325,11.3531789779663,11.3533382415771,11.3535032272339,11.3536624908447,11.3538255691528,11.3539848327637,11.3541469573975,11.3543100357056,11.3544692993164,11.3546323776245,11.3547916412354,11.3549518585205,11.3551177978516,11.3552780151367,11.3554372787476,11.3555974960327,11.3557615280151,11.3559246063232,11.3560848236084,11.3562450408936,11.356409072876,11.3565721511841,11.3567333221436,11.3568964004517,11.3570547103882,11.3572149276733,11.3573760986328,11.3575401306152,11.3576984405518,11.3578586578369,11.3580236434937,11.3581876754761,11.3583459854126,11.358510017395,11.3586721420288,11.3588304519653,11.3589916229248,11.3591537475586,11.3593120574951,11.3594770431519,11.3596391677856,11.3598041534424,11.3599634170532,11.360125541687,11.3602876663208,11.3604469299316,11.3606090545654,11.3607683181763,11.3609313964844,11.3610935211182,11.361255645752,11.3614187240601,11.3615789413452,11.361741065979,11.3619041442871,11.3620643615723,11.3622274398804,11.3623876571655,11.3625507354736,11.3627109527588,11.3628740310669,11.3630342483521,11.3631944656372,11.3633584976196,11.3635187149048,11.3636827468872,11.3638429641724,11.3640041351318,11.3641653060913,11.3643321990967,11.3644895553589,11.3646507263184,11.3648118972778,11.3649768829346,11.3651351928711,11.3652992248535,11.365460395813,11.3656225204468,11.3657865524292,11.365948677063,11.3661098480225,11.3662719726562,11.3664302825928,11.3665924072266,11.3667545318604,11.3669166564941,11.367075920105,11.3672409057617,11.3674030303955,11.3675661087036,11.3677282333374,11.3678874969482,11.3680505752563,11.3682098388672,11.3683729171753,11.3685350418091,11.3686952590942,11.3688611984253,11.3690242767334,11.3691844940186,11.3693475723267,11.3695077896118,11.369668006897,11.3698310852051,11.3699951171875,11.3701524734497,11.3703155517578,11.3704795837402,11.3706398010254,11.3708038330078,11.3709650039673,11.3711252212524,11.3712863922119,11.3714504241943,11.3716115951538,11.3717727661133,11.3719367980957,11.3720989227295,11.372260093689,11.3724212646484,11.3725824356079,11.3727474212646,11.3729095458984,11.373067855835,11.3732299804688,11.3733949661255,11.3735599517822,11.3737192153931,11.3738775253296,11.3740396499634,11.3742055892944,11.3743677139282,11.3745269775391,11.3746929168701,11.3748569488525,11.375018119812,11.3751792907715,11.3753414154053,11.3755044937134,11.3756647109985,11.375825881958,11.3759870529175,11.3761520385742,11.376314163208,11.3764753341675,11.3766384124756,11.3768005371094,11.3769626617432,11.3771228790283,11.3772850036621,11.3774490356445,11.3776111602783,11.3777723312378,11.3779363632202,11.378098487854,11.3782596588135,11.3784217834473,11.3785829544067,11.3787441253662,11.3789091110229,11.3790702819824,11.3792314529419,11.37939453125,11.3795557022095,11.3797178268433,11.3798789978027,11.3800430297852,11.3802061080933,11.3803663253784,11.3805284500122,11.380690574646,11.3808526992798,11.3810148239136,11.3811779022217,11.3813400268555,11.3815040588379,11.3816661834717,11.3818273544312,11.3819885253906,11.3821516036987,11.3823137283325,11.3824758529663,11.3826379776001,11.3828001022339,11.3829641342163,11.3831281661987,11.3832893371582,11.3834495544434,11.3836126327515,11.3837747573853,11.383936882019,11.3840970993042,11.3842630386353,11.384425163269,11.3845872879028,11.3847494125366,11.3849105834961,11.3850727081299,11.385235786438,11.3853969573975,11.3855581283569,11.385724067688,11.3858871459961,11.3860483169556,11.3862113952637,11.3863744735718,11.3865327835083,11.3866958618164,11.3868579864502,11.3870229721069,11.387186050415,11.3873462677002,11.387508392334,11.3876724243164,11.3878345489502,11.387996673584,11.3881559371948,11.3883218765259,11.3884840011597,11.3886470794678,11.3888092041016,11.388970375061,11.3891334533691,11.3892965316772,11.389458656311,11.3896188735962,11.3897838592529,11.389946937561,11.3901071548462,11.3902702331543,11.3904333114624,11.3905954360962,11.39075756073,11.3909196853638,11.3910846710205,11.39124584198,11.3914079666138,11.3915719985962,11.3917322158813,11.3918952941895,11.3920574188232,11.3922204971313,11.3923845291138,11.3925476074219,11.3927068710327,11.3928699493408,11.3930330276489,11.3931941986084,11.3933572769165,11.3935203552246,11.3936824798584,11.3938474655151,11.3940095901489,11.394172668457,11.3943347930908,11.394495010376,11.3946590423584,11.3948202133179,11.394983291626,11.3951473236084,11.3953104019165,11.3954744338989,11.3956356048584,11.3957996368408,11.3959589004517,11.3961219787598,11.3962831497192,11.3964462280273,11.3966112136841,11.3967742919922,11.3969354629517,11.3970994949341,11.3972606658936,11.3974227905273,11.3975849151611,11.3977479934692,11.3979120254517,11.3980760574341,11.3982381820679,11.3984003067017,11.3985624313354,11.3987264633179,11.3988876342773,11.3990507125854,11.3992147445679,11.399377822876
0,0,0,0,0,0,0,0,0,0,0,0,0,0,0,0,0,0,0,0,0,0,0,0,0,0,0,0,0,0,0,0,0,0,0,0,0,0,0,0,0,0,0,0,0,0,0,0,0,0,0,0,0,0,0,0,0,0,0,0,0,0,0,0,0,0,0,0,11.2783260345459,11.2784852981567,11.2786464691162,11.2788057327271,11.2789621353149,11.2791204452515,11.2792797088623,11.2794389724731,11.279598236084,11.2797574996948,11.27991771698,11.2800769805908,11.2802362442017,11.2803964614868,11.2805557250977,11.2807159423828,11.2808723449707,11.2810354232788,11.281195640564,11.2813529968262,11.2815132141113,11.2816734313965,11.2818298339844,11.2819910049438,11.282154083252,11.2823114395142,11.2824726104736,11.2826271057129,11.282787322998,11.2829446792603,11.2831058502197,11.2832641601562,11.2834253311157,11.2835865020752,11.2837467193604,11.2839050292969,11.2840662002563,11.2842245101929,11.2843799591064,11.2845420837402,11.2847032546997,11.2848615646362,11.2850208282471,11.2851819992065,11.2853412628174,11.2854995727539,11.2856588363647,11.2858209609985,11.2859802246094,11.2861394882202,11.2862958908081,11.2864551544189,11.2866144180298,11.2867765426636,11.2869358062744,11.2870960235596,11.2872552871704,11.2874155044556,11.2875747680664,11.2877349853516,11.2878913879395,11.2880516052246,11.2882118225098,11.2883720397949,11.2885322570801,11.2886924743652,11.2888498306274,11.2890100479126,11.2891674041748,11.2893314361572,11.2894887924194,11.2896461486816,11.2898101806641,11.2899675369263,11.2901258468628,11.2902870178223,11.2904481887817,11.2906064987183,11.2907638549805,11.2909250259399,11.2910833358765,11.2912454605103,11.2914066314697,11.2915649414062,11.2917242050171,11.2918853759766,11.2920446395874,11.292200088501,11.2923622131348,11.2925205230713,11.2926797866821,11.2928447723389,11.2930011749268,11.2931632995605,11.2933225631714,11.2934818267822,11.2936410903931,11.293797492981,11.2939605712891,11.294116973877,11.2942800521851,11.2944393157959,11.2945995330811,11.2947597503662,11.2949190139771,11.2950792312622,11.2952394485474,11.2953968048096,11.2955570220947,11.2957143783569,11.295877456665,11.2960386276245,11.2961988449097,11.2963562011719,11.2965173721313,11.2966747283936,11.296835899353,11.2969970703125,11.2971572875977,11.2973155975342,11.2974767684937,11.2976350784302,11.2977962493896,11.2979545593262,11.2981157302856,11.2982740402222,11.298436164856,11.2985944747925,11.298752784729,11.2989177703857,11.2990732192993,11.2992353439331,11.2993946075439,11.2995538711548,11.2997159957886,11.2998743057251,11.3000335693359,11.3001928329468,11.3003559112549,11.3005180358887,11.3006744384766,11.3008375167847,11.3009910583496,11.3011531829834,11.3013134002686,11.3014726638794,11.3016328811646,11.3017959594727,11.3019533157349,11.302116394043,11.3022737503052,11.3024339675903,11.3025941848755,11.3027515411377,11.3029117584229,11.303071975708,11.3032331466675,11.3033933639526,11.3035545349121,11.3037157058716,11.3038730621338,11.3040342330933,11.3041954040527,11.3043537139893,11.3045110702515,11.3046731948853,11.3048343658447,11.3049926757812,11.3051538467407,11.3053159713745,11.305474281311,11.3056325912476,11.3057947158813,11.3059530258179,11.3061151504517,11.3062744140625,11.306432723999,11.3065948486328,11.3067541122437,11.3069162368774,11.3070726394653,11.3072357177734,11.3073949813843,11.3075542449951,11.3077173233032,11.3078765869141,11.3080358505249,11.3081960678101,11.3083562850952,11.3085155487061,11.3086786270142,11.3088407516479,11.3090009689331,11.3091621398926,11.3093223571777,11.3094816207886,11.3096418380737,11.3098020553589,11.3099613189697,11.3101215362549,11.3102807998657,11.3104419708252,11.3106031417847,11.3107633590698,11.310923576355,11.3110837936401,11.3112440109253,11.3114032745361,11.3115615844727,11.3117218017578,11.3118848800659,11.3120460510254,11.3122062683105,11.3123664855957,11.3125267028809,11.312686920166,11.3128471374512,11.3130073547363,11.3131647109985,11.313328742981,11.3134870529175,11.313648223877,11.3138084411621,11.3139677047729,11.3141288757324,11.3142881393433,11.3144493103027,11.3146104812622,11.314769744873,11.3149280548096,11.315089225769,11.3152494430542,11.3154096603394,11.3155708312988,11.315731048584,11.3158931732178,11.3160533905029,11.3162117004395,11.3163719177246,11.3165340423584,11.3166933059692,11.3168535232544,11.3170127868652,11.3171730041504,11.3173360824585,11.3174962997437,11.3176574707031,11.3178157806396,11.3179769515991,11.3181381225586,11.3182973861694,11.3184566497803,11.3186197280884,11.3187799453735,11.318941116333,11.3191013336182,11.3192596435547,11.3194189071655,11.319580078125,11.3197412490845,11.3199024200439,11.3200645446777,11.3202257156372,11.3203840255737,11.3205451965332,11.3207054138184,11.3208646774292,11.3210258483887,11.3211841583252,11.3213481903076,11.3215074539185,11.3216686248779,11.3218288421631,11.3219900131226,11.3221492767334,11.3223094940186,11.3224678039551,11.3226308822632,11.322793006897,11.3229532241821,11.3231115341187,11.3232736587524,11.3234348297119,11.3235960006714,11.3237552642822,11.3239145278931,11.3240766525269,11.3242359161377,11.3243989944458,11.324559211731,11.3247194290161,11.3248796463013,11.3250408172607,11.3251991271973,11.325364112854,11.3255224227905,11.3256816864014,11.3258438110352,11.3260049819946,11.3261632919312,11.3263254165649,11.3264875411987,11.3266477584839,11.3268098831177,11.3269672393799,11.3271293640137,11.3272895812988,11.3274488449097,11.3276109695435,11.3277702331543,11.3279314041138,11.3280954360962,11.328254699707,11.3284158706665,11.328574180603,11.3287353515625,11.3288955688477,11.3290567398071,11.3292169570923,11.3293800354004,11.3295402526855,11.329701423645,11.3298635482788,11.330020904541,11.3301830291748,11.33034324646,11.3305034637451,11.3306655883789,11.3308277130127,11.3309869766235,11.3311491012573,11.3313093185425,11.3314685821533,11.3316297531128,11.3317890167236,11.3319501876831,11.3321132659912,11.3322744369507,11.3324337005615,11.3325958251953,11.3327550888062,11.3329172134399
0,0,0,0,0,0,0,0,0,0,0,0,0,0,0,0,0,0,0,0,0,0,0,0,0,0,0,0,0,0,0,0,0,0,0,0,0,0,0,0,0,0,0,0,0,0,0,0,0,0,0,0,0,0,0,0,0,0,0,0,0,0,0,0,0,0,0,0,0,0,0,0,0,0,0,0,0,0,0,0,0,0,0,0,0,0,0,0,0,0,0,0,0,11.2172031402588,11.2173614501953,11.2175168991089,11.2176780700684,11.2178373336792,11.2179927825928,11.2181482315063,11.2183065414429,11.2184629440308,11.2186250686646,11.2187805175781,11.218936920166,11.2190952301025,11.2192544937134,11.2194108963013,11.2195701599121,11.2197265625,11.2198829650879,11.2200393676758,11.2201986312866,11.2203559875488,11.2205123901367,11.2206726074219,11.2208318710327,11.2209892272949,11.2211456298828,11.221302986145,11.2214632034302,11.2216167449951,11.2217741012573,11.2219314575195,11.222092628479,11.2222499847412,11.2224073410034,11.2225675582886,11.2227220535278,11.2228803634644,11.2230405807495,11.2231960296631,11.2233533859253,11.2235116958618,11.2236700057983,11.2238283157349,11.2239866256714,11.2241449356079,11.2242994308472,11.2244577407837,11.2246170043945,11.2247724533081,11.2249307632446,11.2250928878784,11.225245475769,11.2254037857056,11.2255630493164,11.2257223129272,11.2258777618408,11.2260341644287,11.2261934280396,11.2263498306274,11.2265090942383,11.2266683578491,11.226824760437,11.2269840240479,11.2271404266357,11.2273006439209,11.2274570465088,11.227614402771,11.2277708053589,11.227931022644,11.2280912399292,11.2282476425171,11.2284049987793,11.2285623550415,11.2287225723267,11.2288770675659,11.2290344238281,11.2291917800903,11.2293519973755,11.2295064926147,11.2296705245972,11.2298250198364,11.2299861907959,11.2301445007324,11.2302989959717,11.2304601669312,11.2306146621704,11.2307729721069,11.2309284210205,11.23108959198,11.2312479019165,11.231406211853,11.2315616607666,11.2317209243774,11.2318820953369,11.2320384979248,11.2321968078613,11.2323532104492,11.2325086593628,11.2326707839966,11.2328271865845,11.232985496521,11.2331418991089,11.2333011627197,11.2334604263306,11.2336168289185,11.2337770462036,11.2339334487915,11.2340927124023,11.2342529296875,11.2344064712524,11.2345657348633,11.2347259521484,11.2348794937134,11.2350397109985,11.2351999282837,11.2353544235229,11.2355146408081,11.2356748580933,11.2358322143555,11.2359895706177,11.2361469268799,11.2363042831421,11.2364625930786,11.2366199493408,11.2367811203003,11.2369356155396,11.237096786499,11.2372550964355,11.237416267395,11.2375707626343,11.2377290725708,11.2378873825073,11.2380456924438,11.2382011413574,11.2383594512939,11.2385177612305,11.2386798858643,11.2388353347778,11.2389945983887,11.2391529083252,11.239312171936,11.2394704818726,11.2396268844604,11.2397832870483,11.2399425506592,11.24010181427,11.2402610778809,11.2404174804688,11.2405767440796,11.2407331466675,11.2408924102783,11.2410526275635,11.2412090301514,11.2413692474365,11.2415256500244,11.2416830062866,11.2418422698975,11.2419996261597,11.2421598434448,11.242317199707,11.2424774169922,11.2426347732544,11.2427921295166,11.2429494857788,11.2431106567383,11.2432680130005,11.2434253692627,11.2435874938965,11.2437438964844,11.2439022064209,11.2440595626831,11.2442178726196,11.2443790435791,11.2445373535156,11.2446956634521,11.2448558807373,11.2450141906738,11.2451705932617,11.2453279495239,11.2454862594604,11.245644569397,11.2458057403564,11.245964050293,11.2461214065552,11.246280670166,11.2464380264282,11.2465972900391,11.2467527389526,11.2469120025635,11.2470731735229,11.2472314834595,11.2473888397217,11.2475481033325,11.247706413269,11.2478628158569,11.2480211257935,11.24817943573,11.2483358383179,11.2484979629517,11.2486562728882,11.2488145828247,11.2489738464355,11.2491302490234,11.2492895126343,11.2494478225708,11.2496070861816,11.2497663497925,11.249924659729,11.2500810623169,11.2502403259277,11.2503976821899,11.2505569458008,11.2507171630859,11.2508745193481,11.2510356903076,11.2511940002441,11.2513484954834,11.2515087127686,11.2516670227051,11.2518253326416,11.2519855499268,11.2521438598633,11.2523012161255,11.2524614334106,11.2526197433472,11.2527770996094,11.2529354095459,11.2530946731567,11.2532520294189,11.2534112930298,11.2535705566406,11.2537307739258,11.2538900375366,11.2540464401245,11.2542066574097,11.2543640136719,11.2545223236084,11.2546806335449,11.2548379898071,11.2550001144409,11.2551593780518,11.255316734314,11.2554750442505,11.2556352615356,11.2557935714722,11.2559490203857,11.2561082839966,11.2562665939331,11.2564268112183,11.2565860748291,11.2567453384399,11.2569026947021,11.257061958313,11.2572212219238,11.2573776245117,11.2575368881226,11.257698059082,11.2578544616699,11.2580137252808,11.2581729888916,11.2583312988281,11.2584896087646,11.2586498260498,11.2588062286377,11.2589645385742,11.259126663208,11.2592840194702,11.2594423294067,11.2596015930176,11.2597599029541,11.2599191665649,11.2600774765015,11.2602367401123,11.2603940963745,11.2605533599854,11.2607116699219,11.2608709335327,11.2610321044922,11.2611885070801,11.2613477706909,11.2615060806274,11.2616682052612,11.2618255615234,11.26198387146,11.2621421813965,11.262300491333,11.2624588012695,11.2626190185547,11.2627763748169,11.2629365921021,11.2630968093872,11.2632551193237,11.2634143829346,11.2635717391968,11.263729095459,11.2638902664185,11.2640476226807,11.2642068862915,11.264368057251,11.2645273208618,11.2646856307983,11.2648448944092,11.2650012969971,11.2651615142822,11.2653198242188,11.2654781341553,11.2656393051147,11.2657976150513,11.2659578323364,11.2661151885986,11.2662734985352,11.2664337158203,11.2665891647339,11.2667503356934,11.2669086456299,11.2670679092407,11.2672281265259
0,0,0,0,0,0,0,0,0,0,0,0,0,0,0,0,0,0,0,0,0,0,0,0,0,0,0,0,0,0,0,0,0,0,0,0,0,0,0,0,0,0,0,0,0,0,0,0,0,0,0,0,0,0,0,0,0,0,0,0,0,0,0,0,0,0,0,0,0,0,0,0,0,0,0,0,0,0,0,0,0,0,0,0,0,0,0,0,0,0,0,0,0,0,0,0,0,0,0,0,0,0,0,0,0,0,0,0,0,0,0,0,0,11.1559638977051,11.1561183929443,11.1562728881836,11.1564273834229,11.1565856933594,11.1567401885986,11.1569013595581,11.1570558547974,11.157208442688,11.1573667526245,11.1575212478638,11.1576766967773,11.1578321456909,11.1579875946045,11.1581430435181,11.1583013534546,11.1584577560425,11.1586132049561,11.1587686538696,11.1589250564575,11.1590805053711,11.159236907959,11.1593923568726,11.1595487594604,11.1597013473511,11.1598606109619,11.1600170135498,11.1601705551147,11.1603298187256,11.1604833602905,11.1606397628784,11.1607971191406,11.1609535217285,11.1611070632935,11.1612672805786,11.1614208221436,11.1615781784058,11.1617317199707,11.1618890762329,11.1620435714722,11.1622009277344,11.1623554229736,11.1625127792358,11.1626672744751,11.1628274917603,11.1629848480225,11.1631364822388,11.1632947921753,11.1634492874146,11.1636037826538,11.1637592315674,11.1639165878296,11.1640720367432,11.1642303466797,11.1643886566162,11.1645441055298,11.1646995544434,11.1648540496826,11.1650094985962,11.1651659011841,11.1653213500977,11.1654767990112,11.1656360626221,11.1657915115356,11.1659469604492,11.1661033630371,11.1662588119507,11.1664180755615,11.1665716171265,11.1667280197144,11.1668844223022,11.1670370101929,11.167197227478,11.1673536300659,11.1675100326538,11.1676664352417,11.1678237915039,11.1679773330688,11.1681337356567,11.1682910919189,11.1684474945068,11.1685991287231,11.1687593460083,11.1689157485962,11.1690702438354,11.1692276000977,11.1693849563599,11.1695394515991,11.1696939468384,11.1698513031006,11.1700096130371,11.1701669692993,11.1703186035156,11.1704769134521,11.1706342697144,11.1707897186279,11.1709480285645,11.1710996627808,11.1712579727173,11.1714134216309,11.1715717315674,11.1717300415039,11.1718854904175,11.1720409393311,11.1721963882446,11.1723527908325,11.172511100769,11.1726636886597,11.1728200912476,11.1729755401611,11.1731376647949,11.1732940673828,11.1734504699707,11.1736068725586,11.1737594604492,11.1739158630371,11.174072265625,11.1742286682129,11.1743860244751,11.174542427063,11.1747016906738,11.1748561859131,11.175012588501,11.1751661300659,11.1753234863281,11.1754808425903,11.1756372451782,11.1757917404175,11.1759490966797,11.1761064529419,11.1762638092041,11.1764211654663,11.1765756607056,11.1767330169678,11.1768913269043,11.1770458221436,11.1772041320801,11.1773586273193,11.1775131225586,11.1776714324951,11.1778268814087,11.1779813766479,11.1781396865845,11.178295135498,11.1784534454346,11.1786088943481,11.1787643432617,11.1789226531982,11.1790819168091,11.1792392730713,11.1793956756592,11.1795520782471,11.1797065734863,11.1798639297485,11.1800193786621,11.18017578125,11.1803350448608,11.1804914474487,11.1806488037109,11.1808052062988,11.1809616088867,11.1811170578003,11.1812734603882,11.1814298629761,11.1815872192383,11.1817436218262,11.1819009780884,11.1820573806763,11.1822147369385,11.1823701858521,11.1825275421143,11.1826829910278,11.1828384399414,11.1829977035522,11.1831531524658,11.1833095550537,11.1834669113159,11.1836233139038,11.183780670166,11.1839370727539,11.1840896606445,11.1842498779297,11.1844062805176,11.1845636367798,11.184720993042,11.1848773956299,11.1850328445435,11.1851892471313,11.1853456497192,11.1855030059814,11.185661315918,11.1858158111572,11.1859731674194,11.1861295700073,11.1862869262695,11.1864433288574,11.186598777771,11.1867561340332,11.186915397644,11.1870718002319,11.1872262954712,11.1873836517334,11.1875400543213,11.1876964569092,11.1878528594971,11.1880111694336,11.1881675720215,11.188325881958,11.1884822845459,11.1886377334595,11.188793182373,11.1889505386353,11.1891088485718,11.1892642974854,11.1894216537476,11.1895799636841,11.189736366272,11.1898937225342,11.1900510787964,11.1902055740356,11.1903610229492,11.1905193328857,11.1906747817993,11.1908340454102,11.1909923553467,11.1911468505859,11.1913051605225,11.1914615631104,11.1916170120239,11.1917715072632,11.1919298171997,11.1920871734619,11.1922454833984,11.1924018859863,11.1925592422485,11.1927165985107,11.1928739547729,11.1930294036865,11.1931848526001,11.1933403015137,11.1935014724731,11.1936569213867,11.1938152313232,11.1939706802368,11.1941289901733,11.1942863464355,11.1944408416748,11.1945991516113,11.1947555541992,11.1949138641357,11.195068359375,11.1952266693115,11.1953840255737,11.1955404281616,11.1956977844238,11.1958541870117,11.1960115432739,11.1961688995361,11.196325302124,11.1964826583862,11.1966390609741,11.1967964172363,11.1969537734985,11.1971092224121,11.1972665786743,11.1974258422852,11.1975841522217,11.1977386474609,11.1978969573975,11.1980533599854,11.1982078552246,11.1983661651611,11.198522567749,11.1986808776855,11.1988391876221,11.19899559021,11.1991539001465,11.1993083953857,11.1994667053223,11.1996221542358,11.199779510498,11.1999368667603,11.2000961303711,11.2002515792847,11.2004108428955,11.2005662918091,11.2007207870483,11.2008800506592,11.2010364532471,11.201192855835,11.2013540267944,11.2015104293823,11.2016668319702,11.2018241882324,11.2019815444946,11.2021379470825,11.2022943496704
0,0,0,0,0,0,0,0,0,0,0,0,0,0,0,0,0,0,0,0,0,0,0,0,0,0,0,0,0,0,0,0,0,0,0,0,0,0,0,0,0,0,0,0,0,0,0,0,0,0,0,0,0,0,0,0,0,0,0,0,0,0,0,0,0,0,0,0,0,0,0,0,0,0,0,0,0,0,0,0,0,0,0,0,0,0,0,0,0,0,0,0,0,0,0,0,0,0,0,0,0,0,0,0,0,0,0,0,0,0,0,0,0,0,0,0,0,0,0,0,0,0,0,0,0,0,0,0,0,0,0,0,0,11.0953855514526,11.0955400466919,11.0956935882568,11.0958480834961,11.0960025787354,11.0961570739746,11.0963077545166,11.0964622497559,11.0966167449951,11.0967712402344,11.0969295501709,11.0970840454102,11.0972356796265,11.0973901748657,11.097541809082,11.0976972579956,11.0978517532349,11.0980043411255,11.098162651062,11.0983142852783,11.0984697341919,11.0986223220825,11.0987777709961,11.0989303588867,11.0990858078003,11.0992412567139,11.0993938446045,11.0995502471924,11.099705696106,11.0998620986938,11.1000118255615,11.1001672744751,11.10032081604,11.1004734039307,11.1006298065186,11.1007833480835,11.1009397506714,11.1010932922363,11.1012496948242,11.1014032363892,11.1015567779541,11.101710319519,11.1018648147583,11.1020183563232,11.1021718978882,11.1023263931274,11.1024799346924,11.1026372909546,11.1027917861938,11.1029491424561,11.103099822998,11.1032543182373,11.1034088134766,11.1035633087158,11.1037178039551,11.1038694381714,11.1040277481079,11.1041822433472,11.1043367385864,11.1044921875,11.1046466827393,11.1047992706299,11.1049509048462,11.1051063537598,11.1052618026733,11.1054134368896,11.1055727005005,11.1057281494141,11.1058769226074,11.106032371521,11.1061887741089,11.1063413619995,11.1064968109131,11.106653213501,11.1068058013916,11.1069650650024,11.1071176528931,11.107271194458,11.1074275970459,11.1075773239136,11.1077337265015,11.1078872680664,11.1080408096313,11.1081972122192,11.1083507537842,11.1085071563721,11.1086616516113,11.1088180541992,11.1089687347412,11.1091232299805,11.1092796325684,11.1094341278076,11.1095876693726,11.1097421646118,11.109899520874,11.1100540161133,11.1102085113525,11.1103630065918,11.1105175018311,11.1106691360474,11.1108236312866,11.1109781265259,11.1111335754395,11.1112880706787,11.1114435195923,11.1115980148315,11.1117534637451,11.1119089126587,11.1120634078979,11.1122159957886,11.1123685836792,11.1125268936157,11.1126794815063,11.1128377914429,11.1129903793335,11.1131458282471,11.1132984161377,11.1134548187256,11.1136074066162,11.1137638092041,11.1139163970947,11.1140727996826,11.1142292022705,11.1143817901611,11.114538192749,11.114691734314,11.1148452758789,11.1150016784668,11.1151552200317,11.1153116226196,11.1154670715332,11.1156225204468,11.115779876709,11.1159353256226,11.1160888671875,11.1162414550781,11.1163949966431,11.116551399231,11.1167049407959,11.1168613433838,11.1170167922974,11.1171712875366,11.1173257827759,11.1174821853638,11.117636680603,11.1177883148193,11.1179437637329,11.1180982589722,11.1182546615601,11.1184101104736,11.1185646057129,11.1187200546265,11.11887550354,11.119029045105,11.1191844940186,11.1193361282349,11.1194915771484,11.1196479797363,11.1198034286499,11.1199588775635,11.1201114654541,11.1202669143677,11.1204233169556,11.1205778121948,11.1207304000854,11.120888710022,11.1210432052612,11.1211957931519,11.1213521957397,11.1215076446533,11.1216602325439,11.1218175888062,11.1219720840454,11.1221256256104,11.1222810745239,11.1224374771118,11.1225919723511,11.1227474212646,11.122899055481,11.1230554580688,11.1232109069824,11.1233644485474,11.1235237121582,11.1236763000488,11.1238307952881,11.1239862442017,11.1241397857666,11.1242952346802,11.1244516372681,11.124605178833,11.1247625350952,11.1249179840088,11.125072479248,11.1252241134644,11.1253814697266,11.1255350112915,11.1256895065308,11.125846862793,11.1260004043579,11.1261577606201,11.1263132095337,11.1264686584473,11.1266222000122,11.1267766952515,11.1269302368164,11.1270866394043,11.1272392272949,11.1273984909058,11.127552986145,11.1277093887329,11.1278619766235,11.1280183792114,11.1281709671021,11.1283264160156,11.1284809112549,11.1286373138428,11.1287927627563,11.1289482116699,11.1291027069092,11.1292581558228,11.1294136047363,11.1295690536499,11.1297225952148,11.1298770904541,11.130033493042,11.1301898956299,11.1303434371948,11.1304979324341,11.1306524276733,11.1308078765869,11.1309623718262,11.1311187744141,11.1312732696533,11.1314277648926,11.1315841674805,11.131739616394,11.1318941116333,11.1320505142212,11.1322040557861,11.1323595046997,11.1325159072876,11.1326694488525,11.1328268051147,11.1329822540283,11.1331357955933,11.1332931518555,11.1334466934204,11.1336011886597,11.1337566375732,11.1339139938354,11.134069442749,11.134222984314,11.1343784332275,11.1345329284668,11.1346874237061,11.1348438262939,11.1349983215332,11.1351566314697,11.1353101730347,11.1354675292969,11.1356201171875,11.1357746124268,11.1359300613403,11.1360864639282,11.1362409591675,11.1363964080811,11.1365528106689,11.1367101669312,11.1368637084961,11.137020111084,11.1371726989746,11.1373281478882,11.1374835968018,11.1376399993896,11.1377954483032,11.1379518508911,11.1381063461304
0,0,0,0,0,0,0,0,0,0,0,0,0,0,0,0,0,0,0,0,0,0,0,0,0,0,0,0,0,0,0,0,0,0,0,0,0,0,0,0,0,0,0,0,0,0,0,0,0,0,0,0,0,0,0,0,0,0,0,0,0,0,0,0,0,0,0,0,0,0,0,0,0,0,0,0,0,0,0,0,0,0,0,0,0,0,0,0,0,0,0,0,0,0,0,0,0,0,0,0,0,0,0,0,0,0,0,0,0,0,0,0,0,0,0,0,0,0,0,0,0,0,0,0,0,0,0,0,0,0,0,0,0,0,0,0,0,0,0,0,0,0,0,0,0,0,0,0,0,0,0,0,0,11.0354633331299,11.0356168746948,11.0357675552368,11.0359182357788,11.0360717773438,11.0362253189087,11.0363759994507,11.0365304946899,11.0366840362549,11.0368328094482,11.0369863510132,11.0371379852295,11.0372953414917,11.037446975708,11.03759765625,11.0377492904663,11.0379037857056,11.0380554199219,11.0382070541382,11.0383586883545,11.0385112762451,11.0386657714844,11.0388212203979,11.0389728546143,11.0391244888306,11.0392770767212,11.0394296646118,11.0395812988281,11.0397338867188,11.0398864746094,11.0400419235229,11.0401945114136,11.0403470993042,11.0404996871948,11.0406522750854,11.0408048629761,11.040958404541,11.0411081314087,11.0412607192993,11.0414142608643,11.0415678024292,11.0417203903198,11.0418739318848,11.0420274734497,11.0421772003174,11.0423307418823,11.0424842834473,11.0426349639893,11.0427856445312,11.0429430007935,11.0430936813354,11.0432472229004,11.0433979034424,11.0435523986816,11.0437030792236,11.0438575744629,11.0440092086792,11.0441627502441,11.0443172454834,11.0444717407227,11.044623374939,11.0447750091553,11.0449266433716,11.0450782775879,11.0452327728271,11.0453844070435,11.0455369949341,11.0456914901733,11.0458469390869,11.0459985733032,11.0461511611938,11.0462999343872,11.0464525222778,11.0466051101685,11.046760559082,11.0469131469727,11.047064781189,11.0472183227539,11.0473737716675,11.0475263595581,11.0476789474487,11.0478324890137,11.0479850769043,11.048134803772,11.0482883453369,11.0484409332275,11.0485944747925,11.0487480163574,11.0489015579224,11.0490579605103,11.0492076873779,11.0493612289429,11.0495119094849,11.0496692657471,11.0498170852661,11.0499706268311,11.050121307373,11.0502786636353,11.0504322052002,11.0505838394165,11.0507345199585,11.0508918762207,11.051043510437,11.051194190979,11.0513486862183,11.0515003204346,11.0516548156738,11.0518064498901,11.0519609451294,11.05211353302,11.0522651672363,11.0524196624756,11.0525732040405,11.0527267456055,11.0528793334961,11.053032875061,11.0531873703003,11.0533399581909,11.0534944534302,11.0536451339722,11.0537977218628,11.0539512634277,11.054102897644,11.054256439209,11.0544128417969,11.0545635223389,11.0547180175781,11.0548715591431,11.0550231933594,11.05517578125,11.0553274154663,11.0554809570312,11.0556335449219,11.0557889938354,11.0559425354004,11.0560941696167,11.0562477111816,11.0564002990723,11.0565519332886,11.0567045211792,11.0568580627441,11.0570135116577,11.0571660995483,11.0573205947876,11.0574731826782,11.0576267242432,11.0577783584595,11.0579328536987,11.0580825805664,11.05823802948,11.0583915710449,11.0585441589355,11.0586977005005,11.0588502883911,11.0590038299561,11.059157371521,11.0593090057373,11.0594644546509,11.0596160888672,11.0597696304321,11.0599231719971,11.0600757598877,11.0602293014526,11.0603818893433,11.0605354309082,11.0606880187988,11.0608434677124,11.0609951019287,11.061149597168,11.0613021850586,11.0614528656006,11.0616073608398,11.0617609024048,11.061915397644,11.0620698928833,11.0622215270996,11.0623760223389,11.0625267028809,11.0626811981201,11.0628337860107,11.0629873275757,11.0631408691406,11.0632925033569,11.0634479522705,11.0636034011841,11.0637559890747,11.063907623291,11.0640602111816,11.0642127990723,11.0643653869629,11.0645198822021,11.0646753311157,11.0648279190063,11.0649824142456,11.0651340484619,11.0652866363525,11.0654401779175,11.0655937194824,11.0657453536987,11.0658979415894,11.0660543441772,11.0662078857422,11.0663614273071,11.0665140151978,11.066668510437,11.0668210983276,11.0669717788696,11.0671272277832,11.0672826766968,11.0674352645874,11.0675868988037,11.0677394866943,11.0678958892822,11.0680484771729,11.0682010650635,11.0683526992798,11.068510055542,11.0686626434326,11.0688161849976,11.0689687728882,11.0691204071045,11.0692768096924,11.0694284439087,11.0695819854736,11.0697355270386,11.0698890686035,11.0700426101685,11.0701961517334,11.0703506469727,11.0705041885376,11.0706577301025,11.0708122253418,11.0709638595581,11.071120262146,11.0712728500366,11.0714254379272,11.0715780258179,11.0717306137085,11.0718870162964,11.072039604187,11.072193145752,11.0723476409912,11.0725021362305,11.0726556777954,11.0728054046631,11.072958946228,11.073112487793,11.0732660293579,11.0734195709229,11.0735731124878,11.0737295150757,11.0738840103149,11.0740375518799,11.0741910934448,11.0743427276611,11.0744962692261,11.0746488571167
