10.3975057601929,10.3979015350342,10.3982915878296,10.3986873626709,10.3990831375122,10.3994789123535,10.3998727798462,10.4002656936646,10.4006595611572,10.4010562896729,10.4014472961426,10.4018440246582,10.4022417068481,10.4026327133179,10.4030275344849,10.4034252166748,10.4038171768188,10.4042119979858,10.4046068191528,10.4050025939941,10.4053983688354,10.4057903289795,10.4061861038208,10.4065856933594,10.4069786071777,10.4073753356934,10.4077653884888,10.4081649780273,10.40855884552,10.4089527130127,10.4093465805054,10.4097442626953,10.410138130188,10.410532951355,10.4109306335449,10.411322593689,10.4117212295532,10.4121160507202,10.4125118255615,10.4129066467285,10.4133024215698,10.4136981964111,10.4140939712524,10.4144878387451,10.4148836135864,10.4152803421021,10.4156742095947,10.4160737991333,10.416467666626,10.4168615341187,10.4172592163086,10.4176530838013,10.4180507659912,10.4184494018555,10.4188404083252,10.4192390441895,10.4196338653564,10.4200296401978,10.420428276062,10.4208202362061,10.4212169647217,10.421612739563,10.4220123291016,10.4224052429199,10.4228019714355,10.4231986999512,10.4235954284668,10.4239940643311,10.424388885498,10.424786567688,10.425181388855,10.4255790710449,10.4259738922119,10.4263696670532,10.4267683029175,10.4271650314331,10.4275598526001,10.42795753479,10.4283561706543,10.4287490844727,10.4291477203369,10.4295425415039,10.4299402236938,10.4303369522095,10.4307336807251,10.4311323165894,10.431529045105,10.4319267272949,10.4323225021362,10.4327182769775,10.4331159591675,10.4335117340088,10.433910369873,10.434308052063,10.4347066879272,10.4351024627686,10.4355010986328,10.4358978271484,10.4362936019897,10.4366903305054,10.4370880126953,10.4374856948853,10.4378833770752,10.4382801055908,10.4386777877808,10.4390745162964,10.4394731521606,10.4398708343506,10.4402685165405,10.4406642913818,10.4410619735718,10.441460609436,10.4418601989746,10.4422550201416,10.4426536560059,10.4430522918701,10.4434499740601,10.4438486099243,10.4442443847656,10.4446439743042,10.4450407028198,10.4454383850098,10.4458351135254,10.4462356567383,10.4466342926025,10.4470310211182,10.4474306106567,10.4478282928467,10.4482269287109,10.4486217498779,10.4490203857422,10.4494199752808,10.4498167037964,10.450216293335,10.4506158828735,10.4510145187378,10.4514131546021,10.451810836792,10.4522104263306,10.4526071548462,10.4530048370361,10.4534034729004,10.453803062439,10.4542007446289,10.4546012878418,10.4549980163574,10.455397605896,10.4557971954346,10.4561967849731,10.4565925598145,10.4569931030273,10.4573926925659,10.4577894210815,10.4581899642944,10.4585905075073,10.4589881896973,10.4593877792358,10.4597864151001,10.4601860046387,10.4605827331543,10.4609832763672,10.4613819122314,10.4617805480957,0,0,0,0,0,0,0,0,0,0,0,0,0,0,0,0,0,0,0,0,0,0,0,0,0,0,0,0,0,0,0,0,0,0,0,0,0,0,0,0,0,0,0,0,0,0,0,0,0,0,0,0,0,0,0,0,0,0,0,0,0,0,0,0,0,0,0,0,0,0,0,0,0,0,0,0,0,0,0,0,0,0,0,0,0,0,0,0,0,0,0,0,0,0,0,0,0,0,0,0,0,0,0,0,0,0,0,0,0,0,0,0,0,0,0,0,0,0,0,0,0,0,0,0,0,0,0,0,0,0,0,0,0,0,0,0,0,0,0,0,0,0,0,0,0,0,0,0,0,0,0,0,0,0,0,0,0,0,0,0,0,0,0,0,0,0,0,0,0,0,0,0,0,0,0,0,0,0,0,0,0,0,0,0,0,0,0,0,0,0,0,0,0,0,0,0,0,0,0,0,0,0,0,0,0,0,0,0,0,0,0,0,0,0,0,0,0,0,0,0,0,0,0,0,0,0,0,0
10.3419570922852,10.3423471450806,10.342737197876,10.3431282043457,10.3435182571411,10.3439130783081,10.3442974090576,10.3446884155273,10.3450794219971,10.3454713821411,10.3458595275879,10.346248626709,10.346640586853,10.3470325469971,10.3474245071411,10.3478145599365,10.3482036590576,10.348593711853,10.3489866256714,10.3493728637695,10.3497667312622,10.3501539230347,10.350546836853,10.3509378433228,10.3513288497925,10.3517198562622,10.352108001709,10.3525018692017,10.3528900146484,10.3532819747925,10.3536739349365,10.3540620803833,10.3544549942017,10.3548469543457,10.3552389144897,10.3556289672852,10.3560218811035,10.3564109802246,10.356803894043,10.3571910858154,10.3575849533081,10.3579750061035,10.3583688735962,10.3587560653687,10.3591508865356,10.3595418930054,10.3599328994751,10.3603277206421,10.3607187271118,10.3611078262329,10.361499786377,10.361891746521,10.3622808456421,10.3626756668091,10.3630657196045,10.3634576797485,10.3638477325439,10.3642406463623,10.3646306991577,10.3650245666504,10.3654174804688,10.3658113479614,10.3662023544312,10.3665904998779,10.3669843673706,10.3673753738403,10.3677701950073,10.3681602478027,10.3685512542725,10.3689451217651,10.3693370819092,10.3697309494019,10.3701219558716,10.3705139160156,10.3709087371826,10.3712997436523,10.3716907501221,10.3720827102661,10.3724756240845,10.3728675842285,10.3732614517212,10.3736524581909,10.3740463256836,10.374439239502,10.374831199646,10.3752241134644,10.3756160736084,10.3760080337524,10.3764009475708,10.3767948150635,10.3771886825562,10.3775796890259,10.3779735565186,10.3783655166626,10.378758430481,10.3791532516479,10.3795433044434,10.379937171936,10.3803300857544,10.3807239532471,10.3811159133911,10.3815097808838,10.3819026947021,10.3822965621948,10.3826894760132,10.3830833435059,10.3834743499756,10.3838691711426,10.3842611312866,10.384654045105,10.385048866272,10.3854417800903,10.385835647583,10.3862285614014,10.3866233825684,10.3870162963867,10.3874082565308,10.3878030776978,10.3881969451904,10.3885917663574,10.3889827728271,10.3893785476685,10.3897724151611,10.3901653289795,10.3905601501465,10.3909540176392,10.3913450241089,10.3917407989502,10.3921346664429,10.3925285339355,10.3929224014282,10.3933162689209,10.3937091827393,10.3941068649292,10.3944988250732,10.3948936462402,10.3952865600586,10.3956823348999,10.3960762023926,10.3964700698853,10.3968639373779,10.3972578048706,10.3976545333862,10.3980474472046,10.3984432220459,10.3988370895386,10.3992300033569,10.3996257781982,10.4000196456909,10.4004135131836,10.4008073806763,10.4012041091919,10.4015979766846,10.4019927978516,10.4023876190186,10.4027814865112,10.4031763076782,10.4035701751709,10.4039659500122,10.4043598175049,10.4047574996948,10.4051504135132,10.4055480957031,0,0,0,0,0,0,0,0,0,0,0,0,0,0,0,0,0,0,0,0,0,0,0,0,0,0,0,0,0,0,0,0,0,0,0,0,0,0,0,0,0,0,0,0,0,0,0,0,0,0,0,0,0,0,0,0,0,0,0,0,0,0,0,0,0,0,0,0,0,0,0,0,0,0,0,0,0,0,0,0,0,0,0,0,0,0,0,0,0,0,0,0,0,0,0,0,0,0,0,0,0,0,0,0,0,0,0,0,0,0,0,0,0,0,0,0,0,0,0,0,0,0,0,0,0,0,0,0,0,0,0,0,0,0,0,0,0,0,0,0,0,0,0,0,0,0,0,0,0,0,0,0,0,0,0,0,0,0,0,0,0,0,0,0,0,0,0,0,0,0,0,0,0,0,0,0,0,0,0,0,0,0,0,0,0,0,0,0,0,0,0,0,0,0,0,0,0,0,0,0,0,0,0,0,0,0,0,0,0,0,0,0,0,0,0,0,0,0,0,0,0,0,0,0,0,0,0,0
10.286997795105,10.2873830795288,10.2877712249756,10.2881536483765,10.2885417938232,10.2889308929443,10.2893133163452,10.2896995544434,10.2900886535645,10.2904748916626,10.2908611297607,10.2912445068359,10.2916316986084,10.2920179367065,10.292405128479,10.2927894592285,10.293173789978,10.2935638427734,10.2939519882202,10.2943363189697,10.2947244644165,10.2951097488403,10.2954978942871,10.2958831787109,10.2962684631348,10.2966547012329,10.297043800354,10.2974262237549,10.297815322876,10.2982053756714,10.2985887527466,10.2989749908447,10.2993650436401,10.2997522354126,10.3001394271851,10.3005237579346,10.300910949707,10.3013019561768,10.3016862869263,10.302074432373,10.3024625778198,10.3028469085693,10.3032360076904,10.3036212921143,10.304009437561,10.3043956756592,10.3047847747803,10.3051710128784,10.3055601119995,10.3059434890747,10.3063335418701,10.3067226409912,10.3071098327637,10.3074970245361,10.3078842163086,10.3082714080811,10.3086557388306,10.3090467453003,10.3094310760498,10.3098230361938,10.3102073669434,10.3105964660645,10.3109874725342,10.3113698959351,10.3117589950562,10.3121452331543,10.3125371932983,10.3129234313965,10.3133125305176,10.3137006759644,10.3140878677368,10.3144779205322,10.314866065979,10.3152513504028,10.3156404495239,10.3160276412964,10.3164176940918,10.3168039321899,10.3171949386597,10.3175811767578,10.3179712295532,10.318359375,10.3187484741211,10.3191356658936,10.3195238113403,10.3199119567871,10.3202991485596,10.320689201355,10.3210773468018,10.3214664459229,10.3218545913696,10.322244644165,10.3226318359375,10.3230209350586,10.3234081268311,10.3237972259521,10.3241872787476,10.3245763778687,10.3249645233154,10.3253526687622,10.3257427215576,10.326132774353,10.3265218734741,10.3269071578979,10.327296257019,10.3276853561401,10.3280754089355,10.3284664154053,10.3288545608521,10.3292455673218,10.3296327590942,10.3300228118896,10.3304100036621,10.3307991027832,10.3311891555786,10.331579208374,10.3319683074951,10.3323574066162,10.3327465057373,10.333137512207,10.3335256576538,10.3339166641235,10.3343048095703,10.33469581604,10.3350849151611,10.3354759216309,10.3358640670776,10.3362531661987,10.3366451263428,10.3370313644409,10.337423324585,10.3378124237061,10.3382024765015,10.3385915756226,10.3389806747437,10.3393716812134,10.3397617340088,10.3401508331299,10.3405408859253,10.3409337997437,10.3413209915161,10.3417148590088,10.3421010971069,10.3424911499023,10.3428821563721,10.3432731628418,10.3436632156372,10.3440523147583,10.3444442749023,10.3448343276978,10.3452262878418,10.3456153869629,10.3460025787354,10.3463945388794,10.3467855453491,10.3471765518188,10.3475666046143,10.3479595184326,10.3483476638794,10.3487377166748,10.3491296768188,10.3495206832886,10.3499097824097,0,0,0,0,0,0,0,0,0,0,0,0,0,0,0,0,0,0,0,0,0,0,0,0,0,0,0,0,0,0,0,0,0,0,0,0,0,0,0,0,0,0,0,0,0,0,0,0,0,0,0,0,0,0,0,0,0,0,0,0,0,0,0,0,0,0,0,0,0,0,0,0,0,0,0,0,0,0,0,0,0,0,0,0,0,0,0,0,0,0,0,0,0,0,0,0,0,0,0,0,0,0,0,0,0,0,0,0,0,0,0,0,0,0,0,0,0,0,0,0,0,0,0,0,0,0,0,0,0,0,0,0,0,0,0,0,0,0,0,0,0,0,0,0,0,0,0,0,0,0,0,0,0,0,0,0,0,0,0,0,0,0,0,0,0,0,0,0,0,0,0,0,0,0,0,0,0,0,0,0,0,0,0,0,0,0,0,0,0,0,0,0,0,0,0,0,0,0,0,0,0,0,0,0,0,0,0,0,0,0,0,0,0,0,0,0,0,0,0,0,0,0,0,0,0,0,0,0
10.2326231002808,10.233003616333,10.2333860397339,10.2337665557861,10.2341499328613,10.2345304489136,10.2349138259888,10.2352952957153,10.2356786727905,10.2360601425171,10.2364416122437,10.2368230819702,10.2372045516968,10.2375888824463,10.2379684448242,10.238353729248,10.2387323379517,10.2391147613525,10.2395000457764,10.2398834228516,10.2402658462524,10.2406454086304,10.2410326004028,10.2414121627808,10.241795539856,10.2421760559082,10.2425603866577,10.24294090271,10.2433252334595,10.243709564209,10.2440872192383,10.2444753646851,10.2448568344116,10.2452421188354,10.2456207275391,10.2460060119629,10.2463884353638,10.2467737197876,10.2471532821655,10.2475357055664,10.2479190826416,10.2483024597168,10.2486886978149,10.2490682601929,10.2494525909424,10.2498359680176,10.2502202987671,10.2506036758423,10.2509851455688,10.2513666152954,10.2517538070679,10.2521352767944,10.252516746521,10.2529020309448,10.2532844543457,10.2536697387695,10.2540550231934,10.2544374465942,10.2548170089722,10.255202293396,10.2555856704712,10.2559719085693,10.2563552856445,10.2567358016968,10.2571220397949,10.2575025558472,10.2578897476196,10.2582712173462,10.2586584091187,10.2590398788452,10.2594242095947,10.2598085403442,10.2601919174194,10.2605772018433,10.2609605789185,10.2613468170166,10.2617301940918,10.2621145248413,10.2624969482422,10.2628812789917,10.2632646560669,10.2636480331421,10.2640342712402,10.2644166946411,10.2648029327393,10.2651882171631,10.2655725479126,10.2659568786621,10.2663412094116,10.2667226791382,10.2671089172363,10.2674932479858,10.2678785324097,10.2682638168335,10.2686471939087,10.2690324783325,10.2694187164307,10.2698020935059,10.2701873779297,10.2705698013306,10.2709541320801,10.2713394165039,10.2717256546021,10.2721099853516,10.2724933624268,10.2728805541992,10.2732648849487,10.2736501693726,10.2740364074707,10.2744207382202,10.2748022079468,10.2751903533936,10.2755756378174,10.2759609222412,10.2763442993164,10.2767305374146,10.277117729187,10.2775020599365,10.277889251709,10.2782707214355,10.2786588668823,10.2790422439575,10.279426574707,10.2798137664795,10.280198097229,10.2805862426758,10.2809705734253,10.2813568115234,10.2817420959473,10.2821254730225,10.2825117111206,10.2828969955444,10.2832832336426,10.2836685180664,10.2840547561646,10.2844400405884,10.2848272323608,10.2852115631104,10.2855978012085,10.285982131958,10.2863693237305,10.2867555618286,10.2871427536011,10.2875289916992,10.2879133224487,10.2882986068726,10.2886877059937,10.2890739440918,10.2894601821899,10.2898445129395,10.2902297973633,10.2906160354614,10.2910032272339,10.2913904190063,10.2917766571045,10.2921628952026,10.2925500869751,10.2929382324219,10.2933225631714,10.2937068939209,10.2940950393677,10.2944822311401,0,0,0,0,0,0,0,0,0,0,0,0,0,0,0,0,0,0,0,0,0,0,0,0,0,0,0,0,0,0,0,0,0,0,0,0,0,0,0,0,0,0,0,0,0,0,0,0,0,0,0,0,0,0,0,0,0,0,0,0,0,0,0,0,0,0,0,0,0,0,0,0,0,0,0,0,0,0,0,0,0,0,0,0,0,0,0,0,0,0,0,0,0,0,0,0,0,0,0,0,0,0,0,0,0,0,0,0,0,0,0,0,0,0,0,0,0,0,0,0,0,0,0,0,0,0,0,0,0,0,0,0,0,0,0,0,0,0,0,0,0,0,0,0,0,0,0,0,0,0,0,0,0,0,0,0,0,0,0,0,0,0,0,0,0,0,0,0,0,0,0,0,0,0,0,0,0,0,0,0,0,0,0,0,0,0,0,0,0,0,0,0,0,0,0,0,0,0,0,0,0,0,0,0,0,0,0,0,0,0,0,0,0,0,0,0,0,0,0,0,0,0,0,0,0,0,0,0,0
10.1788167953491,10.1791915893555,10.1795721054077,10.1799507141113,10.1803293228149,10.1807050704956,10.1810836791992,10.1814594268799,10.1818380355835,10.1822175979614,10.1825933456421,10.18297290802,10.183349609375,10.1837301254272,10.1841068267822,10.1844863891602,10.1848640441895,10.1852445602417,10.185622215271,10.1859998703003,10.1863775253296,10.1867589950562,10.1871366500854,10.1875152587891,10.1878938674927,10.1882724761963,10.1886510848999,10.1890268325806,10.1894092559814,10.1897850036621,10.19016456604,10.190544128418,10.1909208297729,10.1913042068481,10.1916809082031,10.1920576095581,10.1924381256104,10.1928186416626,10.1931962966919,10.1935768127441,10.1939544677734,10.1943330764771,10.1947107315063,10.19508934021,10.1954708099365,10.1958465576172,10.1962280273438,10.1966104507446,10.1969900131226,10.1973657608032,10.1977453231812,10.1981248855591,10.198504447937,10.198881149292,10.1992645263672,10.1996450424194,10.2000217437744,10.2004022598267,10.200779914856,10.2011613845825,10.2015390396118,10.2019233703613,10.2022953033447,10.2026796340942,10.2030582427979,10.2034397125244,10.2038221359253,10.204195022583,10.2045774459839,10.2049560546875,10.2053384780884,10.2057189941406,10.2060995101929,10.2064781188965,10.2068567276001,10.2072381973267,10.207615852356,10.2079963684082,10.2083768844604,10.208758354187,10.2091379165649,10.2095184326172,10.2098989486694,10.2102785110474,10.2106590270996,10.2110385894775,10.2114191055298,10.211799621582,10.21217918396,10.2125597000122,10.2129411697388,10.2133207321167,10.2137022018433,10.2140817642212,10.2144641876221,10.21484375,10.2152233123779,10.2156038284302,10.2159862518311,10.216365814209,10.2167482376099,10.2171277999878,10.2175092697144,10.2178888320923,10.2182722091675,10.2186527252197,10.2190313339233,10.2194128036499,10.2197914123535,10.2201738357544,10.220555305481,10.2209367752075,10.2213182449341,10.2216997146606,10.2220792770386,10.2224617004395,10.2228422164917,10.2232227325439,10.2236051559448,10.2239847183228,10.2243671417236,10.2247486114502,10.2251319885254,10.2255115509033,10.2258930206299,10.2262735366821,10.2266540527344,10.2270383834839,10.2274169921875,10.227801322937,10.2281808853149,10.2285642623901,10.2289457321167,10.2293252944946,10.2297105789185,10.2300910949707,10.2304716110229,10.2308521270752,10.2312364578247,10.231616973877,10.2319984436035,10.2323818206787,10.2327632904053,10.2331466674805,10.2335262298584,10.2339086532593,10.2342891693115,10.2346725463867,10.2350549697876,10.2354364395142,10.235818862915,10.2362022399902,10.2365837097168,10.2369651794434,10.2373504638672,10.2377309799194,10.2381134033203,10.2384958267212,10.2388782501221,10.2392606735229,10.2396421432495,10.2400245666504,0,0,0,0,0,0,0,0,0,0,0,0,0,0,0,0,0,0,0,0,0,0,0,0,0,0,0,0,0,0,0,0,0,0,0,0,0,0,0,0,0,0,0,0,0,0,0,0,0,0,0,0,0,0,0,0,0,0,0,0,0,0,0,0,0,0,0,0,0,0,0,0,0,0,0,0,0,0,0,0,0,0,0,0,0,0,0,0,0,0,0,0,0,0,0,0,0,0,0,0,0,0,0,0,0,0,0,0,0,0,0,0,0,0,0,0,0,0,0,0,0,0,0,0,0,0,0,0,0,0,0,0,0,0,0,0,0,0,0,0,0,0,0,0,0,0,0,0,0,0,0,0,0,0,0,0,0,0,0,0,0,0,0,0,0,0,0,0,0,0,0,0,0,0,0,0,0,0,0,0,0,0,0,0,0,0,0,0,0,0,0,0,0,0,0,0,0,0,0,0,0,0,0,0,0,0,0,0,0,0,0,0,0,0,0,0,0,0,0,0,0,0,0,0,0,0,0,0,0
10.1255741119385,10.1259469985962,10.1263198852539,10.1266937255859,10.1270704269409,10.1274404525757,10.1278142929077,10.1281890869141,10.128565788269,10.1289405822754,10.1293144226074,10.1296863555908,10.1300640106201,10.1304359436035,10.1308116912842,10.1311836242676,10.131555557251,10.1319341659546,10.1323099136353,10.1326866149902,10.1330556869507,10.1334323883057,10.1338052749634,10.1341791152954,10.1345520019531,10.1349296569824,10.1353063583374,10.1356801986694,10.1360540390015,10.1364259719849,10.1368036270142,10.1371774673462,10.1375560760498,10.1379280090332,10.1383028030396,10.1386775970459,10.1390533447266,10.1394290924072,10.1398048400879,10.1401777267456,10.1405534744263,10.1409301757812,10.141303062439,10.1416759490967,10.1420526504517,10.142430305481,10.142804145813,10.143180847168,10.1435546875,10.1439294815063,10.1443071365356,10.144681930542,10.1450595855713,10.1454315185547,10.145806312561,10.1461820602417,10.146556854248,10.1469326019287,10.1473083496094,10.14768409729,10.1480569839478,10.1484365463257,10.1488094329834,10.1491861343384,10.1495628356934,10.1499366760254,10.1503133773804,10.1506881713867,10.1510648727417,10.151439666748,10.1518201828003,10.1521911621094,10.1525726318359,10.1529445648193,10.1533212661743,10.1536960601807,10.15407371521,10.1544504165649,10.1548261642456,10.1552019119263,10.1555786132812,10.1559562683105,10.1563320159912,10.1567058563232,10.1570825576782,10.1574592590332,10.1578359603882,10.1582117080688,10.1585893630981,10.1589651107788,10.1593437194824,10.1597204208374,10.1600971221924,10.1604700088501,10.1608467102051,10.1612234115601,10.161600112915,10.161979675293,10.162353515625,10.1627321243286,10.1631088256836,10.1634845733643,10.1638593673706,10.1642379760742,10.1646146774292,10.1649923324585,10.1653699874878,10.1657457351685,10.1661224365234,10.1665000915527,10.1668758392334,10.1672534942627,10.1676301956177,10.1680088043213,10.1683855056763,10.1687631607056,10.1691389083862,10.1695165634155,10.1698951721191,10.1702709197998,10.1706504821777,10.1710262298584,10.1714038848877,10.1717796325684,10.1721572875977,10.1725339889526,10.1729125976562,10.1732921600342,10.1736679077148,10.1740465164185,10.1744241714478,10.1748018264771,10.175178527832,10.175555229187,10.1759328842163,10.1763105392456,10.1766901016235,10.1770658493042,10.1774463653564,10.1778221130371,10.178201675415,10.1785793304443,10.1789541244507,10.1793327331543,10.1797122955322,10.1800909042358,10.1804676055908,10.1808462142944,10.1812238693237,10.1816024780273,10.1819801330566,10.1823587417603,10.1827363967896,10.1831130981445,10.1834926605225,10.1838712692261,10.1842498779297,10.1846284866333,10.1850061416626,10.1853847503662,10.1857624053955,10.1861438751221,0,0,0,0,0,0,0,0,0,0,0,0,0,0,0,0,0,0,0,0,0,0,0,0,0,0,0,0,0,0,0,0,0,0,0,0,0,0,0,0,0,0,0,0,0,0,0,0,0,0,0,0,0,0,0,0,0,0,0,0,0,0,0,0,0,0,0,0,0,0,0,0,0,0,0,0,0,0,0,0,0,0,0,0,0,0,0,0,0,0,0,0,0,0,0,0,0,0,0,0,0,0,0,0,0,0,0,0,0,0,0,0,0,0,0,0,0,0,0,0,0,0,0,0,0,0,0,0,0,0,0,0,0,0,0,0,0,0,0,0,0,0,0,0,0,0,0,0,0,0,0,0,0,0,0,0,0,0,0,0,0,0,0,0,0,0,0,0,0,0,0,0,0,0,0,0,0,0,0,0,0,0,0,0,0,0,0,0,0,0,0,0,0,0,0,0,0,0,0,0,0,0,0,0,0,0,0,0,0,0,0,0,0,0,0,0,0,0,0,0,0,0,0,0,0,0,0,0,0
10.0728826522827,10.0732545852661,10.0736227035522,10.0739946365356,10.0743637084961,10.0747356414795,10.0751047134399,10.0754737854004,10.0758495330811,10.0762157440186,10.0765857696533,10.0769557952881,10.0773286819458,10.0776987075806,10.0780696868896,10.0784368515015,10.0788068771362,10.0791778564453,10.0795488357544,10.0799198150635,10.0802917480469,10.080662727356,10.0810317993164,10.0814065933228,10.0817718505859,10.0821437835693,10.0825157165527,10.0828886032104,10.0832576751709,10.0836238861084,10.0840005874634,10.0843696594238,10.0847396850586,10.0851097106934,10.0854806900024,10.0858535766602,10.0862245559692,10.0865955352783,10.0869665145874,10.0873374938965,10.0877084732056,10.088080406189,10.088451385498,10.0888233184814,10.0891923904419,10.0895643234253,10.0899362564087,10.0903081893921,10.0906772613525,10.0910501480103,10.091420173645,10.0917959213257,10.0921630859375,10.0925359725952,10.09290599823,10.093279838562,10.093653678894,10.0940208435059,10.0943956375122,10.094762802124,10.0951375961304,10.0955123901367,10.0958805084229,10.0962514877319,10.0966272354126,10.096999168396,10.0973644256592,10.0977401733398,10.0981092453003,10.098484992981,10.0988550186157,10.0992279052734,10.0996007919312,10.0999736785889,10.1003456115723,10.1007175445557,10.1010894775391,10.1014623641968,10.1018362045288,10.1022052764893,10.1025762557983,10.1029491424561,10.1033229827881,10.1036958694458,10.1040678024292,10.1044406890869,10.1048126220703,10.1051836013794,10.1055574417114,10.1059284210205,10.1063013076782,10.1066741943359,10.1070489883423,10.1074209213257,10.1077919006348,10.1081657409668,10.1085376739502,10.1089134216309,10.1092844009399,10.1096563339233,10.1100292205811,10.1104021072388,10.1107749938965,10.1111469268799,10.1115217208862,10.111891746521,10.1122674942017,10.1126394271851,10.1130151748657,10.1133842468262,10.1137590408325,10.1141309738159,10.1145048141479,10.1148777008057,10.1152505874634,10.115626335144,10.1159982681274,10.1163721084595,10.1167440414429,10.1171169281006,10.1174898147583,10.117862701416,10.118236541748,10.1186103820801,10.1189851760864,10.1193580627441,10.1197338104248,10.1201057434082,10.1204795837402,10.1208524703979,10.1212244033813,10.1215991973877,10.121973991394,10.1223468780518,10.1227197647095,10.1230964660645,10.1234683990479,10.1238422393799,10.1242179870605,10.1245889663696,10.1249647140503,10.125337600708,10.1257123947144,10.1260852813721,10.1264591217041,10.1268348693848,10.1272087097168,10.1275825500488,10.1279563903809,10.1283302307129,10.1287050247192,10.1290788650513,10.1294527053833,10.129825592041,10.130202293396,10.1305751800537,10.1309509277344,10.1313257217407,10.1316995620728,10.1320724487305,10.1324481964111,10.1328220367432,10.1331968307495,10.1335716247559,10.1339464187622,10.1343212127686,10.1346950531006,10.1350717544556,10.1354475021362,10.1358184814453,10.136194229126,10.1365671157837,10.136944770813,10.1373195648193,10.1376943588257,10.138069152832,10.1384449005127,10.1388187408447,10.1391925811768,10.1395683288574,10.1399421691895,10.1403179168701,10.1406927108765,10.1410694122314,10.1414442062378,10.1418190002441,10.1421957015991,10.1425695419312,10.1429452896118,10.1433191299438,10.1436948776245,10.1440696716309,10.1444473266602,10.1448221206665,10.1451969146729,10.1455726623535,10.1459484100342,10.1463232040405,10.1466979980469,10.1470746994019,10.1474494934082,10.1478252410889,10.1482009887695,10.1485757827759,10.1489524841309,10.1493272781372,10.1497058868408,0,0,0,0,0,0,0,0,0,0,0,0,0,0,0,0,0,0,0,0,0,0,0,0,0,0,0,0,0,0,0,0,0,0,0,0,0,0,0,0,0,0,0,0,0,0,0,0,0,0,0,0,0,0,0,0,0,0,0,0,0,0,0,0,0,0,0,0,0,0,0,0,0,0,0,0,0,0,0,0,0,0,0,0,0,0,0,0,0,0,0,0,0,0,0,0,0,0,0,0,0,0,0,0,0,0,0,0,0,0,0,0,0,0,0,0,0,0,0,0,0,0,0,0,0,0,0,0,0,0,0,0,0,0,0,0,0,0,0,0,0,0,0,0,0,0,0,0,0,0,0,0,0,0,0,0,0,0,0,0,0,0,0,0,0,0,0,0,0,0,0,0,0,0,0,0,0,0,0,0,0,0,0,0
10.0207395553589,10.0211067199707,10.0214738845825,10.0218410491943,10.0222053527832,10.022572517395,10.0229368209839,10.02330493927,10.0236759185791,10.024037361145,10.0244054794312,10.0247707366943,10.0251398086548,10.025505065918,10.0258741378784,10.0262393951416,10.0266027450562,10.0269689559937,10.0273380279541,10.0277042388916,10.0280714035034,10.0284376144409,10.0288076400757,10.0291748046875,10.0295391082764,10.0299062728882,10.0302705764771,10.0306415557861,10.031005859375,10.0313739776611,10.0317392349243,10.0321073532104,10.0324764251709,10.0328416824341,10.0332098007202,10.0335760116577,10.0339450836182,10.0343112945557,10.0346775054932,10.0350437164307,10.0354127883911,10.0357828140259,10.0361499786377,10.0365133285522,10.0368804931641,10.0372514724731,10.037618637085,10.0379829406738,10.03835105896,10.0387191772461,10.0390872955322,10.0394554138184,10.0398235321045,10.0401887893677,10.0405607223511,10.0409259796143,10.0412950515747,10.0416612625122,10.0420274734497,10.0423936843872,10.042763710022,10.0431299209595,10.0434999465942,10.0438671112061,10.0442342758179,10.0446071624756,10.0449714660645,10.0453386306763,10.0457067489624,10.0460777282715,10.0464458465576,10.0468111038208,10.0471792221069,10.0475473403931,10.0479164123535,10.0482864379883,10.0486536026001,10.0490207672119,10.0493907928467,10.0497598648071,10.0501279830933,10.0504961013794,10.0508661270142,10.0512342453003,10.0516023635864,10.0519714355469,10.0523366928101,10.0527076721191,10.0530757904053,10.0534429550171,10.0538129806519,10.054181098938,10.0545520782471,10.0549192428589,10.055290222168,10.0556573867798,10.0560245513916,10.0563936233521,10.0567636489868,10.0571327209473,10.0575008392334,10.0578718185425,10.0582399368286,10.0586099624634,10.0589780807495,10.0593481063843,10.0597152709961,10.0600833892822,10.060453414917,10.0608215332031,10.0611944198608,10.061562538147,10.0619316101074,10.0623016357422,10.062668800354,10.0630388259888,10.0634078979492,10.063777923584,10.0641460418701,10.0645170211792,10.0648860931396,10.0652551651001,10.0656251907349,10.0659952163696,10.0663652420044,10.0667343139648,10.067102432251,10.0674715042114,10.0678424835205,10.0682134628296,10.06858253479,10.0689535140991,10.0693235397339,10.0696935653687,10.0700616836548,10.0704317092896,10.07080078125,10.0711727142334,10.0715417861938,10.0719108581543,10.0722818374634,10.0726509094238,10.0730228424072,10.0733919143677,10.0737638473511,10.0741310119629,10.0745010375977,10.0748720169067,10.0752410888672,10.0756130218506,10.0759840011597,10.0763549804688,10.0767230987549,10.0770950317383,10.0774660110474,10.0778350830078,10.0782051086426,10.0785751342773,10.0789470672607,10.0793170928955,10.0796890258789,10.0800590515137,10.0804319381714,10.0808010101318,10.0811710357666,10.0815401077271,10.0819101333618,10.0822839736938,10.0826539993286,10.0830249786377,10.0833940505981,10.0837650299072,10.0841379165649,10.0845079421997,10.0848808288574,10.0852479934692,10.085620880127,10.0859899520874,10.0863637924194,10.0867328643799,10.0871057510376,10.0874767303467,10.0878496170044,10.0882205963135,10.0885906219482,10.088960647583,10.0893325805664,10.0897045135498,10.0900745391846,10.0904455184937,10.0908184051514,10.0911903381348,10.0915632247925,10.0919342041016,10.092306137085,10.0926761627197,10.0930461883545,10.0934181213379,10.093789100647,10.094162940979,10.0945339202881,10.0949058532715,10.0952787399292,10.0956506729126,10.0960216522217,10.0963916778564,10.0967655181885,10.0971355438232,10.0975093841553,10.09787940979,10.0982542037964,10.0986232757568,10.0989961624146,10.0993690490723,10.0997400283813,10.1001119613647,10.1004838943481,10.1008567810059,10.1012277603149,10.1015996932983,10.1019735336304,10.1023445129395,10.1027173995972,10.1030902862549,10.1034650802612,10.1038331985474,10.1042070388794,10.1045789718628,10.1049528121948,10.1053247451782,10.1056976318359,10.1060695648193,10.1064424514771,10.1068172454834,10.1071882247925,10.1075582504272,10.1079320907593,10.1083040237427,10.108678817749,10.1090497970581,10.1094236373901,10.1097955703735,10.1101684570312,10.110541343689,10.1109142303467,10.1112861633301,10.1116600036621,10.1120328903198,0,0,0,0,0,0,0,0,0,0,0,0,0,0,0,0,0,0,0,0,0,0,0,0,0,0,0,0,0,0,0,0,0,0,0,0,0,0,0,0,0,0,0,0,0,0,0,0,0,0,0,0,0,0,0,0,0,0,0,0,0,0,0,0,0,0,0,0,0,0,0,0,0,0,0,0,0,0,0,0,0,0,0,0,0,0,0,0,0,0,0,0,0,0,0,0,0,0,0,0,0,0,0,0,0,0,0,0,0,0,0,0,0,0,0,0,0,0,0,0,0,0,0,0,0,0,0,0,0,0,0,0,0,0,0,0,0,0,0,0,0,0,0
9.96913528442383,9.96949768066406,9.9698600769043,9.9702262878418,9.97058296203613,9.97094821929932,9.97130870819092,9.97167205810547,9.97203540802002,9.97239875793457,9.97275924682617,9.97312259674072,9.97348690032959,9.97385120391846,9.97421169281006,9.97457313537598,9.97493839263916,9.97529983520508,9.97566413879395,9.97602653503418,9.97639179229736,9.97675323486328,9.97711563110352,9.97747898101807,9.9778413772583,9.97820377349854,9.97856998443604,9.97893333435059,9.97929286956787,9.97966003417969,9.98002052307129,9.98038387298584,9.98074817657471,9.98110866546631,9.98147583007812,9.98183727264404,9.98220443725586,9.98256301879883,9.98292827606201,9.98329257965088,9.98365497589111,9.9840202331543,9.98438167572021,9.98474788665771,9.98511028289795,9.98547554016113,9.98583889007568,9.98620223999023,9.98656463623047,9.98692798614502,9.98729133605957,9.98765563964844,9.98801612854004,9.98838329315186,9.98874664306641,9.98911094665527,9.98947525024414,9.98984050750732,9.99020481109619,9.99056625366211,9.99093437194824,9.99129295349121,9.99165821075439,9.99202442169189,9.99238967895508,9.99274921417236,9.99311542510986,9.99348068237305,9.99384689331055,9.9942102432251,9.99457359313965,9.9949369430542,9.99530124664307,9.99566745758057,9.99603176116943,9.99639320373535,9.99676132202148,9.99712467193604,9.99749183654785,9.9978551864624,9.99822044372559,9.99858379364014,9.99895000457764,9.9993143081665,9.99967765808105,10.0000438690186,10.0004081726074,10.0007734298706,10.0011367797852,10.0015029907227,10.0018682479858,10.0022344589233,10.0025968551636,10.0029621124268,10.0033254623413,10.0036907196045,10.004056930542,10.0044231414795,10.0047883987427,10.0051517486572,10.0055170059204,10.0058851242065,10.0062456130981,10.0066137313843,10.0069761276245,10.0073442459106,10.0077066421509,10.008074760437,10.0084390640259,10.0088052749634,10.0091714859009,10.0095357894897,10.0099010467529,10.0102653503418,10.0106315612793,10.0109968185425,10.0113611221313,10.0117282867432,10.0120935440063,10.0124626159668,10.0128269195557,10.0131931304932,10.0135564804077,10.0139236450195,10.0142889022827,10.0146532058716,10.0150203704834,10.0153856277466,10.0157537460327,10.0161190032959,10.0164842605591,10.0168504714966,10.0172157287598,10.0175819396973,10.0179462432861,10.0183143615723,10.0186796188354,10.0190458297729,10.0194129943848,10.0197811126709,10.0201454162598,10.0205116271973,10.0208768844604,10.0212430953979,10.0216102600098,10.0219774246216,10.0223426818848,10.0227079391479,10.0230770111084,10.0234432220459,10.0238075256348,10.0241756439209,10.0245409011841,10.0249071121216,10.0252742767334,10.0256404876709,10.0260066986084,10.0263719558716,10.026741027832,10.0271081924438,10.0274744033813,10.0278406143188,10.0282077789307,10.0285739898682,10.0289421081543,10.0293073654175,10.0296745300293,10.0300436019897,10.0304107666016,10.0307769775391,10.0311441421509,10.0315132141113,10.0318756103516,10.032244682312,10.0326099395752,10.032977104187,10.0333471298218,10.033712387085,10.0340814590454,10.0344476699829,10.0348148345947,10.0351829528809,10.035548210144,10.0359172821045,10.0362844467163,10.0366506576538,10.0370197296143,10.0373878479004,10.0377540588379,10.0381231307983,10.0384893417358,10.0388584136963,10.0392246246338,10.0395908355713,10.0399608612061,10.0403280258179,10.040696144104,10.0410633087158,10.0414304733276,10.0417995452881,10.0421667098999,10.042534828186,10.0429010391235,10.0432710647583,10.0436391830444,10.0440053939819,10.0443744659424,10.0447416305542,10.0451097488403,10.0454778671265,10.0458478927612,10.0462141036987,10.0465841293335,10.046950340271,10.0473203659058,10.0476865768433,10.0480556488037,10.0484237670898,10.0487909317017,10.0491619110107,10.0495290756226,10.0498971939087,10.0502662658691,10.0506324768066,10.0510025024414,10.0513706207275,10.0517387390137,10.0521078109741,10.0524759292603,10.0528469085693,10.0532140731812,10.0535821914673,10.0539512634277,10.0543193817139,10.0546875,10.0550575256348,10.0554256439209,10.0557956695557,10.0561647415161,10.0565338134766,10.056902885437,10.0572690963745,10.0576391220093,10.0580072402954,10.0583791732788,10.0587472915649,10.0591173171997,10.0594854354858,10.0598526000977,10.0602245330811,10.0605916976929,10.060959815979,10.0613307952881,10.0616998672485,10.0620698928833,10.0624399185181,10.0628080368042,10.063178062439,10.0635480880737,10.0639171600342,10.0642862319946,10.0646543502808,10.0650243759155,10.0653924942017,10.0657634735107,10.0661325454712,10.0665035247803,10.0668725967407,10.0672407150269,10.0676126480103,10.0679817199707,10.0683507919312,10.0687198638916,10.0690898895264,10.0694589614868,10.0698289871216,10.070200920105,10.0705709457397,10.0709409713745,10.0713109970093,0,0,0,0,0,0,0,0,0,0,0,0,0,0,0,0,0,0,0,0,0,0,0,0,0,0,0,0,0,0,0,0,0,0,0,0,0,0,0,0,0,0,0,0,0,0,0,0,0,0,0,0,0,0,0,0,0,0,0,0,0,0,0,0,0,0,0,0,0,0,0,0,0,0,0,0,0,0,0,0,0,0,0,0,0,0,0,0,0,0,0,0,0,0,0,0,0,0,0,0,0,0,0,0,0,0,0,0,0,0,0
9.91805648803711,9.91841506958008,9.91877555847168,9.9191370010376,9.91949272155762,9.91985130310059,9.92020988464355,9.92057132720947,9.92092990875244,9.92128944396973,9.92164516448975,9.92200756072998,9.92236423492432,9.92272758483887,9.9230842590332,9.92344093322754,9.92380428314209,9.92416095733643,9.92451858520508,9.92487621307373,9.92523956298828,9.92559719085693,9.92595863342285,9.92631340026855,9.92667770385742,9.92703628540039,9.92739486694336,9.92775630950928,9.9281120300293,9.92847442626953,9.9288330078125,9.92919540405273,9.92955207824707,9.92991161346436,9.93026828765869,9.93063068389893,9.93099117279053,9.93134784698486,9.93171119689941,9.93207168579102,9.93242931365967,9.93278980255127,9.93315124511719,9.93350887298584,9.93387031555176,9.93423175811768,9.93458938598633,9.9349479675293,9.93530654907227,9.9356689453125,9.93602752685547,9.93638706207275,9.93674659729004,9.93710899353027,9.93747138977051,9.93783092498779,9.93818759918213,9.93855094909668,9.93891143798828,9.93927097320557,9.93963527679443,9.93998908996582,9.94035053253174,9.94071102142334,9.94107246398926,9.94143295288086,9.94179153442383,9.94215297698975,9.94251441955566,9.94287967681885,9.94323825836182,9.9435977935791,9.94395923614502,9.9443187713623,9.94467830657959,9.94504070281982,9.94540119171143,9.94576072692871,9.94612407684326,9.9464807510376,9.94684314727783,9.94720363616943,9.94756507873535,9.94792747497559,9.94828987121582,9.94864940643311,9.94901084899902,9.94937229156494,9.94973373413086,9.95009231567383,9.95045280456543,9.95081424713135,9.95117664337158,9.95153903961182,9.95189952850342,9.95226097106934,9.95262241363525,9.95298385620117,9.95334529876709,9.95370483398438,9.95406818389893,9.95442676544189,9.95478916168213,9.95515155792236,9.95551204681396,9.9558744430542,9.95623779296875,9.95659828186035,9.95695972442627,9.9573221206665,9.95768165588379,9.95804405212402,9.95840549468994,9.95876598358154,9.95913028717041,9.95949268341064,9.95985507965088,9.9602165222168,9.96057987213135,9.9609375,9.96129989624023,9.96166324615479,9.96202373504639,9.96238708496094,9.96274948120117,9.96311187744141,9.96347427368164,9.96383571624756,9.96420001983643,9.96455955505371,9.96492099761963,9.96528339385986,9.96564674377441,9.96600818634033,9.96637058258057,9.9667329788208,9.96709537506104,9.96745872497559,9.96782112121582,9.96818256378174,9.96854400634766,9.96890735626221,9.96927070617676,9.96963119506836,9.96999454498291,9.97035694122314,9.97072124481201,9.97108268737793,9.97144794464111,9.97180843353271,9.97217082977295,9.97253322601318,9.97289657592773,9.97325992584229,9.9736213684082,9.97398567199707,9.9743480682373,9.97471237182617,9.97507476806641,9.97543621063232,9.97579956054688,9.97616195678711,9.97652530670166,9.97688961029053,9.97725105285645,9.97761535644531,9.97797870635986,9.9783411026001,9.97870254516602,9.97906684875488,9.97943019866943,9.9797945022583,9.98015594482422,9.9805212020874,9.98088359832764,9.98124885559082,9.98161125183105,9.98197460174561,9.98233604431152,9.98270034790039,9.98306465148926,9.98342800140381,9.98379230499268,9.98415470123291,9.98451995849609,9.98488330841064,9.98524570465088,9.98561096191406,9.98597240447998,9.98633670806885,9.98670101165771,9.98706531524658,9.98742866516113,9.98779201507568,9.98815727233887,9.98852062225342,9.9888858795166,9.98925018310547,9.9896125793457,9.98997497558594,9.9903392791748,9.99070453643799,9.99106788635254,9.99143409729004,9.99179744720459,9.99216270446777,9.99252605438232,9.99289131164551,9.99325275421143,9.99361705780029,9.99398136138916,9.99434566497803,9.99470996856689,9.99507522583008,9.99544048309326,9.99580574035645,9.99617099761963,9.99653434753418,9.99689674377441,9.99726104736328,9.99762725830078,9.99799346923828,9.99835586547852,9.9987211227417,9.99908447265625,9.99945068359375,9.99981594085693,10.0001802444458,10.0005435943604,10.0009078979492,10.0012741088867,10.0016384124756,10.0020046234131,10.002368927002,10.0027341842651,10.0030994415283,10.0034627914429,10.0038299560547,10.0041923522949,10.0045595169067,10.004921913147,10.0052900314331,10.005654335022,10.0060176849365,10.0063858032227,10.0067501068115,10.0071153640747,10.0074806213379,10.0078449249268,10.0082101821899,10.0085744857788,10.0089406967163,10.0093069076538,10.0096731185913,10.0100393295288,10.010404586792,10.0107698440552,10.0111360549927,10.0115003585815,10.0118646621704,10.0122318267822,10.0125961303711,10.0129632949829,10.0133285522461,10.0136947631836,10.0140600204468,10.0144243240356,10.0147914886475,10.0151557922363,10.0155229568481,10.0158882141113,10.0162553787231,10.0166215896606,10.0169858932495,10.0173530578613,10.0177192687988,10.0180854797363,10.0184526443481,10.0188159942627,10.0191831588745,10.019549369812,10.0199146270752,10.0202827453613,10.0206489562988,10.0210151672363,10.0213813781738,10.021746635437,10.0221147537231,10.022479057312,10.0228462219238,10.0232133865356,10.0235776901245,10.0239448547363,10.0243120193481,10.0246801376343,10.0250453948975,10.0254135131836,10.0257768630981,10.02614402771,10.0265121459961,10.0268783569336,10.0272455215454,10.0276126861572,10.0279808044434,10.0283470153809,10.0287132263184,10.0290803909302,10.0294437408447,10.0298118591309,10.0301790237427,10.0305461883545,10.0309133529663,0,0,0,0,0,0,0,0,0,0,0,0,0,0,0,0,0,0,0,0,0,0,0,0,0,0,0,0,0,0,0,0,0,0,0,0,0,0,0,0,0,0,0,0,0,0,0,0,0,0,0,0,0,0,0,0,0,0,0,0,0,0,0,0,0,0,0,0,0,0,0,0,0,0,0,0,0,0,0
9.86750030517578,9.86785411834717,9.8682107925415,9.86856460571289,9.86892223358154,9.86927890777588,9.86963367462158,9.86998748779297,9.87034225463867,9.87069702148438,9.87105178833008,9.8714075088501,9.87176513671875,9.87212085723877,9.87247371673584,9.87282848358154,9.87318515777588,9.87354373931885,9.87389659881592,9.87424945831299,9.87460899353027,9.87496280670166,9.875319480896,9.87567329406738,9.87602996826172,9.87638759613037,9.87674140930176,9.87709903717041,9.87745666503906,9.87781143188477,9.87816619873047,9.87852382659912,9.87887573242188,9.87923431396484,9.87958908081055,9.87994480133057,9.88030052185059,9.88065910339355,9.88101196289062,9.88137149810791,9.88172721862793,9.88208389282227,9.88243770599365,9.88279438018799,9.88315105438232,9.88350772857666,9.883864402771,9.8842191696167,9.88457679748535,9.88493061065674,9.88528823852539,9.88564586639404,9.88600444793701,9.88635921478271,9.88671493530273,9.88707256317139,9.88742828369141,9.88778400421143,9.88813972473145,9.88849925994873,9.88885498046875,9.88921070098877,9.88956737518311,9.88992404937744,9.89028358459473,9.89063739776611,9.89099407196045,9.8913516998291,9.8917121887207,9.89206314086914,9.89242076873779,9.89277839660645,9.89313888549805,9.89349365234375,9.89384937286377,9.89420700073242,9.89456272125244,9.89492416381836,9.89527988433838,9.89563846588135,9.89599514007568,9.8963508605957,9.89671039581299,9.89706611633301,9.89742565155029,9.89778232574463,9.89813899993896,9.89849662780762,9.89885330200195,9.89921092987061,9.89956855773926,9.89992713928223,9.90028285980225,9.90064239501953,9.90099906921387,9.90135765075684,9.90171432495117,9.90206909179688,9.90242958068848,9.9027853012085,9.9031457901001,9.90350151062012,9.90386199951172,9.90421867370605,9.90457630157471,9.90493392944336,9.90528964996338,9.90564727783203,9.906005859375,9.90636444091797,9.90672206878662,9.90708065032959,9.90743827819824,9.90779781341553,9.90815734863281,9.90851402282715,9.9088716506958,9.90922832489014,9.90958881378174,9.90994548797607,9.91030406951904,9.91066360473633,9.91101932525635,9.91137981414795,9.9117374420166,9.91209602355957,9.91245365142822,9.91281223297119,9.91316986083984,9.91352844238281,9.91388702392578,9.91424655914307,9.91460704803467,9.91496276855469,9.91532325744629,9.91567802429199,9.91603946685791,9.91639614105225,9.91675567626953,9.9171142578125,9.9174747467041,9.91783332824707,9.91819095611572,9.91855144500732,9.91891002655029,9.91926765441895,9.91962623596191,9.9199857711792,9.92034530639648,9.92070388793945,9.92106437683105,9.92142105102539,9.92178153991699,9.92214012145996,9.92249774932861,9.9228572845459,9.92321491241455,9.92357635498047,9.92393493652344,9.92429637908936,9.92465400695801,9.92501258850098,9.92537307739258,9.92573261260986,9.92609310150146,9.92644882202148,9.9268102645874,9.92716979980469,9.92752933502197,9.92788887023926,9.92824935913086,9.92860794067383,9.92896747589111,9.92932796478271,9.9296875,9.93004608154297,9.93040370941162,9.93076705932617,9.93112468719482,9.93148422241211,9.93184566497803,9.932204246521,9.9325647354126,9.9329252243042,9.93328666687012,9.93364334106445,9.93400382995605,9.93436336517334,9.93472290039062,9.93508434295654,9.93544387817383,9.93580436706543,9.93616390228271,9.93652629852295,9.93688488006592,9.93724250793457,9.9376049041748,9.93796539306641,9.93832683563232,9.93868446350098,9.93904781341553,9.93940734863281,9.93976783752441,9.9401273727417,9.9404878616333,9.9408483505249,9.94120788574219,9.94157028198242,9.94192790985107,9.94228935241699,9.94265079498291,9.94301223754883,9.94337177276611,9.94373226165771,9.94409561157227,9.94445323944092,9.94481372833252,9.94517612457275,9.94553661346436,9.94589614868164,9.94625663757324,9.94662094116211,9.94698047637939,9.94734287261963,9.94770240783691,9.9480619430542,9.9484224319458,9.94878482818604,9.94914531707764,9.94950675964355,9.94986724853516,9.95022869110107,9.95059204101562,9.95095252990723,9.95131397247314,9.95167255401611,9.95203304290771,9.95239734649658,9.95275783538818,9.9531192779541,9.9534797668457,9.95384120941162,9.95420265197754,9.95456409454346,9.95492649078369,9.95528602600098,9.95564842224121,9.95601081848145,9.95637130737305,9.95673370361328,9.95709705352783,9.95745658874512,9.95781898498535,9.95818042755127,9.95853900909424,9.95890331268311,9.95926475524902,9.95962810516357,9.95998954772949,9.96035194396973,9.96071243286133,9.96107387542725,9.9614372253418,9.96179866790771,9.96216011047363,9.96252155303955,9.96288394927979,9.96324634552002,9.96360969543457,9.9639720916748,9.96433353424072,9.96469593048096,9.96505737304688,9.96542167663574,9.96578216552734,9.96614360809326,9.96650505065918,9.96686744689941,9.96723175048828,9.9675931930542,9.96795654296875,9.96831893920898,9.96868133544922,9.96904468536377,9.96940422058105,9.96976757049561,9.97012996673584,9.97049331665039,9.97085571289062,9.97121906280518,9.97158050537109,9.97194576263428,9.9723072052002,9.97267055511475,9.97303199768066,9.97339344024658,9.97375679016113,9.97412014007568,9.97448539733887,9.9748477935791,9.97521209716797,9.9755744934082,9.97593593597412,9.97629833221436,9.97665977478027,9.97702503204346,9.97738647460938,9.97775173187256,9.97811508178711,9.97847747802734,9.97884178161621,9.97920417785645,9.97956657409668,9.97993087768555,9.9802942276001,9.98065567016602,9.9810209274292,9.98138236999512,9.98174571990967,9.98211002349854,9.98247337341309,9.98283767700195,9.98320198059082,9.98356628417969,9.98392677307129,9.98429107666016,9.98465538024902,9.98501777648926,9.98538303375244,9.98574638366699,9.98611164093018,9.98647403717041,9.98683834075928,9.98720169067383,9.98756313323975,9.98792934417725,9.98829174041748,9.98865699768066,0,0,0,0,0,0,0,0,0,0,0,0,0,0,0,0,0,0,0,0,0,0,0,0,0,0,0,0,0,0,0,0,0,0,0,0,0,0,0,0,0,0,0,0,0,0,0,0,0,0,0,0,0
9.81746006011963,9.81780624389648,9.81815814971924,9.81850814819336,9.81886100769043,9.8192138671875,9.81956768035889,9.81991767883301,9.82027149200439,9.82062530517578,9.8209753036499,9.82132625579834,9.82167720794678,9.82202816009521,9.82238006591797,9.82273483276367,9.82308578491211,9.82343769073486,9.82378959655762,9.82414150238037,9.82449722290039,9.82484340667725,9.82519817352295,9.82554817199707,9.82590103149414,9.82625389099121,9.82660675048828,9.8269567489624,9.82730960845947,9.82766056060791,9.8280143737793,9.82837104797363,9.8287181854248,9.82907295227051,9.82942390441895,9.82977771759033,9.83012962341309,9.83048057556152,9.83083248138428,9.83118724822998,9.83153629302979,9.83188819885254,9.83224391937256,9.83259582519531,9.83295154571533,9.83330154418945,9.83365440368652,9.83400726318359,9.83436012268066,9.83471393585205,9.83506679534912,9.83541488647461,9.83577156066895,9.83612537384033,9.83647918701172,9.83683300018311,9.83718490600586,9.8375358581543,9.837890625,9.83824253082275,9.83859348297119,9.83894920349121,9.83930110931396,9.83965301513672,9.84000873565674,9.84036159515381,9.84071350097656,9.84106636047363,9.8414192199707,9.84177303314209,9.84212589263916,9.84247970581055,9.84283256530762,9.843186378479,9.84354019165039,9.84389400482178,9.84424495697021,9.84460258483887,9.8449535369873,9.84530544281006,9.84566211700439,9.84601783752441,9.84636878967285,9.84672069549561,9.84707546234131,9.8474292755127,9.8477840423584,9.84813785552979,9.8484935760498,9.84884548187256,9.84920120239258,9.84955310821533,9.8499059677124,9.85025978088379,9.85061454772949,9.85096836090088,9.85132217407227,9.85167789459229,9.85203075408936,9.85238552093506,9.85274028778076,9.85309314727783,9.8534460067749,9.85380077362061,9.85415649414062,9.85451030731201,9.8548641204834,9.85521793365479,9.85557174682617,9.85592651367188,9.85628032684326,9.8566370010376,9.85698890686035,9.85734367370605,9.85769844055176,9.85805225372314,9.85840702056885,9.85876274108887,9.85911655426025,9.85947132110596,9.85982704162598,9.86018180847168,9.86053466796875,9.86088943481445,9.86124420166016,9.86159801483154,9.86195278167725,9.86230850219727,9.86266231536865,9.8630199432373,9.86337375640869,9.86372852325439,9.8640832901001,9.86443614959717,9.8647928237915,9.86514568328857,9.86550235748291,9.86585807800293,9.86621379852295,9.86656761169434,9.86692333221436,9.86727905273438,9.86763191223145,9.86798858642578,9.86834335327148,9.86870002746582,9.86905288696289,9.86940956115723,9.86976528167725,9.87011909484863,9.87047672271729,9.87083053588867,9.87118625640869,9.87154102325439,9.87189769744873,9.87225437164307,9.8726053237915,9.87296390533447,9.87331962585449,9.8736743927002,9.87403011322021,9.87438774108887,9.87474155426025,9.87509822845459,9.87545394897461,9.875807762146,9.87616539001465,9.87651920318604,9.87687683105469,9.87723255157471,9.87758827209473,9.87794494628906,9.87829971313477,9.87865543365479,9.87901020050049,9.87936782836914,9.87972450256348,9.88008117675781,9.88043594360352,9.88079261779785,9.88114833831787,9.88150405883789,9.88185977935791,9.88221740722656,9.88257503509521,9.88292980194092,9.88328552246094,9.88364219665527,9.88399887084961,9.88435363769531,9.88471126556396,9.8850679397583,9.88542175292969,9.88578128814697,9.88613700866699,9.88649272918701,9.88684940338135,9.88720607757568,9.88756275177002,9.88791942596436,9.88827896118164,9.88863277435303,9.88899040222168,9.8893461227417,9.88970470428467,9.89005947113037,9.89041709899902,9.89077377319336,9.89113140106201,9.89148998260498,9.89184474945068,9.8922004699707,9.89255714416504,9.89291572570801,9.89327144622803,9.89362907409668,9.89398670196533,9.89434337615967,9.89470100402832,9.89505767822266,9.89541625976562,9.89577102661133,9.89612674713135,9.89648532867432,9.89684295654297,9.89720153808594,9.89755821228027,9.89791774749756,9.89827346801758,9.89863204956055,9.89898872375488,9.89934349060059,9.89970207214355,9.90005779266357,9.90041828155518,9.90077495574951,9.90113258361816,9.90149021148682,9.90184879302979,9.90220642089844,9.90256500244141,9.90291976928711,9.90327835083008,9.90363693237305,9.90399265289307,9.90435314178467,9.904709815979,9.90506744384766,9.90542697906494,9.90578365325928,9.90614128112793,9.90649795532227,9.90685844421387,9.9072151184082,9.90757369995117,9.90793132781982,9.90828895568848,9.90864753723145,9.9090051651001,9.90936470031738,9.90972137451172,9.91007900238037,9.91043758392334,9.91079425811768,9.91115474700928,9.91151332855225,9.9118709564209,9.91222858428955,9.91258907318115,9.9129467010498,9.91330623626709,9.91366291046143,9.91402149200439,9.91438007354736,9.91473865509033,9.91509819030762,9.91545581817627,9.91581630706787,9.91617393493652,9.91653347015381,9.91689109802246,9.9172477722168,9.91760921478271,9.91796588897705,9.91832542419434,9.9186840057373,9.91904449462891,9.91940212249756,9.91976165771484,9.92012214660645,9.9204797744751,9.92083835601807,9.92119598388672,9.921555519104,9.92191410064697,9.92227458953857,9.92263317108154,9.92299175262451,9.92335224151611,9.9237117767334,9.92407131195068,9.92442893981934,9.92479038238525,9.92514705657959,9.92550563812256,9.92586708068848,9.92622566223145,9.92658615112305,9.92694473266602,9.92730617523193,9.92766380310059,9.92802333831787,9.92838096618652,9.92874050140381,9.92910385131836,9.9294605255127,9.9298210144043,9.9301815032959,9.9305419921875,9.9309024810791,9.93126010894775,9.93161964416504,9.93197917938232,9.93233966827393,9.93269824981689,9.93305969238281,9.93342018127441,9.93378067016602,9.93414115905762,9.93449974060059,9.93485927581787,9.93521785736084,9.93557929992676,9.93593883514404,9.93630027770996,9.93665981292725,9.93702220916748,9.93738079071045,9.93774127960205,9.93809986114502,9.9384593963623,9.93882179260254,9.93918132781982,9.93954086303711,9.93990135192871,9.94026184082031,9.94062519073486,9.94098377227783,9.94134521484375,9.94170475006104,9.94206523895264,9.94242382049561,9.94278526306152,9.94314575195312,9.94350719451904,9.94386863708496,9.94422721862793,9.94458866119385,9.94495105743408,9.94531154632568,9.94567012786865,9.94603061676025,9.9463939666748,9.94675350189209,0,0,0,0,0,0,0,0,0,0,0,0,0,0,0,0,0,0,0,0,0,0,0,0,0,0,0
9.76792144775391,9.7682638168335,9.7686128616333,9.76896095275879,9.76930999755859,9.7696590423584,9.77000522613525,9.77035427093506,9.77070713043213,9.77105045318604,9.77140331268311,9.77174663543701,9.77209377288818,9.77244663238525,9.77279376983643,9.7731409072876,9.77348899841309,9.77383899688721,9.7741870880127,9.77453517913818,9.77488327026367,9.77522850036621,9.77557945251465,9.77592849731445,9.77627658843994,9.77662563323975,9.77697467803955,9.77732372283936,9.77767276763916,9.77801895141602,9.77836799621582,9.77871799468994,9.77906799316406,9.77941799163818,9.77976417541504,9.78011798858643,9.78046226501465,9.78081226348877,9.78116321563721,9.78150749206543,9.78185558319092,9.78220653533936,9.78255462646484,9.7829065322876,9.78325462341309,9.78360652923584,9.78395462036133,9.78430366516113,9.78464984893799,9.78499889373779,9.78535079956055,9.78570079803467,9.78604698181152,9.78639698028564,9.78674983978271,9.78709602355957,9.78744316101074,9.78779697418213,9.7881441116333,9.78849506378174,9.78884220123291,9.78919315338135,9.78954410552979,9.78989505767822,9.79024314880371,9.7905912399292,9.79094314575195,9.79129219055176,9.79164028167725,9.7919864654541,9.79233837127686,9.79269123077393,9.79304027557373,9.79338932037354,9.79373645782471,9.79408931732178,9.7944393157959,9.79478931427002,9.79513931274414,9.79548931121826,9.7958402633667,9.7961893081665,9.79653835296631,9.79689121246338,9.79723930358887,9.7975902557373,9.79794025421143,9.79829120635986,9.79864120483398,9.79898834228516,9.79933929443359,9.79969120025635,9.80004215240479,9.80039119720459,9.80074024200439,9.80109119415283,9.80144309997559,9.80179405212402,9.80214405059814,9.80249404907227,9.80284309387207,9.80319499969482,9.80354595184326,9.80389499664307,9.80424690246582,9.80459880828857,9.80494785308838,9.8052978515625,9.80565071105957,9.80599880218506,9.8063497543335,9.80670261383057,9.80704975128174,9.80740356445312,9.80775451660156,9.80810546875,9.80845642089844,9.80880832672119,9.80915927886963,9.80950736999512,9.80985927581787,9.81021118164062,9.81056118011475,9.8109130859375,9.81126594543457,9.81161499023438,9.81196594238281,9.81231880187988,9.812668800354,9.81301975250244,9.81336975097656,9.81372261047363,9.81407356262207,9.81442546844482,9.81477737426758,9.81512832641602,9.81548023223877,9.81583118438721,9.81618404388428,9.81653213500977,9.81688499450684,9.81723690032959,9.81759071350098,9.8179407119751,9.81829071044922,9.81864356994629,9.81899452209473,9.81934833526611,9.81969928741455,9.82004928588867,9.82040023803711,9.82075214385986,9.82110691070557,9.82145690917969,9.82180976867676,9.82215881347656,9.82251453399658,9.82286739349365,9.82321643829346,9.82356929779053,9.82391834259033,9.82427215576172,9.82462501525879,9.82497692108154,9.82532978057861,9.82568168640137,9.82603454589844,9.82638645172119,9.82673740386963,9.82708835601807,9.82744216918945,9.82779407501221,9.82814693450928,9.82849979400635,9.8288516998291,9.82920551300049,9.82955741882324,9.82991123199463,9.83026027679443,9.83061408996582,9.83096694946289,9.83131790161133,9.8316707611084,9.83202266693115,9.83237743377686,9.83272933959961,9.83308124542236,9.83343505859375,9.8337869644165,9.83413982391357,9.83449172973633,9.8348445892334,9.83519744873047,9.83555030822754,9.83590412139893,9.836256980896,9.83661079406738,9.83696365356445,9.83731651306152,9.83766841888428,9.83802127838135,9.8383731842041,9.8387279510498,9.83908081054688,9.83943557739258,9.83978748321533,9.84014225006104,9.84049510955811,9.84084606170654,9.84119987487793,9.84155178070068,9.84190654754639,9.84225940704346,9.84261322021484,9.84296607971191,9.84332084655762,9.843674659729,9.84402751922607,9.84437942504883,9.84473323822021,9.84508895874023,9.84544086456299,9.84579563140869,9.84614849090576,9.84650135040283,9.84685707092285,9.84720897674561,9.84756374359131,9.84791564941406,9.84826946258545,9.84862422943115,9.84897804260254,9.84933280944824,9.84968662261963,9.8500394821167,9.8503942489624,9.85074901580811,9.85110187530518,9.85145568847656,9.85180854797363,9.85216236114502,9.85251808166504,9.85286998748779,9.85322570800781,9.85357856750488,9.85393619537354,9.85428905487061,9.85464382171631,9.85499572753906,9.85534954071045,9.85570430755615,9.85605812072754,9.85641384124756,9.85676765441895,9.85712337493896,9.85747814178467,9.85783386230469,9.85818672180176,9.85853862762451,9.85889530181885,9.8592472076416,9.85960388183594,9.85995960235596,9.86031436920166,9.86066722869873,9.86102199554443,9.86137866973877,9.86173248291016,9.86208724975586,9.86244010925293,9.86279678344727,9.86315059661865,9.86350727081299,9.86386108398438,9.86421680450439,9.86457061767578,9.86492729187012,9.86528301239014,9.86563491821289,9.86599063873291,9.86634540557861,9.86670207977295,9.86705589294434,9.86740970611572,9.86776733398438,9.86812305450439,9.86847877502441,9.86883163452148,9.8691873550415,9.86954212188721,9.86989688873291,9.87025356292725,9.87060832977295,9.8709659576416,9.8713207244873,9.87167549133301,9.87203121185303,9.87238502502441,9.87274169921875,9.87309551239014,9.87345218658447,9.87380695343018,9.87416553497314,9.87451934814453,9.87487602233887,9.87523174285889,9.87558555603027,9.87594127655029,9.876296043396,9.87665367126465,9.87700843811035,9.87736511230469,9.87772178649902,9.87807846069336,9.8784351348877,9.87878894805908,9.87914657592773,9.87950038909912,9.87985801696777,9.88021278381348,9.88057041168213,9.88092517852783,9.88128185272217,9.88163948059082,9.88199520111084,9.88235187530518,9.8827075958252,9.88306331634521,9.88341903686523,9.88377666473389,9.88413238525391,9.88448715209961,9.88484382629395,9.88520050048828,9.88555908203125,9.88591384887695,9.88627243041992,9.88662528991699,9.88698387145996,9.8873405456543,9.88769626617432,9.88805389404297,9.8884105682373,9.88876724243164,9.88912391662598,9.88948059082031,9.88983917236328,9.89019107818604,9.89055061340332,9.89090633392334,9.89126396179199,9.89162158966064,9.8919792175293,9.89233589172363,9.89269351959229,9.8930492401123,9.89340591430664,9.89376163482666,9.89412021636963,9.89447784423828,9.8948335647583,9.89519309997559,9.89554882049561,9.89590740203857,9.89626407623291,9.89662075042725,9.8969783782959,9.89733409881592,9.89769268035889,9.89805030822754,9.89840602874756,9.89876365661621,9.89912128448486,9.89947986602783,9.89983749389648,9.90019416809082,9.90055274963379,9.90090751647949,9.90126514434814,9.90162563323975,9.90198135375977,9.90233898162842,9.90269660949707,9.90305614471436,9.90341377258301,9.90377235412598,9.90412998199463,9.90448379516602,9.90484237670898,0,0
9.71888065338135,9.71921825408936,9.71956348419189,9.71991062164307,9.72025585174561,9.72059726715088,9.72094631195068,9.72128772735596,9.72163677215576,9.72197914123535,9.72232151031494,9.72266483306885,9.72301387786865,9.72335624694824,9.7237024307251,9.72404956817627,9.72439289093018,9.72473907470703,9.7250862121582,9.72543048858643,9.72577095031738,9.72611522674561,9.72646236419678,9.726806640625,9.72715187072754,9.72749614715576,9.7278470993042,9.72818946838379,9.72853469848633,9.72887706756592,9.72922229766846,9.729567527771,9.72991371154785,9.73025989532471,9.73060512542725,9.73094844818115,9.73129844665527,9.73164176940918,9.73198795318604,9.73233127593994,9.73267841339111,9.73302268981934,9.73336601257324,9.73371410369873,9.7340612411499,9.73440837860107,9.73475360870361,9.73509788513184,9.73544025421143,9.73578453063965,9.73613357543945,9.73647880554199,9.73682403564453,9.73717021942139,9.73751544952393,9.73786449432373,9.73821067810059,9.73855018615723,9.73890018463135,9.7392463684082,9.73959350585938,9.73993968963623,9.74028396606445,9.74063110351562,9.7409782409668,9.74132537841797,9.74166965484619,9.74201393127441,9.7423620223999,9.74270725250244,9.74305534362793,9.74340057373047,9.74374580383301,9.7440938949585,9.7444429397583,9.74478530883789,9.74513053894043,9.74547672271729,9.74582290649414,9.746169090271,9.74651908874512,9.74686527252197,9.74720859527588,9.74755859375,9.74790382385254,9.74825286865234,9.74859523773193,9.74894428253174,9.74929046630859,9.74963665008545,9.74998474121094,9.75033092498779,9.75067901611328,9.75102424621582,9.75137233734131,9.75171947479248,9.7520637512207,9.75241184234619,9.75275993347168,9.75310611724854,9.75345325469971,9.7538013458252,9.75414657592773,9.75449562072754,9.75484275817871,9.75518798828125,9.75553512573242,9.75588226318359,9.7562313079834,9.75657844543457,9.75692558288574,9.75727081298828,9.75761890411377,9.75796699523926,9.75831508636475,9.75866031646729,9.75900650024414,9.75935554504395,9.75970268249512,9.76005172729492,9.76039791107178,9.76074695587158,9.76109409332275,9.76144123077393,9.76179027557373,9.76213550567627,9.76248359680176,9.76283073425293,9.76317977905273,9.76352691650391,9.76387405395508,9.76422309875488,9.76457118988037,9.76491737365723,9.76526546478271,9.7656135559082,9.76595973968506,9.76630783081055,9.76665782928467,9.76700401306152,9.76735305786133,9.76770114898682,9.7680492401123,9.76839637756348,9.7687463760376,9.76909255981445,9.76944065093994,9.76978874206543,9.77013778686523,9.77048587799072,9.77083301544189,9.77118396759033,9.77152919769287,9.77187824249268,9.7722282409668,9.77257251739502,9.77292251586914,9.77327156066895,9.77362060546875,9.77396869659424,9.77431774139404,9.77466487884521,9.77501487731934,9.77536392211914,9.77571201324463,9.7760591506958,9.77640724182129,9.77675819396973,9.7771053314209,9.77745342254639,9.77780342102051,9.77815246582031,9.7785005569458,9.77884960174561,9.77920055389404,9.7795467376709,9.77989482879639,9.78024387359619,9.78059196472168,9.78094291687012,9.78129005432129,9.78164196014404,9.78198909759521,9.78233909606934,9.78269004821777,9.78303718566895,9.78338718414307,9.78373336791992,9.78408241271973,9.78443241119385,9.78478240966797,9.78513240814209,9.78548240661621,9.7858304977417,9.7861795425415,9.78652858734131,9.7868766784668,9.78722763061523,9.78757476806641,9.78792667388916,9.78827571868896,9.78862762451172,9.78897571563721,9.78932476043701,9.78967475891113,9.7900218963623,9.79037284851074,9.79072189331055,9.79107284545898,9.79142284393311,9.79177188873291,9.79212188720703,9.79246997833252,9.79282188415527,9.79317188262939,9.79351902008057,9.793869972229,9.79422092437744,9.79457092285156,9.79491901397705,9.79527187347412,9.79561996459961,9.79597187042236,9.79632091522217,9.79667186737061,9.79701900482178,9.79737091064453,9.79771995544434,9.79806995391846,9.79842090606689,9.79877185821533,9.79912185668945,9.79947185516357,9.79982280731201,9.80017280578613,9.80052185058594,9.80087375640869,9.8012228012085,9.80157470703125,9.80192375183105,9.80227470397949,9.8026237487793,9.80297660827637,9.80332660675049,9.80367469787598,9.80402660369873,9.80437660217285,9.80472850799561,9.80507946014404,9.8054313659668,9.80578136444092,9.80613231658936,9.80648326873779,9.8068323135376,9.80718421936035,9.80753231048584,9.80788612365723,9.80823612213135,9.8085880279541,9.80893898010254,9.80928897857666,9.80964183807373,9.80999279022217,9.81034374237061,9.81069183349609,9.81104469299316,9.81139469146729,9.81174659729004,9.81209850311279,9.8124475479126,9.81279945373535,9.81315231323242,9.81350517272949,9.8138542175293,9.81420421600342,9.81455707550049,9.81490707397461,9.81525993347168,9.8156099319458,9.81596374511719,9.81631469726562,9.81666660308838,9.81701755523682,9.81736946105957,9.81771945953369,9.81807041168213,9.8184232711792,9.81877422332764,9.81912708282471,9.81947708129883,9.81983089447021,9.82018280029297,9.82053184509277,9.82088661193848,9.82123565673828,9.82158851623535,9.82193946838379,9.82229328155518,9.82264423370361,9.82299613952637,9.82334995269775,9.82370185852051,9.82405376434326,9.8244047164917,9.82475757598877,9.82510852813721,9.82545948028564,9.82581233978271,9.8261661529541,9.82651710510254,9.82687091827393,9.82722282409668,9.82757472991943,9.8279275894165,9.82827758789062,9.8286304473877,9.82898139953613,9.8293342590332,9.82968807220459,9.83003902435303,9.83039283752441,9.83074474334717,9.83109951019287,9.83145236968994,9.8318042755127,9.83215522766113,9.8325080871582,9.83286094665527,9.83321380615234,9.83356857299805,9.83391952514648,9.83427333831787,9.83462524414062,9.83497905731201,9.83533000946045,9.8356819152832,9.83603572845459,9.83638858795166,9.83674144744873,9.83709621429443,9.8374490737915,9.83780288696289,9.83815479278564,9.83850860595703,9.83886051177979,9.83921241760254,9.83956527709961,9.839919090271,9.8402738571167,9.84062767028809,9.84097957611084,9.84133148193359,9.8416862487793,9.842041015625,9.84239196777344,9.84274578094482,9.84310150146484,9.8434534072876,9.84380626678467,9.84415912628174,9.84451389312744,9.84486675262451,9.8452205657959,9.84557342529297,9.84592723846436,9.84628105163574,9.84663391113281,9.8469877243042,9.84734153747559,9.84769439697266,9.84805011749268,9.84840202331543,9.84875869750977,9.8491096496582,9.84946250915527,9.84981918334961,9.85017108917236,9.85052680969238,9.85087871551514,9.85123348236084,9.85158920288086,9.85194396972656,9.85229587554932,9.85264873504639,9.85300350189209,9.85335731506348,9.85371112823486,9.85406684875488,9.8544225692749,9.85477447509766,9.85513019561768
9.67032527923584,9.6706657409668,9.6710033416748,9.67134761810303,9.6716890335083,9.67203330993652,9.67237377166748,9.6727123260498,9.67306041717529,9.67339897155762,9.67373752593994,9.67407894134521,9.6744213104248,9.67476081848145,9.67510318756104,9.67544555664062,9.67578792572021,9.67612743377686,9.67647075653076,9.6768102645874,9.67715072631836,9.67749404907227,9.67783451080322,9.67817783355713,9.6785192489624,9.67886257171631,9.67920398712158,9.67954540252686,9.67988967895508,9.68022727966309,9.68056869506836,9.68091106414795,9.68125247955322,9.68159484863281,9.68193626403809,9.68227863311768,9.68262100219727,9.68296337127686,9.68330001831055,9.6836462020874,9.68398857116699,9.6843318939209,9.68467235565186,9.68501567840576,9.68535614013672,9.68570232391357,9.68604373931885,9.6863842010498,9.68672561645508,9.68706607818604,9.68741035461426,9.68775177001953,9.68809700012207,9.68843841552734,9.68878364562988,9.68912220001221,9.68946743011475,9.68980693817139,9.69014930725098,9.69049167633057,9.69083404541016,9.69118022918701,9.69151973724365,9.69186305999756,9.69220638275146,9.69255256652832,9.69289302825928,9.69323062896729,9.69357395172119,9.69391822814941,9.69425964355469,9.69460678100586,9.69494819641113,9.69529247283936,9.69563388824463,9.69597911834717,9.69631767272949,9.69665908813477,9.6970043182373,9.69734668731689,9.69769191741943,9.69803142547607,9.69837760925293,9.69871997833252,9.69906139373779,9.69940662384033,9.69974994659424,9.70009136199951,9.70043468475342,9.70077991485596,9.70112228393555,9.70146465301514,9.70180892944336,9.70215034484863,9.70249652862549,9.70283794403076,9.70318412780762,9.70352554321289,9.7038688659668,9.70421409606934,9.70455646514893,9.70490169525146,9.70524215698242,9.70558643341064,9.70593070983887,9.70627403259277,9.706618309021,9.70695972442627,9.70730495452881,9.70764827728271,9.70799350738525,9.70833873748779,9.70868110656738,9.70902347564697,9.70936870574951,9.7097110748291,9.71005630493164,9.71040058135986,9.71074390411377,9.71108818054199,9.7114315032959,9.71177673339844,9.71211910247803,9.71246337890625,9.71280670166016,9.71315097808838,9.71349716186523,9.71384143829346,9.71418476104736,9.71452903747559,9.71487426757812,9.71521759033203,9.71556091308594,9.71590518951416,9.7162504196167,9.71659469604492,9.71693992614746,9.71728420257568,9.71762752532959,9.71797180175781,9.71831607818604,9.71866321563721,9.71900653839111,9.71934795379639,9.71969413757324,9.7200403213501,9.72038650512695,9.72072887420654,9.72107315063477,9.72141933441162,9.72176265716553,9.72210884094238,9.72245025634766,9.72279739379883,9.72314071655273,9.72348785400391,9.72383117675781,9.72417545318604,9.72452259063721,9.72486686706543,9.72521305084229,9.72555828094482,9.72590065002441,9.72624588012695,9.72659111022949,9.72693729400635,9.72727966308594,9.72762870788574,9.72797298431396,9.7283182144165,9.72866439819336,9.72900867462158,9.72935390472412,9.72969722747803,9.73004531860352,9.73038864135742,9.73073482513428,9.7310791015625,9.73142623901367,9.73177146911621,9.73211574554443,9.73246192932129,9.73280620574951,9.73315238952637,9.73349761962891,9.73384380340576,9.73418712615967,9.73453426361084,9.73488140106201,9.73522663116455,9.73557376861572,9.73591804504395,9.7362642288208,9.73660850524902,9.73695468902588,9.73730182647705,9.73764801025391,9.73799324035645,9.73833656311035,9.73868560791016,9.7390308380127,9.73937702178955,9.73972225189209,9.74006843566895,9.7404146194458,9.74075984954834,9.7411060333252,9.74145221710205,9.74179935455322,9.74214458465576,9.74249267578125,9.74283599853516,9.74318408966064,9.74352836608887,9.74387645721436,9.74422264099121,9.74456691741943,9.74491691589355,9.74526214599609,9.74560832977295,9.74595546722412,9.74629974365234,9.74664688110352,9.74699211120605,9.74734020233154,9.74768733978271,9.7480354309082,9.74837970733643,9.74872779846191,9.74907493591309,9.74942016601562,9.74976539611816,9.75011253356934,9.75045967102051,9.75080680847168,9.75115489959717,9.75150108337402,9.7518482208252,9.75219535827637,9.75254249572754,9.75288963317871,9.75323486328125,9.75358295440674,9.75393009185791,9.7542781829834,9.75462532043457,9.75497150421143,9.7553186416626,9.75566673278809,9.75601291656494,9.75636100769043,9.75670623779297,9.75705432891846,9.75740146636963,9.75775051116943,9.75809669494629,9.75844383239746,9.75879096984863,9.75914096832275,9.75948524475098,9.7598352432251,9.76017951965332,9.76052665710449,9.76087474822998,9.76122188568115,9.76157093048096,9.76191711425781,9.7622652053833,9.76261520385742,9.76296234130859,9.76331043243408,9.76365566253662,9.76400375366211,9.76435089111328,9.7647008895874,9.76504802703857,9.76539611816406,9.76574420928955,9.76609134674072,9.76643848419189,9.76678657531738,9.76713466644287,9.76748085021973,9.76783084869385,9.76817893981934,9.76852798461914,9.76887512207031,9.76922416687012,9.76957321166992,9.76992034912109,9.7702693939209,9.77061462402344,9.77096366882324,9.77131175994873,9.77166080474854,9.77200889587402,9.7723560333252,9.77270412445068,9.77305507659912,9.77340412139893,9.7737512588501,9.77409744262695,9.77444744110107,9.77479553222656,9.77514457702637,9.77549362182617,9.77584171295166,9.77619075775146,9.77654075622559,9.77688789367676,9.7772388458252,9.77758502960205,9.77793216705322,9.77828407287598,9.77863216400146,9.77898025512695,9.77932834625244,9.77967834472656,9.78002834320068,9.78037452697754,9.78072357177734,9.78107261657715,9.78142166137695,9.78177070617676,9.78211879730225,9.78246879577637,9.78281879425049,9.78316688537598,9.7835168838501,9.78386783599854,9.78421497344971,9.78456401824951,9.78491115570068,9.78526401519775,9.78561210632324,9.78596115112305,9.78630924224854,9.78665924072266,9.78701114654541,9.78735828399658,9.78770637512207,9.78805732727051,9.78840827941895,9.78875732421875,9.78910446166992,9.78945636749268,9.78980541229248,9.7901554107666,9.79050540924072,9.79085540771484,9.79120254516602,9.79155254364014,9.79190158843994,9.79225063323975,9.79260349273682,9.79295253753662,9.79330253601074,9.79365253448486,9.7940034866333,9.79435348510742,9.79469871520996,9.79505062103271,9.79540157318115,9.79575157165527,9.79610252380371,9.79645156860352,9.79680252075195,9.79715251922607,9.79750347137451,9.79785251617432,9.7982006072998,9.79855251312256,9.79890251159668,9.79925155639648,9.79960250854492,9.79995346069336,9.80030536651611,9.8006534576416,9.80100345611572,9.80135440826416,9.80170440673828,9.80205631256104,9.80240631103516,9.80275726318359,9.80310726165771,9.80345630645752,9.80380916595459,9.80415821075439,9.80451107025146,9.80486106872559,9.80520915985107
9.62225723266602,9.62259387969971,9.62293148040771,9.62326812744141,9.62360858917236,9.62394905090332,9.62428665161133,9.62462425231934,9.62496185302734,9.62529945373535,9.62563419342041,9.62597274780273,9.62631130218506,9.62664890289307,9.62698745727539,9.62732696533203,9.62766551971436,9.62800121307373,9.62834358215332,9.6286792755127,9.62901592254639,9.62935543060303,9.62969207763672,9.63003158569336,9.63036918640137,9.63070583343506,9.63104629516602,9.63138675689697,9.63172435760498,9.63205814361572,9.632399559021,9.632737159729,9.63307476043701,9.63341617584229,9.63375473022461,9.63409328460693,9.63443183898926,9.63477039337158,9.63510608673096,9.63544464111328,9.63578414916992,9.63612651824951,9.63646221160889,9.63680171966553,9.63714218139648,9.63747882843018,9.63781833648682,9.63815498352051,9.63849544525146,9.63883304595947,9.63917064666748,9.63951110839844,9.63985443115234,9.64019298553467,9.64053058624268,9.640869140625,9.64120674133301,9.64154243469238,9.64188385009766,9.64221954345703,9.6425609588623,9.64290332794189,9.64324283599854,9.64358139038086,9.6439208984375,9.64426040649414,9.64459419250488,9.64493656158447,9.64527702331543,9.64561653137207,9.64595413208008,9.64629459381104,9.64663505554199,9.64697551727295,9.64731311798096,9.64765357971191,9.64798831939697,9.64832973480225,9.64867115020752,9.64900970458984,9.64934825897217,9.64968967437744,9.65003204345703,9.65036773681641,9.650710105896,9.65104866027832,9.65138816833496,9.65172958374023,9.65206718444824,9.6524076461792,9.65274715423584,9.65308856964111,9.65342712402344,9.65376663208008,9.65410709381104,9.65444755554199,9.65478801727295,9.65512752532959,9.65546798706055,9.65580654144287,9.65614795684814,9.65648746490479,9.65682601928711,9.6571683883667,9.65750789642334,9.65785026550293,9.65818977355957,9.65853023529053,9.65886974334717,9.65920925140381,9.65954875946045,9.65988826751709,9.660231590271,9.66057109832764,9.66091156005859,9.66125297546387,9.66159343719482,9.6619348526001,9.66227531433105,9.6626148223877,9.6629524230957,9.66329669952393,9.66363525390625,9.66397666931152,9.6643180847168,9.66465663909912,9.66499996185303,9.66534042358398,9.66568088531494,9.66601848602295,9.66636085510254,9.66670227050781,9.6670446395874,9.66738510131836,9.667724609375,9.66806602478027,9.66840648651123,9.66874980926514,9.66908931732178,9.66942977905273,9.66977024078369,9.67011260986328,9.67045402526855,9.67079448699951,9.67113494873047,9.67147636413574,9.67181968688965,9.67215919494629,9.67250156402588,9.6728401184082,9.67318058013916,9.67352485656738,9.67386436462402,9.67420864105225,9.6745491027832,9.67489051818848,9.67523193359375,9.67557430267334,9.67591381072998,9.67625427246094,9.67659759521484,9.67693901062012,9.67727947235107,9.67762184143066,9.67796421051025,9.67830371856689,9.6786470413208,9.67899036407471,9.67932891845703,9.6796703338623,9.68001365661621,9.6803560256958,9.68069744110107,9.68103981018066,9.68138122558594,9.68172264099121,9.6820650100708,9.68240642547607,9.68274784088135,9.68308925628662,9.68343257904053,9.68377494812012,9.68411827087402,9.68446063995361,9.68480110168457,9.68514347076416,9.68548488616943,9.68582916259766,9.6861686706543,9.6865119934082,9.68685340881348,9.68719482421875,9.68753910064697,9.68788051605225,9.68822288513184,9.68856525421143,9.68890762329102,9.68925189971924,9.68959140777588,9.68993473052979,9.69027614593506,9.69062042236328,9.69096279144287,9.69130420684814,9.69164848327637,9.69199180603027,9.69233322143555,9.69267654418945,9.69301795959473,9.69336032867432,9.69370365142822,9.6940450668335,9.69439029693604,9.69473361968994,9.69507694244385,9.69541931152344,9.69576072692871,9.69610691070557,9.69644641876221,9.69678974151611,9.69713306427002,9.69747638702393,9.6978178024292,9.69816207885742,9.69850540161133,9.69884872436523,9.69919300079346,9.69953536987305,9.69987773895264,9.70022010803223,9.70056438446045,9.70090675354004,9.70125007629395,9.70159435272217,9.70193767547607,9.70228099822998,9.7026252746582,9.70296859741211,9.7033109664917,9.70365428924561,9.70399856567383,9.7043399810791,9.70468616485596,9.70502853393555,9.70537185668945,9.70571708679199,9.70606136322021,9.7064037322998,9.70674419403076,9.7070894241333,9.70743179321289,9.70777606964111,9.70812225341797,9.70846652984619,9.7088098526001,9.70915412902832,9.70949745178223,9.70984077453613,9.71018409729004,9.71052837371826,9.7108736038208,9.71121788024902,9.71156024932861,9.71190452575684,9.71225070953369,9.7125940322876,9.71293830871582,9.71328163146973,9.713623046875,9.71397018432617,9.71431255340576,9.71465969085693,9.71500015258789,9.71534633636475,9.71569156646729,9.71603488922119,9.71638107299805,9.71672248840332,9.71706771850586,9.7174129486084,9.7177562713623,9.71810150146484,9.71844577789307,9.71878910064697,9.71913528442383,9.71948146820068,9.71982383728027,9.72016906738281,9.72051334381104,9.72085666656494,9.72120380401611,9.72154712677002,9.72189235687256,9.72223663330078,9.72258186340332,9.72292613983154,9.7232723236084,9.72361469268799,9.72395992279053,9.72430610656738,9.72465133666992,9.72499752044678,9.72533988952637,9.72568702697754,9.72603034973145,9.72637748718262,9.72672080993652,9.72706317901611,9.7274112701416,9.72775554656982,9.728102684021,9.72844696044922,9.72879219055176,9.7291374206543,9.72948169708252,9.72982883453369,9.73017311096191,9.73051834106445,9.73086261749268,9.73120880126953,9.73155403137207,9.73190021514893,9.73224639892578,9.732590675354,9.73293685913086,9.73328113555908,9.73362827301025,9.73397254943848,9.73431968688965,9.73466396331787,9.73500919342041,9.73535537719727,9.7357006072998,9.73604869842529,9.7363920211792,9.73674011230469,9.73708629608154,9.73742961883545,9.7377758026123,9.73812198638916,9.73846912384033,9.73881435394287,9.73916053771973,9.73950481414795,9.73985290527344,9.74020004272461,9.74054527282715,9.74088954925537,9.74123668670654,9.7415828704834,9.74192810058594,9.74227428436279,9.74262046813965,9.74296760559082,9.74331474304199,9.74365901947021,9.7440071105957,9.74435138702393,9.7446985244751,9.74504566192627,9.74539089202881,9.74573707580566,9.74608612060547,9.74643135070801,9.74677562713623,9.74712371826172,9.74747276306152,9.74781799316406,9.7481632232666,9.74851036071777,9.74885559082031,9.74920177459717,9.74955081939697,9.74989700317383,9.75024509429932,9.75059032440186,9.75093936920166,9.75128364562988,9.75163173675537,9.75197887420654,9.75232315063477,9.75267314910889,9.75301742553711,9.75336742401123,9.7537145614624,9.75406074523926,9.75440788269043,9.75475311279297,9.75510120391846,9.75544834136963,9.7557954788208
9.57466316223145,9.57499885559082,9.57533264160156,9.57566833496094,9.57599925994873,9.57633590698242,9.57667255401611,9.57700634002686,9.57734107971191,9.57767200469971,9.57800579071045,9.57834339141846,9.57867813110352,9.57901287078857,9.57934761047363,9.57968330383301,9.58001804351807,9.58035373687744,9.5806884765625,9.58102130889893,9.5813570022583,9.58168983459473,9.5820255279541,9.58236217498779,9.58269786834717,9.58303165435791,9.5833683013916,9.58370494842529,9.58403205871582,9.58436870574951,9.58470249176025,9.58504295349121,9.58537769317627,9.58570861816406,9.58604621887207,9.58638095855713,9.58671951293945,9.58705425262451,9.58738613128662,9.58772087097168,9.58805656433105,9.58839225769043,9.5887279510498,9.58906364440918,9.5894021987915,9.5897388458252,9.59007167816162,9.59040451049805,9.59073829650879,9.59107780456543,9.59141159057617,9.59174823760986,9.59208297729492,9.59241962432861,9.59275436401367,9.59309101104736,9.59342861175537,9.59376049041748,9.59409809112549,9.59443283081055,9.59476852416992,9.59510612487793,9.5954418182373,9.59577751159668,9.596116065979,9.59644889831543,9.59678173065186,9.59711742401123,9.59745311737061,9.59779262542725,9.59812927246094,9.59846591949463,9.59880256652832,9.59913635253906,9.59947299957275,9.59980773925781,9.60014152526855,9.60047912597656,9.60081672668457,9.60115432739258,9.60149192810059,9.60182666778564,9.60216522216797,9.60249710083008,9.6028356552124,9.60317039489746,9.60350608825684,9.60384368896484,9.60417938232422,9.60451698303223,9.60485172271729,9.60519123077393,9.6055269241333,9.60586357116699,9.60620021820068,9.60653686523438,9.60687065124512,9.60720825195312,9.60754489898682,9.60788249969482,9.60822010040283,9.60855579376221,9.60889434814453,9.60923004150391,9.6095666885376,9.60990238189697,9.61023902893066,9.61057758331299,9.61091232299805,9.61124992370605,9.61158847808838,9.61192512512207,9.61226272583008,9.61260032653809,9.61293601989746,9.61327266693115,9.61361122131348,9.61394596099854,9.61428451538086,9.61462211608887,9.61495780944824,9.61529636383057,9.61563396453857,9.6159725189209,9.61630916595459,9.61664390563965,9.61698055267334,9.61732006072998,9.61765670776367,9.61799335479736,9.61833190917969,9.6186695098877,9.61900806427002,9.61934566497803,9.61968326568604,9.62001991271973,9.62035751342773,9.62069416046143,9.62103176116943,9.62137031555176,9.62170886993408,9.62204551696777,9.62238311767578,9.62272357940674,9.62305927276611,9.62339496612549,9.62373447418213,9.62407112121582,9.62441158294678,9.62474822998047,9.62508678436279,9.62542343139648,9.62576198577881,9.62610054016113,9.62643814086914,9.62677574157715,9.62711334228516,9.6274528503418,9.62778854370117,9.62812805175781,9.62846660614014,9.62880325317383,9.62914276123047,9.62948036193848,9.62982082366943,9.63015651702881,9.63049507141113,9.63083267211914,9.63117218017578,9.63151168823242,9.63184928894043,9.63218688964844,9.63252544403076,9.63286590576172,9.63320255279541,9.63354110717773,9.63387966156006,9.63421630859375,9.63455677032471,9.63489437103271,9.63523483276367,9.63557147979736,9.63591289520264,9.63624954223633,9.63658905029297,9.63692665100098,9.63726329803467,9.63760375976562,9.63794326782227,9.63828372955322,9.6386194229126,9.63896083831787,9.63930034637451,9.63963794708252,9.63997840881348,9.64031314849854,9.64065361022949,9.64099216461182,9.64133262634277,9.6416711807251,9.64201164245605,9.64235019683838,9.6426887512207,9.64302825927734,9.6433687210083,9.64370632171631,9.64404487609863,9.64438629150391,9.64472484588623,9.64506435394287,9.6454029083252,9.64574337005615,9.64608287811279,9.64642238616943,9.64676380157471,9.64709854125977,9.64743995666504,9.64777946472168,9.648118019104,9.64846038818359,9.64879703521729,9.64913940429688,9.64947700500488,9.64981746673584,9.65015697479248,9.65049648284912,9.65083599090576,9.65117454528809,9.65151596069336,9.65185642242432,9.65219593048096,9.6525354385376,9.65287590026855,9.65321445465088,9.65355396270752,9.65389442443848,9.65423393249512,9.65457534790039,9.65491390228271,9.65525531768799,9.65559577941895,9.65593719482422,9.65627574920654,9.65661525726318,9.65695571899414,9.65729522705078,9.65763568878174,9.65797519683838,9.65831661224365,9.65865612030029,9.65899658203125,9.65933799743652,9.65967845916748,9.66001987457275,9.66035556793213,9.66069793701172,9.66103935241699,9.66137981414795,9.66172122955322,9.66206169128418,9.66240215301514,9.66274166107178,9.66308403015137,9.66342353820801,9.66376304626465,9.66410350799561,9.66444492340088,9.66478633880615,9.66512584686279,9.66546821594238,9.66580677032471,9.6661491394043,9.66649055480957,9.66683292388916,9.66717147827148,9.66751003265381,9.6678524017334,9.66819286346436,9.66853523254395,9.66887474060059,9.66921710968018,9.66955852508545,9.66989994049072,9.670241355896,9.67057991027832,9.67092132568359,9.67126369476318,9.67160415649414,9.6719446182251,9.67228698730469,9.67263031005859,9.67297077178955,9.67331218719482,9.67365169525146,9.67399215698242,9.6743335723877,9.6746768951416,9.67501735687256,9.67536163330078,9.67570018768311,9.6760425567627,9.67638397216797,9.67672634124756,9.67706775665283,9.67740631103516,9.67775058746338,9.67809104919434,9.67843246459961,9.67877578735352,9.67911624908447,9.67945861816406,9.67980003356934,9.68014240264893,9.68048477172852,9.68082618713379,9.68116760253906,9.68150806427002,9.68185138702393,9.6821928024292,9.68253517150879,9.68287658691406,9.68322086334229,9.68356132507324,9.68390560150146,9.68424510955811,9.68458652496338,9.68492794036865,9.68526935577393,9.68561458587646,9.68595600128174,9.68629837036133,9.68664073944092,9.68698406219482,9.6873254776001,9.68766498565674,9.68800735473633,9.68835067749023,9.68869495391846,9.68903636932373,9.68938159942627,9.68972206115723,9.6900634765625,9.69040775299072,9.69074821472168,9.6910924911499,9.69143390655518,9.69177627563477,9.69211959838867,9.69246387481689,9.69280338287354,9.69314861297607,9.69349193572998,9.69383430480957,9.69417476654053,9.69451713562012,9.69486141204834,9.69520378112793,9.6955451965332,9.69588947296143,9.6962308883667,9.69657611846924,9.69691944122314,9.69726276397705,9.69760322570801,9.69794845581055,9.69829082489014,9.69863319396973,9.69897556304932,9.69932079315186,9.69966506958008,9.70000839233398,9.70035076141357,9.70069408416748,9.70103454589844,9.70137882232666,9.70172214508057,9.70206642150879,9.70240879058838,9.7027530670166,9.70309734344482,9.70344066619873,9.70378494262695,9.70412731170654,9.70446872711182,9.70481395721436,9.70515727996826,9.70549964904785,9.70584487915039,9.7061882019043,9.70653343200684,9.70687484741211
9.52753829956055,9.52786827087402,9.5282039642334,9.52853393554688,9.52886390686035,9.52919960021973,9.52952671051025,9.529860496521,9.53019046783447,9.53052139282227,9.53085231781006,9.53118324279785,9.53151416778564,9.53184509277344,9.5321798324585,9.53250789642334,9.5328426361084,9.53317070007324,9.53350639343262,9.53383445739746,9.53416347503662,9.53449630737305,9.53483200073242,9.53516101837158,9.53549385070801,9.53582668304443,9.53615951538086,9.53649234771729,9.53681659698486,9.53714942932129,9.53748321533203,9.53781318664551,9.53814697265625,9.53847789764404,9.53881168365479,9.53914356231689,9.53947448730469,9.53980541229248,9.54013729095459,9.54046821594238,9.54080009460449,9.5411319732666,9.54146766662598,9.54179668426514,9.5421314239502,9.54246425628662,9.54279327392578,9.54312610626221,9.54345607757568,9.54379177093506,9.54412174224854,9.54445552825928,9.54478549957275,9.5451192855835,9.54545307159424,9.54578685760498,9.54611396789551,9.54644870758057,9.54678249359131,9.5471134185791,9.54744815826416,9.54777717590332,9.54811191558838,9.54844665527344,9.54877853393555,9.54911041259766,9.54943943023682,9.54977130889893,9.5501070022583,9.55043983459473,9.55077266693115,9.55110549926758,9.551438331604,9.55177211761475,9.55210494995117,9.55243587493896,9.55276870727539,9.55310249328613,9.55343341827393,9.55376720428467,9.55410480499268,9.55443286895752,9.55477046966553,9.55509853363037,9.55543613433838,9.55576515197754,9.55609703063965,9.55642890930176,9.55676746368408,9.55709934234619,9.55743026733398,9.55776786804199,9.55809688568115,9.55843162536621,9.55876445770264,9.5590991973877,9.5594310760498,9.55976390838623,9.56009769439697,9.56043148040771,9.56076526641846,9.5610990524292,9.56143093109131,9.56176376342773,9.56209945678711,9.56243228912354,9.56276607513428,9.5630989074707,9.56343269348145,9.5637674331665,9.56409931182861,9.56443500518799,9.5647668838501,9.56510066986084,9.5654354095459,9.56576824188232,9.56610202789307,9.56643676757812,9.56677055358887,9.56710529327393,9.56743812561035,9.56777381896973,9.5681037902832,9.56843948364258,9.568772315979,9.56910800933838,9.56944179534912,9.56977653503418,9.57010936737061,9.57044410705566,9.57077884674072,9.57111263275146,9.57144546508789,9.57177829742432,9.57211303710938,9.57244682312012,9.57278251647949,9.57311916351318,9.57345199584961,9.57378768920898,9.57412052154541,9.5744571685791,9.57478904724121,9.57512283325195,9.57545566558838,9.57579326629639,9.57612705230713,9.57646083831787,9.57679653167725,9.5771312713623,9.57746601104736,9.57779979705811,9.57813358306885,9.57846641540527,9.57880306243896,9.57913684844971,9.57947254180908,9.57980918884277,9.5801420211792,9.58047866821289,9.58081150054932,9.58114910125732,9.58148097991943,9.58181571960449,9.58215045928955,9.58248424530029,9.5828218460083,9.58315563201904,9.58349132537842,9.58382701873779,9.58416271209717,9.58449745178223,9.58482837677002,9.58516407012939,9.58550071716309,9.58583736419678,9.58617210388184,9.58650875091553,9.58684253692627,9.58717632293701,9.58751392364502,9.58784770965576,9.58818340301514,9.5885181427002,9.58885383605957,9.58919048309326,9.58952522277832,9.58985996246338,9.59019565582275,9.59053230285645,9.5908670425415,9.59120178222656,9.59153747558594,9.59187412261963,9.59220695495605,9.59254455566406,9.59288120269775,9.59321403503418,9.5935525894165,9.59388637542725,9.59422492980957,9.59455680847168,9.594895362854,9.59522914886475,9.59556484222412,9.59590244293213,9.59623908996582,9.5965747833252,9.59690952301025,9.59724617004395,9.59758281707764,9.59791851043701,9.59825325012207,9.59858703613281,9.59892463684082,9.59926223754883,9.59959983825684,9.59993362426758,9.6002721786499,9.60060691833496,9.60094261169434,9.60127830505371,9.6016149520874,9.60195159912109,9.60228729248047,9.60262584686279,9.60296154022217,9.60329723358154,9.60363388061523,9.60396957397461,9.60430812835693,9.60464286804199,9.60497951507568,9.60531425476074,9.60565280914307,9.60598850250244,9.60632705688477,9.60666275024414,9.60699844360352,9.60733795166016,9.60767269134521,9.60800838470459,9.60834312438965,9.60868358612061,9.60901832580566,9.60935497283936,9.60969352722168,9.61002922058105,9.61036682128906,9.61070442199707,9.61104202270508,9.6113748550415,9.61171245574951,9.61205101013184,9.61238765716553,9.61272525787354,9.61306095123291,9.61339950561523,9.61373805999756,9.61407375335693,9.61441326141357,9.61474704742432,9.61508464813232,9.61542320251465,9.61576080322266,9.61609745025635,9.61643409729004,9.61677074432373,9.61711120605469,9.61744785308838,9.61778545379639,9.61812019348145,9.61845779418945,9.61879634857178,9.61913394927979,9.61947250366211,9.6198091506958,9.62014675140381,9.62048435211182,9.62082290649414,9.62115955352783,9.62149715423584,9.62183475494385,9.62217235565186,9.62251091003418,9.62284755706787,9.62318515777588,9.6235237121582,9.62386131286621,9.62419986724854,9.62453746795654,9.62487411499023,9.62521362304688,9.6255521774292,9.62588787078857,9.62622547149658,9.62656497955322,9.62690162658691,9.62724113464355,9.62757778167725,9.6279182434082,9.62825298309326,9.62859153747559,9.62892913818359,9.62926864624023,9.62960720062256,9.62994480133057,9.63028430938721,9.63062191009521,9.63096332550049,9.63129711151123,9.63163566589355,9.6319751739502,9.63231468200684,9.63265132904053,9.63299083709717,9.63333129882812,9.6336669921875,9.63400840759277,9.63434505462646,9.63468265533447,9.6350212097168,9.63535976409912,9.63569927215576,9.63603782653809,9.63637733459473,9.63671588897705,9.63705348968506,9.6373929977417,9.63773250579834,9.63807010650635,9.63840866088867,9.63874816894531,9.63908767700195,9.63942813873291,9.6397647857666,9.64010429382324,9.64044284820557,9.64078235626221,9.64112091064453,9.64145755767822,9.6417989730835,9.6421365737915,9.64247512817383,9.6428165435791,9.64315509796143,9.64349555969238,9.64383411407471,9.64417457580566,9.6445140838623,9.64485168457031,9.64519119262695,9.64552879333496,9.64587211608887,9.64620876312256,9.64655017852783,9.64688873291016,9.6472282409668,9.64756774902344,9.64790821075439,9.6482458114624,9.64858627319336,9.64892578125,9.64926338195801,9.64960479736328,9.64994335174561,9.65028667449951,9.65062522888184,9.65096187591553,9.65130519866943,9.65164184570312,9.65198230743408,9.65232276916504,9.65266418457031,9.65300178527832,9.65334320068359,9.65368270874023,9.65402126312256,9.65436267852783,9.65470314025879,9.6550407409668,9.65538311004639,9.65572166442871,9.65606117248535,9.65640258789062,9.65674209594727,9.65708160400391,9.6574239730835,9.65776443481445,9.65810585021973,9.65844345092773
