12.3637962341309,12.4151592254639,12.4669504165649,12.5191764831543,12.5718412399292,12.6249513626099,12.6785125732422,12.7325296401978,12.7870082855225,12.8419561386108,12.8973779678345,12.9532804489136,13.009669303894,13.0665512084961,13.1239328384399,13.1818208694458,13.2402210235596,13.2991418838501,13.3585891723633,13.4185705184937,13.4790925979614,13.5401630401611,13.6017894744873,13.6639795303345,13.7267417907715,13.7900819778442,13.8540096282959,13.9185333251953,13.983660697937,14.0494003295898,14.1157608032227,14.1827507019043,14.2503805160522,14.3186569213867,14.3875923156738,14.4571943283081,14.5274724960327,14.5984725952148,14.8633995056152,14.936695098877,15.0107717514038,15.0855512619019,15.2853593826294,15.2881097793579,15.2908620834351,15.2936143875122,15.296368598938,15.3483610153198,15.4275550842285,15.5075626373291,15.5884571075439,15.6702079772949,15.7528209686279,15.8363103866577,15.9206886291504,16.0059700012207,16.0921726226807,16.1793060302734,16.2673892974854,16.3564376831055,16.4464645385742,16.5374889373779,16.7322216033936,18.7956008911133,18.9013977050781,19.0084457397461,19.3666820526123,19.3670978546143,19.3675193786621,19.3679389953613,19.3683547973633,19.3687744140625,19.3691902160645,19.3696041107178,19.3700199127197,19.3704471588135,19.3708610534668,19.371280670166,19.3716945648193,19.3721122741699,19.3725337982178,19.3729496002197,19.3733673095703,19.3737850189209,19.3742027282715,19.3746204376221,19.3750381469727,19.3754558563232,19.3758754730225,19.376293182373,19.3767108917236,19.3771286010742,19.3775463104248,19.3779640197754,19.378381729126,19.3788013458252,19.3792190551758,19.379638671875,19.380054473877,19.3804740905762,19.3808917999268,19.3813095092773,19.3817291259766,19.3821468353271,19.3825645446777,19.382984161377,19.3834018707275,19.3838195800781,19.3842372894287,19.3846569061279,19.3850746154785,19.3854942321777,19.3859119415283,19.3863296508789,19.3867492675781,19.3871669769287,19.3875846862793,19.3880023956299,19.3884220123291,19.3888397216797,19.3892593383789,19.3896770477295,19.3900966644287,19.3905143737793,19.3909339904785,19.3913516998291,19.3917713165283,19.3921890258789,19.3926086425781,19.3930263519287,19.3934459686279,19.3938655853271,19.3942832946777,19.3947010040283,19.3951206207275,19.3955402374268,19.3959579467773,19.3963775634766,19.3967971801758,19.3972148895264,19.397632598877,19.3980522155762,19.3984718322754,19.398889541626,19.3993091583252,19.3997287750244,19.4001483917236,19.4005661010742,19.4009857177734,19.4014053344727,19.4018249511719,19.4022426605225,19.4026622772217,19.4030818939209,19.4034996032715,19.4039192199707,19.4043388366699,19.4047584533691,19.4051780700684,19.4055976867676,19.4060153961182,19.4064350128174,19.4068546295166,19.4072742462158,19.407693862915,19.4081134796143,19.4085311889648,19.4089488983154,19.4093685150146,19.4097881317139,19.4102039337158,19.410623550415,19.4110431671143,19.4114608764648,19.4118804931641,19.4122982025146,19.4127178192139,19.4131355285645,19.4135551452637,19.4139747619629,19.4143924713135,19.4148120880127,19.4152317047119,19.4156475067139,19.4160671234131,19.4164867401123,19.4169044494629,19.4173240661621,19.4177436828613,19.4181613922119,19.4185810089111,19.4190006256104,19.4194183349609,19.4198360443115,19.4202556610107,19.42067527771,19.4210948944092,19.4215145111084,19.421932220459,19.4223518371582,19.4227714538574,19.4231910705566,19.4236087799072,19.4240283966064,19.4244480133057,19.4248676300049,19.4252853393555,19.4257049560547,19.4261245727539,19.4265422821045,19.4269618988037,19.4273815155029,19.4278011322021,19.4282207489014,19.4286403656006,19.4290580749512,19.429479598999,19.4298992156982,19.4303188323975,19.430736541748,19.4311561584473,19.4315757751465,19.4319953918457,19.4324169158936,19.4328346252441,19.4332542419434,19.4336738586426,19.4340934753418,19.434513092041,19.4349327087402,19.4353523254395,19.4357719421387,19.4361915588379,19.4366111755371,19.4370307922363,19.4374504089355,19.4378719329834,19.4382915496826,19.4387092590332,19.4391288757324,19.4395503997803,19.4399700164795,19.4403896331787,19.4408092498779,19.4412288665771,19.441650390625,19.4420700073242,19.4424896240234,19.4429092407227,19.4433288574219,19.4437503814697,19.4441680908203,19.4445896148682,19.4450092315674,19.4454288482666,19.4458484649658,19.4462699890137,19.4466896057129,19.4471092224121,19.44753074646,19.4479503631592,19.4483699798584,19.4487895965576,19.4492111206055,19.4496307373047,19.4500503540039,19.4504718780518,19.450891494751,19.4513130187988,19.451732635498,19.4521522521973,19.4525737762451,19.4529933929443,19.4534149169922,19.4538345336914,19.4542541503906,19.4546756744385,19.4550971984863,19.4555168151855,19.4559383392334,19.4563579559326,19.4567794799805,19.4571990966797,19.4576187133789,19.4580402374268,19.458459854126,19.4588813781738,19.4593029022217,19.4597225189209,19.4601421356201,19.4605655670166,19.4609851837158,19.461404800415,19.4618263244629,19.4622478485107,19.46266746521,19.4630889892578,19.4635105133057,19.4639320373535,19.4643516540527,19.4647731781006,19.4651947021484,19.4656143188477,19.4660358428955,19.4664573669434,19.4668769836426,19.4672985076904,19.4677200317383,19.4681396484375,19.4685611724854,19.4689826965332,19.4694042205811,19.4698238372803,19.4702453613281,19.470666885376,19.4710884094238,19.4715099334717,19.4719314575195,19.4723510742188,19.4727725982666,19.4731941223145,19.4736156463623,19.4740371704102,19.474458694458,19.4748783111572,19.4753017425537,19.4757232666016,19.4761447906494,19.4765663146973,19.4769878387451,19.477409362793,19.4778289794922,19.47825050354,19.4786720275879,19.4790935516357,19.4795169830322,19.4799365997314,19.4803581237793,19.4807796478271,19.4812030792236,19.4816226959229,19.4820461273193,19.4824676513672,19.482889175415,19.4833106994629,19.4837322235107,19.4841537475586,19.4845752716064,19.4849967956543,19.4854202270508,19.4858417510986,19.4862632751465,19.486686706543,19.4871063232422,19.48752784729,19.4879512786865,19.4883728027344,19.4887943267822,19.4892158508301,19.4896392822266,19.4900608062744,19.4904823303223,19.4909057617188
12.3636331558228,12.4149951934814,12.4667854309082,12.5190095901489,12.5716733932495,12.6247816085815,12.6783409118652,12.7323570251465,12.7868347167969,12.8417806625366,12.8972005844116,12.9531021118164,13.0094890594482,13.0663690567017,13.1237497329712,13.1816358566284,13.2400350570679,13.2989540100098,13.3583993911743,13.4183788299561,13.4788990020752,13.5399684906006,13.6015930175781,13.6637811660767,13.7265405654907,13.7898797988892,13.8538055419922,13.918327331543,13.983452796936,14.0491895675659,14.1155481338501,14.1825370788574,14.2501640319824,14.3184394836426,14.3873720169067,14.456974029541,14.5272855758667,14.5982837677002,14.8631267547607,14.9364576339722,15.0105333328247,15.085319519043,15.1608085632324,15.3087844848633,15.3115434646606,15.3143043518066,15.3170652389526,15.348105430603,15.4272956848145,15.5073013305664,15.5882005691528,15.6699485778809,15.7525587081909,15.8360443115234,15.9204206466675,16.0056991577148,16.0918979644775,16.1790294647217,16.2671089172363,16.3561534881592,16.4461784362793,16.5372009277344,18.6906547546387,18.7952709197998,18.9010639190674,19.0081825256348,19.1720714569092,19.1724796295166,19.1728897094727,19.1733016967773,19.1737098693848,19.1741161346436,19.174524307251,19.1749382019043,19.175350189209,19.1757545471191,19.1761665344238,19.1765766143799,19.1769886016846,19.1773948669434,19.1777992248535,19.1782131195068,19.1786231994629,19.1790313720703,19.1794414520264,19.1798515319824,19.1802616119385,19.1806716918945,19.181079864502,19.181489944458,19.1819000244141,19.1823081970215,19.1827182769775,19.1831283569336,19.1835384368896,19.1839485168457,19.1843585968018,19.1847667694092,19.1851787567139,19.1855869293213,19.1859970092773,19.1864070892334,19.1868171691895,19.1872272491455,19.1876354217529,19.188045501709,19.188455581665,19.1888656616211,19.1892776489258,19.1896858215332,19.1900959014893,19.1905059814453,19.1909160614014,19.1913261413574,19.1917362213135,19.1921463012695,19.1925563812256,19.1929664611816,19.1933765411377,19.1937866210938,19.1941986083984,19.1946067810059,19.1950168609619,19.1954288482666,19.1958389282227,19.1962471008301,19.1966571807861,19.1970691680908,19.1974792480469,19.1978893280029,19.198299407959,19.198709487915,19.1991195678711,19.1995296478271,19.1999397277832,19.2003498077393,19.2007617950439,19.201171875,19.2015819549561,19.2019920349121,19.2024040222168,19.2028141021729,19.2032260894775,19.2036361694336,19.2040462493896,19.2044563293457,19.2048664093018,19.2052764892578,19.2056884765625,19.2060985565186,19.2065105438232,19.2069206237793,19.2073307037354,19.2077407836914,19.2081527709961,19.2085628509521,19.2089748382568,19.2093849182129,19.2097969055176,19.2102069854736,19.2106170654297,19.2110290527344,19.2114391326904,19.2118511199951,19.2122611999512,19.2126731872559,19.2130832672119,19.213493347168,19.2139053344727,19.2143154144287,19.2147274017334,19.2151374816895,19.2155475616455,19.2159576416016,19.2163677215576,19.2167778015137,19.2171897888184,19.2175998687744,19.2180099487305,19.2184200286865,19.2188301086426,19.2192401885986,19.2196502685547,19.2200603485107,19.2204723358154,19.2208824157715,19.2212924957275,19.2217025756836,19.2221126556396,19.2225246429443,19.2229347229004,19.2233448028564,19.2237548828125,19.2241649627686,19.2245769500732,19.2249889373779,19.2253971099854,19.22580909729,19.2262191772461,19.2266292572021,19.2270412445068,19.2274513244629,19.2278614044189,19.2282733917236,19.2286834716797,19.2290954589844,19.2295055389404,19.2299156188965,19.2303256988525,19.2307376861572,19.2311477661133,19.231559753418,19.231969833374,19.2323818206787,19.2327919006348,19.2332019805908,19.2336139678955,19.2340240478516,19.2344360351562,19.2348480224609,19.235258102417,19.2356700897217,19.2360801696777,19.2364921569824,19.2369022369385,19.2373142242432,19.2377243041992,19.2381362915039,19.23854637146,19.2389583587646,19.2393703460693,19.2397804260254,19.2401924133301,19.2406024932861,19.2410144805908,19.2414264678955,19.2418365478516,19.2422485351562,19.2426586151123,19.243070602417,19.2434844970703,19.2438945770264,19.2443046569824,19.2447185516357,19.2451286315918,19.2455406188965,19.2459506988525,19.2463626861572,19.2467746734619,19.2471866607666,19.2475986480713,19.2480087280273,19.248420715332,19.2488327026367,19.2492427825928,19.2496547698975,19.2500667572021,19.2504787445068,19.2508907318115,19.2513027191162,19.2517147064209,19.2521266937256,19.2525386810303,19.2529487609863,19.253360748291,19.2537727355957,19.254186630249,19.2545967102051,19.2550086975098,19.2554206848145,19.2558326721191,19.2562446594238,19.2566566467285,19.2570686340332,19.2574806213379,19.2578926086426,19.2583045959473,19.258716583252,19.2591285705566,19.2595405578613,19.259952545166,19.2603645324707,19.260778427124,19.2611885070801,19.2616024017334,19.2620143890381,19.2624263763428,19.2628383636475,19.2632503509521,19.2636623382568,19.2640743255615,19.2644882202148,19.2648983001709,19.2653121948242,19.2657241821289,19.2661361694336,19.2665481567383,19.2669620513916,19.2673740386963,19.267786026001,19.2681980133057,19.268611907959,19.2690238952637,19.2694358825684,19.2698497772217,19.2702617645264,19.2706737518311,19.2710876464844,19.2714996337891,19.2719116210938,19.2723236083984,19.2727375030518,19.2731494903564,19.2735614776611,19.2739753723145,19.2743873596191,19.2747993469238,19.2752132415771,19.2756252288818,19.2760391235352,19.2764530181885,19.2768650054932,19.2772769927979,19.2776908874512,19.2781028747559,19.2785148620605,19.2789287567139,19.2793426513672,19.2797546386719,19.2801666259766,19.2805805206299,19.2809944152832,19.2814064025879,19.2818202972412,19.2822322845459,19.2826461791992,19.2830600738525,19.2834720611572,19.2838859558105,19.2842979431152,19.2847118377686,19.2851238250732,19.2855377197266,19.2859516143799,19.2863636016846,19.2867774963379,19.2871913909912,19.2876033782959,19.2880172729492,19.2884311676025,19.2888431549072,19.2892589569092,19.2896709442139,19.2900829315186,19.2904968261719,19.2909107208252,19.2913246154785,19.2917385101318,19.2921504974365,19.2925643920898,19.2929782867432,19.2933921813965,19.2938060760498
12.3634700775146,12.414831161499,12.4666204452515,12.5188426971436,12.5715055465698,12.6246118545532,12.6781702041626,12.7321844100952,12.786660194397,12.8416051864624,12.8970241546631,12.9529228210449,13.0093088150024,13.0661878585815,13.1235666275024,13.181450843811,13.2398481369019,13.2987651824951,13.3582096099854,13.4181871414185,13.4787063598633,13.5397729873657,13.6013956069946,13.6635828018188,13.7263402938843,13.7896776199341,13.8536014556885,13.9181213378906,13.9832439422607,14.0489797592163,14.1153364181519,14.1823225021362,14.2499475479126,14.3182210922241,14.3871564865112,14.4567880630493,14.5270977020264,14.7902793884277,14.8628702163696,14.9362297058105,15.0102949142456,15.0850791931152,15.1605911254883,15.3295154571533,15.3322820663452,15.3350496292114,15.337818145752,15.3478498458862,15.4270362854004,15.5070457458496,15.5879430770874,15.6696891784668,15.7522964477539,15.8357791900635,15.9201526641846,16.005428314209,16.091625213623,16.1787528991699,16.2668304443359,16.3558712005615,16.4458923339844,18.5868740081787,18.6903285980225,18.7949390411377,18.900728225708,18.9809303283691,18.9813346862793,18.9817352294922,18.9821357727051,18.9825344085693,18.9829387664795,18.9833335876465,18.9837417602539,18.9841403961182,18.9845428466797,18.9849452972412,18.9853515625,18.9857406616211,18.9861469268799,18.9865436553955,18.9869499206543,18.9873504638672,18.9877510070801,18.9881553649902,18.9885578155518,18.9889602661133,18.9893608093262,18.9897632598877,18.9901638031006,18.9905643463135,18.990966796875,18.9913673400879,18.9917697906494,18.9921722412109,18.9925727844238,18.9929752349854,18.9933757781982,18.9937782287598,18.9941806793213,18.9945831298828,18.9949836730957,18.9953842163086,18.9957866668701,18.9961891174316,18.9965896606445,18.9969921112061,18.9973926544189,18.9977951049805,18.998197555542,18.9986000061035,18.9990005493164,18.9994029998779,18.9998035430908,19.000207901001,19.0006084442139,19.0010108947754,19.0014133453369,19.0018138885498,19.0022163391113,19.0026187896729,19.0030212402344,19.0034217834473,19.0038242340088,19.0042266845703,19.0046272277832,19.0050296783447,19.0054321289062,19.0058345794678,19.0062370300293,19.0066394805908,19.0070400238037,19.0074424743652,19.0078449249268,19.0082473754883,19.0086498260498,19.0090522766113,19.0094547271729,19.0098571777344,19.0102596282959,19.0106620788574,19.0110645294189,19.0114669799805,19.011869430542,19.0122718811035,19.012674331665,19.0130767822266,19.0134792327881,19.0138816833496,19.0142841339111,19.0146865844727,19.0150890350342,19.0154914855957,19.0158939361572,19.0162963867188,19.0166988372803,19.0171012878418,19.017505645752,19.0179080963135,19.018310546875,19.0187129974365,19.019115447998,19.0195178985596,19.0199203491211,19.0203247070312,19.0207271575928,19.0211296081543,19.0215320587158,19.0219345092773,19.0223388671875,19.022741317749,19.0231437683105,19.0235462188721,19.0239486694336,19.0243511199951,19.0247554779053,19.0251579284668,19.0255603790283,19.0259609222412,19.0263633728027,19.0267658233643,19.0271682739258,19.0275707244873,19.0279731750488,19.0283737182617,19.0287761688232,19.0291805267334,19.0295810699463,19.0299835205078,19.0303859710693,19.0307884216309,19.0311908721924,19.0315933227539,19.0319957733154,19.032398223877,19.0328006744385,19.033203125,19.0336055755615,19.034008026123,19.0344104766846,19.0348129272461,19.0352153778076,19.0356178283691,19.0360202789307,19.0364227294922,19.0368251800537,19.0372276306152,19.0376300811768,19.0380344390869,19.0384368896484,19.03883934021,19.0392417907715,19.0396461486816,19.0400466918945,19.0404510498047,19.0408535003662,19.0412559509277,19.0416584014893,19.0420608520508,19.0424633026123,19.0428676605225,19.043270111084,19.0436744689941,19.044075012207,19.0444793701172,19.0448818206787,19.0452842712402,19.0456867218018,19.0460910797119,19.0464935302734,19.0468978881836,19.0473003387451,19.0477027893066,19.0481052398682,19.0485095977783,19.0489120483398,19.0493144989014,19.0497188568115,19.050121307373,19.0505256652832,19.0509281158447,19.0513305664062,19.0517349243164,19.0521373748779,19.0525417327881,19.0529441833496,19.0533466339111,19.0537509918213,19.0541534423828,19.054557800293,19.0549602508545,19.0553646087646,19.0557670593262,19.0561714172363,19.0565738677979,19.056978225708,19.0573806762695,19.0577850341797,19.0581874847412,19.0585918426514,19.0589962005615,19.059398651123,19.0598030090332,19.0602073669434,19.0606098175049,19.061014175415,19.0614166259766,19.0618190765381,19.0622253417969,19.0626277923584,19.0630321502686,19.0634346008301,19.0638389587402,19.0642433166504,19.0646457672119,19.0650501251221,19.0654544830322,19.0658588409424,19.0662631988525,19.0666656494141,19.0670700073242,19.0674743652344,19.0678787231445,19.0682811737061,19.0686855316162,19.0690898895264,19.0694942474365,19.0698986053467,19.0703010559082,19.070707321167,19.0711097717285,19.0715141296387,19.0719184875488,19.072322845459,19.0727272033691,19.0731296539307,19.0735340118408,19.073938369751,19.0743446350098,19.0747470855713,19.0751514434814,19.0755558013916,19.0759601593018,19.0763626098633,19.0767688751221,19.0771732330322,19.0775775909424,19.0779819488525,19.0783863067627,19.0787906646729,19.079195022583,19.0795993804932,19.0800037384033,19.0804080963135,19.0808124542236,19.0812168121338,19.0816211700439,19.0820255279541,19.0824317932129,19.0828342437744,19.0832405090332,19.0836448669434,19.0840492248535,19.0844535827637,19.0848598480225,19.0852642059326,19.0856666564941,19.0860729217529,19.0864772796631,19.0868816375732,19.0872859954834,19.0876922607422,19.0880966186523,19.0885009765625,19.0889072418213,19.0893096923828,19.0897159576416,19.0901203155518,19.0905246734619,19.0909290313721,19.0913352966309,19.091739654541,19.0921440124512,19.09255027771,19.0929546356201,19.0933589935303,19.0937652587891,19.0941696166992,19.0945739746094,19.0949802398682,19.095386505127,19.0957889556885,19.0961952209473,19.0965995788574,19.0970058441162,19.097412109375,19.0978164672852,19.0982208251953,19.0986251831055,19.0990333557129,19.099437713623,19.0998420715332,19.100248336792,19.1006526947021
12.3633079528809,12.4146671295166,12.4664545059204,12.5186758041382,12.5713367462158,12.6244430541992,12.67799949646,12.7320117950439,12.7864866256714,12.8414297103882,12.8968467712402,12.9527444839478,13.0091285705566,13.0660057067871,13.1233825683594,13.1812658309937,13.2396621704102,13.2985773086548,13.3580198287964,13.4179954528809,13.4785127639771,13.5395784378052,13.6011991500854,13.6633834838867,13.7261400222778,13.7894744873047,13.8533973693848,13.917914390564,13.9830360412598,14.0487699508667,14.1151237487793,14.1821088790894,14.2497320175171,14.3180103302002,14.3869724273682,14.4566030502319,14.526909828186,14.7900094985962,14.862645149231,14.9360027313232,15.0100564956665,15.0848388671875,15.1603565216064,15.2366170883179,15.3530759811401,15.3558521270752,15.3586282730103,15.3614053726196,15.4267768859863,15.5067920684814,15.5876865386963,15.6694297790527,15.7520341873169,15.8355140686035,15.9198846817017,16.0051574707031,16.0913505554199,16.1784763336182,16.2665500640869,18.4457626342773,18.4842777252197,18.5865669250488,18.6900005340576,18.7931709289551,18.7935638427734,18.7939586639404,18.7943534851074,18.7947483062744,18.7951354980469,18.7955284118652,18.7959213256836,18.7963199615479,18.7967128753662,18.7971019744873,18.7975006103516,18.797887802124,18.7982845306396,18.798677444458,18.7990760803223,18.7994651794434,18.7998561859131,18.8002510070801,18.8006458282471,18.8010425567627,18.8014354705811,18.801830291748,18.8022232055664,18.8026161193848,18.8030109405518,18.8034038543701,18.8037967681885,18.8041915893555,18.8045845031738,18.8049793243408,18.8053722381592,18.8057651519775,18.8061580657959,18.8065528869629,18.8069477081299,18.8073406219482,18.8077354431152,18.8081283569336,18.8085231781006,18.8089160919189,18.8093109130859,18.8097038269043,18.8100986480713,18.8104915618896,18.8108863830566,18.811279296875,18.811674118042,18.812068939209,18.8124618530273,18.8128547668457,18.8132495880127,18.8136444091797,18.814037322998,18.8144302368164,18.8148250579834,18.8152198791504,18.8156147003174,18.8160076141357,18.8164024353027,18.8167953491211,18.8171920776367,18.8175849914551,18.8179798126221,18.8183727264404,18.8187675476074,18.8191623687744,18.8195552825928,18.8199520111084,18.8203449249268,18.8207397460938,18.8211345672607,18.8215293884277,18.8219223022461,18.8223171234131,18.8227100372314,18.8231067657471,18.8234996795654,18.8238945007324,18.8242893218994,18.8246841430664,18.8250789642334,18.8254718780518,18.8258686065674,18.8262615203857,18.8266563415527,18.8270511627197,18.8274459838867,18.8278408050537,18.8282356262207,18.8286304473877,18.8290252685547,18.8294200897217,18.8298149108887,18.8302097320557,18.830602645874,18.8309993743896,18.8313941955566,18.8317890167236,18.8321838378906,18.8325786590576,18.832971572876,18.8333683013916,18.83376121521,18.8341579437256,18.8345527648926,18.8349475860596,18.8353424072266,18.8357372283936,18.8361320495605,18.8365268707275,18.8369235992432,18.8373184204102,18.8377132415771,18.8381080627441,18.8385028839111,18.8388977050781,18.8392906188965,18.8396854400635,18.8400802612305,18.8404731750488,18.8408679962158,18.8412628173828,18.8416576385498,18.8420505523682,18.8424453735352,18.8428401947021,18.8432350158691,18.8436298370361,18.8440246582031,18.8444175720215,18.8448123931885,18.8452072143555,18.8456020355225,18.8459968566895,18.8463916778564,18.8467845916748,18.8471813201904,18.8475742340088,18.8479690551758,18.8483638763428,18.8487586975098,18.8491535186768,18.8495483398438,18.8499431610107,18.8503379821777,18.8507328033447,18.8511276245117,18.8515224456787,18.8519172668457,18.8523120880127,18.8527069091797,18.8531017303467,18.8534965515137,18.8538913726807,18.8542861938477,18.8546810150146,18.8550777435303,18.8554706573486,18.8558654785156,18.8562622070312,18.8566570281982,18.8570499420166,18.8574466705322,18.8578414916992,18.8582363128662,18.8586330413818,18.8590278625488,18.8594207763672,18.8598175048828,18.8602123260498,18.8606071472168,18.8610019683838,18.8613986968994,18.8617935180664,18.8621883392334,18.8625831604004,18.862979888916,18.863374710083,18.86376953125,18.864164352417,18.8645610809326,18.8649559020996,18.8653507232666,18.8657455444336,18.8661422729492,18.8665370941162,18.8669319152832,18.8673286437988,18.8677234649658,18.8681201934814,18.8685150146484,18.8689098358154,18.8693065643311,18.869701385498,18.870096206665,18.8704929351807,18.8708877563477,18.8712844848633,18.8716793060303,18.8720760345459,18.8724708557129,18.8728675842285,18.8732604980469,18.8736572265625,18.8740539550781,18.8744487762451,18.8748455047607,18.8752403259277,18.8756370544434,18.8760318756104,18.876428604126,18.8768253326416,18.8772201538086,18.8776168823242,18.8780136108398,18.8784084320068,18.8788051605225,18.8791999816895,18.8795948028564,18.8799915313721,18.8803882598877,18.8807849884033,18.8811798095703,18.8815765380859,18.8819732666016,18.8823680877686,18.8827648162842,18.8831615447998,18.8835563659668,18.8839530944824,18.884349822998,18.884744644165,18.8851413726807,18.8855381011963,18.8859329223633,18.8863296508789,18.8867263793945,18.8871231079102,18.8875179290771,18.8879165649414,18.888313293457,18.888708114624,18.8891048431396,18.8895015716553,18.8898983001709,18.8902931213379,18.8906898498535,18.8910865783691,18.8914833068848,18.8918800354004,18.892276763916,18.8926734924316,18.8930702209473,18.8934669494629,18.8938636779785,18.8942604064941,18.8946571350098,18.8950519561768,18.895450592041,18.8958473205566,18.8962421417236,18.8966388702393,18.8970375061035,18.8974323272705,18.8978290557861,18.8982257843018,18.898624420166,18.8990211486816,18.8994178771973,18.8998126983643,18.9002094268799,18.9006080627441,18.9010047912598,18.9014015197754,18.901798248291,18.9021949768066,18.9025917053223,18.9029903411865,18.9033851623535,18.9037818908691,18.9041805267334,18.904577255249,18.9049739837646,18.9053707122803,18.9057693481445,18.9061660766602,18.9065628051758,18.9069595336914,18.9073581695557,18.9077529907227,18.9081516265869,18.9085483551025,18.9089450836182,18.9093418121338,18.909740447998,18.9101371765137,18.9105339050293,18.9109306335449,18.9113292694092
12.3631448745728,12.4145030975342,12.4662895202637,12.5185089111328,12.5711688995361,12.6242733001709,12.677827835083,12.7318391799927,12.7863130569458,12.841254234314,12.8966693878174,12.9525661468506,13.0089483261108,13.065824508667,13.1231994628906,13.1810808181763,13.2394752502441,13.2983894348145,13.3578290939331,13.4178037643433,13.4783191680908,13.5393829345703,13.601001739502,13.6631851196289,13.7259387969971,13.7892723083496,13.8531923294067,13.9177083969116,13.9828281402588,14.0485601425171,14.1149120330811,14.1818943023682,14.2495250701904,14.3178281784058,14.3867883682251,14.4564170837402,14.7178754806519,14.7897815704346,14.862419128418,14.9357748031616,15.0098180770874,15.0845975875854,15.1601228713989,15.2363805770874,15.3739290237427,15.3767108917236,15.3794946670532,15.3822784423828,15.4265174865723,15.506537437439,15.5874290466309,15.6691694259644,15.7517719268799,15.8352489471436,15.9196166992188,16.0048866271973,16.0910758972168,16.1781997680664,18.4813709259033,18.4849319458008,18.4884929656982,18.5862884521484,18.6094741821289,18.60986328125,18.6102504730225,18.6106357574463,18.6110229492188,18.6114025115967,18.6117897033691,18.6121730804443,18.6125640869141,18.6129474639893,18.6133327484131,18.6137180328369,18.6141052246094,18.6144905090332,18.614875793457,18.6152629852295,18.6156482696533,18.6160335540771,18.6164169311523,18.6168022155762,18.6171951293945,18.6175746917725,18.6179656982422,18.618350982666,18.6187362670898,18.6191234588623,18.6195087432861,18.6198959350586,18.6202812194824,18.6206684112549,18.6210536956787,18.6214389801025,18.6218242645264,18.6222114562988,18.6225986480713,18.6229839324951,18.6233711242676,18.6237564086914,18.6241416931152,18.6245288848877,18.6249141693115,18.625301361084,18.6256866455078,18.6260738372803,18.6264591217041,18.6268444061279,18.6272315979004,18.6276168823242,18.6280040740967,18.6283912658691,18.628776550293,18.6291618347168,18.6295490264893,18.6299362182617,18.6303215026855,18.630708694458,18.6310939788818,18.6314811706543,18.6318683624268,18.6322536468506,18.632640838623,18.6330280303955,18.633415222168,18.6338005065918,18.6341876983643,18.6345748901367,18.6349601745605,18.635347366333,18.6357345581055,18.6361198425293,18.6365070343018,18.6368942260742,18.637279510498,18.6376686096191,18.638053894043,18.6384410858154,18.6388282775879,18.6392154693604,18.6396026611328,18.6399879455566,18.6403751373291,18.6407623291016,18.641149520874,18.6415367126465,18.6419239044189,18.6423091888428,18.6426963806152,18.6430835723877,18.6434707641602,18.6438579559326,18.6442451477051,18.6446323394775,18.6450176239014,18.6454048156738,18.6457920074463,18.6461791992188,18.6465663909912,18.6469535827637,18.6473407745361,18.6477279663086,18.6481151580811,18.6485023498535,18.648889541626,18.6492786407471,18.6496639251709,18.6500511169434,18.6504383087158,18.6508255004883,18.6512126922607,18.6516017913818,18.6519870758057,18.6523742675781,18.6527633666992,18.6531505584717,18.6535377502441,18.6539249420166,18.6543121337891,18.6547012329102,18.655086517334,18.6554737091064,18.6558628082275,18.6562480926514,18.6566333770752,18.6570205688477,18.6574077606201,18.6577949523926,18.658182144165,18.6585674285889,18.6589546203613,18.6593418121338,18.6597290039062,18.6601142883301,18.6605033874512,18.660888671875,18.6612758636475,18.6616630554199,18.6620502471924,18.6624355316162,18.6628227233887,18.6632118225098,18.6635971069336,18.6639842987061,18.6643733978271,18.664758682251,18.6651458740234,18.6655330657959,18.6659202575684,18.6663074493408,18.6666946411133,18.6670818328857,18.6674671173096,18.6678562164307,18.6682434082031,18.6686305999756,18.669017791748,18.6694049835205,18.6697902679443,18.6701793670654,18.6705665588379,18.6709518432617,18.6713409423828,18.6717281341553,18.6721153259277,18.6725025177002,18.6728897094727,18.6732788085938,18.6736640930176,18.67405128479,18.6744403839111,18.6748275756836,18.6752147674561,18.6756019592285,18.675989151001,18.6763763427734,18.6767654418945,18.677152633667,18.6775398254395,18.6779270172119,18.6783142089844,18.6787014007568,18.6790904998779,18.6794776916504,18.6798648834229,18.6802520751953,18.6806411743164,18.6810283660889,18.6814155578613,18.6818027496338,18.6821918487549,18.6825790405273,18.6829681396484,18.6833553314209,18.6837425231934,18.6841297149658,18.6845188140869,18.6849060058594,18.6852931976318,18.6856822967529,18.6860694885254,18.6864585876465,18.6868457794189,18.6872329711914,18.6876201629639,18.688009262085,18.6883983612061,18.6887855529785,18.6891746520996,18.6895599365234,18.6899490356445,18.6903381347656,18.6907253265381,18.6911144256592,18.6915016174316,18.6918907165527,18.6922779083252,18.6926670074463,18.6930541992188,18.6934432983398,18.6938304901123,18.6942195892334,18.6946067810059,18.694995880127,18.695384979248,18.6957721710205,18.6961612701416,18.6965484619141,18.6969375610352,18.6973266601562,18.6977138519287,18.6981029510498,18.6984920501709,18.6988792419434,18.6992683410645,18.6996574401855,18.700044631958,18.7004337310791,18.7008209228516,18.7012100219727,18.7015991210938,18.7019882202148,18.7023754119873,18.7027645111084,18.7031555175781,18.7035427093506,18.7039318084717,18.7043209075928,18.7047080993652,18.7050971984863,18.7054862976074,18.7058734893799,18.7062644958496,18.7066535949707,18.7070407867432,18.7074298858643,18.7078189849854,18.7082080841064,18.7085952758789,18.708984375,18.7093753814697,18.7097625732422,18.7101516723633,18.7105407714844,18.7109298706055,18.7113189697266,18.7117080688477,18.7120971679688,18.7124862670898,18.7128753662109,18.7132625579834,18.7136535644531,18.7140426635742,18.7144317626953,18.7148189544678,18.7152099609375,18.7155990600586,18.7159862518311,18.7163772583008,18.7167663574219,18.717155456543,18.7175445556641,18.7179336547852,18.7183227539062,18.7187118530273,18.7191009521484,18.7194900512695,18.7198791503906,18.7202701568604,18.7206592559814,18.7210483551025,18.7214374542236,18.7218284606934,18.7222156524658,18.7226047515869,18.7229957580566,18.7233848571777,18.7237739562988,18.7241630554199,18.724552154541,18.7249431610107,18.7253322601318,18.7257213592529
12.362982749939,12.4143390655518,12.4661235809326,12.5183429718018,12.5710000991821,12.6241035461426,12.6776571273804,12.7316665649414,12.7861385345459,12.8410787582397,12.8964929580688,12.9523878097534,13.008768081665,13.0656423568726,13.1230163574219,13.1808958053589,13.2392883300781,13.2982006072998,13.3576393127441,13.4176120758057,13.4781255722046,13.5391874313354,13.6008052825928,13.6629867553711,13.7257385253906,13.7890701293945,13.852988243103,13.9175024032593,13.9826202392578,14.0483493804932,14.1147003173828,14.1816921234131,14.2493448257446,14.3176460266113,14.386604309082,14.4562139511108,14.7176294326782,14.7895584106445,14.8621940612793,14.9355411529541,15.0095806121826,15.0843572616577,15.1598825454712,15.2361450195312,15.3840751647949,15.3866548538208,15.3892364501953,15.3918180465698,15.4262580871582,15.5062837600708,15.5871725082397,15.6689100265503,15.7515096664429,15.8349847793579,15.9193487167358,16.0046157836914,18.4274520874023,18.4278259277344,18.4282035827637,18.428581237793,18.4289569854736,18.4293403625488,18.4297199249268,18.4300937652588,18.4304695129395,18.4308490753174,18.4312286376953,18.4316062927246,18.4319896697998,18.4323654174805,18.4327411651611,18.4331226348877,18.4334983825684,18.4338779449463,18.4342555999756,18.4346332550049,18.4350128173828,18.4353904724121,18.4357681274414,18.4361476898193,18.4365253448486,18.4369029998779,18.4372825622559,18.4376602172852,18.4380416870117,18.438419342041,18.4387969970703,18.4391765594482,18.4395561218262,18.4399337768555,18.4403133392334,18.4406909942627,18.441068649292,18.4414482116699,18.4418258666992,18.4422054290771,18.4425849914551,18.4429626464844,18.4433403015137,18.4437198638916,18.4440975189209,18.4444770812988,18.4448547363281,18.4452342987061,18.445613861084,18.4459915161133,18.4463710784912,18.4467506408691,18.4471302032471,18.4475078582764,18.4478874206543,18.4482650756836,18.4486446380615,18.4490242004395,18.4494018554688,18.4497814178467,18.450159072876,18.4505386352539,18.4509181976318,18.4512977600098,18.4516773223877,18.452054977417,18.4524364471436,18.4528141021729,18.4531936645508,18.4535732269287,18.453950881958,18.4543304443359,18.4547100067139,18.4550895690918,18.4554691314697,18.455846786499,18.456226348877,18.4566059112549,18.4569854736328,18.4573650360107,18.4577445983887,18.458122253418,18.4585018157959,18.4588813781738,18.4592609405518,18.4596405029297,18.4600200653076,18.4603996276855,18.4607791900635,18.4611587524414,18.4615364074707,18.4619178771973,18.4622974395752,18.4626770019531,18.4630546569824,18.4634342193604,18.4638156890869,18.4641933441162,18.4645748138428,18.4649524688721,18.46533203125,18.4657135009766,18.4660930633545,18.4664726257324,18.4668521881104,18.4672317504883,18.4676113128662,18.4679908752441,18.4683704376221,18.4687519073486,18.4691295623779,18.4695091247559,18.4698905944824,18.4702682495117,18.4706497192383,18.4710292816162,18.4714088439941,18.4717884063721,18.47216796875,18.4725494384766,18.4729290008545,18.4733085632324,18.4736881256104,18.4740676879883,18.4744491577148,18.4748287200928,18.4752082824707,18.4755878448486,18.4759693145752,18.4763488769531,18.4767265319824,18.4771060943604,18.4774856567383,18.4778652191162,18.4782447814941,18.4786243438721,18.47900390625,18.4793815612793,18.4797611236572,18.4801425933838,18.4805202484131,18.480899810791,18.4812793731689,18.4816589355469,18.4820404052734,18.4824180603027,18.4827976226807,18.4831790924072,18.4835586547852,18.4839363098145,18.4843158721924,18.4846954345703,18.4850749969482,18.4854545593262,18.4858341217041,18.486213684082,18.48659324646,18.4869728088379,18.4873542785645,18.4877338409424,18.4881134033203,18.4884929656982,18.4888725280762,18.4892520904541,18.489631652832,18.49001121521,18.4903907775879,18.4907722473145,18.4911499023438,18.4915313720703,18.4919109344482,18.4922904968262,18.4926700592041,18.4930515289307,18.4934310913086,18.4938106536865,18.4941902160645,18.4945697784424,18.4949512481689,18.4953308105469,18.4957103729248,18.4960899353027,18.4964714050293,18.4968509674072,18.4972305297852,18.4976100921631,18.4979915618896,18.4983711242676,18.4987525939941,18.4991302490234,18.49951171875,18.4998912811279,18.5002727508545,18.5006542205811,18.5010318756104,18.5014133453369,18.5017929077148,18.5021743774414,18.5025539398193,18.5029354095459,18.5033168792725,18.5036945343018,18.5040760040283,18.5044574737549,18.5048370361328,18.5052165985107,18.5055980682373,18.5059776306152,18.5063591003418,18.5067386627197,18.5071201324463,18.5075016021729,18.5078811645508,18.5082607269287,18.5086421966553,18.5090236663818,18.5094032287598,18.5097827911377,18.5101642608643,18.5105457305908,18.5109252929688,18.5113067626953,18.5116863250732,18.5120677947998,18.5124473571777,18.5128288269043,18.5132083892822,18.5135898590088,18.5139713287354,18.5143508911133,18.5147323608398,18.5151138305664,18.515495300293,18.5158748626709,18.5162563323975,18.516637802124,18.517017364502,18.5173988342285,18.5177803039551,18.5181617736816,18.5185413360596,18.5189228057861,18.5193042755127,18.5196857452393,18.5200672149658,18.5204467773438,18.5208282470703,18.5212097167969,18.5215911865234,18.5219707489014,18.5223522186279,18.5227355957031,18.5231151580811,18.5234966278076,18.5238780975342,18.5242576599121,18.5246410369873,18.5250205993652,18.5254020690918,18.5257835388184,18.5261650085449,18.5265464782715,18.526927947998,18.5273094177246,18.5276908874512,18.5280723571777,18.5284538269043,18.5288352966309,18.5292148590088,18.529598236084,18.5299797058105,18.5303592681885,18.5307426452637,18.5311241149902,18.5315036773682,18.5318870544434,18.5322685241699,18.5326499938965,18.533031463623,18.5334129333496,18.5337944030762,18.5341758728027,18.5345592498779,18.5349388122559,18.5353202819824,18.5357036590576,18.5360851287842,18.5364665985107,18.5368480682373,18.5372295379639,18.5376110076904,18.537992477417,18.5383758544922,18.5387573242188,18.5391387939453,18.5395202636719,18.5399036407471,18.540283203125,18.5406665802002,18.5410480499268,18.5414295196533,18.5418109893799,18.5421943664551,18.5425758361816,18.5429573059082,18.5433406829834,18.54372215271
12.3628196716309,12.4141750335693,12.4659585952759,12.5181760787964,12.5708322525024,12.6239337921143,12.6774854660034,12.7314939498901,12.7859649658203,12.8409032821655,12.896315574646,12.9522085189819,13.0085887908936,13.0654611587524,13.1228332519531,13.1807107925415,13.2391023635864,13.2980127334595,13.3574495315552,13.4174203872681,13.4779329299927,13.5389928817749,13.6006088256836,13.662787437439,13.7255382537842,13.7888679504395,13.8527841567993,13.9172964096069,13.9824113845825,14.0481395721436,14.114501953125,14.1815137863159,14.2491645812988,14.3174638748169,14.3864002227783,14.4560022354126,14.7174081802368,14.7893352508545,14.8619689941406,14.9353046417236,15.0093421936035,15.0841159820557,15.1596393585205,15.2359085083008,15.3907918930054,15.3933744430542,15.3959579467773,15.3985414505005,15.4259986877441,15.5060291290283,15.5869159698486,15.6686506271362,15.7512474060059,15.8347196578979,18.2504272460938,18.2507972717285,18.2511711120605,18.2515392303467,18.2519130706787,18.2522830963135,18.2526550292969,18.2530269622803,18.2533912658691,18.2537670135498,18.2541351318359,18.2545070648193,18.2548828125,18.2552509307861,18.2556209564209,18.2559928894043,18.2563629150391,18.2567329406738,18.2571048736572,18.2574729919434,18.2578468322754,18.2582225799561,18.2585868835449,18.2589588165283,18.2593326568604,18.2597026824951,18.2600765228271,18.2604427337646,18.2608165740967,18.2611923217773,18.2615604400635,18.2619323730469,18.2623043060303,18.2626762390137,18.2630462646484,18.2634181976318,18.2637882232666,18.26416015625,18.2645320892334,18.2649040222168,18.2652740478516,18.265645980835,18.2660179138184,18.2663879394531,18.2667598724365,18.2671318054199,18.2675037384033,18.2678756713867,18.2682476043701,18.2686176300049,18.2689895629883,18.2693614959717,18.2697315216064,18.2701053619385,18.2704753875732,18.2708473205566,18.27121925354,18.2715911865234,18.2719612121582,18.2723331451416,18.2727069854736,18.273078918457,18.2734489440918,18.2738208770752,18.2741928100586,18.274564743042,18.2749366760254,18.2753086090088,18.2756805419922,18.2760524749756,18.276424407959,18.2767963409424,18.2771682739258,18.2775402069092,18.2779121398926,18.278284072876,18.2786560058594,18.2790279388428,18.2793998718262,18.2797718048096,18.280143737793,18.2805156707764,18.2808876037598,18.2812595367432,18.2816314697266,18.2820053100586,18.2823753356934,18.2827491760254,18.2831211090088,18.2834930419922,18.2838649749756,18.284236907959,18.2846088409424,18.2849807739258,18.2853546142578,18.2857265472412,18.2860984802246,18.286470413208,18.2868423461914,18.2872142791748,18.2875881195068,18.2879600524902,18.2883338928223,18.2887058258057,18.2890777587891,18.2894496917725,18.2898216247559,18.2901935577393,18.2905673980713,18.2909393310547,18.2913131713867,18.2916851043701,18.2920570373535,18.2924308776855,18.2928009033203,18.2931747436523,18.2935485839844,18.2939205169678,18.2942924499512,18.2946643829346,18.2950382232666,18.29541015625,18.295783996582,18.2961559295654,18.2965297698975,18.2969017028809,18.2972736358643,18.2976474761963,18.2980175018311,18.2983913421631,18.2987651824951,18.2991371154785,18.2995090484619,18.2998828887939,18.3002548217773,18.3006286621094,18.3010005950928,18.3013725280762,18.3017444610596,18.3021183013916,18.302490234375,18.3028602600098,18.3032341003418,18.3036060333252,18.3039779663086,18.304349899292,18.3047218322754,18.3050956726074,18.3054676055908,18.3058395385742,18.3062114715576,18.306583404541,18.306957244873,18.3073291778564,18.3077011108398,18.3080730438232,18.3084468841553,18.3088188171387,18.3091907501221,18.3095626831055,18.3099365234375,18.3103084564209,18.3106822967529,18.3110542297363,18.3114261627197,18.3117980957031,18.3121719360352,18.3125438690186,18.312915802002,18.3132877349854,18.3136615753174,18.3140335083008,18.3144054412842,18.3147792816162,18.3151512145996,18.3155250549316,18.3158988952637,18.3162689208984,18.3166427612305,18.3170146942139,18.3173866271973,18.3177604675293,18.3181343078613,18.3185043334961,18.3188800811768,18.3192520141602,18.3196239471436,18.3199977874756,18.320369720459,18.320743560791,18.3211154937744,18.3214893341064,18.3218631744385,18.3222351074219,18.3226089477539,18.3229808807373,18.3233528137207,18.3237266540527,18.3241004943848,18.3244724273682,18.3248462677002,18.3252201080322,18.3255920410156,18.3259658813477,18.3263378143311,18.3267116546631,18.3270854949951,18.3274574279785,18.3278312683105,18.3282032012939,18.328577041626,18.3289527893066,18.32932472229,18.3296966552734,18.3300704956055,18.3304443359375,18.3308162689209,18.3311901092529,18.3315620422363,18.331937789917,18.332311630249,18.3326854705811,18.3330554962158,18.3334312438965,18.3338050842285,18.3341770172119,18.3345508575439,18.334924697876,18.335298538208,18.3356704711914,18.3360443115234,18.3364181518555,18.3367919921875,18.3371658325195,18.3375396728516,18.3379135131836,18.3382873535156,18.3386611938477,18.3390331268311,18.3394088745117,18.3397808074951,18.3401546478271,18.3405284881592,18.3409023284912,18.3412742614746,18.3416500091553,18.3420238494873,18.3423976898193,18.3427715301514,18.3431453704834,18.3435192108154,18.3438930511475,18.3442668914795,18.3446407318115,18.3450145721436,18.3453884124756,18.3457622528076,18.3461360931396,18.3465099334717,18.3468837738037,18.3472576141357,18.3476314544678,18.3480052947998,18.3483791351318,18.3487529754639,18.3491268157959,18.3495025634766,18.3498764038086,18.3502502441406,18.3506240844727,18.3509979248047,18.3513717651367,18.3517456054688,18.3521213531494,18.3524951934814,18.3528690338135,18.3532428741455,18.3536167144775,18.3539924621582,18.3543663024902,18.3547401428223,18.3551139831543,18.355489730835,18.355863571167,18.356237411499,18.3566112518311,18.3569869995117,18.3573608398438,18.3577346801758,18.3581085205078,18.3584842681885,18.3588581085205,18.3592319488525,18.3596057891846,18.3599815368652,18.3603553771973,18.3607311248779,18.3611068725586,18.361478805542,18.3618545532227,18.3622283935547,18.3626041412354,18.3629779815674,18.363353729248,18.3637275695801,18.3641014099121,18.3644771575928,18.3648509979248,18.3652267456055
12.3626575469971,12.4140110015869,12.4657926559448,12.518009185791,12.5706644058228,12.6237640380859,12.6773147583008,12.7313213348389,12.7857904434204,12.8407278060913,12.8961391448975,12.9520301818848,13.0084085464478,13.065279006958,13.1226501464844,13.1805257797241,13.2389154434204,13.2978248596191,13.3572597503662,13.4172286987305,13.4777393341064,13.53879737854,13.6004114151001,13.6625890731812,13.7253379821777,13.7886648178101,13.8525800704956,13.9170904159546,13.9822034835815,14.047945022583,14.1143245697021,14.1813344955444,14.2489814758301,14.3172569274902,14.3861904144287,14.4557914733887,14.7171869277954,14.7891120910645,14.8617429733276,14.9350690841675,15.0091037750244,15.0838756561279,15.1593961715698,15.2356719970703,15.3975143432617,15.4000988006592,15.402684211731,15.4052715301514,15.4257392883301,15.5057744979858,15.5866584777832,15.6683912277222,18.0767803192139,18.0771369934082,18.0775051116943,18.0778694152832,18.0782337188721,18.0785961151123,18.0789604187012,18.0793228149414,18.0796909332275,18.0800457000732,18.0804119110107,18.0807800292969,18.0811424255371,18.0815086364746,18.0818748474121,18.0822353363037,18.0825977325439,18.0829639434814,18.083324432373,18.0836925506592,18.0840530395508,18.0844192504883,18.0847873687744,18.085147857666,18.0855102539062,18.0858745574951,18.0862350463867,18.0866069793701,18.086971282959,18.0873336791992,18.0876998901367,18.0880584716797,18.0884246826172,18.0887908935547,18.0891513824463,18.0895214080811,18.0898838043213,18.0902481079102,18.090612411499,18.0909786224365,18.0913429260254,18.0917053222656,18.0920715332031,18.092435836792,18.0928001403809,18.0931644439697,18.0935287475586,18.0938930511475,18.0942573547363,18.0946216583252,18.0949859619141,18.0953502655029,18.0957164764404,18.0960807800293,18.0964450836182,18.096809387207,18.0971736907959,18.0975379943848,18.0979022979736,18.0982685089111,18.0986328125,18.0989971160889,18.0993633270264,18.0997276306152,18.1000919342041,18.100456237793,18.1008205413818,18.1011867523193,18.1015510559082,18.1019153594971,18.1022815704346,18.1026458740234,18.1030101776123,18.1033744812012,18.1037406921387,18.1041049957275,18.104471206665,18.1048355102539,18.1051998138428,18.1055641174316,18.1059284210205,18.106294631958,18.1066589355469,18.1070232391357,18.1073894500732,18.1077556610107,18.1081199645996,18.1084842681885,18.108850479126,18.1092147827148,18.1095809936523,18.1099452972412,18.1103115081787,18.1106758117676,18.1110401153564,18.1114063262939,18.1117725372314,18.1121368408203,18.1125011444092,18.1128673553467,18.1132335662842,18.113597869873,18.1139640808105,18.1143283843994,18.1146945953369,18.1150588989258,18.1154251098633,18.1157894134521,18.1161556243896,18.1165199279785,18.116886138916,18.1172504425049,18.1176166534424,18.1179828643799,18.1183471679688,18.1187133789062,18.1190795898438,18.1194438934326,18.1198101043701,18.1201763153076,18.1205406188965,18.1209049224854,18.1212711334229,18.1216373443604,18.1220035552979,18.1223678588867,18.1227340698242,18.1230983734131,18.1234664916992,18.1238307952881,18.1241970062256,18.1245632171631,18.124927520752,18.1252937316895,18.125659942627,18.1260261535645,18.126392364502,18.1267566680908,18.1271228790283,18.1274890899658,18.1278533935547,18.1282215118408,18.1285858154297,18.1289501190186,18.1293163299561,18.1296825408936,18.1300468444824,18.1304111480713,18.1307773590088,18.1311416625977,18.1315078735352,18.131872177124,18.1322383880615,18.1326026916504,18.1329689025879,18.1333332061768,18.1336994171143,18.1340637207031,18.1344299316406,18.1347942352295,18.135160446167,18.1355247497559,18.135892868042,18.1362571716309,18.1366214752197,18.1369876861572,18.1373519897461,18.1377182006836,18.1380844116211,18.13844871521,18.1388149261475,18.139181137085,18.1395454406738,18.1399116516113,18.1402778625488,18.1406421661377,18.1410083770752,18.1413745880127,18.1417407989502,18.1421051025391,18.1424713134766,18.1428375244141,18.1432018280029,18.1435680389404,18.1439342498779,18.1442985534668,18.1446666717529,18.1450309753418,18.1453971862793,18.1457633972168,18.1461277008057,18.1464939117432,18.1468601226807,18.1472263336182,18.1475925445557,18.1479568481445,18.148323059082,18.1486892700195,18.149055480957,18.1494216918945,18.149787902832,18.1501522064209,18.1505184173584,18.1508846282959,18.1512508392334,18.1516170501709,18.1519832611084,18.1523513793945,18.1527156829834,18.1530818939209,18.1534481048584,18.1538143157959,18.1541805267334,18.1545467376709,18.1549129486084,18.1552791595459,18.1556453704834,18.1560096740723,18.1563777923584,18.1567440032959,18.1571102142334,18.1574764251709,18.1578426361084,18.1582088470459,18.1585750579834,18.1589412689209,18.159309387207,18.1596736907959,18.1600399017334,18.1604061126709,18.1607723236084,18.1611404418945,18.161506652832,18.1618728637695,18.162239074707,18.1626071929932,18.162971496582,18.1633377075195,18.1637058258057,18.1640720367432,18.1644382476807,18.1648044586182,18.1651706695557,18.1655368804932,18.1659049987793,18.1662712097168,18.1666374206543,18.1670036315918,18.1673717498779,18.1677379608154,18.1681041717529,18.1684722900391,18.1688365936279,18.1692047119141,18.1695709228516,18.1699390411377,18.1703052520752,18.1706733703613,18.1710395812988,18.1714057922363,18.1717720031738,18.17214012146,18.1725063323975,18.172872543335,18.1732406616211,18.1736068725586,18.1739730834961,18.1743412017822,18.1747074127197,18.1750736236572,18.1754417419434,18.1758098602295,18.176176071167,18.1765422821045,18.1769104003906,18.1772766113281,18.1776447296143,18.1780109405518,18.1783771514893,18.1787452697754,18.1791133880615,18.179479598999,18.1798477172852,18.1802139282227,18.1805820465088,18.1809482574463,18.1813163757324,18.1816844940186,18.1820507049561,18.1824188232422,18.1827850341797,18.1831512451172,18.1835193634033,18.1838874816895,18.184253692627,18.1846218109131,18.1849880218506,18.1853561401367,18.1857242584229,18.1860904693604,18.1864585876465,18.1868267059326,18.1871948242188,18.1875610351562,18.1879291534424,18.1882972717285,18.188663482666,18.1890316009521,18.1893978118896,18.1897678375244,18.1901340484619
12.362494468689,12.4138469696045,12.4656276702881,12.5178422927856,12.5704956054688,12.6235942840576,12.6771440505981,12.7311487197876,12.7856168746948,12.8405523300171,12.8959617614746,12.9518518447876,13.008228302002,13.0650978088379,13.1224660873413,13.1803417205811,13.2387285232544,13.2976360321045,13.3570699691772,13.4170370101929,13.4775457382202,13.5386028289795,13.6002149581909,13.6623907089233,13.725136756897,13.788462638855,13.8523759841919,13.9168844223022,13.9820137023926,14.0477695465088,14.1141481399536,14.1811494827271,14.2487754821777,14.3170499801636,14.3859806060791,14.4555797576904,14.716965675354,14.7888889312744,14.861517906189,14.9348335266113,15.0088653564453,15.0836343765259,15.1591529846191,15.2354316711426,15.3124723434448,15.4068298339844,15.4094171524048,15.4120063781738,15.425479888916,15.5055208206177,17.9063987731934,17.9067573547363,17.9071102142334,17.9074687957764,17.9078273773193,17.9081840515137,17.9085426330566,17.908899307251,17.9092578887939,17.909610748291,17.9099712371826,17.910327911377,17.9106845855713,17.9110412597656,17.9113998413086,17.9117565155029,17.9121112823486,17.912467956543,17.9128303527832,17.9131813049316,17.9135398864746,17.9139003753662,17.9142570495605,17.9146175384521,17.9149703979492,17.9153270721436,17.9156856536865,17.9160423278809,17.9163970947266,17.9167613983154,17.9171142578125,17.9174709320068,17.9178333282471,17.9181842803955,17.9185485839844,17.9189033508301,17.9192638397217,17.9196166992188,17.9199752807617,17.9203338623047,17.920690536499,17.921049118042,17.9214057922363,17.9217624664307,17.9221210479736,17.922477722168,17.9228363037109,17.9231948852539,17.9235515594482,17.9239082336426,17.9242668151855,17.9246253967285,17.9249820709229,17.9253406524658,17.9256992340088,17.9260559082031,17.9264125823975,17.9267711639404,17.9271278381348,17.9274864196777,17.9278450012207,17.9282035827637,17.928560256958,17.928918838501,17.9292774200439,17.9296340942383,17.9299926757812,17.9303493499756,17.9307079315186,17.9310665130615,17.9314250946045,17.9317817687988,17.9321403503418,17.9324970245361,17.9328556060791,17.9332141876221,17.933572769165,17.933931350708,17.9342880249023,17.9346466064453,17.9350051879883,17.9353637695312,17.9357204437256,17.9360790252686,17.9364356994629,17.9367942810059,17.9371528625488,17.9375114440918,17.9378700256348,17.9382286071777,17.9385871887207,17.9389457702637,17.9393043518066,17.939661026001,17.9400196075439,17.9403781890869,17.9407367706299,17.9410953521729,17.9414539337158,17.9418106079102,17.9421710968018,17.9425277709961,17.9428863525391,17.943244934082,17.943603515625,17.943962097168,17.9443206787109,17.9446792602539,17.9450378417969,17.9453964233398,17.9457550048828,17.9461135864258,17.9464721679688,17.9468288421631,17.9471874237061,17.947546005249,17.9479064941406,17.948263168335,17.9486236572266,17.9489822387695,17.9493408203125,17.9496994018555,17.9500579833984,17.9504165649414,17.9507751464844,17.9511337280273,17.9514923095703,17.9518508911133,17.9522094726562,17.9525699615479,17.9529285430908,17.9532871246338,17.9536457061768,17.9540042877197,17.9543628692627,17.9547214508057,17.9550819396973,17.9554405212402,17.9557991027832,17.9561576843262,17.9565181732178,17.9568767547607,17.9572353363037,17.9575939178467,17.9579524993896,17.9583129882812,17.9586715698242,17.9590301513672,17.9593887329102,17.9597473144531,17.9601058959961,17.9604644775391,17.960823059082,17.961181640625,17.961540222168,17.9618968963623,17.9622554779053,17.9626140594482,17.9629726409912,17.9633312225342,17.9636917114258,17.9640483856201,17.9644069671631,17.9647655487061,17.965124130249,17.965482711792,17.965841293335,17.9661998748779,17.9665584564209,17.9669170379639,17.9672756195068,17.9676342010498,17.9679927825928,17.9683532714844,17.9687099456787,17.9690685272217,17.9694271087646,17.9697856903076,17.9701442718506,17.9705047607422,17.9708633422852,17.9712219238281,17.9715805053711,17.9719390869141,17.972297668457,17.97265625,17.9730167388916,17.9733753204346,17.9737339019775,17.9740924835205,17.9744510650635,17.9748115539551,17.975170135498,17.975528717041,17.975887298584,17.976245880127,17.9766063690186,17.9769649505615,17.9773235321045,17.9776821136475,17.9780406951904,17.978401184082,17.978759765625,17.979118347168,17.9794788360596,17.9798374176025,17.9801959991455,17.9805545806885,17.9809150695801,17.981273651123,17.9816341400146,17.9819927215576,17.9823513031006,17.9827117919922,17.9830703735352,17.9834289550781,17.9837875366211,17.9841480255127,17.9845066070557,17.9848670959473,17.9852256774902,17.9855861663818,17.9859447479248,17.9863033294678,17.9866638183594,17.9870223999023,17.9873828887939,17.9877433776855,17.9881019592285,17.9884605407715,17.9888210296631,17.9891815185547,17.9895401000977,17.9898986816406,17.9902591705322,17.9906177520752,17.9909782409668,17.9913368225098,17.9916973114014,17.9920558929443,17.9924163818359,17.9927768707275,17.9931354522705,17.9934959411621,17.9938564300537,17.9942150115967,17.9945735931396,17.9949340820312,17.9952945709229,17.9956550598145,17.9960136413574,17.9963722229004,17.996732711792,17.9970932006836,17.9974517822266,17.9978122711182,17.9981727600098,17.9985332489014,17.9988918304443,17.9992523193359,17.9996128082275,17.9999713897705,18.0003318786621,18.0006923675537,18.0010509490967,18.0014114379883,18.0017738342285,18.0021324157715,18.0024909973145,18.0028514862061,18.0032119750977,18.0035724639893,18.0039329528809,18.0042934417725,18.0046520233154,18.0050144195557,18.0053730010986,18.0057334899902,18.0060939788818,18.0064544677734,18.0068130493164,18.0071754455566,18.0075340270996,18.0078945159912,18.0082550048828,18.0086154937744,18.008975982666,18.0093364715576,18.0096950531006,18.0100574493408,18.0104179382324,18.0107765197754,18.011137008667,18.0114974975586,18.0118598937988,18.0122184753418,18.0125789642334,18.012939453125,18.0133018493652,18.0136604309082,18.0140209197998,18.01438331604,18.0147438049316,18.0151042938232,18.0154628753662,18.0158233642578,18.0161838531494,18.0165462493896,18.0169067382812,18.0172653198242,18.0176277160645,18.0179882049561,18.0183486938477
12.3623313903809,12.4136829376221,12.465461730957,12.5176753997803,12.5703277587891,12.6234245300293,12.6769723892212,12.7309770584106,12.7854423522949,12.8403768539429,12.8957843780518,12.9516735076904,13.0080480575562,13.0649156570435,13.1222829818726,13.1801567077637,13.2385425567627,13.2974481582642,13.3568801879883,13.4168462753296,13.477352142334,13.5384073257446,13.6000175476074,13.6621913909912,13.7249364852905,13.7882604598999,13.8521718978882,13.9166975021362,13.981840133667,14.0475950241089,14.1139602661133,14.1809463500977,14.2485694885254,14.3168420791626,14.3857717514038,14.4553680419922,14.7167453765869,14.7886657714844,14.8612928390503,14.9345970153809,15.0086269378662,15.0833940505981,15.1589097976685,15.2351856231689,15.3122186660767,15.4135665893555,15.4161567687988,15.4187479019165,15.4252233505249,17.7395553588867,17.7399024963379,17.7402572631836,17.7406044006348,17.7409553527832,17.7413024902344,17.7416572570801,17.7420082092285,17.7423534393311,17.7427082061768,17.7430610656738,17.7434101104736,17.7437591552734,17.7441101074219,17.7444591522217,17.7448120117188,17.7451553344727,17.7455081939697,17.7458610534668,17.7462120056152,17.7465648651123,17.7469177246094,17.7472667694092,17.7476139068604,17.7479667663574,17.7483158111572,17.7486686706543,17.7490177154541,17.7493724822998,17.7497234344482,17.750072479248,17.7504215240479,17.7507724761963,17.7511215209961,17.7514743804932,17.751823425293,17.75217628479,17.7525253295898,17.7528743743896,17.7532291412354,17.7535800933838,17.7539310455322,17.7542819976807,17.7546329498291,17.7549839019775,17.755334854126,17.7556858062744,17.7560367584229,17.7563877105713,17.7567386627197,17.7570896148682,17.7574405670166,17.757791519165,17.7581443786621,17.7584953308105,17.758846282959,17.7591953277588,17.7595481872559,17.7598991394043,17.7602500915527,17.7606010437012,17.7609519958496,17.7613048553467,17.7616539001465,17.7620067596436,17.7623558044434,17.7627086639404,17.7630596160889,17.7634105682373,17.7637634277344,17.7641143798828,17.7644653320312,17.7648162841797,17.7651672363281,17.7655200958252,17.765869140625,17.7662220001221,17.7665729522705,17.7669239044189,17.767276763916,17.7676277160645,17.7679805755615,17.76833152771,17.7686824798584,17.7690334320068,17.7693843841553,17.7697372436523,17.7700881958008,17.7704410552979,17.7707920074463,17.7711429595947,17.7714958190918,17.7718467712402,17.7721977233887,17.7725486755371,17.7729015350342,17.7732543945312,17.7736053466797,17.7739562988281,17.7743072509766,17.7746601104736,17.7750110626221,17.7753639221191,17.7757148742676,17.7760677337646,17.7764186859131,17.7767696380615,17.7771224975586,17.777473449707,17.7778263092041,17.7781772613525,17.7785301208496,17.778881072998,17.7792320251465,17.7795848846436,17.7799377441406,17.7802906036377,17.7806415557861,17.7809944152832,17.7813453674316,17.7816963195801,17.7820491790771,17.7824020385742,17.7827529907227,17.7831058502197,17.7834587097168,17.7838096618652,17.7841625213623,17.7845134735107,17.7848663330078,17.7852191925049,17.7855701446533,17.7859230041504,17.7862758636475,17.7866268157959,17.786979675293,17.78733253479,17.7876834869385,17.7880363464355,17.7883892059326,17.7887420654297,17.7890930175781,17.7894439697266,17.7897987365723,17.7901496887207,17.7905025482178,17.7908554077148,17.7912082672119,17.7915592193604,17.7919120788574,17.7922649383545,17.7926177978516,17.79296875,17.7933216094971,17.7936725616455,17.7940254211426,17.794376373291,17.7947273254395,17.7950801849365,17.795431137085,17.795783996582,17.7961349487305,17.7964878082275,17.796838760376,17.797191619873,17.7975425720215,17.7978954315186,17.798246383667,17.7985992431641,17.7989521026611,17.7993030548096,17.799654006958,17.8000068664551,17.8003597259521,17.8007106781006,17.801061630249,17.8014144897461,17.8017673492432,17.8021202087402,17.8024711608887,17.8028240203857,17.8031749725342,17.8035278320312,17.8038787841797,17.8042316436768,17.8045845031738,17.8049373626709,17.8052883148193,17.8056411743164,17.8059921264648,17.8063449859619,17.806697845459,17.8070487976074,17.8074035644531,17.8077545166016,17.80810546875,17.8084602355957,17.8088111877441,17.8091621398926,17.8095169067383,17.8098678588867,17.8102188110352,17.8105735778809,17.8109245300293,17.8112773895264,17.8116302490234,17.8119812011719,17.8123340606689,17.812686920166,17.8130397796631,17.8133907318115,17.8137435913086,17.8140983581543,17.8144512176514,17.8148021697998,17.8151550292969,17.8155078887939,17.815860748291,17.8162136077881,17.8165664672852,17.8169193267822,17.8172721862793,17.8176250457764,17.8179759979248,17.8183288574219,17.8186817169189,17.819034576416,17.8193874359131,17.8197402954102,17.8200931549072,17.8204460144043,17.8207988739014,17.8211536407471,17.8215045928955,17.8218574523926,17.8222103118896,17.8225631713867,17.8229160308838,17.8232688903809,17.8236217498779,17.823974609375,17.8243274688721,17.8246803283691,17.8250331878662,17.8253860473633,17.825740814209,17.8260936737061,17.8264465332031,17.8267993927002,17.8271522521973,17.8275051116943,17.8278579711914,17.8282108306885,17.8285636901855,17.8289184570312,17.8292713165283,17.8296241760254,17.8299789428711,17.8303298950195,17.8306827545166,17.8310375213623,17.8313903808594,17.8317432403564,17.8320980072021,17.8324489593506,17.8328018188477,17.8331565856934,17.8335113525391,17.8338623046875,17.8342170715332,17.8345699310303,17.8349227905273,17.8352756500244,17.8356304168701,17.8359832763672,17.8363361358643,17.83669090271,17.837043762207,17.8373966217041,17.8377494812012,17.8381042480469,17.8384590148926,17.8388118743896,17.8391647338867,17.8395175933838,17.8398723602295,17.8402252197266,17.8405780792236,17.8409328460693,17.8412857055664,17.8416404724121,17.8419933319092,17.8423480987549,17.842700958252,17.843053817749,17.8434085845947,17.8437614440918,17.8441162109375,17.8444709777832,17.8448238372803,17.8451766967773,17.845531463623,17.8458843231201,17.8462390899658,17.8465919494629,17.8469467163086,17.8473014831543,17.8476543426514,17.8480091094971,17.8483619689941,17.8487148284912,17.8490715026855,17.8494243621826,17.8497772216797
12.3621692657471,12.4135189056396,12.4652967453003,12.5175085067749,12.5701599121094,12.6232557296753,12.6768016815186,12.7308044433594,12.7852687835693,12.8402013778687,12.8956079483032,12.9514942169189,13.0078678131104,13.0647344589233,13.1220998764038,13.1799716949463,13.2383556365967,13.2972602844238,13.3566904067993,13.416654586792,13.4771595001221,13.5382127761841,13.5998210906982,13.6619930267334,13.7247362136841,13.7880582809448,13.8519887924194,13.9165258407593,13.9816665649414,14.0474052429199,14.1137590408325,14.1807422637939,14.2483644485474,14.3166341781616,14.3855619430542,14.6453018188477,14.7165241241455,14.7884426116943,14.8610601425171,14.9343614578247,15.0083885192871,15.0831537246704,15.1586666107178,15.2349405288696,15.3119783401489,17.5747547149658,17.5751037597656,17.5754451751709,17.5757865905762,17.5761280059814,17.5764789581299,17.5768184661865,17.5771617889404,17.577507019043,17.5778503417969,17.5781936645508,17.5785388946533,17.5788822174072,17.5792236328125,17.579568862915,17.5799198150635,17.5802612304688,17.5806064605713,17.5809459686279,17.5812911987305,17.581636428833,17.5819816589355,17.5823249816895,17.5826683044434,17.5830173492432,17.5833568572998,17.5837001800537,17.5840473175049,17.5843868255615,17.5847339630127,17.585075378418,17.5854225158691,17.5857734680176,17.5861110687256,17.5864543914795,17.5868034362793,17.5871410369873,17.5874900817871,17.5878372192383,17.5881767272949,17.5885181427002,17.5888652801514,17.5892105102539,17.5895538330078,17.5899028778076,17.5902462005615,17.5905895233154,17.590934753418,17.5912799835205,17.591625213623,17.591968536377,17.5923137664795,17.5926570892334,17.5930023193359,17.5933456420898,17.5936908721924,17.5940361022949,17.5943813323975,17.5947265625,17.5950698852539,17.5954151153564,17.5957584381104,17.5961055755615,17.5964488983154,17.596794128418,17.5971393585205,17.597484588623,17.597827911377,17.5981731414795,17.598518371582,17.5988636016846,17.5992069244385,17.599552154541,17.5998973846436,17.6002426147461,17.6005878448486,17.6009311676025,17.6012763977051,17.6016216278076,17.6019668579102,17.6023120880127,17.6026573181152,17.6030025482178,17.6033458709717,17.6036911010742,17.6040363311768,17.6043815612793,17.6047267913818,17.6050720214844,17.6054153442383,17.6057624816895,17.606107711792,17.6064529418945,17.6067981719971,17.6071434020996,17.6074867248535,17.6078319549561,17.6081771850586,17.6085224151611,17.6088676452637,17.6092128753662,17.6095581054688,17.6099033355713,17.6102485656738,17.6105937957764,17.6109390258789,17.6112842559814,17.611629486084,17.6119747161865,17.6123218536377,17.6126651763916,17.6130123138428,17.6133575439453,17.6137027740479,17.6140460968018,17.6143932342529,17.6147384643555,17.615083694458,17.6154289245605,17.6157741546631,17.6161193847656,17.6164665222168,17.6168117523193,17.6171569824219,17.6175022125244,17.617847442627,17.6181945800781,17.6185398101807,17.6188850402832,17.6192302703857,17.6195755004883,17.6199207305908,17.620267868042,17.6206130981445,17.6209583282471,17.6213054656982,17.6216487884521,17.6219959259033,17.6223411560059,17.622688293457,17.6230335235596,17.6233787536621,17.6237239837646,17.6240711212158,17.6244163513184,17.6247615814209,17.6251087188721,17.6254539489746,17.6257991790771,17.6261463165283,17.6264915466309,17.6268367767334,17.6271839141846,17.6275291442871,17.6278762817383,17.6282215118408,17.6285667419434,17.6289138793945,17.6292591094971,17.6296062469482,17.6299514770508,17.6302967071533,17.6306419372559,17.6309871673584,17.6313323974609,17.6316776275635,17.632022857666,17.6323699951172,17.6327133178711,17.6330585479736,17.6334037780762,17.6337509155273,17.6340961456299,17.6344394683838,17.634786605835,17.6351318359375,17.63547706604,17.6358242034912,17.6361694335938,17.6365146636963,17.6368598937988,17.63720703125,17.6375503540039,17.6378974914551,17.6382427215576,17.6385879516602,17.6389331817627,17.6392784118652,17.6396255493164,17.6399707794189,17.6403179168701,17.6406631469727,17.6410083770752,17.6413536071777,17.6417007446289,17.6420440673828,17.642391204834,17.6427364349365,17.6430816650391,17.6434288024902,17.6437740325928,17.6441192626953,17.6444664001465,17.6448135375977,17.6451587677002,17.6455039978027,17.6458492279053,17.6461963653564,17.646541595459,17.6468868255615,17.6472339630127,17.6475791931152,17.6479244232178,17.6482715606689,17.6486167907715,17.6489639282227,17.6493091583252,17.6496543884277,17.6500015258789,17.6503486633301,17.6506938934326,17.6510391235352,17.6513862609863,17.6517333984375,17.65207862854,17.6524238586426,17.6527709960938,17.6531162261963,17.6534633636475,17.65380859375,17.6541557312012,17.6545028686523,17.6548480987549,17.6551952362061,17.6555423736572,17.6558876037598,17.6562347412109,17.6565799713135,17.6569271087646,17.6572742462158,17.6576194763184,17.6579647064209,17.6583118438721,17.6586570739746,17.6590042114258,17.659351348877,17.6596965789795,17.6600456237793,17.6603908538818,17.660737991333,17.6610832214355,17.6614303588867,17.6617774963379,17.6621227264404,17.6624698638916,17.6628170013428,17.6631622314453,17.6635093688965,17.6638565063477,17.6642036437988,17.6645488739014,17.6648960113525,17.6652431488037,17.6655902862549,17.6659355163574,17.6662845611572,17.6666297912598,17.6669769287109,17.6673240661621,17.6676692962646,17.6680183410645,17.668363571167,17.6687107086182,17.6690578460693,17.6694049835205,17.6697521209717,17.6700973510742,17.6704444885254,17.6707916259766,17.6711387634277,17.6714859008789,17.6718330383301,17.6721801757812,17.6725273132324,17.6728744506836,17.6732196807861,17.6735668182373,17.6739158630371,17.6742610931396,17.6746082305908,17.674955368042,17.6753025054932,17.6756496429443,17.6759986877441,17.676342010498,17.6766910552979,17.677038192749,17.6773872375488,17.6777324676514,17.6780796051025,17.6784286499023,17.6787738800049,17.6791229248047,17.6794681549072,17.6798152923584,17.6801624298096,17.6805114746094,17.6808586120605,17.6812057495117,17.6815528869629,17.6819000244141,17.6822471618652,17.6825942993164,17.6829414367676,17.6832885742188,17.6836376190186,17.6839847564697,17.6843318939209
12.362006187439,12.4133548736572,12.4651317596436,12.5173416137695,12.5699911117554,12.623085975647,12.6766309738159,12.7306318283081,12.7850942611694,12.8400259017944,12.8954305648804,12.9513158798218,13.0076875686646,13.0645523071289,13.1219167709351,13.1797866821289,13.238169670105,13.2970714569092,13.3565006256104,13.4164628982544,13.4769659042358,13.5380172729492,13.5996236801147,13.6617946624756,13.7245359420776,13.7878799438477,13.8518190383911,13.916353225708,13.9814748764038,14.0472059249878,14.1135578155518,14.1805391311646,14.248158454895,14.316427230835,14.3853521347046,14.6450824737549,14.7163028717041,14.7882194519043,14.8608264923096,14.9341249465942,15.008150100708,15.0829124450684,15.1584234237671,15.234694480896,15.3117370605469,17.4143447875977,17.4146785736084,17.415018081665,17.4153575897217,17.4156970977783,17.4160308837891,17.4163703918457,17.4167079925537,17.4170417785645,17.4173831939697,17.4177169799805,17.4180545806885,17.4183959960938,17.4187335968018,17.4190711975098,17.4194107055664,17.4197444915771,17.4200839996338,17.4204235076904,17.4207592010498,17.4211006164551,17.4214363098145,17.4217758178711,17.4221115112305,17.4224491119385,17.4227848052979,17.4231281280518,17.4234657287598,17.4238014221191,17.4241390228271,17.4244804382324,17.4248142242432,17.4251518249512,17.4254932403564,17.4258308410645,17.4261684417725,17.4265079498291,17.4268455505371,17.4271812438965,17.4275226593018,17.4278621673584,17.4281940460205,17.4285373687744,17.4288730621338,17.4292087554932,17.4295520782471,17.4298896789551,17.4302291870117,17.4305667877197,17.4309043884277,17.4312438964844,17.4315814971924,17.4319190979004,17.4322566986084,17.432596206665,17.432933807373,17.4332733154297,17.4336109161377,17.4339485168457,17.4342880249023,17.4346256256104,17.434965133667,17.4353046417236,17.4356422424316,17.4359798431396,17.4363174438477,17.4366569519043,17.4369945526123,17.4373340606689,17.4376735687256,17.4380111694336,17.4383506774902,17.4386882781982,17.4390258789062,17.4393653869629,17.4397048950195,17.4400444030762,17.4403820037842,17.4407196044922,17.4410591125488,17.4413986206055,17.4417362213135,17.4420757293701,17.4424133300781,17.4427528381348,17.4430904388428,17.4434299468994,17.4437694549561,17.4441070556641,17.4444465637207,17.4447860717773,17.4451236724854,17.445463180542,17.44580078125,17.4461402893066,17.4464778900146,17.4468173980713,17.4471569061279,17.4474964141846,17.4478340148926,17.4481735229492,17.4485130310059,17.4488506317139,17.4491901397705,17.4495296478271,17.4498691558838,17.4502086639404,17.4505462646484,17.4508838653564,17.4512252807617,17.4515647888184,17.4519023895264,17.452241897583,17.4525814056396,17.4529209136963,17.4532585144043,17.4535980224609,17.4539375305176,17.4542770385742,17.4546165466309,17.4549560546875,17.4552936553955,17.4556331634521,17.4559726715088,17.4563121795654,17.4566516876221,17.4569911956787,17.4573307037354,17.457670211792,17.4580078125,17.4583473205566,17.4586868286133,17.4590263366699,17.4593658447266,17.4597053527832,17.4600448608398,17.4603843688965,17.4607238769531,17.4610633850098,17.4614028930664,17.461742401123,17.4620819091797,17.4624214172363,17.4627590179443,17.4631004333496,17.4634399414062,17.4637794494629,17.4641189575195,17.4644584655762,17.4647979736328,17.4651374816895,17.4654788970947,17.4658184051514,17.4661560058594,17.466495513916,17.4668350219727,17.4671745300293,17.4675159454346,17.4678554534912,17.4681949615479,17.4685344696045,17.4688739776611,17.4692134857178,17.4695529937744,17.4698925018311,17.4702320098877,17.4705696105957,17.4709091186523,17.471248626709,17.4715881347656,17.4719276428223,17.4722671508789,17.4726047515869,17.4729442596436,17.4732856750488,17.4736232757568,17.4739627838135,17.4743022918701,17.4746417999268,17.4749794006348,17.47532081604,17.475658416748,17.4759979248047,17.4763374328613,17.476676940918,17.4770164489746,17.4773559570312,17.4776954650879,17.4780330657959,17.4783725738525,17.4787120819092,17.4790534973145,17.4793910980225,17.4797325134277,17.4800701141357,17.4804096221924,17.480749130249,17.4810905456543,17.4814300537109,17.4817676544189,17.4821071624756,17.4824485778809,17.4827880859375,17.4831256866455,17.4834671020508,17.4838047027588,17.4841461181641,17.4844856262207,17.4848251342773,17.485164642334,17.4855041503906,17.4858436584473,17.4861831665039,17.4865226745605,17.4868621826172,17.4872035980225,17.4875431060791,17.4878807067871,17.4882221221924,17.488561630249,17.4889011383057,17.4892406463623,17.4895801544189,17.4899215698242,17.4902610778809,17.4906005859375,17.4909420013428,17.4912796020508,17.4916191101074,17.4919605255127,17.4923000335693,17.492639541626,17.4929809570312,17.4933185577393,17.4936599731445,17.4939994812012,17.4943389892578,17.4946804046631,17.4950199127197,17.4953594207764,17.495698928833,17.4960403442383,17.4963798522949,17.4967193603516,17.4970607757568,17.4974021911621,17.4977397918701,17.4980812072754,17.498420715332,17.4987602233887,17.4991016387939,17.4994430541992,17.4997825622559,17.5001220703125,17.5004634857178,17.5008029937744,17.5011425018311,17.5014820098877,17.501823425293,17.5021648406982,17.5025043487549,17.5028457641602,17.5031833648682,17.5035247802734,17.5038661956787,17.5042057037354,17.504545211792,17.5048866271973,17.5052280426025,17.5055675506592,17.5059070587158,17.5062484741211,17.5065879821777,17.506929397583,17.5072708129883,17.5076084136963,17.5079498291016,17.5082912445068,17.5086326599121,17.5089721679688,17.509313583374,17.5096549987793,17.5099945068359,17.5103340148926,17.5106754302979,17.5110168457031,17.5113563537598,17.511697769165,17.5120372772217,17.512378692627,17.5127201080322,17.5130596160889,17.5134010314941,17.5137424468994,17.5140819549561,17.5144233703613,17.5147647857666,17.5151062011719,17.5154457092285,17.5157871246338,17.5161285400391,17.5164699554443,17.516809463501,17.5171508789062,17.5174903869629,17.5178337097168,17.5181732177734,17.5185146331787,17.5188541412354,17.5191974639893,17.5195369720459,17.5198783874512,17.5202198028564,17.5205612182617,17.5209007263184,17.5212421417236,17.5215835571289,17.5219249725342
12.3618440628052,12.4131908416748,12.4649658203125,12.5171747207642,12.5698232650757,12.6229162216187,12.676459312439,12.7304592132568,12.7849206924438,12.8398504257202,12.8952541351318,12.9511375427246,13.0075073242188,13.0643711090088,13.1217336654663,13.1796016693115,13.237982749939,13.2968835830688,13.3563108444214,13.4162712097168,13.4767723083496,13.5378217697144,13.5994272232056,13.6615953445435,13.7243614196777,13.7877111434937,13.8516483306885,13.9161605834961,13.9812774658203,14.0470056533813,14.1133556365967,14.1803350448608,14.247953414917,14.316219329834,14.3851099014282,14.6448640823364,14.7160816192627,14.7879962921143,14.8605928421021,14.9338893890381,15.0079116821289,15.0826721191406,15.1581811904907,15.2344493865967,15.3114891052246,17.2568340301514,17.2571601867676,17.2574939727783,17.2578277587891,17.2581558227539,17.2584896087646,17.2588233947754,17.2591552734375,17.2594833374023,17.2598152160645,17.2601470947266,17.2604789733887,17.2608108520508,17.2611427307129,17.261474609375,17.2618083953857,17.2621402740479,17.26247215271,17.2628021240234,17.2631359100342,17.2634696960449,17.2637996673584,17.2641258239746,17.2644634246826,17.2647972106934,17.2651271820068,17.2654590606689,17.2657928466797,17.2661228179932,17.2664489746094,17.2667865753174,17.2671184539795,17.2674503326416,17.2677822113037,17.2681140899658,17.2684459686279,17.26877784729,17.2691078186035,17.2694396972656,17.2697734832764,17.2701015472412,17.2704410552979,17.2707691192627,17.2711009979248,17.2714347839355,17.2717666625977,17.2720985412598,17.2724323272705,17.2727642059326,17.2730960845947,17.2734279632568,17.2737598419189,17.2740917205811,17.2744255065918,17.2747573852539,17.275089263916,17.2754211425781,17.2757530212402,17.2760848999023,17.2764167785645,17.2767505645752,17.2770824432373,17.2774143218994,17.2777481079102,17.2780799865723,17.2784118652344,17.2787456512451,17.2790775299072,17.2794094085693,17.2797412872314,17.2800750732422,17.2804050445557,17.2807388305664,17.2810707092285,17.2814044952393,17.2817363739014,17.2820701599121,17.2824020385742,17.2827339172363,17.2830677032471,17.2833995819092,17.2837314605713,17.2840633392334,17.2843952178955,17.2847290039062,17.2850608825684,17.2853946685791,17.2857265472412,17.286060333252,17.2863922119141,17.2867259979248,17.2870578765869,17.287389755249,17.2877235412598,17.2880554199219,17.2883892059326,17.2887210845947,17.2890529632568,17.2893867492676,17.2897186279297,17.2900524139404,17.2903861999512,17.2907180786133,17.2910499572754,17.2913837432861,17.2917175292969,17.292049407959,17.2923831939697,17.2927169799805,17.2930488586426,17.2933826446533,17.2937145233154,17.2940464019775,17.2943801879883,17.294713973999,17.2950477600098,17.2953796386719,17.2957134246826,17.2960453033447,17.2963790893555,17.2967109680176,17.2970447540283,17.2973785400391,17.2977104187012,17.2980442047119,17.2983779907227,17.2987117767334,17.2990436553955,17.2993774414062,17.299711227417,17.3000431060791,17.3003768920898,17.3007106781006,17.3010444641113,17.3013763427734,17.3017101287842,17.3020439147949,17.302375793457,17.3027095794678,17.3030433654785,17.3033771514893,17.3037109375,17.3040447235107,17.3043766021729,17.3047103881836,17.3050441741943,17.3053760528564,17.3057098388672,17.3060436248779,17.3063774108887,17.3067111968994,17.3070449829102,17.3073768615723,17.307710647583,17.3080444335938,17.3083782196045,17.3087120056152,17.309045791626,17.3093795776367,17.3097133636475,17.3100471496582,17.3103790283203,17.3107128143311,17.3110466003418,17.3113803863525,17.3117141723633,17.312047958374,17.3123817443848,17.3127155303955,17.3130474090576,17.3133792877197,17.3137130737305,17.3140468597412,17.3143787384033,17.3147144317627,17.3150463104248,17.3153781890869,17.3157138824463,17.3160457611084,17.3163776397705,17.3167114257812,17.317045211792,17.3173770904541,17.3177108764648,17.3180446624756,17.3183765411377,17.3187103271484,17.3190441131592,17.3193759918213,17.319709777832,17.3200435638428,17.3203773498535,17.3207092285156,17.3210430145264,17.3213768005371,17.3217105865479,17.32204246521,17.3223781585693,17.3227081298828,17.3230438232422,17.3233776092529,17.323709487915,17.3240432739258,17.3243770599365,17.3247108459473,17.325044631958,17.3253765106201,17.3257102966309,17.3260440826416,17.326379776001,17.3267116546631,17.3270454406738,17.3273792266846,17.3277130126953,17.3280448913574,17.3283786773682,17.3287124633789,17.3290462493896,17.329381942749,17.3297138214111,17.3300457000732,17.3303813934326,17.3307151794434,17.3310489654541,17.3313827514648,17.3317165374756,17.3320503234863,17.3323822021484,17.3327178955078,17.3330516815186,17.3333835601807,17.3337173461914,17.3340530395508,17.3343868255615,17.3347206115723,17.335054397583,17.3353881835938,17.3357219696045,17.3360557556152,17.336389541626,17.3367233276367,17.3370571136475,17.3373908996582,17.3377246856689,17.3380584716797,17.3383922576904,17.3387260437012,17.3390617370605,17.3393955230713,17.339729309082,17.3400630950928,17.3403968811035,17.3407306671143,17.341064453125,17.3414001464844,17.3417339324951,17.3420677185059,17.3424015045166,17.3427352905273,17.3430690765381,17.3434047698975,17.3437385559082,17.3440723419189,17.3444061279297,17.3447418212891,17.3450756072998,17.3454093933105,17.3457431793213,17.3460788726807,17.3464126586914,17.3467464447021,17.3470802307129,17.3474159240723,17.347749710083,17.3480834960938,17.3484172821045,17.3487529754639,17.3490886688232,17.3494205474854,17.3497562408447,17.3500919342041,17.3504238128662,17.3507595062256,17.3510932922363,17.3514270782471,17.3517627716064,17.3520984649658,17.3524322509766,17.3527660369873,17.353099822998,17.3534355163574,17.3537712097168,17.3541049957275,17.3544387817383,17.354772567749,17.3551082611084,17.3554420471191,17.3557777404785,17.3561115264893,17.3564472198486,17.356782913208,17.3571166992188,17.3574504852295,17.3577861785889,17.3581199645996,17.358455657959,17.3587894439697,17.3591232299805,17.3594589233398,17.3597946166992,17.36012840271,17.3604640960693,17.3607978820801,17.3611335754395,17.3614673614502,17.3618030548096,17.3621387481689,17.3624725341797
12.3616809844971,12.4130268096924,12.4648008346558,12.5170078277588,12.569655418396,12.6227464675903,12.6762886047363,12.7302865982056,12.7847471237183,12.839674949646,12.895076751709,12.9509592056274,13.0073280334473,13.0641889572144,13.1215505599976,13.1794166564941,13.2377967834473,13.2966947555542,13.3561210632324,13.4160795211792,13.4765796661377,13.5376272201538,13.5992307662964,13.6614246368408,13.724193572998,13.7875385284424,13.8514537811279,13.9159650802612,13.9810791015625,14.0468063354492,14.1131544113159,14.1801319122314,14.2477369308472,14.3159618377686,14.3848428726196,14.6446447372437,14.7158613204956,14.7877731323242,14.8603591918945,14.9336528778076,15.0076732635498,15.0824317932129,15.15793800354,15.2342042922974,15.3112392425537,17.1021480560303,17.1024723052979,17.1027984619141,17.103120803833,17.1034469604492,17.1037712097168,17.1040954589844,17.1044235229492,17.1047534942627,17.1050758361816,17.1054019927979,17.1057300567627,17.1060523986816,17.1063804626465,17.1067028045654,17.1070308685303,17.1073551177979,17.1076793670654,17.1080074310303,17.1083354949951,17.1086597442627,17.1089878082275,17.1093120574951,17.1096343994141,17.1099624633789,17.1102886199951,17.1106147766113,17.1109428405762,17.1112651824951,17.1115951538086,17.1119213104248,17.112247467041,17.1125736236572,17.1128978729248,17.1132259368896,17.1135482788086,17.1138706207275,17.114200592041,17.1145286560059,17.1148529052734,17.115177154541,17.1155109405518,17.1158294677734,17.1161575317383,17.1164836883545,17.1168079376221,17.1171360015869,17.1174640655518,17.1177921295166,17.1181182861328,17.118444442749,17.1187725067139,17.1190967559814,17.1194229125977,17.1197490692139,17.1200752258301,17.1204013824463,17.1207294464111,17.1210556030273,17.1213817596436,17.1217079162598,17.122034072876,17.1223602294922,17.1226863861084,17.1230144500732,17.1233406066895,17.1236667633057,17.1239929199219,17.1243190765381,17.1246452331543,17.1249713897705,17.1252994537354,17.1256256103516,17.1259517669678,17.1262760162354,17.1266040802002,17.1269302368164,17.1272563934326,17.1275825500488,17.1279106140137,17.1282367706299,17.1285648345947,17.1288890838623,17.1292171478271,17.1295433044434,17.1298694610596,17.1301975250244,17.1305236816406,17.1308498382568,17.131175994873,17.1315040588379,17.1318302154541,17.1321563720703,17.1324844360352,17.1328125,17.1331386566162,17.1334648132324,17.1337928771973,17.1341171264648,17.1344451904297,17.1347732543945,17.1350994110107,17.135425567627,17.1357536315918,17.136079788208,17.1364078521729,17.1367340087891,17.1370620727539,17.1373882293701,17.1377143859863,17.1380424499512,17.1383686065674,17.1386947631836,17.1390228271484,17.1393489837646,17.1396770477295,17.1400051116943,17.1403312683105,17.1406593322754,17.1409854888916,17.1413135528564,17.1416397094727,17.1419658660889,17.1422939300537,17.1426219940186,17.1429481506348,17.143274307251,17.1436023712158,17.1439304351807,17.1442565917969,17.1445846557617,17.1449108123779,17.1452388763428,17.145565032959,17.1458930969238,17.1462211608887,17.1465492248535,17.1468753814697,17.1472015380859,17.1475296020508,17.1478576660156,17.1481857299805,17.1485118865967,17.1488399505615,17.1491680145264,17.1494941711426,17.1498222351074,17.1501483917236,17.1504764556885,17.1508045196533,17.1511325836182,17.151460647583,17.1517868041992,17.1521148681641,17.1524429321289,17.1527690887451,17.1530990600586,17.1534252166748,17.1537532806396,17.1540794372559,17.1544075012207,17.1547355651855,17.1550636291504,17.1553916931152,17.1557178497314,17.1560459136963,17.1563739776611,17.156702041626,17.1570301055908,17.157356262207,17.1576843261719,17.1580123901367,17.1583385467529,17.1586666107178,17.158992767334,17.1593208312988,17.159646987915,17.1599750518799,17.1603031158447,17.1606292724609,17.1609554290771,17.1612854003906,17.1616096496582,17.161937713623,17.1622657775879,17.1625919342041,17.1629199981689,17.1632480621338,17.1635723114014,17.1639022827148,17.1642303466797,17.1645565032959,17.1648826599121,17.165210723877,17.1655387878418,17.1658668518066,17.1661930084229,17.1665210723877,17.1668472290039,17.1671752929688,17.1675033569336,17.1678295135498,17.1681575775146,17.1684856414795,17.1688117980957,17.1691398620605,17.1694679260254,17.1697959899902,17.1701221466064,17.1704502105713,17.1707782745361,17.1711044311523,17.1714324951172,17.171760559082,17.1720867156982,17.1724147796631,17.1727447509766,17.1730709075928,17.1733989715576,17.1737251281738,17.1740531921387,17.1743812561035,17.1747093200684,17.1750373840332,17.175365447998,17.1756916046143,17.1760215759277,17.1763477325439,17.1766757965088,17.1770038604736,17.1773300170898,17.1776599884033,17.1779861450195,17.1783142089844,17.1786422729492,17.1789703369141,17.1792984008789,17.1796264648438,17.1799545288086,17.1802825927734,17.1806087493896,17.1809368133545,17.1812648773193,17.1815929412842,17.1819229125977,17.1822509765625,17.1825771331787,17.1829071044922,17.183235168457,17.1835613250732,17.1838893890381,17.1842174530029,17.1845455169678,17.1848735809326,17.1852016448975,17.1855297088623,17.1858577728271,17.1861877441406,17.1865158081055,17.1868419647217,17.1871700286865,17.1875,17.1878261566162,17.1881561279297,17.1884841918945,17.1888122558594,17.1891403198242,17.1894683837891,17.1897964477539,17.1901245117188,17.1904525756836,17.1907806396484,17.1911106109619,17.1914386749268,17.1917667388916,17.1920948028564,17.1924247741699,17.1927528381348,17.193078994751,17.1934089660645,17.1937370300293,17.1940650939941,17.194393157959,17.1947231292725,17.1950511932373,17.1953792572021,17.195707321167,17.1960372924805,17.1963653564453,17.1966934204102,17.1970233917236,17.1973495483398,17.1976795196533,17.1980075836182,17.198335647583,17.1986656188965,17.1989936828613,17.1993217468262,17.199649810791,17.1999797821045,17.2003078460693,17.2006359100342,17.2009658813477,17.2012958526611,17.2016220092773,17.2019519805908,17.2022819519043,17.2026081085205,17.202938079834,17.2032661437988,17.2035961151123,17.2039241790771,17.2042541503906,17.2045822143555,17.2049102783203,17.2052402496338,17.2055702209473,17.2058963775635
12.3615188598633,12.41286277771,12.4646348953247,12.5168418884277,12.569486618042,12.622576713562,12.6761178970337,12.7301139831543,12.7845726013184,12.8394994735718,12.8948993682861,12.9507808685303,13.0071477890015,13.0640077590942,13.1213665008545,13.1792316436768,13.2376098632812,13.2965068817139,13.3559303283691,13.4158878326416,13.4763860702515,13.5374317169189,13.5990629196167,13.6612586975098,13.7240190505981,13.7873458862305,13.8512592315674,13.9157686233521,13.980881690979,14.0466070175171,14.1129522323608,14.1799001693726,14.2474756240845,14.3156976699829,14.384575843811,14.6444263458252,14.7156400680542,14.7875499725342,14.860125541687,14.9334173202515,15.0074348449707,15.0821905136108,15.1576948165894,15.2339582443237,15.3109846115112,16.9502029418945,16.9505252838135,16.9508476257324,16.9511623382568,16.9514846801758,16.9518032073975,16.952127456665,16.952449798584,16.9527645111084,16.9530868530273,16.9534072875977,16.9537239074707,16.9540462493896,16.9543647766113,16.9546871185303,16.9550075531006,16.9553260803223,16.9556484222412,16.9559650421143,16.9562854766846,16.9566078186035,16.9569282531738,16.9572486877441,16.9575672149658,16.9578838348389,16.9582042694092,16.9585285186768,16.9588470458984,16.9591674804688,16.9594917297363,16.959810256958,16.960132598877,16.9604530334473,16.960765838623,16.961088180542,16.9614067077637,16.9617290496826,16.9620513916016,16.9623680114746,16.9626903533936,16.9630146026611,16.9633312225342,16.9636535644531,16.9639739990234,16.9642944335938,16.9646148681641,16.9649353027344,16.9652557373047,16.965576171875,16.9658966064453,16.9662170410156,16.9665374755859,16.9668579101562,16.9671783447266,16.9674987792969,16.9678211212158,16.9681415557861,16.9684619903564,16.9687824249268,16.9691028594971,16.9694232940674,16.9697437286377,16.970064163208,16.9703845977783,16.9707050323486,16.9710254669189,16.9713459014893,16.9716663360596,16.9719886779785,16.9723072052002,16.9726276397705,16.9729499816895,16.9732704162598,16.9735908508301,16.9739112854004,16.9742336273193,16.974552154541,16.97487449646,16.9751949310303,16.9755153656006,16.9758377075195,16.9761562347412,16.9764785766602,16.9767990112305,16.9771213531494,16.9774417877197,16.97776222229,16.9780826568604,16.9784030914307,16.978723526001,16.9790458679199,16.9793663024902,16.9796886444092,16.9800071716309,16.9803295135498,16.9806499481201,16.9809703826904,16.9812927246094,16.9816131591797,16.9819355010986,16.9822559356689,16.9825782775879,16.9828987121582,16.9832191467285,16.9835414886475,16.9838619232178,16.9841823577881,16.984504699707,16.9848251342773,16.9851474761963,16.985466003418,16.9857883453369,16.9861106872559,16.9864311218262,16.9867534637451,16.9870738983154,16.9873943328857,16.9877166748047,16.988037109375,16.9883594512939,16.9886798858643,16.9890022277832,16.9893226623535,16.9896450042725,16.9899654388428,16.9902858734131,16.990608215332,16.990930557251,16.9912509918213,16.9915733337402,16.9918937683105,16.9922142028809,16.9925365447998,16.9928588867188,16.9931793212891,16.993501663208,16.993824005127,16.9941444396973,16.9944667816162,16.9947872161865,16.9951095581055,16.9954299926758,16.9957523345947,16.9960746765137,16.996395111084,16.9967174530029,16.9970397949219,16.9973602294922,16.9976825714111,16.9980049133301,16.9983253479004,16.9986476898193,16.9989681243896,16.9992923736572,16.9996128082275,16.9999351501465,17.0002555847168,17.0005779266357,17.0009002685547,17.0012226104736,17.0015449523926,17.0018653869629,17.0021858215332,17.0025081634521,17.0028285980225,17.00315284729,17.0034732818604,17.0037956237793,17.0041179656982,17.0044403076172,17.0047626495361,17.0050830841064,17.0054054260254,17.0057258605957,17.0060501098633,17.0063705444336,17.0066928863525,17.0070152282715,17.0073356628418,17.0076560974121,17.0079784393311,17.0082988739014,17.0086212158203,17.0089435577393,17.0092658996582,17.0095863342285,17.0099067687988,17.0102291107178,17.0105495452881,17.010871887207,17.011194229126,17.0115146636963,17.0118350982666,17.0121574401855,17.0124797821045,17.0128002166748,17.0131225585938,17.0134429931641,17.013765335083,17.0140857696533,17.0144081115723,17.0147304534912,17.0150508880615,17.0153732299805,17.0156955718994,17.0160160064697,17.0163383483887,17.016658782959,17.0169830322266,17.0173034667969,17.0176258087158,17.0179462432861,17.0182685852051,17.018590927124,17.0189113616943,17.0192356109619,17.0195560455322,17.0198764801025,17.0201988220215,17.0205211639404,17.0208435058594,17.0211639404297,17.0214862823486,17.0218086242676,17.0221309661865,17.0224514007568,17.0227756500244,17.0230960845947,17.0234184265137,17.0237407684326,17.0240631103516,17.0243835449219,17.0247058868408,17.0250282287598,17.0253505706787,17.0256729125977,17.025993347168,17.0263156890869,17.0266380310059,17.0269622802734,17.0272827148438,17.0276050567627,17.0279273986816,17.028247833252,17.0285720825195,17.0288925170898,17.0292148590088,17.0295372009277,17.0298614501953,17.0301818847656,17.0305042266846,17.0308265686035,17.0311489105225,17.0314712524414,17.0317935943604,17.0321159362793,17.0324382781982,17.0327606201172,17.0330829620361,17.0334053039551,17.033727645874,17.034049987793,17.0343723297119,17.0346946716309,17.0350170135498,17.0353393554688,17.0356616973877,17.0359840393066,17.0363063812256,17.0366287231445,17.0369510650635,17.0372753143311,17.0375957489014,17.0379180908203,17.0382404327393,17.0385627746582,17.0388870239258,17.0392093658447,17.0395317077637,17.0398540496826,17.0401763916016,17.0404987335205,17.0408210754395,17.0411434173584,17.0414657592773,17.0417900085449,17.0421123504639,17.0424365997314,17.0427570343018,17.0430793762207,17.0434036254883,17.0437259674072,17.0440502166748,17.0443725585938,17.0446929931641,17.0450172424316,17.0453414916992,17.0456619262695,17.0459842681885,17.0463085174561,17.046630859375,17.0469532012939,17.0472774505615,17.0475997924805,17.0479221343994,17.0482444763184,17.0485687255859,17.0488891601562,17.0492134094238,17.0495376586914,17.0498600006104,17.0501823425293,17.0505065917969,17.0508289337158,17.0511512756348,17.0514755249023,17.0517978668213,17.0521202087402
