15.8301687240601,15.8302850723267,15.8304033279419,15.8305187225342,15.8306369781494,15.8307523727417,15.8308696746826,15.8309869766235,15.8311023712158,15.8312196731567,15.8313369750977,15.8314542770386,15.8315696716309,15.8316869735718,15.8318033218384,15.8319215774536,15.8320379257202,15.8321542739868,15.8322715759277,15.8323879241943,15.8325061798096,15.8326215744019,15.8327398300171,15.8328561782837,15.8329725265503,15.8330888748169,15.8332052230835,15.8333234786987,15.8334398269653,15.8335571289062,15.8336734771729,15.8337898254395,15.8339071273804,15.8340244293213,15.8341407775879,15.8342571258545,15.8343753814697,15.834490776062,15.8346080780029,15.8347253799438,15.8348417282104,15.8349590301514,15.8350772857666,15.8351926803589,15.8353109359741,15.8354263305664,15.835542678833,15.8356599807739,15.8357763290405,15.8358945846558,15.836009979248,15.8361282348633,15.8362445831299,15.8363618850708,15.8364782333374,15.8365955352783,15.8367118835449,15.8368282318115,15.8369455337524,15.8370628356934,15.8371801376343,15.8372964859009,15.8374147415161,15.8375301361084,15.8376474380493,15.8377637863159,15.8378810882568,15.8379983901978,15.8381147384644,15.8382329940796,15.8383493423462,15.8384656906128,15.8385829925537,15.838698387146,15.8388175964355,15.8389329910278,15.8390502929688,15.8391666412354,15.8392848968506,15.8394002914429,15.8395185470581,15.8396348953247,15.8397512435913,15.8398685455322,15.8399848937988,15.8401021957397,15.8402194976807,15.8403348922729,15.8404521942139,15.8405675888062,15.8406858444214,15.840802192688,15.8409185409546,15.8410358428955,15.8411521911621,15.8412685394287,15.8413848876953,15.8415012359619,15.8416185379028,15.8417348861694,15.841851234436,15.8419694900513,15.8420848846436,15.8422021865845,15.8423175811768,15.842435836792,15.8425521850586,15.8426685333252,15.8427858352661,15.8429012298584,15.8430194854736,15.8431358337402,15.8432521820068,15.8433694839478,15.84348487854,15.843602180481,15.8437194824219,15.8438358306885,15.8439521789551,15.8440685272217,15.8441858291626,15.8443021774292,15.8444185256958,15.8445358276367,15.8446521759033,15.8447694778442,15.8448867797852,15.8450021743774,15.8451194763184,15.8452348709106,15.8453531265259,15.8454694747925,15.8455858230591,15.845703125,15.8458194732666,15.8459367752075,15.8460531234741,15.8461694717407,15.8462858200073,15.8464031219482,15.8465194702148,15.8466377258301,15.8467531204224,15.8468704223633,15.8469877243042,15.8471040725708,15.8472213745117,15.847336769104,15.8474550247192,15.8475704193115,15.8476877212524,15.847804069519,15.8479194641113,15.8480386734009,15.8481540679932,15.8482713699341,15.848388671875,15.8485050201416,15.8486223220825,15.8487377166748,15.8488550186157,15.8489723205566,15.8490886688232,15.8492050170898,15.8493213653564,15.8494386672974,15.8495569229126,15.8496732711792,15.8497896194458,15.8499059677124,15.8500232696533,15.8501405715942,15.8502559661865,15.8503742218018,15.850489616394,15.8506078720093,15.8507251739502,15.8508405685425,15.8509578704834,15.8510732650757,15.8511915206909,15.8513078689575,15.8514242172241,15.851541519165,15.8516578674316,15.8517751693726,15.8518924713135,15.8520088195801,15.852126121521,15.8522424697876,15.8523588180542,15.8524770736694,15.8525924682617,15.852710723877,15.8528261184692,15.8529434204102,15.8530607223511,15.8531770706177,15.8532943725586,15.8534097671509,15.8535280227661,15.8536443710327,15.8537607192993,15.8538789749146,15.8539943695068,15.8541116714478,15.8542289733887,15.8543462753296,15.8544626235962,15.8545789718628,15.8546962738037,15.8548135757446,15.8549299240112,15.8550472259521,15.8551626205444,15.8552808761597,15.8553981781006,15.8555145263672,15.8556308746338,15.855749130249,15.8558645248413,15.8559818267822,15.8560981750488,15.8562154769897,15.856333732605,15.8564500808716,15.8565664291382,15.8566827774048,15.85680103302,15.8569173812866,15.8570337295532,15.8571510314941,15.8572673797607,15.8573846817017,15.8575019836426,15.8576183319092,15.8577356338501,15.8578519821167,15.8579692840576,15.8580865859985,15.8582029342651,15.8583202362061,15.8584356307983,15.8585548400879,15.8586711883545,15.8587875366211,15.858904838562,15.8590211868286,15.8591384887695,15.8592557907104,15.8593721389771,15.8594884872437,15.8596057891846,15.8597240447998,15.8598403930664,15.859956741333,15.8600730895996,15.8601903915405,15.8603086471558,15.8604249954224,15.860541343689,15.8606595993042,15.8607749938965,15.8608922958374,15.8610105514526,15.8611259460449,15.8612432479858,15.8613595962524,15.8614768981934,15.8615942001343,15.8617105484009,15.8618288040161,15.8619441986084,15.8620624542236,15.8621788024902,15.8622961044312,15.8624134063721,15.8625297546387,15.8626470565796,15.8627643585205,15.8628807067871,15.862998008728,15.8631143569946,15.8632316589355,15.8633499145508,15.8634662628174,15.8635835647583,15.8636999130249,15.8638162612915,15.8639345169067,15.8640508651733,15.8641681671143,15.8642845153809,15.8644027709961,15.864520072937,15.8646354675293,15.8647527694702,15.8648691177368,15.8649873733521,15.865104675293,15.8652210235596,15.8653373718262,15.8654546737671,15.865571975708,15.8656902313232,15.8658065795898,15.8659229278564,15.8660402297974,15.8661575317383,15.8662748336792,15.8663902282715,15.8665084838867,15.8666248321533,15.8667421340942,15.8668594360352,15.8669757843018,15.867094039917,15.8672103881836,15.8673276901245,15.8674449920654,15.867561340332,15.8676786422729,15.8677949905396,15.8679122924805,15.8680305480957,15.8681468963623,15.8682641983032,15.8683805465698,15.8684978485107,15.8686151504517,15.8687324523926,15.8688497543335,15.8689651489258,15.8690824508667,15.8692016601562,15.8693180084229,15.8694343566895,15.8695516586304,15.8696689605713,15.8697872161865,15.8699035644531,15.870020866394,15.8701372146606,15.8702554702759,15.8703727722168,15.8704881668091,15.8706064224243,15.8707218170166,15.8708400726318,15.8709583282471,15.8710746765137,15.8711910247803,15.8713092803955,15.8714256286621,15.871542930603,15.8716592788696,15.8717765808105,15.8718948364258,15.8720111846924,15.8721284866333,15.8722448348999,15.8723630905151,15.8724803924561,15.8725967407227,15.8727140426636,15.8728303909302,15.8729496002197,15.8730659484863,15.8731822967529,15.8733005523682,15.8734169006348,15.8735342025757,15.8736515045166,15.8737678527832,15.8738851547241,15.8740015029907,15.8741188049316,15.8742370605469,15.8743534088135,15.8744707107544,15.8745880126953,15.8747053146362,15.8748226165771,15.8749389648438
15.6994819641113,15.6995973587036,15.6997117996216,15.6998262405396,15.6999416351318,15.7000560760498,15.7001724243164,15.7002859115601,15.7004022598267,15.7005157470703,15.7006301879883,15.7007455825806,15.7008609771729,15.7009754180908,15.7010898590088,15.7012062072754,15.7013206481934,15.7014360427856,15.7015495300293,15.7016658782959,15.7017803192139,15.7018947601318,15.7020111083984,15.7021245956421,15.7022399902344,15.7023544311523,15.7024698257446,15.7025842666626,15.7026996612549,15.7028150558472,15.7029285430908,15.7030439376831,15.7031593322754,15.7032737731934,15.7033882141113,15.7035055160522,15.7036190032959,15.7037343978882,15.7038478851318,15.7039632797241,15.7040796279907,15.7041931152344,15.7043085098267,15.7044219970703,15.7045383453369,15.7046537399292,15.7047691345215,15.7048835754395,15.7049980163574,15.7051134109497,15.7052268981934,15.70534324646,15.7054586410522,15.7055740356445,15.7056884765625,15.7058038711548,15.7059173583984,15.7060317993164,15.706148147583,15.7062616348267,15.7063779830933,15.7064933776855,15.7066087722778,15.7067222595215,15.7068376541138,15.7069520950317,15.7070665359497,15.7071828842163,15.7072973251343,15.7074127197266,15.7075271606445,15.7076435089111,15.7077569961548,15.7078733444214,15.7079877853394,15.708104133606,15.7082176208496,15.7083320617676,15.7084474563599,15.7085618972778,15.7086782455444,15.7087926864624,15.7089080810547,15.7090225219727,15.7091388702393,15.7092523574829,15.7093677520752,15.7094831466675,15.7095966339111,15.7097120285034,15.7098255157471,15.7099409103394,15.710057258606,15.7101707458496,15.7102851867676,15.7103996276855,15.7105150222778,15.7106304168701,15.7107439041138,15.7108592987061,15.7109727859497,15.7110891342163,15.7112035751343,15.7113180160522,15.7114324569702,15.7115478515625,15.7116622924805,15.7117776870728,15.7118911743164,15.7120065689087,15.7121210098267,15.7122364044189,15.7123517990112,15.7124652862549,15.7125816345215,15.7126951217651,15.7128105163574,15.7129259109497,15.713038444519,15.7131547927856,15.7132692337036,15.7133846282959,15.7134990692139,15.7136135101318,15.7137289047241,15.7138433456421,15.7139577865601,15.7140731811523,15.7141876220703,15.7143030166626,15.7144184112549,15.7145318984985,15.7146472930908,15.7147617340088,15.7148761749268,15.7149925231934,15.715106010437,15.7152214050293,15.7153358459473,15.7154512405396,15.7155666351318,15.7156801223755,15.7157955169678,15.7159099578857,15.7160243988037,15.716139793396,15.716254234314,15.7163696289062,15.7164840698242,15.7165985107422,15.7167139053345,15.7168283462524,15.7169437408447,15.7170581817627,15.7171726226807,15.7172889709473,15.7174034118652,15.7175178527832,15.7176322937012,15.7177476882935,15.7178630828857,15.7179765701294,15.7180919647217,15.7182064056396,15.7183227539062,15.7184371948242,15.7185516357422,15.7186660766602,15.7187805175781,15.7188959121704,15.7190113067627,15.7191257476807,15.7192401885986,15.7193546295166,15.7194709777832,15.7195854187012,15.7196998596191,15.7198152542114,15.7199296951294,15.7200450897217,15.7201595306396,15.7202739715576,15.7203903198242,15.7205038070679,15.7206192016602,15.7207345962524,15.7208490371704,15.7209644317627,15.7210788726807,15.7211933135986,15.7213087081909,15.7214231491089,15.7215385437012,15.7216520309448,15.7217674255371,15.7218837738037,15.7219982147217,15.722113609314,15.7222270965576,15.7223424911499,15.7224578857422,15.7225732803345,15.7226877212524,15.7228021621704,15.7229166030884,15.723032951355,15.7231464385986,15.7232627868652,15.7233772277832,15.7234926223755,15.7236080169678,15.7237215042114,15.7238368988037,15.7239513397217,15.7240676879883,15.7241821289062,15.7242965698242,15.7244119644165,15.7245254516602,15.7246408462524,15.724757194519,15.7248706817627,15.724986076355,15.7251014709473,15.7252168655396,15.7253322601318,15.7254457473755,15.7255611419678,15.7256765365601,15.725790977478,15.7259063720703,15.7260208129883,15.7261362075806,15.7262506484985,15.7263660430908,15.7264814376831,15.7265958786011,15.7267122268677,15.7268257141113,15.7269401550293,15.7270555496216,15.7271699905396,15.7272863388062,15.7274007797241,15.7275152206421,15.7276315689087,15.7277460098267,15.7278614044189,15.7279758453369,15.7280902862549,15.7282066345215,15.7283210754395,15.7284364700317,15.7285499572754,15.7286653518677,15.7287826538086,15.7288961410522,15.7290115356445,15.7291259765625,15.7292404174805,15.7293567657471,15.729471206665,15.7295866012573,15.7297019958496,15.7298164367676,15.7299318313599,15.7300462722778,15.7301607131958,15.7302770614624,15.7303915023804,15.7305068969727,15.7306213378906,15.7307367324829,15.7308521270752,15.7309665679932,15.7310819625854,15.7311964035034,15.7313117980957,15.731427192688,15.731541633606,15.7316570281982,15.7317714691162,15.7318878173828,15.7320022583008,15.7321176528931,15.732232093811,15.732346534729,15.7324628829956,15.7325782775879,15.7326927185059,15.7328071594238,15.7329225540161,15.7330379486084,15.7331533432007,15.7332677841187,15.7333831787109,15.7334976196289,15.7336130142212,15.7337284088135,15.7338428497314,15.7339582443237,15.734073638916,15.734188079834,15.7343044281006,15.7344179153442,15.7345352172852,15.7346487045288,15.7347640991211,15.7348794937134,15.7349939346313,15.7351102828979,15.7352237701416,15.7353391647339,15.7354555130005,15.7355699539185,15.7356853485107,15.7357997894287,15.735915184021,15.7360305786133,15.7361450195312,15.7362613677979,15.7363748550415,15.7364912033081,15.7366075515747,15.7367210388184,15.7368364334106,15.7369508743286,15.7370662689209,15.7371826171875,15.7372970581055,15.7374124526978,15.7375259399414,15.737642288208,15.7377586364746,15.7378721237183,15.7379884719849,15.7381019592285,15.7382183074951,15.7383337020874,15.7384471893311,15.7385625839233,15.7386779785156,15.7387943267822,15.7389097213745,15.7390241622925,15.7391395568848,15.7392539978027,15.739369392395,15.7394847869873,15.7395992279053,15.7397146224976,15.7398300170898,15.7399444580078,15.7400608062744,15.7401742935181,15.740291595459,15.7404050827026,15.7405204772949,15.7406368255615,15.7407503128052,15.7408666610718,15.7409820556641,15.7410974502563,15.7412118911743,15.7413282394409,15.7414436340332,15.7415580749512,15.7416734695435,15.7417888641357,15.741904258728,15.7420196533203,15.7421340942383,15.7422494888306,15.7423648834229,15.7424793243408,15.7425947189331,15.7427091598511,15.7428245544434,15.7429418563843,15.7430553436279,15.7431707382202,15.7432851791382,15.7434015274048,15.7435169219971
15.5709352493286,15.5710496902466,15.5711622238159,15.5712757110596,15.5713872909546,15.5715007781982,15.5716142654419,15.5717267990112,15.5718402862549,15.5719528198242,15.5720663070679,15.5721778869629,15.5722923278809,15.5724048614502,15.5725173950195,15.5726318359375,15.5727434158325,15.5728578567505,15.5729694366455,15.5730829238892,15.5731964111328,15.5733098983765,15.5734224319458,15.5735349655151,15.5736484527588,15.5737600326538,15.5738744735718,15.5739870071411,15.5741014480591,15.5742139816284,15.5743265151978,15.5744400024414,15.5745515823364,15.5746660232544,15.5747785568237,15.5748920440674,15.575005531311,15.5751180648804,15.575231552124,15.5753450393677,15.575457572937,15.575569152832,15.57568359375,15.5757961273193,15.575909614563,15.5760231018066,15.576135635376,15.5762491226196,15.5763626098633,15.5764741897583,15.5765867233276,15.5767011642456,15.5768136978149,15.5769281387329,15.5770397186279,15.5771541595459,15.5772657394409,15.5773801803589,15.5774927139282,15.5776071548462,15.5777196884155,15.5778322219849,15.5779447555542,15.5780572891235,15.5781717300415,15.5782842636108,15.5783987045288,15.5785112380981,15.5786247253418,15.5787372589111,15.5788497924805,15.5789632797241,15.5790758132935,15.5791902542114,15.5793027877808,15.5794162750244,15.5795288085938,15.5796422958374,15.5797557830811,15.5798673629761,15.5799808502197,15.5800943374634,15.580207824707,15.5803203582764,15.58043384552,15.5805463790894,15.5806608200073,15.5807733535767,15.5808849334717,15.5809993743896,15.581111907959,15.581226348877,15.581337928772,15.5814514160156,15.5815629959106,15.5816764831543,15.5817899703979,15.581901550293,15.5820159912109,15.5821285247803,15.5822410583496,15.5823545455933,15.5824670791626,15.5825805664062,15.5826921463013,15.5828056335449,15.5829191207886,15.5830316543579,15.5831451416016,15.5832567214966,15.5833702087402,15.5834836959839,15.5835952758789,15.5837097167969,15.5838212966919,15.5839347839355,15.5840473175049,15.5841598510742,15.5842733383179,15.5843858718872,15.5844993591309,15.5846118927002,15.5847253799438,15.5848379135132,15.5849504470825,15.5850629806519,15.5851774215698,15.5852899551392,15.5854024887085,15.5855140686035,15.5856285095215,15.5857419967651,15.5858535766602,15.5859670639038,15.5860795974731,15.5861930847168,15.5863065719604,15.5864181518555,15.5865325927734,15.5866441726685,15.5867586135864,15.5868711471558,15.5869836807251,15.5870971679688,15.5872087478638,15.5873222351074,15.5874357223511,15.5875473022461,15.5876607894897,15.5877742767334,15.5878877639771,15.5880002975464,15.5881128311157,15.5882253646851,15.5883388519287,15.5884523391724,15.5885648727417,15.588677406311,15.588791847229,15.588903427124,15.5890169143677,15.5891304016113,15.5892419815063,15.5893564224243,15.589469909668,15.589581489563,15.5896940231323,15.5898084640503,15.5899209976196,15.5900344848633,15.5901470184326,15.590259552002,15.5903730392456,15.5904855728149,15.5905990600586,15.5907115936279,15.5908260345459,15.5909376144409,15.5910511016846,15.5911645889282,15.5912771224976,15.5913906097412,15.5915021896362,15.5916156768799,15.5917301177979,15.5918416976929,15.5919551849365,15.5920686721802,15.5921812057495,15.5922937393188,15.5924072265625,15.5925207138062,15.5926322937012,15.5927457809448,15.5928583145142,15.5929727554321,15.5930862426758,15.5931978225708,15.5933113098145,15.5934257507324,15.5935373306274,15.5936508178711,15.5937633514404,15.5938768386841,15.5939903259277,15.5941019058228,15.5942163467407,15.5943288803101,15.5944423675537,15.594554901123,15.5946674346924,15.594780921936,15.5948925018311,15.595006942749,15.595121383667,15.595232963562,15.5953464508057,15.595458984375,15.5955724716187,15.5956859588623,15.5957984924316,15.595911026001,15.5960245132446,15.5961380004883,15.5962514877319,15.5963640213013,15.5964775085449,15.5965900421143,15.5967035293579,15.5968170166016,15.5969285964966,15.5970430374146,15.5971555709839,15.5972690582275,15.5973825454712,15.5974950790405,15.5976085662842,15.5977210998535,15.5978336334229,15.5979480743408,15.5980606079102,15.5981740951538,15.5982866287231,15.5984001159668,15.5985136032104,15.5986251831055,15.5987396240234,15.5988521575928,15.5989646911621,15.5990791320801,15.5991916656494,15.5993051528931,15.5994167327881,15.5995302200317,15.599645614624,15.599757194519,15.5998706817627,15.5999822616577,15.6000967025757,15.6002101898193,15.6003227233887,15.6004362106323,15.6005487442017,15.6006631851196,15.6007766723633,15.6008882522583,15.601001739502,15.6011142730713,15.6012287139893,15.6013422012329,15.6014547348022,15.6015672683716,15.6016807556152,15.6017932891846,15.6019086837769,15.6020202636719,15.6021337509155,15.6022462844849,15.6023597717285,15.6024732589722,15.6025848388672,15.6026992797852,15.6028127670288,15.6029262542725,15.6030397415161,15.6031513214111,15.6032657623291,15.6033782958984,15.6034917831421,15.6036043167114,15.6037187576294,15.603832244873,15.6039438247681,15.6040573120117,15.6041717529297,15.6042833328247,15.6043968200684,15.6045093536377,15.6046228408813,15.6047372817993,15.6048498153687,15.6049633026123,15.6050777435303,15.6051902770996,15.6053037643433,15.6054162979126,15.6055288314819,15.6056432723999,15.6057558059692,15.6058692932129,15.6059818267822,15.6060953140259,15.6062088012695,15.6063222885132,15.6064357757568,15.6065483093262,15.6066617965698,15.6067762374878,15.6068887710571,15.6070013046265,15.6071138381958,15.6072273254395,15.6073417663574,15.6074542999268,15.6075677871704,15.6076803207397,15.6077938079834,15.6079082489014,15.6080207824707,15.60813331604,15.6082458496094,15.6083602905273,15.608473777771,15.6085863113403,15.608699798584,15.6088132858276,15.6089277267456,15.6090412139893,15.6091527938843,15.6092672348022,15.6093797683716,15.6094932556152,15.6096067428589,15.6097192764282,15.6098337173462,15.6099462509155,15.6100597381592,15.6101732254028,15.6102857589722,15.6104001998901,15.6105127334595,15.6106262207031,15.6107397079468,15.6108522415161,15.6109666824341,15.6110792160034,15.6111927032471,15.6113061904907,15.6114196777344,15.611533164978,15.611644744873,15.611759185791,15.6118726730347,15.611985206604,15.612099647522,15.6122121810913,15.612325668335,15.6124401092529,15.6125516891479,15.6126651763916,15.6127777099609,15.6128921508789,15.6130065917969,15.6131181716919,15.6132326126099,15.6133441925049,15.6134586334229,15.6135721206665,15.6136846542358,15.6137990951538,15.6139116287231,15.6140251159668,15.6141395568848,15.6142520904541
15.4444770812988,15.4445886611938,15.4446992874146,15.4448118209839,15.4449214935303,15.4450330734253,15.4451446533203,15.445255279541,15.445366859436,15.4454774856567,15.4455890655518,15.4456996917725,15.4458112716675,15.4459228515625,15.4460344314575,15.4461460113525,15.4462556838989,15.4463672637939,15.4464778900146,15.446590423584,15.4467010498047,15.4468126296997,15.4469232559204,15.4470348358154,15.4471454620361,15.4472560882568,15.4473686218262,15.4474792480469,15.4475908279419,15.4477024078369,15.4478130340576,15.4479246139526,15.4480361938477,15.4481468200684,15.4482583999634,15.4483699798584,15.4484796524048,15.4485921859741,15.4487028121948,15.4488143920898,15.4489250183105,15.4490375518799,15.4491491317749,15.4492597579956,15.4493713378906,15.449481010437,15.4495935440063,15.4497041702271,15.4498167037964,15.4499263763428,15.4500379562378,15.4501485824585,15.4502611160278,15.4503717422485,15.4504823684692,15.4505949020386,15.450704574585,15.4508171081543,15.450927734375,15.4510402679443,15.451150894165,15.4512624740601,15.4513731002808,15.4514837265015,15.4515962600708,15.4517068862915,15.4518194198608,15.4519290924072,15.4520406723022,15.4521512985229,15.4522638320923,15.452374458313,15.4524850845337,15.452597618103,15.452709197998,15.4528198242188,15.4529304504395,15.4530429840088,15.4531536102295,15.4532651901245,15.4533767700195,15.4534864425659,15.4535989761353,15.4537105560303,15.4538221359253,15.453932762146,15.4540452957153,15.454155921936,15.4542665481567,15.4543781280518,15.4544887542725,15.4546012878418,15.4547119140625,15.4548234939575,15.4549341201782,15.4550466537476,15.4551563262939,15.4552688598633,15.4553785324097,15.4554901123047,15.4556016921997,15.4557113647461,15.4558238983154,15.4559335708618,15.4560451507568,15.4561567306519,15.4562664031982,15.4563789367676,15.4564895629883,15.456600189209,15.456711769104,15.456823348999,15.4569339752197,15.4570446014404,15.4571561813354,15.4572668075562,15.4573783874512,15.4574899673462,15.4575996398926,15.4577102661133,15.4578227996826,15.4579334259033,15.4580450057983,15.4581546783447,15.4582662582397,15.4583787918091,15.4584884643555,15.4586009979248,15.4587097167969,15.4588222503662,15.4589338302612,15.4590444564819,15.4591550827026,15.4592666625977,15.4593782424927,15.4594898223877,15.4595994949341,15.4597110748291,15.4598217010498,15.4599332809448,15.4600439071655,15.4601554870605,15.4602661132812,15.460376739502,15.4604892730713,15.460599899292,15.4607105255127,15.4608221054077,15.4609336853027,15.4610443115234,15.4611558914185,15.4612655639648,15.4613780975342,15.4614877700806,15.4616003036499,15.4617118835449,15.4618225097656,15.4619340896606,15.4620447158813,15.4621553421021,15.4622669219971,15.4623785018921,15.4624900817871,15.4625997543335,15.4627113342285,15.4628229141235,15.4629335403442,15.4630451202393,15.46315574646,15.463267326355,15.46337890625,15.4634885787964,15.4636011123657,15.4637107849121,15.4638223648071,15.4639348983765,15.4640445709229,15.4641571044922,15.4642677307129,15.4643793106079,15.4644908905029,15.4646015167236,15.4647130966187,15.464822769165,15.4649353027344,15.4650459289551,15.4651575088501,15.4652690887451,15.4653797149658,15.4654903411865,15.4656019210815,15.4657125473022,15.4658241271973,15.465934753418,15.466046333313,15.466157913208,15.466269493103,15.466381072998,15.4664916992188,15.4666023254395,15.4667139053345,15.4668235778809,15.4669370651245,15.4670476913452,15.4671583175659,15.4672708511353,15.467381477356,15.467493057251,15.4676055908203,15.4677152633667,15.4678268432617,15.4679374694824,15.4680480957031,15.4681606292725,15.4682712554932,15.4683828353882,15.4684934616089,15.4686050415039,15.4687166213989,15.4688272476196,15.4689388275146,15.4690494537354,15.4691610336304,15.4692735671997,15.4693832397461,15.4694957733154,15.4696054458618,15.4697170257568,15.4698295593262,15.4699401855469,15.4700517654419,15.4701623916626,15.4702739715576,15.4703855514526,15.4704961776733,15.4706077575684,15.4707193374634,15.4708299636841,15.4709424972534,15.4710531234741,15.4711647033691,15.4712743759155,15.4713859558105,15.4714984893799,15.4716091156006,15.4717206954956,15.4718313217163,15.4719429016113,15.4720554351807,15.4721651077271,15.4722776412964,15.4723873138428,15.4724998474121,15.4726114273071,15.4727220535278,15.4728336334229,15.4729442596436,15.4730558395386,15.4731674194336,15.4732789993286,15.4733905792236,15.4735012054443,15.473611831665,15.4737243652344,15.4738340377808,15.4739465713501,15.4740571975708,15.4741697311401,15.4742813110352,15.4743909835815,15.4745035171509,15.4746141433716,15.4747257232666,15.4748373031616,15.4749479293823,15.4750595092773,15.475170135498,15.4752826690674,15.4753942489624,15.4755048751831,15.4756164550781,15.4757270812988,15.4758386611938,15.4759502410889,15.4760608673096,15.4761734008789,15.4762849807739,15.4763956069946,15.476508140564,15.4766187667847,15.4767303466797,15.4768400192261,15.4769525527954,15.4770650863647,15.4771757125854,15.4772872924805,15.4773979187012,15.4775104522705,15.4776220321655,15.4777317047119,15.4778432846069,15.4779539108276,15.478066444397,15.478178024292,15.478289604187,15.4784002304077,15.4785118103027,15.4786233901978,15.4787349700928,15.4788455963135,15.4789571762085,15.4790678024292,15.4791803359985,15.4792928695679,15.4794025421143,15.4795150756836,15.4796257019043,15.4797372817993,15.4798498153687,15.479959487915,15.4800720214844,15.4801816940308,15.4802942276001,15.4804058074951,15.4805173873901,15.4806289672852,15.4807395935059,15.4808511734009,15.4809617996216,15.4810743331909,15.4811859130859,15.4812955856323,15.4814071655273,15.4815196990967,15.4816303253174,15.4817428588867,15.4818525314331,15.4819650650024,15.4820775985718,15.4821882247925,15.4822998046875,15.4824123382568,15.4825220108032,15.4826345443726,15.4827461242676,15.4828577041626,15.4829692840576,15.4830808639526,15.4831914901733,15.483302116394,15.4834146499634,15.4835252761841,15.4836368560791,15.4837493896484,15.4838600158691,15.4839725494385,15.4840841293335,15.4841947555542,15.4843063354492,15.4844169616699,15.4845285415649,15.48464012146,15.4847507476807,15.48486328125,15.484974861145,15.4850873947144,15.4851980209351,15.4853086471558,15.4854211807251,15.4855318069458,15.4856443405151,15.4857549667358,15.4858665466309,15.4859781265259,15.4860897064209,15.4862012863159,15.4863138198853,15.4864234924316,15.486536026001,15.4866456985474,15.4867582321167,15.4868717193604,15.4869823455811,15.4870939254761
15.3200559616089,15.3201665878296,15.3202753067017,15.320384979248,15.3204936981201,15.3206033706665,15.3207120895386,15.3208227157593,15.3209314346313,15.3210401535034,15.3211498260498,15.3212594985962,15.3213691711426,15.321478843689,15.3215885162354,15.3216972351074,15.3218069076538,15.3219156265259,15.3220262527466,15.3221349716187,15.3222436904907,15.3223543167114,15.3224630355835,15.3225736618042,15.3226823806763,15.3227920532227,15.322901725769,15.3230113983154,15.3231201171875,15.3232278823853,15.323338508606,15.3234481811523,15.3235578536987,15.3236675262451,15.3237781524658,15.3238868713379,15.32399559021,15.3241052627563,15.3242139816284,15.3243246078491,15.3244333267212,15.3245429992676,15.3246517181396,15.324761390686,15.3248710632324,15.3249816894531,15.3250904083252,15.3251991271973,15.325309753418,15.3254175186157,15.3255281448364,15.3256368637085,15.3257474899292,15.3258562088013,15.325966835022,15.326075553894,15.3261842727661,15.3262939453125,15.3264036178589,15.3265132904053,15.3266229629517,15.326732635498,15.3268413543701,15.3269510269165,15.3270606994629,15.327169418335,15.3272800445557,15.3273887634277,15.3274984359741,15.3276071548462,15.3277177810669,15.327826499939,15.327938079834,15.3280467987061,15.3281564712524,15.3282651901245,15.3283739089966,15.3284845352173,15.328592300415,15.3287038803101,15.3288135528564,15.3289222717285,15.3290319442749,15.3291425704956,15.3292503356934,15.3293600082397,15.3294706344604,15.3295783996582,15.3296890258789,15.329797744751,15.3299083709717,15.3300170898438,15.3301277160645,15.3302373886108,15.3303451538086,15.3304557800293,15.3305644989014,15.3306741714478,15.3307847976685,15.3308944702148,15.3310031890869,15.331111907959,15.3312206268311,15.3313302993774,15.3314390182495,15.3315486907959,15.3316583633423,15.3317670822144,15.3318767547607,15.3319854736328,15.3320951461792,15.3322048187256,15.3323135375977,15.332423210144,15.3325338363647,15.3326416015625,15.3327512741089,15.332859992981,15.3329706192017,15.3330793380737,15.3331880569458,15.3332977294922,15.3334064483643,15.333517074585,15.333625793457,15.3337345123291,15.3338441848755,15.3339519500732,15.3340635299683,15.3341732025146,15.3342809677124,15.3343906402588,15.3344993591309,15.3346090316772,15.3347187042236,15.3348274230957,15.3349380493164,15.3350458145142,15.3351554870605,15.3352661132812,15.335373878479,15.335485458374,15.3355932235718,15.3357028961182,15.3358125686646,15.3359203338623,15.336030960083,15.3361396789551,15.3362493515015,15.3363590240479,15.3364677429199,15.3365774154663,15.3366851806641,15.3367958068848,15.3369054794312,15.3370141983032,15.3371248245239,15.3372325897217,15.3373422622681,15.3374528884888,15.3375616073608,15.3376712799072,15.337779045105,15.3378896713257,15.3380002975464,15.3381090164185,15.3382177352905,15.3383264541626,15.3384370803833,15.3385467529297,15.3386554718018,15.3387641906738,15.3388729095459,15.3389844894409,15.3390941619873,15.3392019271851,15.3393115997314,15.3394203186035,15.3395299911499,15.3396396636963,15.3397483825684,15.3398580551147,15.3399677276611,15.3400774002075,15.3401861190796,15.340295791626,15.3404054641724,15.3405151367188,15.3406238555908,15.3407344818115,15.3408422470093,15.34095287323,15.3410615921021,15.3411712646484,15.3412809371948,15.3413896560669,15.3414993286133,15.3416090011597,15.3417177200317,15.3418283462524,15.3419370651245,15.3420467376709,15.342155456543,15.3422651290894,15.3423757553101,15.3424835205078,15.3425941467285,15.3427019119263,15.342812538147,15.3429231643677,15.3430309295654,15.3431406021118,15.3432493209839,15.3433589935303,15.343469619751,15.343578338623,15.3436880111694,15.3437967300415,15.3439073562622,15.3440170288086,15.3441257476807,15.3442354202271,15.3443431854248,15.3444547653198,15.3445644378662,15.344672203064,15.3447828292847,15.3448925018311,15.3450012207031,15.3451108932495,15.3452205657959,15.345329284668,15.3454389572144,15.3455486297607,15.3456583023071,15.3457679748535,15.3458776473999,15.345986366272,15.3460960388184,15.3462066650391,15.3463144302368,15.3464260101318,15.3465337753296,15.346643447876,15.3467540740967,15.3468618392944,15.3469724655151,15.3470821380615,15.3471908569336,15.34730052948,15.3474102020264,15.3475198745728,15.3476305007935,15.3477392196655,15.3478479385376,15.347957611084,15.3480682373047,15.3481779098511,15.3482866287231,15.3483972549438,15.3485050201416,15.3486156463623,15.3487253189087,15.3488340377808,15.3489446640015,15.3490524291992,15.3491630554199,15.349271774292,15.3493814468384,15.3494911193848,15.3495998382568,15.3497104644775,15.3498201370239,15.3499298095703,15.3500394821167,15.3501482009888,15.3502578735352,15.3503684997559,15.3504772186279,15.3505878448486,15.3506956100464,15.3508062362671,15.3509159088135,15.3510246276855,15.3511343002319,15.351243019104,15.3513526916504,15.3514633178711,15.3515720367432,15.3516836166382,15.3517913818359,15.3519020080566,15.3520107269287,15.3521203994751,15.3522300720215,15.3523387908936,15.3524484634399,15.3525590896606,15.352668762207,15.3527793884277,15.3528871536255,15.3529977798462,15.3531074523926,15.3532152175903,15.353325843811,15.3534345626831,15.3535442352295,15.3536558151245,15.3537645339966,15.353874206543,15.3539838790894,15.3540925979614,15.3542032241821,15.3543109893799,15.3544216156006,15.3545303344727,15.3546419143677,15.3547515869141,15.3548603057861,15.3549699783325,15.3550786972046,15.355188369751,15.3552989959717,15.3554077148438,15.3555183410645,15.3556280136108,15.3557376861572,15.3558473587036,15.3559560775757,15.3560667037964,15.3561754226685,15.3562850952148,15.3563947677612,15.3565034866333,15.3566150665283,15.3567237854004,15.3568344116211,15.3569431304932,15.3570518493652,15.3571624755859,15.357271194458,15.3573818206787,15.3574914932251,15.3576021194458,15.3577117919922,15.3578205108643,15.3579301834106,15.3580408096313,15.3581485748291,15.3582592010498,15.3583679199219,15.3584775924683,15.3585891723633,15.3586978912354,15.3588075637817,15.3589162826538,15.3590259552002,15.3591365814209,15.359245300293,15.3593549728394,15.3594646453857,15.3595752716064,15.3596858978271,15.3597946166992,15.3599042892456,15.3600130081177,15.3601236343384,15.3602333068848,15.3603420257568,15.3604516983032,15.3605623245239,15.3606729507446,15.360782623291,15.3608903884888,15.3610010147095,15.3611097335815,15.3612203598022,15.3613300323486,15.3614387512207,15.3615484237671,15.3616600036621,15.3617687225342,15.3618793487549,15.361988067627
15.197624206543,15.1977310180664,15.1978397369385,15.1979465484619,15.1980543136597,15.1981620788574,15.1982698440552,15.1983776092529,15.1984853744507,15.1985931396484,15.1986999511719,15.1988086700439,15.1989164352417,15.1990232467651,15.1991319656372,15.1992378234863,15.1993455886841,15.1994543075562,15.1995620727539,15.1996688842773,15.1997776031494,15.1998853683472,15.1999912261963,15.2000999450684,15.2002077102661,15.2003154754639,15.2004232406616,15.2005319595337,15.2006387710571,15.2007465362549,15.2008533477783,15.2009611129761,15.2010698318481,15.2011775970459,15.2012853622437,15.2013912200928,15.2014999389648,15.2016077041626,15.2017164230347,15.2018232345581,15.2019300460815,15.2020397186279,15.2021455764771,15.2022542953491,15.2023620605469,15.2024698257446,15.2025775909424,15.2026853561401,15.2027921676636,15.2028999328613,15.2030086517334,15.2031154632568,15.2032241821289,15.2033309936523,15.2034397125244,15.2035465240479,15.2036552429199,15.2037620544434,15.2038717269897,15.2039785385132,15.2040853500366,15.2041931152344,15.2042999267578,15.2044086456299,15.2045164108276,15.2046251296997,15.2047328948975,15.2048416137695,15.2049474716187,15.2050542831421,15.2051630020142,15.2052707672119,15.205379486084,15.2054862976074,15.2055950164795,15.2057008743286,15.205810546875,15.2059173583984,15.2060251235962,15.2061328887939,15.2062406539917,15.2063493728638,15.2064561843872,15.2065649032593,15.2066717147827,15.2067804336548,15.2068881988525,15.2069940567017,15.2071027755737,15.2072095870972,15.2073183059692,15.2074270248413,15.2075347900391,15.2076425552368,15.2077503204346,15.2078580856323,15.2079648971558,15.2080726623535,15.2081804275513,15.2082891464233,15.2083959579468,15.2085046768188,15.2086114883423,15.2087202072144,15.2088270187378,15.2089347839355,15.209041595459,15.2091493606567,15.2092571258545,15.2093648910522,15.20947265625,15.2095794677734,15.2096872329712,15.2097940444946,15.2099018096924,15.2100105285645,15.2101163864136,15.2102251052856,15.2103319168091,15.2104396820068,15.2105484008789,15.2106552124023,15.2107629776001,15.2108697891235,15.2109775543213,15.211085319519,15.2111930847168,15.2113008499146,15.211407661438,15.2115154266357,15.2116241455078,15.2117309570312,15.211838722229,15.2119455337524,15.2120532989502,15.2121620178223,15.2122688293457,15.2123765945435,15.2124834060669,15.212592124939,15.2126998901367,15.2128067016602,15.2129144668579,15.2130212783813,15.2131299972534,15.2132377624512,15.2133445739746,15.2134523391724,15.2135591506958,15.2136678695679,15.2137746810913,15.2138824462891,15.2139902114868,15.2140989303589,15.214204788208,15.2143125534058,15.2144203186035,15.2145280838013,15.2146368026733,15.2147436141968,15.2148513793945,15.214958190918,15.21506690979,15.2151746749878,15.2152814865112,15.2153902053833,15.2154960632324,15.2156047821045,15.2157125473022,15.2158193588257,15.2159271240234,15.2160348892212,15.2161426544189,15.216251373291,15.2163572311401,15.2164659500122,15.21657371521,15.2166814804077,15.2167901992798,15.2168960571289,15.217004776001,15.2171115875244,15.2172183990479,15.2173271179199,15.2174339294434,15.2175426483154,15.2176494598389,15.2177581787109,15.2178659439087,15.2179727554321,15.2180814743042,15.2181882858276,15.2182950973511,15.2184028625488,15.2185106277466,15.2186193466187,15.2187261581421,15.2188339233398,15.2189426422119,15.2190494537354,15.2191581726074,15.2192649841309,15.2193727493286,15.2194805145264,15.2195882797241,15.2196960449219,15.2198028564453,15.2199106216431,15.2200193405151,15.2201261520386,15.2202339172363,15.2203407287598,15.2204504013062,15.2205581665039,15.2206649780273,15.2207727432251,15.2208805084229,15.2209873199463,15.2210960388184,15.2212038040161,15.2213115692139,15.221417427063,15.2215261459351,15.2216348648071,15.2217416763306,15.2218503952026,15.2219572067261,15.2220659255981,15.2221736907959,15.2222805023193,15.2223882675171,15.2224950790405,15.2226037979126,15.2227125167847,15.2228193283081,15.2229270935059,15.2230339050293,15.2231426239014,15.2232503890991,15.2233581542969,15.2234659194946,15.2235717773438,15.2236814498901,15.2237901687622,15.2238969802856,15.2240047454834,15.2241115570068,15.2242193222046,15.2243280410767,15.2244348526001,15.2245435714722,15.2246513366699,15.2247591018677,15.2248678207397,15.2249736785889,15.2250823974609,15.2251892089844,15.2252969741821,15.2254047393799,15.2255125045776,15.225622177124,15.2257289886475,15.2258367538452,15.225944519043,15.2260513305664,15.2261600494385,15.2262659072876,15.2263746261597,15.2264833450317,15.2265911102295,15.2266988754272,15.2268056869507,15.2269144058228,15.2270231246948,15.2271289825439,15.227237701416,15.2273435592651,15.2274532318115,15.2275619506836,15.227668762207,15.2277774810791,15.2278842926025,15.2279920578003,15.228099822998,15.2282066345215,15.2283153533936,15.228422164917,15.2285308837891,15.2286396026611,15.2287473678589,15.2288541793823,15.2289628982544,15.2290697097778,15.2291784286499,15.2292852401733,15.2293939590454,15.2295036315918,15.2296104431152,15.229718208313,15.2298250198364,15.2299327850342,15.2300405502319,15.2301483154297,15.2302560806274,15.2303638458252,15.2304725646973,15.2305812835693,15.2306880950928,15.2307958602905,15.2309036254883,15.231011390686,15.2311201095581,15.2312259674072,15.2313346862793,15.2314434051514,15.2315511703491,15.2316598892212,15.2317667007446,15.2318744659424,15.2319812774658,15.2320899963379,15.23219871521,15.2323045730591,15.2324142456055,15.2325220108032,15.2326288223267,15.2327375411987,15.2328453063965,15.2329530715942,15.2330598831177,15.2331686019897,15.2332763671875,15.2333850860596,15.2334928512573,15.2336006164551,15.2337083816528,15.2338171005249,15.2339239120483,15.2340316772461,15.2341384887695,15.2342462539673,15.2343549728394,15.2344646453857,15.2345714569092,15.2346792221069,15.2347869873047,15.2348957061768,15.2350025177002,15.2351102828979,15.2352180480957,15.2353258132935,15.2354354858398,15.2355422973633,15.2356510162354,15.2357578277588,15.2358655929565,15.2359743118286,15.2360811233521,15.2361898422241,15.2362966537476,15.2364063262939,15.236515045166,15.2366218566895,15.2367296218872,15.2368364334106,15.2369451522827,15.2370538711548,15.2371606826782,15.2372694015503,15.2373781204224,15.2374858856201,15.2375936508179,15.2377014160156,15.2378091812134,15.2379159927368,15.2380237579346,15.2381324768066,15.2382402420044,15.2383499145508,15.2384567260742,15.238564491272,15.238673210144,15.2387809753418,15.2388887405396
15.0771331787109,15.0772390365601,15.0773458480835,15.077449798584,15.0775575637817,15.0776634216309,15.0777683258057,15.0778751373291,15.0779800415039,15.0780868530273,15.0781917572021,15.0782985687256,15.0784044265747,15.0785112380981,15.0786170959473,15.0787220001221,15.0788278579712,15.0789337158203,15.0790405273438,15.0791463851929,15.0792531967163,15.0793590545654,15.0794639587402,15.0795698165894,15.0796756744385,15.0797824859619,15.079888343811,15.0799951553345,15.080099105835,15.0802068710327,15.0803117752075,15.0804176330566,15.0805234909058,15.0806303024292,15.0807361602783,15.0808410644531,15.0809478759766,15.0810527801514,15.0811605453491,15.0812654495239,15.0813732147217,15.0814771652222,15.0815849304199,15.081690788269,15.0817956924438,15.0819025039673,15.0820083618164,15.0821151733398,15.0822200775146,15.0823268890381,15.0824327468872,15.0825386047363,15.0826444625854,15.0827503204346,15.0828561782837,15.0829610824585,15.0830688476562,15.0831747055054,15.0832805633545,15.0833864212036,15.0834941864014,15.0835981369019,15.083703994751,15.0838108062744,15.0839166641235,15.0840225219727,15.0841283798218,15.0842351913452,15.08434009552,15.0844478607178,15.0845527648926,15.0846586227417,15.0847654342651,15.0848712921143,15.0849781036377,15.0850830078125,15.0851888656616,15.0852947235107,15.0854024887085,15.0855073928833,15.0856122970581,15.0857191085815,15.085825920105,15.0859327316284,15.0860376358032,15.0861444473267,15.0862503051758,15.0863561630249,15.086462020874,15.0865678787231,15.0866746902466,15.0867805480957,15.0868873596191,15.0869922637939,15.0870990753174,15.0872039794922,15.0873117446899,15.0874166488647,15.0875244140625,15.0876293182373,15.0877351760864,15.0878410339355,15.0879468917847,15.0880537033081,15.0881595611572,15.0882663726807,15.0883712768555,15.0884780883789,15.0885829925537,15.0886898040771,15.0887937545776,15.0889015197754,15.0890064239502,15.0891122817993,15.0892190933228,15.0893239974976,15.089430809021,15.0895357131958,15.0896415710449,15.089747428894,15.0898542404175,15.0899600982666,15.0900650024414,15.0901699066162,15.090277671814,15.0903835296631,15.0904893875122,15.090594291687,15.0907001495361,15.0908069610596,15.0909118652344,15.0910186767578,15.0911235809326,15.0912294387817,15.0913362503052,15.0914421081543,15.0915470123291,15.0916528701782,15.0917596817017,15.0918655395508,15.0919704437256,15.092077255249,15.0921821594238,15.0922889709473,15.0923957824707,15.0924997329712,15.0926065444946,15.0927124023438,15.0928182601929,15.0929250717163,15.0930299758911,15.0931367874146,15.0932416915894,15.0933475494385,15.0934543609619,15.0935592651367,15.0936651229858,15.0937700271606,15.0938777923584,15.0939846038818,15.0940895080566,15.0941953659058,15.0943002700806,15.094407081604,15.0945129394531,15.0946178436279,15.0947237014771,15.0948305130005,15.0949363708496,15.095043182373,15.0951480865479,15.0952548980713,15.0953588485718,15.0954656600952,15.0955724716187,15.0956773757935,15.0957851409912,15.095890045166,15.0959959030151,15.0961017608643,15.0962076187134,15.0963134765625,15.0964193344116,15.0965251922607,15.0966310501099,15.0967378616333,15.0968446731567,15.0969495773315,15.0970554351807,15.0971622467041,15.0972671508789,15.097373008728,15.0974779129028,15.0975847244263,15.0976905822754,15.0977973937988,15.0979032516479,15.0980091094971,15.0981149673462,15.0982217788696,15.0983266830444,15.0984325408936,15.098539352417,15.0986442565918,15.0987520217896,15.0988569259644,15.0989627838135,15.0990695953369,15.099175453186,15.0992803573608,15.0993852615356,15.0994930267334,15.0995988845825,15.0997047424316,15.0998125076294,15.0999164581299,15.1000232696533,15.1001300811768,15.1002340316772,15.1003408432007,15.1004467010498,15.1005525588989,15.1006603240967,15.1007652282715,15.1008720397949,15.1009769439697,15.1010828018188,15.1011896133423,15.1012945175171,15.1014003753662,15.1015062332153,15.1016139984131,15.1017198562622,15.101824760437,15.1019315719604,15.1020364761353,15.1021432876587,15.1022491455078,15.1023540496826,15.1024608612061,15.1025676727295,15.1026744842529,15.1027803421021,15.1028852462769,15.1029920578003,15.1030969619751,15.1032037734985,15.1033096313477,15.1034145355225,15.1035223007202,15.1036281585693,15.1037349700928,15.1038408279419,15.1039457321167,15.1040515899658,15.1041574478149,15.1042633056641,15.1043701171875,15.1044769287109,15.1045827865601,15.1046886444092,15.1047945022583,15.1049013137817,15.1050062179565,15.1051120758057,15.1052179336548,15.1053237915039,15.105432510376,15.1055374145508,15.1056442260742,15.105749130249,15.1058549880981,15.1059617996216,15.1060667037964,15.1061735153198,15.1062784194946,15.1063871383667,15.1064920425415,15.1065979003906,15.1067047119141,15.1068096160889,15.1069164276123,15.1070222854614,15.1071281433105,15.1072340011597,15.1073408126831,15.1074476242065,15.1075534820557,15.1076583862305,15.1077651977539,15.1078701019287,15.1079769134521,15.1080827713013,15.1081886291504,15.1082963943481,15.1084022521973,15.1085071563721,15.1086149215698,15.1087207794189,15.1088266372681,15.1089324951172,15.109037399292,15.1091442108154,15.1092510223389,15.1093578338623,15.1094627380371,15.1095695495605,15.1096754074097,15.1097812652588,15.1098880767822,15.109992980957,15.1100988388062,15.1102056503296,15.110312461853,15.1104192733765,15.1105241775513,15.1106309890747,15.1107378005981,15.1108427047729,15.1109485626221,15.1110544204712,15.1111602783203,15.1112680435181,15.1113739013672,15.1114797592163,15.1115856170654,15.1116914749146,15.111798286438,15.1119031906128,15.1120109558105,15.1121168136597,15.1122236251831,15.1123294830322,15.1124353408813,15.1125411987305,15.1126480102539,15.112753868103,15.1128597259521,15.112964630127,15.1130714416504,15.1131801605225,15.1132850646973,15.1133918762207,15.1134967803955,15.1136045455933,15.1137104034424,15.1138153076172,15.1139221191406,15.1140260696411,15.1141347885132,15.1142416000366,15.1143474578857,15.1144533157349,15.114559173584,15.1146650314331,15.1147718429565,15.1148767471313,15.1149835586548,15.1150913238525,15.1151971817017,15.1153030395508,15.1154088973999,15.115514755249,15.1156206130981,15.1157264709473,15.1158332824707,15.1159391403198,15.1160469055176,15.1161527633667,15.1162586212158,15.1163654327393,15.1164712905884,15.1165771484375,15.1166830062866,15.1167888641357,15.1168956756592,15.1170024871826,15.1171092987061,15.1172142028809,15.1173210144043,15.1174268722534,15.1175327301025,15.117639541626,15.1177453994751
14.9585380554199,14.9586410522461,14.9587459564209,14.9588489532471,14.9589548110962,14.9590587615967,14.9591636657715,14.959267616272,14.9593715667725,14.9594745635986,14.9595794677734,14.9596853256226,14.959789276123,14.9598932266235,14.959997177124,14.9601020812988,14.9602060317993,14.9603109359741,14.9604148864746,14.9605188369751,14.9606237411499,14.9607276916504,14.9608316421509,14.9609365463257,14.9610404968262,14.9611444473267,14.9612503051758,14.9613542556763,14.9614562988281,14.9615621566772,14.9616661071777,14.9617710113525,14.961874961853,14.9619798660278,14.9620847702026,14.9621887207031,14.9622926712036,14.9623966217041,14.9625015258789,14.9626054763794,14.9627103805542,14.9628143310547,14.9629192352295,14.9630222320557,14.9631280899048,14.9632320404053,14.9633359909058,14.9634399414062,14.9635438919067,14.9636487960815,14.963752746582,14.9638576507568,14.9639625549316,14.9640674591064,14.9641704559326,14.9642744064331,14.9643802642822,14.9644842147827,14.9645881652832,14.964693069458,14.9647970199585,14.964900970459,14.9650068283081,14.9651098251343,14.9652147293091,14.9653196334839,14.9654235839844,14.9655275344849,14.9656314849854,14.9657363891602,14.965841293335,14.9659471511841,14.9660501480103,14.9661531448364,14.9662590026855,14.9663619995117,14.9664678573608,14.9665718078613,14.9666767120361,14.9667806625366,14.9668855667114,14.9669885635376,14.9670963287354,14.9671983718872,14.9673013687134,14.9674081802368,14.9675102233887,14.9676170349121,14.9677200317383,14.9678249359131,14.9679298400879,14.9680337905884,14.9681386947632,14.9682416915894,14.9683475494385,14.9684505462646,14.9685554504395,14.9686603546143,14.9687652587891,14.9688692092896,14.9689741134644,14.9690780639648,14.9691820144653,14.9692869186401,14.9693908691406,14.9694957733154,14.9696006774902,14.969705581665,14.9698104858398,14.969913482666,14.9700174331665,14.9701223373413,14.9702272415161,14.9703311920166,14.9704341888428,14.9705390930176,14.9706420898438,14.9707469940186,14.9708518981934,14.9709548950195,14.9710607528687,14.9711637496948,14.9712677001953,14.9713735580444,14.9714765548706,14.9715814590454,14.9716844558716,14.9717884063721,14.9718923568726,14.9719982147217,14.9721031188965,14.9722051620483,14.9723110198975,14.9724149703979,14.9725189208984,14.9726219177246,14.9727268218994,14.9728307723999,14.972936630249,14.9730405807495,14.9731454849243,14.9732475280762,14.973352432251,14.9734573364258,14.973560333252,14.9736652374268,14.9737682342529,14.9738740921021,14.9739789962769,14.974081993103,14.9741878509521,14.974289894104,14.9743947982788,14.9744987487793,14.9746026992798,14.9747076034546,14.9748125076294,14.9749164581299,14.9750213623047,14.9751243591309,14.9752292633057,14.9753322601318,14.9754371643066,14.9755420684814,14.9756450653076,14.9757499694824,14.9758539199829,14.9759588241577,14.9760637283325,14.9761667251587,14.9762716293335,14.9763746261597,14.9764795303345,14.976583480835,14.9766874313354,14.9767932891846,14.9768972396851,14.9770011901855,14.9771060943604,14.9772090911865,14.9773149490356,14.9774169921875,14.9775218963623,14.9776268005371,14.9777317047119,14.9778366088867,14.9779386520386,14.9780445098877,14.9781494140625,14.9782524108887,14.9783573150635,14.9784603118896,14.9785652160645,14.9786710739136,14.9787750244141,14.9788789749146,14.978982925415,14.9790868759155,14.979190826416,14.9792947769165,14.9793996810913,14.9795036315918,14.9796094894409,14.9797134399414,14.9798173904419,14.9799213409424,14.9800262451172,14.9801301956177,14.9802350997925,14.9803380966187,14.9804430007935,14.9805479049683,14.9806518554688,14.9807577133179,14.980860710144,14.9809656143188,14.981068611145,14.9811735153198,14.9812774658203,14.9813814163208,14.9814882278442,14.9815912246704,14.9816961288452,14.9818000793457,14.9819040298462,14.9820079803467,14.9821128845215,14.982216835022,14.9823217391968,14.9824266433716,14.9825305938721,14.9826335906982,14.9827394485474,14.9828443527222,14.9829473495483,14.9830522537231,14.9831571578979,14.9832601547241,14.9833669662476,14.9834690093994,14.9835748672485,14.9836797714233,14.9837827682495,14.9838876724243,14.9839906692505,14.984094619751,14.9842004776001,14.9843053817749,14.9844102859497,14.9845142364502,14.9846181869507,14.9847230911255,14.9848260879517,14.9849309921265,14.9850339889526,14.9851388931274,14.9852457046509,14.9853487014771,14.9854545593262,14.9855575561523,14.9856615066528,14.985767364502,14.9858703613281,14.9859743118286,14.9860792160034,14.9861850738525,14.986289024353,14.9863939285278,14.9864978790283,14.9866008758545,14.9867057800293,14.9868106842041,14.9869136810303,14.9870185852051,14.9871225357056,14.9872283935547,14.9873332977295,14.98743724823,14.9875411987305,14.987645149231,14.9877500534058,14.9878549575806,14.9879579544067,14.9880628585815,14.9881687164307,14.9882726669312,14.988377571106,14.9884805679321,14.9885864257812,14.9886894226074,14.9887943267822,14.988899230957,14.9890031814575,14.9891090393066,14.9892120361328,14.9893169403076,14.9894218444824,14.9895257949829,14.9896297454834,14.9897336959839,14.9898386001587,14.9899435043335,14.990047454834,14.9901533126831,14.9902563095093,14.9903612136841,14.9904661178589,14.9905700683594,14.9906749725342,14.9907779693604,14.9908828735352,14.9909896850586,14.9910926818848,14.9911975860596,14.9913015365601,14.9914064407349,14.9915103912354,14.9916143417358,14.9917192459106,14.9918231964111,14.9919290542603,14.9920339584351,14.9921369552612,14.992241859436,14.9923467636108,14.9924507141113,14.9925556182861,14.9926586151123,14.9927644729614,14.9928693771362,14.992974281311,14.9930791854858,14.9931831359863,14.9932870864868,14.9933910369873,14.9934959411621,14.9935998916626,14.9937047958374,14.9938106536865,14.9939136505127,14.9940185546875,14.9941234588623,14.9942274093628,14.9943332672119,14.9944362640381,14.9945411682129,14.9946460723877,14.9947509765625,14.9948558807373,14.9949598312378,14.9950647354126,14.9951696395874,14.9952716827393,14.9953784942627,14.9954814910889,14.9955854415894,14.9956922531128,14.9957962036133,14.9958992004395,14.9960050582886,14.9961090087891,14.9962148666382,14.99631690979,14.9964227676392,14.9965267181396,14.9966335296631,14.9967374801636,14.9968404769897,14.9969463348389,14.997049331665,14.9971551895142,14.9972591400146,14.9973640441895,14.9974679946899,14.9975738525391,14.9976787567139,14.9977836608887,14.9978866577148,14.997992515564,14.9980974197388,14.9982004165649,14.9983053207397,14.9984092712402,14.9985132217407
14.8417930603027,14.8418960571289,14.8419971466064,14.8421001434326,14.8422031402588,14.842306137085,14.8424091339111,14.8425121307373,14.8426141738892,14.842716217041,14.8428201675415,14.8429222106934,14.8430252075195,14.8431272506714,14.8432302474976,14.8433322906494,14.8434362411499,14.8435392379761,14.8436403274536,14.8437442779541,14.8438453674316,14.8439493179321,14.844051361084,14.8441543579102,14.8442573547363,14.8443593978882,14.8444633483887,14.8445644378662,14.844669342041,14.8447704315186,14.844874382019,14.8449764251709,14.8450784683228,14.8451824188232,14.8452835083008,14.8453884124756,14.8454895019531,14.8455924987793,14.8456954956055,14.845796585083,14.8459014892578,14.8460025787354,14.8461065292358,14.8462085723877,14.8463115692139,14.84641456604,14.8465175628662,14.8466196060181,14.8467216491699,14.8468255996704,14.8469276428223,14.8470306396484,14.8471326828003,14.8472366333008,14.847339630127,14.8474416732788,14.8475456237793,14.8476476669312,14.847749710083,14.8478527069092,14.8479557037354,14.8480587005615,14.8481607437134,14.8482637405396,14.8483667373657,14.8484687805176,14.8485727310181,14.8486747741699,14.8487768173218,14.8488807678223,14.8489818572998,14.8490858078003,14.8491888046265,14.849292755127,14.8493938446045,14.8494987487793,14.8495998382568,14.8497018814087,14.8498058319092,14.849907875061,14.8500108718872,14.8501129150391,14.8502178192139,14.8503198623657,14.8504219055176,14.8505249023438,14.8506269454956,14.8507308959961,14.8508329391479,14.8509349822998,14.851037979126,14.8511419296265,14.8512449264526,14.8513479232788,14.851450920105,14.8515529632568,14.8516550064087,14.8517580032349,14.851861000061,14.8519639968872,14.8520669937134,14.8521699905396,14.8522720336914,14.8523750305176,14.8524770736694,14.8525810241699,14.8526840209961,14.8527870178223,14.8528881072998,14.8529930114746,14.8530941009521,14.853199005127,14.8533010482788,14.8534049987793,14.8535060882568,14.853609085083,14.8537111282349,14.8538122177124,14.8539161682129,14.8540191650391,14.8541221618652,14.8542242050171,14.8543262481689,14.8544292449951,14.8545322418213,14.8546342849731,14.854736328125,14.8548374176025,14.8549423217773,14.8550462722778,14.8551473617554,14.8552503585815,14.8553524017334,14.8554544448853,14.8555574417114,14.8556594848633,14.8557624816895,14.8558664321899,14.8559684753418,14.856071472168,14.8561735153198,14.8562755584717,14.8563785552979,14.8564805984497,14.8565835952759,14.8566846847534,14.8567895889282,14.8568925857544,14.8569946289062,14.8570976257324,14.85719871521,14.8573017120361,14.8574047088623,14.8575067520142,14.8576097488403,14.8577127456665,14.8578157424927,14.8579187393188,14.8580207824707,14.8581237792969,14.8582258224487,14.8583278656006,14.8584308624268,14.8585329055786,14.8586368560791,14.858738899231,14.8588418960571,14.8589448928833,14.8590459823608,14.8591499328613,14.8592519760132,14.8593549728394,14.8594579696655,14.8595600128174,14.8596630096436,14.8597660064697,14.8598690032959,14.8599720001221,14.8600730895996,14.8601760864258,14.8602771759033,14.8603811264038,14.8604850769043,14.8605871200562,14.8606901168823,14.8607921600342,14.860894203186,14.8609972000122,14.8610992431641,14.8612022399902,14.8613052368164,14.8614091873169,14.8615121841431,14.8616132736206,14.8617162704468,14.8618183135986,14.8619213104248,14.862024307251,14.8621273040771,14.862229347229,14.8623323440552,14.8624353408813,14.8625383377075,14.8626394271851,14.8627433776855,14.8628454208374,14.8629484176636,14.8630514144897,14.8631534576416,14.8632574081421,14.8633594512939,14.8634624481201,14.8635654449463,14.8636674880981,14.86376953125,14.8638725280762,14.8639755249023,14.8640785217285,14.8641815185547,14.8642845153809,14.8643856048584,14.8644895553589,14.8645925521851,14.8646936416626,14.8647966384888,14.8648986816406,14.8650026321411,14.8651065826416,14.8652095794678,14.8653125762939,14.8654136657715,14.8655166625977,14.8656196594238,14.8657217025757,14.8658246994019,14.8659257888794,14.8660287857056,14.8661336898804,14.8662357330322,14.8663387298584,14.8664407730103,14.8665428161621,14.8666467666626,14.8667488098145,14.8668518066406,14.8669538497925,14.8670587539673,14.8671617507935,14.8672637939453,14.8673667907715,14.867467880249,14.8675708770752,14.8676748275757,14.8677759170532,14.8678789138794,14.8679819107056,14.8680858612061,14.8681888580322,14.8682909011841,14.8683938980103,14.8684949874878,14.8685989379883,14.8687019348145,14.868803024292,14.8689079284668,14.8690099716187,14.8691129684448,14.869215965271,14.8693180084229,14.869421005249,14.8695240020752,14.8696260452271,0,0,0,0,0,0,0,0,0,0,0,0,0,0,0,0,0,0,0,0,0,0,0,0,0,0,0,0,0,0,0,0,0,0,0,0,0,0,0,0,0,0,0,0,0,0,0,0,0,0,0,0,0,0,0,0,0,0,0,0,0,0,0,0,0,0,0,0,0,0,0,0,0,0,0,0,0,0,0,0,0,0,0,0,0,0,0,0,0,0,0,0,0,0,0,0,0,0,0,0,0,0,0,0,0,0,0,0,0,0,0,0
14.7268571853638,14.7269582748413,14.7270593643188,14.7271604537964,14.7272615432739,14.7273616790771,14.7274627685547,14.7275638580322,14.7276659011841,14.7277669906616,14.7278680801392,14.7279682159424,14.7280712127686,14.7281703948975,14.7282724380493,14.7283735275269,14.7284746170044,14.7285757064819,14.7286758422852,14.7287788391113,14.7288780212402,14.7289810180664,14.7290811538696,14.7291812896729,14.7292833328247,14.7293834686279,14.7294855117798,14.7295866012573,14.7296886444092,14.7297887802124,14.7298908233643,14.7299919128418,14.7300910949707,14.7301940917969,14.7302932739258,14.730396270752,14.7304964065552,14.7305974960327,14.7306985855103,14.7308006286621,14.730902671814,14.7310018539429,14.731104850769,14.7312040328979,14.7313060760498,14.7314071655273,14.7315082550049,14.7316093444824,14.7317113876343,14.7318124771118,14.7319135665894,14.7320137023926,14.7321147918701,14.7322158813477,14.7323179244995,14.7324190139771,14.732518196106,14.7326211929321,14.7327213287354,14.7328243255615,14.7329235076904,14.7330255508423,14.7331266403198,14.7332277297974,14.7333297729492,14.7334299087524,14.7335329055786,14.7336330413818,14.7337350845337,14.7338352203369,14.7339344024658,14.734037399292,14.7341365814209,14.7342405319214,14.7343397140503,14.7344427108765,14.7345428466797,14.7346439361572,14.7347459793091,14.7348461151123,14.7349481582642,14.7350482940674,14.7351493835449,14.7352504730225,14.7353525161743,14.7354536056519,14.7355546951294,14.7356557846069,14.7357568740845,14.735857963562,14.7359590530396,14.7360610961914,14.7361621856689,14.7362632751465,14.7363653182983,14.7364664077759,14.7365665435791,14.7366695404053,14.7367696762085,14.7368698120117,14.7369718551636,14.7370738983154,14.737174987793,14.7372751235962,14.7373781204224,14.7374773025513,14.7375812530518,14.7376804351807,14.7377805709839,14.7378835678101,14.7379837036133,14.7380867004395,14.7381868362427,14.7382898330688,14.7383890151978,14.7384901046753,14.7385921478271,14.7386922836304,14.7387952804565,14.7388944625854,14.738995552063,14.7390956878662,14.7391977310181,14.7392988204956,14.7393989562988,14.7395000457764,14.7396020889282,14.7397031784058,14.7398042678833,14.7399044036865,14.7400064468384,14.7401056289673,14.7402076721191,14.7403087615967,14.7404088973999,14.7405118942261,14.7406120300293,14.7407131195068,14.7408142089844,14.7409143447876,14.7410163879395,14.7411165237427,14.7412176132202,14.7413187026978,14.7414207458496,14.7415218353271,14.7416219711304,14.7417230606079,14.7418251037598,14.741925239563,14.7420263290405,14.7421264648438,14.7422275543213,14.7423305511475,14.7424306869507,14.7425327301025,14.7426328659058,14.7427339553833,14.7428340911865,14.7429351806641,14.7430362701416,14.7431364059448,14.743239402771,14.7433414459229,14.7434415817261,14.7435417175293,14.7436428070068,14.7437438964844,14.7438459396362,14.7439451217651,14.744047164917,14.7441482543945,14.7442502975464,14.7443523406982,14.7444515228271,14.7445526123047,14.7446537017822,14.7447547912598,14.7448558807373,14.7449560165405,14.7450590133667,14.7451610565186,14.7452602386475,14.7453622817993,14.7454624176025,14.7455635070801,14.7456655502319,14.7457647323608,14.7458667755127,14.7459678649902,14.7460699081421,14.7461709976196,14.7462711334229,14.7463722229004,14.7464733123779,14.7465744018555,14.746675491333,14.7467756271362,14.7468786239624,14.7469797134399,14.7470808029175,14.747181892395,14.7472820281982,14.7473840713501,14.7474842071533,14.7475843429565,14.7476873397827,14.7477865219116,14.7478904724121,14.7479906082153,14.7480907440186,14.7481927871704,14.7482929229736,14.7483940124512,14.7484951019287,14.7485961914062,14.7486972808838,14.7487993240356,14.7489013671875,14.7490005493164,14.7491025924683,14.7492036819458,14.7493047714233,14.7494058609009,14.7495059967041,14.749608039856,14.7497100830078,14.749810218811,14.7499122619629,14.7500123977661,14.7501134872437,14.7502155303955,14.7503156661987,14.7504167556763,14.7505168914795,14.7506198883057,0,0,0,0,0,0,0,0,0,0,0,0,0,0,0,0,0,0,0,0,0,0,0,0,0,0,0,0,0,0,0,0,0,0,0,0,0,0,0,0,0,0,0,0,0,0,0,0,0,0,0,0,0,0,0,0,0,0,0,0,0,0,0,0,0,0,0,0,0,0,0,0,0,0,0,0,0,0,0,0,0,0,0,0,0,0,0,0,0,0,0,0,0,0,0,0,0,0,0,0,0,0,0,0,0,0,0,0,0,0,0,0,0,0,0,0,0,0,0,0,0,0,0,0,0,0,0,0,0,0,0,0,0,0,0,0,0,0,0,0,0,0,0,0,0,0,0,0
14.6136875152588,14.6137866973877,14.6138858795166,14.6139860153198,14.6140842437744,14.614185333252,14.6142835617065,14.6143836975098,14.6144828796387,14.6145820617676,14.6146831512451,14.6147813796997,14.6148815155029,14.6149797439575,14.6150817871094,14.615180015564,14.6152811050415,14.6153793334961,14.615478515625,14.6155786514282,14.6156768798828,14.6157789230347,14.6158771514893,14.6159782409668,14.6160764694214,14.6161756515503,14.6162757873535,14.6163740158081,14.61647605896,14.6165733337402,14.6166734695435,14.6167736053467,14.6168727874756,14.6169719696045,14.6170721054077,14.6171722412109,14.6172704696655,14.6173696517944,14.617470741272,14.6175689697266,14.6176700592041,14.617769241333,14.6178693771362,14.6179695129395,14.618067741394,14.6181669235229,14.6182670593262,14.6183671951294,14.6184663772583,14.6185646057129,14.6186666488647,14.6187648773193,14.6188650131226,14.6189641952515,14.6190643310547,14.6191635131836,14.6192617416382,14.6193628311157,14.6194610595703,14.6195631027222,14.6196603775024,14.6197624206543,14.6198606491089,14.6199598312378,14.6200609207153,14.6201591491699,14.6202602386475,14.6203584671021,14.6204605102539,14.6205577850342,14.6206579208374,14.6207580566406,14.6208553314209,14.6209573745728,14.6210565567017,14.6211557388306,14.6212558746338,14.6213550567627,14.6214551925659,14.6215553283691,14.621654510498,14.6217555999756,14.6218538284302,14.6219530105591,14.6220531463623,14.6221523284912,14.6222524642944,14.6223526000977,14.6224517822266,14.6225500106812,14.6226511001587,14.6227502822876,14.6228504180908,14.6229496002197,14.6230497360229,14.6231489181519,14.6232471466064,14.6233491897583,14.6234474182129,14.6235494613647,14.6236476898193,14.6237459182739,14.6238479614258,14.6239452362061,14.6240472793579,14.6241455078125,14.62424659729,14.6243448257446,14.6244449615479,14.6245450973511,14.6246433258057,14.6247444152832,14.6248435974121,14.6249437332153,14.6250429153442,14.6251430511475,14.6252422332764,14.6253423690796,14.6254425048828,14.6255407333374,14.6256418228149,14.6257410049438,14.6258401870728,14.625940322876,14.6260404586792,14.6261386871338,14.626238822937,14.6263380050659,14.6264371871948,14.6265363693237,14.6266355514526,14.6267356872559,14.6268348693848,14.626935005188,14.6270351409912,14.6271324157715,14.627233505249,14.6273336410522,14.6274318695068,14.6275310516357,14.6276302337646,14.6277294158936,14.6278314590454,14.6279287338257,14.6280298233032,14.6281280517578,14.628228187561,14.6283273696899,14.6284265518188,14.6285257339478,14.6286239624023,14.6287250518799,14.6288251876831,14.6289234161377,14.6290235519409,14.6291217803955,14.6292219161987,14.6293210983276,14.6294212341309,14.6295204162598,14.629620552063,14.6297197341919,14.6298198699951,14.6299180984497,14.6300182342529,14.6301164627075,14.6302165985107,14.630316734314,14.6304149627686,14.6305150985718,14.630615234375,14.6307153701782,14.6308145523071,14.630913734436,14.6310138702393,14.6311111450195,14.6312122344971,14.631311416626,14.6314105987549,14.6315116882324,14.631609916687,14.6317100524902,14.6318101882935,14.631908416748,14.6320085525513,14.6321067810059,14.6322069168091,14.632306098938,14.6324071884155,14.6325063705444,14.6326055526733,14.6327047348022,14.6328058242798,14.6329030990601,14.6330032348633,14.6331024169922,14.6332015991211,14.6333036422729,14.6334018707275,14.6335020065308,14.6336002349854,14.6337003707886,14.6338005065918,14.6338987350464,14.6339998245239,14.6340970993042,14.6341991424561,14.6342992782593,14.6343975067139,14.6344985961914,14.6345958709717,14.6346960067749,14.6347961425781,14.6348943710327,14.6349945068359,14.6350946426392,14.6351947784424,14.6352949142456,14.6353921890259,14.6354932785034,14.635591506958,14.6356916427612,14.6357908248901,14.635890007019,14.6359910964966,14.6360921859741,14.6361894607544,14.6362895965576,14.6363887786865,14.6364889144897,14.636589050293,14.6366872787476,14.6367874145508,14.636887550354,0,0,0,0,0,0,0,0,0,0,0,0,0,0,0,0,0,0,0,0,0,0,0,0,0,0,0,0,0,0,0,0,0,0,0,0,0,0,0,0,0,0,0,0,0,0,0,0,0,0,0,0,0,0,0,0,0,0,0,0,0,0,0,0,0,0,0,0,0,0,0,0,0,0,0,0,0,0,0,0,0,0,0,0,0,0,0,0,0,0,0,0,0,0,0,0,0,0,0,0,0,0,0,0,0,0,0,0,0,0,0,0,0,0,0,0,0,0,0,0,0,0,0,0,0,0,0,0,0,0,0,0,0,0,0,0,0,0,0,0,0,0,0,0,0,0,0,0,0,0
14.5022439956665,14.5023403167725,14.5024394989014,14.502537727356,14.5026340484619,14.5027332305908,14.5028305053711,14.5029296875,14.5030269622803,14.5031270980835,14.5032234191895,14.5033206939697,14.5034198760986,14.5035161972046,14.5036163330078,14.5037136077881,14.503812789917,14.5039091110229,14.5040073394775,14.5041065216064,14.5042028427124,14.5043020248413,14.5043992996216,14.5044975280762,14.5045957565308,14.5046939849854,14.5047922134399,14.5048904418945,14.5049896240234,14.5050859451294,14.5051832199097,14.5052814483643,14.5053806304932,14.5054779052734,14.5055770874023,14.5056753158569,14.5057735443115,14.5058698654175,14.5059680938721,14.506067276001,14.5061655044556,14.5062637329102,14.5063610076904,14.5064601898193,14.5065565109253,14.5066566467285,14.5067529678345,14.5068511962891,14.5069494247437,14.5070466995239,14.5071458816528,14.5072431564331,14.5073432922363,14.5074396133423,14.5075397491455,14.5076370239258,14.5077352523804,14.5078325271606,14.5079298019409,14.5080299377441,14.5081262588501,14.5082263946533,14.5083227157593,14.5084218978882,14.5085191726685,14.5086183547974,14.5087156295776,14.5088129043579,14.5089120864868,14.5090093612671,14.5091075897217,14.5092067718506,14.5093050003052,14.5094032287598,14.5095014572144,14.5095977783203,14.5096960067749,14.5097942352295,14.5098934173584,14.5099906921387,14.5100898742676,14.5101881027222,14.5102844238281,14.5103845596313,14.5104808807373,14.5105800628662,14.5106782913208,14.5107765197754,14.51087474823,14.5109720230103,14.5110712051392,14.5111684799194,14.5112676620483,14.5113649368286,14.5114622116089,14.5115613937378,14.5116586685181,14.5117588043213,14.5118551254272,14.5119552612305,14.5120525360107,14.5121507644653,14.5122489929199,14.5123453140259,14.5124444961548,14.5125427246094,14.5126419067383,14.5127391815186,14.5128374099731,14.5129346847534,14.5130338668823,14.5131330490112,14.5132293701172,14.5133285522461,14.5134258270264,14.513524055481,14.5136232376099,14.5137214660645,14.513819694519,14.5139179229736,14.5140151977539,14.5141143798828,14.5142116546631,14.5143098831177,14.5144081115723,14.5145072937012,14.5146055221558,14.5147018432617,14.5148000717163,14.5148983001709,14.5149955749512,14.5150938034058,14.5151929855347,14.5152912139893,14.5153875350952,14.5154867172241,14.5155849456787,14.5156812667847,14.5157794952393,14.5158767700195,14.5159740447998,14.516074180603,14.5161714553833,14.5162706375122,14.5163669586182,14.5164661407471,14.5165643692017,14.5166606903076,14.5167598724365,14.5168561935425,14.5169563293457,14.5170545578003,14.5171508789062,14.5172491073608,14.5173463821411,14.5174446105957,14.5175437927246,14.5176401138306,14.5177383422852,14.5178375244141,14.5179357528687,14.5180339813232,14.5181312561035,14.5182294845581,14.5183258056641,14.518424987793,14.5185232162476,14.5186195373535,14.5187196731567,14.5188159942627,14.5189151763916,14.5190143585205,14.5191106796265,14.5192089080811,14.5193061828613,14.5194044113159,14.5195026397705,14.5196008682251,14.519700050354,14.5197973251343,14.5198945999146,14.5199937820435,14.5200910568237,14.5201892852783,14.5202865600586,14.5203847885132,14.5204839706421,14.5205821990967,14.520679473877,14.5207767486572,14.5208759307861,14.5209732055664,14.521071434021,14.5211696624756,14.5212669372559,14.5213670730591,14.5214643478394,14.5215616226196,14.5216608047485,14.5217580795288,14.5218553543091,14.5219535827637,14.5220508575439,14.5221500396729,14.5222482681274,14.522346496582,14.5224447250366,14.5225419998169,14.5226402282715,14.5227375030518,14.5228357315063,14.5229339599609,14.5230312347412,14.5231313705444,14.5232286453247,14.523325920105,14.5234241485596,14.5235214233398,14.5236206054688,14.523717880249,14.5238170623779,14.5239143371582,14.5240135192871,14.5241117477417,14.5242080688477,14.5243072509766,14.5244064331055,14.5245027542114,14.5246019363403,14.524697303772,14.5247974395752,14.5248966217041,0,0,0,0,0,0,0,0,0,0,0,0,0,0,0,0,0,0,0,0,0,0,0,0,0,0,0,0,0,0,0,0,0,0,0,0,0,0,0,0,0,0,0,0,0,0,0,0,0,0,0,0,0,0,0,0,0,0,0,0,0,0,0,0,0,0,0,0,0,0,0,0,0,0,0,0,0,0,0,0,0,0,0,0,0,0,0,0,0,0,0,0,0,0,0,0,0,0,0,0,0,0,0,0,0,0,0,0,0,0,0,0,0,0,0,0,0,0,0,0,0,0,0,0,0,0,0,0,0,0,0,0,0,0,0,0,0,0,0,0,0,0,0,0,0,0,0,0,0,0,0,0
14.3924875259399,14.3925819396973,14.3926801681519,14.3927764892578,14.3928718566895,14.3929691314697,14.3930644989014,14.393162727356,14.3932580947876,14.3933563232422,14.3934516906738,14.3935480117798,14.3936452865601,14.3937406539917,14.393837928772,14.3939332962036,14.3940305709839,14.3941268920898,14.3942241668701,14.3943204879761,14.3944177627563,14.3945140838623,14.3946104049683,14.3947067260742,14.3948030471802,14.3948993682861,14.3949966430664,14.3950939178467,14.3951902389526,14.3952875137329,14.3953828811646,14.3954792022705,14.3955755233765,14.3956727981567,14.395770072937,14.395866394043,14.3959636688232,14.3960590362549,14.3961563110352,14.3962526321411,14.3963508605957,14.3964462280273,14.396541595459,14.3966388702393,14.3967342376709,14.3968334197998,14.3969287872314,14.397027015686,14.3971223831177,14.3972187042236,14.3973159790039,14.3974113464355,14.3975086212158,14.3976049423218,14.3977022171021,14.397798538208,14.397894859314,14.3979921340942,14.3980875015259,14.3981847763062,14.3982801437378,14.3983793258667,14.3984746932983,14.39857006073,14.3986673355103,14.3987646102905,14.3988618850708,14.3989582061768,14.3990535736084,14.3991508483887,14.3992471694946,14.3993444442749,14.3994407653809,14.3995370864868,14.3996343612671,14.399730682373,14.3998279571533,14.399923324585,14.4000196456909,14.4001178741455,14.4002141952515,14.4003105163574,14.4004058837891,14.4005041122437,14.4006004333496,14.4006986618042,14.4007940292358,14.4008893966675,14.4009876251221,14.4010829925537,14.4011812210083,14.4012765884399,14.4013757705688,14.4014701843262,14.4015665054321,14.4016647338867,14.401762008667,14.4018583297729,14.4019527435303,14.4020519256592,14.4021472930908,14.4022436141968,14.4023408889771,14.402437210083,14.4025354385376,14.4026308059692,14.4027280807495,14.4028234481812,14.4029207229614,14.4030179977417,14.4031143188477,14.4032115936279,14.4033079147339,14.4034032821655,14.4035015106201,14.4035978317261,14.403694152832,14.403790473938,14.4038877487183,14.4039850234985,14.4040794372559,14.4041786193848,14.4042739868164,14.404372215271,14.4044675827026,14.4045648574829,14.4046621322632,14.4047565460205,14.4048557281494,14.4049510955811,14.4050493240356,14.4051446914673,14.4052419662476,14.4053373336792,14.4054336547852,14.4055290222168,14.4056262969971,14.4057235717773,14.405818939209,14.4059171676636,14.4060125350952,14.4061088562012,14.4062061309814,14.4063014984131,14.4063987731934,14.406494140625,14.4065914154053,14.4066877365112,14.4067850112915,14.4068813323975,14.4069766998291,14.4070739746094,14.4071702957153,14.4072666168213,14.4073629379272,14.4074592590332,14.4075555801392,14.4076538085938,14.4077501296997,14.4078454971313,14.4079418182373,14.4080390930176,14.4081363677979,14.4082317352295,14.4083280563354,14.4084234237671,14.408522605896,14.408618927002,14.4087142944336,14.4088115692139,14.4089078903198,14.4090042114258,14.4091005325317,14.4091968536377,14.4092931747437,14.4093914031982,14.4094877243042,14.4095840454102,14.4096794128418,14.4097766876221,14.409873008728,14.4099683761597,14.4100656509399,14.4101610183716,14.4102602005005,14.4103574752808,14.4104528427124,14.4105501174927,14.4106454849243,14.410740852356,14.4108390808105,14.4109344482422,14.4110317230225,14.4111280441284,14.4112253189087,14.4113216400146,14.4114170074463,14.4115152359009,14.4116096496582,14.4117069244385,14.4118032455444,14.4118995666504,14.411997795105,14.4120941162109,14.4121904373169,14.4122877120972,14.4123830795288,14.4124794006348,14.4125757217407,14.412672996521,14.412769317627,14.4128656387329,14.4129629135132,14.4130592346191,14.4131565093994,14.4132528305054,14.413348197937,14.4134454727173,14.4135417938232,14.4136371612549,14.4137363433838,14.4138317108154,14.41392993927,14.4140243530273,14.4141216278076,14.4142189025879,14.4143142700195,14.4144115447998,14.4145078659058,14.4146032333374,14.4147024154663,0,0,0,0,0,0,0,0,0,0,0,0,0,0,0,0,0,0,0,0,0,0,0,0,0,0,0,0,0,0,0,0,0,0,0,0,0,0,0,0,0,0,0,0,0,0,0,0,0,0,0,0,0,0,0,0,0,0,0,0,0,0,0,0,0,0,0,0,0,0,0,0,0,0,0,0,0,0,0,0,0,0,0,0,0,0,0,0,0,0,0,0,0,0,0,0,0,0,0,0,0,0,0,0,0,0,0,0,0,0,0,0,0,0,0,0,0,0,0,0,0,0,0,0,0,0,0,0,0,0,0,0,0,0,0,0,0,0,0,0,0,0,0,0,0,0,0,0,0,0,0,0,0
14.2843790054321,14.2844734191895,14.2845697402954,14.2846641540527,14.2847595214844,14.2848539352417,14.284948348999,14.285044670105,14.2851390838623,14.2852354049683,14.2853288650513,14.2854242324829,14.2855195999146,14.2856149673462,14.2857103347778,14.2858057022095,14.2858991622925,14.2859945297241,14.2860898971558,14.2861862182617,14.286280632019,14.2863759994507,14.2864713668823,14.2865657806396,14.2866621017456,14.2867555618286,14.2868518829346,14.2869462966919,14.2870426177979,14.2871370315552,14.2872323989868,14.2873287200928,14.2874212265015,14.2875185012817,14.2876129150391,14.2877063751221,14.2878036499023,14.2878971099854,14.2879943847656,14.2880878448486,14.2881841659546,14.2882785797119,14.2883739471436,14.2884693145752,14.2885627746582,14.2886600494385,14.2887535095215,14.2888507843018,14.2889442443848,14.2890405654907,14.289134979248,14.2892303466797,14.2893266677856,14.2894201278687,14.2895164489746,14.2896108627319,14.2897052764893,14.2898015975952,14.2898969650269,14.2899923324585,14.2900876998901,14.2901821136475,14.2902765274048,14.2903718948364,14.2904682159424,14.290563583374,14.2906579971313,14.290753364563,14.2908477783203,14.2909440994263,14.2910385131836,14.2911338806152,14.2912282943726,14.2913236618042,14.2914199829102,14.2915134429932,14.2916107177734,14.2917051315308,14.2918014526367,14.2918949127197,14.2919921875,14.2920866012573,14.2921800613403,14.2922763824463,14.2923717498779,14.2924680709839,14.2925615310669,14.2926568984985,14.2927532196045,14.2928485870361,14.2929430007935,14.2930374145508,14.2931337356567,14.2932271957397,14.2933235168457,14.2934188842773,14.293514251709,14.2936096191406,14.2937049865723,14.2938003540039,14.2938947677612,14.2939901351929,14.2940845489502,14.2941799163818,14.2942762374878,14.2943716049194,14.2944650650024,14.2945623397827,14.29465675354,14.2947511672974,14.2948474884033,14.294942855835,14.2950382232666,14.2951326370239,14.2952289581299,14.2953233718872,14.2954196929932,14.2955141067505,14.2956085205078,14.2957038879395,14.2957992553711,14.2958955764771,14.2959899902344,14.2960863113403,14.2961807250977,14.2962779998779,14.2963714599609,14.2964649200439,14.2965612411499,14.2966566085815,14.2967529296875,14.2968473434448,14.2969427108765,14.2970380783081,14.2971343994141,14.2972278594971,14.2973232269287,14.2974185943604,14.297513961792,14.2976083755493,14.297703742981,14.2977991104126,14.2978925704956,14.2979879379272,14.2980823516846,14.2981767654419,14.2982740402222,14.2983694076538,14.2984638214111,14.2985582351685,14.2986536026001,14.2987480163574,14.2988424301147,14.2989387512207,14.299033164978,14.2991304397583,14.2992248535156,14.2993192672729,14.2994136810303,14.2995090484619,14.2996034622192,14.2996997833252,14.2997941970825,14.2998886108398,14.2999849319458,14.3000802993774,14.3001747131348,14.3002700805664,14.3003644943237,14.3004579544067,14.300555229187,14.3006496429443,14.300745010376,14.3008403778076,14.3009357452393,14.3010311126709,14.3011255264282,14.3012199401855,14.3013153076172,14.3014087677002,14.3015041351318,14.3015995025635,14.3016958236694,14.3017921447754,14.3018865585327,14.3019819259644,14.3020763397217,14.302170753479,14.3022661209106,14.302360534668,14.3024568557739,14.3025503158569,14.3026466369629,14.3027429580688,14.3028373718262,14.3029327392578,14.3030281066895,14.3031225204468,14.3032169342041,14.3033113479614,14.3034067153931,14.3035039901733,14.3035974502563,14.3036937713623,14.3037872314453,14.3038835525513,14.3039789199829,14.3040723800659,14.3041687011719,14.3042621612549,14.3043584823608,14.3044538497925,14.3045492172241,14.3046445846558,14.3047399520874,14.304835319519,14.3049297332764,14.3050241470337,14.3051195144653,14.3052167892456,14.3053102493286,14.3054056167603,14.3055000305176,14.3055953979492,14.3056917190552,14.3057851791382,14.3058815002441,14.3059759140015,14.3060712814331,14.3061676025391,0,0,0,0,0,0,0,0,0,0,0,0,0,0,0,0,0,0,0,0,0,0,0,0,0,0,0,0,0,0,0,0,0,0,0,0,0,0,0,0,0,0,0,0,0,0,0,0,0,0,0,0,0,0,0,0,0,0,0,0,0,0,0,0,0,0,0,0,0,0,0,0,0,0,0,0,0,0,0,0,0,0,0,0,0,0,0,0,0,0,0,0,0,0,0,0,0,0,0,0,0,0,0,0,0,0,0,0,0,0,0,0,0,0,0,0,0,0,0,0,0,0,0,0,0,0,0,0,0,0,0,0,0,0,0,0,0,0,0,0,0,0,0,0,0,0,0,0,0,0,0,0,0,0
14.1778831481934,14.1779756546021,14.1780710220337,14.1781635284424,14.1782569885254,14.1783514022827,14.1784448623657,14.1785383224487,14.1786327362061,14.1787252426147,14.1788196563721,14.1789131164551,14.1790065765381,14.1791009902954,14.1791944503784,14.1792888641357,14.1793813705444,14.1794767379761,14.1795692443848,14.1796636581421,14.1797571182251,14.1798505783081,14.1799440383911,14.1800374984741,14.1801309585571,14.1802244186401,14.1803197860718,14.1804122924805,14.1805047988892,14.1806001663208,14.1806936264038,14.1807880401611,14.1808805465698,14.1809759140015,14.1810684204102,14.1811628341675,14.1812562942505,14.1813488006592,14.1814441680908,14.1815366744995,14.1816320419312,14.1817245483398,14.1818180084229,14.1819124221802,14.1820058822632,14.1821002960205,14.1821928024292,14.1822881698608,14.1823806762695,14.1824750900269,14.1825685501099,14.1826620101929,14.1827564239502,14.1828498840332,14.1829423904419,14.1830377578735,14.1831302642822,14.1832246780396,14.1833181381226,14.1834115982056,14.1835060119629,14.1835985183716,14.1836938858032,14.1837863922119,14.1838817596436,14.1839742660522,14.1840686798096,14.1841630935669,14.1842546463013,14.1843500137329,14.1844434738159,14.1845388412476,14.1846313476562,14.1847267150879,14.1848192214966,14.1849117279053,14.1850070953369,14.1850986480713,14.1851940155029,14.1852874755859,14.1853818893433,14.185474395752,14.1855688095093,14.1856632232666,14.1857566833496,14.1858510971069,14.1859436035156,14.1860380172729,14.186131477356,14.1862258911133,14.1863193511963,14.1864137649536,14.1865081787109,14.1866006851196,14.1866941452026,14.18678855896,14.1868829727173,14.1869764328003,14.1870698928833,14.1871643066406,14.1872587203979,14.1873512268066,14.1874446868896,14.187539100647,14.18763256073,14.187726020813,14.187819480896,14.187915802002,14.1880073547363,14.188102722168,14.1881952285767,14.188289642334,14.1883840560913,14.1884756088257,14.1885719299316,14.188663482666,14.1887588500977,14.1888523101807,14.1889486312866,14.189040184021,14.189133644104,14.1892290115356,14.18932056427,14.1894159317017,14.1895084381104,14.189603805542,14.189697265625,14.189790725708,14.1898851394653,14.1899795532227,14.1900720596313,14.19016456604,14.1902599334717,14.190354347229,14.1904487609863,14.1905422210693,14.190634727478,14.1907291412354,14.1908235549927,14.19091796875,14.1910104751587,14.1911029815674,14.1911973953247,14.1912899017334,14.1913843154907,14.191478729248,14.1915721893311,14.1916666030884,14.1917581558228,14.1918525695801,14.1919460296631,14.1920385360718,14.1921339035034,14.1922254562378,14.1923217773438,14.1924152374268,14.1925086975098,14.1926021575928,14.1926956176758,14.1927890777588,14.1928825378418,14.1929759979248,14.1930694580078,14.1931648254395,14.1932582855225,14.1933517456055,14.1934442520142,14.1935396194458,14.1936302185059,14.1937255859375,14.1938199996948,14.1939125061035,14.1940078735352,14.1941003799438,14.1941938400269,14.1942882537842,14.1943807601929,14.1944751739502,14.1945676803589,14.1946620941162,14.1947565078735,14.1948509216309,14.1949434280396,14.1950368881226,14.1951303482056,14.1952257156372,14.1953182220459,14.1954116821289,14.1955041885376,14.1955976486206,14.1956939697266,14.1957874298096,14.1958799362183,14.1959733963013,14.1960668563843,14.1961622238159,14.1962537765503,14.1963491439819,14.1964426040649,14.1965370178223,14.1966304779053,14.196722984314,14.196816444397,14.19690990448,14.1970043182373,14.1970977783203,14.1971912384033,14.1972856521606,14.1973791122437,14.197473526001,14.197566986084,14.1976594924927,14.1977548599243,14.197847366333,14.1979417800903,14.198034286499,14.1981287002563,14.1982231140137,14.1983156204224,14.198410987854,14.198504447937,14.1985969543457,14.198691368103,14.198784828186,14.1988773345947,14.1989736557007,14.1990671157837,14.199161529541,14.1992530822754,0,0,0,0,0,0,0,0,0,0,0,0,0,0,0,0,0,0,0,0,0,0,0,0,0,0,0,0,0,0,0,0,0,0,0,0,0,0,0,0,0,0,0,0,0,0,0,0,0,0,0,0,0,0,0,0,0,0,0,0,0,0,0,0,0,0,0,0,0,0,0,0,0,0,0,0,0,0,0,0,0,0,0,0,0,0,0,0,0,0,0,0,0,0,0,0,0,0,0,0,0,0,0,0,0,0,0,0,0,0,0,0,0,0,0,0,0,0,0,0,0,0,0,0,0,0,0,0,0,0,0,0,0,0,0,0,0,0,0,0,0,0,0,0,0,0,0,0,0,0,0,0,0,0,0
14.0729627609253,14.073055267334,14.0731468200684,14.0732383728027,14.0733318328857,14.0734243392944,14.0735168457031,14.0736093521118,14.0737028121948,14.0737934112549,14.0738868713379,14.0739784240723,14.0740699768066,14.0741624832153,14.0742559432983,14.074348449707,14.0744390487671,14.0745325088501,14.0746240615845,14.0747184753418,14.0748090744019,14.0749015808105,14.0749940872192,14.0750846862793,14.0751791000366,14.075270652771,14.075364112854,14.0754547119141,14.0755481719971,14.0756406784058,14.0757312774658,14.0758256912231,14.0759172439575,14.0760107040405,14.0761022567749,14.0761947631836,14.076286315918,14.0763788223267,14.0764713287354,14.0765647888184,14.0766572952271,14.0767478942871,14.0768404006958,14.0769329071045,14.0770263671875,14.0771179199219,14.0772104263306,14.0773019790649,14.0773963928223,14.0774869918823,14.077579498291,14.0776720046997,14.0777645111084,14.0778570175171,14.0779485702515,14.0780429840088,14.0781326293945,14.0782270431519,14.0783185958862,14.0784111022949,14.0785036087036,14.078595161438,14.078688621521,14.0787801742554,14.0788736343384,14.0789642333984,14.0790586471558,14.0791501998901,14.0792407989502,14.0793352127075,14.0794267654419,14.0795211791992,14.0796117782593,14.079704284668,14.0797967910767,14.0798892974854,14.079981803894,14.0800724029541,14.0801668167114,14.0802593231201,14.0803518295288,14.0804424285889,14.0805358886719,14.0806283950806,14.0807209014893,14.0808143615723,14.0809059143066,14.0809965133667,14.0810899734497,14.0811834335327,14.0812759399414,14.0813674926758,14.0814609527588,14.0815525054932,14.0816440582275,14.0817394256592,14.0818290710449,14.0819215774536,14.0820150375366,14.082106590271,14.082200050354,14.0822906494141,14.0823860168457,14.0824756622314,14.0825700759888,14.0826616287231,14.0827522277832,14.0828466415405,14.0829381942749,14.0830326080322,14.0831232070923,14.0832166671753,14.0833082199097,14.0834016799927,14.0834932327271,14.0835857391357,14.0836791992188,14.0837707519531,14.0838651657104,14.0839557647705,14.0840482711792,14.0841417312622,14.0842342376709,14.0843257904053,14.0844173431396,14.0845098495483,14.084602355957,14.08469581604,14.084789276123,14.0848808288574,14.0849733352661,14.0850667953491,14.0851564407349,14.0852499008179,14.0853433609009,14.0854349136353,14.0855283737183,14.0856199264526,14.0857133865356,14.0858058929443,14.0858974456787,14.0859899520874,14.0860815048218,14.0861749649048,14.0862655639648,14.0863599777222,14.0864515304565,14.0865421295166,14.0866346359253,14.086727142334,14.0868186950684,14.0869112014771,14.0870056152344,14.0870981216431,14.0871887207031,14.0872812271118,14.0873737335205,14.0874652862549,14.0875577926636,14.0876502990723,14.0877418518066,14.087836265564,14.087926864624,14.088020324707,14.0881128311157,14.0882024765015,14.0882959365845,14.0883874893188,14.0884799957275,14.0885734558105,14.0886650085449,14.0887584686279,14.0888500213623,14.0889415740967,14.0890350341797,14.0891265869141,14.0892181396484,14.0893106460571,14.0894041061401,14.0894975662231,14.0895891189575,14.0896806716919,14.0897731781006,14.0898656845093,14.0899591445923,14.0900497436523,14.090142250061,14.0902328491211,14.0903282165527,14.0904197692871,14.0905113220215,14.0906047821045,14.0906963348389,14.0907878875732,14.0908803939819,14.0909719467163,14.091064453125,14.0911569595337,14.0912494659424,14.0913419723511,14.0914335250854,14.0915260314941,14.0916175842285,14.0917110443115,14.0918035507202,14.0918951034546,14.0919895172119,14.0920810699463,14.0921745300293,14.0922660827637,14.092357635498,14.0924501419067,14.0925426483154,14.0926342010498,14.0927267074585,14.0928192138672,14.0929126739502,14.0930042266846,14.0930957794189,14.0931882858276,14.093279838562,14.0933723449707,14.0934638977051,14.0935564041138,14.0936498641968,14.0937442779541,14.0938348770142,14.0939264297485,0,0,0,0,0,0,0,0,0,0,0,0,0,0,0,0,0,0,0,0,0,0,0,0,0,0,0,0,0,0,0,0,0,0,0,0,0,0,0,0,0,0,0,0,0,0,0,0,0,0,0,0,0,0,0,0,0,0,0,0,0,0,0,0,0,0,0,0,0,0,0,0,0,0,0,0,0,0,0,0,0,0,0,0,0,0,0,0,0,0,0,0,0,0,0,0,0,0,0,0,0,0,0,0,0,0,0,0,0,0,0,0,0,0,0,0,0,0,0,0,0,0,0,0,0,0,0,0,0,0,0,0,0,0,0,0,0,0,0,0,0,0,0,0,0,0,0,0,0,0,0,0,0,0,0,0
13.9695844650269,13.9696760177612,13.9697666168213,13.9698581695557,13.9699478149414,13.9700393676758,13.9701299667358,13.9702205657959,13.9703130722046,13.9704027175903,13.970495223999,13.9705848693848,13.9706773757935,13.9707660675049,13.9708595275879,13.9709501266479,13.9710397720337,13.9711313247681,13.9712209701538,13.9713134765625,13.9714040756226,13.9714946746826,13.971586227417,13.9716768264771,13.9717683792114,13.9718580245972,13.9719505310059,13.9720411300659,13.972131729126,13.9722232818604,13.9723129272461,13.9724044799805,13.9724969863892,13.9725875854492,13.972677230835,13.972767829895,13.9728593826294,13.9729509353638,13.9730415344238,13.9731340408325,13.9732236862183,13.9733152389526,13.9734058380127,13.9734973907471,13.9735870361328,13.9736785888672,13.9737701416016,13.9738597869873,13.973952293396,13.9740428924561,13.9741344451904,13.9742250442505,13.9743165969849,13.9744062423706,13.9744958877563,13.9745903015137,13.9746789932251,13.9747714996338,13.9748611450195,13.9749546051025,13.9750442504883,13.9751348495483,13.9752264022827,13.9753160476685,13.9754076004028,13.9754981994629,13.9755897521973,13.9756813049316,13.9757719039917,13.9758634567261,13.9759540557861,13.9760465621948,13.9761362075806,13.9762268066406,13.9763174057007,13.9764099121094,13.9765005111694,13.9765920639038,13.9766836166382,13.9767742156982,13.9768648147583,13.9769554138184,13.9770460128784,13.9771385192871,13.9772291183472,13.9773206710815,13.9774112701416,13.9775009155273,13.9775953292847,13.9776849746704,13.9777746200562,13.9778671264648,13.9779567718506,13.9780492782593,13.978138923645,13.978232383728,13.9783220291138,13.9784135818481,13.9785032272339,13.9785928726196,13.9786863327026,13.9787759780884,13.9788694381714,13.9789581298828,13.9790515899658,13.9791412353516,13.9792327880859,13.979323387146,13.9794139862061,13.9795074462891,13.9795961380005,13.9796895980835,13.9797782897949,13.9798698425293,13.9799604415894,13.980052947998,13.9801435470581,13.9802341461182,13.9803247451782,13.9804153442383,13.980507850647,13.980598449707,13.9806890487671,13.9807815551758,13.9808731079102,13.9809617996216,13.981053352356,13.981143951416,13.9812364578247,13.9813280105591,13.9814195632935,13.9815101623535,13.9815998077393,13.9816923141479,13.981782913208,13.9818754196167,13.9819650650024,13.9820566177368,13.9821481704712,13.9822378158569,13.9823312759399,13.9824209213257,13.9825124740601,13.9826030731201,13.9826946258545,13.9827861785889,13.9828748703003,13.9829664230347,13.9830570220947,13.9831485748291,13.9832410812378,13.9833307266235,13.9834213256836,13.9835119247437,13.9836025238037,13.9836940765381,13.9837837219238,13.9838762283325,13.9839649200439,13.984058380127,13.984148979187,13.9842405319214,13.9843311309814,13.9844217300415,13.9845123291016,13.9846038818359,13.9846935272217,13.9847841262817,13.9848766326904,13.9849681854248,13.9850587844849,13.9851484298706,13.985239982605,13.9853296279907,13.9854202270508,13.9855136871338,13.9856014251709,13.9856958389282,13.9857845306396,13.9858779907227,13.9859676361084,13.9860572814941,13.9861488342285,13.9862394332886,13.9863309860229,13.9864225387573,13.9865131378174,13.9866046905518,13.9866952896118,13.9867849349976,13.9868774414062,13.986967086792,13.9870576858521,13.9871482849121,13.9872407913208,13.9873304367065,13.9874229431152,13.9875135421753,13.9876041412354,13.9876947402954,13.9877853393555,13.9878768920898,13.9879674911499,13.9880599975586,13.98814868927,13.9882411956787,13.9883327484131,13.9884233474731,13.9885149002075,13.9886045455933,13.988697052002,13.9887866973877,13.9888772964478,13.9889688491821,13.9890604019165,13.9891510009766,13.9892416000366,13.989333152771,13.9894237518311,13.9895143508911,13.9896059036255,13.9896955490112,13.9897871017456,13.9898805618286,13.9899702072144,13.9900608062744,13.9901504516602,13.9902429580688,0,0,0,0,0,0,0,0,0,0,0,0,0,0,0,0,0,0,0,0,0,0,0,0,0,0,0,0,0,0,0,0,0,0,0,0,0,0,0,0,0,0,0,0,0,0,0,0,0,0,0,0,0,0,0,0,0,0,0,0,0,0,0,0,0,0,0,0,0,0,0,0,0,0,0,0,0,0,0,0,0,0,0,0,0,0,0,0,0,0,0,0,0,0,0,0,0,0,0,0,0,0,0,0,0,0,0,0,0,0,0,0,0,0,0,0,0,0,0,0,0,0,0,0,0,0,0,0,0,0,0,0,0,0,0,0,0,0,0,0,0,0,0,0,0,0,0,0,0,0,0,0,0,0,0,0
13.8677139282227,13.8678045272827,13.8678922653198,13.8679838180542,13.8680725097656,13.8681631088257,13.8682508468628,13.8683423995972,13.8684310913086,13.86851978302,13.8686113357544,13.8686990737915,13.8687906265259,13.8688793182373,13.868968963623,13.8690586090088,13.8691482543945,13.8692378997803,13.8693265914917,13.8694181442261,13.8695058822632,13.8695964813232,13.869686126709,13.869776725769,13.8698644638062,13.8699550628662,13.870044708252,13.8701333999634,13.8702239990234,13.8703145980835,13.8704032897949,13.8704929351807,13.8705835342407,13.8706722259521,13.8707628250122,13.8708505630493,13.8709411621094,13.8710298538208,13.8711204528809,13.8712100982666,13.871298789978,13.8713893890381,13.8714790344238,13.8715715408325,13.8716592788696,13.8717479705811,13.8718395233154,13.8719272613525,13.8720178604126,13.8721055984497,13.8721971511841,13.8722867965698,13.8723773956299,13.8724660873413,13.8725557327271,13.8726472854614,13.8727350234985,13.8728265762329,13.87291431427,13.8730058670044,13.8730945587158,13.8731842041016,13.8732748031616,13.8733644485474,13.8734531402588,13.8735418319702,13.873631477356,13.873722076416,13.8738117218018,13.8739004135132,13.8739910125732,13.8740816116333,13.874171257019,13.8742589950562,13.8743495941162,13.8744401931763,13.8745307922363,13.8746194839478,13.8747100830078,13.8747987747192,13.874888420105,13.874979019165,13.8750677108765,13.8751573562622,13.8752479553223,13.8753356933594,13.8754272460938,13.8755159378052,13.8756074905396,13.8756952285767,13.8757877349854,13.8758754730225,13.8759641647339,13.8760547637939,13.8761444091797,13.8762359619141,13.8763236999512,13.8764152526855,13.876503944397,13.8765935897827,13.8766832351685,13.8767719268799,13.8768634796143,13.8769512176514,13.8770427703857,13.8771314620972,13.8772220611572,13.877311706543,13.877402305603,13.8774909973145,13.8775796890259,13.8776702880859,13.8777599334717,13.8778505325317,13.8779392242432,13.8780298233032,13.8781204223633,13.8782091140747,13.8782987594604,13.8783893585205,13.8784780502319,13.878568649292,13.8786582946777,13.8787488937378,13.8788385391235,13.878927230835,13.879017829895,13.8791074752808,13.8791971206665,13.8792867660522,13.879376411438,13.8794651031494,13.8795547485352,13.8796463012695,13.8797340393066,13.879825592041,13.8799152374268,13.8800048828125,13.8800945281982,13.8801832199097,13.880274772644,13.8803625106812,13.8804540634155,13.880542755127,13.8806343078613,13.8807229995728,13.8808126449585,13.8809032440186,13.88099193573,13.8810834884644,13.8811721801758,13.8812608718872,13.8813495635986,13.8814401626587,13.8815298080444,13.8816194534302,13.8817090988159,13.881796836853,13.8818893432617,13.8819780349731,13.8820676803589,13.8821573257446,13.8822450637817,13.8823356628418,13.8824253082275,13.8825149536133,13.8826036453247,13.8826951980591,13.8827838897705,13.8828754425049,13.882963180542,13.8830528259277,13.8831415176392,13.8832311630249,13.8833227157593,13.8834104537964,13.8835020065308,13.8835897445679,13.8836803436279,13.883770942688,13.8838596343994,13.8839492797852,13.8840379714966,13.8841276168823,13.8842172622681,13.8843078613281,13.8843975067139,13.8844861984253,13.8845767974854,13.8846664428711,13.8847551345825,13.8848457336426,13.884934425354,13.8850240707397,13.8851146697998,13.8852033615112,13.8852939605713,13.8853826522827,13.8854732513428,13.8855628967285,13.8856515884399,13.8857421875,13.8858299255371,13.8859224319458,13.8860111236572,13.886100769043,13.8861894607544,13.8862791061401,13.8863697052002,13.8864593505859,13.886547088623,13.8866386413574,13.8867273330688,13.8868188858032,13.886908531189,13.8869962692261,13.8870859146118,13.8871755599976,13.8872652053833,13.887354850769,13.8874435424805,13.8875350952148,13.8876247406006,13.887713432312,13.8878049850464,13.8878927230835,13.8879833221436,13.888072013855,13.8881616592407,13.8882522583008,13.8883419036865,13.8884305953979,13.888521194458,13.8886117935181,13.8887014389038,13.8887901306152,13.888879776001,13.8889684677124,0,0,0,0,0,0,0,0,0,0,0,0,0,0,0,0,0,0,0,0,0,0,0,0,0,0,0,0,0,0,0,0,0,0,0,0,0,0,0,0,0,0,0,0,0,0,0,0,0,0,0,0,0,0,0,0,0,0,0,0,0,0,0,0,0,0,0,0,0,0,0,0,0,0,0,0,0,0,0,0,0,0,0,0,0,0,0,0,0,0,0,0,0,0,0,0,0,0,0,0,0,0,0,0,0,0,0,0,0,0,0,0,0,0,0,0,0,0,0,0,0,0,0,0,0,0,0,0,0,0,0,0,0,0,0,0,0,0,0,0,0,0,0,0,0,0
