12.0047044754028,12.0525150299072,12.1007070541382,12.1492872238159,12.1982583999634,12.2476263046265,12.2973947525024,12.3475694656372,12.3981561660767,12.4491577148438,12.500581741333,12.5524320602417,12.6047143936157,12.6574335098267,12.7105960845947,12.7642068862915,12.8182716369629,12.8727970123291,12.9277877807617,12.9832496643066,13.0391902923584,13.0956153869629,13.152530670166,13.2099418640137,13.2678575515747,13.326283454895,13.3852272033691,13.4446926116943,13.5046892166138,13.5652236938477,13.6263008117676,13.6879367828369,13.75013256073,13.8128938674927,13.8762302398682,13.940149307251,14.0046606063843,14.0697708129883,14.1354904174805,14.2018260955811,14.2687873840332,14.3363838195801,14.4046230316162,14.4735145568848,14.5430688858032,14.6132946014404,14.6842498779297,14.7559213638306,14.8282880783081,14.9012136459351,14.9748611450195,15.049370765686,15.1245803833008,15.2005462646484,15.2772789001465,15.354790687561,15.4330930709839,15.5121974945068,15.5921173095703,15.6728649139404,15.7544527053833,15.8368949890137,17.8694648742676,17.963903427124,18.05934715271,18.1558494567871,18.2534103393555,18.3520832061768,18.5678768157959,18.5709476470947,18.5740203857422,18.577091217041,19.2078723907471,19.3019580841064,19.302375793457,19.3027935028076,19.3032131195068,19.3036804199219,19.3041591644287,19.3655834197998,19.4780464172363,19.5918254852295,19.7069282531738,0,0,0,0,0,0,0,0,0,0,0,0,0,0,0,0,0,0,0,0,0,0,0,0,0,0,0,0,0,0,0,0,0,0,0,0,0,0,0,0,0,0,0,0,0,0,0,0,0,0,0,0,0,0,0,0,0,0,0,0,0,0,0,0,0,0,0,0,0,0,0,0,0,0,0,0,0,0,0,0,0,0,0,0,0,0,0,0,0,0,0,0,0,0,0,0,0,0,0,0,0,0,0,0,0,0,0,0,0,0,0,0,0,0,0,0,0,0,0,0,0,0,0,0,0,0,0,0,0,0,0,0,0,0,0,0,0,0,0,0,0,0,0,0,0,0,0,0,0,0,0,0,0,0,0,0,0,0,0,0,0,0,0,0,0,0,0,0,0,0,0,0,0,0,0,0,0,0,0,0,0,0,0,0,0,0,0,0,0,0,0,0,0,0,0,0,0,0,0,0,0,0,0,0,0,0,0,0,0,0,0,0,0,0,0,0,0,0,0,0,0,0,0,0,0,0,0,0,0,0,0,0,0,0,0,0,0,0,0,0,0,0,0,0,0,0,0,0,0,0,0,0,0,0,0,0,0,0,0,0,0,0,0,0,0,0,0,0,0,0,0,0,0,0,0,0,0,0,0,0,0,0,0,0,0,0,0,0,0,0,0,0,0,0,0,0,0,0,0,0,0,0,0,0,0,0,0
12.0045671463013,12.0523767471313,12.100567817688,12.1491460800171,12.1981163024902,12.247483253479,12.2972507476807,12.3474245071411,12.3980093002319,12.4490098953247,12.5004329681396,12.5522813796997,12.6045627593994,12.657280921936,12.7104415893555,12.7640514373779,12.818115234375,12.8726387023926,12.9276275634766,12.9830894470215,13.0390281677246,13.0954513549805,13.152364730835,13.2097759246826,13.267689704895,13.3261137008667,13.3850545883179,13.4445209503174,13.5045156478882,13.5650482177734,13.6261262893677,13.6877546310425,13.7499494552612,13.8127126693726,13.8760461807251,13.9399642944336,14.0044736862183,14.0695819854736,14.1352996826172,14.2016334533691,14.2685928344727,14.3361873626709,14.4044246673584,14.4733152389526,14.5428676605225,14.613091468811,14.6840600967407,14.755729675293,14.8280649185181,14.9009885787964,14.9746465682983,15.0491542816162,15.1243629455566,15.2003269195557,15.2770566940308,15.3545665740967,15.4328660964966,15.5119686126709,15.5918855667114,15.6726312637329,15.7542171478271,15.8366565704346,17.8691787719727,17.9636154174805,18.0590553283691,18.1555671691895,18.2531242370605,18.3517513275146,18.5760631561279,18.5791358947754,18.5822105407715,18.5852851867676,19.0750789642334,19.075511932373,19.0759792327881,19.0764465332031,19.0769138336182,19.1440677642822,19.2539653778076,19.3651351928711,19.4775981903076,0,0,0,0,0,0,0,0,0,0,0,0,0,0,0,0,0,0,0,0,0,0,0,0,0,0,0,0,0,0,0,0,0,0,0,0,0,0,0,0,0,0,0,0,0,0,0,0,0,0,0,0,0,0,0,0,0,0,0,0,0,0,0,0,0,0,0,0,0,0,0,0,0,0,0,0,0,0,0,0,0,0,0,0,0,0,0,0,0,0,0,0,0,0,0,0,0,0,0,0,0,0,0,0,0,0,0,0,0,0,0,0,0,0,0,0,0,0,0,0,0,0,0,0,0,0,0,0,0,0,0,0,0,0,0,0,0,0,0,0,0,0,0,0,0,0,0,0,0,0,0,0,0,0,0,0,0,0,0,0,0,0,0,0,0,0,0,0,0,0,0,0,0,0,0,0,0,0,0,0,0,0,0,0,0,0,0,0,0,0,0,0,0,0,0,0,0,0,0,0,0,0,0,0,0,0,0,0,0,0,0,0,0,0,0,0,0,0,0,0,0,0,0,0,0,0,0,0,0,0,0,0,0,0,0,0,0,0,0,0,0,0,0,0,0,0,0,0,0,0,0,0,0,0,0,0,0,0,0,0,0,0,0,0,0,0,0,0,0,0,0,0,0,0,0,0,0,0,0,0,0,0,0,0,0,0,0,0,0,0,0,0,0,0,0,0,0,0,0,0,0,0,0,0,0,0,0,0,0
12.0044298171997,12.0522375106812,12.1004276275635,12.1490049362183,12.1979742050171,12.2473402023315,12.2971057891846,12.3472785949707,12.3978624343872,12.4488620758057,12.500283241272,12.552131652832,12.6044111251831,12.6571283340454,12.7102880477905,12.7638959884644,12.8179578781128,12.8724803924561,12.9274682998657,12.982928276062,13.0388660430908,13.095287322998,13.1521997451782,13.2096090316772,13.2675218582153,13.3259439468384,13.3848838806152,13.4443464279175,13.5043411254883,13.5648727416992,13.6259489059448,13.6875782012939,13.7497663497925,13.8125267028809,13.8758630752563,13.9397783279419,14.0042858123779,14.069393157959,14.1351089477539,14.2014408111572,14.2683992385864,14.3359909057617,14.4042263031006,14.4731149673462,14.5426654815674,14.6128959655762,14.6838703155518,14.7555379867554,14.827841758728,14.9007635116577,14.974440574646,15.0489387512207,15.1241445541382,15.2001066207886,15.276834487915,15.354341506958,15.4326391220093,15.5117387771606,15.5916538238525,15.6723966598511,15.7539806365967,15.8364171981812,17.8688926696777,17.9633255004883,18.058765411377,18.1552829742432,18.252836227417,18.3514442443848,18.4511737823486,18.587329864502,18.5904102325439,18.5934867858887,18.6122226715088,18.8544998168945,18.8549556732178,18.9275608062744,19.0349826812744,19.1436424255371,19.2535514831543,0,0,0,0,0,0,0,0,0,0,0,0,0,0,0,0,0,0,0,0,0,0,0,0,0,0,0,0,0,0,0,0,0,0,0,0,0,0,0,0,0,0,0,0,0,0,0,0,0,0,0,0,0,0,0,0,0,0,0,0,0,0,0,0,0,0,0,0,0,0,0,0,0,0,0,0,0,0,0,0,0,0,0,0,0,0,0,0,0,0,0,0,0,0,0,0,0,0,0,0,0,0,0,0,0,0,0,0,0,0,0,0,0,0,0,0,0,0,0,0,0,0,0,0,0,0,0,0,0,0,0,0,0,0,0,0,0,0,0,0,0,0,0,0,0,0,0,0,0,0,0,0,0,0,0,0,0,0,0,0,0,0,0,0,0,0,0,0,0,0,0,0,0,0,0,0,0,0,0,0,0,0,0,0,0,0,0,0,0,0,0,0,0,0,0,0,0,0,0,0,0,0,0,0,0,0,0,0,0,0,0,0,0,0,0,0,0,0,0,0,0,0,0,0,0,0,0,0,0,0,0,0,0,0,0,0,0,0,0,0,0,0,0,0,0,0,0,0,0,0,0,0,0,0,0,0,0,0,0,0,0,0,0,0,0,0,0,0,0,0,0,0,0,0,0,0,0,0,0,0,0,0,0,0,0,0,0,0,0,0,0,0,0,0,0,0,0,0,0,0,0,0,0,0,0,0,0,0,0,0,0
12.0042915344238,12.0520992279053,12.1002883911133,12.1488647460938,12.1978321075439,12.2471971511841,12.2969617843628,12.3471336364746,12.3977155685425,12.4487142562866,12.5001344680786,12.55198097229,12.6042594909668,12.6569747924805,12.7101335525513,12.7637405395508,12.8178014755249,12.8723220825195,12.9273090362549,12.9827671051025,13.038703918457,13.0951242446899,13.1520347595215,13.2094430923462,13.2673540115356,13.3257751464844,13.3847122192383,13.4441738128662,13.5041675567627,13.564697265625,13.6257724761963,13.6873989105225,13.749587059021,13.8123416900635,13.8756761550903,13.9395933151245,14.0040988922119,14.0692043304443,14.1349182128906,14.2012491226196,14.2682046890259,14.3357954025269,14.4040288925171,14.4729156494141,14.5424633026123,14.6127080917358,14.6836805343628,14.7553462982178,14.827618598938,14.900538444519,14.9742345809937,15.0487232208252,15.123927116394,15.1998863220215,15.2766122817993,15.3541173934937,15.432412147522,15.5115098953247,15.591423034668,15.6721630096436,15.7537441253662,15.8361787796021,17.8686065673828,17.9630355834961,18.0584850311279,18.1549987792969,18.2525501251221,18.3511562347412,18.4509143829346,18.5955257415771,18.5986080169678,18.601692199707,18.6119632720947,18.7159080505371,18.8209476470947,18.9271717071533,19.0346012115479,0,0,0,0,0,0,0,0,0,0,0,0,0,0,0,0,0,0,0,0,0,0,0,0,0,0,0,0,0,0,0,0,0,0,0,0,0,0,0,0,0,0,0,0,0,0,0,0,0,0,0,0,0,0,0,0,0,0,0,0,0,0,0,0,0,0,0,0,0,0,0,0,0,0,0,0,0,0,0,0,0,0,0,0,0,0,0,0,0,0,0,0,0,0,0,0,0,0,0,0,0,0,0,0,0,0,0,0,0,0,0,0,0,0,0,0,0,0,0,0,0,0,0,0,0,0,0,0,0,0,0,0,0,0,0,0,0,0,0,0,0,0,0,0,0,0,0,0,0,0,0,0,0,0,0,0,0,0,0,0,0,0,0,0,0,0,0,0,0,0,0,0,0,0,0,0,0,0,0,0,0,0,0,0,0,0,0,0,0,0,0,0,0,0,0,0,0,0,0,0,0,0,0,0,0,0,0,0,0,0,0,0,0,0,0,0,0,0,0,0,0,0,0,0,0,0,0,0,0,0,0,0,0,0,0,0,0,0,0,0,0,0,0,0,0,0,0,0,0,0,0,0,0,0,0,0,0,0,0,0,0,0,0,0,0,0,0,0,0,0,0,0,0,0,0,0,0,0,0,0,0,0,0,0,0,0,0,0,0,0,0,0,0,0,0,0,0,0,0,0,0,0,0,0,0,0,0,0,0,0,0,0,0
12.0041542053223,12.0519599914551,12.1001482009888,12.1487236022949,12.1976900100708,12.2470531463623,12.296817779541,12.3469877243042,12.3975696563721,12.4485664367676,12.4999856948853,12.551830291748,12.6041078567505,12.6568222045898,12.709979057312,12.7635850906372,12.8176441192627,12.872163772583,12.927149772644,12.9826068878174,13.0385417938232,13.0949602127075,13.1518697738647,13.2092761993408,13.267186164856,13.3256053924561,13.3845415115356,13.4440011978149,13.5039920806885,13.5645217895508,13.6255950927734,13.6872205734253,13.7494068145752,13.8121566772461,13.8754892349243,13.9394054412842,14.0039119720459,14.0690155029297,14.1347274780273,14.2010564804077,14.2680110931396,14.3355989456177,14.4038305282593,14.4727153778076,14.5422620773315,14.6125202178955,14.6834907531738,14.7551546096802,14.8273954391479,14.9003133773804,14.9740285873413,15.0485076904297,15.1237096786499,15.1996660232544,15.2763900756836,15.353892326355,15.4321851730347,15.5112810134888,15.5911912918091,15.671929359436,15.7535076141357,15.8359394073486,17.8683204650879,17.9627475738525,18.0582046508789,18.1547145843506,18.2522640228271,18.350866317749,18.4505786895752,18.5983753204346,18.6013793945312,18.6043853759766,18.6116390228271,18.715539932251,18.8205757141113,0,0,0,0,0,0,0,0,0,0,0,0,0,0,0,0,0,0,0,0,0,0,0,0,0,0,0,0,0,0,0,0,0,0,0,0,0,0,0,0,0,0,0,0,0,0,0,0,0,0,0,0,0,0,0,0,0,0,0,0,0,0,0,0,0,0,0,0,0,0,0,0,0,0,0,0,0,0,0,0,0,0,0,0,0,0,0,0,0,0,0,0,0,0,0,0,0,0,0,0,0,0,0,0,0,0,0,0,0,0,0,0,0,0,0,0,0,0,0,0,0,0,0,0,0,0,0,0,0,0,0,0,0,0,0,0,0,0,0,0,0,0,0,0,0,0,0,0,0,0,0,0,0,0,0,0,0,0,0,0,0,0,0,0,0,0,0,0,0,0,0,0,0,0,0,0,0,0,0,0,0,0,0,0,0,0,0,0,0,0,0,0,0,0,0,0,0,0,0,0,0,0,0,0,0,0,0,0,0,0,0,0,0,0,0,0,0,0,0,0,0,0,0,0,0,0,0,0,0,0,0,0,0,0,0,0,0,0,0,0,0,0,0,0,0,0,0,0,0,0,0,0,0,0,0,0,0,0,0,0,0,0,0,0,0,0,0,0,0,0,0,0,0,0,0,0,0,0,0,0,0,0,0,0,0,0,0,0,0,0,0,0,0,0,0,0,0,0,0,0,0,0,0,0,0,0,0,0,0,0,0,0,0,0,0
12.0040168762207,12.0518217086792,12.1000089645386,12.1485834121704,12.197548866272,12.2469100952148,12.2966737747192,12.3468427658081,12.3974227905273,12.4484186172485,12.4998359680176,12.5516805648804,12.6039562225342,12.6566696166992,12.7098255157471,12.7634296417236,12.8174877166748,12.8720064163208,12.9269895553589,12.9824457168579,13.0383796691895,13.0947971343994,13.151704788208,13.2091093063354,13.267017364502,13.3254356384277,13.384370803833,13.4438285827637,13.5038185119629,13.5643453598022,13.6254186630249,13.6870422363281,13.7492265701294,13.8119783401489,13.8753032684326,13.9392166137695,14.0037231445312,14.068826675415,14.1345367431641,14.2008638381958,14.2678165435791,14.3354034423828,14.4036331176758,14.4725151062012,14.5420598983765,14.6123323440552,14.6833009719849,14.7549629211426,14.8271722793579,14.9000873565674,14.973822593689,15.0482921600342,15.1234912872314,15.1994466781616,15.2761678695679,15.3536682128906,15.4319581985474,15.5110511779785,15.5909595489502,15.6716947555542,15.7532711029053,15.8357009887695,17.868034362793,17.9624576568604,18.0579242706299,18.1544322967529,18.2519760131836,18.3505764007568,18.4502449035645,18.5999889373779,18.6029949188232,18.6060009002686,18.6113033294678,0,0,0,0,0,0,0,0,0,0,0,0,0,0,0,0,0,0,0,0,0,0,0,0,0,0,0,0,0,0,0,0,0,0,0,0,0,0,0,0,0,0,0,0,0,0,0,0,0,0,0,0,0,0,0,0,0,0,0,0,0,0,0,0,0,0,0,0,0,0,0,0,0,0,0,0,0,0,0,0,0,0,0,0,0,0,0,0,0,0,0,0,0,0,0,0,0,0,0,0,0,0,0,0,0,0,0,0,0,0,0,0,0,0,0,0,0,0,0,0,0,0,0,0,0,0,0,0,0,0,0,0,0,0,0,0,0,0,0,0,0,0,0,0,0,0,0,0,0,0,0,0,0,0,0,0,0,0,0,0,0,0,0,0,0,0,0,0,0,0,0,0,0,0,0,0,0,0,0,0,0,0,0,0,0,0,0,0,0,0,0,0,0,0,0,0,0,0,0,0,0,0,0,0,0,0,0,0,0,0,0,0,0,0,0,0,0,0,0,0,0,0,0,0,0,0,0,0,0,0,0,0,0,0,0,0,0,0,0,0,0,0,0,0,0,0,0,0,0,0,0,0,0,0,0,0,0,0,0,0,0,0,0,0,0,0,0,0,0,0,0,0,0,0,0,0,0,0,0,0,0,0,0,0,0,0,0,0,0,0,0,0,0,0,0,0,0,0,0,0,0,0,0,0,0,0,0,0,0,0,0,0,0,0,0,0,0
12.0038795471191,12.0516834259033,12.0998687744141,12.1484422683716,12.1974067687988,12.2467670440674,12.2965288162231,12.3466968536377,12.3972759246826,12.4482707977295,12.4996871948242,12.5515298843384,12.6038045883179,12.6565160751343,12.7096710205078,12.7632741928101,12.8173313140869,12.8718481063843,12.926830291748,12.9822845458984,13.0382175445557,13.094633102417,13.1515398025513,13.2089433670044,13.2668495178223,13.3252658843994,13.3842000961304,13.4436569213867,13.503643989563,13.564169883728,13.6252412796021,13.686863899231,13.7490463256836,13.8117961883545,13.8751220703125,13.9390287399292,14.003532409668,14.0686378479004,14.1343469619751,14.2006711959839,14.2676219940186,14.3352069854736,14.403434753418,14.472315788269,14.54185962677,14.6121435165405,14.6831111907959,14.7547464370728,14.8269491195679,14.8998622894287,14.9736166000366,15.0480756759644,15.1232738494873,15.1992263793945,15.2759456634521,15.353443145752,15.4317321777344,15.5108222961426,15.5907278060913,15.6714611053467,15.7530345916748,15.8354616165161,17.867748260498,17.9621696472168,18.0576438903809,18.1541481018066,18.2516899108887,18.3502864837646,18.4499530792236,0,0,0,0,0,0,0,0,0,0,0,0,0,0,0,0,0,0,0,0,0,0,0,0,0,0,0,0,0,0,0,0,0,0,0,0,0,0,0,0,0,0,0,0,0,0,0,0,0,0,0,0,0,0,0,0,0,0,0,0,0,0,0,0,0,0,0,0,0,0,0,0,0,0,0,0,0,0,0,0,0,0,0,0,0,0,0,0,0,0,0,0,0,0,0,0,0,0,0,0,0,0,0,0,0,0,0,0,0,0,0,0,0,0,0,0,0,0,0,0,0,0,0,0,0,0,0,0,0,0,0,0,0,0,0,0,0,0,0,0,0,0,0,0,0,0,0,0,0,0,0,0,0,0,0,0,0,0,0,0,0,0,0,0,0,0,0,0,0,0,0,0,0,0,0,0,0,0,0,0,0,0,0,0,0,0,0,0,0,0,0,0,0,0,0,0,0,0,0,0,0,0,0,0,0,0,0,0,0,0,0,0,0,0,0,0,0,0,0,0,0,0,0,0,0,0,0,0,0,0,0,0,0,0,0,0,0,0,0,0,0,0,0,0,0,0,0,0,0,0,0,0,0,0,0,0,0,0,0,0,0,0,0,0,0,0,0,0,0,0,0,0,0,0,0,0,0,0,0,0,0,0,0,0,0,0,0,0,0,0,0,0,0,0,0,0,0,0,0,0,0,0,0,0,0,0,0,0,0,0,0,0,0,0,0,0,0,0,0,0,0
12.0037422180176,12.0515441894531,12.0997295379639,12.1483011245728,12.1972646713257,12.2466239929199,12.2963848114014,12.3465518951416,12.3971290588379,12.4481229782104,12.4995384216309,12.5513801574707,12.6036529541016,12.6563634872437,12.7095165252686,12.7631187438965,12.8171739578247,12.8716897964478,12.9266710281372,12.9821243286133,13.0380544662476,13.0944700241089,13.1513748168945,13.208776473999,13.2666816711426,13.3250970840454,13.3840284347534,13.4434843063354,13.5034704208374,13.5639934539795,13.6250619888306,13.6866846084595,13.7488660812378,13.8116140365601,13.8749380111694,13.9388446807861,14.003342628479,14.0684452056885,14.1341562271118,14.2004795074463,14.2674283981323,14.3350105285645,14.4032373428345,14.4721155166626,14.541672706604,14.6119556427002,14.6829214096069,14.7545261383057,14.8267259597778,14.8996391296387,14.97340965271,15.0478601455688,15.1230554580688,15.1990060806274,15.2757234573364,15.3532190322876,15.4315052032471,15.5105934143066,15.5904960632324,15.6712274551392,15.7527980804443,15.835223197937,17.8674621582031,17.9618816375732,18.0573635101318,18.1538639068604,18.2514038085938,18.3499965667725,18.4496593475342,0,0,0,0,0,0,0,0,0,0,0,0,0,0,0,0,0,0,0,0,0,0,0,0,0,0,0,0,0,0,0,0,0,0,0,0,0,0,0,0,0,0,0,0,0,0,0,0,0,0,0,0,0,0,0,0,0,0,0,0,0,0,0,0,0,0,0,0,0,0,0,0,0,0,0,0,0,0,0,0,0,0,0,0,0,0,0,0,0,0,0,0,0,0,0,0,0,0,0,0,0,0,0,0,0,0,0,0,0,0,0,0,0,0,0,0,0,0,0,0,0,0,0,0,0,0,0,0,0,0,0,0,0,0,0,0,0,0,0,0,0,0,0,0,0,0,0,0,0,0,0,0,0,0,0,0,0,0,0,0,0,0,0,0,0,0,0,0,0,0,0,0,0,0,0,0,0,0,0,0,0,0,0,0,0,0,0,0,0,0,0,0,0,0,0,0,0,0,0,0,0,0,0,0,0,0,0,0,0,0,0,0,0,0,0,0,0,0,0,0,0,0,0,0,0,0,0,0,0,0,0,0,0,0,0,0,0,0,0,0,0,0,0,0,0,0,0,0,0,0,0,0,0,0,0,0,0,0,0,0,0,0,0,0,0,0,0,0,0,0,0,0,0,0,0,0,0,0,0,0,0,0,0,0,0,0,0,0,0,0,0,0,0,0,0,0,0,0,0,0,0,0,0,0,0,0,0,0,0,0,0,0,0,0,0,0,0,0,0,0,0
12.003604888916,12.0514059066772,12.0995893478394,12.1481609344482,12.1971225738525,12.2464809417725,12.2962408065796,12.3464059829712,12.3969821929932,12.4479751586914,12.4993886947632,12.5512294769287,12.6035013198853,12.656210899353,12.7093629837036,12.7629632949829,12.8170175552368,12.8715314865112,12.9265117645264,12.9819631576538,13.0378923416138,13.0943059921265,13.1512098312378,13.208610534668,13.2665138244629,13.3249273300171,13.3838577270508,13.4433116912842,13.5032958984375,13.5638179779053,13.624885559082,13.6865043640137,13.748685836792,13.8114328384399,13.8747549057007,13.9386596679688,14.00315284729,14.0682535171509,14.1339616775513,14.2002868652344,14.2672338485718,14.3348150253296,14.4030389785767,14.4719161987305,14.5414867401123,14.6117677688599,14.682731628418,14.7543048858643,14.8265037536621,14.899435043335,14.9731960296631,15.0476446151733,15.1228380203247,15.1987857818604,15.2755012512207,15.3529949188232,15.4312782287598,15.5103645324707,15.5902652740479,15.6709928512573,15.7525615692139,15.8349838256836,17.8671760559082,17.9616031646729,18.0570812225342,18.1535816192627,18.2511177062988,18.3497066497803,18.4493770599365,0,0,0,0,0,0,0,0,0,0,0,0,0,0,0,0,0,0,0,0,0,0,0,0,0,0,0,0,0,0,0,0,0,0,0,0,0,0,0,0,0,0,0,0,0,0,0,0,0,0,0,0,0,0,0,0,0,0,0,0,0,0,0,0,0,0,0,0,0,0,0,0,0,0,0,0,0,0,0,0,0,0,0,0,0,0,0,0,0,0,0,0,0,0,0,0,0,0,0,0,0,0,0,0,0,0,0,0,0,0,0,0,0,0,0,0,0,0,0,0,0,0,0,0,0,0,0,0,0,0,0,0,0,0,0,0,0,0,0,0,0,0,0,0,0,0,0,0,0,0,0,0,0,0,0,0,0,0,0,0,0,0,0,0,0,0,0,0,0,0,0,0,0,0,0,0,0,0,0,0,0,0,0,0,0,0,0,0,0,0,0,0,0,0,0,0,0,0,0,0,0,0,0,0,0,0,0,0,0,0,0,0,0,0,0,0,0,0,0,0,0,0,0,0,0,0,0,0,0,0,0,0,0,0,0,0,0,0,0,0,0,0,0,0,0,0,0,0,0,0,0,0,0,0,0,0,0,0,0,0,0,0,0,0,0,0,0,0,0,0,0,0,0,0,0,0,0,0,0,0,0,0,0,0,0,0,0,0,0,0,0,0,0,0,0,0,0,0,0,0,0,0,0,0,0,0,0,0,0,0,0,0,0,0,0,0,0,0,0,0,0
12.0034666061401,12.0512676239014,12.0994501113892,12.1480197906494,12.1969804763794,12.246337890625,12.2960958480835,12.3462600708008,12.3968362808228,12.4478273391724,12.4992399215698,12.5510787963867,12.6033496856689,12.6560573577881,12.7092084884644,12.7628078460693,12.8168601989746,12.8713731765747,12.9263525009155,12.9818019866943,13.03773021698,13.094141960144,13.1510448455811,13.2084436416626,13.2663459777832,13.3247585296631,13.3836870193481,13.4431390762329,13.5031223297119,13.5636425018311,13.6247081756592,13.6863260269165,13.7485055923462,13.8112506866455,13.8745708465576,13.9384746551514,14.0029697418213,14.0680618286133,14.133768081665,14.2000913619995,14.2670392990112,14.3346185684204,14.4028415679932,14.471715927124,14.5413007736206,14.6115798950195,14.682541847229,14.7540836334229,14.8262805938721,14.8992309570312,14.9729824066162,15.0474290847778,15.1226196289062,15.1985664367676,15.275279045105,15.3527698516846,15.4310512542725,15.5101346969604,15.590033531189,15.6707592010498,15.7523260116577,15.8347454071045,17.8668899536133,17.9613265991211,18.0568008422852,18.1532974243164,18.2508296966553,18.3494167327881,18.449104309082,0,0,0,0,0,0,0,0,0,0,0,0,0,0,0,0,0,0,0,0,0,0,0,0,0,0,0,0,0,0,0,0,0,0,0,0,0,0,0,0,0,0,0,0,0,0,0,0,0,0,0,0,0,0,0,0,0,0,0,0,0,0,0,0,0,0,0,0,0,0,0,0,0,0,0,0,0,0,0,0,0,0,0,0,0,0,0,0,0,0,0,0,0,0,0,0,0,0,0,0,0,0,0,0,0,0,0,0,0,0,0,0,0,0,0,0,0,0,0,0,0,0,0,0,0,0,0,0,0,0,0,0,0,0,0,0,0,0,0,0,0,0,0,0,0,0,0,0,0,0,0,0,0,0,0,0,0,0,0,0,0,0,0,0,0,0,0,0,0,0,0,0,0,0,0,0,0,0,0,0,0,0,0,0,0,0,0,0,0,0,0,0,0,0,0,0,0,0,0,0,0,0,0,0,0,0,0,0,0,0,0,0,0,0,0,0,0,0,0,0,0,0,0,0,0,0,0,0,0,0,0,0,0,0,0,0,0,0,0,0,0,0,0,0,0,0,0,0,0,0,0,0,0,0,0,0,0,0,0,0,0,0,0,0,0,0,0,0,0,0,0,0,0,0,0,0,0,0,0,0,0,0,0,0,0,0,0,0,0,0,0,0,0,0,0,0,0,0,0,0,0,0,0,0,0,0,0,0,0,0,0,0,0,0,0,0,0,0,0,0,0
12.0033292770386,12.0511293411255,12.099310874939,12.1478786468506,12.1968383789062,12.2461948394775,12.2959518432617,12.3461151123047,12.396689414978,12.4476795196533,12.4990911483765,12.550929069519,12.6031980514526,12.6559047698975,12.7090539932251,12.7626523971558,12.8167037963867,12.8712158203125,12.9261932373047,12.9816417694092,13.0375680923462,13.0939788818359,13.1508798599243,13.2082777023315,13.2661781311035,13.3245887756348,13.3835163116455,13.4429664611816,13.502947807312,13.5634670257568,13.6245307922363,13.6861476898193,13.7483234405518,13.8110685348511,13.8743867874146,13.938289642334,14.0027828216553,14.0678758621216,14.1335744857788,14.199896812439,14.2668428421021,14.3344230651855,14.4026432037354,14.4715166091919,14.5411148071289,14.6113920211792,14.68235206604,14.7538633346558,14.826057434082,14.8990268707275,14.9727687835693,15.0472135543823,15.1224021911621,15.1983461380005,15.2750568389893,15.3525457382202,15.4308242797852,15.5099058151245,15.5898017883301,15.6705255508423,15.7520895004272,15.8345069885254,17.8666038513184,17.9610481262207,18.0565204620361,18.1530132293701,18.2505435943604,18.3491458892822,18.4488162994385,0,0,0,0,0,0,0,0,0,0,0,0,0,0,0,0,0,0,0,0,0,0,0,0,0,0,0,0,0,0,0,0,0,0,0,0,0,0,0,0,0,0,0,0,0,0,0,0,0,0,0,0,0,0,0,0,0,0,0,0,0,0,0,0,0,0,0,0,0,0,0,0,0,0,0,0,0,0,0,0,0,0,0,0,0,0,0,0,0,0,0,0,0,0,0,0,0,0,0,0,0,0,0,0,0,0,0,0,0,0,0,0,0,0,0,0,0,0,0,0,0,0,0,0,0,0,0,0,0,0,0,0,0,0,0,0,0,0,0,0,0,0,0,0,0,0,0,0,0,0,0,0,0,0,0,0,0,0,0,0,0,0,0,0,0,0,0,0,0,0,0,0,0,0,0,0,0,0,0,0,0,0,0,0,0,0,0,0,0,0,0,0,0,0,0,0,0,0,0,0,0,0,0,0,0,0,0,0,0,0,0,0,0,0,0,0,0,0,0,0,0,0,0,0,0,0,0,0,0,0,0,0,0,0,0,0,0,0,0,0,0,0,0,0,0,0,0,0,0,0,0,0,0,0,0,0,0,0,0,0,0,0,0,0,0,0,0,0,0,0,0,0,0,0,0,0,0,0,0,0,0,0,0,0,0,0,0,0,0,0,0,0,0,0,0,0,0,0,0,0,0,0,0,0,0,0,0,0,0,0,0,0,0,0,0,0,0,0,0,0,0
12.003191947937,12.0509901046753,12.0991706848145,12.1477375030518,12.1966962814331,12.2460517883301,12.2958078384399,12.3459701538086,12.3965425491333,12.4475317001343,12.4989414215088,12.5507783889771,12.6030464172363,12.6557521820068,12.7089004516602,12.7624969482422,12.8165473937988,12.871057510376,12.9260330200195,12.9814805984497,13.0374059677124,13.0938148498535,13.1507148742676,13.2081108093262,13.2660102844238,13.3244190216064,13.3833456039429,13.4427938461304,13.5027742385864,13.5632915496826,13.6243534088135,13.6859683990479,13.748143196106,13.8108854293823,13.8742036819458,13.9381036758423,14.0025959014893,14.0676870346069,14.1333856582642,14.1997013092041,14.2666463851929,14.3342266082764,14.4024457931519,14.4713258743286,14.5409288406372,14.6112041473389,14.682149887085,14.7536420822144,14.825834274292,14.8988227844238,14.9725551605225,15.0469980239868,15.1221837997437,15.1981258392334,15.2748346328735,15.3523206710815,15.4305973052979,15.5096769332886,15.5895700454712,15.6702919006348,15.7518529891968,15.834267616272,17.8663177490234,17.9607715606689,18.0562400817871,18.1527309417725,18.2502632141113,18.348876953125,18.4485130310059,19.8861179351807,19.8865737915039,19.8870277404785,19.8874835968018,19.8879375457764,19.8883895874023,19.8888454437256,19.8893070220947,19.8897590637207,19.8902130126953,19.8906707763672,19.8911266326904,19.8915824890137,19.8920383453369,19.8924942016602,19.8929481506348,19.893404006958,19.8938598632812,19.8943157196045,19.8947715759277,19.895227432251,19.8956832885742,19.8961391448975,19.8965969085693,19.8970508575439,19.8975086212158,19.8979625701904,19.8984184265137,19.8988742828369,19.8993301391602,19.8997859954834,19.9002418518066,19.9006996154785,19.9011554718018,19.901611328125,19.9020671844482,19.9025230407715,19.9029788970947,19.903434753418,19.9038925170898,19.9043483734131,19.9048042297363,19.9052600860596,19.9057159423828,19.9061737060547,19.9066295623779,19.9070854187012,19.9075412750244,19.9079990386963,19.9084548950195,19.9089107513428,19.9093685150146,19.9098243713379,19.9102802276611,19.9107360839844,19.9111938476562,19.9116497039795,19.9121055603027,19.9125633239746,19.9130191802979,19.9134769439697,19.913932800293,19.9143905639648,19.9148464202881,19.91530418396,19.9157600402832,19.9162158966064,19.9166736602783,19.9171295166016,19.9175872802734,19.9180431365967,19.9185009002686,19.9189567565918,19.9194145202637,19.9198722839355,19.9203281402588,19.9207859039307,19.9212417602539,19.9216995239258,19.9221572875977,19.9226131439209,19.9230709075928,19.923526763916,19.9239845275879,19.9244422912598,19.924898147583,19.9253559112549,19.9258136749268,19.9262714385986,19.9267272949219,19.9271869659424,19.9276447296143,19.9281005859375,19.9285583496094,19.9290161132812,19.9294738769531,19.929931640625,19.9303894042969,19.9308471679688,19.9313049316406,19.9317626953125,19.9322204589844,19.9326782226562,19.9331359863281,19.93359375,19.9340515136719,19.9345092773438,19.9349670410156,19.9354248046875,19.9358825683594,19.9363403320312,19.9368000030518,19.9372577667236,19.9377136230469,19.9381732940674,19.9386310577393,19.9390888214111,19.939546585083,19.9400043487549,19.9404640197754,19.9409217834473,19.9413795471191,19.941837310791,19.9422950744629,19.9427547454834,19.9432125091553,19.9436702728271,19.9441299438477,19.9445877075195,19.9450454711914,19.9455032348633,19.9459609985352,19.9464206695557,19.9468784332275,19.947338104248,19.9477958679199,19.9482555389404,19.9487133026123,19.9491710662842,19.9496307373047,19.9500885009766,19.9505462646484,19.9510059356689,19.9514636993408,19.9519233703613,19.9523830413818,19.9528408050537,19.9532985687256,19.9537582397461,19.9542179107666,19.9546756744385,19.9551334381104,19.9555931091309,19.9560527801514,19.9565105438232,19.9569702148438,19.9574279785156,19.9578876495361,19.9583473205566,19.9588069915771,19.959264755249,19.9597244262695,19.9601821899414,19.9606418609619,19.9610996246338,19.9615612030029,19.9620189666748,19.9624786376953,19.9629364013672,19.9633960723877,19.9638557434082,19.9643154144287,19.9647731781006,19.9652328491211,19.9656925201416,19.9661521911621,19.9666118621826,19.9670715332031,19.967529296875,19.9679889678955,19.968448638916,19.9689083099365,19.969367980957,19.9698276519775,19.970287322998,19.9707469940186,19.9712066650391,19.9716663360596,19.9721260070801,19.972583770752,19.9730453491211,19.973503112793,19.9739627838135,19.9744243621826,19.9748840332031,19.9753437042236,19.9758033752441,19.9762630462646,19.9767208099365,19.9771823883057,19.9776420593262,19.9781017303467,19.9785614013672,19.9790229797363,19.9794826507568,19.9799404144287,19.9804000854492,19.9808616638184,19.9813213348389,19.9817810058594,19.9822425842285,19.982702255249,19.9831619262695,19.98362159729,19.9840812683105,19.9845428466797,19.9850025177002,19.9854621887207,19.9859237670898,19.9863834381104,19.9868431091309,19.9873027801514,19.9877643585205,19.988224029541,19.9886856079102,19.9891452789307,19.9896049499512,19.9900665283203,19.9905281066895,19.99098777771,19.9914455413818,19.991907119751,19.9923686981201,19.9928283691406,19.9932899475098,19.9937496185303,19.9942092895508,19.9946708679199,19.9951324462891,19.9955921173096,19.9960536956787,19.9965133666992,19.9969749450684,19.9974346160889,19.997896194458,19.9983577728271,19.9988174438477,19.9992771148682,19.9997386932373,0,0,0,0,0,0,0,0,0,0,0,0,0,0,0,0,0,0,0,0,0,0,0,0,0,0,0,0,0,0,0,0,0,0,0,0,0,0,0,0,0,0,0,0,0,0,0,0,0,0,0,0,0,0,0,0,0,0,0,0,0,0,0,0,0,0,0,0,0,0,0,0
12.0030546188354,12.0508518218994,12.0990314483643,12.1475973129272,12.1965551376343,12.2459087371826,12.2956638336182,12.3458242416382,12.3963956832886,12.4473838806152,12.4987926483154,12.5506277084351,12.60289478302,12.6555995941162,12.7087459564209,12.7623414993286,12.8163909912109,12.8708992004395,12.9258737564087,12.9813194274902,13.0372438430786,13.0936517715454,13.1505498886108,13.2079439163208,13.2658424377441,13.3242502212524,13.3831739425659,13.4426221847534,13.5025997161865,13.5631160736084,13.6241769790649,13.6857900619507,13.7479629516602,13.8107032775879,13.8740205764771,13.9379186630249,14.0024089813232,14.0674982070923,14.1331958770752,14.1995058059692,14.2664489746094,14.3340263366699,14.402247428894,14.4711418151855,14.5407428741455,14.6110162734985,14.6819305419922,14.7534217834473,14.825611114502,14.8986196517944,14.9723415374756,15.0467824935913,15.1219663619995,15.1979064941406,15.2746124267578,15.3520965576172,15.4303712844849,15.5094470977783,15.5893392562866,15.6700572967529,15.7516164779663,15.8340291976929,17.8660316467285,17.9604930877686,18.0559597015381,18.1524467468262,18.2499980926514,18.3486080169678,18.4482116699219,19.6797161102295,19.6801624298096,19.6806087493896,19.6810550689697,19.6815032958984,19.6819438934326,19.6823902130127,19.6828384399414,19.6832828521729,19.6837272644043,19.6841793060303,19.6846237182617,19.6850700378418,19.6855163574219,19.685962677002,19.686408996582,19.6868553161621,19.6873016357422,19.6877479553223,19.6881942749023,19.6886405944824,19.6890869140625,19.6895332336426,19.6899795532227,19.6904258728027,19.6908740997314,19.6913185119629,19.6917667388916,19.6922130584717,19.6926593780518,19.6931056976318,19.6935520172119,19.693998336792,19.6944465637207,19.6948928833008,19.6953392028809,19.6957855224609,19.696231842041,19.6966781616211,19.6971263885498,19.6975727081299,19.69801902771,19.6984672546387,19.6989135742188,19.6993598937988,19.6998062133789,19.7002544403076,19.7006988525391,19.7011470794678,19.7015933990479,19.7020416259766,19.7024879455566,19.7029361724854,19.7033824920654,19.7038288116455,19.7042770385742,19.7047233581543,19.705171585083,19.7056179046631,19.7060642242432,19.7065124511719,19.706958770752,19.7074069976807,19.7078533172607,19.7082996368408,19.7087478637695,19.7091960906982,19.7096424102783,19.7100887298584,19.7105388641357,19.7109851837158,19.7114334106445,19.7118797302246,19.7123279571533,19.7127742767334,19.7132225036621,19.7136688232422,19.7141170501709,19.7145652770996,19.7150135040283,19.7154598236084,19.7159080505371,19.7163543701172,19.7168025970459,19.7172508239746,19.7176990509033,19.7181453704834,19.7185935974121,19.7190418243408,19.7194881439209,19.7199382781982,19.7203845977783,19.720832824707,19.7212810516357,19.7217292785645,19.7221775054932,19.7226257324219,19.7230739593506,19.7235221862793,19.723970413208,19.7244186401367,19.7248668670654,19.7253150939941,19.7257633209229,19.7262115478516,19.7266597747803,19.727108001709,19.7275562286377,19.728006362915,19.7284545898438,19.7289028167725,19.7293510437012,19.7297992706299,19.7302474975586,19.7306957244873,19.7311458587646,19.7315940856934,19.7320423126221,19.7324905395508,19.7329387664795,19.7333869934082,19.7338371276855,19.7342853546143,19.734733581543,19.7351818084717,19.735631942749,19.7360801696777,19.7365283966064,19.7369785308838,19.7374267578125,19.7378749847412,19.7383251190186,19.7387733459473,19.739221572876,19.7396717071533,19.740119934082,19.7405700683594,19.7410182952881,19.7414665222168,19.7419166564941,19.7423648834229,19.7428150177002,19.7432651519775,19.7437133789062,19.744161605835,19.7446117401123,19.745059967041,19.7455101013184,19.7459583282471,19.7464084625244,19.7468585968018,19.7473068237305,19.7477569580078,19.7482051849365,19.7486553192139,19.7491054534912,19.7495536804199,19.7500038146973,19.750452041626,19.7509021759033,19.7513523101807,19.7518005371094,19.7522506713867,19.7527008056641,19.7531490325928,19.7535991668701,19.7540493011475,19.7544994354248,19.7549476623535,19.7553977966309,19.7558479309082,19.7562961578369,19.7567481994629,19.7571964263916,19.7576465606689,19.7580966949463,19.7585468292236,19.7589950561523,19.7594470977783,19.759895324707,19.7603454589844,19.7607955932617,19.7612457275391,19.7616958618164,19.7621459960938,19.7625942230225,19.7630462646484,19.7634963989258,19.7639446258545,19.7643947601318,19.7648448944092,19.7652950286865,19.7657451629639,19.7661952972412,19.7666454315186,19.7670955657959,19.7675476074219,19.7679977416992,19.7684459686279,19.7688980102539,19.7693481445312,19.7697982788086,19.7702484130859,19.7706985473633,19.7711486816406,19.7716007232666,19.7720489501953,19.7725009918213,19.7729511260986,19.773401260376,19.7738513946533,19.7743015289307,19.7747535705566,19.775203704834,19.7756538391113,19.7761039733887,19.7765560150146,19.777006149292,19.7774562835693,19.7779083251953,19.7783584594727,19.77880859375,19.7792587280273,19.7797088623047,19.7801609039307,19.780611038208,19.781063079834,19.7815132141113,19.7819652557373,19.7824153900146,19.7828674316406,19.783317565918,19.7837677001953,19.7842197418213,19.7846698760986,19.7851219177246,19.785572052002,19.7860240936279,19.7864742279053,19.7869262695312,19.7873764038086,19.7878284454346,19.7882785797119,19.7887306213379,19.7891807556152,19.7896327972412,19.7900848388672,19.7905349731445,19.7909870147705,19.7914371490479,19.7918891906738,19.7923412322998,19.7927913665771,19.7932434082031,19.7936954498291,19.7941455841064,19.7945976257324,19.7950496673584,19.7955017089844,19.7959518432617,19.7964038848877,19.7968559265137,19.797306060791,19.797758102417,19.798210144043,19.7986621856689,19.7991123199463,19.7995643615723,19.8000164031982,19.8004684448242,19.8009185791016,19.8013725280762,19.8018226623535,19.8022766113281,19.8027267456055,19.8031787872314,19.8036308288574,19.8040828704834,19.8045349121094,19.8049869537354,19.8054389953613,19.8058910369873,19.8063430786133,19.8067951202393,19.8072471618652,19.8076992034912,19.8081512451172,19.8086032867432,19.8090553283691,19.8095073699951,19.8099594116211,19.8104114532471,19.810863494873,19.811315536499,19.811767578125,19.812219619751,19.8126735687256,19.8131237030029,19.8135776519775,19.8140296936035,19.8144817352295,19.8149337768555,19.8153877258301,19.8158397674561,19.816291809082,19.816743850708,19.817195892334,19.81764793396,19.8181018829346,19.8185539245605,19.8190059661865,19.8194580078125,19.8199119567871,19.8203639984131,19.8208160400391,19.8212699890137,19.8217220306396,19.8221740722656,19.8226280212402,19.8230800628662,19.8235340118408
12.0029172897339,12.0507135391235,12.0988912582397,12.1474561691284,12.1964130401611,12.2457656860352,12.2955188751221,12.3456792831421,12.3962497711182,12.4472360610962,12.4986438751221,12.5504779815674,12.6027431488037,12.6554460525513,12.708592414856,12.762186050415,12.8162336349487,12.8707418441772,12.9257144927979,12.9811592102051,13.0370817184448,13.093487739563,13.1503849029541,13.2077779769897,13.2656745910645,13.3240804672241,13.3830032348633,13.4424495697021,13.5024261474609,13.5629405975342,13.6239995956421,13.6856107711792,13.7477827072144,13.8105211257935,13.8738346099854,13.9377336502075,14.0022220611572,14.0673093795776,14.1330051422119,14.1993169784546,14.4289121627808,14.4318752288818,14.4348392486572,14.4709568023682,14.5405559539795,14.6108283996582,14.6817121505737,14.7532005310059,14.8253879547119,14.8984155654907,14.9721279144287,15.0465660095215,15.1217489242554,15.1976861953735,15.2743902206421,15.3518714904785,15.4301443099976,15.5092182159424,15.5891075134277,15.6698236465454,15.7513799667358,15.8337898254395,16.094331741333,16.0990619659424,18.0556793212891,18.1521797180176,18.2497329711914,18.3483409881592,18.4479084014893,19.4775581359863,19.4779949188232,19.4784336090088,19.4788684844971,19.4793090820312,19.4797439575195,19.4801826477051,19.4806175231934,19.4810543060303,19.4814891815186,19.4819297790527,19.482364654541,19.4828033447266,19.4832382202148,19.4836769104004,19.4841136932373,19.4845504760742,19.4849872589111,19.4854259490967,19.4858627319336,19.4862995147705,19.4867382049561,19.487174987793,19.4876117706299,19.4880485534668,19.4884872436523,19.4889240264893,19.4893608093262,19.4897994995117,19.4902362823486,19.4906730651855,19.4911117553711,19.491548538208,19.4919853210449,19.4924240112305,19.4928607940674,19.4932975769043,19.4937362670898,19.4941730499268,19.4946117401123,19.4950485229492,19.4954853057861,19.4959239959717,19.4963626861572,19.4967994689941,19.4972381591797,19.4976749420166,19.4981136322021,19.4985504150391,19.498987197876,19.4994258880615,19.4998626708984,19.500301361084,19.5007400512695,19.5011787414551,19.501615524292,19.5020542144775,19.5024909973145,19.5029296875,19.5033664703369,19.5038051605225,19.504243850708,19.5046825408936,19.5051193237305,19.505558013916,19.5059967041016,19.5064353942871,19.506872177124,19.5073108673096,19.5077495574951,19.508186340332,19.5086269378662,19.5090637207031,19.5095024108887,19.5099391937256,19.5103797912598,19.5108165740967,19.5112552642822,19.5116939544678,19.5121326446533,19.5125713348389,19.5130100250244,19.5134468078613,19.5138874053955,19.5143241882324,19.514762878418,19.5152015686035,19.5156402587891,19.5160789489746,19.5165176391602,19.5169563293457,19.5173950195312,19.5178318023682,19.5182723999023,19.5187110900879,19.5191497802734,19.519588470459,19.5200271606445,19.5204658508301,19.5209045410156,19.5213451385498,19.5217838287354,19.5222225189209,19.5226631164551,19.5231018066406,19.5235404968262,19.5239791870117,19.5244197845459,19.5248584747314,19.525297164917,19.5257377624512,19.5261764526367,19.5266151428223,19.5270557403564,19.527494430542,19.5279331207275,19.5283737182617,19.5288124084473,19.5292510986328,19.529691696167,19.5301303863525,19.5305690765381,19.5310096740723,19.5314483642578,19.531888961792,19.5323276519775,19.5327682495117,19.5332069396973,19.5336475372314,19.534086227417,19.5345249176025,19.5349655151367,19.5354061126709,19.5358448028564,19.5362854003906,19.5367240905762,19.5371646881104,19.5376033782959,19.5380439758301,19.5384845733643,19.5389232635498,19.539363861084,19.5398044586182,19.5402431488037,19.5406837463379,19.5411243438721,19.5415630340576,19.5420036315918,19.5424423217773,19.5428829193115,19.5433235168457,19.5437641143799,19.5442047119141,19.5446434020996,19.5450839996338,19.545524597168,19.5459651947021,19.5464038848877,19.5468444824219,19.5472850799561,19.5477256774902,19.5481643676758,19.5486068725586,19.5490474700928,19.5494861602783,19.5499267578125,19.5503673553467,19.5508079528809,19.551248550415,19.5516891479492,19.5521297454834,19.5525684356689,19.5530109405518,19.5534515380859,19.5538902282715,19.5543308258057,19.5547733306885,19.555212020874,19.5556526184082,19.556095123291,19.5565357208252,19.5569744110107,19.5574169158936,19.5578575134277,19.5582981109619,19.5587387084961,19.5591793060303,19.5596199035645,19.5600605010986,19.5605010986328,19.560941696167,19.5613842010498,19.561824798584,19.5622653961182,19.5627059936523,19.5631465911865,19.5635890960693,19.5640296936035,19.5644702911377,19.5649108886719,19.5653533935547,19.5657939910889,19.566234588623,19.5666751861572,19.56711769104,19.5675582885742,19.5679988861084,19.5684394836426,19.5688819885254,19.5693225860596,19.5697631835938,19.5702056884766,19.5706462860107,19.5710887908936,19.5715293884277,19.5719699859619,19.5724105834961,19.5728530883789,19.5732955932617,19.5737361907959,19.5741786956787,19.5746192932129,19.5750598907471,19.5755023956299,19.5759429931641,19.5763854980469,19.5768280029297,19.5772686004639,19.577709197998,19.5781517028809,19.578592300415,19.5790348052979,19.579475402832,19.5799179077148,19.5803604125977,19.5808029174805,19.5812435150146,19.5816841125488,19.5821266174316,19.5825691223145,19.5830097198486,19.5834522247314,19.5838947296143,19.5843353271484,19.5847778320312,19.5852203369141,19.5856628417969,19.5861034393311,19.5865459442139,19.5869884490967,19.5874309539795,19.5878734588623,19.5883140563965,19.5887565612793,19.5891990661621,19.5896415710449,19.5900840759277,19.5905265808105,19.5909671783447,19.5914096832275,19.5918521881104,19.5922946929932,19.592737197876,19.5931797027588,19.5936222076416,19.5940647125244,19.5945053100586,19.59494972229,19.5953903198242,19.595832824707,19.5962753295898,19.5967178344727,19.5971603393555,19.5976028442383,19.5980453491211,19.5984878540039,19.5989303588867,19.5993728637695,19.5998153686523,19.6002597808838,19.600700378418,19.6011428833008,19.6015872955322,19.602029800415,19.6024723052979,19.6029148101807,19.6033573150635,19.6037998199463,19.6042423248291,19.6046848297119,19.6051292419434,19.6055717468262,19.606014251709,19.6064586639404,19.6068992614746,19.6073436737061,19.6077861785889,19.6082286834717,19.6086730957031,19.6091156005859,19.6095581054688,19.6100025177002,19.610445022583,19.6108875274658,19.6113300323486,19.6117744445801,19.6122169494629,19.6126613616943,19.6131038665771,19.61354637146,19.6139907836914,19.6144332885742,19.614875793457,19.6153202056885,19.6157627105713,19.6162071228027,19.6166515350342,19.617094039917,19.6175365447998,19.6179809570312,19.6184234619141
12.0027799606323,12.0505743026733,12.0987520217896,12.1473150253296,12.196270942688,12.2456226348877,12.2953748703003,12.3455333709717,12.3961029052734,12.4470882415771,12.4984941482544,12.5503273010254,12.6025924682617,12.6552934646606,12.7084379196167,12.7620306015015,12.8160772323608,12.8705835342407,12.925555229187,12.9809980392456,13.036919593811,13.0933246612549,13.1502199172974,13.2076110839844,13.2655067443848,13.3239107131958,13.3828325271606,13.4422769546509,13.5022525787354,13.56276512146,13.6238231658936,13.685432434082,13.7476024627686,13.810338973999,13.8736515045166,13.9375467300415,14.0020351409912,14.0671215057373,14.1328153610229,14.4750967025757,14.4780826568604,14.4810695648193,14.4840574264526,14.4870462417603,14.5403699874878,14.6106405258179,14.6814937591553,14.7529802322388,14.8251762390137,14.898211479187,14.9719142913818,15.046350479126,15.1215305328369,15.1974658966064,15.2741680145264,15.3516473770142,15.4299173355103,15.5089893341064,15.5888757705688,15.6695899963379,15.7511444091797,15.8335514068604,16.0140476226807,16.098804473877,18.0554027557373,18.1519165039062,18.2494659423828,18.348072052002,19.2790832519531,19.2795104980469,19.2799415588379,19.2803688049316,19.2807922363281,19.2812213897705,19.2816486358643,19.282075881958,19.2825088500977,19.2829341888428,19.2833652496338,19.2837963104248,19.2842216491699,19.2846488952637,19.2850780487061,19.2855052947998,19.2859344482422,19.2863616943359,19.2867908477783,19.2872180938721,19.2876472473145,19.2880764007568,19.2885055541992,19.288932800293,19.2893619537354,19.2897891998291,19.2902183532715,19.2906475067139,19.2910747528076,19.29150390625,19.2919311523438,19.2923603057861,19.2927894592285,19.2932186126709,19.2936458587646,19.294075012207,19.2945041656494,19.2949333190918,19.2953605651855,19.2957897186279,19.2962188720703,19.2966480255127,19.2970771789551,19.2975063323975,19.2979335784912,19.2983627319336,19.298791885376,19.2992210388184,19.2996501922607,19.3000774383545,19.3005065917969,19.3009357452393,19.3013648986816,19.301794052124,19.3022232055664,19.3026523590088,19.3030815124512,19.3035106658936,19.3039398193359,19.3043689727783,19.3047981262207,19.3052272796631,19.3056564331055,19.3060855865479,19.3065147399902,19.3069438934326,19.307373046875,19.3078022003174,19.3082313537598,19.3086605072021,19.3090915679932,19.3095188140869,19.3099498748779,19.3103790283203,19.3108081817627,19.3112373352051,19.3116664886475,19.3120956420898,19.3125247955322,19.3129558563232,19.3133850097656,19.313814163208,19.3142433166504,19.3146743774414,19.3151035308838,19.3155326843262,19.3159618377686,19.3163928985596,19.316822052002,19.3172512054443,19.3176803588867,19.3181114196777,19.3185405731201,19.3189697265625,19.3194007873535,19.3198299407959,19.3202610015869,19.3206882476807,19.3211193084717,19.3215503692627,19.3219795227051,19.3224105834961,19.3228397369385,19.3232707977295,19.3236999511719,19.3241310119629,19.3245601654053,19.3249912261963,19.3254203796387,19.3258514404297,19.3262825012207,19.3267116546631,19.3271427154541,19.3275737762451,19.3280048370361,19.3284339904785,19.3288650512695,19.3292942047119,19.3297252655029,19.3301563262939,19.330587387085,19.3310165405273,19.3314476013184,19.3318786621094,19.3323078155518,19.3327388763428,19.3331699371338,19.3336009979248,19.3340301513672,19.3344612121582,19.3348922729492,19.3353233337402,19.3357543945312,19.3361854553223,19.3366165161133,19.3370456695557,19.3374767303467,19.3379077911377,19.3383388519287,19.3387699127197,19.3392009735107,19.3396320343018,19.3400630950928,19.3404941558838,19.3409252166748,19.3413562774658,19.3417873382568,19.3422183990479,19.3426494598389,19.3430805206299,19.3435115814209,19.3439426422119,19.3443737030029,19.3448047637939,19.345235824585,19.345666885376,19.346097946167,19.346529006958,19.346960067749,19.3473930358887,19.3478240966797,19.3482551574707,19.3486862182617,19.3491172790527,19.3495483398438,19.3499794006348,19.3504104614258,19.3508434295654,19.3512744903564,19.3517074584961,19.3521385192871,19.3525695800781,19.3530006408691,19.3534336090088,19.3538646697998,19.3542957305908,19.3547267913818,19.3551597595215,19.3555908203125,19.3560218811035,19.3564548492432,19.3568859100342,19.3573169708252,19.3577480316162,19.3581809997559,19.3586120605469,19.3590431213379,19.3594760894775,19.3599071502686,19.3603401184082,19.3607711791992,19.3612041473389,19.3616352081299,19.3620681762695,19.3624992370605,19.3629322052002,19.3633632659912,19.3637943267822,19.3642272949219,19.3646583557129,19.3650913238525,19.3655223846436,19.3659553527832,19.3663864135742,19.3668212890625,19.3672523498535,19.3676834106445,19.3681163787842,19.3685474395752,19.3689804077148,19.3694133758545,19.3698463439941,19.3702793121338,19.3707103729248,19.3711433410645,19.3715763092041,19.3720073699951,19.3724384307861,19.3728733062744,19.3733043670654,19.3737373352051,19.3741683959961,19.3746032714844,19.3750343322754,19.375467300415,19.3759002685547,19.3763332366943,19.3767642974854,19.377197265625,19.3776302337646,19.3780632019043,19.3784942626953,19.3789291381836,19.3793601989746,19.3797931671143,19.3802261352539,19.3806591033936,19.3810920715332,19.3815250396729,19.3819580078125,19.3823909759521,19.3828220367432,19.3832550048828,19.3836898803711,19.3841209411621,19.3845558166504,19.38498878479,19.3854198455811,19.3858528137207,19.3862857818604,19.38671875,19.3871517181396,19.3875846862793,19.3880195617676,19.3884525299072,19.3888854980469,19.3893184661865,19.3897514343262,19.3901844024658,19.3906173706055,19.3910522460938,19.3914852142334,19.391918182373,19.3923511505127,19.3927841186523,19.393217086792,19.3936519622803,19.3940849304199,19.3945178985596,19.3949508666992,19.3953838348389,19.3958187103271,19.3962516784668,19.3966846466064,19.3971176147461,19.3975524902344,19.397985458374,19.3984184265137,19.3988513946533,19.3992862701416,19.3997211456299,19.4001541137695,19.4005870819092,19.4010219573975,19.4014549255371,19.4018878936768,19.4023208618164,19.4027576446533,19.403190612793,19.4036235809326,19.4040584564209,19.4044914245605,19.4049243927002,19.4053592681885,19.4057922363281,19.4062271118164,19.4066619873047,19.4070949554443,19.407527923584,19.4079627990723,19.4083957672119,19.4088306427002,19.4092636108398,19.4096984863281,19.4101333618164,19.4105663299561,19.4110012054443,19.4114360809326,19.4118690490723,19.4123039245605,19.4127368927002,19.4131717681885,19.4136047363281,19.414041519165,19.4144744873047,19.414909362793,19.4153423309326,19.4157791137695,19.4162120819092,19.4166450500488,19.4170799255371,19.4175148010254
12.0026426315308,12.0504360198975,12.098611831665,12.1471748352051,12.1961288452148,12.2454795837402,12.2952308654785,12.3453884124756,12.3959560394287,12.4469404220581,12.498345375061,12.5501766204834,12.6024408340454,12.65514087677,12.7082834243774,12.7618751525879,12.8159208297729,12.8704252243042,12.9253959655762,12.9808378219604,13.0367574691772,13.0931606292725,13.1500549316406,13.2074451446533,13.2653388977051,13.3237419128418,13.382661819458,13.4421043395996,13.5020780563354,13.5625896453857,13.6236457824707,13.6852540969849,13.7474212646484,13.8101568222046,13.8734674453735,13.9373607635498,14.0018463134766,14.0669326782227,14.5215854644775,14.5245904922485,14.5275964736938,14.5306034088135,14.5336122512817,14.5366220474243,14.5401840209961,14.6104526519775,14.6812753677368,14.7527589797974,14.8249750137329,14.8979997634888,14.971700668335,15.0461349487305,15.1213130950928,15.1972455978394,15.2739458084106,15.3514232635498,15.4296903610229,15.5087604522705,15.58864402771,15.6693563461304,15.7509078979492,15.8333129882812,16.0137920379639,16.0985469818115,18.0551433563232,18.1516532897949,18.2492008209229,18.3477954864502,19.0850276947021,19.0854473114014,19.0858726501465,19.0862903594971,19.0867080688477,19.0871276855469,19.0875473022461,19.0879669189453,19.0883827209473,19.0888042449951,19.0892295837402,19.0896472930908,19.0900650024414,19.0904865264893,19.0909061431885,19.0913257598877,19.0917453765869,19.0921649932861,19.0925846099854,19.0930042266846,19.0934238433838,19.093843460083,19.0942630767822,19.0946846008301,19.0951042175293,19.0955238342285,19.0959434509277,19.096363067627,19.0967845916748,19.0972023010254,19.0976238250732,19.0980434417725,19.098461151123,19.0988826751709,19.0993022918701,19.099723815918,19.1001434326172,19.1005630493164,19.1009826660156,19.1014041900635,19.1018238067627,19.1022434234619,19.1026649475098,19.103084564209,19.1035041809082,19.1039257049561,19.1043453216553,19.1047649383545,19.1051864624023,19.1056060791016,19.1060256958008,19.1064472198486,19.1068668365479,19.1072864532471,19.1077079772949,19.1081275939941,19.108549118042,19.1089687347412,19.1093902587891,19.1098098754883,19.1102313995361,19.1106510162354,19.1110725402832,19.1114921569824,19.1119136810303,19.1123332977295,19.1127548217773,19.1131744384766,19.1135959625244,19.1140174865723,19.1144371032715,19.1148586273193,19.1152782440186,19.1156997680664,19.1161193847656,19.1165409088135,19.1169624328613,19.1173820495605,19.1178035736084,19.1182250976562,19.1186447143555,19.1190662384033,19.1194858551025,19.119909286499,19.1203289031982,19.1207504272461,19.1211719512939,19.1215915679932,19.122013092041,19.1224346160889,19.1228561401367,19.1232757568359,19.1236972808838,19.1241188049316,19.1245403289795,19.1249599456787,19.1253814697266,19.1258029937744,19.1262245178223,19.1266460418701,19.127067565918,19.1274890899658,19.1279106140137,19.1283321380615,19.1287517547607,19.1291751861572,19.1295967102051,19.1300182342529,19.1304397583008,19.130859375,19.1312828063965,19.1317043304443,19.1321258544922,19.13254737854,19.1329689025879,19.1333904266357,19.1338138580322,19.1342353820801,19.1346569061279,19.1350784301758,19.1354999542236,19.1359214782715,19.136344909668,19.1367664337158,19.1371879577637,19.1376094818115,19.138032913208,19.1384544372559,19.1388778686523,19.1392993927002,19.139720916748,19.1401424407959,19.1405639648438,19.1409873962402,19.1414089202881,19.1418304443359,19.1422538757324,19.1426753997803,19.1430969238281,19.1435203552246,19.1439418792725,19.1443653106689,19.1447868347168,19.1452102661133,19.1456317901611,19.146053314209,19.1464767456055,19.1468982696533,19.1473197937012,19.1477432250977,19.1481666564941,19.148588180542,19.1490097045898,19.1494331359863,19.1498546600342,19.1502780914307,19.1506996154785,19.151123046875,19.1515464782715,19.1519680023193,19.1523914337158,19.1528148651123,19.1532363891602,19.1536598205566,19.1540813446045,19.154504776001,19.1549282073975,19.1553516387939,19.1557731628418,19.1561965942383,19.1566200256348,19.1570415496826,19.1574649810791,19.157886505127,19.1583099365234,19.1587333679199,19.1591567993164,19.1595802307129,19.1600017547607,19.1604251861572,19.1608467102051,19.1612720489502,19.161693572998,19.1621170043945,19.162540435791,19.1629638671875,19.163387298584,19.1638088226318,19.1642322540283,19.1646556854248,19.1650791168213,19.1655025482178,19.1659259796143,19.1663494110107,19.1667728424072,19.1671962738037,19.1676177978516,19.168041229248,19.1684646606445,19.168888092041,19.1693115234375,19.1697368621826,19.1701602935791,19.170581817627,19.1710071563721,19.1714286804199,19.1718521118164,19.1722755432129,19.172700881958,19.1731243133545,19.1735458374023,19.1739711761475,19.1743946075439,19.1748180389404,19.1752414703369,19.1756649017334,19.1760883331299,19.1765117645264,19.1769351959229,19.177360534668,19.1777839660645,19.1782073974609,19.1786327362061,19.1790542602539,19.1794776916504,19.1799030303955,19.1803283691406,19.1807498931885,19.1811752319336,19.1815986633301,19.1820220947266,19.182445526123,19.1828689575195,19.1832942962646,19.1837177276611,19.1841430664062,19.1845664978027,19.1849899291992,19.1854133605957,19.1858386993408,19.1862621307373,19.1866855621338,19.1871128082275,19.187536239624,19.1879596710205,19.188383102417,19.1888084411621,19.1892318725586,19.1896572113037,19.1900806427002,19.1905059814453,19.1909294128418,19.1913547515869,19.1917781829834,19.1922035217285,19.192626953125,19.1930503845215,19.1934757232666,19.1938991546631,19.1943264007568,19.1947498321533,19.1951732635498,19.1955986022949,19.1960220336914,19.1964473724365,19.1968727111816,19.1972961425781,19.1977214813232,19.1981468200684,19.1985721588135,19.19899559021,19.1994209289551,19.1998443603516,19.2002696990967,19.2006950378418,19.2011184692383,19.201545715332,19.2019691467285,19.2023944854736,19.2028179168701,19.2032432556152,19.2036685943604,19.2040920257568,19.204517364502,19.2049446105957,19.2053680419922,19.2057933807373,19.2062187194824,19.2066421508789,19.207067489624,19.2074928283691,19.2079181671143,19.2083435058594,19.2087688446045,19.2091941833496,19.2096195220947,19.2100448608398,19.2104682922363,19.2108936309814,19.2113189697266,19.2117443084717,19.2121715545654,19.2125968933105,19.213020324707,19.2134456634521,19.2138710021973,19.2142963409424,19.2147235870361,19.2151470184326,19.2155723571777,19.2159996032715,19.216423034668,19.2168502807617,19.2172756195068,19.217700958252,19.2181262969971,19.2185516357422,19.2189788818359,19.2194042205811,19.2198276519775,19.2202548980713,19.2206802368164
12.0025043487549,12.0502977371216,12.0984725952148,12.1470336914062,12.1959867477417,12.2453365325928,12.2950868606567,12.3452425003052,12.395809173584,12.4467926025391,12.4981966018677,12.5500268936157,12.6022891998291,12.6549882888794,12.7081298828125,12.7617197036743,12.8157634735107,12.8702669143677,12.925235748291,12.980676651001,13.0365953445435,13.0929975509644,13.1498899459839,13.2072782516479,13.2651700973511,13.3235721588135,13.3824901580811,13.4419317245483,13.5019044876099,13.5624141693115,13.6234683990479,13.6850748062134,13.7472410202026,13.8099746704102,13.8732833862305,13.9371757507324,14.0016593933105,14.5683736801147,14.5713977813721,14.5744228363037,14.577449798584,14.5804777145386,14.5835065841675,14.586537361145,14.5895690917969,14.6102638244629,14.681056022644,14.7525386810303,14.8247728347778,14.8977880477905,14.9714879989624,15.045919418335,15.1210956573486,15.1970262527466,15.2737236022949,15.3511981964111,15.4294633865356,15.5085315704346,15.5884132385254,15.6691217422485,15.7506713867188,15.8330736160278,16.0135631561279,16.0982913970947,18.0548839569092,18.1513900756836,18.2489356994629,18.3474960327148,18.8948459625244,18.8952579498291,18.8956680297852,18.8960800170898,18.8964881896973,18.896900177002,18.8973140716553,18.8977203369141,18.8981342315674,18.8985443115234,18.8989582061768,18.8993740081787,18.8997821807861,18.9001922607422,18.9006042480469,18.9010162353516,18.9014282226562,18.9018383026123,18.902250289917,18.9026622772217,18.9030723571777,18.9034843444824,18.9038963317871,18.9043083190918,18.9047203063965,18.9051303863525,18.9055423736572,18.9059543609619,18.9063663482666,18.9067783355713,18.907190322876,18.907600402832,18.9080123901367,18.9084243774414,18.9088363647461,18.9092483520508,18.9096584320068,18.9100704193115,18.9104824066162,18.9108943939209,18.9113063812256,18.9117183685303,18.912130355835,18.9125423431396,18.9129543304443,18.913366317749,18.9137783050537,18.9141883850098,18.9146003723145,18.9150142669678,18.9154262542725,18.9158382415771,18.9162502288818,18.9166622161865,18.9170742034912,18.9174861907959,18.9178981781006,18.9183101654053,18.91872215271,18.9191341400146,18.9195461273193,18.919958114624,18.9203701019287,18.9207820892334,18.9211959838867,18.9216079711914,18.9220199584961,18.9224319458008,18.9228439331055,18.9232559204102,18.9236698150635,18.9240818023682,18.9244937896729,18.9249057769775,18.9253196716309,18.9257316589355,18.9261436462402,18.9265556335449,18.9269676208496,18.9273815155029,18.9277935028076,18.9282054901123,18.9286193847656,18.9290313720703,18.929443359375,18.9298553466797,18.930269241333,18.9306831359863,18.931095123291,18.9315071105957,18.931921005249,18.9323329925537,18.9327449798584,18.9331588745117,18.9335708618164,18.9339847564697,18.9343967437744,18.9348106384277,18.9352226257324,18.9356346130371,18.9360485076904,18.9364604949951,18.9368743896484,18.9372863769531,18.9377002716064,18.9381141662598,18.9385261535645,18.9389381408691,18.9393520355225,18.9397659301758,18.9401798248291,18.9405918121338,18.9410057067871,18.9414196014404,18.9418315887451,18.9422454833984,18.9426593780518,18.9430732727051,18.9434852600098,18.9438991546631,18.9443130493164,18.9447269439697,18.945140838623,18.9455547332764,18.9459667205811,18.9463806152344,18.9467945098877,18.947208404541,18.9476222991943,18.9480361938477,18.948450088501,18.9488620758057,18.949275970459,18.9496898651123,18.9501037597656,18.9505176544189,18.9509315490723,18.9513454437256,18.9517593383789,18.9521732330322,18.9525871276855,18.9530010223389,18.9534149169922,18.9538288116455,18.9542427062988,18.9546566009521,18.9550704956055,18.9554843902588,18.9558982849121,18.9563121795654,18.9567260742188,18.9571399688721,18.9575538635254,18.9579677581787,18.9583835601807,18.958797454834,18.9592113494873,18.9596252441406,18.9600391387939,18.9604530334473,18.9608669281006,18.9612827301025,18.9616966247559,18.9621105194092,18.9625263214111,18.9629402160645,18.9633541107178,18.9637680053711,18.9641819000244,18.9645957946777,18.9650115966797,18.9654273986816,18.965841293335,18.9662551879883,18.9666690826416,18.9670848846436,18.9674987792969,18.9679126739502,18.9683265686035,18.9687423706055,18.9691562652588,18.9695720672607,18.9699859619141,18.9703998565674,18.9708156585693,18.9712295532227,18.971643447876,18.9720592498779,18.9724750518799,18.9728889465332,18.9733028411865,18.9737186431885,18.9741325378418,18.9745483398438,18.9749622344971,18.975378036499,18.9757919311523,18.9762077331543,18.9766235351562,18.9770374298096,18.9774532318115,18.9778671264648,18.9782810211182,18.9786968231201,18.9791107177734,18.979528427124,18.9799423217773,18.9803581237793,18.9807720184326,18.9811878204346,18.9816036224365,18.9820175170898,18.9824333190918,18.9828491210938,18.9832630157471,18.983678817749,18.9840927124023,18.9845085144043,18.9849243164062,18.9853401184082,18.9857540130615,18.9861717224121,18.9865856170654,18.9870014190674,18.9874153137207,18.9878330230713,18.9882469177246,18.9886627197266,18.9890766143799,18.9894924163818,18.9899082183838,18.9903259277344,18.9907398223877,18.9911556243896,18.9915714263916,18.9919872283936,18.9924030303955,18.9928169250488,18.9932346343994,18.9936504364014,18.9940643310547,18.9944801330566,18.9948959350586,18.9953117370605,18.9957275390625,18.9961433410645,18.9965591430664,18.9969749450684,18.9973907470703,18.9978065490723,18.9982223510742,18.9986381530762,18.9990539550781,18.9994697570801,18.999885559082,19.0003032684326,19.0007190704346,19.0011348724365,19.0015506744385,19.0019664764404,19.0023822784424,19.0027980804443,19.0032138824463,19.0036315917969,19.0040473937988,19.0044631958008,19.0048789978027,19.0052947998047,19.0057106018066,19.0061264038086,19.0065441131592,19.0069599151611,19.0073776245117,19.0077934265137,19.0082092285156,19.0086250305176,19.0090408325195,19.0094585418701,19.0098743438721,19.010290145874,19.0107078552246,19.0111236572266,19.0115413665771,19.0119571685791,19.0123729705811,19.012788772583,19.013204574585,19.0136222839355,19.0140380859375,19.0144557952881,19.01487159729,19.0152893066406,19.0157051086426,19.0161228179932,19.0165386199951,19.0169544219971,19.017370223999,19.0177898406982,19.0182056427002,19.0186233520508,19.0190391540527,19.0194549560547,19.0198726654053,19.0202884674072,19.0207061767578,19.0211238861084,19.0215396881104,19.0219573974609,19.0223731994629,19.0227909088135,19.0232086181641,19.023624420166,19.024040222168,19.0244579315186,19.0248756408691,19.0252933502197,19.0257091522217,19.0261268615723,19.0265445709229,19.0269603729248,19.0273780822754,19.0277938842773
12.0023670196533,12.0501585006714,12.0983324050903,12.1468935012817,12.1958446502686,12.2451934814453,12.2949419021606,12.3450965881348,12.3956632614136,12.44664478302,12.498046875,12.5498762130737,12.6021375656128,12.6548347473145,12.7079753875732,12.7615642547607,12.8156070709229,12.8701086044312,12.9250764846802,12.9805164337158,13.0364332199097,13.0928335189819,13.1497249603271,13.2071123123169,13.2650022506714,13.3234033584595,13.3823194503784,13.4417600631714,13.50172996521,13.5622386932373,13.623291015625,13.6848964691162,13.7470607757568,13.8097925186157,13.8731002807617,13.936990737915,14.1838502883911,14.2495822906494,14.3160943984985,14.3832626342773,14.6076688766479,14.6102819442749,14.6128959655762,14.6155099868774,14.6181259155273,14.6207427978516,14.6808376312256,14.7523174285889,14.8245706558228,14.8975772857666,14.9712743759155,15.0457038879395,15.1208772659302,15.1968059539795,15.2735013961792,15.3509740829468,15.4292373657227,15.5083017349243,15.5881814956665,15.668888092041,15.7504348754883,15.8328351974487,16.0133419036865,16.0980339050293,18.0546226501465,18.1511287689209,18.2486705780029,18.3471965789795,18.7084178924561,18.7088184356689,18.7092189788818,18.7096214294434,18.7100276947021,18.710428237915,18.7108306884766,18.7112350463867,18.7116451263428,18.7120456695557,18.7124462127686,18.7128486633301,18.7132549285889,18.7136535644531,18.7140598297119,18.7144660949707,18.7148666381836,18.7152709960938,18.7156734466553,18.7160758972168,18.716480255127,18.7168846130371,18.7172870635986,18.7176895141602,18.7180957794189,18.7184982299805,18.718900680542,18.7193050384521,18.7197074890137,18.7201118469238,18.720516204834,18.7209186553955,18.7213230133057,18.7217273712158,18.7221298217773,18.7225341796875,18.722936630249,18.7233409881592,18.7237434387207,18.7241477966309,18.724552154541,18.7249546051025,18.7253589630127,18.7257633209229,18.726167678833,18.7265720367432,18.7269744873047,18.7273788452148,18.727783203125,18.7281856536865,18.7285900115967,18.7289943695068,18.729398727417,18.7298011779785,18.7302055358887,18.7306098937988,18.731014251709,18.7314167022705,18.7318210601807,18.7322254180908,18.732629776001,18.7330341339111,18.7334365844727,18.7338428497314,18.7342472076416,18.7346496582031,18.7350540161133,18.7354583740234,18.7358627319336,18.7362670898438,18.7366714477539,18.7370758056641,18.7374801635742,18.7378845214844,18.7382888793945,18.7386932373047,18.7390975952148,18.739501953125,18.7399063110352,18.7403106689453,18.7407131195068,18.7411193847656,18.7415237426758,18.7419281005859,18.7423324584961,18.7427368164062,18.743143081665,18.7435474395752,18.7439498901367,18.7443561553955,18.7447605133057,18.7451648712158,18.745569229126,18.7459735870361,18.7463779449463,18.7467842102051,18.7471885681152,18.7475929260254,18.7479972839355,18.7484016418457,18.7488059997559,18.7492122650146,18.7496166229248,18.750020980835,18.7504272460938,18.7508316040039,18.7512359619141,18.7516403198242,18.7520446777344,18.7524509429932,18.7528553009033,18.7532596588135,18.7536659240723,18.7540721893311,18.7544765472412,18.7548809051514,18.7552871704102,18.7556934356689,18.7560977935791,18.7565021514893,18.756908416748,18.7573127746582,18.757719039917,18.7581233978271,18.7585296630859,18.7589359283447,18.7593421936035,18.7597465515137,18.7601528167725,18.7605571746826,18.7609615325928,18.7613677978516,18.7617740631104,18.7621784210205,18.7625865936279,18.7629909515381,18.7633972167969,18.7638034820557,18.7642078399658,18.7646141052246,18.7650184631348,18.7654247283936,18.7658309936523,18.7662372589111,18.7666435241699,18.7670478820801,18.7674541473389,18.767858505249,18.7682647705078,18.7686710357666,18.7690773010254,18.7694835662842,18.769889831543,18.7702960968018,18.7707004547119,18.7711067199707,18.7715129852295,18.7719192504883,18.7723236083984,18.7727317810059,18.7731380462646,18.7735443115234,18.7739486694336,18.774356842041,18.7747611999512,18.77516746521,18.7755737304688,18.7759799957275,18.7763862609863,18.7767925262451,18.7771987915039,18.7776050567627,18.7780113220215,18.7784175872803,18.7788238525391,18.7792301177979,18.7796363830566,18.7800445556641,18.7804489135742,18.780855178833,18.7812633514404,18.7816696166992,18.7820739746094,18.7824821472168,18.7828884124756,18.7832946777344,18.7837009429932,18.784107208252,18.7845153808594,18.7849197387695,18.7853260040283,18.7857341766357,18.7861404418945,18.786548614502,18.7869548797607,18.7873611450195,18.7877674102783,18.7881736755371,18.7885799407959,18.7889862060547,18.7893943786621,18.7898006439209,18.7902088165283,18.7906150817871,18.7910213470459,18.7914276123047,18.7918357849121,18.7922420501709,18.7926483154297,18.7930564880371,18.7934627532959,18.7938709259033,18.7942771911621,18.7946834564209,18.7950916290283,18.7954978942871,18.7959041595459,18.7963104248047,18.7967205047607,18.7971267700195,18.7975330352783,18.7979412078857,18.7983474731445,18.7987537384033,18.7991619110107,18.7995700836182,18.7999782562256,18.8003845214844,18.8007907867432,18.8011989593506,18.8016052246094,18.8020133972168,18.8024196624756,18.802827835083,18.8032360076904,18.8036422729492,18.8040504455566,18.8044567108154,18.8048648834229,18.8052730560303,18.8056793212891,18.8060855865479,18.8064937591553,18.8069038391113,18.8073101043701,18.8077163696289,18.8081245422363,18.8085327148438,18.8089408874512,18.80934715271,18.8097553253174,18.8101634979248,18.8105716705322,18.810977935791,18.8113861083984,18.8117942810059,18.8122005462646,18.8126087188721,18.8130168914795,18.8134231567383,18.8138332366943,18.8142395019531,18.8146495819092,18.815055847168,18.8154640197754,18.8158721923828,18.8162803649902,18.8166885375977,18.8170948028564,18.8175048828125,18.8179130554199,18.8183193206787,18.8187274932861,18.8191356658936,18.819543838501,18.8199520111084,18.8203601837158,18.8207683563232,18.8211765289307,18.8215847015381,18.8219928741455,18.8224010467529,18.8228092193604,18.8232173919678,18.8236255645752,18.8240356445312,18.82444190979,18.8248500823975,18.8252582550049,18.8256683349609,18.8260765075684,18.8264827728271,18.8268928527832,18.8273010253906,18.827709197998,18.8281173706055,18.8285274505615,18.8289356231689,18.8293437957764,18.8297500610352,18.8301601409912,18.8305683135986,18.8309764862061,18.8313865661621,18.8317947387695,18.832202911377,18.832612991333,18.8330211639404,18.8334293365479,18.8338375091553,18.8342475891113,18.8346557617188,18.8350639343262,18.8354721069336,18.835880279541,18.8362903594971,18.8366985321045,18.8371067047119,18.837516784668,18.8379249572754,18.8383350372314,18.8387432098389
12.0022296905518,12.0500202178955,12.0981931686401,12.1467523574829,12.1957035064697,12.2450504302979,12.2947978973389,12.3449516296387,12.3955163955688,12.446496963501,12.4978981018066,12.5497264862061,12.6019859313965,12.6546821594238,12.7078218460083,12.7614088058472,12.8154497146606,12.8699512481689,12.9249172210693,12.9803552627563,13.0362710952759,13.0926704406738,13.1495599746704,13.2069454193115,13.2648344039917,13.3232336044312,13.3821487426758,13.4415874481201,13.5015563964844,13.5620632171631,13.6231145858765,13.6847171783447,13.746880531311,13.8096103668213,13.8729162216187,13.9368000030518,14.183479309082,14.2493686676025,14.3158903121948,14.3830699920654,14.4508724212646,14.63001537323,14.6326360702515,14.6352577209473,14.6378803253174,14.6405038833618,14.6806192398071,14.7520961761475,14.824369430542,14.8973655700684,14.9710607528687,15.0454883575439,15.120659828186,15.1965856552124,15.2732791900635,15.3507499694824,15.4290103912354,15.5080728530884,15.5879497528076,15.6686544418335,15.7501983642578,15.8325958251953,16.0131206512451,17.9588813781738,18.0543632507324,18.1508655548096,18.2484035491943,18.3469181060791,18.5256290435791,18.5260200500488,18.5264186859131,18.5268154144287,18.5272083282471,18.5276012420654,18.5279941558838,18.5283889770508,18.5287914276123,18.5291862487793,18.5295848846436,18.5299758911133,18.5303707122803,18.5307655334473,18.5311641693115,18.5315589904785,18.5319538116455,18.5323486328125,18.5327453613281,18.5331382751465,18.5335350036621,18.5339317321777,18.5343265533447,18.5347213745117,18.5351181030273,18.5355129241943,18.53590965271,18.536304473877,18.5366992950439,18.5370960235596,18.5374908447266,18.5378875732422,18.5382823944092,18.5386791229248,18.5390739440918,18.5394706726074,18.5398654937744,18.54026222229,18.540657043457,18.5410537719727,18.5414485931396,18.5418453216553,18.5422401428223,18.5426368713379,18.5430335998535,18.5434284210205,18.5438232421875,18.5442218780518,18.5446166992188,18.5450115203857,18.5454082489014,18.545804977417,18.5462017059326,18.5465965270996,18.5469932556152,18.5473899841309,18.5477867126465,18.5481815338135,18.5485763549805,18.5489749908447,18.5493717193604,18.5497665405273,18.550163269043,18.5505599975586,18.5509548187256,18.5513515472412,18.5517482757568,18.5521450042725,18.5525417327881,18.5529365539551,18.5533332824707,18.5537300109863,18.554126739502,18.5545215606689,18.5549201965332,18.5553150177002,18.5557117462158,18.5561084747314,18.5565052032471,18.5569019317627,18.5572986602783,18.5576953887939,18.5580902099609,18.5584888458252,18.5588836669922,18.5592803955078,18.5596771240234,18.5600757598877,18.5604705810547,18.5608673095703,18.5612640380859,18.5616607666016,18.5620574951172,18.5624542236328,18.5628509521484,18.5632476806641,18.5636444091797,18.5640411376953,18.5644397735596,18.5648345947266,18.5652313232422,18.5656280517578,18.5660266876221,18.5664234161377,18.5668201446533,18.5672168731689,18.5676155090332,18.5680122375488,18.5684070587158,18.5688056945801,18.5692024230957,18.5695991516113,18.569995880127,18.5703926086426,18.5707912445068,18.5711879730225,18.5715847015381,18.5719833374023,18.572380065918,18.5727767944336,18.5731735229492,18.5735721588135,18.5739707946777,18.5743675231934,18.5747661590576,18.5751628875732,18.5755596160889,18.5759563446045,18.5763549804688,18.5767517089844,18.5771503448486,18.5775489807129,18.5779457092285,18.5783443450928,18.5787410736084,18.5791397094727,18.5795364379883,18.5799331665039,18.5803318023682,18.5807304382324,18.581127166748,18.5815258026123,18.5819225311279,18.5823211669922,18.5827178955078,18.5831165313721,18.5835151672363,18.5839138031006,18.5843105316162,18.5847091674805,18.5851058959961,18.5855045318604,18.5859031677246,18.5862998962402,18.5866985321045,18.5870971679688,18.5874938964844,18.5878944396973,18.5882911682129,18.5886898040771,18.5890865325928,18.589485168457,18.5898838043213,18.5902805328369,18.5906810760498,18.5910778045654,18.5914764404297,18.5918750762939,18.5922737121582,18.5926704406738,18.5930709838867,18.5934677124023,18.5938663482666,18.5942649841309,18.5946636199951,18.5950622558594,18.595458984375,18.5958595275879,18.5962562561035,18.5966548919678,18.597053527832,18.5974521636963,18.5978507995605,18.5982494354248,18.5986480712891,18.5990467071533,18.5994453430176,18.5998439788818,18.6002426147461,18.6006412506104,18.6010398864746,18.6014385223389,18.6018371582031,18.6022357940674,18.6026344299316,18.6030330657959,18.6034317016602,18.6038303375244,18.6042308807373,18.6046295166016,18.6050262451172,18.6054267883301,18.6058254241943,18.6062240600586,18.6066226959229,18.6070213317871,18.6074199676514,18.6078205108643,18.6082191467285,18.6086177825928,18.609016418457,18.6094150543213,18.6098136901855,18.6102123260498,18.6106128692627,18.611011505127,18.6114101409912,18.6118087768555,18.6122093200684,18.6126079559326,18.6130065917969,18.6134052276611,18.613805770874,18.6142044067383,18.6146030426025,18.6150035858154,18.6154022216797,18.6158008575439,18.6162014007568,18.6166000366211,18.6169986724854,18.6173992156982,18.6177978515625,18.6181983947754,18.6185970306396,18.6189956665039,18.6193962097168,18.6197948455811,18.6201953887939,18.6205959320068,18.6209945678711,18.6213932037354,18.6217937469482,18.6221923828125,18.6225929260254,18.6229915618896,18.6233901977539,18.6237888336182,18.6241912841797,18.6245899200439,18.6249904632568,18.6253890991211,18.625789642334,18.6261901855469,18.6265888214111,18.6269874572754,18.6273899078369,18.6277885437012,18.6281871795654,18.6285877227783,18.6289882659912,18.6293869018555,18.6297874450684,18.6301879882812,18.6305866241455,18.6309871673584,18.6313877105713,18.6317882537842,18.6321868896484,18.6325874328613,18.6329879760742,18.6333866119385,18.6337871551514,18.6341876983643,18.6345882415771,18.6349868774414,18.6353874206543,18.6357879638672,18.6361885070801,18.6365871429443,18.6369876861572,18.6373882293701,18.637788772583,18.6381893157959,18.6385898590088,18.6389904022217,18.6393909454346,18.6397895812988,18.6401901245117,18.6405906677246,18.6409912109375,18.6413917541504,18.6417922973633,18.6421928405762,18.6425933837891,18.642993927002,18.6433925628662,18.6437931060791,18.6441955566406,18.6445941925049,18.6449966430664,18.6453971862793,18.6457977294922,18.6461963653564,18.6465969085693,18.6469993591309,18.6473999023438,18.6478004455566,18.6482009887695,18.6486015319824,18.6490020751953,18.6494026184082,18.6498031616211,18.650203704834,18.6506061553955,18.6510066986084,18.6514072418213,18.6518077850342,18.6522083282471,18.65260887146,18.6530113220215,18.6534118652344
12.0020923614502,12.0498819351196,12.0980529785156,12.1466112136841,12.1955614089966,12.2449073791504,12.2946538925171,12.3448057174683,12.3953695297241,12.4463491439819,12.4977493286133,12.5495758056641,12.6018342971802,12.6545295715332,12.707667350769,12.7612533569336,12.8152933120728,12.8697929382324,12.9247579574585,12.9801940917969,13.0361089706421,13.0925064086914,13.1493949890137,13.2067794799805,13.264666557312,13.3230638504028,13.3819780349731,13.4414148330688,13.5013828277588,13.5618877410889,13.6229372024536,13.6845388412476,13.7467002868652,13.8094282150269,13.872727394104,13.9366092681885,14.1832618713379,14.2491579055786,14.3156929016113,14.3828773498535,14.4506883621216,14.5191240310669,14.6524295806885,14.6550588607788,14.6576881408691,14.6603193283081,14.6804008483887,14.7518758773804,14.8241672515869,14.8971538543701,14.9708471298218,15.0452728271484,15.1204423904419,15.1963663101196,15.2730569839478,15.3505249023438,15.428783416748,15.5078439712524,15.587718963623,15.668420791626,15.7499628067017,15.8323574066162,17.8641510009766,17.9586238861084,18.0541038513184,18.1506023406982,18.2481384277344,18.3459911346436,18.3463764190674,18.3467655181885,18.3471508026123,18.3475360870361,18.3479290008545,18.3483142852783,18.3486995697021,18.3490924835205,18.349479675293,18.3498649597168,18.3502521514893,18.350643157959,18.3510303497314,18.3514194488525,18.351806640625,18.3521919250488,18.3525772094727,18.3529682159424,18.3533573150635,18.3537445068359,18.3541316986084,18.3545207977295,18.3549060821533,18.3552951812744,18.3556842803955,18.356071472168,18.3564605712891,18.3568477630615,18.3572368621826,18.3576240539551,18.3580112457275,18.3584003448486,18.3587875366211,18.3591766357422,18.3595638275146,18.3599510192871,18.3603401184082,18.3607292175293,18.3611164093018,18.3615055084229,18.3618927001953,18.3622817993164,18.3626689910889,18.36305809021,18.3634471893311,18.3638343811035,18.3642234802246,18.3646106719971,18.3649997711182,18.3653869628906,18.3657760620117,18.3661651611328,18.3665542602539,18.3669414520264,18.3673305511475,18.3677196502686,18.3681087493896,18.3684959411621,18.3688831329346,18.3692722320557,18.3696613311768,18.3700504302979,18.3704376220703,18.37082862854,18.3712158203125,18.3716049194336,18.3719940185547,18.3723812103271,18.3727703094482,18.3731594085693,18.3735485076904,18.3739356994629,18.3743267059326,18.3747138977051,18.3751029968262,18.3754920959473,18.3758811950684,18.3762702941895,18.3766574859619,18.3770484924316,18.3774356842041,18.3778247833252,18.3782138824463,18.3786029815674,18.3789920806885,18.3793811798096,18.3797702789307,18.3801593780518,18.3805484771729,18.3809375762939,18.381326675415,18.3817157745361,18.3821029663086,18.3824939727783,18.3828830718994,18.3832702636719,18.3836612701416,18.3840503692627,18.3844394683838,18.3848285675049,18.385217666626,18.3856067657471,18.3859958648682,18.3863849639893,18.3867740631104,18.3871631622314,18.3875541687012,18.3879413604736,18.3883323669434,18.3887214660645,18.3891105651855,18.3894996643066,18.3898887634277,18.3902797698975,18.3906688690186,18.3910579681396,18.3914470672607,18.3918380737305,18.3922271728516,18.3926162719727,18.3930072784424,18.3933963775635,18.3937854766846,18.3941745758057,18.3945655822754,18.3949546813965,18.3953456878662,18.3957347869873,18.3961238861084,18.3965148925781,18.3969039916992,18.3972949981689,18.39768409729,18.3980751037598,18.3984642028809,18.3988552093506,18.3992443084717,18.3996353149414,18.4000244140625,18.4004154205322,18.4008045196533,18.401195526123,18.4015846252441,18.4019756317139,18.4023666381836,18.4027557373047,18.4031467437744,18.4035377502441,18.4039268493652,18.4043159484863,18.4047069549561,18.4050979614258,18.4054889678955,18.4058799743652,18.4062690734863,18.4066581726074,18.4070491790771,18.4074401855469,18.4078311920166,18.4082202911377,18.4086112976074,18.4090023040771,18.4093914031982,18.409782409668,18.4101734161377,18.4105644226074,18.4109535217285,18.4113445281982,18.411735534668,18.4121265411377,18.4125156402588,18.4129066467285,18.4132976531982,18.413688659668,18.4140796661377,18.4144706726074,18.4148597717285,18.4152507781982,18.415641784668,18.4160327911377,18.4164237976074,18.4168148040771,18.4172058105469,18.417594909668,18.4179859161377,18.4183788299561,18.4187679290771,18.4191589355469,18.4195518493652,18.4199409484863,18.4203319549561,18.4207229614258,18.4211139678955,18.4215049743652,18.421895980835,18.4222869873047,18.4226779937744,18.4230690002441,18.4234600067139,18.4238510131836,18.4242420196533,18.424633026123,18.4250259399414,18.4254169464111,18.4258079528809,18.4261989593506,18.4265899658203,18.42698097229,18.4273719787598,18.4277629852295,18.4281558990479,18.4285449981689,18.4289379119873,18.429328918457,18.4297199249268,18.4301109313965,18.4305019378662,18.4308929443359,18.4312839508057,18.431676864624,18.4320678710938,18.4324607849121,18.4328517913818,18.4332427978516,18.4336338043213,18.434024810791,18.4344158172607,18.4348087310791,18.4351997375488,18.4355926513672,18.4359836578369,18.4363746643066,18.4367656707764,18.4371585845947,18.4375495910645,18.4379425048828,18.4383335113525,18.4387264251709,18.4391174316406,18.4395084381104,18.4399013519287,18.4402923583984,18.4406833648682,18.4410762786865,18.4414672851562,18.4418601989746,18.442253112793,18.4426441192627,18.4430351257324,18.4434280395508,18.4438190460205,18.4442100524902,18.4446029663086,18.444995880127,18.4453868865967,18.445779800415,18.4461708068848,18.4465618133545,18.4469547271729,18.4473476409912,18.4477386474609,18.4481315612793,18.4485244750977,18.4489154815674,18.4493083953857,18.4496994018555,18.4500923156738,18.4504852294922,18.4508762359619,18.4512710571289,18.4516620635986,18.452054977417,18.4524459838867,18.4528388977051,18.4532318115234,18.4536247253418,18.4540157318115,18.4544086456299,18.4548015594482,18.455192565918,18.4555854797363,18.4559783935547,18.4563694000244,18.4567642211914,18.4571552276611,18.4575481414795,18.4579410552979,18.4583339691162,18.4587249755859,18.4591178894043,18.4595108032227,18.459903717041,18.4602947235107,18.4606895446777,18.4610824584961,18.4614753723145,18.4618663787842,18.4622592926025,18.4626522064209,18.4630451202393,18.4634380340576,18.463830947876,18.4642238616943,18.4646167755127,18.4650096893311,18.4654026031494,18.4657936096191,18.4661884307861,18.4665813446045,18.4669723510742,18.4673652648926,18.4677600860596,18.4681529998779,18.4685459136963,18.4689388275146,18.469331741333,18.4697246551514,18.4701175689697,18.4705104827881,18.4709053039551,18.4712982177734,18.4716911315918
12.0019550323486,12.0497436523438,12.0979137420654,12.1464710235596,12.1954193115234,12.2447643280029,12.294508934021,12.3446607589722,12.3952226638794,12.4462013244629,12.4976005554199,12.5494260787964,12.6016826629639,12.6543769836426,12.7075138092041,12.76109790802,12.8151369094849,12.8696346282959,12.9245986938477,12.9800338745117,13.0359468460083,13.0923433303833,13.1492300033569,13.2066125869751,13.2644987106323,13.3228950500488,13.3818073272705,13.4412422180176,13.5012083053589,13.5617113113403,13.6227598190308,13.6843595504761,13.7465181350708,13.8092412948608,13.8725385665894,14.1177663803101,14.1830453872681,14.2489614486694,14.3154973983765,14.3826837539673,14.4505033493042,14.5189342498779,14.6722774505615,14.6749134063721,14.6775503158569,14.6801872253418,14.6828260421753,14.751654624939,14.8239660263062,14.8969430923462,14.9706335067749,15.0450572967529,15.1202239990234,15.1961460113525,15.272834777832,15.3503007888794,15.4285564422607,15.5076150894165,15.5874872207642,15.6681871414185,15.7497262954712,17.7772159576416,17.8639011383057,17.958366394043,18.0538425445557,18.1503391265869,18.1697998046875,18.1701850891113,18.1705627441406,18.1709384918213,18.1713180541992,18.1716995239258,18.1720790863037,18.1724586486816,18.1728420257568,18.1732273101807,18.17360496521,18.1739845275879,18.1743679046631,18.1747455596924,18.1751232147217,18.1755065917969,18.1758842468262,18.1762657165527,18.176643371582,18.1770286560059,18.1774082183838,18.1777877807617,18.1781692504883,18.1785507202148,18.1789302825928,18.1793098449707,18.1796913146973,18.1800708770752,18.1804523468018,18.1808319091797,18.1812133789062,18.1815948486328,18.1819744110107,18.1823558807373,18.1827373504639,18.1831169128418,18.1834964752197,18.1838779449463,18.1842594146729,18.1846408843994,18.1850204467773,18.1854019165039,18.1857833862305,18.1861629486084,18.186544418335,18.1869239807129,18.1873054504395,18.187686920166,18.1880664825439,18.1884479522705,18.1888294219971,18.1892108917236,18.1895904541016,18.1899738311768,18.1903533935547,18.1907348632812,18.1911163330078,18.1914958953857,18.1918792724609,18.1922588348389,18.1926403045654,18.193021774292,18.1934013366699,18.1937828063965,18.194164276123,18.1945457458496,18.1949272155762,18.1953086853027,18.1956901550293,18.1960697174072,18.1964530944824,18.196834564209,18.1972141265869,18.1975955963135,18.19797706604,18.1983585357666,18.1987400054932,18.1991214752197,18.1995029449463,18.1998844146729,18.2002658843994,18.200647354126,18.2010288238525,18.2014102935791,18.2017917633057,18.2021732330322,18.2025547027588,18.2029361724854,18.2033176422119,18.2036991119385,18.204080581665,18.2044620513916,18.2048435211182,18.2052249908447,18.2056064605713,18.2059898376465,18.206371307373,18.2067527770996,18.2071342468262,18.2075157165527,18.2078971862793,18.2082786560059,18.2086601257324,18.2090435028076,18.2094249725342,18.2098064422607,18.2101879119873,18.2105712890625,18.2109508514404,18.2113342285156,18.2117156982422,18.2120990753174,18.2124786376953,18.2128620147705,18.2132434844971,18.2136268615723,18.2140064239502,18.2143898010254,18.214771270752,18.2151546478271,18.2155361175537,18.2159175872803,18.2162990570068,18.2166805267334,18.2170639038086,18.2174472808838,18.2178287506104,18.2182102203369,18.2185935974121,18.2189769744873,18.2193584442139,18.2197418212891,18.2201232910156,18.2205066680908,18.220890045166,18.2212715148926,18.2216529846191,18.2220363616943,18.2224197387695,18.2228012084961,18.2231826782227,18.2235679626465,18.223949432373,18.2243328094482,18.2247142791748,18.22509765625,18.2254810333252,18.2258625030518,18.226245880127,18.2266292572021,18.2270126342773,18.2273941040039,18.2277774810791,18.2281589508057,18.2285423278809,18.2289257049561,18.2293090820312,18.2296905517578,18.230073928833,18.2304573059082,18.2308406829834,18.23122215271,18.2316055297852,18.2319889068604,18.2323722839355,18.2327537536621,18.2331371307373,18.2335224151611,18.2339038848877,18.2342872619629,18.2346706390381,18.2350540161133,18.2354354858398,18.235818862915,18.2362022399902,18.2365856170654,18.2369689941406,18.2373523712158,18.237735748291,18.2381191253662,18.2385025024414,18.2388858795166,18.2392673492432,18.239652633667,18.2400360107422,18.2404193878174,18.2408008575439,18.2411861419678,18.2415676116943,18.2419509887695,18.2423362731934,18.2427177429199,18.2431030273438,18.2434864044189,18.2438697814941,18.2442531585693,18.2446365356445,18.2450199127197,18.2454032897949,18.2457866668701,18.2461719512939,18.2465553283691,18.2469387054443,18.2473220825195,18.2477054595947,18.2480888366699,18.2484722137451,18.2488574981689,18.2492389678955,18.2496242523193,18.2500076293945,18.2503910064697,18.2507743835449,18.2511596679688,18.2515430450439,18.2519264221191,18.2523097991943,18.2526931762695,18.2530784606934,18.2534618377686,18.2538452148438,18.2542285919189,18.2546138763428,18.254997253418,18.2553806304932,18.255765914917,18.2561492919922,18.256534576416,18.2569179534912,18.2573013305664,18.2576847076416,18.2580699920654,18.2584533691406,18.2588386535645,18.2592239379883,18.2596073150635,18.2599906921387,18.2603740692139,18.2607593536377,18.2611427307129,18.2615261077881,18.2619113922119,18.2622966766357,18.2626819610596,18.2630653381348,18.26344871521,18.2638339996338,18.264217376709,18.2646007537842,18.264986038208,18.2653713226318,18.265754699707,18.2661399841309,18.2665233612061,18.2669086456299,18.2672939300537,18.2676753997803,18.2680606842041,18.2684459686279,18.2688312530518,18.2692165374756,18.2696018218994,18.2699851989746,18.2703685760498,18.2707538604736,18.2711372375488,18.2715225219727,18.2719097137451,18.2722930908203,18.2726783752441,18.2730617523193,18.2734470367432,18.2738304138184,18.2742156982422,18.274600982666,18.2749862670898,18.2753715515137,18.2757549285889,18.2761402130127,18.2765254974365,18.2769088745117,18.2772941589355,18.2776794433594,18.2780647277832,18.278450012207,18.2788352966309,18.2792205810547,18.2796039581299,18.2799892425537,18.2803745269775,18.2807598114014,18.2811450958252,18.281530380249,18.2819156646729,18.2823009490967,18.2826862335205,18.2830715179443,18.2834548950195,18.283842086792,18.2842254638672,18.284610748291,18.2849960327148,18.2853813171387,18.2857666015625,18.2861518859863,18.2865371704102,18.286922454834,18.2873077392578,18.2876930236816,18.2880802154541,18.2884654998779,18.2888488769531,18.289234161377,18.2896213531494,18.2900047302246,18.2903900146484,18.2907752990723,18.2911624908447,18.2915477752686,18.2919330596924,18.2923183441162,18.29270362854,18.2930889129639,18.2934741973877
12.0018177032471,12.0496044158936,12.0977735519409,12.1463298797607,12.1952772140503,12.2446212768555,12.2943649291992,12.3445158004761,12.395076751709,12.4460535049438,12.4974508285522,12.5492753982544,12.6015310287476,12.654224395752,12.7073593139648,12.7609424591064,12.8149795532227,12.8694772720337,12.9244394302368,12.9798727035522,13.0357847213745,13.0921792984009,13.1490650177002,13.2064456939697,13.2643308639526,13.3227252960205,13.3816356658936,13.4410705566406,13.5010347366333,13.5615358352661,13.6225824356079,13.6841793060303,13.7463331222534,13.8090543746948,13.8723497390747,14.1175518035889,14.1828508377075,14.2487659454346,14.3153057098389,14.3824911117554,14.450309753418,14.5187482833862,14.5878286361694,14.6948213577271,14.6974649429321,14.7001104354858,14.7027559280396,14.7514553070068,14.8237638473511,14.8967313766479,14.970419883728,15.0448417663574,15.1200065612793,15.1959257125854,15.2726125717163,15.350076675415,15.4283304214478,15.5073862075806,15.5872554779053,17.8082427978516,17.8116588592529,17.8150749206543,17.8636589050293,17.958122253418,17.9965934753418,17.9969654083252,17.9973335266113,17.9977111816406,17.9980792999268,17.9984588623047,17.9988288879395,17.9992027282715,17.9995727539062,17.9999465942383,18.0003204345703,18.0006942749023,18.0010662078857,18.0014457702637,18.0018138885498,18.0021896362305,18.0025615692139,18.0029335021973,18.0033054351807,18.0036773681641,18.0040531158447,18.0044288635254,18.0048007965088,18.0051727294922,18.0055465698242,18.0059204101562,18.0062942504883,18.0066680908203,18.0070400238037,18.0074138641357,18.0077877044678,18.0081615447998,18.0085353851318,18.0089073181152,18.0092811584473,18.0096549987793,18.0100288391113,18.0104007720947,18.0107746124268,18.0111484527588,18.0115222930908,18.0118942260742,18.0122699737549,18.0126438140869,18.0130176544189,18.0133895874023,18.0137634277344,18.014139175415,18.0145130157471,18.0148849487305,18.0152587890625,18.0156326293945,18.0160064697266,18.0163803100586,18.0167541503906,18.0171279907227,18.0175018310547,18.0178756713867,18.0182495117188,18.0186233520508,18.0189971923828,18.0193710327148,18.0197448730469,18.0201187133789,18.0204925537109,18.020866394043,18.021240234375,18.0216159820557,18.0219879150391,18.0223617553711,18.0227355957031,18.0231113433838,18.0234832763672,18.0238590240479,18.0242328643799,18.0246067047119,18.0249805450439,18.025354385376,18.0257301330566,18.0261039733887,18.0264778137207,18.0268516540527,18.0272254943848,18.0275993347168,18.0279750823975,18.0283489227295,18.0287227630615,18.0290966033936,18.0294723510742,18.0298461914062,18.0302219390869,18.0305938720703,18.030969619751,18.031343460083,18.031717300415,18.0320930480957,18.0324668884277,18.0328407287598,18.0332164764404,18.0335903167725,18.0339641571045,18.0343399047852,18.0347156524658,18.0350875854492,18.0354633331299,18.0358371734619,18.0362110137939,18.0365867614746,18.0369606018066,18.0373363494873,18.0377101898193,18.0380859375,18.038459777832,18.0388336181641,18.0392093658447,18.0395832061768,18.0399589538574,18.0403347015381,18.0407085418701,18.0410842895508,18.0414581298828,18.0418319702148,18.0422077178955,18.0425815582275,18.0429573059082,18.0433311462402,18.0437068939209,18.0440826416016,18.0444564819336,18.0448303222656,18.0452060699463,18.0455837249756,18.0459575653076,18.0463333129883,18.0467071533203,18.047082901001,18.0474586486816,18.0478324890137,18.0482082366943,18.048583984375,18.0489597320557,18.0493354797363,18.049711227417,18.050085067749,18.0504608154297,18.0508365631104,18.051212310791,18.0515880584717,18.0519638061523,18.0523376464844,18.052713394165,18.0530891418457,18.0534648895264,18.0538387298584,18.0542163848877,18.0545921325684,18.0549659729004,18.0553436279297,18.0557174682617,18.0560932159424,18.056468963623,18.0568447113037,18.0572204589844,18.057596206665,18.0579719543457,18.0583477020264,18.058723449707,18.0590991973877,18.0594749450684,18.059850692749,18.0602264404297,18.0606021881104,18.060977935791,18.0613555908203,18.061731338501,18.0621070861816,18.0624809265137,18.062858581543,18.0632343292236,18.0636100769043,18.0639839172363,18.0643615722656,18.0647373199463,18.0651149749756,18.0654907226562,18.0658664703369,18.0662422180176,18.0666179656982,18.0669937133789,18.0673694610596,18.0677471160889,18.0681209564209,18.0684986114502,18.0688743591309,18.0692520141602,18.0696277618408,18.0700035095215,18.0703792572021,18.0707550048828,18.0711326599121,18.0715084075928,18.0718841552734,18.0722618103027,18.0726375579834,18.0730133056641,18.0733890533447,18.073766708374,18.0741424560547,18.074520111084,18.0748958587646,18.0752716064453,18.075647354126,18.0760250091553,18.0764007568359,18.0767765045166,18.0771541595459,18.0775318145752,18.0779075622559,18.0782833099365,18.0786609649658,18.0790367126465,18.0794124603271,18.0797901153564,18.0801677703857,18.0805435180664,18.0809192657471,18.0812969207764,18.0816745758057,18.0820503234863,18.0824279785156,18.0828037261963,18.083179473877,18.0835571289062,18.0839347839355,18.0843105316162,18.0846881866455,18.0850658416748,18.0854415893555,18.0858173370361,18.0861949920654,18.0865707397461,18.0869483947754,18.0873260498047,18.0877017974854,18.0880794525146,18.0884571075439,18.0888328552246,18.0892105102539,18.0895881652832,18.0899658203125,18.0903415679932,18.0907192230225,18.0910968780518,18.0914745330811,18.0918502807617,18.0922260284424,18.0926036834717,18.0929832458496,18.0933589935303,18.0937366485596,18.0941123962402,18.0944919586182,18.0948677062988,18.0952453613281,18.0956230163574,18.0959987640381,18.096378326416,18.0967559814453,18.097131729126,18.0975093841553,18.0978870391846,18.0982627868652,18.0986404418945,18.0990180969238,18.0993976593018,18.0997734069824,18.1001510620117,18.100528717041,18.1009063720703,18.1012840270996,18.1016616821289,18.1020374298096,18.1024150848389,18.1027946472168,18.1031703948975,18.1035499572754,18.1039276123047,18.1043033599854,18.1046829223633,18.1050586700439,18.1054363250732,18.1058158874512,18.1061935424805,18.1065711975098,18.1069488525391,18.1073265075684,18.1077041625977,18.108081817627,18.1084594726562,18.1088371276855,18.1092166900635,18.1095943450928,18.1099700927734,18.1103477478027,18.1107273101807,18.11110496521,18.1114826202393,18.1118602752686,18.1122398376465,18.1126155853271,18.1129951477051,18.1133728027344,18.1137504577637,18.114128112793,18.1145057678223,18.1148853302002,18.1152629852295,18.1156406402588,18.1160182952881,18.116397857666,18.1167755126953,18.1171531677246,18.1175308227539,18.1179103851318,18.1182899475098,18.1186676025391
