15.0649919509888,15.0653629302979,15.065731048584,15.0661010742188,15.0664720535278,15.0668411254883,15.0672101974487,15.0675821304321,15.0679502487183,15.068320274353,15.0686912536621,15.0690612792969,15.0694303512573,15.0698013305664,15.0701713562012,15.0705404281616,15.0709114074707,15.0712804794312,15.0716505050659,15.072021484375,15.0723915100098,15.0727615356445,15.0731325149536,15.0735015869141,15.0738716125488,15.0742425918579,15.0746126174927,15.0749816894531,15.0753526687622,15.0757236480713,15.0760927200317,15.0764627456665,15.0768337249756,15.0772037506104,15.0775737762451,15.0779466629028,15.0783157348633,15.078685760498,15.0790567398071,15.0794277191162,15.0797967910767,15.0801696777344,15.0805387496948,15.0809087753296,15.0812797546387,15.0816507339478,15.0820207595825,15.0823917388916,15.0827627182007,15.0831327438354,15.0835037231445,15.0838737487793,15.0842447280884,15.0846157073975,15.0849857330322,15.0853567123413,15.0857286453247,15.0860986709595,15.0864696502686,15.086841583252,15.0872106552124,15.0875816345215,15.0879535675049,15.088324546814,15.0886945724487,15.0890665054321,15.0894374847412,15.089807510376,15.0901794433594,15.0905494689941,15.0909204483032,15.0912914276123,15.0916624069214,15.0920333862305,15.0924053192139,15.0927762985229,15.0931463241577,15.0935192108154,15.0938901901245,15.0942602157593,15.094633102417,15.0950031280518,15.0953741073608,15.0957460403442,15.0961170196533,15.0964879989624,15.0968599319458,15.0972309112549,15.097601890564,15.0979738235474,15.0983457565308,15.0987167358398,15.0990886688232,15.0994596481323,15.0998296737671,15.1002025604248,15.1005744934082,15.1009454727173,15.1013174057007,15.1016893386841,15.1020603179932,15.1024312973022,15.10280418396,15.103175163269,15.1035470962524,15.1039190292358,15.1042909622192,15.104660987854,15.105034828186,15.1054048538208,15.1057767868042,15.1061487197876,15.106520652771,15.1068916320801,15.1072654724121,15.1076364517212,15.1080083847046,15.1083793640137,15.1087522506714,15.1091241836548,15.1094951629639,15.1098680496216,15.110239982605,15.1106119155884,15.1109848022461,15.1113567352295,15.1117286682129,15.1121006011963,15.1124725341797,15.1128444671631,15.1132164001465,15.1135902404785,15.1139621734619,15.114333152771,15.1147060394287,15.1150779724121,15.1154499053955,15.1158237457275,15.1161947250366,15.11656665802,15.1169395446777,15.1173124313354,15.1176853179932,15.1180562973022,15.11842918396,15.1188011169434,15.1191730499268,15.1195468902588,15.1199188232422,15.1202917098999,15.1206645965576,15.121036529541,15.1214084625244,15.1217813491821,15.1221542358398,15.1225271224976,15.1229000091553,15.123272895813,15.1236448287964,15.1240167617798,15.1243896484375,15.1247625350952,15.1251354217529,15.1255083084106,15.1258821487427,15.1262540817261,15.1266260147095,15.1269998550415,15.1273727416992,15.1277446746826,15.128119468689,15.1284923553467,15.1288642883301,15.1292371749878,15.1296110153198,15.1299829483032,15.1303558349609,15.130729675293,15.1311016082764,15.1314754486084,15.1318492889404,15.1322212219238,15.1325941085815,15.1329679489136,15.1333417892456,15.133713722229,15.1340866088867,15.1344614028931,15.1348342895508,15.1352062225342,15.1355810165405,15.1359539031982,15.136326789856,15.1366987228394,15.1370735168457,15.1374473571777,15.1378202438354,15.1381940841675,15.1385669708252,15.1389398574829,15.1393136978149,15.139687538147,15.1400604248047,15.140435218811,15.1408081054688,15.1411819458008,15.1415538787842,15.1419296264648,15.1423025131226,15.1426753997803,15.1430492401123,15.1434240341187,15.1437959671021,15.1441717147827,15.1445446014404,15.1449184417725,15.1452913284302,15.1456661224365,15.1460390090942,15.1464138031006,15.1467876434326,15.1471605300903,15.1475343704224,15.1479091644287,15.1482820510864,15.1486558914185,15.1490306854248,15.1494045257568,15.1497783660889,15.1501522064209,15.1505270004272,15.150899887085,15.151273727417,15.1516485214233,15.1520223617554,15.1523962020874,15.1527709960938,15.1531448364258,15.1535186767578,15.1538925170898,15.1542673110962,15.1546401977539,15.1550149917603,15.1553907394409,15.1557636260986,15.1561374664307,15.1565132141113,15.1568870544434,15.1572608947754,15.1576356887817,15.1580095291138,15.1583843231201,15.1587591171265,15.1591348648071,15.1595077514648,15.1598815917969,15.1602573394775,15.1606311798096,15.1610059738159,15.1613807678223,15.1617555618286,15.1621294021606,15.1625032424927,15.1628789901733,15.1632528305054,15.1636276245117,15.1640033721924,15.1643781661987,15.1647520065308,15.1651277542114,15.1655015945435,15.1658763885498,15.1662502288818,15.1666259765625,15.1670007705688,15.1673755645752,15.1677513122559,15.1681261062622,15.1684999465942,15.1688756942749,15.1692504882812,15.1696243286133,15.1699991226196,15.1703758239746,15.170750617981,15.171124458313,15.1715002059937,15.171875,15.1722497940063,15.172625541687,15.1730003356934,15.1733751296997,15.1737508773804,15.174126625061,15.1745004653931,15.1748752593994,15.1752519607544,15.1756267547607,15.1760015487671,15.1763782501221,15.1767530441284,15.1771278381348,15.1775035858154,15.1778793334961,15.1782541275024,15.1786289215088,15.1790046691895,15.1793804168701,15.1797552108765,15.1801319122314,15.1805067062378,15.1808815002441,15.1812572479248,15.1816329956055,15.1820087432861,15.1823835372925,15.1827611923218,15.1831359863281,15.1835107803345,15.1838874816895,15.1842622756958,15.1846380233765,15.1850147247314,15.1853904724121,15.1857652664185,15.1861419677734,15.1865177154541,15.1868925094604,15.1872682571411,15.1876449584961,15.1880197525024,15.1883964538574,15.1887731552124,15.1891479492188,15.1895236968994,15.1898994445801,15.1902761459351,15.1906518936157,15.1910266876221,15.1914043426514,15.191780090332,15.1921558380127,15.1925325393677,15.1929082870483,15.1932830810547,15.193660736084,15.1940364837646,15.1944122314453,15.1947898864746,15.1951656341553,15.1955413818359,15.1959171295166,15.1962947845459,15.1966695785522,15.1970453262329,15.1974239349365,15.1977996826172,15.1981754302979,15.1985530853271,15.1989288330078,15.1993045806885,15.1996803283691,15.2000570297241,15.2004346847534,15.2008094787598,15.2011880874634,15.201563835144,15.201940536499,15.2023162841797,15.2026929855347,15.2030696868896,15.2034454345703,15.2038230895996,15.2041997909546,15.2045755386353,15.2049541473389,15.2053298950195,15.2057065963745,15.2060832977295,15.2064609527588,15.2068367004395,15.2072143554688,15.2075910568237,15.2079668045044,15.2083435058594,15.208722114563,15.2090978622437,15.2094745635986,15.2098531723022,15.2102289199829,15.2106056213379,15.2109832763672
14.9459266662598,14.9462900161743,14.9466543197632,14.9470186233521,14.9473819732666,14.9477462768555,14.9481105804443,14.9484739303589,14.9488391876221,14.9492025375366,14.9495658874512,14.9499311447144,14.9502954483032,14.9506587982178,14.951024055481,14.9513883590698,14.9517517089844,14.9521169662476,14.9524812698364,14.952844619751,14.9532098770142,14.953574180603,14.9539375305176,14.9543027877808,14.9546670913696,14.9550304412842,14.9553956985474,14.9557600021362,14.9561243057251,14.9564895629883,14.9568538665771,14.9572172164917,14.9575824737549,14.9579467773438,14.9583110809326,14.9586772918701,14.9590406417847,14.9594049453735,14.9597702026367,14.9601345062256,14.9604988098145,14.9608640670776,14.9612283706665,14.9615926742554,14.9619579315186,14.9623222351074,14.9626874923706,14.9630508422852,14.9634170532227,14.9637813568115,14.9641456604004,14.9645118713379,14.9648752212524,14.9652395248413,14.9656066894531,14.965970993042,14.9663352966309,14.9667015075684,14.9670658111572,14.9674301147461,14.9677963256836,14.9681606292725,14.9685249328613,14.9688911437988,14.9692554473877,14.9696207046509,14.9699859619141,14.9703512191772,14.9707155227661,14.9710817337036,14.9714460372925,14.9718112945557,14.9721765518188,14.972541809082,14.9729070663452,14.9732732772827,14.9736375808716,14.9740037918091,14.9743690490723,14.9747343063354,14.9750995635986,14.9754657745361,14.9758310317993,14.9761953353882,14.9765625,14.9769268035889,14.9772920608521,14.9776573181152,14.9780235290527,14.9783878326416,14.9787549972534,14.9791202545166,14.9794855117798,14.9798517227173,14.9802169799805,14.9805822372437,14.9809484481812,14.9813137054443,14.9816789627075,14.982045173645,14.9824104309082,14.9827756881714,14.9831428527832,14.9835081100464,14.9838743209839,14.9842395782471,14.9846048355103,14.9849710464478,14.9853372573853,14.9857025146484,14.9860687255859,14.9864349365234,14.9868011474609,14.9871664047241,14.9875326156616,14.9878988265991,14.9882640838623,14.9886293411255,14.9889965057373,14.9893617630005,14.989727973938,14.9900932312012,14.9904613494873,14.9908275604248,14.9911937713623,14.9915599822998,14.991925239563,14.9922914505005,14.9926586151123,14.9930248260498,14.9933910369873,14.9937582015991,14.9941234588623,14.9944896697998,14.9948558807373,14.9952230453491,14.9955883026123,14.9959545135498,14.9963216781616,14.9966888427734,14.9970550537109,14.9974222183228,14.9977884292603,14.9981536865234,14.9985198974609,14.9988870620728,14.9992532730103,14.9996204376221,14.9999876022339,15.0003538131714,15.0007200241089,15.001088142395,15.0014543533325,15.00182056427,15.0021867752075,15.0025548934937,15.0029211044312,15.0032873153687,15.0036544799805,15.0040216445923,15.0043869018555,15.0047550201416,15.0051212310791,15.0054883956909,15.0058565139771,15.0062227249146,15.0065889358521,15.0069551467896,15.0073223114014,15.0076904296875,15.008056640625,15.0084247589111,15.0087919235229,15.0091581344604,15.0095262527466,15.0098924636841,15.0102596282959,15.0106258392334,15.0109939575195,15.0113611221313,15.0117273330688,15.0120964050293,15.0124626159668,15.0128288269043,15.0131969451904,15.0135641098022,15.0139312744141,15.0142993927002,15.014666557312,15.0150337219238,15.0154008865356,15.0157680511475,15.0161352157593,15.0165023803711,15.0168704986572,15.0172386169434,15.0176057815552,15.0179738998413,15.0183410644531,15.0187082290649,15.0190753936768,15.0194435119629,15.0198106765747,15.0201778411865,15.020546913147,15.0209131240845,15.0212802886963,15.0216493606567,15.0220165252686,15.0223836898804,15.0227518081665,15.0231199264526,15.0234870910645,15.0238552093506,15.0242233276367,15.0245904922485,15.0249576568604,15.0253276824951,15.0256938934326,15.0260620117188,15.0264310836792,15.026798248291,15.0271654129028,15.027533531189,15.0279016494751,15.0282688140869,15.028636932373,15.0290069580078,15.0293750762939,15.0297412872314,15.0301103591919,15.030478477478,15.0308465957642,15.031213760376,15.0315828323364,15.0319519042969,15.0323190689087,15.0326871871948,15.033055305481,15.0334234237671,15.0337924957275,15.0341596603394,15.0345277786255,15.0348968505859,15.0352659225464,15.0356340408325,15.0360012054443,15.0363702774048,15.0367383956909,15.0371065139771,15.0374755859375,15.0378446578979,15.0382118225098,15.0385818481445,15.0389490127563,15.0393180847168,15.0396862030029,15.0400552749634,15.0404233932495,15.04079246521,15.0411624908447,15.0415306091309,15.041898727417,15.0422677993774,15.0426359176636,15.0430040359497,15.0433721542358,15.0437421798706,15.0441102981567,15.0444793701172,15.0448484420776,15.0452175140381,15.0455856323242,15.0459547042847,15.0463237762451,15.0466928482056,15.0470628738403,15.0474309921265,15.0477991104126,15.048168182373,15.0485382080078,15.0489063262939,15.0492744445801,15.0496444702148,15.0500144958496,15.0503816604614,15.0507526397705,15.051121711731,15.0514888763428,15.0518579483032,15.052227973938,15.0525970458984,15.0529661178589,15.053337097168,15.0537052154541,15.0540733337402,15.0544443130493,15.0548133850098,15.0551824569702,15.0555515289307,15.0559215545654,15.0562896728516,15.056658744812,15.0570297241211,15.0573987960815,15.0577669143677,15.0581378936768,15.0585079193115,15.0588760375977,15.0592470169067,15.0596151351929,15.0599842071533,15.0603532791138,15.0607233047485,15.0610933303833,15.0614624023438,15.0618343353271,15.0622034072876,15.062572479248,15.0629425048828,15.0633125305176,15.0636806488037,15.0640506744385,15.0644216537476,15.0647916793823,15.0651607513428,15.0655307769775,15.0659008026123,15.0662689208984,15.0666408538818,15.0670099258423,15.0673799514771,15.0677490234375,15.0681200027466,15.068489074707,15.0688600540161,15.0692300796509,15.0696001052856,15.0699691772461,15.0703401565552,15.0707101821899,15.0710802078247,15.0714502334595,15.0718212127686,15.072190284729,15.0725593566895,15.0729303359985,15.0733013153076,15.0736703872681,15.0740423202515,15.0744113922119,15.0747814178467,15.0751533508301,15.0755224227905,15.0758934020996,15.0762624740601,15.0766344070435,15.0770034790039,15.077374458313,15.0777463912964,15.0781154632568,15.0784864425659,15.0788564682007,15.0792274475098,15.0795965194702,15.079966545105,15.0803384780884,15.0807094573975,15.0810804367065,15.081449508667,15.0818214416504,15.0821905136108,15.0825624465942,15.082932472229,15.0833024978638,15.0836753845215,15.0840454101562,15.084415435791,15.0847854614258,15.0851573944092,15.0855274200439,15.085898399353,15.0862693786621,15.0866403579712,15.0870113372803,15.0873823165894,15.0877532958984,15.0881233215332,15.0884952545166,15.0888652801514,15.0892372131348,15.0896081924438
14.8287286758423,14.8290863037109,14.8294448852539,14.8298034667969,14.8301620483398,14.8305187225342,14.8308792114258,14.8312358856201,14.8315944671631,14.8319530487061,14.832311630249,14.832670211792,14.8330297470093,14.8333873748779,14.8337450027466,14.8341045379639,14.8344631195068,14.8348207473755,14.8351793289185,14.8355388641357,14.8358964920044,14.8362560272217,14.8366146087646,14.8369722366333,14.8373317718506,14.8376913070679,14.8380489349365,14.8384084701538,14.8387660980225,14.8391256332397,14.8394842147827,14.8398427963257,14.8402013778687,14.8405609130859,14.8409185409546,14.8412771224976,14.8416376113892,14.8419952392578,14.8423547744751,14.8427143096924,14.8430728912354,14.8434314727783,14.8437910079956,14.8441495895386,14.8445081710815,14.8448686599731,14.8452272415161,14.8455858230591,14.8459453582764,14.8463039398193,14.8466625213623,14.8470230102539,14.8473815917969,14.8477401733398,14.8480997085571,14.8484592437744,14.8488178253174,14.849178314209,14.8495378494263,14.8498954772949,14.8502569198608,14.8506155014038,14.8509740829468,14.8513336181641,14.8516931533813,14.8520526885986,14.8524112701416,14.8527717590332,14.8531303405762,14.8534898757935,14.8538503646851,14.854208946228,14.8545684814453,14.8549289703369,14.8552875518799,14.8556470870972,14.8560066223145,14.8563661575317,14.856725692749,14.8570861816406,14.8574447631836,14.8578052520752,14.8581647872925,14.8585243225098,14.8588838577271,14.8592443466187,14.8596038818359,14.8599624633789,14.8603229522705,14.8606834411621,14.8610420227051,14.8614025115967,14.861762046814,14.8621215820312,14.8624820709229,14.8628425598145,14.8632011413574,14.863561630249,14.8639211654663,14.8642807006836,14.8646421432495,14.8650016784668,14.8653612136841,14.86572265625,14.8660821914673,14.8664407730103,14.8668022155762,14.8671617507935,14.8675212860107,14.8678827285767,14.8682432174683,14.8686027526855,14.8689632415771,14.8693237304688,14.869683265686,14.8700437545776,14.8704032897949,14.8707628250122,14.8711252212524,14.8714847564697,14.8718452453613,14.8722057342529,14.8725662231445,14.8729257583618,14.8732872009277,14.8736486434937,14.8740081787109,14.8743686676025,14.8747291564941,14.8750905990601,14.8754501342773,14.8758096694946,14.8761720657349,14.8765316009521,14.8768920898438,14.8772535324097,14.8776140213013,14.8779745101929,14.8783340454102,14.8786954879761,14.8790559768677,14.8794174194336,14.8797788619995,14.8801393508911,14.8804998397827,14.8808612823486,14.8812217712402,14.8815813064575,14.8819446563721,14.8823051452637,14.882664680481,14.8830251693726,14.8833875656128,14.8837471008301,14.8841075897217,14.8844690322876,14.8848304748535,14.8851909637451,14.8855533599854,14.885913848877,14.8862743377686,14.8866348266602,14.8869972229004,14.887357711792,14.8877182006836,14.8880805969238,14.8884410858154,14.888801574707,14.8891639709473,14.8895254135132,14.8898849487305,14.8902473449707,14.8906097412109,14.8909702301025,14.8913316726685,14.8916931152344,14.892053604126,14.8924150466919,14.8927774429321,14.893138885498,14.893500328064,14.8938617706299,14.8942232131958,14.8945837020874,14.8949451446533,14.8953075408936,14.8956680297852,14.8960304260254,14.8963928222656,14.8967542648315,14.8971147537231,14.8974771499634,14.8978385925293,14.8981990814209,14.8985605239868,14.8989229202271,14.899284362793,14.8996458053589,14.9000091552734,14.900369644165,14.900731086731,14.9010934829712,14.9014558792114,14.9018173217773,14.9021797180176,14.9025411605835,14.9029026031494,14.9032640457153,14.9036264419556,14.9039888381958,14.9043502807617,14.904712677002,14.9050750732422,14.9054355621338,14.9057989120483,14.9061603546143,14.9065217971802,14.9068841934204,14.9072465896606,14.9076089859009,14.9079704284668,14.9083337783813,14.9086952209473,14.9090566635132,14.9094200134277,14.909782409668,14.9101428985596,14.9105052947998,14.9108686447144,14.9112310409546,14.9115924835205,14.9119567871094,14.912317276001,14.9126796722412,14.9130430221558,14.9134044647217,14.9137668609619,14.9141302108765,14.9144926071167,14.9148540496826,14.9152164459229,14.9155797958374,14.9159421920776,14.9163036346436,14.9166679382324,14.9170293807983,14.9173917770386,14.9177560806274,14.9181184768677,14.9184799194336,14.9188413619995,14.9192056655884,14.9195680618286,14.9199304580688,14.9202938079834,14.9206562042236,14.9210195541382,14.9213819503784,14.9217443466187,14.9221067428589,14.9224700927734,14.922833442688,14.9231958389282,14.9235582351685,14.9239225387573,14.9242849349976,14.9246473312378,14.9250116348267,14.9253730773926,14.9257364273071,14.9260997772217,14.9264621734619,14.9268255233765,14.927188873291,14.9275522232056,14.9279146194458,14.9282779693604,14.9286403656006,14.9290037155151,14.9293670654297,14.9297313690186,14.9300947189331,14.930456161499,14.9308195114136,14.9311838150024,14.931547164917,14.9319086074829,14.9322748184204,14.9326372146606,14.9329996109009,14.9333648681641,14.93372631073,14.9340906143188,14.9344520568848,14.9348173141479,14.9351806640625,14.9355430603027,14.9359083175659,14.9362707138062,14.936635017395,14.9369983673096,14.9373617172241,14.9377241134644,14.9380893707275,14.9384527206421,14.9388151168823,14.9391803741455,14.9395437240601,14.9399070739746,14.9402694702148,14.9406356811523,14.9409980773926,14.9413614273071,14.9417276382446,14.9420900344849,14.9424543380737,14.942816734314,14.9431810379028,0,0,0,0,0,0,0,0,0,0,0,0,0,0,0,0,0,0,0,0,0,0,0,0,0,0,0,0,0,0,0,0,0,0,0,0,0,0,0,0,0,0,0,0,0,0,0,0,0,0,0,0,0,0,0,0,0,0,0,0,0,0,0,0,0,0,0,0,0,0,0,0,0,0
14.7133541107178,14.7137069702148,14.7140598297119,14.714412689209,14.7147655487061,14.7151174545288,14.7154703140259,14.7158241271973,14.71617603302,14.7165288925171,14.7168817520142,14.7172346115112,14.7175874710083,14.7179403305054,14.7182931900024,14.7186460494995,14.7189989089966,14.719352722168,14.719705581665,14.7200584411621,14.7204113006592,14.7207641601562,14.7211179733276,14.7214708328247,14.7218227386475,14.7221775054932,14.7225303649902,14.722882270813,14.7232370376587,14.7235898971558,14.7239418029785,14.7242965698242,14.7246494293213,14.725001335144,14.7253561019897,14.7257089614868,14.7260618209839,14.7264156341553,14.7267694473267,14.7271223068237,14.7274770736694,14.7278299331665,14.7281837463379,14.728536605835,14.7288904190063,14.7292432785034,14.7295970916748,14.7299499511719,14.7303037643433,14.7306575775146,14.731011390686,14.7313642501831,14.7317190170288,14.7320718765259,14.7324256896973,14.7327795028687,14.73313331604,14.7334852218628,14.7338399887085,14.7341938018799,14.734546661377,14.734902381897,14.7352542877197,14.7356090545654,14.7359628677368,14.7363157272339,14.7366695404053,14.737024307251,14.737377166748,14.7377319335938,14.7380857467651,14.7384395599365,14.7387924194336,14.7391471862793,14.7395009994507,14.7398548126221,14.7402095794678,14.7405624389648,14.7409172058105,14.7412710189819,14.7416248321533,14.7419786453247,14.7423324584961,14.7426872253418,14.7430410385132,14.7433948516846,14.7437496185303,14.7441034317017,14.744457244873,14.7448129653931,14.7451667785645,14.7455205917358,14.7458753585815,14.7462282180786,14.7465829849243,14.7469387054443,14.7472925186157,14.7476463317871,14.7480010986328,14.7483549118042,14.7487096786499,14.7490653991699,14.7494192123413,14.7497730255127,14.7501287460327,14.7504816055298,14.7508363723755,14.7511920928955,14.7515459060669,14.7519006729126,14.7522554397583,14.752610206604,14.7529649734497,14.7533187866211,14.7536745071411,14.7540273666382,14.7543830871582,14.7547378540039,14.7550916671753,14.7554473876953,14.755802154541,14.7561559677124,14.7565126419067,14.7568664550781,14.7572212219238,14.7575769424438,14.7579298019409,14.7582855224609,14.7586402893066,14.7589960098267,14.759349822998,14.7597045898438,14.7600603103638,14.7604160308838,14.7607707977295,14.7611246109009,14.7614803314209,14.7618350982666,14.7621898651123,14.7625455856323,14.762900352478,14.763256072998,14.7636117935181,14.7639665603638,14.7643213272095,14.7646751403809,14.7650318145752,14.7653865814209,14.7657413482666,14.7660989761353,14.7664527893066,14.7668075561523,14.7671642303467,14.7675189971924,14.7678737640381,14.7682285308838,14.7685842514038,14.7689409255981,14.7692947387695,14.7696514129639,14.7700061798096,14.7703609466553,14.7707176208496,14.7710723876953,14.7714281082153,14.7717847824097,14.7721405029297,14.7724943161011,14.7728500366211,14.7732057571411,14.7735614776611,14.7739171981812,14.7742738723755,14.7746295928955,14.7749853134155,14.7753410339355,14.7756967544556,14.7760515213013,14.7764072418213,14.7767629623413,14.7771186828613,14.7774744033813,14.7778310775757,14.7781858444214,14.7785425186157,14.7788991928101,14.7792549133301,14.7796096801758,14.7799654006958,14.7803230285645,14.7806777954102,14.7810344696045,14.7813901901245,14.7817459106445,14.7821025848389,14.7824583053589,14.7828149795532,14.7831687927246,14.7835273742676,14.7838821411133,14.7842388153076,14.7845945358276,14.784951210022,14.7853078842163,14.785662651062,14.7860202789307,14.7863750457764,14.7867317199707,14.787088394165,14.7874450683594,14.7878017425537,14.7881565093994,14.7885141372681,14.7888698577881,14.7892265319824,14.7895822525024,14.7899389266968,14.7902956008911,14.7906522750854,14.7910099029541,14.7913646697998,14.7917203903198,14.7920770645142,14.7924337387085,14.7927904129028,14.7931480407715,14.7935047149658,14.7938604354858,14.7942180633545,14.7945737838745,14.7949304580688,14.7952871322632,14.7956447601318,14.7960004806519,14.7963571548462,14.7967147827148,14.7970705032349,14.7974281311035,14.7977848052979,14.7981414794922,14.7984962463379,14.7988548278809,14.7992124557495,14.7995681762695,14.7999258041382,14.8002824783325,14.8006391525269,14.8009948730469,14.8013534545898,14.8017110824585,14.8020677566528,14.8024253845215,14.8027820587158,14.8031387329102,14.8034954071045,14.8038530349731,14.8042097091675,14.8045663833618,14.8049249649048,14.8052806854248,14.8056383132935,14.8059959411621,14.8063535690308,14.8067092895508,14.8070678710938,14.8074254989624,14.8077812194824,14.8081388473511,14.8084964752197,14.8088541030884,0,0,0,0,0,0,0,0,0,0,0,0,0,0,0,0,0,0,0,0,0,0,0,0,0,0,0,0,0,0,0,0,0,0,0,0,0,0,0,0,0,0,0,0,0,0,0,0,0,0,0,0,0,0,0,0,0,0,0,0,0,0,0,0,0,0,0,0,0,0,0,0,0,0,0,0,0,0,0,0,0,0,0,0,0,0,0,0,0,0,0,0,0,0,0,0,0,0,0,0,0,0,0,0,0,0,0,0,0,0,0,0,0,0,0,0,0,0,0,0,0,0
14.599760055542,14.6001081466675,14.6004552841187,14.6008033752441,14.6011505126953,14.6014976501465,14.6018438339233,14.6021928787231,14.6025400161743,14.6028871536255,14.603235244751,14.6035814285278,14.6039295196533,14.6042776107788,14.60462474823,14.6049709320068,14.6053199768066,14.6056671142578,14.6060152053833,14.6063632965088,14.6067094802856,14.6070575714111,14.6074047088623,14.6077527999878,14.6081008911133,14.6084480285645,14.6087961196899,14.6091442108154,14.6094913482666,14.6098394393921,14.6101875305176,14.6105346679688,14.6108827590942,14.6112308502197,14.6115779876709,14.6119260787964,14.6122741699219,14.612621307373,14.6129703521729,14.6133184432983,14.6136646270752,14.6140146255493,14.6143617630005,14.6147089004517,14.6150579452515,14.615406036377,14.6157531738281,14.6161022186279,14.6164503097534,14.6167974472046,14.6171464920044,14.6174945831299,14.6178417205811,14.6181907653809,14.6185388565063,14.6188859939575,14.6192359924316,14.6195831298828,14.6199312210083,14.6202802658081,14.6206283569336,14.6209754943848,14.6213245391846,14.6216726303101,14.6220207214355,14.6223697662354,14.6227188110352,14.6230669021606,14.6234149932861,14.6237640380859,14.6241111755371,14.6244611740112,14.6248092651367,14.6251573562622,14.625506401062,14.6258535385132,14.6262016296387,14.6265516281128,14.6268997192383,14.6272478103638,14.6275978088379,14.6279458999634,14.6282939910889,14.6286430358887,14.6289920806885,14.629340171814,14.6296892166138,14.6300373077393,14.6303863525391,14.6307353973389,14.6310834884644,14.6314325332642,14.631781578064,14.6321306228638,14.6324787139893,14.6328268051147,14.6331777572632,14.6335258483887,14.6338739395142,14.6342239379883,14.6345720291138,14.6349210739136,14.6352710723877,14.6356191635132,14.6359672546387,14.6363172531128,14.6366662979126,14.6370153427124,14.6373643875122,14.6377124786377,14.6380624771118,14.6384115219116,14.6387605667114,14.6391105651855,14.6394596099854,14.6398086547852,14.6401567459106,14.6405076980591,14.6408557891846,14.6412057876587,14.6415557861328,14.6419048309326,14.6422519683838,14.6426029205322,14.6429510116577,14.6433010101318,14.643651008606,14.6440000534058,14.6443490982056,14.644700050354,14.6450481414795,14.6453981399536,14.6457481384277,14.6460971832275,14.6464471817017,14.6467952728271,14.6471462249756,14.6474943161011,14.6478443145752,14.6481943130493,14.6485443115234,14.6488933563232,14.649242401123,14.6495943069458,14.6499423980713,14.6502914428711,14.6506433486938,14.6509923934937,14.6513423919678,14.6516904830933,14.6520414352417,14.6523904800415,14.6527404785156,14.6530904769897,14.6534404754639,14.653790473938,14.6541404724121,14.6544904708862,14.654839515686,14.6551914215088,14.6555404663086,14.6558895111084,14.6562404632568,14.656590461731,14.6569404602051,14.6572895050049,14.6576414108276,14.6579904556274,14.6583404541016,14.65869140625,14.6590414047241,14.6593904495239,14.659740447998,14.6600914001465,14.6604413986206,14.6607913970947,14.6611423492432,14.6614923477173,14.6618423461914,14.6621932983398,14.662543296814,14.6628932952881,14.6632442474365,14.6635942459106,14.6639451980591,14.6642932891846,14.6646451950073,14.6649961471558,14.6653461456299,14.6656970977783,14.6660461425781,14.6663970947266,14.666748046875,14.6670989990234,14.6674489974976,14.6677989959717,14.6681509017944,14.6684999465942,14.668851852417,14.6692018508911,14.6695528030396,14.6699018478394,14.6702547073364,14.6706047058105,14.6709547042847,14.6713056564331,14.6716556549072,14.67200756073,14.6723575592041,14.6727094650269,14.6730613708496,14.6734104156494,14.6737623214722,14.6741123199463,14.6744632720947,14.6748142242432,14.6751651763916,14.6755151748657,14.6758661270142,14.6762189865112,14.676568031311,14.6769199371338,14.6772708892822,14.6776218414307,14.6779708862305,14.6783246994019,14.6786756515503,14.6790256500244,14.6793775558472,14.6797285079956,14.680079460144,14.6804294586182,14.6807823181152,14.6811323165894,14.6814842224121,14.6818361282349,14.682186126709,14.6825380325317,14.6828880310059,14.6832408905029,14.6835918426514,14.6839427947998,14.6842956542969,14.684645652771,14.6849975585938,14.6853485107422,14.6857004165649,14.6860504150391,14.6864032745361,14.6867542266846,14.687105178833,14.6874580383301,14.6878089904785,14.6881608963013,14.6885108947754,14.6888637542725,14.6892147064209,0,0,0,0,0,0,0,0,0,0,0,0,0,0,0,0,0,0,0,0,0,0,0,0,0,0,0,0,0,0,0,0,0,0,0,0,0,0,0,0,0,0,0,0,0,0,0,0,0,0,0,0,0,0,0,0,0,0,0,0,0,0,0,0,0,0,0,0,0,0,0,0,0,0,0,0,0,0,0,0,0,0,0,0,0,0,0,0,0,0,0,0,0,0,0,0,0,0,0,0,0,0,0,0,0,0,0,0,0,0,0,0,0,0,0,0,0,0,0,0,0,0,0,0,0,0,0,0,0,0,0,0,0,0,0
14.4879083633423,14.4882507324219,14.4885931015015,14.4889345169067,14.489275932312,14.4896192550659,14.4899606704712,14.4903020858765,14.4906444549561,14.49098777771,14.4913291931152,14.4916725158691,14.4920139312744,14.4923553466797,14.4926986694336,14.4930400848389,14.4933824539185,14.493724822998,14.4940671920776,14.4944086074829,14.4947519302368,14.4950933456421,14.4954357147217,14.4957790374756,14.4961204528809,14.4964628219604,14.4968061447144,14.4971475601196,14.4974908828735,14.4978332519531,14.498176574707,14.498517036438,14.4988613128662,14.4992027282715,14.4995450973511,14.499888420105,14.5002307891846,14.5005722045898,14.5009164810181,14.5012578964233,14.5016012191772,14.5019426345825,14.5022869110107,14.502628326416,14.5029706954956,14.5033140182495,14.5036573410034,14.5039987564087,14.5043430328369,14.5046854019165,14.5050277709961,14.5053701400757,14.5057134628296,14.5060548782349,14.5064001083374,14.5067415237427,14.5070848464966,14.5074272155762,14.5077705383301,14.5081129074097,14.5084571838379,14.5087995529175,14.5091419219971,14.509485244751,14.5098295211792,14.5101709365845,14.5105152130127,14.5108575820923,14.5112009048462,14.5115442276001,14.5118865966797,14.5122289657593,14.5125732421875,14.5129156112671,14.513258934021,14.5136032104492,14.5139465332031,14.5142889022827,14.5146322250366,14.5149755477905,14.5153179168701,14.5156631469727,14.5160055160522,14.5163478851318,14.5166931152344,14.5170345306396,14.5173788070679,14.5177221298218,14.51806640625,14.5184078216553,14.5187530517578,14.5190954208374,14.5194387435913,14.5197839736938,14.5201263427734,14.5204706192017,14.5208139419556,14.5211582183838,14.5215005874634,14.5218458175659,14.5221881866455,14.5225315093994,14.5228757858276,14.5232191085815,14.5235624313354,14.5239067077637,14.5242500305176,14.5245933532715,14.524938583374,14.5252819061279,14.5256252288818,14.5259685516357,14.526312828064,14.5266561508179,14.5269994735718,14.5273447036743,14.5276870727539,14.5280323028564,14.528374671936,14.5287199020386,14.5290622711182,14.529408454895,14.5297508239746,14.5300951004028,14.5304393768311,14.530782699585,14.5311269760132,14.5314712524414,14.5318145751953,14.5321588516235,14.5325031280518,14.5328483581543,14.5331907272339,14.5335369110107,14.5338792800903,14.5342245101929,14.5345687866211,14.5349130630493,14.5352563858032,14.5356025695801,14.535945892334,14.5362901687622,14.5366334915161,14.536979675293,14.5373220443726,14.5376682281494,14.5380115509033,14.5383558273315,14.5387010574341,14.539044380188,14.5393905639648,14.5397338867188,14.540078163147,14.5404233932495,14.5407676696777,14.5411128997803,14.5414552688599,14.541802406311,14.5421447753906,14.5424909591675,14.5428342819214,14.5431795120239,14.5435247421265,14.5438690185547,14.5442142486572,14.5445575714111,14.5449028015137,14.5452470779419,14.5455923080444,14.5459356307983,14.5462827682495,14.5466270446777,14.546971321106,14.5473165512085,14.5476608276367,14.5480060577393,14.5483512878418,14.5486965179443,14.5490407943726,14.5493850708008,14.5497312545776,14.5500755310059,14.5504198074341,14.5507659912109,14.5511102676392,14.5514545440674,14.5518007278442,14.5521459579468,14.552490234375,14.5528354644775,14.5531806945801,14.5535259246826,14.5538702011108,14.5542163848877,14.5545616149902,14.5549058914185,14.5552530288696,14.5555963516235,14.5559425354004,14.5562858581543,14.5566329956055,14.5569772720337,14.5573225021362,14.5576686859131,14.5580139160156,14.5583591461182,14.5587043762207,14.5590496063232,14.5593948364258,14.5597410202026,14.5600862503052,14.5604314804077,14.5607776641846,14.5611219406128,14.5614681243896,14.5618124008179,14.562159538269,14.5625038146973,14.5628499984741,14.563196182251,14.5635404586792,14.5638866424561,14.5642309188843,14.5645790100098,14.5649223327637,14.5652694702148,14.565616607666,14.5659608840942,14.5663070678711,14.5666522979736,14.5669975280762,14.5673427581787,14.5676898956299,14.5680351257324,14.5683813095093,14.5687265396118,14.5690727233887,14.5694189071655,14.5697641372681,14.5701112747192,14.5704555511475,14.5708017349243,14.5711488723755,14.571494102478,14.5718393325806,14.5721855163574,14.5725326538086,14.5728769302368,14.573224067688,14.5735702514648,14.5739164352417,14.5742626190186,14.5746088027954,14.5749549865723,14.5753002166748,0,0,0,0,0,0,0,0,0,0,0,0,0,0,0,0,0,0,0,0,0,0,0,0,0,0,0,0,0,0,0,0,0,0,0,0,0,0,0,0,0,0,0,0,0,0,0,0,0,0,0,0,0,0,0,0,0,0,0,0,0,0,0,0,0,0,0,0,0,0,0,0,0,0,0,0,0,0,0,0,0,0,0,0,0,0,0,0,0,0,0,0,0,0,0,0,0,0,0,0,0,0,0,0,0,0,0,0,0,0,0,0,0,0,0,0,0,0,0,0,0,0,0,0,0,0,0,0,0,0,0,0,0,0,0,0,0
14.3777561187744,14.3780937194824,14.3784294128418,14.3787670135498,14.3791036605835,14.3794403076172,14.3797779083252,14.3801145553589,14.3804502487183,14.3807897567749,14.38112449646,14.381462097168,14.3818006515503,14.3821363449097,14.3824739456177,14.3828115463257,14.3831481933594,14.3834848403931,14.3838233947754,14.3841590881348,14.3844966888428,14.3848333358765,14.3851709365845,14.3855066299438,14.3858461380005,14.3861808776855,14.3865184783936,14.3868560791016,14.3871946334839,14.3875312805176,14.3878688812256,14.3882055282593,14.3885431289673,14.388879776001,14.3892183303833,14.3895540237427,14.389892578125,14.3902292251587,14.3905668258667,14.3909034729004,14.3912420272827,14.3915786743164,14.391918182373,14.3922538757324,14.3925914764404,14.3929290771484,14.3932676315308,14.3936042785645,14.3939428329468,14.3942785263062,14.3946170806885,14.3949546813965,14.3952922821045,14.3956289291382,14.3959674835205,14.3963041305542,14.3966426849365,14.3969793319702,14.3973188400269,14.3976554870605,14.3979940414429,14.3983306884766,14.3986692428589,14.3990058898926,14.3993453979492,14.3996810913086,14.4000196456909,14.4003572463989,14.4006958007812,14.4010334014893,14.4013719558716,14.4017086029053,14.4020481109619,14.4023857116699,14.4027223587036,14.4030618667603,14.4033994674683,14.4037380218506,14.4040746688843,14.4044141769409,14.4047508239746,14.4050893783569,14.4054279327393,14.4057655334473,14.4061031341553,14.4064435958862,14.4067802429199,14.4071187973022,14.4074573516846,14.4077949523926,14.4081325531006,14.4084720611572,14.4088096618652,14.4091482162476,14.4094858169556,14.4098253250122,14.4101629257202,14.4105024337769,14.4108390808105,14.4111776351929,14.4115171432495,14.4118547439575,14.4121923446655,14.4125328063965,14.4128694534302,14.4132080078125,14.4135475158691,14.4138860702515,14.4142236709595,14.4145641326904,14.4149007797241,14.4152393341064,14.4155788421631,14.4159173965454,14.4162549972534,14.4165945053101,14.4169321060181,14.4172716140747,14.417610168457,14.4179496765137,14.4182863235474,14.418625831604,14.4189643859863,14.419303894043,14.4196424484253,14.4199810028076,14.4203186035156,14.4206581115723,14.4209966659546,14.4213361740112,14.4216737747192,14.4220142364502,14.4223527908325,14.4226913452148,14.4230308532715,14.4233694076538,14.4237089157104,14.4240474700928,14.4243869781494,14.4247264862061,14.4250640869141,14.425404548645,14.4257431030273,14.426082611084,14.4264211654663,14.4267606735229,14.427098274231,14.4274387359619,14.4277782440186,14.4281167984009,14.4284563064575,14.4287958145142,14.4291353225708,14.4294729232788,14.4298143386841,14.4301528930664,14.4304914474487,14.4308319091797,14.431170463562,14.431510925293,14.4318494796753,14.4321880340576,14.4325275421143,14.4328670501709,14.4332084655762,14.4335460662842,14.4338855743408,14.4342250823975,14.4345655441284,14.4349031448364,14.4352445602417,14.4355840682983,14.4359216690063,14.4362621307373,14.4366016387939,14.4369421005249,14.4372806549072,14.4376220703125,14.4379596710205,14.4382991790771,14.4386405944824,14.4389801025391,14.4393196105957,14.439658164978,14.4399995803833,14.4403381347656,14.4406785964966,14.4410190582275,14.4413585662842,14.4416980743408,14.4420375823975,14.4423780441284,14.4427165985107,14.443058013916,14.4433975219727,14.4437379837036,14.4440774917603,14.4444169998169,14.4447574615479,14.4450960159302,14.4454374313354,14.4457769393921,14.4461164474487,14.4464588165283,14.4467964172363,14.4471368789673,14.4474763870239,14.4478178024292,14.4481573104858,14.4484968185425,14.4488382339478,14.4491786956787,14.4495182037354,14.4498586654663,14.4501991271973,14.4505386352539,14.4508790969849,14.4512195587158,14.4515600204468,14.4519004821777,14.4522409439087,14.4525814056396,14.452919960022,14.4532623291016,14.4536008834839,14.4539422988892,14.4542827606201,14.4546232223511,14.4549646377563,14.4553031921387,14.4556446075439,14.4559850692749,14.4563245773315,14.4566650390625,14.4570064544678,14.457347869873,14.457688331604,14.4580297470093,14.4583692550659,14.4587097167969,14.4590501785278,14.4593906402588,14.4597301483154,14.4600734710693,14.4604139328003,14.4607534408569,14.4610958099365,14.4614353179932,14.4617757797241,14.4621152877808,14.4624576568604,14.4627990722656,14.4631385803223,14.4634809494019,0,0,0,0,0,0,0,0,0,0,0,0,0,0,0,0,0,0,0,0,0,0,0,0,0,0,0,0,0,0,0,0,0,0,0,0,0,0,0,0,0,0,0,0,0,0,0,0,0,0,0,0,0,0,0,0,0,0,0,0,0,0,0,0,0,0,0,0,0,0,0,0,0,0,0,0,0,0,0,0,0,0,0,0,0,0,0,0,0,0,0,0,0,0,0,0,0,0,0,0,0,0,0,0,0,0,0,0,0,0,0,0,0,0,0,0,0,0,0,0,0,0,0,0,0,0,0,0,0,0,0,0,0,0,0,0,0,0
14.2692670822144,14.2695989608765,14.2699317932129,14.2702627182007,14.2705955505371,14.2709255218506,14.271258354187,14.2715902328491,14.2719221115112,14.272253036499,14.2725868225098,14.2729177474976,14.2732496261597,14.2735815048218,14.2739143371582,14.274245262146,14.2745780944824,14.2749090194702,14.2752408981323,14.2755737304688,14.2759065628052,14.276237487793,14.2765703201294,14.2769012451172,14.2772340774536,14.2775659561157,14.2778978347778,14.2782297134399,14.2785625457764,14.2788944244385,14.2792272567749,14.2795581817627,14.2798919677734,14.2802228927612,14.280556678772,14.2808876037598,14.2812204360962,14.2815523147583,14.2818851470947,14.2822160720825,14.2825498580933,14.2828817367554,14.2832145690918,14.2835464477539,14.2838792800903,14.2842102050781,14.2845439910889,14.284875869751,14.2852087020874,14.2855415344238,14.2858734130859,14.286205291748,14.2865400314331,14.2868700027466,14.2872037887573,14.2875385284424,14.2878694534302,14.2882022857666,14.2885341644287,14.2888679504395,14.2891998291016,14.2895336151123,14.2898654937744,14.2901983261108,14.2905311584473,14.2908639907837,14.2911949157715,14.2915306091309,14.2918615341187,14.2921943664551,14.2925271987915,14.2928609848022,14.2931928634644,14.2935256958008,14.2938585281372,14.2941923141479,14.2945241928101,14.2948579788208,14.2951898574829,14.2955226898193,14.2958564758301,14.2961893081665,14.2965211868286,14.2968559265137,14.2971878051758,14.2975215911865,14.2978553771973,14.2981882095337,14.2985200881958,14.2988548278809,14.299186706543,14.2995195388794,14.2998533248901,14.3001861572266,14.3005180358887,14.300853729248,14.3011856079102,14.3015184402466,14.3018522262573,14.3021860122681,14.3025188446045,14.3028526306152,14.3031845092773,14.3035182952881,14.3038520812988,14.3041858673096,14.304518699646,14.3048524856567,14.3051853179932,14.3055191040039,14.3058519363403,14.3061866760254,14.3065185546875,14.3068532943726,14.307186126709,14.3075199127197,14.3078546524048,14.3081874847412,14.308521270752,14.3088550567627,14.3091888427734,14.3095207214355,14.3098564147949,14.310188293457,14.3105220794678,14.3108558654785,14.3111906051636,14.3115224838257,14.3118581771851,14.3121910095215,14.3125247955322,14.3128595352173,14.3131923675537,14.3135261535645,14.3138608932495,14.3141927719116,14.3145275115967,14.3148612976074,14.3151960372925,14.3155288696289,14.315863609314,14.3161964416504,14.3165311813354,14.3168649673462,14.3171987533569,14.3175344467163,14.3178663253784,14.3182010650635,14.3185367584229,14.3188695907593,14.31920337677,14.3195381164551,14.3198719024658,14.3202056884766,14.3205404281616,14.320873260498,14.3212080001831,14.3215427398682,14.3218765258789,14.322211265564,14.3225440979004,14.3228797912598,14.3232126235962,14.3235473632812,14.3238830566406,14.3242168426514,14.3245506286621,14.3248844146729,14.3252201080322,14.325553894043,14.3258876800537,14.3262224197388,14.3265581130981,14.3268918991089,14.3272266387939,14.327561378479,14.3278951644897,14.3282289505005,14.3285646438599,14.3288984298706,14.3292331695557,14.3295679092407,14.3299026489258,14.3302364349365,14.3305721282959,14.330906867981,14.3312406539917,14.3315753936768,14.3319101333618,14.3322458267212,14.3325786590576,14.3329153060913,14.3332490921021,14.3335838317871,14.3339185714722,14.3342542648315,14.3345890045166,14.3349237442017,14.335259437561,14.3355922698975,14.3359279632568,14.3362617492676,14.336597442627,14.3369312286377,14.3372678756714,14.3376026153564,14.3379373550415,14.3382730484009,14.3386077880859,14.338942527771,14.3392772674561,14.3396129608154,14.3399477005005,14.3402814865112,14.3406181335449,14.34095287323,14.341287612915,14.3416233062744,14.3419580459595,14.3422918319702,14.3426294326782,14.3429641723633,14.343297958374,14.3436336517334,14.3439693450928,14.3443050384521,14.3446388244629,14.3449754714966,14.345311164856,14.345645904541,14.3459825515747,14.3463163375854,14.3466520309448,14.3469867706299,14.3473224639893,14.3476572036743,14.3479928970337,14.3483295440674,14.3486642837524,14.3489999771118,14.3493356704712,14.3496713638306,14.3500051498413,14.3503427505493,14.3506774902344,14.3510122299194,14.3513488769531,14.3516845703125,14.3520202636719,14.3523550033569,14.3526916503906,14.3530263900757,14.3533620834351,0,0,0,0,0,0,0,0,0,0,0,0,0,0,0,0,0,0,0,0,0,0,0,0,0,0,0,0,0,0,0,0,0,0,0,0,0,0,0,0,0,0,0,0,0,0,0,0,0,0,0,0,0,0,0,0,0,0,0,0,0,0,0,0,0,0,0,0,0,0,0,0,0,0,0,0,0,0,0,0,0,0,0,0,0,0,0,0,0,0,0,0,0,0,0,0,0,0,0,0,0,0,0,0,0,0,0,0,0,0,0,0,0,0,0,0,0,0,0,0,0,0,0,0,0,0,0,0,0,0,0,0,0,0,0,0,0,0,0
14.1624031066895,14.16273021698,14.1630573272705,14.1633825302124,14.1637115478516,14.1640367507935,14.1643648147583,14.1646909713745,14.1650190353394,14.1653451919556,14.1656732559204,14.1659984588623,14.1663255691528,14.1666536331177,14.1669797897339,14.1673059463501,14.1676340103149,14.1679611206055,14.168288230896,14.1686134338379,14.1689424514771,14.1692695617676,14.1695957183838,14.1699228286743,14.1702508926392,14.1705760955811,14.1709051132202,14.1712312698364,14.171558380127,14.1718864440918,14.1722135543823,14.1725397109985,14.1728687286377,14.1731948852539,14.1735219955444,14.1738510131836,14.1741771697998,14.1745052337646,14.1748323440552,14.17516040802,14.1754865646362,14.1758155822754,14.1761417388916,14.1764688491821,14.176796913147,14.1771249771118,14.177451133728,14.1777791976929,14.1781063079834,14.1784343719482,14.1787614822388,14.1790895462036,14.1794157028198,14.1797456741333,14.1800718307495,14.1803998947144,14.1807270050049,14.1810550689697,14.1813812255859,14.1817121505737,14.1820373535156,14.1823654174805,14.1826934814453,14.1830215454102,14.1833477020264,14.1836776733398,14.1840047836304,14.1843318939209,14.1846599578857,14.1849880218506,14.1853141784668,14.1856441497803,14.1859712600708,14.1862993240356,14.1866264343262,14.1869554519653,14.1872816085815,14.187611579895,14.1879386901855,14.1882677078247,14.1885948181152,14.1889228820801,14.1892499923706,14.1895790100098,14.1899061203003,14.1902351379395,14.1905632019043,14.1908912658691,14.1912183761597,14.1915464401245,14.1918745040894,14.1922035217285,14.192530632019,14.1928606033325,14.193187713623,14.1935167312622,14.1938457489014,14.1941728591919,14.1945018768311,14.1948299407959,14.1951580047607,14.1954851150513,14.1958150863647,14.1961421966553,14.1964712142944,14.1967992782593,14.1971292495728,14.197455406189,14.1977853775024,14.198112487793,14.1984424591064,14.1987705230713,14.1990985870361,14.1994256973267,14.1997566223145,14.200083732605,14.2004127502441,14.200740814209,14.2010698318481,14.201397895813,14.2017278671265,14.2020559310913,14.2023839950562,14.2027130126953,14.2030420303345,14.203369140625,14.2037000656128,14.2040271759033,14.2043561935425,14.2046852111816,14.2050142288208,14.2053413391113,14.2056722640991,14.206000328064,14.2063293457031,14.2066583633423,14.2069864273071,14.207314491272,14.2076444625854,14.2079725265503,14.2083015441895,14.2086315155029,14.2089595794678,14.2092885971069,14.2096185684204,14.2099466323853,14.2102756500244,14.2106056213379,14.2109346389771,14.2112636566162,14.2115936279297,14.2119207382202,14.212251663208,14.2125787734985,14.212908744812,14.2132387161255,14.2135667800903,14.2138967514038,14.214225769043,14.2145557403564,14.2148838043213,14.2152128219604,14.2155427932739,14.2158718109131,14.2161998748779,14.2165307998657,14.2168607711792,14.217188835144,14.2175197601318,14.2178478240967,14.2181777954102,14.2185068130493,14.2188367843628,14.2191667556763,14.2194948196411,14.2198257446289,14.2201547622681,14.2204837799072,14.2208127975464,14.2211427688599,14.221471786499,14.2218027114868,14.2221326828003,14.2224597930908,14.2227897644043,14.2231206893921,14.2234497070312,14.2237777709961,14.2241096496582,14.2244396209717,14.2247686386108,14.2250995635986,14.2254276275635,14.225757598877,14.2260856628418,14.2264175415039,14.2267465591431,14.2270765304565,14.2274074554443,14.2277364730835,14.228066444397,14.2283964157104,14.2287263870239,14.2290554046631,14.2293863296509,14.2297172546387,14.2300453186035,14.2303762435913,14.2307062149048,14.2310361862183,14.2313642501831,14.2316961288452,14.2320261001587,14.2323560714722,14.23268699646,14.2330150604248,14.2333469390869,14.2336750030518,14.2340068817139,14.2343349456787,14.2346658706665,14.2349977493286,14.2353267669678,14.2356567382812,14.235987663269,14.2363176345825,14.236647605896,14.2369775772095,14.2373085021973,14.2376384735107,14.2379684448242,14.238299369812,14.2386302947998,14.238959312439,14.2392911911011,14.2396211624146,14.239951133728,14.2402839660645,14.2406129837036,14.2409429550171,14.2412729263306,14.2416038513184,14.2419328689575,14.2422637939453,14.2425956726074,14.2429265975952,14.2432565689087,14.2435874938965,14.24391746521,14.2442474365234,14.2445783615112,0,0,0,0,0,0,0,0,0,0,0,0,0,0,0,0,0,0,0,0,0,0,0,0,0,0,0,0,0,0,0,0,0,0,0,0,0,0,0,0,0,0,0,0,0,0,0,0,0,0,0,0,0,0,0,0,0,0,0,0,0,0,0,0,0,0,0,0,0,0,0,0,0,0,0,0,0,0,0,0,0,0,0,0,0,0,0,0,0,0,0,0,0,0,0,0,0,0,0,0,0,0,0,0,0,0,0,0,0,0,0,0,0,0,0,0,0,0,0,0,0,0,0,0,0,0,0,0,0,0,0,0,0,0,0,0,0,0,0,0,0
14.05712890625,14.0574493408203,14.0577726364136,14.0580930709839,14.0584163665771,14.0587377548218,14.0590600967407,14.0593814849854,14.0597038269043,14.0600252151489,14.0603475570679,14.0606708526611,14.0609931945801,14.0613145828247,14.0616369247437,14.0619602203369,14.0622797012329,14.0626039505005,14.0629253387451,14.0632476806641,14.063570022583,14.063892364502,14.0642147064209,14.0645380020142,14.0648593902588,14.0651817321777,14.0655040740967,14.0658273696899,14.0661478042603,14.0664710998535,14.0667934417725,14.0671157836914,14.0674381256104,14.0677614212036,14.0680828094482,14.0684041976929,14.0687274932861,14.0690507888794,14.069372177124,14.0696954727173,14.0700178146362,14.0703392028809,14.0706624984741,14.0709857940674,14.0713081359863,14.0716314315796,14.0719528198242,14.0722761154175,14.0725975036621,14.0729217529297,14.0732431411743,14.0735664367676,14.0738897323608,14.0742120742798,14.0745344161987,14.074857711792,14.0751791000366,14.0755033493042,14.0758256912231,14.0761480331421,14.0764722824097,14.0767936706543,14.0771160125732,14.0774402618408,14.0777626037598,14.0780849456787,14.078408241272,14.0787315368652,14.0790529251099,14.0793781280518,14.0796995162964,14.080023765564,14.0803461074829,14.0806694030762,14.0809917449951,14.0813159942627,14.0816383361816,14.0819616317749,14.0822858810425,14.0826082229614,14.0829315185547,14.0832538604736,14.0835781097412,14.0839004516602,14.0842247009277,14.0845470428467,14.0848703384399,14.0851936340332,14.0855178833008,14.0858392715454,14.0861644744873,14.0864868164062,14.0868091583252,14.0871334075928,14.087456703186,14.087779045105,14.0881032943726,14.0884265899658,14.0887498855591,14.0890741348267,14.0893964767456,14.0897197723389,14.0900449752808,14.0903673171997,14.090690612793,14.0910129547119,14.0913381576538,14.0916614532471,14.0919847488403,14.0923080444336,14.0926322937012,14.0929546356201,14.093279838562,14.0936012268066,14.0939254760742,14.0942497253418,14.0945730209351,14.094895362854,14.0952215194702,14.0955438613892,14.0958681106567,14.09619140625,14.0965147018433,14.0968379974365,14.0971641540527,14.0974864959717,14.0978107452393,14.0981340408325,14.0984582901001,14.0987815856934,14.0991067886353,14.0994300842285,14.0997533798218,14.1000776290894,14.1004018783569,14.1007242202759,14.1010503768921,14.1013736724854,14.1016969680786,14.1020231246948,14.1023454666138,14.1026697158813,14.1029939651489,14.1033182144165,14.1036415100098,14.1039667129517,14.1042900085449,14.1046142578125,14.1049385070801,14.105263710022,14.1055860519409,14.1059103012085,14.1062364578247,14.106559753418,14.1068830490112,14.1072072982788,14.1075325012207,14.1078577041626,14.1081809997559,14.1085062026978,14.108829498291,14.1091537475586,14.1094789505005,14.1098031997681,14.1101264953613,14.1104516983032,14.1107769012451,14.1111001968384,14.111424446106,14.1117496490479,14.1120748519897,14.1123971939087,14.1127233505249,14.1130485534668,14.1133718490601,14.1136980056763,14.1140213012695,14.1143455505371,14.1146697998047,14.1149959564209,14.1153192520142,14.1156435012817,14.1159706115723,14.1162939071655,14.1166191101074,14.116943359375,14.1172685623169,14.1175918579102,14.1179180145264,14.1182432174683,14.1185665130615,14.1188917160034,14.1192178726196,14.1195430755615,14.1198663711548,14.1201915740967,14.1205158233643,14.1208410263062,14.1211671829224,14.1214914321899,14.1218166351318,14.1221408843994,14.1224670410156,14.1227903366089,14.1231145858765,14.1234426498413,14.1237659454346,14.1240911483765,14.1244163513184,14.1247415542603,14.1250658035278,14.1253910064697,14.1257152557373,14.1260414123535,14.1263666152954,14.1266918182373,14.1270179748535,14.1273412704468,14.1276683807373,14.1279926300049,14.1283178329468,14.1286449432373,14.1289682388306,14.1292943954468,14.12961769104,14.1299448013306,14.1302690505981,14.1305952072144,14.1309204101562,14.1312456130981,14.1315717697144,14.1318969726562,14.1322231292725,14.13254737854,14.1328725814819,14.1331977844238,14.1335248947144,14.1338500976562,14.1341753005981,14.1345014572144,14.1348257064819,14.1351528167725,14.13547706604,14.1358022689819,14.1361274719238,14.1364545822144,14.1367807388306,14.1371049880981,14.1374311447144,14.1377553939819,0,0,0,0,0,0,0,0,0,0,0,0,0,0,0,0,0,0,0,0,0,0,0,0,0,0,0,0,0,0,0,0,0,0,0,0,0,0,0,0,0,0,0,0,0,0,0,0,0,0,0,0,0,0,0,0,0,0,0,0,0,0,0,0,0,0,0,0,0,0,0,0,0,0,0,0,0,0,0,0,0,0,0,0,0,0,0,0,0,0,0,0,0,0,0,0,0,0,0,0,0,0,0,0,0,0,0,0,0,0,0,0,0,0,0,0,0,0,0,0,0,0,0,0,0,0,0,0,0,0,0,0,0,0,0,0,0,0,0,0,0,0
13.9534063339233,13.953724861145,13.9540395736694,13.9543590545654,13.9546756744385,13.9549913406372,13.9553098678589,13.9556274414062,13.955943107605,13.956262588501,13.9565782546997,13.9568967819214,13.9572134017944,13.9575309753418,13.9578485488892,13.9581670761108,13.9584827423096,13.9588003158569,13.9591178894043,13.959436416626,13.9597520828247,13.9600715637207,13.9603872299194,13.9607057571411,13.9610242843628,13.9613409042358,13.9616575241089,13.9619770050049,13.9622926712036,13.9626121520996,13.962929725647,13.9632472991943,13.9635629653931,13.9638824462891,13.9641990661621,13.9645175933838,13.9648351669312,13.9651527404785,13.9654703140259,13.9657888412476,13.9661064147949,13.9664239883423,13.9667415618896,13.9670600891113,13.9673767089844,13.9676961898804,13.9680128097534,13.9683313369751,13.9686470031738,13.9689674377441,13.9692840576172,13.9696016311646,13.9699211120605,13.9702377319336,13.970555305481,13.970874786377,13.9711923599243,13.971510887146,13.9718294143677,13.9721460342407,13.9724645614624,13.9727830886841,13.9731016159058,13.9734191894531,13.9737377166748,13.9740552902222,13.9743738174438,13.9746923446655,13.9750108718872,13.9753274917603,13.9756469726562,13.9759645462036,13.9762830734253,13.976601600647,13.9769201278687,13.9772367477417,13.977557182312,13.9778747558594,13.9781923294067,13.9785108566284,13.9788293838501,13.9791469573975,13.9794664382935,13.9797840118408,13.9801025390625,13.9804210662842,13.9807405471802,13.9810571670532,13.9813776016235,13.9816942214966,13.9820137023926,13.9823331832886,13.9826507568359,13.9829683303833,13.9832887649536,13.9836053848267,13.9839248657227,13.9842433929443,13.9845628738403,13.9848804473877,13.9851999282837,13.9855184555054,13.9858369827271,13.9861555099487,13.9864749908447,13.9867916107178,13.9871129989624,13.9874296188354,13.9877490997314,13.9880676269531,13.9883871078491,13.9887046813965,13.9890260696411,13.9893436431885,13.9896621704102,13.9899816513062,13.9903001785278,13.9906177520752,13.9909381866455,13.9912557601929,13.9915761947632,13.9918947219849,13.9922132492065,13.9925327301025,13.9928503036499,13.9931716918945,13.9934902191162,13.9938087463379,13.9941272735596,13.9944467544556,13.9947652816772,13.9950857162476,13.9954032897949,13.9957237243652,13.9960422515869,13.9963617324829,13.9966802597046,13.9970006942749,13.9973192214966,13.9976387023926,13.9979572296143,13.9982767105103,13.9985961914062,13.9989166259766,13.9992341995239,13.9995536804199,13.9998741149902,14.0001926422119,14.0005121231079,14.0008325576782,14.0011510848999,14.0014696121216,14.0017890930176,14.0021095275879,14.0024271011353,14.0027475357056,14.0030679702759,14.0033864974976,14.0037059783936,14.0040273666382,14.0043468475342,14.0046653747559,14.0049839019775,14.0053052902222,14.0056238174438,14.0059432983398,14.0062646865845,14.0065832138062,14.0069026947021,14.0072231292725,14.0075426101685,14.0078611373901,14.0081806182861,14.0085010528564,14.0088205337524,14.0091409683228,14.0094604492188,14.0097808837891,14.0101003646851,14.0104207992554,14.0107402801514,14.0110597610474,14.011381149292,14.0116996765137,14.012020111084,14.01233959198,14.0126600265503,14.0129795074463,14.0132989883423,14.0136194229126,14.0139389038086,14.0142602920532,14.0145797729492,14.0149002075195,14.0152187347412,14.0155391693115,14.0158596038818,14.0161809921265,14.0165004730225,14.0168209075928,14.0171413421631,14.0174598693848,14.0177822113037,14.0181007385254,14.0184211730957,14.0187397003174,14.0190620422363,14.0193824768066,14.0197010040283,14.0200233459473,14.0203418731689,14.0206632614136,14.0209827423096,14.0213031768799,14.0216245651245,14.0219440460205,14.0222654342651,14.0225839614868,14.0229053497314,14.0232257843018,14.0235462188721,14.0238656997681,14.0241870880127,14.0245084762573,14.0248279571533,14.0251493453979,14.0254688262939,14.0257892608643,14.0261096954346,14.0264310836792,14.0267524719238,14.0270719528198,14.0273933410645,14.0277137756348,14.0280342102051,14.0283555984497,14.0286750793457,14.0289945602417,14.029317855835,14.0296382904053,14.0299587249756,14.0302791595459,14.0306005477905,14.0309209823608,14.0312404632568,14.0315628051758,14.0318841934204,14.0322036743164,14.0325260162354,0,0,0,0,0,0,0,0,0,0,0,0,0,0,0,0,0,0,0,0,0,0,0,0,0,0,0,0,0,0,0,0,0,0,0,0,0,0,0,0,0,0,0,0,0,0,0,0,0,0,0,0,0,0,0,0,0,0,0,0,0,0,0,0,0,0,0,0,0,0,0,0,0,0,0,0,0,0,0,0,0,0,0,0,0,0,0,0,0,0,0,0,0,0,0,0,0,0,0,0,0,0,0,0,0,0,0,0,0,0,0,0,0,0,0,0,0,0,0,0,0,0,0,0,0,0,0,0,0,0,0,0,0,0,0,0,0,0,0,0,0,0,0
13.8512020111084,13.8515167236328,13.85182762146,13.8521404266357,13.8524532318115,13.8527669906616,13.8530778884888,13.8533926010132,13.8537034988403,13.8540163040161,13.8543300628662,13.854642868042,13.8549537658691,13.8552675247192,13.855580329895,13.8558931350708,13.8562059402466,13.8565187454224,13.8568305969238,13.8571453094482,13.8574571609497,13.8577699661255,13.8580837249756,13.8583965301514,13.8587083816528,13.8590230941772,13.8593349456787,13.8596487045288,13.8599615097046,13.8602743148804,13.8605861663818,13.8609008789062,13.8612127304077,13.8615255355835,13.8618392944336,13.8621520996094,13.8624649047852,13.8627786636353,13.8630924224854,13.8634042739868,13.8637189865112,13.8640308380127,13.8643445968628,13.8646574020386,13.8649711608887,13.8652839660645,13.8655977249146,13.865909576416,13.8662233352661,13.8665380477905,13.8668508529663,13.8671627044678,13.8674774169922,13.8677892684937,13.8681039810181,13.8684177398682,13.8687305450439,13.8690433502197,13.8693580627441,13.8696699142456,13.86998462677,13.8702974319458,13.8706111907959,13.8709239959717,13.8712368011475,13.8715515136719,13.871865272522,13.8721771240234,13.8724927902222,13.8728046417236,13.8731184005737,13.8734321594238,13.8737468719482,13.8740577697754,13.8743743896484,13.8746862411499,13.8750009536743,13.8753147125244,13.8756284713745,13.8759412765503,13.8762559890747,13.8765687942505,13.8768825531006,13.8771963119507,13.8775110244751,13.8778228759766,13.8781385421753,13.8784513473511,13.8787651062012,13.8790788650513,13.8793935775757,13.8797063827515,13.8800220489502,13.8803339004517,13.8806486129761,13.8809623718262,13.8812761306763,13.8815898895264,13.8819055557251,13.8822174072266,13.882532119751,13.8828477859497,13.8831605911255,13.8834753036499,13.8837890625,13.8841028213501,13.8844165802002,13.8847312927246,13.8850450515747,13.8853597640991,13.8856735229492,13.8859872817993,13.8863010406494,13.8866167068481,13.8869304656982,13.8872442245483,13.8875589370728,13.8878736495972,13.8881864547729,13.8885021209717,13.8888149261475,13.8891296386719,13.889443397522,13.8897590637207,13.8900718688965,13.8903884887695,13.8907012939453,13.8910150527954,13.8913307189941,13.8916454315186,13.8919582366943,13.8922748565674,13.8925886154175,13.8929023742676,13.893217086792,13.8935317993164,13.8938455581665,13.8941602706909,13.8944749832153,13.8947896957397,13.8951025009155,13.8954191207886,13.8957328796387,13.8960475921631,13.8963623046875,13.8966770172119,13.896990776062,13.8973064422607,13.8976202011108,13.8979349136353,13.8982496261597,13.8985652923584,13.8988780975342,13.8991947174072,13.8995084762573,13.8998231887817,13.9001379013062,13.9004535675049,13.9007692337036,13.901083946228,13.9013986587524,13.9017143249512,13.9020280838013,13.90234375,13.9026575088501,13.9029731750488,13.9032878875732,13.9036026000977,13.9039182662964,13.9042329788208,13.9045495986938,13.9048633575439,13.9051780700684,13.9054937362671,13.9058084487915,13.9061241149902,13.9064388275146,13.9067544937134,13.9070682525635,13.9073839187622,13.9076986312866,13.9080152511597,13.9083290100098,13.9086446762085,13.9089603424072,13.9092741012573,13.9095916748047,13.9099054336548,13.9102210998535,13.9105358123779,13.910852432251,13.9111680984497,13.9114818572998,13.9117984771729,13.9121122360229,13.912428855896,13.9127435684204,13.9130592346191,13.9133739471436,13.9136905670166,13.9140062332153,13.9143209457397,13.9146356582642,13.9149522781372,13.9152669906616,13.915581703186,13.9158983230591,13.9162149429321,13.9165296554565,13.9168462753296,13.9171600341797,13.9174766540527,13.9177913665771,13.9181079864502,13.9184226989746,13.9187383651733,13.9190549850464,13.9193696975708,13.9196863174438,13.9200019836426,13.9203176498413,13.9206323623657,13.9209489822388,13.9212656021118,13.9215812683105,13.921895980835,13.922212600708,13.9225282669067,13.9228429794312,13.9231605529785,13.9234752655029,13.9237909317017,13.924108505249,13.9244232177734,13.9247388839722,13.9250545501709,13.9253711700439,13.9256868362427,13.9260034561157,13.9263200759888,13.9266347885132,13.9269514083862,13.9272680282593,13.927583694458,13.9278993606567,13.9282150268555,13.9285316467285,13.9288482666016,13.9291639328003,13.9294805526733,13.9297962188721,13.9301118850708,13.9304294586182,13.9307451248169,13.9310617446899,13.9313774108887,0,0,0,0,0,0,0,0,0,0,0,0,0,0,0,0,0,0,0,0,0,0,0,0,0,0,0,0,0,0,0,0,0,0,0,0,0,0,0,0,0,0,0,0,0,0,0,0,0,0,0,0,0,0,0,0,0,0,0,0,0,0,0,0,0,0,0,0,0,0,0,0,0,0,0,0,0,0,0,0,0,0,0,0,0,0,0,0,0,0,0,0,0,0,0,0,0,0,0,0,0,0,0,0,0,0,0,0,0,0,0,0,0,0,0,0,0,0,0,0,0,0,0,0,0,0,0,0,0,0,0,0,0,0,0,0
13.7504854202271,13.7507953643799,13.7511024475098,13.7514114379883,13.7517185211182,13.752028465271,13.7523345947266,13.7526445388794,13.752950668335,13.7532596588135,13.7535667419434,13.7538766860962,13.7541837692261,13.7544927597046,13.7548007965088,13.7551097869873,13.7554159164429,13.7557258605957,13.7560329437256,13.7563419342041,13.7566518783569,13.7569589614868,13.757266998291,13.7575759887695,13.757884979248,13.7581911087036,13.7585020065308,13.7588090896606,13.7591180801392,13.7594270706177,13.7597360610962,13.7600431442261,13.7603521347046,13.7606601715088,13.760968208313,13.7612781524658,13.76158618927,13.7618942260742,13.7622041702271,13.7625112533569,13.7628202438354,13.763129234314,13.7634382247925,13.7637453079224,13.7640552520752,13.7643632888794,13.7646722793579,13.7649812698364,13.7652902603149,13.7655973434448,13.765908241272,13.7662153244019,13.7665243148804,13.7668333053589,13.7671422958374,13.7674503326416,13.7677602767944,13.7680692672729,13.7683773040771,13.76868724823,13.7689962387085,13.7693033218384,13.7696142196655,13.7699213027954,13.7702312469482,13.7705402374268,13.7708492279053,13.7711572647095,13.7714672088623,13.7717752456665,13.772084236145,13.7723941802979,13.7727031707764,13.7730112075806,13.7733221054077,13.7736291885376,13.7739400863647,13.7742481231689,13.7745571136475,13.774866104126,13.7751760482788,13.775486946106,13.7757940292358,13.7761030197144,13.7764129638672,13.7767219543457,13.7770309448242,13.7773408889771,13.7776498794556,13.7779588699341,13.7782678604126,13.7785787582397,13.7788858413696,13.7791967391968,13.7795057296753,13.7798147201538,13.7801246643066,13.7804336547852,13.7807426452637,13.7810535430908,13.781361579895,13.7816715240479,13.7819814682007,13.7822914123535,13.7825994491577,13.7829093933105,13.7832183837891,13.7835283279419,13.7838373184204,13.7841472625732,13.7844562530518,13.7847671508789,13.7850761413574,13.7853851318359,13.7856960296631,13.7860059738159,13.7863140106201,13.7866249084473,13.7869338989258,13.7872428894043,13.7875537872314,13.7878637313843,13.7881727218628,13.7884836196899,13.7887916564941,13.7891025543213,13.7894124984741,13.7897214889526,13.7900314331055,13.7903423309326,13.7906513214111,13.7909603118896,13.7912702560425,13.7915811538696,13.7918910980225,13.7922019958496,13.7925100326538,13.792820930481,13.7931308746338,13.7934408187866,13.7937507629395,13.7940616607666,13.7943706512451,13.7946805953979,13.7949914932251,13.7953014373779,13.7956113815308,13.7959213256836,13.7962322235107,13.7965412139893,13.7968530654907,13.7971620559692,13.7974720001221,13.7977809906006,13.7980928421021,13.7984018325806,13.7987127304077,13.7990226745605,13.7993335723877,13.7996425628662,13.7999544143677,13.8002634048462,13.8005743026733,13.8008852005005,13.8011951446533,13.8015060424805,13.801815032959,13.8021268844604,13.8024377822876,13.8027458190918,13.8030586242676,13.8033685684204,13.8036785125732,13.8039875030518,13.8042993545532,13.8046092987061,13.8049201965332,13.805233001709,13.8055419921875,13.8058519363403,13.8061628341675,13.8064737319946,13.8067836761475,13.8070936203003,13.8074064254761,13.8077144622803,13.8080263137817,13.8083372116089,13.8086471557617,13.8089570999146,13.8092699050903,13.8095798492432,13.8098907470703,13.8102025985718,13.8105125427246,13.8108234405518,13.8111333847046,13.8114452362061,13.8117551803589,13.8120651245117,13.8123779296875,13.8126878738403,13.8129987716675,13.8133096694946,13.8136215209961,13.8139314651489,13.8142423629761,13.8145532608032,13.8148651123047,13.8151750564575,13.8154859542847,13.8157978057861,13.816107749939,13.8164205551147,13.8167304992676,13.8170404434204,13.8173532485962,13.8176641464233,13.8179750442505,13.8182849884033,13.8185977935791,13.8189067840576,13.8192195892334,13.8195304870605,13.8198432922363,13.8201522827148,13.8204660415649,13.8207759857178,13.8210859298706,13.8213977813721,13.8217086791992,13.8220205307007,13.8223314285278,13.8226442337036,13.8229551315308,13.8232650756836,13.8235778808594,13.8238878250122,13.8241987228394,13.8245096206665,13.8248224258423,13.8251342773438,13.8254451751709,13.8257579803467,13.8260688781738,13.826379776001,13.8266916275024,13.8270034790039,13.8273143768311,13.8276281356812,13.8279390335083,13.8282499313354,13.8285598754883,13.8288736343384,13.8291845321655,13.8294954299927,13.8298091888428,13.8301200866699,13.8304300308228,13.8307437896729,13.8310537338257,13.8313665390015,13.83167552948,13.8319902420044,13.8323011398315,13.832612991333,0,0,0,0,0,0,0,0,0,0,0,0,0,0,0,0,0,0,0,0,0,0,0,0,0,0,0,0,0,0,0,0,0,0,0,0,0,0,0,0,0,0,0,0,0,0,0,0,0,0,0,0,0,0,0,0,0,0,0,0,0,0,0,0,0,0,0,0,0,0,0,0,0,0,0,0,0,0,0,0,0,0,0,0,0,0,0,0,0,0,0,0,0,0,0,0,0,0,0,0,0,0,0,0,0,0,0,0,0,0,0,0,0,0,0,0,0,0,0,0,0,0,0,0,0,0
13.6512260437012,13.6515283584595,13.6518335342407,13.6521368026733,13.652440071106,13.6527433395386,13.6530475616455,13.6533498764038,13.6536550521851,13.6539573669434,13.6542615890503,13.6545667648315,13.6548700332642,13.6551733016968,13.6554775238037,13.6557807922363,13.6560850143433,13.6563882827759,13.6566925048828,13.6569957733154,13.6573009490967,13.6576042175293,13.6579084396362,13.6582117080688,13.6585168838501,13.6588191986084,13.6591234207153,13.6594276428223,13.6597318649292,13.6600351333618,13.6603403091431,13.6606435775757,13.6609468460083,13.6612510681152,13.6615562438965,13.6618595123291,13.6621646881104,13.6624689102173,13.6627721786499,13.6630764007568,13.6633806228638,13.6636838912964,13.6639890670776,13.6642932891846,13.6645975112915,13.6649017333984,13.6652059555054,13.6655101776123,13.6658163070679,13.6661186218262,13.6664218902588,13.66672706604,13.6670322418213,13.6673355102539,13.6676416397095,13.6679439544678,13.668249130249,13.6685543060303,13.6688585281372,13.6691608428955,13.6694669723511,13.6697721481323,13.6700763702393,13.6703805923462,13.6706848144531,13.6709899902344,13.6712951660156,13.6715993881226,13.6719026565552,13.6722087860107,13.6725120544434,13.6728162765503,13.6731224060059,13.6734266281128,13.6737298965454,13.674036026001,13.6743392944336,13.6746444702148,13.6749496459961,13.6752548217773,13.67555809021,13.6758642196655,13.6761665344238,13.6764726638794,13.6767778396606,13.6770830154419,13.6773862838745,13.6776924133301,13.677996635437,13.6783018112183,13.6786060333252,13.6789121627808,13.6792154312134,13.6795215606689,13.6798248291016,13.6801300048828,13.6804361343384,13.6807413101196,13.6810455322266,13.6813507080078,13.6816549301147,13.681960105896,13.6822643280029,13.6825704574585,13.6828746795654,13.683180809021,13.6834859848022,13.6837902069092,13.6840944290161,13.6844005584717,13.6847047805786,13.6850099563599,13.6853151321411,13.6856212615967,13.6859254837036,13.6862316131592,13.6865358352661,13.6868410110474,13.6871461868286,13.6874523162842,13.6877565383911,13.688063621521,13.6883678436279,13.6886720657349,13.6889801025391,13.6892833709717,13.6895895004272,13.6898946762085,13.6902008056641,13.690505027771,13.6908121109009,13.6911153793335,13.6914215087891,13.6917276382446,13.6920328140259,13.6923370361328,13.6926441192627,13.6929492950439,13.6932544708252,13.6935596466064,13.693865776062,13.6941699981689,13.6944770812988,13.6947813034058,13.6950874328613,13.6953935623169,13.6956987380981,13.6960039138794,13.6963109970093,13.6966152191162,13.6969213485718,13.6972274780273,13.6975326538086,13.6978368759155,13.6981449127197,13.698450088501,13.6987552642822,13.6990613937378,13.6993675231934,13.6996717453003,13.6999797821045,13.7002840042114,13.700590133667,13.7008962631226,13.7012023925781,13.7015075683594,13.7018136978149,13.7021188735962,13.7024269104004,13.7027311325073,13.7030372619629,13.7033433914185,13.703649520874,13.7039556503296,13.7042617797852,13.7045679092407,13.7048740386963,13.7051811218262,13.7054862976074,13.705792427063,13.7060966491699,13.7064037322998,13.7067098617554,13.7070159912109,13.7073230743408,13.7076292037964,13.7079343795776,13.7082405090332,13.7085475921631,13.7088527679443,13.7091588973999,13.7094659805298,13.7097721099854,13.7100772857666,13.7103843688965,13.7106924057007,13.7109966278076,13.7113046646118,13.7116088867188,13.7119159698486,13.7122220993042,13.7125301361084,13.7128353118896,13.7131414413452,13.7134494781494,13.7137537002563,13.7140607833862,13.7143669128418,13.714674949646,13.7149810791016,13.7152872085571,13.7155933380127,13.7158985137939,13.7162055969238,13.7165126800537,13.7168197631836,13.7171268463135,13.7174339294434,13.7177410125732,13.7180452346802,13.7183532714844,13.7186594009399,13.7189655303955,13.7192716598511,13.7195806503296,13.7198867797852,13.7201919555664,13.7205009460449,13.7208061218262,13.7211141586304,13.7214193344116,13.7217273712158,13.7220335006714,13.722339630127,13.7226476669312,13.7229537963867,13.7232608795166,13.7235679626465,13.7238740921021,13.7241802215576,13.7244882583618,13.724796295166,13.7251014709473,13.7254104614258,13.725715637207,13.7260236740112,13.7263298034668,13.726637840271,13.7269449234009,13.7272500991821,13.7275581359863,13.7278652191162,13.7281723022461,13.7284803390503,13.7287874221802,13.7290935516357,13.7293996810913,13.7297086715698,13.7300157546997,13.7303218841553,13.7306308746338,13.7309370040894,13.7312431335449,13.7315530776978,13.731858253479,13.7321643829346,13.7324733734131,13.7327814102173,13.7330875396729,13.7333936691284,13.7337036132812,13.7340087890625,13.7343168258667,13.7346248626709,13.7349319458008,13.7352390289307,13.7355461120605,0,0,0,0,0,0,0,0,0,0,0,0,0,0,0,0,0,0,0,0,0,0,0,0,0,0,0,0,0,0,0,0,0,0,0,0,0,0,0,0,0,0,0,0,0,0,0,0,0,0,0,0,0,0,0,0,0,0,0,0,0,0,0,0,0,0,0,0,0,0,0,0,0,0,0,0,0,0,0,0,0,0,0,0,0,0,0,0,0,0,0,0,0,0,0,0,0,0,0,0,0,0,0,0,0,0,0,0,0,0,0,0,0,0,0
13.5533866882324,13.5536851882935,13.5539836883545,13.5542831420898,13.5545825958252,13.5548810958862,13.5551824569702,13.5554800033569,13.5557794570923,13.556079864502,13.5563793182373,13.5566778182983,13.556978225708,13.5572776794434,13.5575761795044,13.5578756332397,13.5581760406494,13.5584745407104,13.5587749481201,13.5590744018555,13.5593738555908,13.5596733093262,13.5599727630615,13.5602722167969,13.5605735778809,13.5608720779419,13.5611705780029,13.5614709854126,13.5617704391479,13.5620698928833,13.5623712539673,13.562668800354,13.5629692077637,13.563268661499,13.5635690689087,13.5638675689697,13.5641679763794,13.5644674301147,13.5647678375244,13.5650672912598,13.5653676986694,13.5656661987305,13.5659666061401,13.5662679672241,13.5665664672852,13.5668668746948,13.5671663284302,13.5674667358398,13.5677652359009,13.5680665969849,13.5683660507202,13.5686664581299,13.5689659118652,13.5692663192749,13.5695648193359,13.5698671340942,13.5701656341553,13.5704669952393,13.5707664489746,13.5710668563843,13.5713653564453,13.5716667175293,13.5719661712646,13.5722665786743,13.572566986084,13.5728673934937,13.573166847229,13.573468208313,13.5737676620483,13.574068069458,13.5743684768677,13.574667930603,13.5749673843384,13.5752696990967,13.575569152832,13.5758695602417,13.5761699676514,13.5764694213867,13.5767688751221,13.5770711898804,13.5773706436157,13.5776710510254,13.5779714584351,13.5782718658447,13.5785713195801,13.5788736343384,13.5791721343994,13.5794744491577,13.5797739028931,13.5800743103027,13.5803737640381,13.5806760787964,13.5809755325317,13.5812759399414,13.5815773010254,13.5818777084351,13.5821781158447,13.582480430603,13.5827789306641,13.5830793380737,13.5833806991577,13.5836811065674,13.5839815139771,13.584282875061,13.584584236145,13.5848836898804,13.5851860046387,13.585485458374,13.5857858657837,13.5860872268677,13.5863885879517,13.586688041687,13.5869903564453,13.5872898101807,13.5875911712646,13.587890625,13.5881929397583,13.588493347168,13.588794708252,13.5890951156616,13.5893955230713,13.589695930481,13.5899982452393,13.5902986526489,13.5905990600586,13.5909004211426,13.5912017822266,13.5915012359619,13.5918045043945,13.5921030044556,13.5924043655396,13.5927066802979,13.5930080413818,13.5933074951172,13.5936098098755,13.5939102172852,13.5942115783691,13.5945129394531,13.5948133468628,13.5951137542725,13.5954160690308,13.5957164764404,13.5960187911987,13.5963191986084,13.5966215133667,13.5969209671021,13.5972242355347,13.59752368927,13.597825050354,13.598126411438,13.5984287261963,13.5987281799316,13.5990304946899,13.5993318557739,13.5996322631836,13.5999336242676,13.6002368927002,13.6005363464355,13.6008396148682,13.6011390686035,13.6014413833618,13.6017427444458,13.6020450592041,13.6023445129395,13.6026477813721,13.6029491424561,13.6032495498657,13.6035528182983,13.6038541793823,13.6041555404663,13.6044569015503,13.6047582626343,13.6050605773926,13.6053609848022,13.6056623458862,13.6059646606445,13.6062669754028,13.6065673828125,13.6068706512451,13.6071729660034,13.6074724197388,13.6077756881714,13.6080770492554,13.6083784103394,13.608678817749,13.6089820861816,13.6092844009399,13.6095848083496,13.6098871231079,13.6101884841919,13.6104907989502,13.6107931137085,13.6110944747925,13.6113977432251,13.6116991043091,13.6120004653931,13.6123008728027,13.612603187561,13.6129064559937,13.613208770752,13.6135091781616,13.6138134002686,13.6141138076782,13.6144151687622,13.6147193908691,13.6150197982788,13.6153221130371,13.6156244277954,13.615927696228,13.616229057312,13.6165294647217,13.6168336868286,13.6171340942383,13.6174364089966,13.6177396774292,13.6180419921875,13.6183433532715,13.6186447143555,13.6189489364624,13.6192493438721,13.6195526123047,13.6198539733887,13.6201581954956,13.6204586029053,13.6207628250122,13.6210651397705,13.6213655471802,13.6216688156128,13.6219711303711,13.6222724914551,13.6225748062134,13.6228790283203,13.62317943573,13.6234827041626,13.6237859725952,13.6240873336792,13.6243896484375,13.6246919631958,13.6249961853027,13.6252965927124,13.6255979537964,13.6259031295776,13.6262044906616,13.6265077590942,13.6268110275269,13.6271123886108,13.6274147033691,13.6277179718018,13.6280193328857,13.628321647644,13.628625869751,13.6289281845093,13.6292314529419,13.6295328140259,13.6298370361328,13.6301374435425,13.6304407119751,13.6307458877563,13.631046295166,13.6313505172729,13.6316537857056,13.6319561004639,13.6322574615479,13.6325597763062,13.6328630447388,13.6331663131714,13.6334686279297,13.6337738037109,13.6340751647949,13.6343774795532,13.6346826553345,13.6349830627441,13.6352872848511,13.6355895996094,13.6358938217163,13.6361961364746,13.6364974975586,13.6368026733398,13.6371040344238,13.6374082565308,13.6377105712891,13.6380138397217,13.6383171081543,13.6386194229126,13.6389255523682,13.6392259597778,13.6395282745361,0,0,0,0,0,0,0,0,0,0,0,0,0,0,0,0,0,0,0,0,0,0,0,0,0,0,0,0,0,0,0,0,0,0,0,0,0,0,0,0,0,0,0,0,0,0,0,0,0,0,0,0,0,0,0,0,0,0,0,0,0,0,0,0,0,0,0,0,0,0,0,0,0,0,0,0,0,0,0,0,0,0,0,0,0,0,0,0,0,0,0,0,0,0,0,0,0,0,0,0,0,0,0,0,0
13.4569387435913,13.4572334289551,13.4575281143188,13.4578227996826,13.458119392395,13.4584131240845,13.4587078094482,13.4590044021606,13.4592990875244,13.4595937728882,13.4598894119263,13.46018409729,13.4604797363281,13.4607744216919,13.46107006073,13.4613647460938,13.4616613388062,13.4619550704956,13.462251663208,13.4625463485718,13.4628419876099,13.4631357192993,13.463433265686,13.4637289047241,13.4640226364136,13.464319229126,13.4646139144897,13.4649095535278,13.4652051925659,13.465500831604,13.4657955169678,13.4660921096802,13.4663867950439,13.466682434082,13.4669780731201,13.4672737121582,13.4675674438477,13.4678649902344,13.4681596755981,13.4684543609619,13.4687509536743,13.4690465927124,13.4693412780762,13.4696388244629,13.4699325561523,13.4702291488647,13.4705247879028,13.4708204269409,13.4711151123047,13.4714126586914,13.4717063903809,13.4720029830933,13.4722995758057,13.4725942611694,13.4728899002075,13.4731874465942,13.4734811782837,13.4737768173218,13.4740724563599,13.4743690490723,13.474663734436,13.4749603271484,13.4752569198608,13.4755525588989,13.4758462905884,13.4761447906494,13.4764394760132,13.4767360687256,13.4770317077637,13.4773273468018,13.4776229858398,13.4779195785522,13.4782152175903,13.4785108566284,13.4788074493408,13.4791040420532,13.479398727417,13.4796953201294,13.4799900054932,13.4802875518799,13.480583190918,13.4808797836304,13.4811744689941,13.4814729690552,13.4817676544189,13.4820642471313,13.4823608398438,13.4826564788818,13.4829530715942,13.4832496643066,13.4835453033447,13.4838409423828,13.4841384887695,13.4844341278076,13.48473072052,13.4850273132324,13.4853239059448,13.4856195449829,13.4859161376953,13.4862117767334,13.4865074157715,13.4868049621582,13.4871006011963,13.4873962402344,13.4876947402954,13.4879903793335,13.4882860183716,13.488582611084,13.4888792037964,13.4891748428345,13.4894733428955,13.4897680282593,13.490065574646,13.4903621673584,13.4906597137451,13.4909534454346,13.4912519454956,13.4915475845337,13.4918441772461,13.4921417236328,13.4924392700195,13.492733001709,13.4930305480957,13.4933271408081,13.4936237335205,13.4939203262329,13.4942188262939,13.4945135116577,13.4948120117188,13.4951076507568,13.4954042434692,13.4957008361816,13.495997428894,13.4962940216064,13.4965915679932,13.4968881607056,13.4971857070923,13.4974803924561,13.4977788925171,13.4980754852295,13.4983711242676,13.4986696243286,13.498966217041,13.4992618560791,13.4995594024658,13.4998559951782,13.5001535415649,13.5004510879517,13.5007476806641,13.5010433197021,13.5013418197632,13.5016384124756,13.501935005188,13.502233505249,13.5025291442871,13.5028266906738,13.5031242370605,13.5034217834473,13.5037174224854,13.5040168762207,13.5043115615845,13.5046100616455,13.5049066543579,13.5052042007446,13.5054998397827,13.5057983398438,13.5060949325562,13.5063924789429,13.5066900253296,13.5069875717163,13.5072832107544,13.5075826644897,13.5078792572021,13.5081748962402,13.5084733963013,13.5087718963623,13.5090684890747,13.5093641281128,13.5096626281738,13.5099611282349,13.5102567672729,13.5105562210083,13.510853767395,13.5111494064331,13.5114459991455,13.5117454528809,13.5120429992676,13.5123386383057,13.512638092041,13.5129356384277,13.5132322311401,13.5135297775269,13.5138282775879,13.514123916626,13.5144214630127,13.514720916748,13.5150184631348,13.5153150558472,13.5156126022339,13.5159111022949,13.5162076950073,13.516505241394,13.5168046951294,13.5171022415161,13.5173997879028,13.5176963806152,13.5179958343506,13.5182914733887,13.518590927124,13.5188875198364,13.5191860198975,13.5194835662842,13.5197820663452,13.5200786590576,13.5203762054443,13.5206756591797,13.5209722518921,13.5212707519531,13.5215692520142,13.5218658447266,13.5221652984619,13.5224628448486,13.5227613449097,13.5230579376221,13.5233554840088,13.5236539840698,13.5239524841309,13.5242500305176,13.5245485305786,13.5248460769653,13.5251436233521,13.5254440307617,13.5257406234741,13.5260381698608,13.5263376235962,13.5266342163086,13.5269346237183,13.5272312164307,13.5275297164917,13.5278263092041,13.5281257629395,13.5284242630005,13.5287218093872,13.5290212631226,13.5293188095093,13.5296182632446,13.529914855957,13.5302143096924,13.5305118560791,13.5308103561401,13.5311088562012,13.5314073562622,13.5317049026489,13.5320024490356,13.5323028564453,13.532600402832,13.5328998565674,13.5331964492798,13.5334959030151,13.5337953567505,13.5340919494629,13.5343914031982,13.534688949585,13.534987449646,13.535285949707,13.5355844497681,13.5358839035034,13.5361814498901,13.5364809036255,13.5367784500122,13.5370779037476,13.5373764038086,13.5376758575439,13.5379724502563,13.538272857666,13.5385713577271,13.5388698577881,13.5391693115234,13.5394659042358,13.5397653579712,13.5400629043579,13.5403642654419,13.5406637191772,13.5409603118896,13.5412616729736,13.541558265686,13.5418567657471,13.5421562194824,13.5424556732178,13.5427522659302,13.5430517196655,13.5433521270752,13.5436496734619,13.5439481735229,13.5442476272583,13.5445470809937,13.5448455810547,13.54514503479,0,0,0,0,0,0,0,0,0,0,0,0,0,0,0,0,0,0,0,0,0,0,0,0,0,0,0,0,0,0,0,0,0,0,0,0,0,0,0,0,0,0,0,0,0,0,0,0,0,0,0,0,0,0,0,0,0,0,0,0,0,0,0,0,0,0,0,0,0,0,0,0,0,0,0,0,0,0,0,0,0,0,0,0,0,0,0,0,0,0,0,0,0,0
13.3618545532227,13.3621435165405,13.3624362945557,13.3627281188965,13.3630170822144,13.3633098602295,13.3635997772217,13.3638916015625,13.364182472229,13.3644733428955,13.364764213562,13.3650560379028,13.365345954895,13.3656368255615,13.3659286499023,13.3662195205688,13.366509437561,13.3668022155762,13.3670921325684,13.3673839569092,13.3676748275757,13.3679666519165,13.3682565689087,13.3685493469238,13.368839263916,13.3691301345825,13.3694229125977,13.3697137832642,13.3700037002563,13.3702964782715,13.3705863952637,13.3708782196045,13.371169090271,13.3714609146118,13.371750831604,13.3720445632935,13.3723344802856,13.3726263046265,13.372917175293,13.3732089996338,13.373498916626,13.3737926483154,13.3740825653076,13.3743743896484,13.3746662139893,13.3749580383301,13.3752479553223,13.3755407333374,13.3758316040039,13.3761234283447,13.3764152526855,13.3767061233521,13.3769969940186,13.3772897720337,13.3775806427002,13.377872467041,13.3781642913818,13.3784561157227,13.3787469863892,13.3790407180786,13.3793296813965,13.3796215057373,13.3799133300781,13.3802061080933,13.3804969787598,13.3807897567749,13.3810806274414,13.3813724517822,13.3816661834717,13.3819561004639,13.3822479248047,13.3825397491455,13.3828325271606,13.3831233978271,13.383415222168,13.3837070465088,13.3839998245239,13.3842897415161,13.3845834732056,13.3848733901978,13.3851661682129,13.3854579925537,13.3857507705688,13.3860416412354,13.3863353729248,13.3866262435913,13.3869190216064,13.3872108459473,13.3875036239624,13.3877935409546,13.3880863189697,13.3883781433105,13.3886709213257,13.3889627456665,13.3892545700073,13.3895454406738,13.3898391723633,13.3901309967041,13.3904228210449,13.3907146453857,13.3910074234009,13.3912992477417,13.3915920257568,13.3918838500977,13.3921756744385,13.3924674987793,13.3927602767944,13.3930521011353,13.3933458328247,13.3936376571655,13.3939294815063,13.3942222595215,13.3945140838623,13.3948059082031,13.3950986862183,13.3953905105591,13.3956832885742,13.3959760665894,13.3962678909302,13.396559715271,13.3968534469604,13.3971452713013,13.3974370956421,13.3977298736572,13.3980226516724,13.3983144760132,13.398609161377,13.3989009857178,13.3991928100586,13.3994874954224,13.3997783660889,13.4000701904297,13.4003639221191,13.4006567001343,13.4009475708008,13.4012413024902,13.4015331268311,13.4018278121948,13.4021186828613,13.4024124145508,13.4027042388916,13.4029970169067,13.4032888412476,13.4035816192627,13.4038753509521,13.404167175293,13.4044599533081,13.4047527313232,13.4050455093384,13.4053401947021,13.4056301116943,13.4059247970581,13.4062166213989,13.4065093994141,13.4068031311035,13.4070949554443,13.4073877334595,13.4076824188232,13.4079732894897,13.4082679748535,13.40855884552,13.4088535308838,13.4091444015503,13.4094390869141,13.4097309112549,13.4100246429443,13.4103174209595,13.4106111526489,13.4109039306641,13.4111976623535,13.4114894866943,13.4117822647095,13.4120769500732,13.4123697280884,13.4126605987549,13.4129552841187,13.4132490158081,13.4135417938232,13.4138336181641,13.4141292572021,13.414421081543,13.4147148132324,13.4150085449219,13.4153022766113,13.4155941009521,13.4158878326416,13.4161806106567,13.4164743423462,13.4167671203613,13.4170618057251,13.4173555374146,13.4176473617554,13.4179420471191,13.4182348251343,13.4185266494751,13.4188203811646,13.4191150665283,13.4194078445435,13.4197006225586,13.4199953079224,13.4202880859375,13.4205808639526,13.4208745956421,13.4211692810059,13.4214630126953,13.4217567443848,13.4220504760742,13.4223413467407,13.4226350784302,13.4229297637939,13.4232244491577,13.4235172271729,13.4238119125366,13.4241046905518,13.4243965148926,13.4246912002563,13.4249849319458,13.4252786636353,13.4255704879761,13.4258661270142,13.4261598587036,13.4264526367188,13.4267473220825,13.4270420074463,13.4273347854614,13.4276275634766,13.4279222488403,13.4282159805298,13.4285097122192,13.428804397583,13.4290971755981,13.4293918609619,13.4296846389771,13.4299802780151,13.4302711486816,13.430567741394,13.4308624267578,13.4311552047729,13.4314498901367,13.4317426681519,13.4320363998413,13.4323291778564,13.4326257705688,13.4329195022583,13.4332132339478,13.4335069656372,13.433801651001,13.4340963363647,13.4343891143799,13.4346837997437,13.4349765777588,13.4352712631226,13.4355659484863,13.4358596801758,13.4361534118652,13.4364471435547,13.4367418289185,13.4370355606079,13.437331199646,13.4376258850098,13.4379186630249,13.4382133483887,13.4385080337524,13.4388027191162,13.4390954971313,13.4393911361694,13.4396848678589,13.4399785995483,13.4402732849121,13.4405679702759,13.4408617019653,13.4411563873291,13.4414510726929,13.441743850708,13.4420385360718,13.4423341751099,13.4426279067993,13.4429225921631,13.4432163238525,13.4435119628906,13.4438056945801,13.4441013336182,13.4443950653076,13.4446897506714,13.4449844360352,13.4452781677246,13.4455728530884,13.4458675384521,13.4461641311646,13.4464559555054,13.4467515945435,13.4470481872559,13.4473419189453,13.4476356506348,13.4479303359985,13.4482259750366,13.4485187530518,13.4488143920898,13.4491090774536,13.4494037628174,13.4496984481812,13.4499940872192,13.450288772583,13.4505825042725,13.4508790969849,13.451171875,13.4514675140381,0,0,0,0,0,0,0,0,0,0,0,0,0,0,0,0,0,0,0,0,0,0,0,0,0,0,0,0,0,0,0,0,0,0,0,0,0,0,0,0,0,0,0,0,0,0,0,0,0,0,0,0,0,0,0,0,0,0,0,0,0,0,0,0,0,0,0,0,0,0,0,0,0,0,0,0,0,0,0,0,0,0,0,0,0
13.2681045532227,13.2683925628662,13.2686796188354,13.2689666748047,13.2692518234253,13.2695398330688,13.2698259353638,13.270112991333,13.2704000473022,13.2706880569458,13.2709732055664,13.27126121521,13.2715473175049,13.2718353271484,13.2721223831177,13.2724094390869,13.2726955413818,13.2729816436768,13.2732696533203,13.2735567092896,13.2738418579102,13.274130821228,13.2744169235229,13.2747039794922,13.2749919891357,13.275279045105,13.2755651473999,13.2758541107178,13.2761392593384,13.2764272689819,13.2767152786255,13.2770023345947,13.277289390564,13.2775764465332,13.2778635025024,13.2781505584717,13.2784385681152,13.2787256240845,13.2790117263794,13.2793006896973,13.2795867919922,13.2798748016357,13.280161857605,13.2804498672485,13.2807359695435,13.2810249328613,13.2813119888306,13.2815990447998,13.2818880081177,13.2821731567383,13.2824611663818,13.2827501296997,13.2830371856689,13.2833223342896,13.2836122512817,13.2838983535767,13.2841854095459,13.2844734191895,13.2847623825073,13.2850484848022,13.2853384017944,13.2856245040894,13.2859115600586,13.2861995697021,13.2864866256714,13.2867736816406,13.2870635986328,13.2873506546021,13.287636756897,13.2879257202148,13.2882137298584,13.2885007858276,13.2887887954712,13.2890768051147,13.289363861084,13.2896518707275,13.2899398803711,13.2902269363403,13.2905158996582,13.2908029556274,13.2910900115967,13.2913789749146,13.2916660308838,13.2919540405273,13.2922430038452,13.2925300598145,13.292818069458,13.2931060791016,13.2933940887451,13.2936811447144,13.2939691543579,13.2942562103271,13.294545173645,13.2948322296143,13.2951211929321,13.2954092025757,13.2956972122192,13.2959842681885,13.296272277832,13.2965593338013,13.2968492507935,13.297137260437,13.2974252700806,13.2977123260498,13.2980031967163,13.2982883453369,13.2985792160034,13.2988653182983,13.2991542816162,13.2994432449341,13.2997312545776,13.3000192642212,13.3003072738647,13.3005952835083,13.3008842468262,13.3011722564697,13.3014612197876,13.3017482757568,13.3020372390747,13.3023262023926,13.3026123046875,13.302903175354,13.3031902313232,13.3034782409668,13.3037662506104,13.3040561676025,13.3043432235718,13.304633140564,13.3049201965332,13.3052091598511,13.3054971694946,13.3057861328125,13.3060722351074,13.3063631057739,13.3066511154175,13.3069400787354,13.3072280883789,13.3075160980225,13.307804107666,13.3080940246582,13.3083829879761,13.3086709976196,13.3089599609375,13.3092489242554,13.3095359802246,13.3098258972168,13.310112953186,13.3104028701782,13.3106908798218,13.3109798431396,13.3112678527832,13.3115577697754,13.3118448257446,13.3121347427368,13.3124237060547,13.3127126693726,13.3130016326904,13.3132905960083,13.3135795593262,13.3138675689697,13.3141565322876,13.3144445419312,13.3147325515747,13.3150224685669,13.3153104782104,13.3156003952026,13.3158874511719,13.3161783218384,13.3164653778076,13.3167562484741,13.3170461654663,13.3173322677612,13.3176231384277,13.3179111480713,13.3182029724121,13.318489074707,13.3187808990479,13.3190670013428,13.3193578720093,13.3196458816528,13.3199348449707,13.3202238082886,13.3205127716064,13.3208036422729,13.3210906982422,13.3213806152344,13.3216695785522,13.3219594955444,13.3222494125366,13.3225364685059,13.3228273391724,13.3231143951416,13.3234052658081,13.323694229126,13.3239841461182,13.324273109436,13.3245620727539,13.3248519897461,13.3251399993896,13.3254327774048,13.3257188796997,13.3260087966919,13.3262968063354,13.3265886306763,13.3268775939941,13.327166557312,13.3274564743042,13.3277444839478,13.3280344009399,13.3283243179321,13.32861328125,13.3289031982422,13.3291921615601,13.3294820785522,13.3297710418701,13.3300609588623,13.3303508758545,13.3306407928467,13.3309297561646,13.3312206268311,13.3315095901489,13.3317985534668,13.3320894241333,13.3323774337769,13.332667350769,13.3329563140869,13.3332481384277,13.3335380554199,13.3338260650635,13.33411693573,13.3344049453735,13.3346939086914,13.3349866867065,13.3352756500244,13.335563659668,13.3358545303345,13.336145401001,13.3364334106445,13.3367233276367,13.3370132446289,13.3373031616211,13.3375930786133,13.3378829956055,13.338173866272,13.3384628295898,13.3387517929077,13.3390426635742,13.3393335342407,13.3396215438843,13.3399124145508,13.340202331543,13.3404922485352,13.3407831192017,13.3410720825195,13.3413619995117,13.3416528701782,13.3419427871704,13.3422317504883,13.3425207138062,13.3428134918213,13.3431024551392,13.3433923721313,13.3436832427979,13.34397315979,13.3442621231079,13.3445529937744,13.3448438644409,13.3451337814331,13.3454236984253,13.3457145690918,13.3460054397583,13.3462924957275,13.3465852737427,13.3468751907349,13.3471641540527,13.3474569320679,13.3477458953857,13.3480367660522,13.3483257293701,13.3486175537109,13.3489065170288,13.349196434021,13.3494882583618,13.349778175354,13.3500690460205,13.350359916687,13.3506488800049,13.3509387969971,13.3512315750122,13.3515214920044,13.3518114089966,13.3521022796631,13.3523921966553,13.3526821136475,13.352972984314,13.3532638549805,13.353554725647,13.3538455963135,13.3541345596313,13.3544263839722,13.3547172546387,13.3550071716309,13.3552989959717,13.3555889129639,13.3558788299561,13.3561697006226,13.3564615249634,13.3567504882812,13.3570432662964,13.3573322296143,13.3576231002808,13.3579139709473,13.3582057952881,13.358494758606,13.3587856292725,13.359076499939,0,0,0,0,0,0,0,0,0,0,0,0,0,0,0,0,0,0,0,0,0,0,0,0,0,0,0,0,0,0,0,0,0,0,0,0,0,0,0,0,0,0,0,0,0,0,0,0,0,0,0,0,0,0,0,0,0,0,0,0,0,0,0,0,0,0,0,0,0,0,0,0,0,0,0,0
