0,0,0,0,0,0,0,0,0,0,0,0,0,0,0,0,0,0,0,0,0,0,0,0,0,0,0,0,0,0,0,0,0,0,0,0,0,0,0,0,0,0,0,0,0,0,0,0,0,0,0,0,0,0,0,0,0,0,0,0,0,0,0,0,0,0,0,0,0,0,0,0,0,0,0,0,0,0,0,0,0,0,0,0,0,0,0,0,0,0,0,0,0,0,0,0,0,0,0,0,0,0,0,0,0,0,0,0,0,0,0,0,0,0,0,0,0,0,0,0,0,0,0,0,0,0,0,0,0,0,0,0,0,0,0,0,0,0,0,0,0,0,0,0,0,0,0,0,0,0,0,0,0,0,0,0,0,0,0,0,0,0,0,0,0,0,0,0,0,0,0,0,0,0,0,0,0,0,0,0,0,0,0,0,0,0,0,0,0,0,0,0,0,0,0,0,0,0,0,0,0,0,0,0,0,0,0,0,0,0,0,0,0,0,0,0,0,0,0,0,0,0,0,0,0,0,0,0,0,0,0,0,0,0,0,0,0,0,19.3714237213135,19.2826080322266,19.1946029663086,19.1073970794678,19.0209808349609,18.9353408813477,18.8501758575439,18.7826747894287,18.7156600952148,18.6491222381592,18.5830554962158,18.5174560546875,18.4523181915283,18.3876361846924,18.3234062194824,18.2596244812012,18.1962833404541,18.1333827972412,18.0709133148193,18.0088729858398,17.9472579956055,17.8860626220703,17.8252830505371,17.7649402618408,17.6393795013428,17.5800399780273,17.5210971832275,17.4625492095947,17.404390335083,17.3466186523438,17.2892284393311,17.2322177886963,17.1755809783936,17.1193141937256,17.0634174346924,17.0078830718994,16.9527072906494,16.8978900909424,16.8434276580811,16.7893123626709,16.7355461120605,16.6821212768555,16.6290378570557,16.5762901306152,16.5238761901855,16.471794128418,16.420036315918,16.3686046600342,16.3174953460693,16.2667045593262,16.2162284851074,16.1660652160645,16.1162109375,16.0666637420654,16.0174198150635,15.9684782028198,15.9198331832886,15.8714838027954,15.8234281539917,15.7756614685059,15.7281827926636,15.6809892654419,15.6340780258179,15.5874462127686,15.5410919189453,15.4950132369995,15.4492053985596,15.4036674499512,15.3583974838257,15.3133926391602,15.268651008606,15.2241706848145,15.1799478530884,15.1359825134277,15.0922765731812,15.0488224029541,15.0056180953979,14.9626598358154,14.9199466705322,14.8774757385254,14.8352460861206,14.7932558059692,14.7515029907227,14.7099847793579,14.6686992645264,14.6276445388794,14.5868196487427,14.5462217330933,14.5058498382568,14.4657011032104,14.4257736206055,14.3860664367676,14.3465728759766,14.3072957992554,14.2682342529297,14.2293844223022,14.1907453536987,14.1523160934448,14.1140947341919,14.076078414917,14.0382671356201,14.0006580352783,13.9632501602173,13.9260444641113,13.8890361785889,13.8522233963013,13.8156061172485,13.7791814804077,13.7429485321045,13.7069063186646,13.6710510253906
0,0,0,0,0,0,0,0,0,0,0,0,0,0,0,0,0,0,0,0,0,0,0,0,0,0,0,0,0,0,0,0,0,0,0,0,0,0,0,0,0,0,0,0,0,0,0,0,0,0,0,0,0,0,0,0,0,0,0,0,0,0,0,0,0,0,0,0,0,0,0,0,0,0,0,0,0,0,0,0,0,0,0,0,0,0,0,0,0,0,0,0,0,0,0,0,0,0,0,0,0,0,0,0,0,0,0,0,0,0,0,0,0,0,0,0,0,0,0,0,0,0,0,0,0,0,0,0,0,0,0,0,0,0,0,0,0,0,0,0,0,0,0,0,0,0,0,0,0,0,0,0,0,0,0,0,0,0,0,0,0,0,0,0,0,0,0,0,0,0,0,0,0,0,0,0,0,0,0,0,0,0,0,0,0,0,0,0,0,0,0,0,0,0,0,0,0,0,0,0,0,0,0,0,0,0,0,0,0,0,0,0,0,0,0,0,0,0,0,0,0,0,0,0,0,0,0,0,0,0,0,0,0,0,0,0,0,0,0,0,0,19.162389755249,19.075475692749,18.9893455505371,18.8503265380859,18.7828311920166,18.7158107757568,18.6492652893066,18.5831909179688,18.5175895690918,18.452449798584,18.387767791748,18.3235378265381,18.2597541809082,18.1964130401611,18.1335105895996,18.0710391998291,18.0089988708496,17.9473838806152,17.8861865997314,17.8254070281982,17.6992626190186,17.639518737793,17.5801792144775,17.5212345123291,17.4626865386963,17.4045257568359,17.3467540740967,17.2893619537354,17.232349395752,17.1757125854492,17.1194458007812,17.0635471343994,17.0080108642578,16.9528369903564,16.8980178833008,16.8435535430908,16.7894382476807,16.7356719970703,16.6822471618652,16.6291618347168,16.5764141082764,16.523998260498,16.4719142913818,16.4201583862305,16.368724822998,16.3176136016846,16.2668209075928,16.2163429260254,16.1661777496338,16.1163215637207,16.0667743682861,16.0175304412842,15.9685869216919,15.9199409484863,15.8715915679932,15.8235340118408,15.775767326355,15.7282886505127,15.6810941696167,15.6341819763184,15.587550163269,15.5411949157715,15.4951152801514,15.4493074417114,15.4037685394287,15.3584985733032,15.3134927749634,15.2687501907349,15.224268913269,15.180046081543,15.1360788345337,15.0923662185669,15.0489044189453,15.0056972503662,14.9627389907837,14.9200267791748,14.8775568008423,14.8353290557861,14.7933397293091,14.7515859603882,14.7100667953491,14.6687812805176,14.6277265548706,14.5869007110596,14.5463027954102,14.5059299468994,14.4657802581787,14.4258527755737,14.3861446380615,14.3466548919678,14.3073806762695,14.2683219909668,14.2294721603394,14.1908330917358,14.1524028778076,14.1141805648804,14.0761642456055,14.0383520126343,14.0007429122925,13.9633340835571,13.9261245727539,13.8891134262085,13.8522987365723,13.8156776428223,13.7792530059814,13.7430191040039,13.7069759368896,13.67112159729
0,0,0,0,0,0,0,0,0,0,0,0,0,0,0,0,0,0,0,0,0,0,0,0,0,0,0,0,0,0,0,0,0,0,0,0,0,0,0,0,0,0,0,0,0,0,0,0,0,0,0,0,0,0,0,0,0,0,0,0,0,0,0,0,0,0,0,0,0,0,0,0,0,0,0,0,0,0,0,0,0,0,0,0,0,0,0,0,0,0,0,0,0,0,0,0,0,0,0,0,0,0,0,0,0,0,0,0,0,0,0,0,0,0,0,0,0,0,0,0,0,0,0,0,0,0,0,0,0,0,0,0,0,0,0,0,0,0,0,0,0,0,0,0,0,0,0,0,0,0,0,0,0,0,0,0,0,0,0,0,0,0,0,0,0,0,0,0,0,0,0,0,0,0,0,0,0,0,0,0,0,0,0,0,0,0,0,0,0,0,0,0,0,0,0,0,0,0,0,0,0,0,0,0,0,0,0,0,0,0,0,0,0,0,0,0,0,0,0,0,0,0,0,0,0,0,0,0,0,0,0,0,0,0,0,0,0,0,0,0,0,0,0,0,18.9578170776367,18.7829875946045,18.7159652709961,18.6494197845459,18.583345413208,18.5177383422852,18.4525909423828,18.3879013061523,18.3236675262451,18.2598838806152,18.1965408325195,18.1336364746094,18.0711669921875,18.0091247558594,17.9475078582764,17.8863124847412,17.8255310058594,17.6994037628174,17.6396579742432,17.5803165435791,17.5213718414307,17.4628219604492,17.4046630859375,17.346887588501,17.2894973754883,17.2324829101562,17.1758441925049,17.1195774078369,17.0636768341064,17.0081405639648,16.9529647827148,16.8981456756592,16.8436813354492,16.7895660400391,16.7357959747314,16.6823711395264,16.6292858123779,16.5765361785889,16.5241203308105,16.4720363616943,16.4202785491943,16.3688449859619,16.3177337646484,16.266939163208,16.2164611816406,16.1662940979004,16.1164379119873,16.0668869018555,16.0176410675049,15.9686946868896,15.9200496673584,15.8716983795166,15.8236408233643,15.7758741378784,15.7283935546875,15.6811990737915,15.6342859268188,15.5876531600952,15.5412979125977,15.4952173233032,15.449408531189,15.4038696289062,15.3585987091064,15.3135929107666,15.2688503265381,15.2243680953979,15.1801443099976,15.136176109314,15.0924625396729,15.0490007400513,15.0057888031006,14.9628238677979,14.9201049804688,14.8776350021362,14.8354063034058,14.7934160232544,14.7516641616821,14.7101459503174,14.6688613891602,14.6278076171875,14.5869817733765,14.5463829040527,14.506010055542,14.4658603668213,14.425931930542,14.3862237930298,14.3467330932617,14.3074588775635,14.2683992385864,14.2295522689819,14.1909160614014,14.1524896621704,14.1142663955688,14.0762500762939,14.0384378433228,14.0008277893066,13.963418006897,13.9262084960938,13.8891973495483,13.8523817062378,13.8157606124878,13.7793321609497,13.7430963516235,13.7070503234863,13.6711921691895
0,0,0,0,0,0,0,0,0,0,0,0,0,0,0,0,0,0,0,0,0,0,0,0,0,0,0,0,0,0,0,0,0,0,0,0,0,0,0,0,0,0,0,0,0,0,0,0,0,0,0,0,0,0,0,0,0,0,0,0,0,0,0,0,0,0,0,0,0,0,0,0,0,0,0,0,0,0,0,0,0,0,0,0,0,0,0,0,0,0,0,0,0,0,0,0,0,0,0,0,0,0,0,0,0,0,0,0,0,0,0,0,0,0,0,0,0,0,0,0,0,0,0,0,0,0,0,0,0,0,0,0,0,0,0,0,0,0,0,0,0,0,0,0,0,0,0,0,0,0,0,0,0,0,0,0,0,0,0,0,0,0,0,0,0,0,0,0,0,0,0,0,0,0,0,0,0,0,0,0,0,0,0,0,0,0,0,0,0,0,0,0,0,0,0,0,0,0,0,0,0,0,0,0,0,0,0,0,0,0,0,0,0,0,0,0,0,0,0,0,0,0,0,0,0,0,0,0,0,0,0,0,0,0,0,0,0,0,0,0,0,0,0,0,0,18.7831420898438,18.716121673584,18.6495742797852,18.5834999084473,18.5178909301758,18.4527435302734,18.3880519866943,18.3238143920898,18.2600231170654,18.1966743469238,18.1337642669678,18.0712928771973,18.0092506408691,17.9476337432861,17.8864364624023,17.8256549835205,17.6995429992676,17.639799118042,17.5804557800293,17.5215110778809,17.4629592895508,17.4047985076904,17.3470230102539,17.2896308898926,17.2326164245605,17.1759777069092,17.1197090148926,17.0638084411621,17.0082702636719,16.9530944824219,16.8982753753662,16.843807220459,16.7896919250488,16.7359218597412,16.6824951171875,16.6294097900391,16.57666015625,16.524242401123,16.4721584320068,16.4203987121582,16.3689651489258,16.3178520202637,16.2670574188232,16.2165794372559,16.1664123535156,16.1165542602539,16.0670032501221,16.0177555084229,15.9688091278076,15.9201612472534,15.8718090057373,15.823748588562,15.7759799957275,15.7284994125366,15.6813039779663,15.6343908309937,15.5877571105957,15.5414009094238,15.4953203201294,15.4495105743408,15.4039707183838,15.3586988449097,15.3136930465698,15.268949508667,15.2244663238525,15.1802425384521,15.1362743377686,15.0925598144531,15.0490970611572,15.0058841705322,14.9629192352295,14.9201993942261,14.8777227401733,14.8354864120483,14.793493270874,14.7517404556274,14.7102222442627,14.6689367294312,14.6278829574585,14.5870580673218,14.5464611053467,14.5060882568359,14.4659395217896,14.4260110855103,14.3863019943237,14.3468112945557,14.3075370788574,14.2684764862061,14.2296295166016,14.1909923553467,14.1525650024414,14.1143455505371,14.0763320922852,14.0385227203369,14.0009117126465,13.9635028839111,13.9262924194336,13.8892803192139,13.8524646759033,13.815842628479,13.7794141769409,13.7431783676147,13.7071313858032,13.6712732315063
19.9524154663086,19.95361328125,19.9548110961914,19.9560089111328,19.9572086334229,19.9584064483643,19.9596042633057,19.9608039855957,19.9620037078857,19.9632015228271,19.9644012451172,19.9656009674072,19.9668006896973,19.9680004119873,19.9692001342773,19.9703998565674,19.9715995788574,19.9728012084961,19.9740009307861,19.9752006530762,19.9764022827148,19.9776020050049,19.9788036346436,19.9800052642822,19.9812068939209,19.9824085235596,19.9836101531982,19.9848117828369,19.9860134124756,19.9872150421143,19.9884166717529,19.9896202087402,19.9908218383789,19.9920253753662,19.9932270050049,19.9944305419922,19.9956340789795,19.9968376159668,19.9980411529541,19.9992427825928,0,0,0,0,0,0,0,0,0,0,0,0,0,0,0,0,0,0,0,0,0,0,0,0,0,0,0,0,0,0,0,0,0,0,0,0,0,0,0,0,0,0,0,0,0,0,0,0,0,0,0,0,0,0,0,0,0,0,0,0,0,0,0,0,0,0,0,0,0,0,0,0,0,0,0,0,0,0,0,0,0,0,0,0,0,0,0,0,0,0,0,0,0,0,0,0,0,0,0,0,0,0,0,0,0,0,0,0,0,0,0,0,0,0,0,0,0,0,0,0,0,0,0,0,0,0,0,0,0,0,0,0,0,0,0,0,0,0,0,0,0,0,0,0,0,0,0,0,0,0,0,0,0,0,0,0,0,0,0,0,0,0,0,0,0,0,0,0,0,0,0,0,0,0,0,0,0,0,0,0,0,0,0,0,0,0,0,0,0,0,0,0,0,0,0,0,0,0,0,0,0,0,0,0,0,18.783296585083,18.7162780761719,18.6497287750244,18.5836524963379,18.5180435180664,18.4528942108154,18.3882026672363,18.3239631652832,18.2601718902588,18.1968212127686,18.1339092254639,18.0714321136475,18.0093822479248,17.9477577209473,17.8865604400635,17.825777053833,17.7018165588379,17.6399364471436,17.5805931091309,17.5216464996338,17.4630947113037,17.4049339294434,17.3471584320068,17.2897644042969,17.2327499389648,17.1761093139648,17.1198406219482,17.0639381408691,17.0083999633789,16.9532222747803,16.8984031677246,16.8439350128174,16.7898178100586,16.736047744751,16.6826210021973,16.6295337677002,16.5767822265625,16.5243663787842,16.4722785949707,16.4205207824707,16.3690853118896,16.3179721832275,16.2671756744385,16.2166957855225,16.1665287017822,16.1166706085205,16.06711769104,16.0178699493408,15.9689235687256,15.9202747344971,15.8719215393066,15.8238611221313,15.7760906219482,15.7286081314087,15.6814107894897,15.6344947814941,15.5878610610962,15.54150390625,15.4954223632812,15.4496116638184,15.4040718078613,15.3587999343872,15.3137922286987,15.2690486907959,15.2245655059814,15.1803398132324,15.1363716125488,15.0926570892334,15.0491933822632,15.0059804916382,14.9630146026611,14.9202938079834,14.8778162002563,14.8355808258057,14.7935838699341,14.751823425293,14.710298538208,14.6690130233765,14.6279582977295,14.5871334075928,14.5465354919434,14.5061626434326,14.4660129547119,14.4260854721069,14.386378288269,14.3468885421753,14.3076143264771,14.2685537338257,14.2297058105469,14.1910696029663,14.1526412963867,14.1144218444824,14.0764074325562,14.0385971069336,14.0009899139404,13.9635829925537,13.9263763427734,13.8893642425537,13.8525476455688,13.8159255981445,13.7794971466064,13.7432594299316,13.7072124481201,13.6713542938232
19.7365875244141,19.7377605438232,19.7389335632324,19.740104675293,19.7412776947021,19.7424507141113,19.7436237335205,19.7447967529297,19.7459697723389,19.747142791748,19.7483158111572,19.749490737915,19.7506637573242,19.751838684082,19.7530117034912,19.754186630249,19.7553596496582,19.756534576416,19.7577095031738,19.7588844299316,19.7600593566895,19.7612342834473,19.7624092102051,19.7635841369629,19.7647590637207,19.7659358978271,19.767110824585,19.7682876586914,19.7694625854492,19.7706394195557,19.7718143463135,19.7729911804199,19.7741680145264,19.7753448486328,19.7765216827393,19.7776985168457,19.7788753509521,19.7800540924072,19.7812309265137,19.7824077606201,19.7835865020752,19.7847633361816,19.7859420776367,19.7871189117432,19.7882976531982,19.7894763946533,19.7906551361084,19.7918338775635,19.7930126190186,19.7941913604736,19.7953701019287,19.7965488433838,19.7977294921875,19.7989082336426,19.8000869750977,19.8012676239014,19.8024482727051,19.8036270141602,19.8048076629639,19.8059883117676,19.8071689605713,19.808349609375,19.8095302581787,19.8107109069824,19.8118915557861,19.8130741119385,19.8142547607422,19.8154354095459,19.8166179656982,19.817798614502,19.8189811706543,19.8201637268066,19.821346282959,19.8225269317627,19.823709487915,19.8248920440674,19.8260746002197,19.8272590637207,19.828441619873,19.8296241760254,19.8308086395264,19.8319911956787,19.8331756591797,19.834358215332,19.835542678833,19.836727142334,19.8379096984863,19.8390941619873,19.8402786254883,19.8414649963379,19.8426494598389,19.8438339233398,19.8450183868408,19.8462028503418,19.8473892211914,19.8485736846924,19.849760055542,19.850944519043,19.8521308898926,19.8533172607422,19.8545036315918,19.8556900024414,19.856876373291,19.8580627441406,19.8592491149902,19.8604354858398,19.8616237640381,19.8628101348877,19.8639984130859,19.8651847839355,19.8663730621338,19.8675594329834,19.8687477111816,19.8699359893799,19.8711242675781,19.8723125457764,19.8735008239746,19.8746891021729,19.8758773803711,19.877067565918,19.8782558441162,19.8794441223145,19.8806343078613,19.8818244934082,19.8830127716064,19.8842029571533,19.8853931427002,19.8865814208984,19.8877735137939,19.8889636993408,19.8901519775391,19.8913440704346,19.8925342559814,19.8937244415283,19.8949165344238,19.8961067199707,19.8972988128662,19.8984889984131,19.8996810913086,19.9008731842041,19.9020652770996,19.9032573699951,19.9044494628906,19.9056415557861,19.9068336486816,19.9080257415771,19.9092197418213,19.9104118347168,19.9116039276123,19.9127979278564,19.913990020752,19.9151840209961,19.9163780212402,19.9175720214844,19.9187660217285,19.9199600219727,19.9211540222168,19.9223480224609,19.9235420227051,19.9247360229492,19.925931930542,19.9271259307861,19.9283218383789,19.929515838623,19.9307117462158,19.9319076538086,19.9331016540527,19.9342975616455,19.9354934692383,19.9366893768311,19.9378852844238,19.9390830993652,19.940279006958,19.9414749145508,19.9426727294922,19.943868637085,19.9450645446777,19.9462623596191,19.9474601745605,19.948657989502,19.9498538970947,19.9510536193848,19.9522495269775,19.9534492492676,19.954647064209,19.9558448791504,19.9570426940918,19.9582424163818,19.9594402313232,19.9606399536133,19.9618377685547,19.9630374908447,19.9642372131348,19.9654369354248,19.9666347503662,19.9678363800049,19.9690341949463,19.970235824585,19.971435546875,19.972635269165,19.9738349914551,19.9750366210938,19.9762363433838,19.9774379730225,19.9786396026611,19.9798412322998,19.9810409545898,19.9822425842285,19.9834442138672,19.9846458435059,19.9858474731445,19.9870510101318,19.9882526397705,19.9894542694092,19.9906578063965,19.9918594360352,19.9930629730225,19.9942646026611,19.9954681396484,19.9966716766357,19.997875213623,19.9990787506104,0,0,0,0,0,0,0,0,0,0,0,0,0,0,0,0,0,0,0,0,0,0,0,18.7834358215332,18.7164306640625,18.6498851776123,18.5838069915771,18.518196105957,18.4530467987061,18.3883533477783,18.3241119384766,18.2603187561035,18.1969680786133,18.1340560913086,18.0715770721436,18.0095272064209,17.9479007720947,17.8866958618164,17.82590675354,17.7655296325684,17.6744346618652,17.600456237793,17.5270900726318,17.4632205963135,17.4050579071045,17.3472805023193,17.2898864746094,17.2328701019287,17.1762294769287,17.1199607849121,17.064058303833,17.0085201263428,16.9533424377441,16.8985214233398,16.8440532684326,16.7899360656738,16.7361640930176,16.6827373504639,16.6296482086182,16.5768985748291,16.5244808197021,16.4723930358887,16.42063331604,16.369197845459,16.3180847167969,16.2672882080078,16.2168083190918,16.1666393280029,16.1167812347412,16.0672283172607,16.0179805755615,15.9690322875977,15.9203834533691,15.8720293045044,15.8239688873291,15.776198387146,15.7287149429321,15.6815166473389,15.6346006393433,15.5879650115967,15.5416059494019,15.4955234527588,15.4497137069702,15.4041728973389,15.3589000701904,15.313892364502,15.2691478729248,15.224663734436,15.180438041687,15.1364688873291,15.0927534103394,15.0492906570435,15.0060758590698,14.9631099700928,14.920389175415,14.8779106140137,14.8356742858887,14.7936763763428,14.7519159317017,14.7103910446167,14.6690988540649,14.6280374526978,14.5872087478638,14.54660987854,14.5062370300293,14.4660873413086,14.4261589050293,14.3864507675171,14.3469610214233,14.3076868057251,14.268627166748,14.2297801971436,14.191143989563,14.152717590332,14.1144971847534,14.0764827728271,14.0386724472046,14.0010643005371,13.9636573791504,13.9264497756958,13.8894395828247,13.8526268005371,13.8160076141357,13.7795791625977,13.7433414459229,13.707293510437,13.6714353561401
19.5253810882568,19.5265274047852,19.5276756286621,19.5288238525391,19.5299701690674,19.5311183929443,19.5322666168213,19.5334148406982,19.5345630645752,19.5357112884521,19.5368595123291,19.5380077362061,19.5391578674316,19.5403060913086,19.5414543151855,19.5426044464111,19.5437526702881,19.5449028015137,19.5460529327393,19.5472011566162,19.5483512878418,19.5495014190674,19.550651550293,19.5518016815186,19.5529518127441,19.5541019439697,19.5552539825439,19.5564041137695,19.5575561523438,19.5587062835693,19.5598583221436,19.5610084533691,19.5621604919434,19.5633125305176,19.5644645690918,19.5656147003174,19.5667667388916,19.5679187774658,19.5690727233887,19.5702247619629,19.5713768005371,19.5725288391113,19.5736827850342,19.5748348236084,19.5759887695312,19.5771408081055,19.5782947540283,19.5794486999512,19.580602645874,19.5817565917969,19.5829105377197,19.5840644836426,19.5852184295654,19.5863723754883,19.5875263214111,19.588680267334,19.5898361206055,19.5909900665283,19.5921459197998,19.5932998657227,19.5944557189941,19.5956115722656,19.5967674255371,19.5979232788086,19.5990791320801,19.6002349853516,19.601390838623,19.6025466918945,19.603702545166,19.6048603057861,19.6060161590576,19.6071739196777,19.6083297729492,19.6094875335693,19.6106433868408,19.6118011474609,19.6129589080811,19.6141166687012,19.6152744293213,19.6164321899414,19.6175899505615,19.6187477111816,19.6199073791504,19.6210651397705,19.6222229003906,19.6233825683594,19.6245403289795,19.6256999969482,19.626859664917,19.6280174255371,19.6291770935059,19.6303367614746,19.6314964294434,19.6326560974121,19.6338157653809,19.6349754333496,19.636137008667,19.6372966766357,19.6384563446045,19.6396179199219,19.6407794952393,19.641939163208,19.6431007385254,19.6442623138428,19.6454238891602,19.6465835571289,19.6477451324463,19.6489067077637,19.6500682830811,19.6512317657471,19.6523933410645,19.6535549163818,19.6547183990479,19.6558799743652,19.6570434570312,19.6582050323486,19.6593685150146,19.6605319976807,19.6616954803467,19.6628589630127,19.6640224456787,19.6651859283447,19.6663494110107,19.6675128936768,19.6686763763428,19.6698417663574,19.6710052490234,19.6721706390381,19.6733341217041,19.6744995117188,19.6756649017334,19.676830291748,19.6779937744141,19.6791591644287,19.6803245544434,19.681489944458,19.6826553344727,19.6838226318359,19.6849880218506,19.6861553192139,19.6873207092285,19.6884860992432,19.6896533966064,19.6908206939697,19.6919860839844,19.6931533813477,19.6943206787109,19.6954879760742,19.6966552734375,19.6978225708008,19.6989898681641,19.7001571655273,19.7013263702393,19.7024936676025,19.7036628723145,19.7048301696777,19.7059993743896,19.7071666717529,19.7083358764648,19.7095050811768,19.7106742858887,19.7118434906006,19.7130126953125,19.7141819000244,19.7153511047363,19.7165203094482,19.7176914215088,19.7188606262207,19.7200317382812,19.7212009429932,19.7223720550537,19.7235431671143,19.7247123718262,19.7258834838867,19.7270545959473,19.7282257080078,19.7293968200684,19.7305679321289,19.7317390441895,19.7329120635986,19.7340831756592,19.7352561950684,19.7364273071289,19.7376003265381,19.7387714385986,19.7399444580078,19.741117477417,19.7422904968262,19.7434635162354,19.7446365356445,19.7458095550537,19.7469825744629,19.7481555938721,19.7493286132812,19.7505035400391,19.7516765594482,19.7528514862061,19.7540245056152,19.755199432373,19.7563743591309,19.7575492858887,19.7587223052979,19.7598972320557,19.7610721588135,19.7622489929199,19.7634239196777,19.7645988464355,19.7657737731934,19.7669506072998,19.7681255340576,19.7693023681641,19.7704772949219,19.7716541290283,19.7728309631348,19.7740077972412,19.7751846313477,19.7763595581055,19.7775382995605,19.778715133667,19.7798919677734,19.7810688018799,19.782247543335,19.7834243774414,19.7846031188965,19.7857799530029,19.786958694458,19.7881355285645,19.7893142700195,19.7904930114746,19.7916717529297,19.7928504943848,19.7940292358398,19.7952079772949,19.7963886260986,19.7975673675537,19.7987461090088,19.7999267578125,19.8011054992676,19.8022861480713,19.803466796875,19.8046455383301,19.8058261871338,19.8070068359375,19.8081874847412,19.8093681335449,19.8105487823486,18.7165832519531,18.6500377655029,18.5839595794678,18.5183486938477,18.453197479248,18.3885040283203,18.3242626190186,18.2604675292969,18.1971168518066,18.1342029571533,18.0717220306396,18.0096702575684,17.9480438232422,17.8868389129639,17.8260478973389,17.7801113128662,17.7846946716309,17.6471366882324,17.5733871459961,17.5002498626709,17.4277191162109,17.3557777404785,17.2900085449219,17.2329921722412,17.1763496398926,17.1200790405273,17.0641765594482,17.008638381958,16.9534587860107,16.8986377716064,16.8441677093506,16.7900505065918,16.7362785339355,16.6828498840332,16.6297607421875,16.5770092010498,16.5245914459229,16.4725036621094,16.4207439422607,16.3693084716797,16.3181934356689,16.2673969268799,16.2169151306152,16.1667461395264,16.116886138916,16.0673332214355,16.0180854797363,15.9691362380981,15.9204864501953,15.8721323013306,15.824070930481,15.7762994766235,15.7288150787354,15.6816167831421,15.6347007751465,15.5880641937256,15.5417051315308,15.4956207275391,15.4498109817505,15.4042711257935,15.358998298645,15.3139915466309,15.2692470550537,15.2247629165649,15.1805362701416,15.1365671157837,15.0928506851196,15.0493869781494,15.0061721801758,14.9632053375244,14.9204835891724,14.878005027771,14.8357677459717,14.7937698364258,14.7520084381104,14.7104825973511,14.6691904067993,14.6281290054321,14.5872964859009,14.5466909408569,14.5063123703003,14.466160774231,14.4262323379517,14.3865242004395,14.3470335006714,14.3077592849731,14.2686986923218,14.2298517227173,14.1912155151367,14.1527881622314,14.1145687103271,14.0765552520752,14.038745880127,14.0011386871338,13.9637317657471,13.9265241622925,13.8895139694214,13.8526992797852,13.8160800933838,13.7796535491943,13.7434196472168,13.7073745727539,13.6715154647827
19.3186454772949,19.3197689056396,19.3208923339844,19.3220157623291,19.3231391906738,19.3242626190186,19.3253860473633,19.3265113830566,19.3276348114014,19.3287582397461,19.3298835754395,19.3310070037842,19.3321323394775,19.3332557678223,19.3343811035156,19.335506439209,19.3366317749023,19.3377571105957,19.3388824462891,19.3400077819824,19.3411331176758,19.3422584533691,19.3433837890625,19.3445110321045,19.3456363677979,19.3467636108398,19.3478889465332,19.3490161895752,19.3501415252686,19.3512687683105,19.3523960113525,19.3535232543945,19.3546504974365,19.3557777404785,19.3569049835205,19.3580322265625,19.3591594696045,19.3602886199951,19.3614158630371,19.3625431060791,19.3636722564697,19.3647994995117,19.3659286499023,19.367057800293,19.3681869506836,19.3693141937256,19.3704433441162,19.3715724945068,19.3727035522461,19.3738307952881,19.3749618530273,19.376091003418,19.3772201538086,19.3783512115479,19.3794803619385,19.3806114196777,19.3817405700684,19.3828716278076,19.3840026855469,19.3851318359375,19.3862628936768,19.3873958587646,19.3885250091553,19.3896560668945,19.3907890319824,19.3919200897217,19.3930511474609,19.3941822052002,19.3953151702881,19.396448135376,19.3975791931152,19.3987121582031,19.3998432159424,19.4009761810303,19.4021091461182,19.4032421112061,19.4043750762939,19.4055080413818,19.4066410064697,19.4077739715576,19.4089088439941,19.410041809082,19.4111747741699,19.4123096466064,19.413444519043,19.4145774841309,19.4157123565674,19.4168453216553,19.4179801940918,19.4191150665283,19.4202499389648,19.4213848114014,19.4225196838379,19.423656463623,19.4247913360596,19.4259262084961,19.4270610809326,19.4281978607178,19.4293327331543,19.4304695129395,19.4316062927246,19.4327430725098,19.4338779449463,19.4350147247314,19.4361515045166,19.4372882843018,19.4384250640869,19.4395618438721,19.4406986236572,19.441837310791,19.4429740905762,19.44411277771,19.4452495574951,19.4463882446289,19.4475250244141,19.4486637115479,19.4498023986816,19.4509410858154,19.4520797729492,19.4532165527344,19.4543571472168,19.4554958343506,19.4566345214844,19.4577732086182,19.458911895752,19.4600524902344,19.4611930847168,19.4623317718506,19.463472366333,19.4646110534668,19.4657516479492,19.4668922424316,19.4680328369141,19.4691734313965,19.4703140258789,19.4714546203613,19.4725952148438,19.4737377166748,19.4748783111572,19.4760189056396,19.4771595001221,19.4783020019531,19.4794445037842,19.4805850982666,19.4817276000977,19.4828701019287,19.4840126037598,19.4851551055908,19.4862976074219,19.4874401092529,19.488582611084,19.489725112915,19.4908676147461,19.4920120239258,19.4931545257568,19.4942989349365,19.4954414367676,19.4965858459473,19.497730255127,19.4988746643066,19.5000171661377,19.5011615753174,19.5023078918457,19.5034503936768,19.5045967102051,19.5057411193848,19.5068855285645,19.5080318450928,19.5091762542725,19.5103225708008,19.5114669799805,19.5126132965088,19.5137577056885,19.5149040222168,19.5160503387451,19.5171966552734,19.5183429718018,19.5194892883301,19.5206356048584,19.5217819213867,19.5229301452637,19.524076461792,19.5252227783203,19.5263710021973,19.5275173187256,19.5286655426025,19.5298137664795,19.5309619903564,19.5321083068848,19.5332565307617,19.5344047546387,19.5355529785156,19.5367012023926,19.5378513336182,19.5389995574951,19.5401477813721,19.5412979125977,19.5424461364746,19.5435962677002,19.5447444915771,19.5458946228027,19.5470447540283,19.5481948852539,19.5493431091309,19.5504932403564,19.5516452789307,19.5527954101562,19.5539455413818,19.5550956726074,19.556245803833,19.5573978424072,19.5585479736328,19.559700012207,19.5608501434326,19.5620021820068,19.5631542205811,19.5643062591553,19.5654582977295,19.5666103363037,19.5677623748779,19.5689144134521,19.5700664520264,19.5712184906006,19.5723705291748,19.5735244750977,19.5746765136719,19.5758304595947,19.5769844055176,19.5781364440918,19.5792903900146,19.5804443359375,19.5815982818604,19.5827503204346,19.5839061737061,19.5850601196289,19.5862140655518,19.5873680114746,19.5885238647461,19.5896778106689,19.5908317565918,19.5919876098633,19.5931434631348,19.5942974090576,19.5954532623291,19.5966091156006,19.5977649688721,18.7167358398438,18.6501903533936,18.584114074707,18.5185012817383,18.45334815979,18.3886547088623,18.3244113922119,18.2606163024902,18.1972637176514,18.1343479156494,18.0718669891357,18.0098152160645,17.9481887817383,17.8869800567627,17.8261852264404,17.8003807067871,17.8049736022949,17.6940670013428,17.6199245452881,17.5464000701904,17.4734878540039,17.4011783599854,17.3294658660889,17.258337020874,17.1877841949463,17.1201992034912,17.0642948150635,17.0087547302246,16.953577041626,16.898754119873,16.8442840576172,16.7901649475098,16.7363929748535,16.6829624176025,16.6298732757568,16.5771217346191,16.5247020721436,16.4726142883301,16.4208526611328,16.3694171905518,16.318302154541,16.2675037384033,16.2170219421387,16.1668529510498,16.1169929504395,16.0674381256104,16.0181884765625,15.9692401885986,15.9205894470215,15.8722352981567,15.8241729736328,15.7764005661011,15.7289161682129,15.6817169189453,15.6347999572754,15.5881624221802,15.5418033599854,15.4957189559937,15.4499082565308,15.4043674468994,15.359094619751,15.3140878677368,15.2693424224854,15.2248592376709,15.1806335449219,15.1366634368896,15.0929479598999,15.0494832992554,15.0062685012817,14.9633007049561,14.9205780029297,14.8780994415283,14.8358612060547,14.7938632965088,14.7521018981934,14.7105751037598,14.6692819595337,14.6282196044922,14.5873870849609,14.546781539917,14.5064010620117,14.4662446975708,14.4263105392456,14.3865966796875,14.3471059799194,14.3078308105469,14.2687711715698,14.229923248291,14.1912860870361,14.1528587341309,14.1146392822266,14.0766248703003,14.0388154983521,14.0012073516846,13.9638013839722,13.9265947341919,13.8895854949951,13.8527727127075,13.8161525726318,13.7797260284424,13.7434911727905,13.7074460983276,13.6715898513794
19.1162433624268,19.1173419952393,19.1184425354004,19.1195430755615,19.1206436157227,19.1217422485352,19.1228427886963,19.1239433288574,19.1250438690186,19.1261444091797,19.1272449493408,19.1283473968506,19.1294479370117,19.1305484771729,19.1316509246826,19.1327514648438,19.1338539123535,19.1349544525146,19.1360569000244,19.1371593475342,19.1382617950439,19.1393623352051,19.1404647827148,19.1415672302246,19.142671585083,19.1437740325928,19.1448764801025,19.1459789276123,19.1470832824707,19.1481857299805,19.1492881774902,19.1503925323486,19.151496887207,19.1525993347168,19.1537036895752,19.1548080444336,19.155912399292,19.1570167541504,19.1581192016602,19.1592254638672,19.1603298187256,19.161434173584,19.1625385284424,19.1636447906494,19.1647491455078,19.1658554077148,19.1669597625732,19.1680660247803,19.1691703796387,19.1702766418457,19.1713829040527,19.1724891662598,19.1735954284668,19.1747016906738,19.1758079528809,19.1769142150879,19.1780204772949,19.1791286468506,19.1802349090576,19.1813411712646,19.1824493408203,19.1835556030273,19.184663772583,19.1857719421387,19.1868782043457,19.1879863739014,19.189094543457,19.1902027130127,19.1913108825684,19.192419052124,19.1935272216797,19.194637298584,19.1957454681396,19.1968536376953,19.1979637145996,19.1990718841553,19.2001819610596,19.2012901306152,19.2024002075195,19.2035102844238,19.2046203613281,19.2057304382324,19.2068405151367,19.207950592041,19.2090606689453,19.2101707458496,19.2112808227539,19.2123908996582,19.2135028839111,19.2146129608154,19.2157249450684,19.2168350219727,19.2179470062256,19.2190589904785,19.2201690673828,19.2212810516357,19.2223930358887,19.2235050201416,19.2246170043945,19.2257289886475,19.2268409729004,19.227954864502,19.2290668487549,19.2301788330078,19.2312927246094,19.2324047088623,19.2335186004639,19.2346324920654,19.2357444763184,19.2368583679199,19.2379722595215,19.239086151123,19.2402000427246,19.2413139343262,19.2424278259277,19.2435417175293,19.2446556091309,19.2457714080811,19.2468852996826,19.2480010986328,19.2491149902344,19.2502307891846,19.2513446807861,19.2524604797363,19.2535762786865,19.2546920776367,19.2558078765869,19.2569236755371,19.2580394744873,19.2591552734375,19.2602710723877,19.2613868713379,19.2625045776367,19.2636203765869,19.2647380828857,19.2658538818359,19.2669715881348,19.268087387085,19.2692050933838,19.2703227996826,19.2714405059814,19.2725582122803,19.2736759185791,19.2747936248779,19.2759113311768,19.2770290374756,19.278148651123,19.2792663574219,19.2803840637207,19.2815036773682,19.282621383667,19.2837409973145,19.2848606109619,19.2859783172607,19.2870979309082,19.2882175445557,19.2893371582031,19.2904567718506,19.291576385498,19.2926979064941,19.2938175201416,19.2949371337891,19.2960567474365,19.2971782684326,19.2982978820801,19.2994194030762,19.3005409240723,19.3016624450684,19.3027820587158,19.3039035797119,19.305025100708,19.3061466217041,19.3072681427002,19.3083896636963,19.3095111846924,19.3106346130371,19.3117561340332,19.3128776550293,19.314001083374,19.3151245117188,19.3162460327148,19.3173694610596,19.3184909820557,19.3196144104004,19.3207378387451,19.3218612670898,19.3229846954346,19.3241081237793,19.325231552124,19.3263568878174,19.3274803161621,19.3286037445068,19.3297290802002,19.3308525085449,19.3319778442383,19.3331031799316,19.3342266082764,19.3353519439697,19.3364772796631,19.3376026153564,19.3387279510498,19.3398532867432,19.3409786224365,19.3421039581299,19.3432292938232,19.3443565368652,19.3454818725586,19.3466091156006,19.3477344512939,19.3488597869873,19.3499870300293,19.3511142730713,19.3522415161133,19.3533687591553,19.3544960021973,19.3556232452393,19.3567504882812,19.3578777313232,19.3590049743652,19.3601341247559,19.3612613677979,19.3623886108398,19.3635177612305,19.3646450042725,19.3657741546631,19.3669013977051,19.3680305480957,19.3691596984863,19.370288848877,19.3714179992676,19.3725471496582,19.3736763000488,19.3748054504395,19.3759365081787,19.3770656585693,19.3781967163086,19.3793258666992,19.3804550170898,19.3815860748291,19.3827171325684,19.383846282959,19.3849773406982,19.3861083984375,19.3872394561768,19.388370513916,19.3895015716553,18.7168807983398,18.6503410339355,18.5842666625977,18.5186538696289,18.4535007476807,18.3888053894043,18.3245601654053,18.2607650756836,18.1974105834961,18.1344947814941,18.0720138549805,18.0099601745605,17.9483318328857,17.8871192932129,17.8263721466064,17.8206977844238,17.8253002166748,17.829906463623,17.6667098999023,17.5927963256836,17.5194969177246,17.4468078613281,17.374719619751,17.30322265625,17.2323131561279,17.1619815826416,17.092212677002,17.0230102539062,16.9543628692627,16.8988704681396,16.8444004058838,16.7902793884277,16.7365055084229,16.6830768585205,16.6299858093262,16.5772342681885,16.5248146057129,16.4727249145508,16.4209632873535,16.3695259094238,16.3184108734131,16.2676124572754,16.2171287536621,16.1669597625732,16.1170978546143,16.0675449371338,16.0182933807373,15.9693441390991,15.920693397522,15.8723373413086,15.8242750167847,15.7765026092529,15.7290172576904,15.6818170547485,15.6349000930786,15.5882616043091,15.5419015884399,15.4958171844482,15.450005531311,15.4044647216797,15.3591909408569,15.3141832351685,15.269437789917,15.2249536514282,15.1807279586792,15.136757850647,15.0930414199829,15.0495777130127,15.0063629150391,14.9633960723877,14.9206733703613,14.8781938552856,14.835955619812,14.7939558029175,14.7521944046021,14.7106676101685,14.6693735122681,14.6283111572266,14.587477684021,14.5468711853027,14.5064907073975,14.4663343429565,14.426399230957,14.3866834640503,14.347186088562,14.3079051971436,14.2688426971436,14.2299947738647,14.1913576126099,14.1529293060303,14.1147089004517,14.0766944885254,14.0388851165771,14.0012769699097,13.9638700485229,13.9266633987427,13.8896532058716,13.8528394699097,13.8162212371826,13.7797956466675,13.7435617446899,13.7075176239014,13.6716604232788
18.9180374145508,18.9191150665283,18.9201908111572,18.9212684631348,18.9223461151123,18.9234237670898,18.9245014190674,18.9255790710449,18.9266567230225,18.927734375,18.9288139343262,18.9298915863037,18.9309692382812,18.9320487976074,18.933126449585,18.9342041015625,18.9352836608887,18.9363632202148,18.937442779541,18.9385204315186,18.9396018981934,18.9406795501709,18.9417591094971,18.9428386688232,18.943920135498,18.9449996948242,18.9460792541504,18.9471588134766,18.9482402801514,18.9493198394775,18.9504013061523,18.9514808654785,18.9525623321533,18.9536437988281,18.9547252655029,18.9558048248291,18.9568862915039,18.9579677581787,18.9590492248535,18.9601306915283,18.9612140655518,18.9622955322266,18.9633769989014,18.9644603729248,18.9655418395996,18.966625213623,18.9677066802979,18.9687900543213,18.9698715209961,18.9709548950195,18.972038269043,18.9731216430664,18.9742050170898,18.9752883911133,18.9763717651367,18.9774551391602,18.9785385131836,18.9796237945557,18.9807071685791,18.9817905426025,18.9828758239746,18.983959197998,18.9850444793701,18.9861278533936,18.9872131347656,18.9882984161377,18.9893836975098,18.9904689788818,18.9915542602539,18.992639541626,18.993724822998,18.9948101043701,18.9958972930908,18.9969825744629,18.998067855835,18.9991550445557,19.0002403259277,19.0013275146484,19.0024127960205,19.0034999847412,19.0045871734619,19.0056743621826,19.0067615509033,19.0078468322754,19.0089359283447,19.0100231170654,19.0111103057861,19.0121974945068,19.0132846832275,19.0143737792969,19.0154609680176,19.0165500640869,19.0176372528076,19.018726348877,19.0198135375977,19.020902633667,19.0219917297363,19.0230808258057,19.024169921875,19.0252590179443,19.0263481140137,19.027437210083,19.0285263061523,19.0296173095703,19.0307064056396,19.031795501709,19.032886505127,19.0339756011963,19.0350666046143,19.0361576080322,19.0372467041016,19.0383377075195,19.0394287109375,19.0405197143555,19.0416107177734,19.0427017211914,19.0437927246094,19.0448837280273,19.0459766387939,19.0470676422119,19.0481586456299,19.0492515563965,19.0503425598145,19.0514354705811,19.052526473999,19.0536193847656,19.0547122955322,19.0558032989502,19.0568981170654,19.057991027832,19.0590839385986,19.0601768493652,19.0612697601318,19.0623626708984,19.063455581665,19.0645503997803,19.0656433105469,19.0667381286621,19.0678310394287,19.0689258575439,19.0700206756592,19.0711135864258,19.072208404541,19.0733032226562,19.0743980407715,19.0754928588867,19.076587677002,19.0776824951172,19.0787792205811,19.0798740386963,19.0809688568115,19.0820655822754,19.0831604003906,19.0842571258545,19.0853538513184,19.0864486694336,19.0875453948975,19.0886421203613,19.0897388458252,19.0908336639404,19.0919322967529,19.0930290222168,19.0941257476807,19.0952224731445,19.0963191986084,19.0974178314209,19.0985145568848,19.0996131896973,19.1007099151611,19.1018085479736,19.1029071807861,19.10400390625,19.1051025390625,19.106201171875,19.1072998046875,19.1083984375,19.1094970703125,19.110595703125,19.1116943359375,19.1127948760986,19.1138935089111,19.1149921417236,19.1160926818848,19.1171913146973,19.1182918548584,19.1193923950195,19.120491027832,19.1215915679932,19.1226921081543,19.1237926483154,19.1248931884766,19.1259937286377,19.1270942687988,19.12819480896,19.1292972564697,19.1303977966309,19.1315002441406,19.1326007843018,19.1337013244629,19.1348037719727,19.1359062194824,19.1370086669922,19.1381092071533,19.1392116546631,19.1403141021729,19.1414165496826,19.1425189971924,19.1436214447021,19.1447257995605,19.1458282470703,19.1469306945801,19.1480350494385,19.1491374969482,19.1502418518066,19.1513442993164,19.1524486541748,19.1535530090332,19.154655456543,19.1557598114014,19.1568641662598,19.1579685211182,19.1590728759766,19.160177230835,19.161283493042,19.1623878479004,19.1634922027588,19.1645984649658,19.1657028198242,19.1668090820312,19.1679134368896,19.1690196990967,19.1701259613037,19.1712322235107,19.1723365783691,19.1734428405762,19.1745491027832,19.1756553649902,19.1767635345459,19.1778697967529,19.17897605896,19.180082321167,19.1811904907227,19.1822967529297,19.1834049224854,19.184513092041,19.185619354248,19.1867275238037,18.6504936218262,18.5844173431396,18.5188064575195,18.4536514282227,18.3889560699463,18.3247108459473,18.2609119415283,18.1975574493408,18.1346416473389,18.0721588134766,18.010103225708,17.9484710693359,17.8872566223145,17.836446762085,17.8410587310791,17.8456726074219,17.8502883911133,17.854907989502,17.8595275878906,17.5657501220703,17.49267578125,17.4202079772949,17.3483390808105,17.2770595550537,17.2063636779785,17.1362438201904,17.0666942596436,16.9977016448975,16.9292583465576,16.861364364624,16.7940139770508,16.7366199493408,16.6831893920898,16.6301002502441,16.5773448944092,16.5249252319336,16.4728355407715,16.4210739135742,16.3696346282959,16.3185176849365,16.2677192687988,16.2172355651855,16.167064666748,16.1172046661377,16.0676498413086,16.0183982849121,15.9694480895996,15.9207963943481,15.8724403381348,15.8243770599365,15.7766036987305,15.729118347168,15.6819171905518,15.6349992752075,15.588360786438,15.5419998168945,15.4959144592285,15.4501028060913,15.4045610427856,15.3592872619629,15.3142786026001,15.2695331573486,15.2250480651855,15.1808214187622,15.13685131073,15.0931348800659,15.0496702194214,15.0064554214478,14.9634876251221,14.9207649230957,14.8782863616943,14.8360481262207,14.7940492630005,14.7522869110107,14.7107591629028,14.6694650650024,14.6284017562866,14.5875682830811,14.5469617843628,14.5065803527832,14.466423034668,14.4264869689941,14.3867712020874,14.3472738265991,14.3079919815063,14.2689247131348,14.2300710678101,14.1914281845093,14.1529998779297,14.1147794723511,14.0767650604248,14.0389537811279,14.0013465881348,13.9639387130737,13.9267311096191,13.8897218704224,13.8529081344604,13.8162879943848,13.7798624038696,13.7436285018921,13.7075834274292,13.6717281341553
18.7238998413086,18.7249546051025,18.7260093688965,18.7270641326904,18.728120803833,18.729175567627,18.7302322387695,18.7312870025635,18.7323436737061,18.7333984375,18.7344551086426,18.7355117797852,18.7365684509277,18.7376232147217,18.7386798858643,18.7397365570068,18.7407932281494,18.7418518066406,18.7429084777832,18.7439651489258,18.7450218200684,18.7460803985596,18.7471370697021,18.7481956481934,18.7492523193359,18.7503108978271,18.7513694763184,18.7524261474609,18.7534847259521,18.7545433044434,18.7556018829346,18.7566604614258,18.757719039917,18.7587776184082,18.759838104248,18.7608966827393,18.7619552612305,18.7630138397217,18.7640743255615,18.7651329040527,18.7661933898926,18.7672538757324,18.7683124542236,18.7693729400635,18.7704334259033,18.7714939117432,18.772554397583,18.7736148834229,18.7746753692627,18.7757358551025,18.7767963409424,18.7778568267822,18.7789173126221,18.7799797058105,18.781042098999,18.7821025848389,18.7831630706787,18.7842254638672,18.7852878570557,18.7863502502441,18.787410736084,18.7884731292725,18.7895374298096,18.7905979156494,18.7916603088379,18.7927227020264,18.7937870025635,18.794849395752,18.7959117889404,18.7969760894775,18.798038482666,18.7991027832031,18.8001651763916,18.8012294769287,18.8022937774658,18.8033561706543,18.8044204711914,18.8054847717285,18.8065490722656,18.8076133728027,18.8086776733398,18.809741973877,18.8108081817627,18.8118724822998,18.8129367828369,18.814001083374,18.8150672912598,18.8161334991455,18.8171977996826,18.8182621002197,18.8193302154541,18.8203945159912,18.821460723877,18.8225269317627,18.8235931396484,18.8246593475342,18.8257255554199,18.8267917633057,18.82785987854,18.8289260864258,18.8299922943115,18.8310585021973,18.8321266174316,18.833194732666,18.8342609405518,18.8353290557861,18.8363971710205,18.8374633789062,18.8385314941406,18.839599609375,18.8406677246094,18.8417358398438,18.8428039550781,18.8438720703125,18.8449420928955,18.8460102081299,18.8470783233643,18.8481483459473,18.8492164611816,18.8502864837646,18.851354598999,18.852424621582,18.853494644165,18.854564666748,18.8556346893311,18.8567028045654,18.8577747344971,18.8588447570801,18.8599147796631,18.8609848022461,18.8620548248291,18.8631248474121,18.8641967773438,18.8652667999268,18.8663387298584,18.8674087524414,18.868480682373,18.8695526123047,18.8706245422363,18.8716945648193,18.872766494751,18.8738384246826,18.8749103546143,18.8759822845459,18.8770542144775,18.8781280517578,18.8791999816895,18.8802719116211,18.8813457489014,18.882417678833,18.8834915161133,18.8845634460449,18.8856372833252,18.8867092132568,18.8877849578857,18.8888568878174,18.8899307250977,18.8910045623779,18.8920783996582,18.8931522369385,18.8942260742188,18.8953018188477,18.8963756561279,18.8974514007568,18.8985252380371,18.8995990753174,18.9006748199463,18.9017505645752,18.9028244018555,18.9039001464844,18.9049758911133,18.9060516357422,18.9071273803711,18.908203125,18.9092788696289,18.9103546142578,18.9114303588867,18.9125061035156,18.9135837554932,18.9146595001221,18.915735244751,18.9168128967285,18.9178905487061,18.918966293335,18.9200439453125,18.92112159729,18.9221992492676,18.9232749938965,18.924352645874,18.9254302978516,18.9265098571777,18.9275875091553,18.9286651611328,18.9297428131104,18.9308223724365,18.9319000244141,18.9329795837402,18.9340572357178,18.9351367950439,18.9362163543701,18.9372940063477,18.9383735656738,18.939453125,18.9405326843262,18.9416122436523,18.9426918029785,18.9437713623047,18.9448509216309,18.945930480957,18.9470100402832,18.948091506958,18.9491729736328,18.950252532959,18.9513320922852,18.95241355896,18.9534950256348,18.9545764923096,18.9556560516357,18.9567375183105,18.957820892334,18.9589023590088,18.959981918335,18.9610652923584,18.9621467590332,18.963228225708,18.9643115997314,18.9653930664062,18.9664764404297,18.9675579071045,18.9686412811279,18.9697246551514,18.9708061218262,18.9718894958496,18.972972869873,18.9740562438965,18.9751396179199,18.9762229919434,18.9773063659668,18.9783897399902,18.9794731140137,18.9805583953857,18.9816417694092,18.9827270507812,18.9838104248047,18.9848957061768,18.9859790802002,18.9870643615723,18.6506443023682,18.5845680236816,18.5189571380615,18.4538040161133,18.3891048431396,18.3248596191406,18.2610607147217,18.1977062225342,18.1347885131836,18.0723037719727,18.0102462768555,17.9486103057861,17.8874225616455,17.8592109680176,17.8642120361328,17.8692169189453,17.8742256164551,17.8792362213135,17.8842487335205,17.8892650604248,17.8942852020264,17.8993072509766,17.3936901092529,17.3220386505127,17.2509746551514,17.180492401123,17.1105823516846,17.0412406921387,16.9724578857422,16.9042263031006,16.8365345001221,16.769380569458,16.7027606964111,16.6366672515869,16.5774574279785,16.5250358581543,16.4729461669922,16.4211826324463,16.3697452545166,16.3186264038086,16.2678279876709,16.2173442840576,16.1671714782715,16.1173095703125,16.0677547454834,16.0185031890869,15.9695520401001,15.9208993911743,15.8725423812866,15.8244791030884,15.776704788208,15.7292184829712,15.682017326355,15.6350984573364,15.5884599685669,15.5420980453491,15.4960126876831,15.4502000808716,15.4046583175659,15.3593835830688,15.3143739700317,15.2696285247803,15.2251424789429,15.1809158325195,15.136944770813,15.0932283401489,15.0497627258301,15.0065469741821,14.9635791778564,14.9208564758301,14.8783769607544,14.8361387252808,14.7941398620605,14.7523775100708,14.7108507156372,14.6695566177368,14.628493309021,14.5876588821411,14.5470514297485,14.5066699981689,14.4665126800537,14.4265756607056,14.3868598937988,14.3473615646362,14.3080787658691,14.2690114974976,14.2301568984985,14.1915130615234,14.1530790328979,14.1148519515991,14.0768346786499,14.039023399353,14.0014152526855,13.9640083312988,13.9267997741699,13.8897895812988,13.8529758453369,13.8163557052612,13.7799291610718,13.7436952590942,13.7076501846313,13.6717939376831
18.5337066650391,18.534740447998,18.535774230957,18.5368061065674,18.537841796875,18.538875579834,18.539909362793,18.540943145752,18.5419788360596,18.5430145263672,18.5440483093262,18.5450820922852,18.5461177825928,18.5471534729004,18.548189163208,18.549222946167,18.5502586364746,18.5512943267822,18.5523300170898,18.5533657073975,18.5544013977051,18.5554370880127,18.5564746856689,18.5575103759766,18.5585460662842,18.5595836639404,18.560619354248,18.5616550445557,18.5626926422119,18.5637302398682,18.5647678375244,18.565803527832,18.5668411254883,18.5678787231445,18.5689163208008,18.569953918457,18.5709915161133,18.5720291137695,18.5730667114258,18.574104309082,18.5751438140869,18.5761814117432,18.5772190093994,18.5782585144043,18.5792980194092,18.5803356170654,18.5813751220703,18.5824146270752,18.5834541320801,18.5844917297363,18.5855312347412,18.5865707397461,18.587610244751,18.5886516571045,18.5896911621094,18.5907306671143,18.5917701721191,18.592809677124,18.5938510894775,18.5948905944824,18.5959320068359,18.5969715118408,18.5980129241943,18.5990543365479,18.6000957489014,18.6011352539062,18.6021766662598,18.6032180786133,18.6042594909668,18.6053009033203,18.6063442230225,18.607385635376,18.6084270477295,18.6094703674316,18.6105117797852,18.6115531921387,18.6125965118408,18.6136379241943,18.6146812438965,18.6157245635986,18.6167678833008,18.6178092956543,18.6188526153564,18.6198959350586,18.6209392547607,18.6219825744629,18.623025894165,18.6240692138672,18.625114440918,18.6261577606201,18.6272010803223,18.628246307373,18.6292896270752,18.630334854126,18.6313781738281,18.6324234008789,18.6334686279297,18.6345138549805,18.6355571746826,18.6366024017334,18.6376476287842,18.638692855835,18.6397399902344,18.6407852172852,18.6418304443359,18.6428756713867,18.6439228057861,18.6449680328369,18.6460151672363,18.6470603942871,18.6481075286865,18.6491527557373,18.6501998901367,18.6512470245361,18.6522941589355,18.653341293335,18.6543884277344,18.6554355621338,18.6564826965332,18.6575298309326,18.658576965332,18.6596240997314,18.6606731414795,18.6617202758789,18.662769317627,18.6638164520264,18.6648654937744,18.6659126281738,18.6669616699219,18.6680107116699,18.6690578460693,18.6701068878174,18.6711578369141,18.6722049713135,18.6732540130615,18.6743030548096,18.6753540039062,18.6764030456543,18.6774520874023,18.678503036499,18.6795520782471,18.6806030273438,18.6816520690918,18.6827030181885,18.6837539672852,18.6848049163818,18.6858539581299,18.6869049072266,18.6879558563232,18.6890068054199,18.6900577545166,18.6911087036133,18.6921615600586,18.6932125091553,18.694263458252,18.6953144073486,18.6963672637939,18.6974182128906,18.6984710693359,18.6995220184326,18.7005748748779,18.7016277313232,18.7026805877686,18.7037334442139,18.7047863006592,18.7058391571045,18.7068920135498,18.7079448699951,18.7089977264404,18.7100505828857,18.7111053466797,18.712158203125,18.7132129669189,18.7142658233643,18.7153186798096,18.7163734436035,18.7174282073975,18.7184829711914,18.7195358276367,18.7205905914307,18.7216453552246,18.7227001190186,18.7237548828125,18.7248096466064,18.725866317749,18.726921081543,18.7279758453369,18.7290306091309,18.7300872802734,18.7311420440674,18.73219871521,18.7332534790039,18.7343101501465,18.7353668212891,18.7364234924316,18.7374801635742,18.7385349273682,18.7395935058594,18.7406482696533,18.7417049407959,18.7427635192871,18.7438201904297,18.7448768615723,18.7459354400635,18.7469921112061,18.7480487823486,18.7491073608398,18.7501659393311,18.7512245178223,18.7522811889648,18.7533397674561,18.7543983459473,18.7554569244385,18.7565155029297,18.7575740814209,18.7586326599121,18.7596912384033,18.7607498168945,18.7618103027344,18.7628688812256,18.7639293670654,18.7649879455566,18.7660465240479,18.7671070098877,18.7681674957275,18.7692279815674,18.7702865600586,18.7713470458984,18.7724075317383,18.7734680175781,18.774528503418,18.7755889892578,18.7766513824463,18.7777118682861,18.778772354126,18.7798328399658,18.7808952331543,18.7819576263428,18.7830181121826,18.7840785980225,18.7851409912109,18.7862033843994,18.7872657775879,18.7883281707764,18.7893905639648,18.7904529571533,18.7915153503418,18.7925777435303,18.5847187042236,18.5191078186035,18.4539546966553,18.3892555236816,18.325008392334,18.261209487915,18.1978530883789,18.1349334716797,18.0724468231201,18.0103855133057,17.9487476348877,17.8963947296143,17.9014186859131,17.9064445495605,17.9114742279053,17.9165058135986,17.9215412139893,17.9265785217285,17.9316177368164,17.9366607666016,17.9417057037354,17.9467544555664,18.8170509338379,18.8181171417236,17.2249698638916,17.1546993255615,17.0849990844727,17.0158615112305,16.9472827911377,16.8792552947998,16.8117713928223,16.7448196411133,16.678394317627,16.6124935150146,16.5471134185791,16.4822444915771,16.421293258667,16.3698539733887,16.3187351226807,16.2679347991943,16.2174510955811,16.1672782897949,16.1174163818359,16.0678596496582,16.0186080932617,15.9696559906006,15.9210033416748,15.8726453781128,15.8245811462402,15.7768068313599,15.7293195724487,15.6821174621582,15.6351985931396,15.5885591506958,15.542197227478,15.4961109161377,15.4502973556519,15.4047546386719,15.3594799041748,15.3144702911377,15.2697229385376,15.2252368927002,15.1810092926025,15.137038230896,15.0933208465576,15.0498552322388,15.0066394805908,14.9636707305908,14.9209480285645,14.8784675598145,14.8362283706665,14.7942295074463,14.7524662017822,14.7109394073486,14.6696443557739,14.6285810470581,14.5877475738525,14.5471410751343,14.5067596435547,14.4666013717651,14.426664352417,14.3869476318359,14.3474493026733,14.3081665039062,14.2690982818604,14.2302436828613,14.1915988922119,14.1531639099121,14.1149368286133,14.0769157409668,14.039098739624,14.0014848709106,13.9640769958496,13.9268684387207,13.8898572921753,13.8530435562134,13.8164234161377,13.7799968719482,13.7437610626221,13.7077159881592,13.6718597412109
18.3473377227783,18.3483505249023,18.3493633270264,18.3503761291504,18.3513889312744,18.3524036407471,18.3534183502197,18.3544311523438,18.3554439544678,18.3564586639404,18.3574733734131,18.3584861755371,18.3595008850098,18.3605155944824,18.3615303039551,18.3625431060791,18.3635578155518,18.364574432373,18.3655891418457,18.3666038513184,18.367618560791,18.3686351776123,18.369649887085,18.3706645965576,18.3716793060303,18.3726959228516,18.3737125396729,18.3747272491455,18.3757438659668,18.3767604827881,18.3777770996094,18.378791809082,18.3798084259033,18.3808250427246,18.3818416595459,18.3828601837158,18.3838768005371,18.3848934173584,18.3859100341797,18.386926651001,18.3879451751709,18.3889617919922,18.3899803161621,18.3909969329834,18.3920154571533,18.3930339813232,18.3940525054932,18.3950691223145,18.3960876464844,18.3971061706543,18.3981246948242,18.3991432189941,18.4001617431641,18.401180267334,18.4022006988525,18.4032192230225,18.4042377471924,18.4052581787109,18.4062767028809,18.4072971343994,18.4083156585693,18.4093360900879,18.4103565216064,18.4113750457764,18.4123954772949,18.4134159088135,18.414436340332,18.4154567718506,18.4164772033691,18.4174976348877,18.4185180664062,18.4195404052734,18.420560836792,18.4215812683105,18.4226036071777,18.4236240386963,18.4246444702148,18.425666809082,18.4266891479492,18.4277114868164,18.428731918335,18.4297542572021,18.4307765960693,18.4317989349365,18.4328212738037,18.4338436126709,18.4348659515381,18.4358882904053,18.4369106292725,18.4379348754883,18.4389572143555,18.4399814605713,18.4410037994385,18.4420280456543,18.4430503845215,18.4440746307373,18.4450988769531,18.4461212158203,18.4471454620361,18.448169708252,18.4491939544678,18.4502182006836,18.4512424468994,18.4522666931152,18.4532909393311,18.4543170928955,18.4553413391113,18.4563674926758,18.4573917388916,18.4584178924561,18.4594421386719,18.4604682922363,18.4614925384521,18.4625186920166,18.4635448455811,18.4645709991455,18.4655952453613,18.4666233062744,18.4676494598389,18.4686756134033,18.4697017669678,18.4707279205322,18.4717540740967,18.4727821350098,18.4738082885742,18.4748344421387,18.4758625030518,18.4768905639648,18.4779167175293,18.4789447784424,18.4799728393555,18.4809989929199,18.482027053833,18.4830551147461,18.4840831756592,18.4851112365723,18.4861392974854,18.4871692657471,18.4881973266602,18.4892253875732,18.4902534484863,18.491283416748,18.4923114776611,18.4933414459229,18.4943695068359,18.4953994750977,18.4964294433594,18.4974575042725,18.4984874725342,18.4995174407959,18.5005474090576,18.5015773773193,18.5026073455811,18.5036392211914,18.5046672821045,18.5056991577148,18.5067291259766,18.5077610015869,18.5087909698486,18.5098209381104,18.5108528137207,18.5118846893311,18.5129146575928,18.5139465332031,18.5149784088135,18.5160102844238,18.5170421600342,18.5180740356445,18.5191059112549,18.5201377868652,18.5211696624756,18.5222015380859,18.5232334136963,18.5242671966553,18.5252990722656,18.526330947876,18.527364730835,18.5283985137939,18.5294303894043,18.5304641723633,18.5314979553223,18.5325317382812,18.5335636138916,18.5345973968506,18.5356311798096,18.5366649627686,18.5376987457275,18.5387325286865,18.5397682189941,18.5408020019531,18.5418357849121,18.5428714752197,18.5439052581787,18.5449409484863,18.5459766387939,18.5470104217529,18.5480461120605,18.5490818023682,18.5501174926758,18.5511512756348,18.552188873291,18.5532245635986,18.5542602539062,18.5552959442139,18.5563316345215,18.5573673248291,18.5584049224854,18.559440612793,18.5604782104492,18.5615139007568,18.5625495910645,18.5635871887207,18.564624786377,18.5656623840332,18.5666980743408,18.5677356719971,18.5687732696533,18.5698127746582,18.5708484649658,18.5718860626221,18.572925567627,18.5739631652832,18.5750007629395,18.5760402679443,18.5770778656006,18.5781173706055,18.5791549682617,18.5801944732666,18.5812320709229,18.5822715759277,18.5833110809326,18.5843505859375,18.5853900909424,18.5864295959473,18.5874671936035,18.588508605957,18.5895481109619,18.5905876159668,18.5916271209717,18.5926685333252,18.5937080383301,18.5947494506836,18.5957889556885,18.596830368042,18.5978698730469,18.5989112854004,18.5999526977539,18.6009941101074,18.6020336151123,18.5192565917969,18.4541053771973,18.3894062042236,18.325159072876,18.2613582611084,18.1979999542236,18.1350784301758,18.0725860595703,18.0105247497559,17.9488945007324,17.9387798309326,17.9438285827637,17.9488773345947,17.9539318084717,17.9589862823486,17.9640464782715,17.9691066741943,17.9741706848145,17.9792385101318,17.9843082427979,18.6239261627197,18.6249713897705,18.6260147094727,18.6270580291748,18.6281032562256,18.6291465759277,18.6301918029785,16.9905605316162,16.9221839904785,16.8543567657471,16.7870712280273,16.7203216552734,16.6541004180908,16.5883903503418,16.5231990814209,16.458517074585,16.3943386077881,16.330659866333,16.2680435180664,16.2175579071045,16.1673851013184,16.1175212860107,16.067964553833,16.0187110900879,15.9697599411011,15.921106338501,15.872748374939,15.8246831893921,15.7769079208374,15.7294206619263,15.6822175979614,15.6352977752686,15.5886573791504,15.5422954559326,15.496208190918,15.4503946304321,15.4048519134521,15.3595762252808,15.3145656585693,15.2698183059692,15.2253313064575,15.1811037063599,15.137131690979,15.0934133529663,15.0499477386475,15.0067310333252,14.9637622833252,14.9210386276245,14.8785581588745,14.8363189697266,14.794319152832,14.752555847168,14.7110280990601,14.6697330474854,14.6286687850952,14.5878343582153,14.5472278594971,14.5068464279175,14.4666881561279,14.4267520904541,14.387035369873,14.3475370407104,14.308253288269,14.2691850662231,14.2303295135498,14.1916847229004,14.1532497406006,14.1150217056274,14.0769996643066,14.0391826629639,14.0015678405762,13.9641542434692,13.9269399642944,13.8899259567261,13.8531112670898,13.8164901733398,13.7800636291504,13.7438278198242,13.7077827453613,13.6719255447388
18.164680480957,18.1656723022461,18.1666660308838,18.1676597595215,18.1686515808105,18.1696453094482,18.1706390380859,18.1716327667236,18.1726264953613,18.173620223999,18.1746139526367,18.1756076812744,18.1766014099121,18.1775951385498,18.1785907745361,18.1795845031738,18.1805801391602,18.1815738677979,18.1825695037842,18.1835632324219,18.1845588684082,18.1855545043945,18.1865482330322,18.1875457763672,18.1885395050049,18.1895351409912,18.1905307769775,18.1915264129639,18.1925220489502,18.1935176849365,18.1945152282715,18.1955108642578,18.1965084075928,18.1975040435791,18.1984996795654,18.1994972229004,18.2004928588867,18.2014904022217,18.2024879455566,18.2034854888916,18.2044811248779,18.2054786682129,18.2064762115479,18.2074737548828,18.2084712982178,18.2094688415527,18.2104663848877,18.2114658355713,18.2124633789062,18.2134609222412,18.2144584655762,18.2154579162598,18.2164554595947,18.2174549102783,18.2184543609619,18.2194519042969,18.2204513549805,18.2214508056641,18.2224502563477,18.2234497070312,18.2244491577148,18.2254486083984,18.226448059082,18.2274475097656,18.2284469604492,18.2294464111328,18.2304458618164,18.2314472198486,18.2324466705322,18.2334480285645,18.234447479248,18.2354488372803,18.2364501953125,18.2374496459961,18.2384510040283,18.2394523620605,18.2404537200928,18.241455078125,18.2424545288086,18.2434577941895,18.2444591522217,18.2454605102539,18.2464618682861,18.2474632263184,18.2484664916992,18.2494678497314,18.2504692077637,18.2514724731445,18.2524757385254,18.2534770965576,18.2544803619385,18.2554836273193,18.2564868927002,18.2574882507324,18.2584915161133,18.2594947814941,18.260498046875,18.2615013122559,18.2625045776367,18.2635097503662,18.2645130157471,18.2655162811279,18.2665195465088,18.2675247192383,18.2685298919678,18.2695331573486,18.2705364227295,18.2715435028076,18.2725467681885,18.273551940918,18.2745552062988,18.275562286377,18.2765674591064,18.2775726318359,18.2785758972168,18.2795829772949,18.2805881500244,18.2815933227539,18.2825984954834,18.2836055755615,18.284610748291,18.2856178283691,18.2866230010986,18.2876300811768,18.2886371612549,18.2896423339844,18.2906494140625,18.2916564941406,18.2926635742188,18.2936706542969,18.294677734375,18.2956848144531,18.2966918945312,18.2976989746094,18.2987060546875,18.2997150421143,18.3007221221924,18.3017292022705,18.3027381896973,18.3037452697754,18.3047542572021,18.3057632446289,18.306770324707,18.3077793121338,18.3087882995605,18.3097953796387,18.3108043670654,18.3118152618408,18.3128242492676,18.3138332366943,18.3148422241211,18.3158512115479,18.3168621063232,18.31787109375,18.3188800811768,18.3198909759521,18.3208999633789,18.3219108581543,18.3229198455811,18.3239307403564,18.3249416351318,18.3259525299072,18.326961517334,18.3279724121094,18.3289833068848,18.3299942016602,18.3310070037842,18.3320178985596,18.333028793335,18.3340396881104,18.3350505828857,18.3360633850098,18.3370742797852,18.3380870819092,18.3390979766846,18.3401107788086,18.3411235809326,18.3421363830566,18.343147277832,18.3441600799561,18.3451728820801,18.3461856842041,18.3471984863281,18.3482112884521,18.3492240905762,18.3502368927002,18.3512516021729,18.3522644042969,18.3532772064209,18.3542919158936,18.3553047180176,18.3563194274902,18.3573341369629,18.3583469390869,18.3593616485596,18.3603763580322,18.3613910675049,18.3624038696289,18.3634185791016,18.3644351959229,18.3654499053955,18.3664646148682,18.3674793243408,18.3684940338135,18.3695106506348,18.3705253601074,18.3715400695801,18.3725566864014,18.3735733032227,18.3745880126953,18.3756046295166,18.3766193389893,18.3776378631592,18.3786525726318,18.3796691894531,18.3806858062744,18.3817024230957,18.382719039917,18.3837356567383,18.3847541809082,18.3857707977295,18.3867874145508,18.3878040313721,18.388822555542,18.3898410797119,18.3908576965332,18.3918762207031,18.3928928375244,18.3939113616943,18.3949298858643,18.3959484100342,18.3969669342041,18.397985458374,18.3990039825439,18.4000225067139,18.4010410308838,18.4020595550537,18.4030799865723,18.4040985107422,18.4051170349121,18.4061374664307,18.4071559906006,18.4081764221191,18.4091949462891,18.4102153778076,18.4112358093262,18.4122543334961,18.4132747650146,18.4142951965332,18.4153175354004,18.4163379669189,18.3895568847656,18.3253078460693,18.2615070343018,18.1981449127197,18.1352195739746,18.0727272033691,18.0106639862061,17.97629737854,17.9813671112061,17.9864387512207,17.991512298584,17.9965896606445,18.0016689300537,18.0067520141602,18.0118370056152,18.0169258117676,18.0220184326172,18.4347248077393,18.4357490539551,18.4367713928223,18.4377937316895,18.4388179779053,18.4398403167725,18.4408626556396,18.4418869018555,18.4429111480713,18.4439334869385,18.4449577331543,16.829532623291,16.7624454498291,16.6958904266357,16.629861831665,16.5643520355225,16.4993534088135,16.4348564147949,16.3708629608154,16.3073673248291,16.2443599700928,16.1818389892578,16.1197967529297,16.0680694580078,16.0188159942627,15.9698638916016,15.9212093353271,15.8728504180908,15.8247852325439,15.7770090103149,15.7295207977295,15.6823177337646,15.6353979110718,15.5887565612793,15.5423936843872,15.4963064193726,15.4504919052124,15.4049482345581,15.3596715927124,15.314661026001,15.2699136734009,15.2254257202148,15.1811971664429,15.137225151062,15.0935068130493,15.0500402450562,15.0068225860596,14.9638538360596,14.9211292266846,14.8786487579346,14.8364086151123,14.7944078445435,14.7526445388794,14.7111158370972,14.6698207855225,14.6287565231323,14.5879220962524,14.5473146438599,14.506932258606,14.4667739868164,14.4268369674683,14.3871202468872,14.3476209640503,14.3083391189575,14.2692708969116,14.2304153442383,14.1917705535889,14.1533346176147,14.1151065826416,14.0770845413208,14.0392665863037,14.0016508102417,13.9642372131348,13.9270219802856,13.8900051116943,13.8531847000122,13.8165578842163,13.7801303863525,13.7438945770264,13.7078485488892,13.6719913482666
17.9856224060059,17.9865970611572,17.98756980896,17.9885444641113,17.9895172119141,17.9904918670654,17.9914646148682,17.9924392700195,17.9934139251709,17.9943885803223,17.9953632354736,17.9963359832764,17.9973106384277,17.9982852935791,17.9992618560791,18.0002365112305,18.0012111663818,18.0021858215332,18.0031604766846,18.0041370391846,18.0051116943359,18.0060882568359,18.0070629119873,18.0080394744873,18.0090160369873,18.0099906921387,18.0109672546387,18.0119438171387,18.0129203796387,18.0138969421387,18.01487159729,18.01584815979,18.0168266296387,18.0178031921387,18.0187797546387,18.0197563171387,18.0207328796387,18.0217113494873,18.0226879119873,18.0236663818359,18.0246429443359,18.0256214141846,18.0265998840332,18.0275764465332,18.0285549163818,18.0295333862305,18.0305118560791,18.0314884185791,18.0324687957764,18.033447265625,18.0344257354736,18.0354042053223,18.0363826751709,18.0373611450195,18.0383415222168,18.0393199920654,18.0402984619141,18.0412788391113,18.04225730896,18.0432376861572,18.0442180633545,18.0451965332031,18.0461769104004,18.0471572875977,18.0481376647949,18.0491180419922,18.0500984191895,18.0510787963867,18.052059173584,18.0530395507812,18.0540199279785,18.0550003051758,18.0559825897217,18.0569629669189,18.0579433441162,18.0589256286621,18.0599060058594,18.0608882904053,18.0618705749512,18.0628509521484,18.0638332366943,18.0648155212402,18.0657978057861,18.066780090332,18.0677623748779,18.0687446594238,18.0697269439697,18.0707092285156,18.0716915130615,18.0726737976074,18.073657989502,18.0746402740479,18.0756244659424,18.0766067504883,18.0775890350342,18.0785732269287,18.0795574188232,18.0805416107178,18.0815238952637,18.0825080871582,18.0834922790527,18.0844764709473,18.0854606628418,18.0864448547363,18.0874290466309,18.0884132385254,18.0893974304199,18.0903835296631,18.0913677215576,18.0923538208008,18.0933380126953,18.0943222045898,18.095308303833,18.0962944030762,18.0972785949707,18.0982646942139,18.099250793457,18.1002368927002,18.1012210845947,18.1022071838379,18.1031951904297,18.1041812896729,18.1051654815674,18.1061534881592,18.1071395874023,18.1081256866455,18.1091136932373,18.1100997924805,18.1110877990723,18.1120738983154,18.1130599975586,18.1140480041504,18.1150360107422,18.116024017334,18.1170101165771,18.1179981231689,18.1189861297607,18.1199741363525,18.1209621429443,18.1219501495361,18.1229400634766,18.1239280700684,18.1249160766602,18.125904083252,18.1268939971924,18.1278820037842,18.128870010376,18.1298599243164,18.1308498382568,18.1318378448486,18.1328277587891,18.1338176727295,18.1348075866699,18.1357955932617,18.1367855072021,18.1377754211426,18.138765335083,18.1397552490234,18.1407470703125,18.1417369842529,18.1427268981934,18.1437168121338,18.1447086334229,18.1456985473633,18.1466903686523,18.1476802825928,18.1486721038818,18.1496620178223,18.1506538391113,18.1516456604004,18.1526374816895,18.1536273956299,18.1546211242676,18.1556129455566,18.1566047668457,18.1575965881348,18.1585884094238,18.1595802307129,18.1605739593506,18.1615657806396,18.1625576019287,18.1635513305664,18.1645431518555,18.1655349731445,18.1665306091309,18.1675224304199,18.1685161590576,18.1695079803467,18.170503616333,18.1714973449707,18.1724891662598,18.1734828948975,18.1744766235352,18.1754722595215,18.1764659881592,18.1774597167969,18.1784534454346,18.1794490814209,18.1804428100586,18.1814365386963,18.1824321746826,18.1834278106689,18.1844234466553,18.185417175293,18.1864128112793,18.1874084472656,18.188404083252,18.1893997192383,18.1903953552246,18.1913909912109,18.1923866271973,18.1933822631836,18.1943778991699,18.1953754425049,18.1963710784912,18.1973667144775,18.1983642578125,18.1993598937988,18.2003574371338,18.2013530731201,18.2023506164551,18.20334815979,18.204345703125,18.2053413391113,18.2063388824463,18.2073364257812,18.2083339691162,18.2093315124512,18.2103309631348,18.2113285064697,18.2123260498047,18.2133235931396,18.2143230438232,18.2153205871582,18.2163200378418,18.2173175811768,18.2183170318604,18.2193164825439,18.2203140258789,18.2213134765625,18.2223129272461,18.2233123779297,18.2243118286133,18.2253112792969,18.2263107299805,18.2273101806641,18.2283096313477,18.2293090820312,18.2303104400635,18.2313098907471,18.2323093414307,18.2333106994629,18.2343101501465,18.2353115081787,18.1982879638672,18.1353607177734,18.0728569030762,18.0513095855713,18.0575656890869,18.0638256072998,18.07008934021,18.0763511657715,18.0826110839844,18.0888748168945,18.0951442718506,18.1014194488525,18.1076965332031,18.2493305206299,18.2503337860107,18.251335144043,18.2523384094238,18.2533397674561,18.2543430328369,18.2553443908691,18.25634765625,18.2573509216309,18.2583541870117,18.2593574523926,18.2603607177734,18.2613639831543,18.2623672485352,18.263370513916,16.6715297698975,16.6056938171387,16.5403747558594,16.4755668640137,16.4112663269043,16.3474559783936,16.2841396331787,16.2213115692139,16.1589679718018,16.0971012115479,16.0357055664062,15.9747772216797,15.9213123321533,15.872953414917,15.8248872756958,15.7771110534668,15.729621887207,15.6824178695679,15.6354970932007,15.5888557434082,15.5424928665161,15.4964046478271,15.4505891799927,15.4050455093384,15.3597679138184,15.3147563934326,15.2700080871582,15.2255210876465,15.1812915802002,15.137318611145,15.093599319458,15.0501327514648,15.0069150924683,14.9639444351196,14.9212198257446,14.8787384033203,14.836498260498,14.7944974899292,14.7527332305908,14.7112045288086,14.6699094772339,14.6288442611694,14.5880088806152,14.5474014282227,14.5070180892944,14.4668598175049,14.4269218444824,14.3872051239014,14.3477058410645,14.308422088623,14.2693538665771,14.2304983139038,14.1918535232544,14.1534185409546,14.1151905059814,14.0771684646606,14.0393505096436,14.0017347335815,13.9643201828003,13.9271049499512,13.8900871276855,13.8532657623291,13.8166399002075,13.7802066802979,13.7439651489258,13.7079153060913,13.6720571517944
17.8100624084473,17.8110160827637,17.8119716644287,17.8129253387451,17.8138809204102,17.8148345947266,17.8157901763916,17.8167457580566,17.8177013397217,17.8186550140381,17.8196125030518,17.8205680847168,17.8215236663818,17.8224792480469,17.8234348297119,17.824390411377,17.825345993042,17.826301574707,17.8272590637207,17.8282165527344,17.8291721343994,17.8301277160645,17.8310852050781,17.8320426940918,17.8329982757568,17.8339557647705,17.8349132537842,17.8358707427979,17.8368282318115,17.8377838134766,17.8387432098389,17.8397006988525,17.8406581878662,17.8416156768799,17.8425731658936,17.8435325622559,17.8444900512695,17.8454475402832,17.8464069366455,17.8473644256592,17.8483238220215,17.8492813110352,17.8502407073975,17.8512001037598,17.8521595001221,17.8531169891357,17.854076385498,17.8550357818604,17.8559951782227,17.856954574585,17.8579139709473,17.8588733673096,17.8598346710205,17.8607940673828,17.8617534637451,17.8627147674561,17.8636741638184,17.8646335601807,17.8655948638916,17.8665561676025,17.8675155639648,17.8684768676758,17.8694362640381,17.870397567749,17.87135887146,17.8723201751709,17.8732814788818,17.8742427825928,17.8752040863037,17.8761653900146,17.8771266937256,17.8780899047852,17.8790512084961,17.880012512207,17.8809757232666,17.8819370269775,17.8829002380371,17.883861541748,17.8848247528076,17.8857879638672,17.8867492675781,17.8877124786377,17.8886756896973,17.8896389007568,17.8906021118164,17.891565322876,17.8925285339355,17.8934917449951,17.8944549560547,17.8954181671143,17.8963813781738,17.897346496582,17.8983097076416,17.8992748260498,17.9002380371094,17.9012012481689,17.9021663665771,17.9031295776367,17.9040966033936,17.9050598144531,17.9060249328613,17.9069900512695,17.9079551696777,17.9089183807373,17.9098854064941,17.9108505249023,17.9118156433105,17.9127807617188,17.913745880127,17.9147129058838,17.915678024292,17.9166431427002,17.917610168457,17.9185752868652,17.9195423126221,17.9205074310303,17.9214744567871,17.9224414825439,17.9234085083008,17.924373626709,17.9253425598145,17.9263076782227,17.9272766113281,17.928243637085,17.9292106628418,17.9301776885986,17.9311447143555,17.9321117401123,17.9330806732178,17.9340476989746,17.9350147247314,17.9359836578369,17.9369525909424,17.9379196166992,17.9388885498047,17.9398555755615,17.940824508667,17.9417934417725,17.9427623748779,17.9437313079834,17.9447002410889,17.9456691741943,17.9466381072998,17.9476070404053,17.9485778808594,17.9495449066162,17.9505157470703,17.9514846801758,17.9524555206299,17.9534244537354,17.9543952941895,17.9553642272949,17.956335067749,17.9573059082031,17.9582748413086,17.9592456817627,17.9602165222168,17.9611873626709,17.962158203125,17.9631290435791,17.9640998840332,17.9650726318359,17.96604347229,17.9670143127441,17.9679851531982,17.968957901001,17.9699287414551,17.9708995819092,17.9718723297119,17.9728450775146,17.9738159179688,17.9747886657715,17.9757614135742,17.976734161377,17.9777069091797,17.9786777496338,17.9796504974365,17.9806232452393,17.9815979003906,17.9825706481934,17.9835433959961,17.9845161437988,17.9854888916016,17.9864635467529,17.9874362945557,17.988410949707,17.9893836975098,17.9903564453125,17.9913311004639,17.9923057556152,17.9932804107666,17.994255065918,17.9952278137207,17.9962024688721,17.9971771240234,17.9981517791748,17.9991264343262,18.0001029968262,18.0010776519775,18.0020523071289,18.0030269622803,18.0040035247803,18.0049781799316,18.0059547424316,18.006929397583,18.007905960083,18.0088806152344,18.0098571777344,18.0108318328857,18.0118083953857,18.0127849578857,18.0137615203857,18.0147380828857,18.0157146453857,18.0166912078857,18.0176696777344,18.0186462402344,18.0196228027344,18.0205993652344,18.021577835083,18.022554397583,18.023530960083,18.0245094299316,18.0254878997803,18.0264644622803,18.0274429321289,18.0284214019775,18.0293979644775,18.0303764343262,18.0313549041748,18.0323333740234,18.0333118438721,18.0342903137207,18.0352687835693,18.0362491607666,18.0372276306152,18.0382061004639,18.0391845703125,18.0401649475098,18.0411434173584,18.0421237945557,18.0431022644043,18.0440826416016,18.0450630187988,18.0460433959961,18.0470218658447,18.048002243042,18.0489826202393,18.0499629974365,18.0509433746338,18.0519237518311,18.0529041290283,18.0538864135742,18.0548667907715,18.0558471679688,18.056827545166,18.0578098297119,18.0587902069092,18.0597724914551,18.0607528686523,18.0617351531982,18.0627174377441,18.06369972229,18.0646800994873,18.0656623840332,18.0666446685791,18.067626953125,18.0686092376709,18.0695915222168,18.0705738067627,18.0715579986572,18.0725402832031,18.073522567749,18.0745048522949,18.0754890441895,18.0764713287354,18.0774555206299,18.0784378051758,18.0794219970703,18.0804061889648,18.0813903808594,18.0823726654053,18.0833568572998,18.0843410491943,18.0853252410889,16.5164661407471,16.4518451690674,16.3877296447754,16.3241100311279,16.2609786987305,16.1983299255371,16.1361618041992,16.0744686126709,16.0132465362549,15.9524869918823,15.8921880722046,15.8323431015015,15.7772121429443,15.7297229766846,15.6825180053711,15.6355972290039,15.5889549255371,15.5425910949707,15.4965019226074,15.4506864547729,15.4051418304443,15.3598642349243,15.3148527145386,15.2701034545898,15.2256155014038,15.1813850402832,15.137412071228,15.093692779541,15.0502243041992,15.0070066452026,14.964035987854,14.9213104248047,14.8788290023804,14.8365879058838,14.7945871353149,14.7528219223022,14.71129322052,14.669997215271,14.6289319992065,14.5880966186523,14.5474882125854,14.5071048736572,14.466944694519,14.4270076751709,14.3872900009155,14.3477897644043,14.3085060119629,14.269437789917,14.2305812835693,14.1919364929199,14.1535005569458,14.1152725219727,14.0772504806519,14.0394315719604,14.0018167495728,13.9644021987915,13.9271869659424,13.8901691436768,13.8533477783203,13.8167209625244,13.7802877426147,13.7440452575684,13.7079935073853,13.6721296310425
17.6378955841064,17.6388320922852,17.6397666931152,17.6407032012939,17.6416397094727,17.6425762176514,17.6435127258301,17.6444511413574,17.6453876495361,17.6463241577148,17.6472606658936,17.6481990814209,17.6491355895996,17.650074005127,17.6510105133057,17.651948928833,17.6528854370117,17.6538238525391,17.6547603607178,17.6556987762451,17.6566371917725,17.6575756072998,17.6585140228271,17.6594524383545,17.6603908538818,17.6613292694092,17.6622676849365,17.6632061004639,17.6641464233398,17.6650848388672,17.6660232543945,17.6669616699219,17.6679019927979,17.6688423156738,17.6697807312012,17.6707191467285,17.6716594696045,17.6725997924805,17.6735401153564,17.6744785308838,17.6754188537598,17.6763591766357,17.6772994995117,17.6782398223877,17.6791801452637,17.6801204681396,17.6810607910156,17.6820030212402,17.6829433441162,17.6838836669922,17.6848258972168,17.6857662200928,17.6867084503174,17.6876487731934,17.688591003418,17.6895332336426,17.6904735565186,17.6914157867432,17.6923580169678,17.6933002471924,17.694242477417,17.6951847076416,17.6961250305176,17.6970691680908,17.6980113983154,17.69895362854,17.6998958587646,17.7008380889893,17.7017822265625,17.7027244567871,17.7036666870117,17.704610824585,17.7055549621582,17.7064971923828,17.7074413299561,17.7083835601807,17.7093276977539,17.7102718353271,17.7112159729004,17.7121601104736,17.7131042480469,17.7140483856201,17.7149925231934,17.7159366607666,17.7168807983398,17.7178268432617,17.718770980835,17.7197151184082,17.7206611633301,17.7216053009033,17.7225513458252,17.7234954833984,17.7244415283203,17.7253856658936,17.7263317108154,17.7272758483887,17.7282238006592,17.7291679382324,17.7301139831543,17.7310600280762,17.732006072998,17.7329521179199,17.7338981628418,17.7348461151123,17.7357921600342,17.7367382049561,17.7376842498779,17.7386322021484,17.7395801544189,17.7405261993408,17.7414722442627,17.7424201965332,17.7433681488037,17.7443141937256,17.7452621459961,17.7462100982666,17.7471580505371,17.7481060028076,17.7490539550781,17.7500019073486,17.7509498596191,17.7518978118896,17.7528457641602,17.7537937164307,17.7547435760498,17.7556915283203,17.7566394805908,17.75758934021,17.7585391998291,17.7594871520996,17.7604351043701,17.7613849639893,17.7623348236084,17.7632846832275,17.764232635498,17.7651824951172,17.766134262085,17.7670822143555,17.7680320739746,17.7689819335938,17.7699337005615,17.7708835601807,17.7718334197998,17.7727832794189,17.7737350463867,17.7746849060059,17.7756366729736,17.7765865325928,17.7775382995605,17.7784881591797,17.7794399261475,17.7803897857666,17.781343460083,17.7822933197021,17.7832450866699,17.7841968536377,17.7851486206055,17.7861003875732,17.787052154541,17.7880039215088,17.7889575958252,17.789909362793,17.7908611297607,17.7918128967285,17.7927665710449,17.7937202453613,17.7946720123291,17.7956237792969,17.7965774536133,17.7975311279297,17.7984848022461,17.7994384765625,17.8003902435303,17.8013458251953,17.8022975921631,17.8032512664795,17.8042068481445,17.8051605224609,17.8061141967773,17.8070678710938,17.8080215454102,17.8089752197266,17.8099308013916,17.810884475708,17.811840057373,17.8127956390381,17.8137493133545,17.8147048950195,17.8156585693359,17.816614151001,17.817569732666,17.8185253143311,17.8194808959961,17.8204364776611,17.8213920593262,17.8223476409912,17.8233032226562,17.8242588043213,17.825216293335,17.826171875,17.827127456665,17.8280849456787,17.8290405273438,17.8299961090088,17.8309535980225,17.8319110870361,17.8328685760498,17.8338241577148,17.8347816467285,17.8357391357422,17.8366966247559,17.8376541137695,17.8386116027832,17.8395690917969,17.8405265808105,17.8414840698242,17.8424415588379,17.8433990478516,17.8443584442139,17.8453159332275,17.8462753295898,17.8472328186035,17.8481922149658,17.8491497039795,17.8501091003418,17.8510684967041,17.8520259857178,17.8529853820801,17.8539447784424,17.8549041748047,17.855863571167,17.8568229675293,17.8577823638916,17.8587417602539,17.8597030639648,17.8606624603271,17.8616218566895,17.8625831604004,17.8635425567627,17.864501953125,17.8654632568359,17.8664226531982,17.8673839569092,17.8683452606201,17.8693065643311,17.8702659606934,17.8712272644043,17.8721885681152,17.8731498718262,17.8741111755371,17.875072479248,17.876033782959,17.8769950866699,17.8779582977295,17.8789196014404,17.8798809051514,17.8808422088623,17.8818054199219,17.8827667236328,17.8837299346924,17.884693145752,17.8856544494629,17.8866176605225,17.8875789642334,17.8885440826416,17.8895053863525,17.8904685974121,17.8914318084717,17.8923950195312,17.8933582305908,17.8943214416504,17.89528465271,17.8962497711182,17.8972129821777,17.8981781005859,17.8991413116455,17.9001064300537,17.9010696411133,17.9020347595215,17.9029979705811,17.9039630889893,17.9049282073975,17.905891418457,17.9068565368652,17.9078216552734,17.9087867736816,17.9097518920898,17.910717010498,16.3642597198486,16.3008232116699,16.2378749847412,16.1754131317139,16.1134204864502,16.0519008636475,15.9908485412598,15.9302597045898,15.8701286315918,15.8104496002197,15.7512168884277,15.6924266815186,15.6356964111328,15.589054107666,15.5426893234253,15.496600151062,15.4507837295532,15.4052381515503,15.3599605560303,15.3149480819702,15.2701988220215,15.2257099151611,15.1814794540405,15.137505531311,15.0937852859497,15.0503168106079,15.007098197937,14.9641275405884,14.9214019775391,14.8789196014404,14.8366775512695,14.7946758270264,14.7529106140137,14.7113809585571,14.6700849533081,14.6290197372437,14.5881834030151,14.5475740432739,14.5071907043457,14.4670305252075,14.4270925521851,14.3873739242554,14.3478736877441,14.3085899353027,14.2695207595825,14.2306642532349,14.1920185089111,14.153582572937,14.1153535842896,14.0773315429688,14.0395126342773,14.0018968582153,13.9644823074341,13.927267074585,13.8902502059937,13.8534288406372,13.8168020248413,13.7803678512573,13.7441253662109,13.7080736160278,13.6722097396851
17.4690246582031,17.4699440002441,17.4708614349365,17.4717807769775,17.4726982116699,17.4736175537109,17.474536895752,17.4754543304443,17.4763736724854,17.4772930145264,17.4782123565674,17.4791316986084,17.4800510406494,17.4809703826904,17.4818897247314,17.4828090667725,17.4837303161621,17.4846496582031,17.4855690002441,17.4864902496338,17.4874095916748,17.4883308410645,17.4892501831055,17.4901714324951,17.4910907745361,17.4920120239258,17.4929332733154,17.4938545227051,17.4947738647461,17.4956951141357,17.4966163635254,17.497537612915,17.4984588623047,17.4993801116943,17.5003032684326,17.5012245178223,17.5021457672119,17.5030670166016,17.5039901733398,17.5049114227295,17.5058326721191,17.5067558288574,17.5076770782471,17.5086002349854,17.5095233917236,17.5104465484619,17.5113677978516,17.5122909545898,17.5132141113281,17.5141372680664,17.5150604248047,17.515983581543,17.5169067382812,17.5178298950195,17.5187530517578,17.5196762084961,17.520601272583,17.5215244293213,17.5224475860596,17.5233726501465,17.5242958068848,17.5252208709717,17.52614402771,17.5270690917969,17.5279941558838,17.5289173126221,17.529842376709,17.5307674407959,17.5316925048828,17.5326175689697,17.5335426330566,17.5344676971436,17.5353927612305,17.5363178253174,17.5372428894043,17.5381679534912,17.5390949249268,17.5400199890137,17.5409469604492,17.5418720245361,17.542797088623,17.5437240600586,17.5446510314941,17.5455760955811,17.5465030670166,17.5474300384521,17.5483570098877,17.5492820739746,17.5502090454102,17.5511360168457,17.5520629882812,17.5529899597168,17.5539169311523,17.5548439025879,17.5557727813721,17.5566997528076,17.5576267242432,17.5585556030273,17.5594825744629,17.5604095458984,17.5613384246826,17.5622673034668,17.5631942749023,17.5641231536865,17.5650501251221,17.5659790039062,17.5669078826904,17.5678367614746,17.5687656402588,17.569694519043,17.5706233978271,17.5715522766113,17.5724811553955,17.5734119415283,17.5743408203125,17.5752696990967,17.5761985778809,17.5771293640137,17.5780582427979,17.5789890289307,17.5799179077148,17.5808486938477,17.5817775726318,17.5827083587646,17.5836391448975,17.5845699310303,17.5855007171631,17.5864315032959,17.5873603820801,17.5882911682129,17.5892238616943,17.5901546478271,17.59108543396,17.5920162200928,17.5929470062256,17.593879699707,17.5948104858398,17.5957412719727,17.5966739654541,17.5976047515869,17.5985374450684,17.5994701385498,17.6004009246826,17.6013336181641,17.6022663116455,17.603199005127,17.6041316986084,17.6050643920898,17.6059970855713,17.6069297790527,17.6078624725342,17.6087951660156,17.6097278594971,17.6106605529785,17.6115951538086,17.61252784729,17.6134605407715,17.6143951416016,17.615327835083,17.6162624359131,17.6171951293945,17.6181297302246,17.6190643310547,17.6199989318848,17.6209316253662,17.6218662261963,17.622802734375,17.6237354278564,17.6246700286865,17.6256065368652,17.6265411376953,17.6274757385254,17.6284103393555,17.6293449401855,17.6302814483643,17.6312160491943,17.632152557373,17.6330871582031,17.6340236663818,17.6349582672119,17.6358947753906,17.6368293762207,17.6377658843994,17.6387023925781,17.6396389007568,17.6405754089355,17.6415119171143,17.642448425293,17.6433849334717,17.6443214416504,17.6452579498291,17.6461963653564,17.6471328735352,17.6480693817139,17.6490077972412,17.6499443054199,17.6508827209473,17.651819229126,17.6527576446533,17.653694152832,17.6546325683594,17.6555709838867,17.6565093994141,17.6574478149414,17.6583843231201,17.6593227386475,17.6602611541748,17.6612014770508,17.6621398925781,17.6630783081055,17.6640167236328,17.6649551391602,17.6658954620361,17.6668338775635,17.6677722930908,17.6687126159668,17.6696510314941,17.6705913543701,17.6715316772461,17.6724700927734,17.6734104156494,17.6743507385254,17.6752910614014,17.6762313842773,17.6771717071533,17.6781101226807,17.6790523529053,17.6799926757812,17.6809329986572,17.6818733215332,17.6828136444092,17.6837558746338,17.6846961975098,17.6856384277344,17.6865787506104,17.687520980835,17.6884613037109,17.6894035339355,17.6903457641602,17.6912860870361,17.6922283172607,17.6931705474854,17.69411277771,17.6950550079346,17.6959972381592,17.6969394683838,17.6978816986084,17.698823928833,17.6997661590576,17.7007102966309,17.7016525268555,17.7025947570801,17.7035388946533,17.7044811248779,17.7054252624512,17.7063674926758,17.707311630249,17.7082557678223,17.7091979980469,17.7101421356201,17.7110862731934,17.7120304107666,17.7129745483398,17.7139186859131,17.7148628234863,17.7158069610596,17.7167530059814,17.7176971435547,17.7186412811279,17.7195854187012,17.7205295562744,17.7214756011963,17.7224197387695,17.7233657836914,17.7243099212646,17.7252559661865,17.7262020111084,17.7271480560303,17.7280921936035,17.7290382385254,17.7299842834473,17.7309303283691,17.731876373291,17.7328224182129,17.7337684631348,17.7347164154053,17.7356624603271,17.736608505249,17.7375545501709,17.7385025024414,17.7394485473633,16.2148323059082,16.1525459289551,16.0907382965088,16.0293941497803,15.9685144424438,15.9080934524536,15.8481292724609,15.7886152267456,15.729546546936,15.6709175109863,15.6127243041992,15.5549621582031,15.4976272583008,15.4508819580078,15.4053354263306,15.3600568771362,15.3150434494019,15.2702932357788,15.2258043289185,15.1815729141235,15.137598991394,15.0938777923584,15.0504093170166,15.0071897506714,14.9642190933228,14.9214925765991,14.8790092468262,14.8367681503296,14.7947654724121,14.7530002593994,14.7114696502686,14.6701726913452,14.6291065216064,14.5882701873779,14.5476608276367,14.5072765350342,14.467116355896,14.4271774291992,14.3874588012695,14.3479585647583,14.3086738586426,14.2696046829224,14.2307472229004,14.1921014785767,14.1536645889282,14.1154356002808,14.0774126052856,14.0395936965942,14.0019779205322,13.9645624160767,13.9273462295532,13.8903284072876,13.8535070419312,13.8168802261353,13.7804460525513,13.7442045211792,13.7081527709961,13.6722888946533
17.3033580780029,17.3042583465576,17.3051586151123,17.3060607910156,17.3069629669189,17.3078632354736,17.308765411377,17.3096675872803,17.310567855835,17.3114700317383,17.3123722076416,17.3132743835449,17.3141765594482,17.3150787353516,17.3159790039062,17.3168830871582,17.3177852630615,17.3186874389648,17.3195896148682,17.3204917907715,17.3213958740234,17.3222980499268,17.3232002258301,17.324104309082,17.325008392334,17.3259105682373,17.3268127441406,17.3277168273926,17.3286209106445,17.3295249938965,17.3304271697998,17.3313312530518,17.3322353363037,17.3331394195557,17.3340435028076,17.3349494934082,17.3358535766602,17.3367576599121,17.3376617431641,17.338565826416,17.3394718170166,17.3403759002686,17.3412799835205,17.3421859741211,17.343090057373,17.3439960479736,17.3449001312256,17.3458061218262,17.3467121124268,17.3476161956787,17.3485221862793,17.3494281768799,17.3503341674805,17.3512401580811,17.3521461486816,17.3530521392822,17.3539581298828,17.3548641204834,17.355770111084,17.3566780090332,17.3575839996338,17.3584899902344,17.359395980835,17.3603038787842,17.3612117767334,17.362117767334,17.3630256652832,17.3639316558838,17.364839553833,17.3657474517822,17.3666534423828,17.367561340332,17.3684692382812,17.3693771362305,17.3702850341797,17.3711948394775,17.3721027374268,17.373010635376,17.3739185333252,17.3748264312744,17.3757343292236,17.3766441345215,17.3775520324707,17.3784618377686,17.3793697357178,17.3802795410156,17.3811874389648,17.3820972442627,17.3830051422119,17.3839149475098,17.3848247528076,17.3857345581055,17.3866443634033,17.3875541687012,17.388463973999,17.3893737792969,17.3902835845947,17.3911933898926,17.3921031951904,17.3930149078369,17.3939247131348,17.3948345184326,17.3957443237305,17.396656036377,17.3975658416748,17.3984775543213,17.3993873596191,17.4002990722656,17.4012107849121,17.4021224975586,17.4030323028564,17.4039440155029,17.4048557281494,17.4057674407959,17.4066791534424,17.4075908660889,17.4085025787354,17.4094142913818,17.4103260040283,17.4112396240234,17.4121513366699,17.4130630493164,17.4139766693115,17.414888381958,17.4158000946045,17.4167137145996,17.4176273345947,17.4185390472412,17.4194526672363,17.4203662872314,17.4212799072266,17.4221935272217,17.4231052398682,17.4240188598633,17.4249324798584,17.4258460998535,17.4267597198486,17.4276733398438,17.4285888671875,17.4295024871826,17.4304161071777,17.4313316345215,17.4322452545166,17.4331607818604,17.4340744018555,17.4349880218506,17.4359035491943,17.4368190765381,17.4377326965332,17.438648223877,17.4395637512207,17.4404792785645,17.4413948059082,17.442310333252,17.4432258605957,17.4441413879395,17.4450569152832,17.445972442627,17.4468879699707,17.4478034973145,17.4487190246582,17.4496364593506,17.4505519866943,17.4514694213867,17.4523849487305,17.4533023834229,17.4542179107666,17.455135345459,17.4560527801514,17.4569683074951,17.4578857421875,17.4588031768799,17.4597206115723,17.4606380462646,17.461555480957,17.4624729156494,17.4633903503418,17.4643077850342,17.4652271270752,17.4661445617676,17.46706199646,17.4679794311523,17.4688987731934,17.4698181152344,17.4707355499268,17.4716529846191,17.4725723266602,17.4734916687012,17.4744110107422,17.4753284454346,17.4762477874756,17.4771671295166,17.4780864715576,17.4790058135986,17.4799251556396,17.4808444976807,17.4817638397217,17.4826831817627,17.4836044311523,17.4845237731934,17.4854431152344,17.486364364624,17.487283706665,17.4882049560547,17.4891242980957,17.4900455474854,17.4909648895264,17.491886138916,17.4928073883057,17.4937267303467,17.4946479797363,17.495569229126,17.4964904785156,17.4974117279053,17.4983329772949,17.4992542266846,17.5001754760742,17.5010967254639,17.5020198822021,17.5029411315918,17.5038623809814,17.5047855377197,17.5057067871094,17.5066299438477,17.5075511932373,17.5084743499756,17.5093955993652,17.5103187561035,17.5112419128418,17.5121631622314,17.5130863189697,17.514009475708,17.5149326324463,17.5158557891846,17.5167789459229,17.5177040100098,17.518627166748,17.5195503234863,17.5204734802246,17.5213985443115,17.5223217010498,17.5232448577881,17.5241680145264,17.5250930786133,17.5260181427002,17.5269412994385,17.5278663635254,17.5287914276123,17.5297164916992,17.5306396484375,17.5315647125244,17.5324897766113,17.5334148406982,17.5343399047852,17.5352649688721,17.5361919403076,17.5371170043945,17.5380420684814,17.5389671325684,17.5398921966553,17.5408191680908,17.5417442321777,17.5426692962646,17.5435962677002,17.5445232391357,17.5454502105713,17.5463752746582,17.5473022460938,17.5482292175293,17.5491561889648,17.5500812530518,17.5510082244873,17.5519351959229,17.5528621673584,17.5537910461426,17.5547180175781,17.5556449890137,17.5565719604492,17.5574989318848,17.5584278106689,17.5593547821045,17.5602836608887,17.5612106323242,17.5621395111084,17.5630683898926,17.5639953613281,17.5649223327637,17.5658531188965,17.566780090332,17.5677089691162,17.5686378479004,17.5695667266846,17.5704956054688,17.5714244842529,16.0681095123291,16.0069446563721,15.9462413787842,15.8859901428223,15.8261919021606,15.7668418884277,15.707935333252,15.6494674682617,15.5914335250854,15.5338277816772,15.4766492843628,15.4198913574219,15.3635482788086,15.3151388168335,15.2703886032104,15.2258987426758,15.1816673278809,15.1376924514771,15.0939712524414,15.0505018234253,15.0072822570801,14.9643096923828,14.9215831756592,14.8790998458862,14.8368577957153,14.7948541641235,14.7530889511108,14.7115573883057,14.6702604293823,14.6291942596436,14.5883569717407,14.5477466583252,14.5073623657227,14.4672021865845,14.4272632598877,14.3875436782837,14.3480424880981,14.3087577819824,14.2696876525879,14.2308301925659,14.1921834945679,14.1537466049194,14.1155166625977,14.0774936676025,14.0396747589111,14.0020580291748,13.9646425247192,13.9274263381958,13.8904075622559,13.8535852432251,13.8169584274292,13.7805242538452,13.7442817687988,13.7082290649414,13.6723651885986
