17.5696048736572,17.5702705383301,17.5709362030029,17.5716018676758,17.5722694396973,17.5729351043701,17.573600769043,17.5742683410645,17.5749340057373,17.5755996704102,17.5762672424316,17.5769329071045,17.5775985717773,17.5782661437988,17.5789318084717,17.5795993804932,17.580265045166,17.5809326171875,17.581600189209,17.5822658538818,17.5829334259033,17.5836009979248,17.5842666625977,17.5849342346191,17.5856018066406,17.5862693786621,17.586935043335,17.5876026153564,17.5882701873779,17.5889377593994,17.5896053314209,17.5902729034424,17.5909404754639,17.5916080474854,17.5922756195068,17.5929431915283,17.5936107635498,17.5942783355713,17.5949459075928,17.5956134796143,17.5962810516357,17.5969505310059,17.5976181030273,17.5982856750488,17.5989551544189,17.5996227264404,17.6002902984619,17.600959777832,17.6016273498535,17.602294921875,17.6029644012451,17.6036319732666,17.6043014526367,17.6049690246582,17.6056385040283,17.6063060760498,17.6069755554199,17.60764503479,17.6083126068115,17.6089820861816,17.6096515655518,17.6103191375732,17.6109886169434,17.6116580963135,17.6123275756836,17.6129970550537,17.6136665344238,17.6143360137939,17.6150054931641,17.6156730651855,17.6163425445557,17.6170120239258,17.6176815032959,17.6183528900146,17.6190223693848,17.6196918487549,17.620361328125,17.6210308074951,17.6217002868652,17.622371673584,17.6230411529541,17.6237106323242,17.6243801116943,17.6250514984131,17.6257209777832,17.6263904571533,17.6270618438721,17.6277313232422,17.6284027099609,17.6290721893311,17.6297435760498,17.6304130554199,17.6310844421387,17.6317539215088,17.6324253082275,17.6330966949463,17.6337661743164,17.6344375610352,17.6351089477539,17.635778427124,17.6364498138428,17.6371212005615,17.6377925872803,17.638463973999,17.6391353607178,17.6398067474365,17.6404762268066,17.641149520874,17.6418190002441,17.6424903869629,17.6431636810303,17.643835067749,17.6445064544678,17.6451778411865,17.6458492279053,17.646520614624,17.6471939086914,17.6478652954102,17.6485366821289,17.6492080688477,17.649881362915,17.6505527496338,17.6512241363525,17.6518974304199,17.6525688171387,17.6532421112061,17.6539134979248,17.6545867919922,17.6552581787109,17.6559314727783,17.6566028594971,17.6572761535645,17.6579475402832,17.6586208343506,17.659294128418,17.6599674224854,17.6606388092041,17.6613121032715,17.6619853973389,17.6626586914062,17.6633319854736,17.664005279541,17.6646766662598,17.6653499603271,17.6660232543945,17.6666965484619,17.6673698425293,17.6680431365967,17.6687164306641,17.6693897247314,17.6700649261475,17.6707382202148,17.6714115142822,17.6720848083496,17.672758102417,17.673433303833,17.6741065979004,17.6747798919678,17.6754550933838,17.6761283874512,17.6768016815186,17.6774768829346,17.678150177002,17.678825378418,17.6794986724854,17.6801738739014,17.6808471679688,17.6815223693848,17.6821975708008,17.6828708648682,17.6835460662842,17.6842193603516,17.6848945617676,17.6855697631836,17.6862449645996,17.686918258667,17.687593460083,17.688268661499,17.688943862915,17.6896190643311,17.6902942657471,17.6909694671631,17.6916446685791,17.6923198699951,17.6929950714111,17.6936702728271,17.6943454742432,17.6950206756592,17.6956977844238,17.6963710784912,17.6970481872559,17.6977233886719,17.6983985900879,17.6990737915039,17.6997509002686,17.7004261016846,17.7011013031006,17.7017784118652,17.7024536132812,17.7031307220459,17.7038059234619,17.7044830322266,17.7051582336426,17.7058353424072,17.7065105438232,17.7071876525879,17.7078647613525,17.7085399627686,17.7092170715332,17.7098941802979,17.7105712890625,17.7112464904785,17.7119235992432,17.7126007080078,17.7132778167725,17.7139549255371,17.7146320343018,17.7153072357178,17.7159843444824,17.7166614532471,17.7173404693604,17.718017578125,17.7186946868896,17.7193717956543,17.7200489044189,17.7207260131836,17.7214031219482,17.7220821380615,17.7227592468262,17.7234363555908,17.7241134643555,17.7247924804688,17.7254695892334,17.726146697998,17.7268257141113,17.727502822876,17.7281818389893,17.7288589477539,17.7295379638672,17.7302150726318,17.7308940887451,17.7315711975098,17.732250213623,17.7329273223877,17.733606338501,17.7342853546143,17.7349624633789,17.7356414794922,17.7363204956055,17.7369995117188,17.737678527832,17.7383556365967,17.73903465271,17.7397136688232,17.7403926849365,17.7410717010498,17.7417507171631,17.7424297332764,17.7431087493896,17.7437877655029,17.7444686889648,17.7451477050781,17.7458267211914,17.7465057373047,17.747184753418,17.7478637695312,17.7485446929932,17.7492237091064,17.7499027252197,17.7505836486816,17.7512626647949,17.7519416809082,17.7526226043701,0,0,0,0,0,0,0,0,0,0,0,0,0,0,0,0,0,0,0,0,0,0,0,0,0,0,0,0,0,0,0,0,0,0,0,0,0,0,0,0,0,0,0,0,0,0,0,0,0,0,0,0,0,0,0,0,0,0,0,0,0,0,0,0,0,0,0,0,0,0,0,0,0,0,0,0,0,0,0,0,0,0,0,0,0,0,0,0,0,0,0,0,0,0,0,0,0,0,0,0,0,0,0,0,0,0,0,0
17.4009037017822,17.4015560150146,17.4022102355957,17.4028625488281,17.4035167694092,17.4041709899902,17.4048233032227,17.4054775238037,17.4061298370361,17.4067840576172,17.4074382781982,17.4080924987793,17.4087448120117,17.4093990325928,17.4100532531738,17.4107074737549,17.4113616943359,17.412015914917,17.4126682281494,17.4133224487305,17.4139766693115,17.4146308898926,17.4152851104736,17.4159412384033,17.4165954589844,17.4172496795654,17.4179039001465,17.4185581207275,17.4192123413086,17.4198665618896,17.4205207824707,17.4211769104004,17.4218311309814,17.4224853515625,17.4231414794922,17.4237957000732,17.4244499206543,17.425106048584,17.425760269165,17.4264163970947,17.4270706176758,17.4277267456055,17.4283809661865,17.4290370941162,17.4296913146973,17.430347442627,17.4310035705566,17.4316577911377,17.4323139190674,17.4329700469971,17.4336242675781,17.4342803955078,17.4349365234375,17.4355926513672,17.4362468719482,17.4369029998779,17.4375591278076,17.4382152557373,17.438871383667,17.4395275115967,17.4401836395264,17.4408397674561,17.4414958953857,17.4421520233154,17.4428081512451,17.4434661865234,17.4441223144531,17.4447784423828,17.4454345703125,17.4460906982422,17.4467487335205,17.4474048614502,17.4480609893799,17.4487190246582,17.4493751525879,17.4500312805176,17.4506893157959,17.4513454437256,17.4520034790039,17.4526596069336,17.4533157348633,17.4539737701416,17.4546318054199,17.4552879333496,17.4559459686279,17.4566040039062,17.4572601318359,17.4579181671143,17.4585742950439,17.4592323303223,17.4598903656006,17.4605484008789,17.4612064361572,17.4618644714355,17.4625225067139,17.4631786346436,17.4638366699219,17.4644947052002,17.4651527404785,17.4658107757568,17.4664688110352,17.4671268463135,17.4677848815918,17.4684448242188,17.4691028594971,17.4697608947754,17.4704189300537,17.471076965332,17.4717350006104,17.4723949432373,17.4730529785156,17.4737110137939,17.4743709564209,17.4750289916992,17.4756889343262,17.4763469696045,17.4770050048828,17.4776649475098,17.4783248901367,17.478982925415,17.479642868042,17.4803009033203,17.4809608459473,17.4816188812256,17.4822788238525,17.4829387664795,17.4835968017578,17.4842567443848,17.4849166870117,17.4855766296387,17.486234664917,17.4868946075439,17.4875545501709,17.4882144927979,17.4888744354248,17.4895343780518,17.4901943206787,17.4908542633057,17.4915142059326,17.4921741485596,17.4928340911865,17.4934940338135,17.4941539764404,17.494815826416,17.495475769043,17.4961357116699,17.4967956542969,17.4974555969238,17.4981174468994,17.4987773895264,17.4994373321533,17.5000991821289,17.5007591247559,17.5014209747314,17.5020809173584,17.5027408599854,17.5034027099609,17.5040626525879,17.5047245025635,17.5053844451904,17.506046295166,17.5067081451416,17.5073680877686,17.5080299377441,17.5086917877197,17.5093517303467,17.5100135803223,17.5106754302979,17.5113372802734,17.511999130249,17.512659072876,17.5133228302002,17.5139827728271,17.5146446228027,17.5153064727783,17.5159683227539,17.5166301727295,17.5172920227051,17.5179538726807,17.5186176300049,17.5192794799805,17.5199413299561,17.5206031799316,17.5212650299072,17.5219268798828,17.522590637207,17.5232524871826,17.5239143371582,17.5245761871338,17.525239944458,17.5259017944336,17.5265655517578,17.5272274017334,17.5278911590576,17.5285530090332,17.5292167663574,17.529878616333,17.5305423736572,17.5312042236328,17.531867980957,17.5325317382812,17.5331935882568,17.5338573455811,17.5345211029053,17.5351848602295,17.5358467102051,17.5365104675293,17.5371742248535,17.5378379821777,17.5384998321533,17.5391635894775,17.5398273468018,17.540491104126,17.5411548614502,17.5418186187744,17.5424842834473,17.5431461334229,17.5438117980957,17.5444755554199,17.5451393127441,17.5458030700684,17.5464687347412,17.5471324920654,17.5477962493896,17.5484600067139,17.5491237640381,17.5497894287109,17.5504531860352,17.5511169433594,17.5517826080322,17.5524463653564,17.5531120300293,17.5537757873535,17.5544414520264,17.5551052093506,17.5557708740234,17.5564365386963,17.5571002960205,17.5577659606934,17.5584297180176,17.5590953826904,17.5597610473633,17.5604267120361,17.561092376709,17.5617561340332,17.5624217987061,17.5630874633789,17.5637531280518,17.5644187927246,17.5650844573975,17.5657501220703,17.5664157867432,17.567081451416,17.5677471160889,17.5684127807617,17.5690784454346,17.5697441101074,17.5704097747803,17.5710754394531,17.5717430114746,17.5724086761475,17.5730743408203,17.5737400054932,17.5744075775146,17.5750732421875,17.575740814209,17.5764064788818,17.5770721435547,17.5777397155762,17.578405380249,17.5790729522705,17.5797386169434,17.5804061889648,17.5810718536377,17.5817394256592,17.5824069976807,17.5830726623535,17.583740234375,0,0,0,0,0,0,0,0,0,0,0,0,0,0,0,0,0,0,0,0,0,0,0,0,0,0,0,0,0,0,0,0,0,0,0,0,0,0,0,0,0,0,0,0,0,0,0,0,0,0,0,0,0,0,0,0,0,0,0,0,0,0,0,0,0,0,0,0,0,0,0,0,0,0,0,0,0,0,0,0,0,0,0,0,0,0,0,0,0,0,0,0,0,0,0,0,0,0,0,0,0,0,0
17.2354106903076,17.2360515594482,17.2366924285889,17.2373332977295,17.2379760742188,17.2386169433594,17.2392578125,17.2398986816406,17.2405395507812,17.2411804199219,17.2418231964111,17.2424640655518,17.2431049346924,17.243745803833,17.2443885803223,17.2450294494629,17.2456703186035,17.2463130950928,17.2469539642334,17.2475967407227,17.2482376098633,17.2488784790039,17.2495212554932,17.2501640319824,17.250804901123,17.2514476776123,17.2520885467529,17.2527313232422,17.2533740997314,17.2540168762207,17.2546577453613,17.2553005218506,17.2559432983398,17.2565841674805,17.2572269439697,17.257869720459,17.2585124969482,17.2591552734375,17.2597980499268,17.260440826416,17.2610836029053,17.2617263793945,17.2623691558838,17.263011932373,17.2636547088623,17.2642974853516,17.2649402618408,17.2655830383301,17.2662258148193,17.2668685913086,17.2675132751465,17.2681560516357,17.268798828125,17.2694416046143,17.2700862884521,17.2707290649414,17.2713737487793,17.2720165252686,17.2726593017578,17.2733039855957,17.273946762085,17.2745914459229,17.2752342224121,17.27587890625,17.2765216827393,17.2771663665771,17.277811050415,17.2784538269043,17.2790985107422,17.2797431945801,17.2803859710693,17.2810306549072,17.2816753387451,17.282320022583,17.2829647064209,17.2836074829102,17.284252166748,17.2848968505859,17.2855415344238,17.2861862182617,17.2868309020996,17.2874755859375,17.2881202697754,17.2887649536133,17.2894096374512,17.2900543212891,17.290699005127,17.2913455963135,17.2919902801514,17.2926349639893,17.2932796478271,17.293924331665,17.2945709228516,17.2952156066895,17.2958602905273,17.2965068817139,17.2971515655518,17.2977962493896,17.2984428405762,17.2990875244141,17.2997341156006,17.3003787994385,17.301025390625,17.3016719818115,17.3023166656494,17.3029632568359,17.3036079406738,17.3042545318604,17.3048992156982,17.3055458068848,17.3061923980713,17.3068389892578,17.3074855804443,17.3081302642822,17.3087768554688,17.3094234466553,17.3100700378418,17.3107166290283,17.3113632202148,17.3120098114014,17.3126564025879,17.3133029937744,17.3139495849609,17.3145961761475,17.315242767334,17.3158893585205,17.316535949707,17.3171825408936,17.3178291320801,17.3184776306152,17.3191242218018,17.3197708129883,17.3204174041748,17.32106590271,17.3217124938965,17.322359085083,17.3230075836182,17.3236541748047,17.3243026733398,17.3249492645264,17.3255977630615,17.326244354248,17.3268928527832,17.3275394439697,17.3281879425049,17.3288345336914,17.3294830322266,17.3301315307617,17.3307800292969,17.3314266204834,17.3320751190186,17.3327236175537,17.3333721160889,17.3340187072754,17.3346672058105,17.3353157043457,17.3359642028809,17.336612701416,17.3372611999512,17.3379096984863,17.3385581970215,17.3392066955566,17.3398551940918,17.340503692627,17.3411521911621,17.3418006896973,17.3424491882324,17.3430995941162,17.3437480926514,17.3443965911865,17.3450450897217,17.3456954956055,17.3463439941406,17.3469924926758,17.3476428985596,17.3482913970947,17.3489398956299,17.3495903015137,17.3502388000488,17.3508892059326,17.3515377044678,17.3521881103516,17.3528366088867,17.3534870147705,17.3541374206543,17.3547859191895,17.3554363250732,17.356086730957,17.3567352294922,17.357385635376,17.3580360412598,17.3586845397949,17.3593349456787,17.3599853515625,17.3606357574463,17.3612861633301,17.3619365692139,17.3625869750977,17.3632373809814,17.3638877868652,17.364538192749,17.3651885986328,17.3658390045166,17.3664894104004,17.3671398162842,17.367790222168,17.3684406280518,17.3690910339355,17.369743347168,17.3703937530518,17.3710441589355,17.371696472168,17.3723468780518,17.3729972839355,17.373649597168,17.3743000030518,17.3749523162842,17.375602722168,17.3762531280518,17.3769054412842,17.3775577545166,17.3782081604004,17.3788604736328,17.3795108795166,17.380163192749,17.3808135986328,17.3814659118652,17.3821182250977,17.3827705383301,17.3834209442139,17.3840732574463,17.3847255706787,17.3853778839111,17.3860301971436,17.386682510376,17.3873348236084,17.3879852294922,17.3886375427246,17.3892917633057,17.3899440765381,17.3905944824219,17.3912487030029,17.3919010162354,17.3925533294678,17.3932056427002,17.3938579559326,17.394510269165,17.3951625823975,17.3958168029785,17.3964691162109,17.3971214294434,17.3977756500244,17.3984279632568,17.3990821838379,17.3997344970703,17.4003868103027,17.4010410308838,17.4016933441162,17.4023475646973,17.4030017852783,17.4036540985107,17.4043083190918,17.4049606323242,17.4056148529053,17.4062671661377,17.4069213867188,17.4075756072998,17.4082279205322,17.4088821411133,17.4095363616943,17.4101905822754,17.4108448028564,17.4114971160889,17.4121532440186,17.4128074645996,17.413459777832,17.4141139984131,17.4147682189941,17.4154224395752,17.4160766601562,17.4167327880859,17.417387008667,17.418041229248,0,0,0,0,0,0,0,0,0,0,0,0,0,0,0,0,0,0,0,0,0,0,0,0,0,0,0,0,0,0,0,0,0,0,0,0,0,0,0,0,0,0,0,0,0,0,0,0,0,0,0,0,0,0,0,0,0,0,0,0,0,0,0,0,0,0,0,0,0,0,0,0,0,0,0,0,0,0,0,0,0,0,0,0,0,0,0,0,0,0,0,0,0,0,0,0,0,0
17.0730381011963,17.0736656188965,17.0742950439453,17.0749244689941,17.075553894043,17.0761814117432,17.076810836792,17.0774402618408,17.0780696868896,17.0786991119385,17.0793285369873,17.0799579620361,17.080587387085,17.0812168121338,17.0818462371826,17.0824756622314,17.0831050872803,17.0837345123291,17.0843639373779,17.0849933624268,17.0856227874756,17.0862522125244,17.0868835449219,17.0875129699707,17.0881423950195,17.0887718200684,17.0894031524658,17.0900325775146,17.0906620025635,17.0912933349609,17.0919227600098,17.0925540924072,17.0931835174561,17.0938148498535,17.0944442749023,17.0950736999512,17.0957050323486,17.0963363647461,17.0969657897949,17.0975971221924,17.0982265472412,17.0988578796387,17.0994892120361,17.100118637085,17.1007499694824,17.1013813018799,17.1020126342773,17.1026439666748,17.1032733917236,17.1039047241211,17.1045360565186,17.105167388916,17.1057987213135,17.1064300537109,17.1070613861084,17.1076927185059,17.1083240509033,17.1089553833008,17.1095867156982,17.1102180480957,17.1108493804932,17.1114807128906,17.1121139526367,17.1127452850342,17.1133766174316,17.1140079498291,17.1146411895752,17.1152725219727,17.1159038543701,17.1165370941162,17.1171684265137,17.1177997589111,17.1184329986572,17.1190643310547,17.1196975708008,17.1203289031982,17.1209621429443,17.1215934753418,17.1222267150879,17.122859954834,17.1234912872314,17.1241245269775,17.124755859375,17.1253890991211,17.1260223388672,17.1266536712646,17.1272869110107,17.1279201507568,17.1285533905029,17.129186630249,17.1298198699951,17.1304531097412,17.1310844421387,17.1317176818848,17.1323509216309,17.132984161377,17.133617401123,17.1342506408691,17.1348838806152,17.1355171203613,17.1361503601074,17.1367855072021,17.1374187469482,17.1380519866943,17.1386852264404,17.1393203735352,17.1399536132812,17.1405868530273,17.1412200927734,17.1418552398682,17.1424884796143,17.1431217193604,17.1437568664551,17.1443901062012,17.1450252532959,17.145658493042,17.1462936401367,17.1469268798828,17.1475620269775,17.1481952667236,17.1488304138184,17.1494636535645,17.1500988006592,17.1507339477539,17.1513671875,17.1520023345947,17.1526374816895,17.1532726287842,17.1539077758789,17.154541015625,17.1551761627197,17.1558113098145,17.1564464569092,17.1570816040039,17.1577167510986,17.1583518981934,17.1589870452881,17.1596221923828,17.1602573394775,17.1608924865723,17.161527633667,17.1621627807617,17.1627979278564,17.1634349822998,17.1640701293945,17.1647052764893,17.165340423584,17.1659755706787,17.1666126251221,17.1672477722168,17.1678829193115,17.1685199737549,17.1691551208496,17.1697902679443,17.1704273223877,17.1710624694824,17.1716995239258,17.1723346710205,17.1729717254639,17.1736068725586,17.174243927002,17.1748809814453,17.17551612854,17.1761531829834,17.1767902374268,17.1774253845215,17.1780624389648,17.1786994934082,17.1793346405029,17.1799736022949,17.1806087493896,17.181245803833,17.1818828582764,17.1825199127197,17.1831569671631,17.1837940216064,17.1844310760498,17.1850681304932,17.1857051849365,17.1863422393799,17.1869792938232,17.1876163482666,17.18825340271,17.1888904571533,17.1895294189453,17.1901664733887,17.190803527832,17.1914405822754,17.1920776367188,17.1927165985107,17.1933536529541,17.1939926147461,17.1946296691895,17.1952667236328,17.1959056854248,17.1965427398682,17.1971817016602,17.1978187561035,17.1984577178955,17.1990947723389,17.1997337341309,17.2003726959229,17.2010097503662,17.2016487121582,17.2022876739502,17.2029247283936,17.2035636901855,17.2042007446289,17.2048397064209,17.2054786682129,17.2061176300049,17.2067565917969,17.2073955535889,17.2080326080322,17.2086715698242,17.2093124389648,17.2099514007568,17.2105903625488,17.2112293243408,17.2118682861328,17.2125072479248,17.2131462097168,17.2137851715088,17.2144241333008,17.2150630950928,17.2157020568848,17.2163429260254,17.2169818878174,17.2176208496094,17.2182598114014,17.218900680542,17.219539642334,17.220178604126,17.2208194732666,17.2214584350586,17.2220993041992,17.2227382659912,17.2233791351318,17.2240180969238,17.2246589660645,17.2252998352051,17.2259387969971,17.2265796661377,17.2272186279297,17.2278594970703,17.2284984588623,17.2291393280029,17.2297801971436,17.2304210662842,17.2310600280762,17.2317008972168,17.2323417663574,17.232982635498,17.2336235046387,17.2342643737793,17.2349052429199,17.2355461120605,17.2361869812012,17.2368278503418,17.2374687194824,17.238109588623,17.2387504577637,17.2393913269043,17.2400321960449,17.2406749725342,17.2413158416748,17.2419567108154,17.2425975799561,17.2432384490967,17.2438812255859,17.2445220947266,17.2451629638672,17.2458057403564,17.2464466094971,17.2470893859863,17.247730255127,17.2483730316162,17.2490139007568,17.2496566772461,17.2502975463867,17.250940322876,17.2515811920166,17.2522239685059,17.2528667449951,17.2535076141357,17.254150390625,17.2547931671143,17.2554359436035,0,0,0,0,0,0,0,0,0,0,0,0,0,0,0,0,0,0,0,0,0,0,0,0,0,0,0,0,0,0,0,0,0,0,0,0,0,0,0,0,0,0,0,0,0,0,0,0,0,0,0,0,0,0,0,0,0,0,0,0,0,0,0,0,0,0,0,0,0,0,0,0,0,0,0,0,0,0,0,0,0,0,0,0,0,0,0,0,0,0,0,0,0
16.9136943817139,16.9143123626709,16.9149284362793,16.9155464172363,16.9161624908447,16.9167804718018,16.9173984527588,16.9180164337158,16.9186325073242,16.9192504882812,16.9198684692383,16.9204864501953,16.9211044311523,16.9217205047607,16.9223384857178,16.9229564666748,16.9235744476318,16.9241924285889,16.9248104095459,16.9254283905029,16.92604637146,16.926664352417,16.927282333374,16.9279003143311,16.9285182952881,16.9291381835938,16.9297542572021,16.9303741455078,16.9309921264648,16.9316101074219,16.9322280883789,16.9328479766846,16.9334659576416,16.9340839385986,16.9347038269043,16.9353218078613,16.9359397888184,16.936559677124,16.9371776580811,16.9377975463867,16.9384155273438,16.9390354156494,16.9396533966064,16.9402732849121,16.9408912658691,16.9415111541748,16.9421310424805,16.9427490234375,16.9433689117432,16.9439888000488,16.9446086883545,16.9452266693115,16.9458465576172,16.9464664459229,16.9470863342285,16.9477043151855,16.9483242034912,16.9489440917969,16.9495639801025,16.9501838684082,16.9508037567139,16.9514236450195,16.9520435333252,16.9526634216309,16.9532833099365,16.9539031982422,16.9545230865479,16.9551429748535,16.9557628631592,16.9563846588135,16.9570045471191,16.9576244354248,16.9582443237305,16.9588661193848,16.9594860076904,16.9601058959961,16.9607276916504,16.9613475799561,16.9619674682617,16.962589263916,16.9632091522217,16.963830947876,16.9644508361816,16.9650726318359,16.9656925201416,16.9663143157959,16.9669342041016,16.9675559997559,16.9681777954102,16.9687976837158,16.9694194793701,16.9700412750244,16.9706611633301,16.9712829589844,16.9719047546387,16.972526550293,16.9731483459473,16.9737682342529,16.9743900299072,16.9750118255615,16.9756336212158,16.9762554168701,16.9768772125244,16.9774990081787,16.978120803833,16.9787425994873,16.9793643951416,16.9799861907959,16.9806079864502,16.9812297821045,16.9818515777588,16.9824752807617,16.983097076416,16.9837188720703,16.9843406677246,16.9849643707275,16.9855861663818,16.9862079620361,16.9868316650391,16.9874534606934,16.9880752563477,16.9886989593506,16.9893207550049,16.9899444580078,16.9905662536621,16.991189956665,16.9918117523193,16.9924354553223,16.9930572509766,16.9936809539795,16.9943046569824,16.9949264526367,16.9955501556396,16.9961738586426,16.9967956542969,16.9974193572998,16.9980430603027,16.9986667633057,16.99928855896,16.9999122619629,17.0005359649658,17.0011596679688,17.0017833709717,17.0024070739746,17.0030307769775,17.0036544799805,17.0042781829834,17.0049018859863,17.0055255889893,17.0061492919922,17.0067729949951,17.007396697998,17.0080223083496,17.0086460113525,17.0092697143555,17.0098934173584,17.0105171203613,17.0111427307129,17.0117664337158,17.0123901367188,17.0130157470703,17.0136394500732,17.0142650604248,17.0148887634277,17.0155143737793,17.0161380767822,17.0167617797852,17.0173873901367,17.0180130004883,17.0186367034912,17.0192623138428,17.0198860168457,17.0205116271973,17.0211353302002,17.0217609405518,17.0223865509033,17.0230121612549,17.0236358642578,17.0242614746094,17.0248870849609,17.0255126953125,17.0261383056641,17.0267639160156,17.0273895263672,17.0280132293701,17.0286407470703,17.0292663574219,17.0298900604248,17.0305156707764,17.0311412811279,17.0317687988281,17.0323925018311,17.0330200195312,17.0336456298828,17.0342712402344,17.0348968505859,17.0355243682861,17.0361499786377,17.0367755889893,17.0374011993408,17.038028717041,17.0386543273926,17.0392799377441,17.0399074554443,17.0405330657959,17.0411586761475,17.0417861938477,17.0424137115479,17.0430393218994,17.043664932251,17.0442924499512,17.0449199676514,17.0455455780029,17.0461730957031,17.0468006134033,17.0474262237549,17.0480537414551,17.0486812591553,17.0493068695068,17.049934387207,17.0505619049072,17.0511894226074,17.0518169403076,17.0524425506592,17.0530700683594,17.0536975860596,17.0543251037598,17.05495262146,17.0555801391602,17.0562076568604,17.0568351745605,17.0574626922607,17.0580921173096,17.0587196350098,17.05934715271,17.0599746704102,17.0606021881104,17.0612297058105,17.0618591308594,17.0624866485596,17.0631141662598,17.06374168396,17.0643711090088,17.064998626709,17.0656261444092,17.066255569458,17.0668830871582,17.067512512207,17.0681400299072,17.0687694549561,17.0693969726562,17.0700263977051,17.0706539154053,17.0712833404541,17.0719127655029,17.0725402832031,17.073169708252,17.0737991333008,17.074426651001,17.0750560760498,17.0756855010986,17.0763149261475,17.0769424438477,17.0775718688965,17.0782012939453,17.0788307189941,17.079460144043,17.0800895690918,17.0807189941406,17.0813484191895,17.0819778442383,17.0826072692871,17.0832366943359,17.0838661193848,17.0844955444336,17.0851249694824,17.0857543945312,17.0863857269287,17.0870151519775,17.0876445770264,17.0882740020752,17.0889053344727,17.0895347595215,17.0901641845703,17.0907936096191,17.0914249420166,17.0920543670654,17.0926856994629,17.0933151245117,17.0939445495605,17.094575881958,17.0952072143555,17.0958366394043,0,0,0,0,0,0,0,0,0,0,0,0,0,0,0,0,0,0,0,0,0,0,0,0,0,0,0,0,0,0,0,0,0,0,0,0,0,0,0,0,0,0,0,0,0,0,0,0,0,0,0,0,0,0,0,0,0,0,0,0,0,0,0,0,0,0,0,0,0,0,0,0,0,0,0,0,0,0,0,0,0,0,0,0,0,0,0,0
16.7572975158691,16.7579040527344,16.7585105895996,16.7591152191162,16.7597217559814,16.7603282928467,16.7609348297119,16.7615394592285,16.7621459960938,16.762752532959,16.7633590698242,16.7639636993408,16.7645702362061,16.7651767730713,16.7657833099365,16.7663898468018,16.766996383667,16.7676029205322,16.7682094573975,16.7688159942627,16.7694225311279,16.7700290679932,16.7706356048584,16.7712421417236,16.7718486785889,16.7724571228027,16.773063659668,16.7736701965332,16.7742767333984,16.7748832702637,16.7754917144775,16.7760982513428,16.7767066955566,16.7773132324219,16.7779197692871,16.7785263061523,16.7791347503662,16.7797412872314,16.7803497314453,16.7809562683105,16.7815647125244,16.7821712493896,16.7827796936035,16.7833881378174,16.7839946746826,16.7846031188965,16.7852096557617,16.7858180999756,16.7864265441895,16.7870330810547,16.7876415252686,16.7882499694824,16.7888584136963,16.7894668579102,16.7900733947754,16.7906818389893,16.7912902832031,16.791898727417,16.7925071716309,16.7931156158447,16.7937240600586,16.7943325042725,16.7949409484863,16.7955493927002,16.7961578369141,16.7967662811279,16.7973747253418,16.7979831695557,16.7985916137695,16.7992000579834,16.7998104095459,16.8004188537598,16.8010272979736,16.8016357421875,16.80224609375,16.8028545379639,16.8034629821777,16.8040733337402,16.8046817779541,16.8052921295166,16.8059005737305,16.806510925293,16.8071193695068,16.8077278137207,16.8083381652832,16.8089466094971,16.8095569610596,16.8101673126221,16.8107757568359,16.8113861083984,16.8119945526123,16.8126049041748,16.8132152557373,16.8138256072998,16.8144340515137,16.8150444030762,16.8156547546387,16.8162651062012,16.8168754577637,16.8174858093262,16.81809425354,16.8187046051025,16.819314956665,16.8199253082275,16.82053565979,16.8211460113525,16.821756362915,16.8223667144775,16.82297706604,16.8235874176025,16.8241996765137,16.8248100280762,16.8254203796387,16.8260307312012,16.8266410827637,16.8272533416748,16.8278636932373,16.8284740447998,16.8290843963623,16.8296966552734,16.8303070068359,16.8309192657471,16.8315296173096,16.8321399688721,16.8327522277832,16.8333625793457,16.8339748382568,16.8345851898193,16.8351974487305,16.835807800293,16.8364200592041,16.8370323181152,16.8376426696777,16.8382549285889,16.8388671875,16.8394775390625,16.8400897979736,16.8407020568848,16.8413143157959,16.841926574707,16.8425369262695,16.8431491851807,16.8437614440918,16.8443737030029,16.8449859619141,16.8455982208252,16.8462104797363,16.8468227386475,16.8474349975586,16.8480472564697,16.8486595153809,16.849271774292,16.8498840332031,16.8504962921143,16.8511085510254,16.8517208099365,16.8523349761963,16.8529472351074,16.8535594940186,16.8541717529297,16.8547859191895,16.8553981781006,16.8560104370117,16.8566246032715,16.8572368621826,16.8578491210938,16.8584632873535,16.8590774536133,16.8596897125244,16.8603019714355,16.8609161376953,16.8615303039551,16.8621425628662,16.862756729126,16.8633689880371,16.8639831542969,16.864595413208,16.8652095794678,16.8658237457275,16.8664379119873,16.8670501708984,16.8676643371582,16.868278503418,16.8688926696777,16.8695068359375,16.8701210021973,16.870735168457,16.8713474273682,16.8719615936279,16.8725776672363,16.8731899261475,16.8738040924072,16.8744201660156,16.8750324249268,16.8756465911865,16.8762626647949,16.8768768310547,16.8774909973145,16.8781051635742,16.8787212371826,16.8793354034424,16.8799495697021,16.8805637359619,16.8811779022217,16.8817939758301,16.8824081420898,16.8830223083496,16.883638381958,16.8842525482178,16.8848686218262,16.8854827880859,16.8860988616943,16.8867130279541,16.8873291015625,16.8879432678223,16.8885593414307,16.8891735076904,16.8897895812988,16.8904056549072,16.891019821167,16.8916358947754,16.8922519683838,16.8928680419922,16.893482208252,16.8940982818604,16.8947143554688,16.8953304290771,16.8959465026855,16.8965625762939,16.8971767425537,16.8977928161621,16.8984088897705,16.8990249633789,16.8996410369873,16.9002571105957,16.9008731842041,16.9014911651611,16.9021072387695,16.9027233123779,16.9033393859863,16.9039554595947,16.9045715332031,16.9051895141602,16.9058055877686,16.906421661377,16.9070377349854,16.9076538085938,16.9082717895508,16.9088878631592,16.9095058441162,16.9101219177246,16.910737991333,16.91135597229,16.9119739532471,16.9125900268555,16.9132061004639,16.9138240814209,16.9144401550293,16.9150581359863,16.9156761169434,16.9162940979004,16.9169101715088,16.9175281524658,16.9181442260742,16.9187622070312,16.9193801879883,16.9199981689453,16.9206161499023,16.9212322235107,16.9218502044678,16.9224681854248,16.9230861663818,16.9237041473389,16.9243221282959,16.9249401092529,16.92555809021,16.926176071167,16.926794052124,16.9274120330811,16.9280300140381,16.9286479949951,16.9292659759521,16.9298839569092,16.9305038452148,16.9311218261719,16.9317398071289,16.9323577880859,16.9329776763916,16.9335956573486,16.9342136383057,16.9348316192627,16.9354515075684,16.936071395874,16.9366893768311,16.9373073577881,16.9379272460938,16.9385452270508,16.9391651153564,0,0,0,0,0,0,0,0,0,0,0,0,0,0,0,0,0,0,0,0,0,0,0,0,0,0,0,0,0,0,0,0,0,0,0,0,0,0,0,0,0,0,0,0,0,0,0,0,0,0,0,0,0,0,0,0,0,0,0,0,0,0,0,0,0,0,0,0,0,0,0,0,0,0,0,0,0,0,0,0,0,0,0
16.6037673950195,16.604362487793,16.6049575805664,16.6055526733398,16.6061477661133,16.6067428588867,16.6073360443115,16.607931137085,16.6085262298584,16.6091213226318,16.6097183227539,16.6103134155273,16.6109085083008,16.6115036010742,16.6120986938477,16.6126937866211,16.6132888793945,16.613883972168,16.6144790649414,16.6150760650635,16.6156711578369,16.6162662506104,16.6168613433838,16.6174583435059,16.6180534362793,16.6186485290527,16.6192455291748,16.6198406219482,16.6204376220703,16.6210327148438,16.6216297149658,16.6222248077393,16.6228218078613,16.6234169006348,16.6240139007568,16.6246089935303,16.6252059936523,16.6258029937744,16.6263980865479,16.6269950866699,16.6275901794434,16.6281871795654,16.6287841796875,16.6293811798096,16.629976272583,16.6305732727051,16.6311702728271,16.6317672729492,16.6323642730713,16.6329612731934,16.6335563659668,16.6341533660889,16.6347503662109,16.635347366333,16.6359443664551,16.6365413665771,16.6371402740479,16.6377372741699,16.638334274292,16.6389312744141,16.6395282745361,16.6401252746582,16.6407222747803,16.6413192749023,16.641918182373,16.6425151824951,16.6431121826172,16.6437091827393,16.64430809021,16.644905090332,16.6455020904541,16.6461009979248,16.6466979980469,16.6472969055176,16.6478939056396,16.6484928131104,16.6490898132324,16.6496887207031,16.6502857208252,16.6508846282959,16.651481628418,16.6520805358887,16.6526794433594,16.6532764434814,16.6538753509521,16.6544742584229,16.6550712585449,16.6556701660156,16.6562690734863,16.656867980957,16.6574649810791,16.6580638885498,16.6586627960205,16.6592617034912,16.6598606109619,16.6604595184326,16.6610584259033,16.661657333374,16.6622562408447,16.6628551483154,16.6634540557861,16.6640529632568,16.6646518707275,16.6652507781982,16.6658496856689,16.6664505004883,16.667049407959,16.6676483154297,16.6682472229004,16.6688461303711,16.6694469451904,16.6700458526611,16.6706447601318,16.6712436676025,16.6718444824219,16.6724433898926,16.6730442047119,16.6736431121826,16.6742420196533,16.6748428344727,16.675443649292,16.6760425567627,16.6766414642334,16.6772422790527,16.6778430938721,16.6784420013428,16.6790428161621,16.6796417236328,16.6802425384521,16.6808433532715,16.6814441680908,16.6820449829102,16.6826438903809,16.6832447052002,16.6838455200195,16.6844444274902,16.6850452423096,16.6856460571289,16.6862468719482,16.6868476867676,16.6874485015869,16.6880493164062,16.6886501312256,16.6892509460449,16.6898517608643,16.6904525756836,16.6910533905029,16.6916542053223,16.6922550201416,16.6928577423096,16.6934585571289,16.6940593719482,16.6946601867676,16.6952610015869,16.6958618164062,16.6964645385742,16.6970653533936,16.6976661682129,16.6982688903809,16.6988697052002,16.6994724273682,16.7000732421875,16.7006740570068,16.7012767791748,16.7018775939941,16.7024803161621,16.7030811309814,16.7036838531494,16.7042846679688,16.7048873901367,16.7054901123047,16.7060928344727,16.706693649292,16.70729637146,16.7078990936279,16.7084999084473,16.7091026306152,16.7097053527832,16.7103080749512,16.7109088897705,16.7115116119385,16.7121143341064,16.7127170562744,16.7133197784424,16.7139225006104,16.7145252227783,16.7151279449463,16.7157306671143,16.7163333892822,16.7169361114502,16.7175388336182,16.7181434631348,16.7187442779541,16.7193489074707,16.71994972229,16.7205543518066,16.7211570739746,16.7217597961426,16.7223625183105,16.7229671478271,16.7235698699951,16.7241725921631,16.7247772216797,16.7253799438477,16.7259845733643,16.7265872955322,16.7271919250488,16.7277946472168,16.7283973693848,16.7290019989014,16.729606628418,16.7302093505859,16.7308139801025,16.7314167022705,16.7320213317871,16.7326240539551,16.7332286834717,16.7338333129883,16.7344379425049,16.7350406646729,16.7356452941895,16.7362499237061,16.7368545532227,16.7374572753906,16.7380638122559,16.7386665344238,16.7392711639404,16.739875793457,16.7404804229736,16.7410850524902,16.7416896820068,16.7422943115234,16.74289894104,16.7435035705566,16.7441082000732,16.7447128295898,16.7453174591064,16.7459239959717,16.7465286254883,16.7471332550049,16.7477378845215,16.7483444213867,16.7489490509033,16.7495536804199,16.7501583099365,16.7507648468018,16.7513694763184,16.751974105835,16.7525806427002,16.7531852722168,16.753791809082,16.7543964385986,16.7550029754639,16.7556076049805,16.7562141418457,16.7568187713623,16.7574253082275,16.7580318450928,16.7586364746094,16.7592430114746,16.7598495483398,16.7604541778564,16.7610607147217,16.7616672515869,16.7622718811035,16.7628784179688,16.763484954834,16.7640914916992,16.7646980285645,16.7653045654297,16.7659111022949,16.7665176391602,16.7671241760254,16.767728805542,16.7683372497559,16.7689437866211,16.7695503234863,16.7701568603516,16.7707633972168,16.771369934082,16.7719764709473,16.7725830078125,16.7731895446777,16.773796081543,16.7744045257568,16.7750110626221,16.7756175994873,16.7762260437012,16.7768325805664,16.7774391174316,16.7780475616455,16.7786540985107,16.7792625427246,16.7798690795898,16.7804756164551,16.7810840606689,16.7816905975342,16.782299041748,16.7829074859619,16.7835140228271,16.784122467041,16.7847290039062,16.7853374481201,0,0,0,0,0,0,0,0,0,0,0,0,0,0,0,0,0,0,0,0,0,0,0,0,0,0,0,0,0,0,0,0,0,0,0,0,0,0,0,0,0,0,0,0,0,0,0,0,0,0,0,0,0,0,0,0,0,0,0,0,0,0,0,0,0,0,0,0,0,0,0,0,0,0,0,0,0,0
16.4530258178711,16.4536094665527,16.4541931152344,16.454776763916,16.4553623199463,16.4559459686279,16.4565296173096,16.4571132659912,16.4576988220215,16.4582824707031,16.4588661193848,16.459451675415,16.4600372314453,16.460620880127,16.4612045288086,16.4617900848389,16.4623737335205,16.4629592895508,16.4635429382324,16.4641284942627,16.4647121429443,16.4652976989746,16.4658832550049,16.4664688110352,16.4670524597168,16.4676380157471,16.4682235717773,16.468807220459,16.4693927764893,16.4699783325195,16.4705638885498,16.4711475372314,16.4717330932617,16.472318649292,16.4729042053223,16.4734897613525,16.4740753173828,16.4746608734131,16.4752464294434,16.4758319854736,16.4764175415039,16.4770030975342,16.4775886535645,16.4781742095947,16.478759765625,16.4793453216553,16.4799308776855,16.4805183410645,16.4811038970947,16.481689453125,16.4822750091553,16.4828624725342,16.4834480285645,16.4840335845947,16.4846210479736,16.4852066040039,16.4857921600342,16.4863796234131,16.4869651794434,16.4875526428223,16.4881381988525,16.4887237548828,16.4893112182617,16.489896774292,16.4904842376709,16.4910717010498,16.4916572570801,16.492244720459,16.4928302764893,16.4934177398682,16.4940052032471,16.494592666626,16.4951782226562,16.4957656860352,16.4963531494141,16.496940612793,16.4975280761719,16.4981136322021,16.4987010955811,16.49928855896,16.4998760223389,16.5004634857178,16.5010509490967,16.5016384124756,16.5022258758545,16.5028133392334,16.5034008026123,16.5039882659912,16.5045757293701,16.505163192749,16.5057506561279,16.5063400268555,16.5069255828857,16.5075149536133,16.5081024169922,16.5086898803711,16.50927734375,16.5098667144775,16.5104541778564,16.5110416412354,16.5116291046143,16.5122184753418,16.5128059387207,16.5133953094482,16.5139827728271,16.5145721435547,16.5151596069336,16.5157489776611,16.51633644104,16.5169258117676,16.5175132751465,16.518102645874,16.5186920166016,16.5192794799805,16.519868850708,16.5204563140869,16.5210456848145,16.521635055542,16.5222244262695,16.5228118896484,16.523401260376,16.5239906311035,16.5245800018311,16.5251693725586,16.5257587432861,16.526346206665,16.5269355773926,16.5275249481201,16.5281143188477,16.5287036895752,16.5292930603027,16.5298824310303,16.5304718017578,16.5310611724854,16.5316505432129,16.5322399139404,16.532829284668,16.5334205627441,16.5340099334717,16.5345993041992,16.5351905822754,16.5357799530029,16.5363693237305,16.536958694458,16.5375499725342,16.5381393432617,16.5387287139893,16.5393180847168,16.539909362793,16.5404987335205,16.5410900115967,16.5416793823242,16.5422706604004,16.5428600311279,16.5434513092041,16.5440406799316,16.5446319580078,16.545223236084,16.5458126068115,16.5464038848877,16.5469932556152,16.5475845336914,16.5481758117676,16.5487670898438,16.5493564605713,16.5499477386475,16.5505390167236,16.5511302947998,16.551721572876,16.5523109436035,16.5529022216797,16.5534934997559,16.554084777832,16.5546760559082,16.5552673339844,16.5558586120605,16.5564498901367,16.5570411682129,16.5576324462891,16.5582237243652,16.55881690979,16.5594081878662,16.5599994659424,16.5605907440186,16.5611820220947,16.5617752075195,16.5623645782471,16.5629577636719,16.563549041748,16.5641422271729,16.564733505249,16.5653247833252,16.5659160614014,16.5665092468262,16.567102432251,16.5676937103271,16.5682849884033,16.5688781738281,16.5694694519043,16.5700626373291,16.5706539154053,16.5712471008301,16.5718383789062,16.5724315643311,16.5730247497559,16.573616027832,16.5742092132568,16.5748023986816,16.5753955841064,16.5759868621826,16.5765800476074,16.5771732330322,16.577766418457,16.5783596038818,16.578950881958,16.5795440673828,16.5801372528076,16.5807304382324,16.5813236236572,16.581916809082,16.5825099945068,16.5831031799316,16.5836963653564,16.5842895507812,16.5848827362061,16.5854759216309,16.5860691070557,16.5866622924805,16.5872573852539,16.5878505706787,16.5884437561035,16.5890369415283,16.5896320343018,16.5902252197266,16.5908203125,16.5914134979248,16.5920066833496,16.592601776123,16.5931949615479,16.5937881469727,16.5943813323975,16.5949764251709,16.5955715179443,16.5961647033691,16.5967597961426,16.5973529815674,16.5979480743408,16.5985412597656,16.5991363525391,16.5997314453125,16.6003246307373,16.6009197235107,16.6015148162842,16.602108001709,16.6027030944824,16.6032981872559,16.6038932800293,16.6044864654541,16.6050815582275,16.605676651001,16.6062717437744,16.6068668365479,16.6074619293213,16.6080570220947,16.6086521148682,16.6092472076416,16.609842300415,16.6104373931885,16.6110324859619,16.6116275787354,16.6122226715088,16.6128177642822,16.6134128570557,16.6140098571777,16.6146049499512,16.6152000427246,16.615795135498,16.6163921356201,16.6169872283936,16.617582321167,16.6181793212891,16.6187744140625,16.6193695068359,16.6199645996094,16.6205615997314,16.6211566925049,16.621753692627,16.622350692749,16.6229457855225,16.6235408782959,16.624137878418,16.62473487854,16.6253299713135,16.6259269714355,16.6265239715576,16.6271190643311,16.6277160644531,16.6283130645752,16.6289081573486,16.6295051574707,16.6301021575928,16.6306991577148,16.6312961578369,16.6318912506104,16.6324882507324,16.6330852508545,16.6336822509766,16.6342792510986,0,0,0,0,0,0,0,0,0,0,0,0,0,0,0,0,0,0,0,0,0,0,0,0,0,0,0,0,0,0,0,0,0,0,0,0,0,0,0,0,0,0,0,0,0,0,0,0,0,0,0,0,0,0,0,0,0,0,0,0,0,0,0,0,0,0,0,0,0,0,0,0,0
16.3049945831299,16.3055686950684,16.3061428070068,16.3067150115967,16.3072891235352,16.3078632354736,16.3084373474121,16.3090114593506,16.3095836639404,16.3101577758789,16.3107318878174,16.3113059997559,16.3118801116943,16.3124542236328,16.3130283355713,16.3136024475098,16.3141765594482,16.3147506713867,16.3153247833252,16.3158988952637,16.3164730072021,16.3170471191406,16.3176231384277,16.3181972503662,16.3187713623047,16.3193454742432,16.3199195861816,16.3204936981201,16.3210697174072,16.3216438293457,16.3222179412842,16.3227939605713,16.3233680725098,16.3239421844482,16.3245182037354,16.3250923156738,16.3256683349609,16.3262424468994,16.3268184661865,16.327392578125,16.3279685974121,16.3285427093506,16.3291187286377,16.3296928405762,16.3302688598633,16.3308448791504,16.3314189910889,16.331995010376,16.3325691223145,16.3331451416016,16.3337211608887,16.3342971801758,16.3348731994629,16.3354473114014,16.3360233306885,16.3365993499756,16.3371753692627,16.3377513885498,16.3383274078369,16.338903427124,16.3394775390625,16.3400554656982,16.3406295776367,16.3412055969238,16.3417835235596,16.342357635498,16.3429355621338,16.3435115814209,16.344087600708,16.3446636199951,16.3452396392822,16.3458156585693,16.3463935852051,16.3469696044922,16.3475456237793,16.3481216430664,16.3486995697021,16.3492755889893,16.3498516082764,16.3504295349121,16.3510055541992,16.3515815734863,16.3521595001221,16.3527355194092,16.3533115386963,16.353889465332,16.3544673919678,16.3550434112549,16.3556213378906,16.3561973571777,16.3567752838135,16.3573513031006,16.3579292297363,16.3585071563721,16.3590850830078,16.3596611022949,16.3602390289307,16.3608169555664,16.3613929748535,16.3619709014893,16.362548828125,16.3631267547607,16.3637027740479,16.3642807006836,16.3648586273193,16.3654365539551,16.3660144805908,16.3665924072266,16.3671703338623,16.367748260498,16.3683261871338,16.3689041137695,16.3694820404053,16.370059967041,16.3706378936768,16.3712158203125,16.3717937469482,16.3723735809326,16.3729515075684,16.3735294342041,16.3741073608398,16.3746852874756,16.37526512146,16.3758430480957,16.3764209747314,16.3770008087158,16.3775787353516,16.3781566619873,16.3787364959717,16.3793144226074,16.3798942565918,16.3804721832275,16.3810520172119,16.3816299438477,16.382209777832,16.3827877044678,16.3833675384521,16.3839454650879,16.3845252990723,16.3851051330566,16.385684967041,16.3862628936768,16.3868427276611,16.3874225616455,16.3880004882812,16.3885803222656,16.38916015625,16.3897399902344,16.3903179168701,16.3908977508545,16.3914775848389,16.3920574188232,16.3926372528076,16.393217086792,16.3937969207764,16.3943767547607,16.3949565887451,16.3955364227295,16.3961162567139,16.3966960906982,16.3972759246826,16.397855758667,16.3984355926514,16.3990154266357,16.3995952606201,16.4001770019531,16.4007568359375,16.4013366699219,16.4019184112549,16.4024982452393,16.4030780792236,16.403657913208,16.404239654541,16.4048194885254,16.4053993225098,16.4059810638428,16.4065608978271,16.4071426391602,16.4077224731445,16.4083042144775,16.4088840484619,16.4094657897949,16.4100475311279,16.4106273651123,16.4112091064453,16.4117889404297,16.4123706817627,16.4129524230957,16.4135322570801,16.4141139984131,16.4146957397461,16.4152755737305,16.4158573150635,16.4164390563965,16.4170207977295,16.4176025390625,16.4181823730469,16.4187641143799,16.4193458557129,16.4199275970459,16.4205093383789,16.4210910797119,16.4216728210449,16.4222545623779,16.4228363037109,16.4234180450439,16.4240016937256,16.42458152771,16.4251651763916,16.4257469177246,16.4263286590576,16.4269104003906,16.4274921417236,16.4280738830566,16.4286575317383,16.4292392730713,16.4298210144043,16.4304046630859,16.4309864044189,16.4315700531006,16.4321517944336,16.4327335357666,16.4333171844482,16.4338989257812,16.4344806671143,16.4350643157959,16.4356460571289,16.4362297058105,16.4368114471436,16.4373950958252,16.4379787445068,16.4385604858398,16.4391441345215,16.4397277832031,16.4403095245361,16.4408931732178,16.4414768218994,16.4420585632324,16.4426422119141,16.4432258605957,16.4438095092773,16.444393157959,16.4449768066406,16.4455604553223,16.4461421966553,16.4467258453369,16.4473094940186,16.4478931427002,16.4484767913818,16.4490604400635,16.4496440887451,16.4502296447754,16.4508113861084,16.4513969421387,16.4519805908203,16.452564239502,16.4531478881836,16.4537315368652,16.4543151855469,16.4549007415771,16.4554843902588,16.4560680389404,16.4566516876221,16.4572372436523,16.457820892334,16.4584045410156,16.4589900970459,16.4595737457275,16.4601593017578,16.4607429504395,16.4613265991211,16.4619121551514,16.462495803833,16.4630813598633,16.4636650085449,16.4642505645752,16.4648361206055,16.4654197692871,16.4660053253174,16.4665908813477,16.4671745300293,16.4677600860596,16.4683456420898,16.4689292907715,16.4695148468018,16.470100402832,16.4706859588623,16.4712715148926,16.4718551635742,16.4724407196045,16.4730281829834,16.473611831665,16.4741973876953,16.4747829437256,16.4753684997559,16.4759540557861,16.4765396118164,16.4771251678467,16.477710723877,16.4782962799072,16.4788818359375,16.4794692993164,16.4800548553467,16.480640411377,16.4812259674072,16.4818134307861,16.4823989868164,16.4829845428467,16.483570098877,16.4841575622559,16.4847431182861,16.4853286743164,0,0,0,0,0,0,0,0,0,0,0,0,0,0,0,0,0,0,0,0,0,0,0,0,0,0,0,0,0,0,0,0,0,0,0,0,0,0,0,0,0,0,0,0,0,0,0,0,0,0,0,0,0,0,0,0,0,0,0,0,0,0,0,0,0,0,0,0,0
16.1596050262451,16.1601676940918,16.1607322692871,16.1612949371338,16.1618576049805,16.1624221801758,16.1629848480225,16.1635494232178,16.1641120910645,16.1646766662598,16.1652393341064,16.1658039093018,16.1663684844971,16.1669311523438,16.1674957275391,16.1680583953857,16.1686229705811,16.1691875457764,16.1697521209717,16.1703147888184,16.1708793640137,16.171443939209,16.1720066070557,16.172571182251,16.1731357574463,16.1737003326416,16.1742649078369,16.1748294830322,16.1753940582275,16.1759586334229,16.1765232086182,16.1770877838135,16.1776504516602,16.1782169342041,16.1787815093994,16.1793460845947,16.17991065979,16.1804752349854,16.1810398101807,16.181604385376,16.1821689605713,16.1827335357666,16.1833000183105,16.1838645935059,16.1844291687012,16.1849937438965,16.1855602264404,16.1861248016357,16.1866893768311,16.187255859375,16.1878204345703,16.1883850097656,16.1889514923096,16.1895160675049,16.1900825500488,16.1906471252441,16.1912136077881,16.1917781829834,16.1923446655273,16.1929092407227,16.1934757232666,16.1940422058105,16.1946067810059,16.1951732635498,16.1957378387451,16.1963043212891,16.196870803833,16.197437286377,16.1980018615723,16.1985683441162,16.1991348266602,16.1996994018555,16.2002658843994,16.2008323669434,16.2013988494873,16.2019653320312,16.2025318145752,16.2030982971191,16.2036647796631,16.204231262207,16.204797744751,16.2053642272949,16.2059307098389,16.2064971923828,16.2070636749268,16.2076301574707,16.2081966400146,16.2087631225586,16.2093296051025,16.2098979949951,16.2104644775391,16.211030960083,16.211597442627,16.2121639251709,16.2127323150635,16.2132987976074,16.2138652801514,16.2144336700439,16.2150001525879,16.2155685424805,16.2161350250244,16.2167015075684,16.2172698974609,16.2178363800049,16.2184047698975,16.2189712524414,16.219539642334,16.2201061248779,16.2206745147705,16.2212409973145,16.221809387207,16.2223777770996,16.2229442596436,16.2235126495361,16.2240810394287,16.2246475219727,16.2252159118652,16.2257843017578,16.2263526916504,16.2269191741943,16.2274875640869,16.2280559539795,16.2286243438721,16.2291927337646,16.2297611236572,16.2303295135498,16.2308979034424,16.2314643859863,16.2320346832275,16.2326030731201,16.2331714630127,16.2337398529053,16.2343082427979,16.2348766326904,16.235445022583,16.2360134124756,16.2365818023682,16.2371501922607,16.237720489502,16.2382888793945,16.2388572692871,16.2394256591797,16.2399959564209,16.2405643463135,16.2411327362061,16.2417011260986,16.2422714233398,16.2428398132324,16.2434101104736,16.2439785003662,16.2445487976074,16.2451171875,16.2456874847412,16.2462558746338,16.246826171875,16.2473945617676,16.2479648590088,16.2485332489014,16.2491035461426,16.2496738433838,16.250244140625,16.2508125305176,16.2513828277588,16.2519512176514,16.2525215148926,16.2530918121338,16.253662109375,16.2542304992676,16.2548007965088,16.25537109375,16.2559413909912,16.2565116882324,16.2570819854736,16.2576522827148,16.2582225799561,16.2587928771973,16.2593631744385,16.2599334716797,16.2605037689209,16.2610740661621,16.2616443634033,16.2622146606445,16.2627849578857,16.263355255127,16.2639255523682,16.264497756958,16.2650680541992,16.2656383514404,16.2662086486816,16.2667789459229,16.2673511505127,16.2679214477539,16.2684917449951,16.269063949585,16.2696342468262,16.270206451416,16.2707767486572,16.2713470458984,16.2719192504883,16.2724895477295,16.2730617523193,16.2736320495605,16.2742042541504,16.2747745513916,16.2753467559814,16.2759189605713,16.2764892578125,16.2770614624023,16.2776317596436,16.2782039642334,16.2787761688232,16.2793483734131,16.2799186706543,16.2804908752441,16.281063079834,16.2816352844238,16.2822074890137,16.2827777862549,16.2833499908447,16.2839221954346,16.2844944000244,16.2850666046143,16.2856388092041,16.2862110137939,16.2867832183838,16.2873554229736,16.2879276275635,16.2884998321533,16.2890720367432,16.289644241333,16.2902164459229,16.2907905578613,16.2913627624512,16.291934967041,16.2925071716309,16.2930793762207,16.2936534881592,16.294225692749,16.2947978973389,16.2953720092773,16.2959442138672,16.296516418457,16.2970905303955,16.2976627349854,16.2982368469238,16.2988090515137,16.2993831634521,16.299955368042,16.3005275726318,16.3011016845703,16.3016757965088,16.3022480010986,16.3028221130371,16.303394317627,16.3039684295654,16.3045425415039,16.3051147460938,16.3056888580322,16.3062629699707,16.3068351745605,16.307409286499,16.3079833984375,16.308557510376,16.3091316223145,16.3097038269043,16.3102779388428,16.3108520507812,16.3114261627197,16.3120002746582,16.3125743865967,16.3131484985352,16.3137226104736,16.3142967224121,16.3148708343506,16.3154449462891,16.3160190582275,16.316593170166,16.3171672821045,16.317741394043,16.3183174133301,16.3188915252686,16.319465637207,16.3200416564941,16.3206157684326,16.3211898803711,16.3217639923096,16.322338104248,16.3229141235352,16.3234882354736,16.3240642547607,16.3246383666992,16.3252124786377,16.3257884979248,16.3263626098633,16.3269386291504,16.3275127410889,16.328088760376,16.3286628723145,16.3292388916016,16.32981300354,16.3303890228271,16.3309650421143,16.3315391540527,16.3321151733398,16.332691192627,16.3332653045654,16.3338413238525,16.3344173431396,16.3349933624268,16.3355674743652,16.3361434936523,16.3367195129395,16.3372955322266,16.3378715515137,16.3384475708008,16.3390235900879,16.339599609375,0,0,0,0,0,0,0,0,0,0,0,0,0,0,0,0,0,0,0,0,0,0,0,0,0,0,0,0,0,0,0,0,0,0,0,0,0,0,0,0,0,0,0,0,0,0,0,0,0,0,0,0,0,0,0,0,0,0,0,0,0,0,0,0
16.0167846679688,16.0173377990723,16.0178909301758,16.0184440612793,16.0189990997314,16.019552230835,16.0201053619385,16.020658493042,16.0212135314941,16.0217666625977,16.0223197937012,16.0228748321533,16.0234279632568,16.023983001709,16.0245361328125,16.025089263916,16.0256443023682,16.0261993408203,16.0267524719238,16.0273056030273,16.0278606414795,16.0284156799316,16.0289688110352,16.0295238494873,16.0300769805908,16.030632019043,16.0311851501465,16.0317401885986,16.0322952270508,16.0328502655029,16.0334033966064,16.0339584350586,16.0345134735107,16.0350685119629,16.035623550415,16.0361766815186,16.0367317199707,16.0372867584229,16.037841796875,16.0383968353271,16.0389518737793,16.0395069122314,16.0400619506836,16.0406169891357,16.0411720275879,16.04172706604,16.0422821044922,16.0428371429443,16.0433921813965,16.0439472198486,16.0445022583008,16.0450572967529,16.0456142425537,16.0461692810059,16.046724319458,16.0472793579102,16.0478363037109,16.0483913421631,16.0489463806152,16.049503326416,16.0500583648682,16.0506134033203,16.0511703491211,16.0517253875732,16.052282333374,16.0528373718262,16.053394317627,16.0539493560791,16.0545063018799,16.055061340332,16.0556182861328,16.056173324585,16.0567302703857,16.0572853088379,16.0578422546387,16.0583992004395,16.0589542388916,16.0595111846924,16.0600681304932,16.0606250762939,16.0611801147461,16.0617370605469,16.0622940063477,16.0628490447998,16.0634059906006,16.0639629364014,16.0645198822021,16.0650768280029,16.0656337738037,16.0661907196045,16.0667476654053,16.0673046112061,16.0678615570068,16.0684185028076,16.0689735412598,16.0695323944092,16.07008934021,16.0706462860107,16.0712032318115,16.0717601776123,16.0723171234131,16.0728740692139,16.0734329223633,16.0739898681641,16.0745468139648,16.0751037597656,16.075662612915,16.0762195587158,16.0767765045166,16.077335357666,16.0778923034668,16.0784492492676,16.079008102417,16.0795650482178,16.0801239013672,16.080680847168,16.0812397003174,16.0817966461182,16.0823535919189,16.0829124450684,16.0834712982178,16.0840282440186,16.084587097168,16.0851440429688,16.0857028961182,16.0862617492676,16.0868186950684,16.0873775482178,16.0879364013672,16.0884952545166,16.0890522003174,16.0896110534668,16.0901699066162,16.0907287597656,16.091287612915,16.0918464660645,16.0924034118652,16.0929622650146,16.0935211181641,16.0940799713135,16.0946388244629,16.0951976776123,16.0957565307617,16.0963153839111,16.0968742370605,16.09743309021,16.0979919433594,16.0985527038574,16.0991115570068,16.0996704101562,16.1002292633057,16.1007881164551,16.1013488769531,16.1019077301025,16.102466583252,16.1030254364014,16.1035842895508,16.1041450500488,16.1047039031982,16.1052627563477,16.1058235168457,16.1063823699951,16.1069412231445,16.1075019836426,16.108060836792,16.10862159729,16.1091804504395,16.1097412109375,16.1103000640869,16.110860824585,16.111421585083,16.1119804382324,16.1125411987305,16.1131000518799,16.1136608123779,16.114221572876,16.1147804260254,16.1153411865234,16.1159019470215,16.1164627075195,16.1170234680176,16.117582321167,16.118143081665,16.1187038421631,16.1192646026611,16.1198253631592,16.1203861236572,16.1209449768066,16.1215057373047,16.1220664978027,16.1226272583008,16.1231880187988,16.1237506866455,16.1243095397949,16.1248722076416,16.1254329681396,16.1259937286377,16.1265544891357,16.1271152496338,16.1276760101318,16.1282367706299,16.1287994384766,16.1293601989746,16.1299209594727,16.1304817199707,16.1310443878174,16.1316051483154,16.1321659088135,16.1327285766602,16.1332893371582,16.1338500976562,16.1344127655029,16.134973526001,16.1355361938477,16.1360969543457,16.1366596221924,16.1372203826904,16.1377830505371,16.1383438110352,16.1389064788818,16.1394691467285,16.1400299072266,16.1405925750732,16.1411533355713,16.141716003418,16.1422786712646,16.1428394317627,16.1434020996094,16.1439647674561,16.1445274353027,16.1450901031494,16.1456527709961,16.1462135314941,16.1467761993408,16.1473388671875,16.1479015350342,16.1484642028809,16.1490268707275,16.1495895385742,16.1501522064209,16.1507148742676,16.1512775421143,16.1518402099609,16.1524028778076,16.1529655456543,16.153528213501,16.1540908813477,16.154655456543,16.1552181243896,16.1557807922363,16.156343460083,16.1569061279297,16.1574687957764,16.1580333709717,16.1585960388184,16.159158706665,16.1597232818604,16.160285949707,16.1608505249023,16.161413192749,16.1619758605957,16.162540435791,16.1631031036377,16.163667678833,16.1642303466797,16.164794921875,16.1653575897217,16.165922164917,16.1664848327637,16.167049407959,16.1676139831543,16.168176651001,16.1687412261963,16.1693058013916,16.1698684692383,16.1704330444336,16.1709976196289,16.1715621948242,16.1721267700195,16.1726894378662,16.1732540130615,16.1738185882568,16.1743831634521,16.1749477386475,16.1755123138428,16.1760768890381,16.1766395568848,16.1772060394287,16.177770614624,16.1783351898193,16.1788997650146,16.17946434021,16.1800289154053,16.1805934906006,16.1811580657959,16.1817226409912,16.1822872161865,16.1828517913818,16.1834182739258,16.1839828491211,16.1845474243164,16.1851119995117,16.1856784820557,16.186243057251,16.1868076324463,16.1873741149902,16.1879386901855,16.1885032653809,16.1890697479248,16.1896343231201,16.1902008056641,16.1907653808594,16.1913318634033,16.1918964385986,16.1924629211426,16.1930294036865,16.1935939788818,16.1941604614258,16.1947250366211,16.195291519165,16.1958560943604,16.1964225769043,0,0,0,0,0,0,0,0,0,0,0,0,0,0,0,0,0,0,0,0,0,0,0,0,0,0,0,0,0,0,0,0,0,0,0,0,0,0,0,0,0,0,0,0,0,0,0,0,0,0,0,0,0,0,0,0,0,0,0
15.8764667510986,15.877010345459,15.8775548934937,15.8780975341797,15.8786420822144,15.8791856765747,15.8797302246094,15.8802738189697,15.8808183670044,15.8813629150391,15.8819055557251,15.8824501037598,15.8829946517944,15.8835391998291,15.8840827941895,15.8846273422241,15.8851718902588,15.8857164382935,15.8862600326538,15.8868055343628,15.8873491287231,15.8878936767578,15.8884382247925,15.8889827728271,15.8895282745361,15.8900728225708,15.8906173706055,15.8911619186401,15.8917064666748,15.8922510147095,15.8927965164185,15.8933410644531,15.8938856124878,15.8944311141968,15.8949756622314,15.8955211639404,15.8960666656494,15.8966112136841,15.8971567153931,15.8977022171021,15.8982467651367,15.8987922668457,15.8993377685547,15.8998832702637,15.9004287719727,15.9009733200073,15.9015197753906,15.9020643234253,15.9026107788086,15.9031553268433,15.9037017822266,15.9042472839355,15.9047927856445,15.9053382873535,15.9058837890625,15.9064302444458,15.9069757461548,15.9075222015381,15.9080677032471,15.9086141586304,15.9091596603394,15.9097051620483,15.9102516174316,15.9107980728149,15.9113435745239,15.9118900299072,15.9124364852905,15.9129829406738,15.9135284423828,15.9140748977661,15.9146213531494,15.9151678085327,15.915714263916,15.9162607192993,15.9168071746826,15.9173536300659,15.9179010391235,15.9184465408325,15.9189939498901,15.9195404052734,15.9200868606567,15.9206342697144,15.9211807250977,15.921727180481,15.9222745895386,15.9228210449219,15.9233675003052,15.9239158630371,15.9244623184204,15.925009727478,15.9255561828613,15.9261035919189,15.9266510009766,15.9271974563599,15.9277458190918,15.9282922744751,15.9288396835327,15.9293870925903,15.9299345016479,15.9304819107056,15.9310293197632,15.9315767288208,15.9321250915527,15.9326725006104,15.933219909668,15.9337673187256,15.9343156814575,15.9348630905151,15.9354104995728,15.9359588623047,15.9365062713623,15.9370546340942,15.9376020431519,15.9381504058838,15.9386978149414,15.9392461776733,15.9397945404053,15.9403429031372,15.9408903121948,15.9414386749268,15.9419870376587,15.9425354003906,15.9430837631226,15.9436321258545,15.9441804885864,15.9447288513184,15.9452772140503,15.9458255767822,15.9463748931885,15.9469232559204,15.9474716186523,15.9480209350586,15.9485683441162,15.9491176605225,15.9496660232544,15.9502153396606,15.9507637023926,15.9513130187988,15.9518623352051,15.952410697937,15.9529600143433,15.9535093307495,15.9540576934814,15.9546070098877,15.9551563262939,15.9557056427002,15.9562540054321,15.9568033218384,15.9573535919189,15.9579029083252,15.9584522247314,15.9590005874634,15.9595508575439,15.9601001739502,15.9606494903564,15.961199760437,15.9617490768433,15.9622983932495,15.9628477096558,15.9633979797363,15.9639472961426,15.9644975662231,15.9650478363037,15.96559715271,15.9661474227905,15.9666967391968,15.9672470092773,15.9677963256836,15.9683475494385,15.9688968658447,15.9694471359253,15.9699974060059,15.9705476760864,15.971097946167,15.9716482162476,15.9721984863281,15.9727487564087,15.9732990264893,15.9738502502441,15.9743995666504,15.9749507904053,15.9755010604858,15.9760513305664,15.9766025543213,15.9771528244019,15.9777040481567,15.9782543182373,15.9788055419922,15.9793558120728,15.9799070358276,15.9804573059082,15.9810085296631,15.981559753418,15.9821109771729,15.9826612472534,15.9832124710083,15.9837636947632,15.9843149185181,15.9848661422729,15.9854173660278,15.9859685897827,15.9865198135376,15.9870719909668,15.9876232147217,15.9881734848022,15.9887256622314,15.9892768859863,15.9898290634155,15.9903802871704,15.9909324645996,15.9914836883545,15.9920349121094,15.9925870895386,15.9931392669678,15.9936904907227,15.9942426681519,15.9947948455811,15.9953460693359,15.9958982467651,15.99644947052,15.9970026016235,15.9975538253784,15.9981060028076,15.9986591339111,15.9992113113403,15.9997625350952,16.0003147125244,16.0008678436279,16.0014190673828,16.0019721984863,16.0025253295898,16.0030765533447,16.0036296844482,16.0041809082031,16.0047340393066,16.0052871704102,16.0058403015137,16.0063915252686,16.0069446563721,16.0074977874756,16.0080509185791,16.0086040496826,16.0091571807861,16.009708404541,16.0102615356445,16.010814666748,16.0113677978516,16.0119209289551,16.0124740600586,16.0130271911621,16.0135803222656,16.0141334533691,16.0146865844727,16.0152397155762,16.0157928466797,16.0163478851318,16.0169010162354,16.0174541473389,16.0180072784424,16.0185604095459,16.019115447998,16.0196685791016,16.0202217102051,16.0207748413086,16.0213298797607,16.0218830108643,16.0224361419678,16.0229911804199,16.0235443115234,16.0240993499756,16.0246524810791,16.0252056121826,16.0257606506348,16.0263137817383,16.0268688201904,16.0274219512939,16.0279769897461,16.0285301208496,16.0290851593018,16.0296382904053,16.0301933288574,16.0307483673096,16.0313034057617,16.0318565368652,16.0324115753174,16.0329666137695,16.033519744873,16.0340747833252,16.0346298217773,16.0351848602295,16.035737991333,16.0362949371338,16.0368499755859,16.0374031066895,16.0379581451416,16.0385131835938,16.0390682220459,16.039623260498,16.0401782989502,16.0407333374023,16.0412883758545,16.0418434143066,16.0423984527588,16.0429534912109,16.0435085296631,16.0440635681152,16.044620513916,16.0451755523682,16.0457305908203,16.0462856292725,16.0468406677246,16.0473957061768,16.0479526519775,16.0485076904297,16.0490627288818,16.0496196746826,16.0501747131348,16.0507316589355,16.0512866973877,16.0518417358398,16.0523986816406,16.0529537200928,16.0535087585449,16.0540657043457,16.0546226501465,16.0551776885986,16.0557346343994,0,0,0,0,0,0,0,0,0,0,0,0,0,0,0,0,0,0,0,0,0,0,0,0,0,0,0,0,0,0,0,0,0,0,0,0,0,0,0,0,0,0,0,0,0,0,0,0,0,0,0,0,0,0
15.7385864257812,15.7391204833984,15.7396545410156,15.7401895523071,15.7407236099243,15.7412586212158,15.741792678833,15.7423276901245,15.7428617477417,15.7433967590332,15.7439317703247,15.7444667816162,15.7450008392334,15.7455358505249,15.7460699081421,15.7466049194336,15.7471399307251,15.7476749420166,15.7482109069824,15.7487459182739,15.7492809295654,15.7498149871826,15.7503509521484,15.7508859634399,15.7514209747314,15.7519559860229,15.7524919509888,15.7530269622803,15.7535619735718,15.7540979385376,15.7546329498291,15.7551689147949,15.7557039260864,15.7562398910522,15.7567749023438,15.7573108673096,15.7578468322754,15.7583818435669,15.7589178085327,15.7594528198242,15.7599897384644,15.7605257034302,15.761061668396,15.7615976333618,15.7621335983276,15.7626686096191,15.763204574585,15.7637414932251,15.7642774581909,15.7648134231567,15.7653493881226,15.7658853530884,15.7664213180542,15.7669582366943,15.7674942016602,15.7680311203003,15.7685670852661,15.7691030502319,15.7696399688721,15.7701768875122,15.770712852478,15.7712488174438,15.7717866897583,15.7723226547241,15.7728586196899,15.7733964920044,15.7739334106445,15.7744693756104,15.7750062942505,15.7755432128906,15.7760801315308,15.7766170501709,15.777153968811,15.7776908874512,15.7782278060913,15.7787656784058,15.7793025970459,15.779839515686,15.7803764343262,15.7809143066406,15.7814512252808,15.7819881439209,15.782525062561,15.7830629348755,15.7835998535156,15.7841377258301,15.7846755981445,15.7852125167847,15.7857503890991,15.7862882614136,15.786826133728,15.7873630523682,15.7879009246826,15.7884387969971,15.7889766693115,15.7895135879517,15.7900524139404,15.7905902862549,15.791127204895,15.7916660308838,15.7922029495239,15.7927417755127,15.7932796478271,15.7938175201416,15.7943563461304,15.7948951721191,15.7954320907593,15.795970916748,15.7965087890625,15.7970476150513,15.7975854873657,15.7981243133545,15.7986621856689,15.7992010116577,15.7997398376465,15.8002777099609,15.8008165359497,15.8013544082642,15.8018932342529,15.8024320602417,15.8029718399048,15.8035097122192,15.8040494918823,15.8045873641968,15.8051261901855,15.8056650161743,15.8062047958374,15.8067436218262,15.8072824478149,15.8078212738037,15.8083600997925,15.8088998794556,15.8094387054443,15.8099784851074,15.8105173110962,15.811056137085,15.8115949630737,15.8121347427368,15.8126745223999,15.8132133483887,15.8137531280518,15.8142929077148,15.8148326873779,15.8153715133667,15.8159112930298,15.8164510726929,15.816990852356,15.817530632019,15.8180704116821,15.8186101913452,15.819149017334,15.8196897506714,15.8202295303345,15.8207693099976,15.821310043335,15.821849822998,15.8223896026611,15.8229293823242,15.8234701156616,15.8240098953247,15.8245496749878,15.8250904083252,15.8256301879883,15.8261709213257,15.8267116546631,15.8272514343262,15.8277921676636,15.828332901001,15.8288726806641,15.8294134140015,15.8299541473389,15.8304948806763,15.8310346603394,15.8315763473511,15.8321161270142,15.8326568603516,15.833197593689,15.8337392807007,15.8342800140381,15.8348207473755,15.8353614807129,15.8359031677246,15.8364429473877,15.8369846343994,15.8375253677368,15.8380661010742,15.8386077880859,15.8391494750977,15.8396902084351,15.8402309417725,15.8407726287842,15.8413143157959,15.8418560028076,15.842396736145,15.8429384231567,15.8434801101685,15.8440217971802,15.8445634841919,15.8451042175293,15.845645904541,15.8461875915527,15.8467292785645,15.8472719192505,15.8478126525879,15.8483552932739,15.8488969802856,15.8494386672974,15.8499803543091,15.8505229949951,15.8510637283325,15.8516063690186,15.8521480560303,15.8526906967163,15.853232383728,15.8537750244141,15.8543176651001,15.8548603057861,15.8554019927979,15.8559446334839,15.8564872741699,15.8570289611816,15.8575716018677,15.8581142425537,15.8586568832397,15.8591985702515,15.8597412109375,15.8602838516235,15.8608274459839,15.8613691329956,15.8619117736816,15.862455368042,15.862998008728,15.8635406494141,15.8640842437744,15.8646268844604,15.8651695251465,15.8657131195068,15.8662557601929,15.8667993545532,15.8673419952393,15.8678855895996,15.8684282302856,15.868971824646,15.869514465332,15.8700580596924,15.8706016540527,15.8711442947388,15.8716878890991,15.8722314834595,15.8727750778198,15.8733186721802,15.8738622665405,15.8744058609009,15.8749494552612,15.8754930496216,15.8760375976562,15.8765811920166,15.877124786377,15.8776683807373,15.8782119750977,15.878755569458,15.8793001174927,15.879843711853,15.8803882598877,15.880931854248,15.8814764022827,15.8820199966431,15.8825645446777,15.8831081390381,15.8836526870728,15.8841972351074,15.8847417831421,15.8852853775024,15.8858299255371,15.8863744735718,15.8869190216064,15.8874635696411,15.8880081176758,15.8885526657104,15.8890972137451,15.8896417617798,15.8901863098145,15.8907308578491,15.8912763595581,15.8918209075928,15.8923654556274,15.8929100036621,15.8934555053711,15.8940000534058,15.8945446014404,15.8950910568237,15.8956356048584,15.8961801528931,15.8967256546021,15.897271156311,15.8978157043457,15.8983612060547,15.8989067077637,15.8994522094727,15.8999977111816,15.9005422592163,15.9010887145996,15.9016332626343,15.9021787643433,15.9027242660522,15.9032707214355,15.9038152694702,15.9043607711792,15.9049072265625,15.9054527282715,15.9059982299805,15.9065437316895,15.9070901870728,15.9076356887817,15.908182144165,15.908727645874,15.9092741012573,15.9098196029663,15.9103660583496,15.9109125137329,15.9114580154419,15.9120044708252,15.9125499725342,15.9130973815918,15.9136428833008,15.9141893386841,15.9147357940674,15.9152822494507,15.915828704834,15.9163751602173,15.9169216156006,15.9174690246582,0,0,0,0,0,0,0,0,0,0,0,0,0,0,0,0,0,0,0,0,0,0,0,0,0,0,0,0,0,0,0,0,0,0,0,0,0,0,0,0,0,0,0,0,0,0,0,0,0
15.6030797958374,15.6036052703857,15.6041297912598,15.6046552658081,15.6051807403564,15.6057062149048,15.6062316894531,15.6067562103271,15.6072826385498,15.6078071594238,15.6083335876465,15.6088590621948,15.6093845367432,15.6099100112915,15.6104364395142,15.6109619140625,15.6114873886108,15.6120128631592,15.6125383377075,15.6130647659302,15.6135902404785,15.6141166687012,15.6146421432495,15.6151685714722,15.6156940460205,15.6162204742432,15.6167459487915,15.6172733306885,15.6177988052368,15.6183252334595,15.6188516616821,15.6193771362305,15.6199035644531,15.6204299926758,15.6209564208984,15.6214828491211,15.6220102310181,15.6225357055664,15.6230621337891,15.623589515686,15.6241159439087,15.6246423721313,15.625168800354,15.625696182251,15.6262226104736,15.6267490386963,15.6272764205933,15.6278028488159,15.6283292770386,15.6288566589355,15.6293840408325,15.6299104690552,15.6304378509521,15.6309652328491,15.6314916610718,15.6320190429688,15.6325454711914,15.6330728530884,15.6336011886597,15.6341276168823,15.6346549987793,15.6351823806763,15.6357097625732,15.6362371444702,15.6367645263672,15.6372919082642,15.6378192901611,15.6383466720581,15.6388750076294,15.6394023895264,15.6399297714233,15.6404581069946,15.6409854888916,15.6415138244629,15.6420412063599,15.6425695419312,15.6430969238281,15.6436243057251,15.6441526412964,15.6446800231934,15.6452083587646,15.6457366943359,15.6462650299072,15.6467924118042,15.6473217010498,15.6478490829468,15.6483774185181,15.6489057540894,15.6494340896606,15.6499624252319,15.6504907608032,15.6510190963745,15.6515474319458,15.6520767211914,15.6526041030884,15.653133392334,15.6536617279053,15.6541910171509,15.6547193527222,15.6552476882935,15.6557760238647,15.6563053131104,15.6568336486816,15.6573619842529,15.6578922271729,15.6584205627441,15.6589488983154,15.659478187561,15.6600074768066,15.6605367660522,15.6610660552979,15.6615953445435,15.6621236801147,15.6626529693604,15.6631832122803,15.6637115478516,15.6642408370972,15.6647701263428,15.6652994155884,15.665828704834,15.6663579940796,15.6668882369995,15.6674175262451,15.6679468154907,15.6684770584106,15.6690073013306,15.6695356369019,15.6700658798218,15.6705951690674,15.6711254119873,15.6716547012329,15.6721839904785,15.6727151870728,15.6732444763184,15.6737747192383,15.6743040084839,15.6748352050781,15.6753644943237,15.6758947372437,15.6764249801636,15.6769552230835,15.6774854660034,15.678014755249,15.6785459518433,15.6790761947632,15.6796064376831,15.680136680603,15.6806669235229,15.6811971664429,15.6817283630371,15.682258605957,15.682788848877,15.6833200454712,15.6838502883911,15.6843814849854,15.6849117279053,15.6854419708252,15.6859731674194,15.6865043640137,15.6870346069336,15.6875658035278,15.6880970001221,15.6886281967163,15.6891584396362,15.6896896362305,15.6902208328247,15.6907510757446,15.6912832260132,15.6918144226074,15.6923456192017,15.6928758621216,15.6934080123901,15.6939392089844,15.6944704055786,15.6950016021729,15.6955337524414,15.6960649490356,15.6965951919556,15.6971273422241,15.6976594924927,15.6981906890869,15.6987218856812,15.6992540359497,15.6997861862183,15.7003173828125,15.7008495330811,15.7013816833496,15.7019128799438,15.7024450302124,15.702977180481,15.7035083770752,15.7040405273438,15.7045726776123,15.7051048278809,15.7056369781494,15.706169128418,15.7067012786865,15.7072334289551,15.7077655792236,15.7082977294922,15.7088308334351,15.7093629837036,15.7098951339722,15.7104272842407,15.7109603881836,15.7114925384521,15.7120246887207,15.7125577926636,15.7130899429321,15.713623046875,15.7141551971436,15.7146883010864,15.7152214050293,15.7157535552979,15.7162857055664,15.7168197631836,15.7173519134521,15.717885017395,15.7184181213379,15.7189512252808,15.7194843292236,15.7200174331665,15.7205505371094,15.7210836410522,15.7216167449951,15.7221508026123,15.7226839065552,15.7232160568237,15.7237491607666,15.7242832183838,15.724817276001,15.7253503799438,15.7258834838867,15.7264175415039,15.7269506454468,15.7274837493896,15.7280178070068,15.728551864624,15.7290859222412,15.7296190261841,15.7301530838013,15.7306871414185,15.7312202453613,15.7317543029785,15.7322883605957,15.7328224182129,15.7333555221558,15.7338905334473,15.7344236373901,15.7349586486816,15.7354927062988,15.7360258102417,15.7365608215332,15.7370948791504,15.7376298904419,15.7381629943848,15.7386980056763,15.7392320632935,15.739767074585,15.7403011322021,15.7408351898193,15.7413702011108,15.7419052124023,15.7424392700195,15.742974281311,15.7435083389282,15.7440433502197,15.7445783615112,15.7451133728027,15.7456474304199,15.7461824417114,15.7467174530029,15.7472524642944,15.7477874755859,15.7483224868774,15.7488574981689,15.7493925094604,15.749927520752,15.7504625320435,15.7509984970093,15.7515335083008,15.7520685195923,15.7526044845581,15.7531394958496,15.7536745071411,15.7542095184326,15.7547454833984,15.7552804946899,15.7558155059814,15.7563514709473,15.7568874359131,15.7574234008789,15.7579584121704,15.7584943771362,15.7590303421021,15.7595663070679,15.7601013183594,15.7606382369995,15.761173248291,15.7617092132568,15.762246131897,15.7627811431885,15.7633171081543,15.7638530731201,15.7643899917603,15.7649259567261,15.7654619216919,15.7659969329834,15.7665348052979,15.7670707702637,15.7676067352295,15.7681436538696,15.7686786651611,15.7692155838013,15.7697515487671,15.7702894210815,15.7708253860474,15.7713623046875,15.7718982696533,15.7724351882935,15.7729721069336,15.7735090255737,15.7740449905396,15.774582862854,15.7751188278198,15.77565574646,15.7761926651001,15.7767295837402,15.7772665023804,15.7778034210205,15.7783403396606,15.7788772583008,15.7794151306152,15.7799520492554,15.7804889678955,15.7810258865356,15.7815637588501,0,0,0,0,0,0,0,0,0,0,0,0,0,0,0,0,0,0,0,0,0,0,0,0,0,0,0,0,0,0,0,0,0,0,0,0,0,0,0,0,0,0,0,0
15.4698867797852,15.4704027175903,15.4709196090698,15.471435546875,15.4719514846802,15.4724683761597,15.4729852676392,15.4735012054443,15.4740180969238,15.474534034729,15.4750509262085,15.475567817688,15.4760837554932,15.4766006469727,15.4771175384521,15.4776344299316,15.4781513214111,15.4786682128906,15.4791851043701,15.4797019958496,15.4802188873291,15.4807357788086,15.4812526702881,15.4817695617676,15.4822874069214,15.4828033447266,15.4833211898804,15.4838380813599,15.4843559265137,15.4848728179932,15.485390663147,15.4859075546265,15.4864253997803,15.4869422912598,15.4874591827393,15.4879770278931,15.4884939193726,15.4890117645264,15.4895296096802,15.490047454834,15.4905643463135,15.4910831451416,15.4916000366211,15.4921178817749,15.4926357269287,15.4931535720825,15.4936714172363,15.4941892623901,15.4947071075439,15.4952249526978,15.4957427978516,15.4962606430054,15.4967794418335,15.4972972869873,15.4978151321411,15.4983329772949,15.498851776123,15.4993696212769,15.499888420105,15.5004062652588,15.5009241104126,15.501443862915,15.5019617080688,15.502480506897,15.5029983520508,15.5035171508789,15.5040349960327,15.5045547485352,15.505072593689,15.5055913925171,15.5061101913452,15.506628036499,15.5071468353271,15.5076656341553,15.5081853866577,15.5087041854858,15.509222984314,15.5097417831421,15.5102605819702,15.5107793807983,15.5112981796265,15.5118179321289,15.512336730957,15.5128564834595,15.5133743286133,15.5138940811157,15.5144138336182,15.5149326324463,15.5154514312744,15.5159711837769,15.516489982605,15.5170097351074,15.5175294876099,15.5180492401123,15.5185680389404,15.5190877914429,15.5196075439453,15.5201272964478,15.5206460952759,15.5211668014526,15.5216865539551,15.5222053527832,15.52272605896,15.5232458114624,15.5237655639648,15.5242853164673,15.524806022644,15.5253257751465,15.5258445739746,15.5263652801514,15.5268850326538,15.5274057388306,15.527925491333,15.5284461975098,15.5289659500122,15.529486656189,15.5300064086914,15.5305271148682,15.5310468673706,15.5315675735474,15.5320873260498,15.5326080322266,15.5331287384033,15.5336484909058,15.5341701507568,15.5346899032593,15.535210609436,15.5357313156128,15.5362529754639,15.5367727279663,15.5372934341431,15.5378150939941,15.5383358001709,15.5388565063477,15.5393772125244,15.5398988723755,15.5404195785522,15.540940284729,15.5414609909058,15.5419826507568,15.5425033569336,15.5430240631104,15.5435457229614,15.5440673828125,15.5445880889893,15.545108795166,15.5456314086914,15.5461521148682,15.5466728210449,15.547194480896,15.5477161407471,15.5482378005981,15.5487594604492,15.5492811203003,15.5498027801514,15.5503234863281,15.5508460998535,15.5513668060303,15.5518894195557,15.5524110794067,15.5529327392578,15.5534543991089,15.55397605896,15.5544986724854,15.5550203323364,15.5555429458618,15.5560636520386,15.556586265564,15.5571088790894,15.5576305389404,15.5581521987915,15.5586748123169,15.5591974258423,15.5597190856934,15.5602416992188,15.5607643127441,15.5612859725952,15.5618085861206,15.562331199646,15.5628538131714,15.5633764266968,15.5638980865479,15.5644207000732,15.5649442672729,15.565465927124,15.5659894943237,15.5665121078491,15.5670347213745,15.5675573348999,15.5680809020996,15.568603515625,15.5691261291504,15.5696487426758,15.5701723098755,15.5706949234009,15.5712175369263,15.571741104126,15.5722637176514,15.5727872848511,15.5733108520508,15.5738334655762,15.5743570327759,15.5748805999756,15.575403213501,15.5759267807007,15.5764503479004,15.5769739151001,15.5774974822998,15.5780200958252,15.5785446166992,15.5790672302246,15.5795917510986,15.580114364624,15.580638885498,15.5811624526978,15.5816860198975,15.5822095870972,15.5827341079712,15.5832576751709,15.5837812423706,15.5843048095703,15.5848293304443,15.585352897644,15.5858774185181,15.5864019393921,15.5869255065918,15.5874500274658,15.5879735946655,15.5884981155396,15.5890216827393,15.5895462036133,15.5900707244873,15.590594291687,15.591118812561,15.5916433334351,15.5921678543091,15.5926923751831,15.5932168960571,15.5937414169312,15.5942668914795,15.5947904586792,15.5953159332275,15.5958404541016,15.5963649749756,15.5968894958496,15.5974140167236,15.597939491272,15.598464012146,15.5989894866943,15.5995140075684,15.6000394821167,15.6005640029907,15.6010885238647,15.6016149520874,15.6021394729614,15.6026639938354,15.6031894683838,15.6037149429321,15.6042404174805,15.6047649383545,15.6052904129028,15.6058158874512,15.6063413619995,15.6068668365479,15.6073923110962,15.6079177856445,15.6084432601929,15.6089696884155,15.6094951629639,15.6100196838379,15.6105461120605,15.6110715866089,15.6115980148315,15.6121234893799,15.6126489639282,15.6131744384766,15.6137008666992,15.6142263412476,15.6147527694702,15.6152791976929,15.6158046722412,15.6163311004639,15.6168565750122,15.6173830032349,15.6179084777832,15.6184358596802,15.6189613342285,15.6194877624512,15.6200141906738,15.6205406188965,15.6210670471191,15.6215934753418,15.6221199035645,15.6226463317871,15.6231727600098,15.6236991882324,15.6242265701294,15.6247529983521,15.6252794265747,15.6258058547974,15.6263332366943,15.626859664917,15.627387046814,15.6279134750366,15.6284408569336,15.6289672851562,15.6294937133789,15.6300210952759,15.6305475234985,15.6310749053955,15.6316022872925,15.6321296691895,15.6326560974121,15.6331834793091,15.6337108612061,15.634238243103,15.634765625,15.635293006897,15.6358203887939,15.6363477706909,15.6368751525879,15.6374025344849,15.6379299163818,15.6384572982788,15.6389856338501,15.6395130157471,15.640040397644,15.640567779541,15.6410970687866,15.6416234970093,15.6421518325806,15.6426801681519,15.6432075500488,15.6437358856201,15.6442632675171,15.6447916030884,15.6453189849854,15.6458473205566,15.6463756561279,15.6469039916992,15.6474313735962,0,0,0,0,0,0,0,0,0,0,0,0,0,0,0,0,0,0,0,0,0,0,0,0,0,0,0,0,0,0,0,0,0,0,0,0,0,0,0,0
15.3389482498169,15.3394556045532,15.3399639129639,15.3404712677002,15.3409786224365,15.3414869308472,15.3419942855835,15.3425025939941,15.3430099487305,15.3435182571411,15.3440256118774,15.3445339202881,15.3450412750244,15.3455495834351,15.3460578918457,15.346565246582,15.347074508667,15.3475818634033,15.348090171814,15.3485975265503,15.3491067886353,15.3496150970459,15.3501234054565,15.3506317138672,15.3511400222778,15.3516483306885,15.3521566390991,15.3526649475098,15.3531732559204,15.3536815643311,15.3541898727417,15.3546991348267,15.3552074432373,15.3557157516479,15.3562250137329,15.3567342758179,15.3572425842285,15.3577508926392,15.3582601547241,15.3587694168091,15.3592777252197,15.3597869873047,15.3602952957153,15.3608045578003,15.3613138198853,15.3618230819702,15.3623313903809,15.3628406524658,15.3633508682251,15.3638591766357,15.3643684387207,15.3648777008057,15.3653869628906,15.3658962249756,15.3664054870605,15.3669157028198,15.3674249649048,15.3679342269897,15.3684434890747,15.368953704834,15.3694629669189,15.3699722290039,15.3704814910889,15.3709917068481,15.3715019226074,15.3720111846924,15.3725214004517,15.3730306625366,15.3735408782959,15.3740501403809,15.3745603561401,15.3750705718994,15.3755798339844,15.3760900497437,15.3766002655029,15.3771104812622,15.3776197433472,15.3781309127808,15.37864112854,15.3791513442993,15.3796615600586,15.3801717758179,15.3806819915771,15.3811922073364,15.3817024230957,15.3822135925293,15.3827228546143,15.3832340240479,15.3837442398071,15.3842544555664,15.384765625,15.3852758407593,15.3857870101929,15.3862972259521,15.3868083953857,15.3873195648193,15.3878297805786,15.3883409500122,15.3888521194458,15.3893623352051,15.3898735046387,15.3903837203979,15.3908958435059,15.3914060592651,15.3919172286987,15.3924283981323,15.3929395675659,15.3934507369995,15.3939619064331,15.3944730758667,15.3949842453003,15.3954963684082,15.3960065841675,15.3965187072754,15.397029876709,15.3975410461426,15.3980531692505,15.3985643386841,15.399076461792,15.3995876312256,15.4000997543335,15.4006109237671,15.4011220932007,15.4016342163086,15.4021453857422,15.4026575088501,15.4031686782837,15.4036817550659,15.4041929244995,15.4047050476074,15.405216217041,15.4057292938232,15.4062404632568,15.4067525863647,15.4072647094727,15.4077768325806,15.4082889556885,15.4088010787964,15.4093132019043,15.4098262786865,15.4103384017944,15.4108505249023,15.4113626480103,15.4118747711182,15.4123878479004,15.4128999710083,15.4134130477905,15.4139251708984,15.4144382476807,15.4149503707886,15.4154624938965,15.4159755706787,15.4164876937866,15.4170007705688,15.4175138473511,15.418025970459,15.4185390472412,15.4190521240234,15.4195652008057,15.4200782775879,15.4205904006958,15.4211044311523,15.4216165542603,15.4221305847168,15.422643661499,15.4231557846069,15.4236698150635,15.4241828918457,15.4246959686279,15.4252090454102,15.4257230758667,15.4262361526489,15.4267492294312,15.4272623062134,15.4277763366699,15.4282894134521,15.4288024902344,15.4293165206909,15.4298305511475,15.4303436279297,15.4308576583862,15.4313707351685,15.431884765625,15.4323987960815,15.4329128265381,15.4334268569946,15.4339399337769,15.4344539642334,15.4349679946899,15.4354820251465,15.4359951019287,15.4365100860596,15.4370241165161,15.4375381469727,15.4380521774292,15.4385662078857,15.4390802383423,15.4395942687988,15.4401092529297,15.4406232833862,15.4411373138428,15.4416513442993,15.4421663284302,15.4426803588867,15.4431953430176,15.4437093734741,15.444224357605,15.4447393417358,15.4452533721924,15.4457683563232,15.4462823867798,15.4467973709106,15.4473123550415,15.4478273391724,15.4483423233032,15.4488563537598,15.4493713378906,15.4498863220215,15.4504013061523,15.4509162902832,15.4514322280884,15.4519462585449,15.4524612426758,15.4529762268066,15.4534921646118,15.4540071487427,15.4545221328735,15.4550380706787,15.4555521011353,15.4560680389404,15.4565830230713,15.4570989608765,15.4576139450073,15.4581298828125,15.4586448669434,15.4591617584229,15.4596757888794,15.4601917266846,15.4607076644897,15.4612226486206,15.4617395401001,15.462254524231,15.4627704620361,15.463285446167,15.4638023376465,15.4643182754517,15.4648342132568,15.4653491973877,15.4658660888672,15.4663820266724,15.4668979644775,15.4674139022827,15.4679298400879,15.4684467315674,15.4689617156982,15.4694786071777,15.4699945449829,15.4705114364624,15.4710273742676,15.4715442657471,15.4720602035522,15.4725761413574,15.4730930328369,15.4736099243164,15.4741258621216,15.4746427536011,15.4751586914062,15.4756765365601,15.4761924743652,15.4767093658447,15.4772262573242,15.4777431488037,15.4782600402832,15.4787759780884,15.4792928695679,15.4798097610474,15.4803266525269,15.4808444976807,15.4813613891602,15.4818782806396,15.4823951721191,15.4829130172729,15.4834289550781,15.4839468002319,15.4844636917114,15.4849815368652,15.4854984283447,15.4860153198242,15.4865341186523,15.4870500564575,15.4875679016113,15.4880847930908,15.4886035919189,15.4891204833984,15.4896383285522,15.4901561737061,15.4906740188599,15.4911909103394,15.4917087554932,15.492226600647,15.4927444458008,15.4932622909546,15.4937801361084,15.4942979812622,15.494815826416,15.4953336715698,15.4958515167236,15.4963693618774,15.4968872070312,15.4974060058594,15.4979238510132,15.498441696167,15.4989604949951,15.4994783401489,15.4999971389771,15.5005149841309,15.501033782959,15.5015516281128,15.5020704269409,15.5025882720947,15.5031070709229,15.503625869751,15.5041437149048,15.5046625137329,15.505181312561,15.5057001113892,15.506217956543,15.5067377090454,15.5072565078735,15.5077753067017,15.5082931518555,15.5088129043579,15.509331703186,15.5098505020142,15.5103693008423,15.5108880996704,15.5114078521729,15.511926651001,15.5124454498291,15.5129642486572,15.5134840011597,15.5140027999878,15.5145225524902,15.5150413513184,15.5155611038208,15.5160799026489,0,0,0,0,0,0,0,0,0,0,0,0,0,0,0,0,0,0,0,0,0,0,0,0,0,0,0,0,0,0,0,0,0,0,0
15.2102079391479,15.2107076644897,15.2112064361572,15.2117052078247,15.2122049331665,15.212703704834,15.2132034301758,15.2137031555176,15.2142019271851,15.2147006988525,15.2152004241943,15.2156991958618,15.2161998748779,15.2166986465454,15.2171983718872,15.217698097229,15.2181978225708,15.2186975479126,15.2191972732544,15.2196969985962,15.2201957702637,15.2206954956055,15.2211961746216,15.2216958999634,15.2221946716309,15.222695350647,15.2231950759888,15.2236957550049,15.2241945266724,15.2246952056885,15.2251949310303,15.2256956100464,15.2261953353882,15.2266960144043,15.2271957397461,15.2276954650879,15.228196144104,15.2286958694458,15.2291975021362,15.229697227478,15.2301979064941,15.2306976318359,15.2311983108521,15.2316989898682,15.2321996688843,15.2327003479004,15.2332000732422,15.2337017059326,15.2342014312744,15.2347030639648,15.2352027893066,15.2357044219971,15.2362041473389,15.2367057800293,15.2372055053711,15.2377071380615,15.2382078170776,15.2387084960938,15.2392101287842,15.2397108078003,15.2402124404907,15.2407131195068,15.2412137985229,15.2417154312134,15.2422170639038,15.2427177429199,15.2432193756104,15.2437200546265,15.2442216873169,15.244722366333,15.2452239990234,15.2457256317139,15.24622631073,15.2467288970947,15.2472295761108,15.2477312088013,15.2482328414917,15.2487344741821,15.2492361068726,15.249737739563,15.2502393722534,15.2507410049438,15.2512426376343,15.251745223999,15.2522468566895,15.2527484893799,15.2532501220703,15.2537527084351,15.2542543411255,15.2547559738159,15.2552585601807,15.2557601928711,15.2562627792358,15.2567644119263,15.257266998291,15.2577686309814,15.2582712173462,15.2587738037109,15.2592754364014,15.2597780227661,15.2602796554565,15.2607822418213,15.261284828186,15.2617874145508,15.2622900009155,15.2627925872803,15.263295173645,15.2637968063354,15.2643003463745,15.2648029327393,15.265305519104,15.2658081054688,15.2663116455078,15.2668132781982,15.2673168182373,15.2678194046021,15.2683229446411,15.2688255310059,15.2693281173706,15.2698316574097,15.2703342437744,15.2708368301392,15.2713403701782,15.2718439102173,15.272346496582,15.2728500366211,15.2733535766602,15.2738571166992,15.274359703064,15.274863243103,15.2753667831421,15.2758693695068,15.2763729095459,15.276876449585,15.2773809432983,15.2778835296631,15.2783870697021,15.2788906097412,15.2793941497803,15.2798976898193,15.2804021835327,15.2809057235718,15.2814092636108,15.2819128036499,15.282416343689,15.2829208374023,15.2834243774414,15.2839279174805,15.2844324111938,15.2849369049072,15.2854404449463,15.2859449386597,15.2864484786987,15.2869529724121,15.2874565124512,15.2879610061646,15.2884654998779,15.288969039917,15.2894744873047,15.2899780273438,15.2904825210571,15.2909860610962,15.2914915084839,15.2919950485229,15.2925004959106,15.2930040359497,15.2935094833374,15.2940139770508,15.2945175170898,15.2950229644775,15.2955274581909,15.2960319519043,15.2965364456177,15.2970418930054,15.2975463867188,15.2980518341064,15.2985563278198,15.2990617752075,15.2995662689209,15.3000717163086,15.300576210022,15.3010816574097,15.301586151123,15.3020906448364,15.3025970458984,15.3031015396118,15.3036069869995,15.3041124343872,15.3046178817749,15.3051223754883,15.305627822876,15.3061332702637,15.3066387176514,15.3071441650391,15.3076496124268,15.3081560134888,15.3086605072021,15.3091669082642,15.3096723556519,15.3101778030396,15.3106832504272,15.3111896514893,15.311695098877,15.3122005462646,15.3127069473267,15.3132123947144,15.3137187957764,15.3142242431641,15.3147296905518,15.3152360916138,15.3157424926758,15.3162479400635,15.3167543411255,15.3172607421875,15.3177671432495,15.3182725906372,15.3187789916992,15.3192853927612,15.3197908401489,15.3202981948853,15.3208036422729,15.3213109970093,15.321816444397,15.3223237991333,15.3228302001953,15.3233366012573,15.3238430023193,15.3243503570557,15.3248558044434,15.3253622055054,15.3258695602417,15.3263759613037,15.3268823623657,15.3273897171021,15.3278961181641,15.3284034729004,15.3289098739624,15.3294172286987,15.3299245834351,15.3304309844971,15.3309383392334,15.3314456939697,15.3319520950317,15.3324594497681,15.3329668045044,15.3334741592407,15.3339805603027,15.3344879150391,15.3349952697754,15.3355026245117,15.336009979248,15.3365173339844,15.3370246887207,15.337532043457,15.3380393981934,15.3385467529297,15.3390550613403,15.3395624160767,15.340069770813,15.3405780792236,15.34108543396,15.3415927886963,15.3421010971069,15.3426084518433,15.3431167602539,15.3436241149902,15.3441324234009,15.3446397781372,15.3451480865479,15.3456563949585,15.3461637496948,15.3466720581055,15.3471803665161,15.3476886749268,15.3481960296631,15.348705291748,15.3492126464844,15.3497219085693,15.3502292633057,15.3507375717163,15.3512468338013,15.3517541885376,15.3522624969482,15.3527708053589,15.3532800674438,15.3537883758545,15.3542966842651,15.3548059463501,15.3553142547607,15.3558225631714,15.3563318252563,15.356840133667,15.3573484420776,15.3578577041626,15.3583660125732,15.3588752746582,15.3593845367432,15.3598928451538,15.3604021072388,15.360912322998,15.3614206314087,15.3619298934937,15.3624382019043,15.3629474639893,15.3634567260742,15.3639659881592,15.3644752502441,15.3649845123291,15.3654937744141,15.3660039901733,15.3665132522583,15.3670215606689,15.3675317764282,15.3680410385132,15.3685503005981,15.3690595626831,15.3695697784424,15.3700790405273,15.3705892562866,15.3710985183716,15.3716077804565,15.3721179962158,15.3726272583008,15.3731374740601,15.373646736145,15.3741569519043,15.3746671676636,15.3751773834229,15.3756866455078,15.3761968612671,15.3767070770264,15.3772172927856,15.3777275085449,15.3782367706299,15.3787479400635,15.3792581558228,15.379768371582,15.3802785873413,15.3807888031006,15.3812990188599,15.3818092346191,15.3823204040527,15.3828296661377,15.3833408355713,15.3838510513306,15.3843622207642,15.3848724365234,15.385383605957,15.3858938217163,15.3864049911499,15.3869152069092,0,0,0,0,0,0,0,0,0,0,0,0,0,0,0,0,0,0,0,0,0,0,0,0,0,0,0,0,0,0
