16.9936809539795,16.9941883087158,16.9946937561035,16.9951992034912,16.9957065582275,16.9962120056152,16.9967174530029,16.9972248077393,16.997730255127,16.9982376098633,16.998743057251,16.9992504119873,16.999755859375,17.0002632141113,17.000768661499,17.0012760162354,17.001781463623,17.0022888183594,17.0027961730957,17.0033016204834,17.0038089752197,17.0043163299561,17.0048217773438,17.0053291320801,17.0058364868164,17.0063419342041,17.0068492889404,17.0073566436768,17.0078620910645,17.0083694458008,17.0088768005371,17.0093841552734,17.0098915100098,17.0103969573975,17.0109043121338,17.0114116668701,17.0119190216064,17.0124263763428,17.0129337310791,17.0134410858154,17.0139484405518,17.0144557952881,17.0149631500244,17.0154705047607,17.0159778594971,17.0164852142334,17.0169925689697,17.0174999237061,17.0180072784424,17.0185146331787,17.019021987915,17.0195293426514,17.0200366973877,17.020544052124,17.021053314209,17.0215606689453,17.0220680236816,17.022575378418,17.0230827331543,17.0235919952393,17.0240993499756,17.0246067047119,17.0251159667969,17.0256233215332,17.0261306762695,17.0266399383545,17.0271472930908,17.0276546478271,17.0281639099121,17.0286712646484,17.0291805267334,17.0296878814697,17.0301952362061,17.030704498291,17.0312118530273,17.0317211151123,17.0322284698486,17.0327377319336,17.0332469940186,17.0337543487549,17.0342636108398,17.0347709655762,17.0352802276611,17.0357894897461,17.0362968444824,17.0368061065674,17.0373153686523,17.0378227233887,17.0383319854736,17.0388412475586,17.0393486022949,17.0398578643799,17.0403671264648,17.0408763885498,17.0413856506348,17.0418930053711,17.0424022674561,17.042911529541,17.043420791626,17.0439300537109,17.0444393157959,17.0449485778809,17.0454559326172,17.0459651947021,17.0464744567871,17.0469837188721,17.047492980957,17.048002243042,17.048511505127,17.0490226745605,17.0495300292969,17.0500411987305,17.0505504608154,17.0510597229004,17.0515689849854,17.0520782470703,17.0525875091553,17.0530967712402,17.0536079406738,17.0541172027588,17.0546264648438,17.0551357269287,17.0556449890137,17.0561561584473,17.0566654205322,17.0571746826172,17.0576858520508,17.0581951141357,17.0587043762207,17.0592155456543,17.0597248077393,17.0602359771729,17.0607452392578,17.0612545013428,17.0617656707764,17.0622749328613,17.0627861022949,17.0632953643799,17.0638065338135,17.0643157958984,17.064826965332,17.065336227417,17.0658473968506,17.0663566589355,17.0668678283691,17.0673789978027,17.0678882598877,17.0683994293213,17.0689105987549,17.0694198608398,17.0699310302734,17.070442199707,17.070951461792,17.0714626312256,17.0719738006592,17.0724849700928,17.0729961395264,17.0735054016113,17.0740165710449,17.0745277404785,17.0750389099121,17.0755500793457,17.0760612487793,17.0765724182129,17.0770835876465,17.0775928497314,17.078104019165,17.0786151885986,17.0791263580322,17.0796375274658,17.0801486968994,17.080659866333,17.0811729431152,17.0816841125488,17.0821952819824,17.082706451416,17.0832176208496,17.0837287902832,17.0842399597168,17.0847511291504,17.0852642059326,17.0857753753662,17.0862865447998,17.0867977142334,17.087308883667,17.0878219604492,17.0883331298828,17.0888442993164,17.08935546875,17.0898685455322,17.0903797149658,17.090892791748,17.0914039611816,17.0919151306152,17.0924282073975,17.0929393768311,17.0934524536133,17.0939636230469,17.0944747924805,17.0949878692627,17.0955009460449,17.0960121154785,17.0965251922607,17.0970363616943,17.0975494384766,17.0980606079102,17.0985736846924,17.099084854126,17.0995979309082,17.1001110076904,17.100622177124,17.1011352539062,17.1016483306885,17.1021595001221,17.1026725769043,17.1031856536865,17.1036987304688,17.1042098999023,17.1047229766846,17.1052360534668,17.105749130249,17.1062622070312,17.1067733764648,17.1072883605957,17.1077995300293,17.1083126068115,17.1088256835938,17.109338760376,17.1098518371582,17.1103649139404,17.1108779907227,17.1113910675049,17.1119041442871,17.1124172210693,17.1129302978516,17.1134433746338,17.113956451416,17.1144695281982,17.1149845123291,17.1154975891113,17.1160106658936,17.1165237426758,17.117036819458,17.1175498962402,17.1180648803711,17.1185779571533,17.1190910339355,17.1196041107178,17.1201190948486,17.1206321716309,17.1211452484131,17.1216583251953,17.1221733093262,17.1226863861084,17.1232013702393,17.1237144470215,17.1242275238037,17.1247425079346,17.1252555847168,17.1257705688477,17.1262836456299,17.1267986297607,17.127311706543,17.1278266906738,17.1283397674561,17.1288547515869,17.1293678283691,17.1298828125,17.1303958892822,17.1309108734131,17.1314258575439,17.1319389343262,17.132453918457,17.1329689025879,17.1334819793701,17.133996963501,17.1345119476318,17.1350269317627,17.1355400085449,17.1360549926758,17.1365699768066,17.1370849609375,17.1375999450684,17.1381130218506,17.1386280059814,17.1391429901123,17.1396579742432,0,0,0,0,0,0,0,0,0,0,0,0,0,0,0,0,0,0,0,0,0,0,0,0,0,0,0,0,0,0,0,0,0,0,0,0,0,0,0,0,0,0,0,0,0,0,0,0,0,0,0,0,0,0,0,0,0,0,0,0,0,0,0,0,0,0,0,0,0,0,0,0,0,0,0,0,0,0,0,0,0,0,0,0,0,0,0,0,0,0,0,0,0,0,0,0,0,0,0,0,0,0,0,0,0,0,0,0,0
16.8349838256836,16.8354797363281,16.8359775543213,16.8364734649658,16.836971282959,16.8374671936035,16.8379650115967,16.8384609222412,16.8389587402344,16.8394546508789,16.8399524688721,16.8404483795166,16.8409461975098,16.8414421081543,16.8419399261475,16.8424377441406,16.8429336547852,16.8434314727783,16.8439292907715,16.844425201416,16.8449230194092,16.8454208374023,16.8459167480469,16.84641456604,16.8469123840332,16.8474102020264,16.8479061126709,16.8484039306641,16.8489017486572,16.8493995666504,16.8498973846436,16.8503932952881,16.8508911132812,16.8513889312744,16.8518867492676,16.8523845672607,16.8528823852539,16.8533802032471,16.8538780212402,16.8543758392334,16.8548736572266,16.8553714752197,16.8558692932129,16.8563671112061,16.8568649291992,16.8573627471924,16.8578605651855,16.8583583831787,16.8588581085205,16.8593559265137,16.8598537445068,16.8603515625,16.8608493804932,16.8613471984863,16.8618469238281,16.8623447418213,16.8628425598145,16.8633403778076,16.8638401031494,16.8643379211426,16.8648357391357,16.8653335571289,16.8658332824707,16.8663311004639,16.8668308258057,16.8673286437988,16.867826461792,16.8683261871338,16.868824005127,16.8693237304688,16.8698215484619,16.8703193664551,16.8708190917969,16.87131690979,16.8718166351318,16.8723163604736,16.8728141784668,16.8733139038086,16.8738117218018,16.8743114471436,16.8748092651367,16.8753089904785,16.8758087158203,16.8763065338135,16.8768062591553,16.8773059844971,16.8778038024902,16.878303527832,16.8788032531738,16.8793029785156,16.8798007965088,16.8803005218506,16.8808002471924,16.8812999725342,16.881799697876,16.8822994232178,16.8827972412109,16.8832969665527,16.8837966918945,16.8842964172363,16.8847961425781,16.8852958679199,16.8857955932617,16.8862953186035,16.8867950439453,16.8872947692871,16.8877944946289,16.8882942199707,16.8887939453125,16.8892936706543,16.8897933959961,16.8902931213379,16.8907928466797,16.8912925720215,16.8917942047119,16.8922939300537,16.8927936553955,16.8932933807373,16.8937931060791,16.8942947387695,16.8947944641113,16.8952941894531,16.8957939147949,16.8962955474854,16.8967952728271,16.8972949981689,16.8977947235107,16.8982963562012,16.898796081543,16.8992977142334,16.8997974395752,16.900297164917,16.9007987976074,16.9012985229492,16.9018001556396,16.9022998809814,16.9028015136719,16.9033012390137,16.9038028717041,16.9043025970459,16.9048042297363,16.9053039550781,16.9058055877686,16.9063053131104,16.9068069458008,16.9073085784912,16.907808303833,16.9083099365234,16.9088115692139,16.9093112945557,16.9098129272461,16.9103145599365,16.910816192627,16.9113159179688,16.9118175506592,16.9123191833496,16.91282081604,16.9133205413818,16.9138221740723,16.9143238067627,16.9148254394531,16.9153270721436,16.915828704834,16.9163303375244,16.9168319702148,16.9173336029053,16.9178333282471,16.9183349609375,16.9188365936279,16.9193382263184,16.9198398590088,16.9203414916992,16.9208431243896,16.9213466644287,16.9218482971191,16.9223499298096,16.9228515625,16.9233531951904,16.9238548278809,16.9243564605713,16.9248580932617,16.9253616333008,16.9258632659912,16.9263648986816,16.9268665313721,16.9273681640625,16.9278717041016,16.928373336792,16.9288749694824,16.9293785095215,16.9298801422119,16.9303817749023,16.9308853149414,16.9313869476318,16.9318885803223,16.9323921203613,16.9328937530518,16.9333972930908,16.9338989257812,16.9344024658203,16.9349040985107,16.9354076385498,16.9359092712402,16.9364128112793,16.9369144439697,16.9374179840088,16.9379196166992,16.9384231567383,16.9389247894287,16.9394283294678,16.9399318695068,16.9404335021973,16.9409370422363,16.9414405822754,16.9419422149658,16.9424457550049,16.9429492950439,16.943452835083,16.9439544677734,16.9444580078125,16.9449615478516,16.9454650878906,16.9459686279297,16.9464702606201,16.9469738006592,16.9474773406982,16.9479808807373,16.9484844207764,16.9489879608154,16.9494915008545,16.9499950408936,16.9504985809326,16.9510021209717,16.9515056610107,16.9520092010498,16.9525127410889,16.9530162811279,16.953519821167,16.9540233612061,16.9545269012451,16.9550304412842,16.9555339813232,16.9560375213623,16.95654296875,16.9570465087891,16.9575500488281,16.9580535888672,16.9585571289062,16.9590625762939,16.959566116333,16.9600696563721,16.9605731964111,16.9610786437988,16.9615821838379,16.962085723877,16.9625911712646,16.9630947113037,16.9635982513428,16.9641036987305,16.9646072387695,16.9651126861572,16.9656162261963,16.9661197662354,16.966625213623,16.9671287536621,16.9676342010498,16.9681377410889,16.9686431884766,16.9691486358643,16.9696521759033,16.970157623291,16.9706611633301,16.9711666107178,16.9716701507568,16.9721755981445,16.9726810455322,16.9731845855713,16.973690032959,16.9741954803467,16.9747009277344,16.9752044677734,16.9757099151611,16.9762153625488,16.9767208099365,16.9772243499756,16.9777297973633,0,0,0,0,0,0,0,0,0,0,0,0,0,0,0,0,0,0,0,0,0,0,0,0,0,0,0,0,0,0,0,0,0,0,0,0,0,0,0,0,0,0,0,0,0,0,0,0,0,0,0,0,0,0,0,0,0,0,0,0,0,0,0,0,0,0,0,0,0,0,0,0,0,0,0,0,0,0,0,0,0,0,0,0,0,0,0,0,0,0,0,0,0,0,0,0,0,0,0,0,0,0,0,0,0,0,0,0,0,0
16.6792221069336,16.6797103881836,16.6801986694336,16.680685043335,16.681173324585,16.681661605835,16.6821479797363,16.6826362609863,16.6831245422363,16.6836109161377,16.6840991973877,16.6845874786377,16.6850757598877,16.6855621337891,16.6860504150391,16.6865386962891,16.6870269775391,16.6875152587891,16.6880035400391,16.6884899139404,16.6889781951904,16.6894664764404,16.6899547576904,16.6904430389404,16.6909313201904,16.6914196014404,16.6919078826904,16.6923961639404,16.6928844451904,16.6933727264404,16.6938610076904,16.6943492889404,16.6948375701904,16.6953258514404,16.6958141326904,16.6963024139404,16.6967926025391,16.6972808837891,16.6977691650391,16.6982574462891,16.6987457275391,16.6992340087891,16.6997241973877,16.7002124786377,16.7007007598877,16.7011890411377,16.7016792297363,16.7021675109863,16.7026557922363,16.7031440734863,16.703634262085,16.704122543335,16.7046127319336,16.7051010131836,16.7055892944336,16.7060794830322,16.7065677642822,16.7070579528809,16.7075462341309,16.7080364227295,16.7085247039795,16.7090148925781,16.7095031738281,16.7099933624268,16.7104816436768,16.7109718322754,16.7114601135254,16.711950302124,16.7124404907227,16.7129287719727,16.7134189605713,16.7139072418213,16.7143974304199,16.7148876190186,16.7153759002686,16.7158660888672,16.7163562774658,16.7168464660645,16.7173347473145,16.7178249359131,16.7183151245117,16.7188053131104,16.719295501709,16.719783782959,16.7202739715576,16.7207641601562,16.7212543487549,16.7217445373535,16.7222347259521,16.7227249145508,16.7232151031494,16.723705291748,16.7241954803467,16.7246856689453,16.7251739501953,16.7256660461426,16.7261543273926,16.7266464233398,16.7271366119385,16.7276268005371,16.7281169891357,16.7286071777344,16.729097366333,16.7295875549316,16.7300777435303,16.7305679321289,16.7310600280762,16.7315502166748,16.7320404052734,16.7325305938721,16.7330207824707,16.733512878418,16.7340030670166,16.7344932556152,16.7349853515625,16.7354755401611,16.7359657287598,16.736457824707,16.7369480133057,16.7374382019043,16.7379302978516,16.7384204864502,16.7389106750488,16.7394027709961,16.7398929595947,16.740385055542,16.7408752441406,16.7413673400879,16.7418575286865,16.7423496246338,16.7428398132324,16.7433319091797,16.743824005127,16.7443141937256,16.7448062896729,16.7452964782715,16.7457885742188,16.746280670166,16.7467708587646,16.7472629547119,16.7477550506592,16.7482452392578,16.7487373352051,16.7492294311523,16.7497215270996,16.7502117156982,16.7507038116455,16.7511959075928,16.75168800354,16.7521781921387,16.7526702880859,16.7531623840332,16.7536544799805,16.7541465759277,16.754638671875,16.7551307678223,16.7556228637695,16.7561149597168,16.7566070556641,16.7570991516113,16.7575912475586,16.7580814361572,16.7585754394531,16.7590675354004,16.7595596313477,16.7600517272949,16.7605438232422,16.7610359191895,16.7615280151367,16.762020111084,16.7625122070312,16.7630043029785,16.7634983062744,16.7639904022217,16.7644824981689,16.7649745941162,16.7654666900635,16.7659606933594,16.7664527893066,16.7669448852539,16.7674388885498,16.7679309844971,16.7684230804443,16.7689170837402,16.7694091796875,16.7699012756348,16.7703952789307,16.7708873748779,16.7713813781738,16.7718734741211,16.7723655700684,16.7728595733643,16.7733516693115,16.7738456726074,16.7743377685547,16.7748317718506,16.7753238677979,16.7758178710938,16.7763118743896,16.7768039703369,16.7772979736328,16.7777900695801,16.778284072876,16.7787780761719,16.7792701721191,16.779764175415,16.7802581787109,16.7807502746582,16.7812442779541,16.78173828125,16.7822322845459,16.7827243804932,16.7832183837891,16.783712387085,16.7842063903809,16.7847003936768,16.785192489624,16.7856864929199,16.7861804962158,16.7866744995117,16.7871685028076,16.7876625061035,16.7881565093994,16.7886505126953,16.7891445159912,16.7896385192871,16.790132522583,16.7906265258789,16.7911205291748,16.7916145324707,16.7921085357666,16.7926025390625,16.7930965423584,16.7935905456543,16.7940845489502,16.7945785522461,16.795072555542,16.7955684661865,16.7960624694824,16.7965564727783,16.7970504760742,16.7975444793701,16.7980403900146,16.7985343933105,16.7990283966064,16.7995223999023,16.8000183105469,16.8005123138428,16.8010082244873,16.8015022277832,16.8019962310791,16.8024921417236,16.8029861450195,16.8034801483154,16.80397605896,16.8044700622559,16.8049659729004,16.8054599761963,16.8059558868408,16.8064498901367,16.8069458007812,16.8074398040771,16.8079357147217,16.8084297180176,16.8089256286621,16.809419631958,16.8099155426025,16.8104114532471,16.810905456543,16.8114013671875,16.811897277832,16.8123912811279,16.8128871917725,16.813383102417,16.8138790130615,16.8143730163574,16.814868927002,16.8153648376465,16.8158588409424,16.8163547515869,16.8168506622314,16.817346572876,16.8178424835205,16.818338394165,16.8188343048096,0,0,0,0,0,0,0,0,0,0,0,0,0,0,0,0,0,0,0,0,0,0,0,0,0,0,0,0,0,0,0,0,0,0,0,0,0,0,0,0,0,0,0,0,0,0,0,0,0,0,0,0,0,0,0,0,0,0,0,0,0,0,0,0,0,0,0,0,0,0,0,0,0,0,0,0,0,0,0,0,0,0,0,0,0,0,0,0,0,0,0,0,0,0,0,0,0,0,0,0,0,0,0,0,0,0,0,0,0,0,0
16.5263175964355,16.5267963409424,16.5272750854492,16.5277538299561,16.5282325744629,16.5287113189697,16.5291900634766,16.5296688079834,16.5301475524902,16.5306262969971,16.5311050415039,16.5315837860107,16.5320625305176,16.532543182373,16.5330219268799,16.5335006713867,16.5339794158936,16.5344581604004,16.5349369049072,16.5354156494141,16.5358963012695,16.5363750457764,16.5368537902832,16.5373344421387,16.5378131866455,16.5382919311523,16.5387706756592,16.5392513275146,16.5397300720215,16.5402088165283,16.5406894683838,16.5411682128906,16.5416469573975,16.5421276092529,16.5426063537598,16.5430870056152,16.5435657501221,16.5440464019775,16.5445251464844,16.5450057983398,16.5454845428467,16.5459651947021,16.546443939209,16.5469245910645,16.5474033355713,16.5478839874268,16.5483627319336,16.5488433837891,16.5493240356445,16.5498027801514,16.5502834320068,16.5507640838623,16.5512428283691,16.5517234802246,16.5522041320801,16.5526828765869,16.5531635284424,16.5536441802979,16.5541248321533,16.5546035766602,16.5550842285156,16.5555648803711,16.5560455322266,16.556526184082,16.5570068359375,16.5574855804443,16.5579662322998,16.5584468841553,16.5589275360107,16.5594081878662,16.5598888397217,16.5603694915771,16.5608501434326,16.5613307952881,16.5618114471436,16.562292098999,16.5627727508545,16.56325340271,16.5637340545654,16.5642147064209,16.5646953582764,16.5651760101318,16.5656566619873,16.5661392211914,16.5666198730469,16.5671005249023,16.5675811767578,16.5680618286133,16.5685424804688,16.5690250396729,16.5695056915283,16.5699863433838,16.5704669952393,16.5709495544434,16.5714302062988,16.5719108581543,16.5723934173584,16.5728740692139,16.5733547210693,16.5738372802734,16.5743179321289,16.5747985839844,16.5752811431885,16.5757617950439,16.576244354248,16.5767250061035,16.5772075653076,16.5776882171631,16.5781688690186,16.5786514282227,16.5791339874268,16.5796146392822,16.5800971984863,16.5805778503418,16.5810604095459,16.5815410614014,16.5820236206055,16.5825061798096,16.582986831665,16.5834693908691,16.5839519500732,16.5844326019287,16.5849151611328,16.5853977203369,16.585880279541,16.5863609313965,16.5868434906006,16.5873260498047,16.5878086090088,16.5882892608643,16.5887718200684,16.5892543792725,16.5897369384766,16.5902194976807,16.5907020568848,16.5911846160889,16.591667175293,16.5921478271484,16.5926303863525,16.5931129455566,16.5935955047607,16.5940780639648,16.5945606231689,16.595043182373,16.5955257415771,16.5960083007812,16.5964908599854,16.5969734191895,16.5974559783936,16.5979404449463,16.5984230041504,16.5989055633545,16.5993881225586,16.5998706817627,16.6003532409668,16.6008377075195,16.6013202667236,16.6018028259277,16.6022853851318,16.6027679443359,16.6032524108887,16.6037349700928,16.6042175292969,16.6047019958496,16.6051845550537,16.6056671142578,16.6061515808105,16.6066341400146,16.6071166992188,16.6076011657715,16.6080837249756,16.6085681915283,16.6090507507324,16.6095333099365,16.6100177764893,16.6105003356934,16.6109848022461,16.6114673614502,16.6119518280029,16.612434387207,16.6129188537598,16.6134033203125,16.6138858795166,16.6143703460693,16.6148529052734,16.6153373718262,16.6158218383789,16.616304397583,16.6167888641357,16.6172733306885,16.6177558898926,16.6182403564453,16.618724822998,16.6192092895508,16.6196918487549,16.6201763153076,16.6206607818604,16.6211452484131,16.6216297149658,16.6221122741699,16.6225967407227,16.6230812072754,16.6235656738281,16.6240501403809,16.6245346069336,16.6250190734863,16.6255035400391,16.6259880065918,16.6264724731445,16.6269569396973,16.62744140625,16.6279258728027,16.6284103393555,16.6288948059082,16.6293792724609,16.6298637390137,16.6303482055664,16.6308326721191,16.6313171386719,16.6318016052246,16.6322860717773,16.6327724456787,16.6332569122314,16.6337413787842,16.6342258453369,16.6347103118896,16.635196685791,16.6356811523438,16.6361656188965,16.6366500854492,16.6371364593506,16.6376209259033,16.6381072998047,16.6385917663574,16.6390762329102,16.6395626068115,16.6400470733643,16.640531539917,16.6410179138184,16.6415023803711,16.6419887542725,16.6424732208252,16.6429576873779,16.6434440612793,16.643928527832,16.6444149017334,16.6449012756348,16.6453857421875,16.6458721160889,16.6463565826416,16.646842956543,16.6473274230957,16.6478137969971,16.6483001708984,16.6487846374512,16.6492710113525,16.6497573852539,16.6502437591553,16.650728225708,16.6512145996094,16.6517009735107,16.6521854400635,16.6526718139648,16.6531581878662,16.6536445617676,16.6541309356689,16.6546154022217,16.655101776123,16.6555881500244,16.6560745239258,16.6565608978271,16.6570472717285,16.6575336456299,16.6580200195312,16.6585063934326,16.658992767334,16.6594791412354,16.6599655151367,16.6604518890381,16.6609382629395,16.6614246368408,16.6619110107422,16.6623973846436,16.6628837585449,0,0,0,0,0,0,0,0,0,0,0,0,0,0,0,0,0,0,0,0,0,0,0,0,0,0,0,0,0,0,0,0,0,0,0,0,0,0,0,0,0,0,0,0,0,0,0,0,0,0,0,0,0,0,0,0,0,0,0,0,0,0,0,0,0,0,0,0,0,0,0,0,0,0,0,0,0,0,0,0,0,0,0,0,0,0,0,0,0,0,0,0,0,0,0,0,0,0,0,0,0,0,0,0,0,0,0,0,0,0,0,0
16.3761901855469,16.3766613006592,16.3771305084229,16.3776016235352,16.3780708312988,16.3785400390625,16.3790111541748,16.3794822692871,16.3799514770508,16.3804225921631,16.3808917999268,16.3813629150391,16.3818321228027,16.382303237915,16.3827724456787,16.383243560791,16.3837146759033,16.384183883667,16.3846549987793,16.3851261138916,16.3855953216553,16.3860664367676,16.3865356445312,16.3870067596436,16.3874778747559,16.3879489898682,16.3884181976318,16.3888893127441,16.3893604278564,16.3898315429688,16.3903026580811,16.3907718658447,16.391242980957,16.3917140960693,16.3921852111816,16.3926563262939,16.3931274414062,16.3935985565186,16.3940696716309,16.3945388793945,16.3950099945068,16.3954811096191,16.3959522247314,16.3964233398438,16.3968944549561,16.3973655700684,16.3978366851807,16.398307800293,16.3987808227539,16.3992519378662,16.3997230529785,16.4001941680908,16.4006652832031,16.4011363983154,16.4016075134277,16.40207862854,16.402551651001,16.4030227661133,16.4034938812256,16.4039649963379,16.4044361114502,16.4049091339111,16.4053802490234,16.4058513641357,16.406322479248,16.406795501709,16.4072666168213,16.4077377319336,16.4082107543945,16.4086818695068,16.4091529846191,16.4096260070801,16.4100971221924,16.4105701446533,16.4110412597656,16.4115142822266,16.4119853973389,16.4124565124512,16.4129295349121,16.413402557373,16.4138736724854,16.4143466949463,16.4148178100586,16.4152908325195,16.4157619476318,16.4162349700928,16.4167060852051,16.417179107666,16.417652130127,16.4181232452393,16.4185962677002,16.4190692901611,16.4195404052734,16.4200134277344,16.4204864501953,16.4209594726562,16.4214305877686,16.4219036102295,16.4223766326904,16.4228496551514,16.4233226776123,16.4237937927246,16.4242668151855,16.4247398376465,16.4252128601074,16.4256858825684,16.4261569976807,16.4266300201416,16.4271030426025,16.4275760650635,16.4280490875244,16.4285221099854,16.4289951324463,16.4294681549072,16.4299411773682,16.4304141998291,16.43088722229,16.431360244751,16.4318332672119,16.4323062896729,16.4327812194824,16.4332542419434,16.4337272644043,16.4342002868652,16.4346733093262,16.4351463317871,16.435619354248,16.436092376709,16.4365673065186,16.4370403289795,16.4375133514404,16.4379863739014,16.4384613037109,16.4389343261719,16.4394073486328,16.4398822784424,16.4403553009033,16.4408283233643,16.4413032531738,16.4417762756348,16.4422492980957,16.4427242279053,16.4431972503662,16.4436702728271,16.4441452026367,16.4446182250977,16.4450931549072,16.4455661773682,16.4460411071777,16.4465141296387,16.4469890594482,16.4474620819092,16.4479370117188,16.4484100341797,16.4488849639893,16.4493598937988,16.4498329162598,16.4503078460693,16.4507808685303,16.4512557983398,16.4517307281494,16.4522037506104,16.4526786804199,16.4531536102295,16.4536285400391,16.4541015625,16.4545764923096,16.4550514221191,16.4555263519287,16.4559993743896,16.4564743041992,16.4569492340088,16.4574241638184,16.4578990936279,16.4583740234375,16.4588470458984,16.459321975708,16.4597969055176,16.4602718353271,16.4607467651367,16.4612216949463,16.4616966247559,16.4621715545654,16.462646484375,16.4631214141846,16.4635963439941,16.4640712738037,16.4645462036133,16.4650211334229,16.4654960632324,16.465970993042,16.4664459228516,16.4669208526611,16.4673976898193,16.4678726196289,16.4683475494385,16.468822479248,16.4692974090576,16.4697742462158,16.4702491760254,16.470724105835,16.4711990356445,16.4716758728027,16.4721508026123,16.4726257324219,16.4731006622314,16.4735774993896,16.4740524291992,16.4745273590088,16.475004196167,16.4754791259766,16.4759540557861,16.4764308929443,16.4769058227539,16.4773826599121,16.4778575897217,16.4783344268799,16.4788093566895,16.4792861938477,16.4797611236572,16.4802379608154,16.480712890625,16.4811897277832,16.4816646575928,16.482141494751,16.4826183319092,16.4830932617188,16.483570098877,16.4840450286865,16.4845218658447,16.4849987030029,16.4854736328125,16.4859504699707,16.4864273071289,16.4869041442871,16.4873790740967,16.4878559112549,16.4883327484131,16.4888095855713,16.4892845153809,16.4897613525391,16.4902381896973,16.4907150268555,16.4911918640137,16.4916687011719,16.4921455383301,16.4926204681396,16.4930973052979,16.4935741424561,16.4940509796143,16.4945278167725,16.4950046539307,16.4954814910889,16.4959583282471,16.4964351654053,16.4969120025635,16.4973888397217,16.4978656768799,16.4983425140381,16.4988193511963,16.4992980957031,16.4997749328613,16.5002517700195,16.5007286071777,16.5012054443359,16.5016822814941,16.5021591186523,16.5026378631592,16.5031147003174,16.5035915374756,16.5040683746338,16.504545211792,16.5050239562988,16.505500793457,16.5059776306152,16.5064563751221,16.5069332122803,16.5074100494385,16.5078887939453,16.5083656311035,16.5088443756104,16.5093212127686,16.5097980499268,0,0,0,0,0,0,0,0,0,0,0,0,0,0,0,0,0,0,0,0,0,0,0,0,0,0,0,0,0,0,0,0,0,0,0,0,0,0,0,0,0,0,0,0,0,0,0,0,0,0,0,0,0,0,0,0,0,0,0,0,0,0,0,0,0,0,0,0,0,0,0,0,0,0,0,0,0,0,0,0,0,0,0,0,0,0,0,0,0,0,0,0,0,0,0,0,0,0,0,0,0,0,0,0,0,0,0,0,0,0,0,0,0
16.2287673950195,16.2292289733887,16.2296905517578,16.230152130127,16.2306137084961,16.2310752868652,16.2315368652344,16.2319984436035,16.2324600219727,16.2329216003418,16.2333831787109,16.2338447570801,16.2343063354492,16.234769821167,16.2352313995361,16.2356929779053,16.2361545562744,16.2366161346436,16.2370796203613,16.2375411987305,16.2380027770996,16.2384643554688,16.2389278411865,16.2393894195557,16.2398509979248,16.2403125762939,16.2407760620117,16.2412376403809,16.2417011260986,16.2421627044678,16.2426242828369,16.2430877685547,16.2435493469238,16.2440128326416,16.2444744110107,16.2449359893799,16.2453994750977,16.2458610534668,16.2463245391846,16.2467861175537,16.2472496032715,16.2477111816406,16.2481746673584,16.2486381530762,16.2490997314453,16.2495613098145,16.2500247955322,16.25048828125,16.2509517669678,16.2514133453369,16.2518768310547,16.2523384094238,16.2528018951416,16.2532653808594,16.2537288665771,16.2541904449463,16.2546539306641,16.2551174163818,16.255578994751,16.2560424804688,16.2565059661865,16.2569694519043,16.2574329376221,16.2578945159912,16.258358001709,16.2588214874268,16.2592849731445,16.2597484588623,16.2602119445801,16.2606754302979,16.2611389160156,16.2616024017334,16.2620658874512,16.2625293731689,16.2629928588867,16.2634563446045,16.2639198303223,16.26438331604,16.2648468017578,16.2653102874756,16.2657737731934,16.2662372589111,16.2667007446289,16.2671642303467,16.2676277160645,16.2680912017822,16.2685565948486,16.2690200805664,16.2694835662842,16.269947052002,16.2704105377197,16.2708759307861,16.2713394165039,16.2718029022217,16.2722663879395,16.2727317810059,16.2731952667236,16.2736587524414,16.2741241455078,16.2745876312256,16.2750511169434,16.2755165100098,16.2759799957275,16.2764434814453,16.2769088745117,16.2773723602295,16.2778377532959,16.2783012390137,16.2787666320801,16.2792301177979,16.2796936035156,16.280158996582,16.2806224822998,16.2810878753662,16.2815532684326,16.2820167541504,16.2824821472168,16.2829456329346,16.283411026001,16.2838764190674,16.2843399047852,16.2848052978516,16.2852687835693,16.2857341766357,16.2861995697021,16.2866630554199,16.2871284484863,16.2875938415527,16.2880592346191,16.2885227203369,16.2889881134033,16.2894535064697,16.2899188995361,16.2903842926025,16.2908477783203,16.2913131713867,16.2917785644531,16.2922439575195,16.2927093505859,16.2931747436523,16.2936401367188,16.2941055297852,16.2945690155029,16.2950344085693,16.2954998016357,16.2959651947021,16.2964305877686,16.296895980835,16.2973613739014,16.2978267669678,16.2982921600342,16.2987575531006,16.2992248535156,16.299690246582,16.3001556396484,16.3006210327148,16.3010864257812,16.3015518188477,16.3020172119141,16.3024826049805,16.3029499053955,16.3034152984619,16.3038806915283,16.3043460845947,16.3048133850098,16.3052787780762,16.3057441711426,16.306209564209,16.306676864624,16.3071422576904,16.3076076507568,16.3080749511719,16.3085403442383,16.3090057373047,16.3094730377197,16.3099384307861,16.3104038238525,16.3108711242676,16.311336517334,16.311803817749,16.3122692108154,16.3127365112305,16.3132019042969,16.3136692047119,16.3141345977783,16.3146018981934,16.3150672912598,16.3155345916748,16.3159999847412,16.3164672851562,16.3169345855713,16.3173999786377,16.3178672790527,16.3183345794678,16.3187999725342,16.3192672729492,16.3197345733643,16.3201999664307,16.3206672668457,16.3211345672607,16.3215999603271,16.3220672607422,16.3225345611572,16.3230018615723,16.3234672546387,16.3239345550537,16.3244018554688,16.3248691558838,16.3253364562988,16.3258037567139,16.3262710571289,16.3267383575439,16.327205657959,16.3276710510254,16.3281383514404,16.3286056518555,16.3290729522705,16.3295402526855,16.3300075531006,16.3304748535156,16.3309421539307,16.3314094543457,16.3318767547607,16.3323440551758,16.3328113555908,16.3332805633545,16.3337478637695,16.3342151641846,16.3346824645996,16.3351497650146,16.3356170654297,16.3360843658447,16.3365535736084,16.3370208740234,16.3374881744385,16.3379554748535,16.3384246826172,16.3388919830322,16.3393592834473,16.3398265838623,16.340295791626,16.340763092041,16.3412303924561,16.3416996002197,16.3421669006348,16.3426342010498,16.3431034088135,16.3435707092285,16.3440399169922,16.3445072174072,16.3449745178223,16.3454437255859,16.3459129333496,16.3463802337646,16.3468475341797,16.3473167419434,16.3477840423584,16.3482532501221,16.3487224578857,16.3491897583008,16.3496589660645,16.3501262664795,16.3505954742432,16.3510646820068,16.3515319824219,16.3520011901855,16.3524703979492,16.3529376983643,16.3534069061279,16.3538761138916,16.3543434143066,16.3548126220703,16.355281829834,16.3557510375977,16.3562202453613,16.3566875457764,16.35715675354,16.3576259613037,16.3580951690674,16.3585643768311,16.3590316772461,16.3595008850098,16.3599700927734,0,0,0,0,0,0,0,0,0,0,0,0,0,0,0,0,0,0,0,0,0,0,0,0,0,0,0,0,0,0,0,0,0,0,0,0,0,0,0,0,0,0,0,0,0,0,0,0,0,0,0,0,0,0,0,0,0,0,0,0,0,0,0,0,0,0,0,0,0,0,0,0,0,0,0,0,0,0,0,0,0,0,0,0,0,0,0,0,0,0,0,0,0,0,0,0,0,0,0,0,0,0,0,0,0,0,0,0,0,0,0,0,0
16.0839729309082,16.0844268798828,16.0848808288574,16.0853328704834,16.085786819458,16.0862407684326,16.0866947174072,16.0871467590332,16.0876007080078,16.0880546569824,16.088508605957,16.0889625549316,16.0894145965576,16.0898685455322,16.0903224945068,16.0907764434814,16.0912303924561,16.0916843414307,16.0921382904053,16.0925922393799,16.0930461883545,16.0935001373291,16.0939521789551,16.0944080352783,16.0948600769043,16.0953159332275,16.0957679748535,16.0962238311768,16.0966777801514,16.097131729126,16.0975856781006,16.0980396270752,16.0984935760498,16.0989475250244,16.099401473999,16.0998554229736,16.1003093719482,16.1007633209229,16.1012191772461,16.1016731262207,16.1021270751953,16.1025810241699,16.1030368804932,16.1034908294678,16.1039447784424,16.104398727417,16.1048545837402,16.1053085327148,16.1057624816895,16.1062183380127,16.1066722869873,16.1071262359619,16.1075820922852,16.1080360412598,16.108491897583,16.1089458465576,16.1093997955322,16.1098556518555,16.1103096008301,16.1107654571533,16.1112194061279,16.1116752624512,16.1121292114258,16.112585067749,16.1130390167236,16.1134948730469,16.1139488220215,16.1144046783447,16.1148586273193,16.1153144836426,16.1157703399658,16.1162242889404,16.1166801452637,16.1171340942383,16.1175899505615,16.1180458068848,16.118501663208,16.1189556121826,16.1194114685059,16.1198673248291,16.1203212738037,16.120777130127,16.1212329864502,16.1216888427734,16.1221446990967,16.1225986480713,16.1230545043945,16.1235103607178,16.123966217041,16.1244220733643,16.1248779296875,16.1253337860107,16.1257877349854,16.1262435913086,16.1266994476318,16.1271553039551,16.1276111602783,16.1280670166016,16.1285228729248,16.128978729248,16.1294345855713,16.1298904418945,16.1303462982178,16.130802154541,16.1312580108643,16.1317138671875,16.1321716308594,16.1326274871826,16.1330833435059,16.1335391998291,16.1339950561523,16.1344509124756,16.1349067687988,16.1353645324707,16.1358203887939,16.1362762451172,16.1367321014404,16.1371898651123,16.1376457214355,16.1381015777588,16.138557434082,16.1390151977539,16.1394710540771,16.1399269104004,16.1403846740723,16.1408405303955,16.1412963867188,16.1417541503906,16.1422100067139,16.1426658630371,16.143123626709,16.1435794830322,16.1440372467041,16.1444931030273,16.1449508666992,16.1454067230225,16.1458644866943,16.1463203430176,16.1467781066895,16.1472339630127,16.1476917266846,16.1481475830078,16.1486053466797,16.1490631103516,16.1495189666748,16.1499767303467,16.1504325866699,16.1508903503418,16.1513481140137,16.1518039703369,16.1522617340088,16.1527194976807,16.1531753540039,16.1536331176758,16.1540908813477,16.1545486450195,16.1550064086914,16.1554622650146,16.1559200286865,16.1563777923584,16.1568355560303,16.1572933197021,16.1577491760254,16.1582069396973,16.1586647033691,16.159122467041,16.1595802307129,16.1600379943848,16.1604957580566,16.1609535217285,16.1614112854004,16.1618690490723,16.1623268127441,16.162784576416,16.1632423400879,16.1637001037598,16.1641578674316,16.1646156311035,16.1650733947754,16.1655311584473,16.1659889221191,16.166446685791,16.1669044494629,16.1673622131348,16.1678218841553,16.1682796478271,16.168737411499,16.1691951751709,16.1696529388428,16.1701126098633,16.1705703735352,16.171028137207,16.1714859008789,16.1719455718994,16.1724033355713,16.1728610992432,16.1733207702637,16.1737785339355,16.1742362976074,16.1746959686279,16.1751537322998,16.1756114959717,16.1760711669922,16.1765289306641,16.1769886016846,16.1774463653564,16.177906036377,16.1783638000488,16.1788215637207,16.1792812347412,16.1797389984131,16.1801986694336,16.1806564331055,16.181116104126,16.1815757751465,16.1820335388184,16.1824932098389,16.1829509735107,16.1834106445312,16.1838703155518,16.1843280792236,16.1847877502441,16.185245513916,16.1857051849365,16.186164855957,16.1866245269775,16.1870822906494,16.1875419616699,16.1880016326904,16.1884613037109,16.1889190673828,16.1893787384033,16.1898384094238,16.1902980804443,16.1907577514648,16.1912174224854,16.1916770935059,16.1921348571777,16.1925945281982,16.1930541992188,16.1935138702393,16.1939735412598,16.1944332122803,16.1948928833008,16.1953525543213,16.1958122253418,16.1962718963623,16.1967315673828,16.1971912384033,16.1976509094238,16.1981105804443,16.1985702514648,16.1990299224854,16.1994895935059,16.1999492645264,16.2004089355469,16.200870513916,16.2013301849365,16.201789855957,16.2022495269775,16.202709197998,16.2031688690186,16.2036304473877,16.2040901184082,16.2045497894287,16.2050094604492,16.2054710388184,16.2059307098389,16.2063903808594,16.2068500518799,16.207311630249,16.2077713012695,16.2082328796387,16.2086925506592,16.2091522216797,16.2096138000488,16.2100734710693,16.2105331420898,16.210994720459,16.2114562988281,16.2119159698486,16.2123775482178,0,0,0,0,0,0,0,0,0,0,0,0,0,0,0,0,0,0,0,0,0,0,0,0,0,0,0,0,0,0,0,0,0,0,0,0,0,0,0,0,0,0,0,0,0,0,0,0,0,0,0,0,0,0,0,0,0,0,0,0,0,0,0,0,0,0,0,0,0,0,0,0,0,0,0,0,0,0,0,0,0,0,0,0,0,0,0,0,0,0,0,0,0,0,0,0,0,0,0,0,0,0,0,0,0,0,0,0,0,0,0,0,0,0
15.9417409896851,15.9421863555908,15.9426317214966,15.9430770874023,15.9435224533081,15.9439678192139,15.9444141387939,15.9448595046997,15.9453048706055,15.9457502365112,15.946195602417,15.9466409683228,15.9470872879028,15.9475326538086,15.9479789733887,15.9484243392944,15.9488697052002,15.9493160247803,15.949761390686,15.9502067565918,15.9506530761719,15.9510984420776,15.9515447616577,15.9519910812378,15.9524364471436,15.9528827667236,15.9533290863037,15.9537744522095,15.9542207717896,15.9546661376953,15.9551124572754,15.9555587768555,15.9560050964355,15.9564514160156,15.9568967819214,15.9573440551758,15.9577894210815,15.9582357406616,15.9586820602417,15.9591283798218,15.9595746994019,15.9600210189819,15.960467338562,15.9609136581421,15.9613609313965,15.9618072509766,15.9622535705566,15.9626998901367,15.9631462097168,15.9635934829712,15.9640398025513,15.9644861221313,15.9649333953857,15.9653797149658,15.9658260345459,15.9662733078003,15.9667196273804,15.9671659469604,15.9676132202148,15.9680595397949,15.9685068130493,15.9689531326294,15.9694004058838,15.9698476791382,15.9702939987183,15.9707412719727,15.9711885452271,15.9716358184814,15.9720830917358,15.9725294113159,15.9729766845703,15.9734239578247,15.9738712310791,15.9743175506592,15.9747648239136,15.975212097168,15.9756593704224,15.9761066436768,15.9765539169312,15.9770011901855,15.9774484634399,15.9778957366943,15.978343963623,15.9787912368774,15.9792385101318,15.9796857833862,15.9801330566406,15.9805812835693,15.9810285568237,15.9814758300781,15.9819231033325,15.9823713302612,15.9828186035156,15.9832668304443,15.9837141036987,15.9841613769531,15.9846096038818,15.9850568771362,15.9855051040649,15.9859523773193,15.986400604248,15.9868488311768,15.9872961044312,15.9877443313599,15.9881925582886,15.9886407852173,15.9890880584717,15.9895362854004,15.9899845123291,15.9904327392578,15.9908800125122,15.9913282394409,15.9917764663696,15.9922246932983,15.9926729202271,15.9931211471558,15.9935693740845,15.9940176010132,15.9944658279419,15.9949140548706,15.9953632354736,15.9958114624023,15.9962596893311,15.9967079162598,15.9971561431885,15.9976043701172,15.9980535507202,15.9985017776489,15.9989500045776,15.9993991851807,15.9998474121094,16.0002956390381,16.0007438659668,16.0011940002441,16.0016422271729,16.0020904541016,16.0025386810303,16.0029888153076,16.0034370422363,16.003885269165,16.0043354034424,16.0047836303711,16.0052318572998,16.0056819915771,16.0061302185059,16.0065784454346,16.0070285797119,16.0074768066406,16.007926940918,16.0083751678467,16.008825302124,16.0092735290527,16.0097217559814,16.0101718902588,16.0106220245361,16.0110702514648,16.0115184783936,16.0119686126709,16.0124187469482,16.012866973877,16.0133171081543,16.013765335083,16.0142154693604,16.0146656036377,16.0151138305664,16.0155639648438,16.0160121917725,16.0164623260498,16.0169124603271,16.0173625946045,16.0178108215332,16.0182609558105,16.0187110900879,16.0191612243652,16.0196094512939,16.0200595855713,16.0205097198486,16.020959854126,16.0214099884033,16.021858215332,16.0223083496094,16.0227584838867,16.0232086181641,16.0236587524414,16.0241088867188,16.0245590209961,16.0250091552734,16.0254592895508,16.0259094238281,16.0263595581055,16.0268096923828,16.0272598266602,16.0277099609375,16.0281600952148,16.0286102294922,16.0290603637695,16.0295104980469,16.0299606323242,16.0304107666016,16.0308609008789,16.0313110351562,16.0317611694336,16.0322113037109,16.0326633453369,16.0331134796143,16.0335636138916,16.0340137481689,16.0344638824463,16.0349159240723,16.0353660583496,16.035816192627,16.0362663269043,16.0367164611816,16.0371685028076,16.037618637085,16.0380687713623,16.0385208129883,16.0389709472656,16.039421081543,16.0398731231689,16.0403232574463,16.0407752990723,16.0412254333496,16.041675567627,16.0421276092529,16.0425777435303,16.0430297851562,16.0434799194336,16.0439319610596,16.0443820953369,16.0448341369629,16.0452842712402,16.0457363128662,16.0461864471436,16.0466384887695,16.0470886230469,16.0475406646729,16.0479927062988,16.0484428405762,16.0488948822021,16.0493469238281,16.0497970581055,16.0502490997314,16.0507011413574,16.0511512756348,16.0516033172607,16.0520553588867,16.0525074005127,16.05295753479,16.053409576416,16.053861618042,16.054313659668,16.0547657012939,16.0552158355713,16.0556678771973,16.0561199188232,16.0565719604492,16.0570240020752,16.0574760437012,16.0579261779785,16.0583782196045,16.0588302612305,16.0592823028564,16.0597343444824,16.0601863861084,16.0606384277344,16.0610904693604,16.0615425109863,16.0619945526123,16.0624465942383,16.0628986358643,16.0633506774902,16.0638027191162,16.0642547607422,16.0647068023682,16.0651607513428,16.0656127929688,16.0660648345947,16.0665168762207,16.0669689178467,16.0674209594727,0,0,0,0,0,0,0,0,0,0,0,0,0,0,0,0,0,0,0,0,0,0,0,0,0,0,0,0,0,0,0,0,0,0,0,0,0,0,0,0,0,0,0,0,0,0,0,0,0,0,0,0,0,0,0,0,0,0,0,0,0,0,0,0,0,0,0,0,0,0,0,0,0,0,0,0,0,0,0,0,0,0,0,0,0,0,0,0,0,0,0,0,0,0,0,0,0,0,0,0,0,0,0,0,0,0,0,0,0,0,0,0,0,0,0
15.802001953125,15.8024396896362,15.8028774261475,15.8033151626587,15.8037528991699,15.8041906356812,15.8046283721924,15.8050661087036,15.8055038452148,15.8059415817261,15.8063793182373,15.8068170547485,15.8072547912598,15.807692527771,15.8081302642822,15.8085680007935,15.809006690979,15.8094444274902,15.8098821640015,15.810320854187,15.8107585906982,15.8111963272095,15.8116340637207,15.8120727539062,15.8125104904175,15.812949180603,15.8133869171143,15.8138256072998,15.814263343811,15.8147020339966,15.8151397705078,15.8155784606934,15.8160171508789,15.8164558410645,15.8168935775757,15.8173322677612,15.8177709579468,15.818208694458,15.8186473846436,15.8190860748291,15.8195247650146,15.8199634552002,15.8204011917114,15.8208408355713,15.8212785720825,15.8217172622681,15.8221559524536,15.8225946426392,15.823034286499,15.8234720230103,15.8239107131958,15.8243503570557,15.8247890472412,15.8252277374268,15.8256664276123,15.8261051177979,15.8265447616577,15.8269834518433,15.8274221420288,15.8278608322144,15.8283004760742,15.8287391662598,15.8291788101196,15.8296175003052,15.8300561904907,15.8304958343506,15.8309354782104,15.831374168396,15.8318128585815,15.8322525024414,15.8326921463013,15.8331308364868,15.8335704803467,15.8340101242065,15.8344488143921,15.834888458252,15.8353281021118,15.8357667922974,15.8362064361572,15.8366460800171,15.837085723877,15.8375253677368,15.8379650115967,15.8384046554565,15.8388442993164,15.8392839431763,15.8397235870361,15.840163230896,15.8406028747559,15.8410425186157,15.8414821624756,15.8419218063354,15.8423614501953,15.8428020477295,15.8432416915894,15.8436813354492,15.8441209793091,15.8445615768433,15.8450012207031,15.845440864563,15.8458814620972,15.846321105957,15.8467607498169,15.8472013473511,15.8476409912109,15.8480815887451,15.8485221862793,15.8489618301392,15.849401473999,15.8498420715332,15.8502826690674,15.8507232666016,15.8511629104614,15.8516035079956,15.8520431518555,15.8524837493896,15.8529243469238,15.853364944458,15.8538055419922,15.8542451858521,15.8546857833862,15.8551263809204,15.8555669784546,15.8560075759888,15.8564481735229,15.8568887710571,15.8573293685913,15.8577699661255,15.8582105636597,15.8586511611938,15.8590927124023,15.8595333099365,15.8599739074707,15.8604145050049,15.8608551025391,15.8612966537476,15.8617372512817,15.8621778488159,15.8626194000244,15.8630599975586,15.8635005950928,15.8639421463013,15.8643827438354,15.8648242950439,15.8652648925781,15.8657064437866,15.8661470413208,15.8665885925293,15.8670291900635,15.867470741272,15.8679122924805,15.868353843689,15.8687944412231,15.8692359924316,15.8696775436401,15.8701181411743,15.8705596923828,15.8710012435913,15.8714427947998,15.8718843460083,15.8723258972168,15.8727674484253,15.8732080459595,15.873649597168,15.8740921020508,15.8745336532593,15.8749752044678,15.8754167556763,15.8758583068848,15.8762998580933,15.8767414093018,15.8771839141846,15.8776254653931,15.8780670166016,15.8785085678101,15.8789501190186,15.8793926239014,15.8798341751099,15.8802757263184,15.8807182312012,15.8811597824097,15.8816022872925,15.882043838501,15.8824863433838,15.8829278945923,15.8833703994751,15.8838129043579,15.8842544555664,15.8846960067749,15.885139465332,15.8855810165405,15.8860235214233,15.8864650726318,15.8869075775146,15.8873500823975,15.8877925872803,15.8882350921631,15.8886766433716,15.8891191482544,15.8895616531372,15.89000415802,15.8904466629028,15.8908891677856,15.8913316726685,15.8917741775513,15.8922176361084,15.8926601409912,15.893102645874,15.8935451507568,15.8939876556396,15.8944301605225,15.8948726654053,15.8953161239624,15.8957586288452,15.896201133728,15.8966445922852,15.897087097168,15.8975296020508,15.8979730606079,15.8984155654907,15.8988580703735,15.8993015289307,15.8997449874878,15.9001874923706,15.9006309509277,15.9010734558105,15.9015169143677,15.9019594192505,15.9024028778076,15.9028463363647,15.9032897949219,15.903733253479,15.9041757583618,15.9046192169189,15.9050626754761,15.9055061340332,15.9059495925903,15.9063920974731,15.9068355560303,15.9072790145874,15.9077224731445,15.9081659317017,15.9086093902588,15.9090528488159,15.909496307373,15.9099407196045,15.9103841781616,15.9108276367188,15.9112710952759,15.911714553833,15.9121580123901,15.9126024246216,15.9130458831787,15.9134893417358,15.9139337539673,15.9143772125244,15.9148216247559,15.915265083313,15.9157085418701,15.9161529541016,15.9165964126587,15.9170408248901,15.9174842834473,15.9179286956787,15.9183721542358,15.9188165664673,15.9192609786987,15.9197044372559,15.9201488494873,15.9205932617188,15.9210367202759,15.9214820861816,15.9219255447388,15.9223699569702,15.9228143692017,15.9232587814331,15.9237031936646,15.924147605896,15.9245910644531,15.9250364303589,15.9254808425903,0,0,0,0,0,0,0,0,0,0,0,0,0,0,0,0,0,0,0,0,0,0,0,0,0,0,0,0,0,0,0,0,0,0,0,0,0,0,0,0,0,0,0,0,0,0,0,0,0,0,0,0,0,0,0,0,0,0,0,0,0,0,0,0,0,0,0,0,0,0,0,0,0,0,0,0,0,0,0,0,0,0,0,0,0,0,0,0,0,0,0,0,0,0,0,0,0,0,0,0,0,0,0,0,0,0,0,0,0,0,0,0,0,0,0
15.6646919250488,15.6651220321655,15.6655511856079,15.6659822463989,15.6664123535156,15.666841506958,15.667272567749,15.6677017211914,15.6681327819824,15.6685628890991,15.6689929962158,15.6694231033325,15.6698532104492,15.6702833175659,15.6707143783569,15.6711444854736,15.6715745925903,15.672004699707,15.672435760498,15.6728658676147,15.6732959747314,15.6737270355225,15.6741571426392,15.6745882034302,15.6750183105469,15.6754493713379,15.6758794784546,15.6763105392456,15.6767416000366,15.6771717071533,15.67760181427,15.678032875061,15.6784639358521,15.6788949966431,15.6793251037598,15.6797561645508,15.6801872253418,15.6806182861328,15.6810483932495,15.6814794540405,15.6819105148315,15.6823415756226,15.6827726364136,15.6832036972046,15.6836347579956,15.6840658187866,15.6844968795776,15.6849279403687,15.6853590011597,15.6857900619507,15.6862211227417,15.6866521835327,15.687084197998,15.6875152587891,15.6879463195801,15.6883773803711,15.6888093948364,15.6892404556274,15.6896715164185,15.6901035308838,15.6905345916748,15.6909656524658,15.6913976669312,15.6918287277222,15.6922607421875,15.6926918029785,15.6931228637695,15.6935548782349,15.6939868927002,15.6944179534912,15.6948499679565,15.6952810287476,15.6957130432129,15.6961450576782,15.6965770721436,15.6970081329346,15.6974401473999,15.6978721618652,15.6983041763306,15.6987361907959,15.6991672515869,15.6995992660522,15.7000312805176,15.7004632949829,15.7008953094482,15.7013273239136,15.7017593383789,15.7021913528442,15.7026233673096,15.7030553817749,15.7034873962402,15.7039194107056,15.7043523788452,15.7047843933105,15.7052164077759,15.7056484222412,15.7060804367065,15.7065134048462,15.7069454193115,15.7073774337769,15.7078104019165,15.7082424163818,15.7086753845215,15.7091073989868,15.7095403671265,15.7099723815918,15.7104053497314,15.7108373641968,15.7112703323364,15.7117023468018,15.7121353149414,15.7125682830811,15.7130002975464,15.713433265686,15.7138662338257,15.714298248291,15.7147312164307,15.7151641845703,15.71559715271,15.7160301208496,15.7164621353149,15.7168951034546,15.7173280715942,15.7177610397339,15.7181940078735,15.7186269760132,15.7190599441528,15.7194929122925,15.7199258804321,15.7203588485718,15.7207918167114,15.7212257385254,15.7216577529907,15.7220916748047,15.7225246429443,15.722957611084,15.7233915328979,15.7238245010376,15.7242574691772,15.7246913909912,15.7251234054565,15.7255573272705,15.7259912490845,15.7264242172241,15.7268581390381,15.7272911071777,15.7277250289917,15.7281579971313,15.7285919189453,15.729024887085,15.7294588088989,15.7298927307129,15.7303256988525,15.7307596206665,15.7311935424805,15.7316265106201,15.7320604324341,15.732494354248,15.732928276062,15.7333612442017,15.7337951660156,15.7342290878296,15.7346630096436,15.7350969314575,15.7355308532715,15.7359647750854,15.7363986968994,15.7368326187134,15.7372674942017,15.7377014160156,15.7381343841553,15.7385692596436,15.7390031814575,15.7394371032715,15.7398710250854,15.7403059005737,15.7407398223877,15.7411737442017,15.7416086196899,15.7420425415039,15.7424764633179,15.7429113388062,15.7433452606201,15.7437801361084,15.7442140579224,15.7446479797363,15.7450828552246,15.7455167770386,15.7459516525269,15.7463855743408,15.7468204498291,15.7472553253174,15.7476892471313,15.7481250762939,15.7485589981079,15.7489938735962,15.7494277954102,15.7498626708984,15.7502975463867,15.750732421875,15.7511672973633,15.7516012191772,15.7520360946655,15.7524719238281,15.7529058456421,15.7533416748047,15.7537755966187,15.7542104721069,15.7546463012695,15.7550811767578,15.7555160522461,15.7559509277344,15.7563858032227,15.7568216323853,15.7572565078735,15.7576913833618,15.7581262588501,15.7585611343384,15.758996963501,15.7594318389893,15.7598676681519,15.7603025436401,15.7607374191284,15.761173248291,15.7616081237793,15.7620439529419,15.7624788284302,15.7629146575928,15.7633504867554,15.7637853622437,15.7642202377319,15.7646560668945,15.7650918960571,15.7655277252197,15.765962600708,15.7663984298706,15.7668342590332,15.7672700881958,15.7677059173584,15.7681407928467,15.7685775756836,15.7690124511719,15.7694482803345,15.7698841094971,15.7703199386597,15.7707557678223,15.7711915969849,15.7716274261475,15.7720632553101,15.7724990844727,15.7729349136353,15.7733716964722,15.7738065719604,15.7742433547974,15.77467918396,15.7751159667969,15.7755517959595,15.7759876251221,15.776424407959,15.7768602371216,15.7772960662842,15.7777318954468,15.7781686782837,15.7786054611206,15.7790412902832,15.7794771194458,15.7799139022827,15.7803497314453,15.7807865142822,15.7812232971191,15.7816600799561,15.7820959091187,15.7825326919556,15.7829685211182,15.7834053039551,15.783842086792,15.7842788696289,15.7847156524658,15.7851514816284,15.7855882644653,0,0,0,0,0,0,0,0,0,0,0,0,0,0,0,0,0,0,0,0,0,0,0,0,0,0,0,0,0,0,0,0,0,0,0,0,0,0,0,0,0,0,0,0,0,0,0,0,0,0,0,0,0,0,0,0,0,0,0,0,0,0,0,0,0,0,0,0,0,0,0,0,0,0,0,0,0,0,0,0,0,0,0,0,0,0,0,0,0,0,0,0,0,0,0,0,0,0,0,0,0,0,0,0,0,0,0,0,0,0,0,0,0,0,0,0
15.5297470092773,15.5301694869995,15.5305919647217,15.5310144424438,15.5314378738403,15.5318603515625,15.5322828292847,15.5327062606812,15.5331287384033,15.5335512161255,15.533974647522,15.5343971252441,15.5348205566406,15.5352430343628,15.5356664657593,15.5360889434814,15.5365114212036,15.5369348526001,15.5373573303223,15.5377807617188,15.5382041931152,15.5386266708374,15.5390501022339,15.5394735336304,15.5398969650269,15.540319442749,15.5407428741455,15.541166305542,15.5415897369385,15.542013168335,15.5424356460571,15.5428590774536,15.5432825088501,15.5437059402466,15.5441293716431,15.5445528030396,15.544976234436,15.5453996658325,15.545823097229,15.5462465286255,15.546669960022,15.5470943450928,15.5475177764893,15.5479412078857,15.5483646392822,15.5487880706787,15.5492115020752,15.549635887146,15.5500593185425,15.5504837036133,15.5509071350098,15.5513305664062,15.5517549514771,15.5521783828735,15.5526027679443,15.5530261993408,15.5534496307373,15.5538740158081,15.5542974472046,15.5547218322754,15.5551462173462,15.5555696487427,15.5559940338135,15.55641746521,15.5568418502808,15.5572662353516,15.5576906204224,15.5581150054932,15.5585384368896,15.5589628219604,15.5593872070312,15.5598115921021,15.5602359771729,15.5606603622437,15.5610837936401,15.5615091323853,15.5619335174561,15.5623579025269,15.5627813339233,15.5632066726685,15.5636310577393,15.5640554428101,15.5644798278809,15.5649042129517,15.5653285980225,15.5657539367676,15.5661783218384,15.5666027069092,15.56702709198,15.5674514770508,15.5678768157959,15.5683012008667,15.5687265396118,15.5691509246826,15.5695753097534,15.5700006484985,15.5704250335693,15.5708503723145,15.5712747573853,15.5717000961304,15.5721244812012,15.5725498199463,15.5729751586914,15.5733995437622,15.5738248825073,15.5742502212524,15.5746746063232,15.5750999450684,15.5755243301392,15.5759496688843,15.5763759613037,15.5768003463745,15.5772256851196,15.5776510238647,15.5780763626099,15.578501701355,15.5789270401001,15.5793523788452,15.5797777175903,15.5802021026611,15.5806283950806,15.5810537338257,15.5814790725708,15.5819044113159,15.582329750061,15.5827560424805,15.5831804275513,15.5836067199707,15.5840320587158,15.5844573974609,15.5848836898804,15.5853090286255,15.5857353210449,15.5861597061157,15.5865859985352,15.5870113372803,15.5874376296997,15.5878639221191,15.5882892608643,15.5887145996094,15.5891408920288,15.5895671844482,15.5899925231934,15.5904188156128,15.5908441543579,15.5912704467773,15.5916967391968,15.5921230316162,15.5925483703613,15.5929746627808,15.5934009552002,15.5938272476196,15.5942525863647,15.5946788787842,15.5951051712036,15.595531463623,15.5959577560425,15.5963840484619,15.5968103408813,15.5972366333008,15.5976629257202,15.5980892181396,15.5985155105591,15.5989418029785,15.5993680953979,15.5997953414917,15.6002216339111,15.6006479263306,15.60107421875,15.6015005111694,15.6019277572632,15.6023540496826,15.6027803421021,15.6032066345215,15.6036329269409,15.6040601730347,15.6044874191284,15.6049137115479,15.6053400039673,15.605767250061,15.6061944961548,15.6066207885742,15.607048034668,15.6074743270874,15.6079015731812,15.6083288192749,15.6087551116943,15.6091823577881,15.6096096038818,15.6100358963013,15.610463142395,15.6108903884888,15.6113176345825,15.6117448806763,15.6121711730957,15.6125984191895,15.6130256652832,15.613452911377,15.6138801574707,15.6143074035645,15.6147346496582,15.615161895752,15.6155891418457,15.6160163879395,15.6164436340332,15.616870880127,15.6172981262207,15.6177263259888,15.6181535720825,15.6185808181763,15.61900806427,15.6194362640381,15.6198635101318,15.6202907562256,15.6207180023193,15.6211462020874,15.6215744018555,15.6220016479492,15.622428894043,15.6228561401367,15.6232843399048,15.6237125396729,15.6241407394409,15.6245679855347,15.6249952316284,15.6254234313965,15.6258516311646,15.6262798309326,15.6267070770264,15.6271352767944,15.6275634765625,15.6279907226562,15.6284189224243,15.6288471221924,15.6292743682861,15.6297035217285,15.6301317214966,15.6305599212646,15.6309871673584,15.6314153671265,15.6318445205688,15.6322717666626,15.632700920105,15.6331281661987,15.6335563659668,15.6339855194092,15.6344137191772,15.6348419189453,15.6352701187134,15.6356983184814,15.6361274719238,15.6365556716919,15.63698387146,15.637412071228,15.6378412246704,15.6382694244385,15.6386985778809,15.6391267776489,15.639554977417,15.6399841308594,15.6404132843018,15.6408414840698,15.6412706375122,15.6416988372803,15.6421270370483,15.6425561904907,15.6429853439331,15.6434144973755,15.6438426971436,15.6442718505859,15.6447010040283,15.6451292037964,15.6455583572388,15.6459875106812,15.6464166641235,15.6468458175659,15.647274017334,15.6477031707764,15.6481323242188,15.6485614776611,0,0,0,0,0,0,0,0,0,0,0,0,0,0,0,0,0,0,0,0,0,0,0,0,0,0,0,0,0,0,0,0,0,0,0,0,0,0,0,0,0,0,0,0,0,0,0,0,0,0,0,0,0,0,0,0,0,0,0,0,0,0,0,0,0,0,0,0,0,0,0,0,0,0,0,0,0,0,0,0,0,0,0,0,0,0,0,0,0,0,0,0,0,0,0,0,0,0,0,0,0,0,0,0,0,0,0,0,0,0,0,0,0,0,0,0
15.3971071243286,15.3975229263306,15.3979377746582,15.3983535766602,15.3987693786621,15.3991851806641,15.3996000289917,15.4000158309937,15.4004316329956,15.4008474349976,15.4012632369995,15.4016780853271,15.4020938873291,15.4025096893311,15.402925491333,15.403341293335,15.4037570953369,15.4041728973389,15.4045886993408,15.4050045013428,15.4054203033447,15.4058361053467,15.4062528610229,15.4066677093506,15.4070844650269,15.4075002670288,15.4079160690308,15.4083318710327,15.408748626709,15.4091644287109,15.4095802307129,15.4099969863892,15.4104127883911,15.4108285903931,15.4112453460693,15.4116611480713,15.4120779037476,15.4124937057495,15.4129095077515,15.4133262634277,15.413743019104,15.414158821106,15.4145755767822,15.4149913787842,15.4154081344604,15.4158248901367,15.416241645813,15.4166574478149,15.4170742034912,15.4174909591675,15.4179077148438,15.4183235168457,15.418740272522,15.4191570281982,15.4195737838745,15.4199905395508,15.4204072952271,15.4208240509033,15.4212398529053,15.4216575622559,15.4220743179321,15.4224910736084,15.4229078292847,15.4233245849609,15.4237413406372,15.4241580963135,15.4245748519897,15.4249925613403,15.4254093170166,15.4258260726929,15.4262428283691,15.4266605377197,15.427077293396,15.4274940490723,15.4279108047485,15.4283285140991,15.4287452697754,15.429162979126,15.4295797348022,15.4299974441528,15.4304141998291,15.4308319091797,15.431248664856,15.4316663742065,15.4320831298828,15.4325008392334,15.432918548584,15.4333353042603,15.4337530136108,15.4341707229614,15.4345874786377,15.4350051879883,15.4354228973389,15.4358406066895,15.43625831604,15.4366750717163,15.4370927810669,15.4375104904175,15.4379281997681,15.4383459091187,15.4387636184692,15.4391813278198,15.4395990371704,15.440016746521,15.4404344558716,15.4408521652222,15.4412698745728,15.4416875839233,15.4421052932739,15.4425239562988,15.4429416656494,15.443359375,15.4437770843506,15.4441947937012,15.4446134567261,15.4450311660767,15.4454498291016,15.4458675384521,15.4462852478027,15.4467039108276,15.4471216201782,15.4475393295288,15.4479579925537,15.4483757019043,15.4487943649292,15.4492130279541,15.4496307373047,15.4500494003296,15.4504671096802,15.4508857727051,15.45130443573,15.4517230987549,15.4521408081055,15.4525594711304,15.4529781341553,15.4533967971802,15.4538145065308,15.4542331695557,15.4546518325806,15.4550704956055,15.4554891586304,15.4559078216553,15.4563264846802,15.4567451477051,15.45716381073,15.4575815200806,15.4580011367798,15.4584197998047,15.4588384628296,15.4592571258545,15.4596757888794,15.4600954055786,15.4605140686035,15.4609327316284,15.4613513946533,15.4617700576782,15.4621896743774,15.4626083374023,15.4630270004272,15.4634466171265,15.4638652801514,15.4642848968506,15.4647035598755,15.4651222229004,15.4655418395996,15.4659605026245,15.4663801193237,15.4667987823486,15.4672183990479,15.4676380157471,15.468056678772,15.4684762954712,15.4688959121704,15.4693145751953,15.4697341918945,15.4701528549194,15.470573425293,15.4709930419922,15.4714117050171,15.4718313217163,15.4722509384155,15.4726705551147,15.473090171814,15.4735097885132,15.4739294052124,15.4743490219116,15.4747686386108,15.4751882553101,15.4756078720093,15.4760274887085,15.4764471054077,15.4768667221069,15.4772863388062,15.4777059555054,15.4781265258789,15.4785461425781,15.4789657592773,15.4793853759766,15.4798059463501,15.4802255630493,15.4806451797485,15.4810657501221,15.4814853668213,15.4819049835205,15.482325553894,15.4827451705933,15.4831657409668,15.4835863113403,15.4840059280396,15.4844264984131,15.4848461151123,15.4852666854858,15.4856872558594,15.4861068725586,15.4865274429321,15.4869470596313,15.4873676300049,15.4877882003784,15.488208770752,15.4886293411255,15.4890489578247,15.4894695281982,15.4898900985718,15.4903106689453,15.4907312393188,15.4911508560181,15.4915723800659,15.4919929504395,15.492413520813,15.4928340911865,15.4932537078857,15.4936752319336,15.4940958023071,15.4945163726807,15.4949369430542,15.4953575134277,15.4957790374756,15.4961996078491,15.4966201782227,15.4970417022705,15.497462272644,15.4978828430176,15.4983043670654,15.498724937439,15.4991455078125,15.4995670318604,15.4999876022339,15.5004091262817,15.5008296966553,15.5012512207031,15.5016717910767,15.5020933151245,15.5025148391724,15.5029354095459,15.5033569335938,15.5037775039673,15.5041990280151,15.504620552063,15.5050411224365,15.5054626464844,15.5058841705322,15.5063056945801,15.5067272186279,15.5071477890015,15.5075702667236,15.5079908370972,15.508412361145,15.5088338851929,15.5092554092407,15.5096769332886,15.5100984573364,15.5105199813843,15.5109415054321,15.51136302948,15.5117845535278,15.51220703125,15.5126285552979,15.5130500793457,15.5134716033936,15.5138940811157,15.5143146514893,15.5147371292114,15.5151586532593,15.5155811309814,15.5160026550293,15.5164241790771,0,0,0,0,0,0,0,0,0,0,0,0,0,0,0,0,0,0,0,0,0,0,0,0,0,0,0,0,0,0,0,0,0,0,0,0,0,0,0,0,0,0,0,0,0,0,0,0,0,0,0,0,0,0,0,0,0,0,0,0,0,0,0,0,0,0,0,0,0,0,0,0,0,0,0,0,0,0,0,0,0,0,0,0,0,0,0,0,0,0,0,0,0,0,0,0,0,0,0,0,0,0,0,0,0,0,0,0,0,0
15.2667140960693,15.2671222686768,15.2675313949585,15.2679395675659,15.2683477401733,15.2687559127808,15.2691650390625,15.2695732116699,15.2699823379517,15.2703905105591,15.2707996368408,15.2712087631226,15.27161693573,15.2720260620117,15.2724342346191,15.2728433609009,15.2732515335083,15.27366065979,15.2740697860718,15.2744779586792,15.2748870849609,15.2752962112427,15.2757053375244,15.2761135101318,15.2765226364136,15.2769317626953,15.2773408889771,15.2777500152588,15.2781591415405,15.2785673141479,15.2789764404297,15.2793865203857,15.2797956466675,15.2802038192749,15.2806129455566,15.2810220718384,15.2814321517944,15.2818412780762,15.2822504043579,15.2826595306396,15.2830686569214,15.2834787368774,15.2838878631592,15.2842969894409,15.2847061157227,15.2851161956787,15.2855253219604,15.2859344482422,15.2863435745239,15.28675365448,15.2871627807617,15.2875728607178,15.2879819869995,15.2883920669556,15.2888011932373,15.2892112731934,15.2896203994751,15.2900304794312,15.2904396057129,15.2908496856689,15.291259765625,15.2916698455811,15.2920789718628,15.2924890518188,15.2928981781006,15.2933082580566,15.2937183380127,15.2941284179688,15.2945375442505,15.2949476242065,15.2953577041626,15.2957677841187,15.2961778640747,15.2965879440308,15.2969980239868,15.2974081039429,15.2978181838989,15.298228263855,15.298638343811,15.2990484237671,15.2994594573975,15.2998695373535,15.3002796173096,15.3006896972656,15.3010997772217,15.3015108108521,15.3019199371338,15.3023300170898,15.3027410507202,15.3031511306763,15.3035621643066,15.3039722442627,15.3043823242188,15.3047933578491,15.3052034378052,15.3056144714355,15.3060245513916,15.306435585022,15.306845664978,15.3072566986084,15.3076677322388,15.3080778121948,15.3084878921509,15.3088989257812,15.3093099594116,15.3097200393677,15.310131072998,15.3105421066284,15.3109531402588,15.3113632202148,15.3117742538452,15.3121852874756,15.312596321106,15.3130073547363,15.3134174346924,15.3138284683228,15.3142395019531,15.3146505355835,15.3150615692139,15.3154726028442,15.3158836364746,15.316294670105,15.3167057037354,15.3171167373657,15.3175277709961,15.3179397583008,15.3183507919312,15.3187618255615,15.3191728591919,15.3195848464966,15.319995880127,15.3204069137573,15.3208179473877,15.3212299346924,15.3216409683228,15.3220529556274,15.3224639892578,15.3228750228882,15.3232860565186,15.3236980438232,15.3241100311279,15.3245210647583,15.3249320983887,15.3253440856934,15.325756072998,15.3261671066284,15.3265790939331,15.3269901275635,15.3274021148682,15.3278141021729,15.3282260894775,15.3286371231079,15.3290491104126,15.3294610977173,15.3298721313477,15.3302850723267,15.330696105957,15.3311080932617,15.3315200805664,15.3319320678711,15.3323440551758,15.3327560424805,15.3331680297852,15.3335800170898,15.3339920043945,15.3344039916992,15.3348159790039,15.3352279663086,15.3356399536133,15.336051940918,15.336464881897,15.3368768692017,15.3372888565063,15.337700843811,15.33811378479,15.3385257720947,15.3389387130737,15.3393507003784,15.3397626876831,15.3401756286621,15.3405876159668,15.3409996032715,15.3414125442505,15.3418245315552,15.3422374725342,15.3426504135132,15.3430624008179,15.3434753417969,15.3438873291016,15.3443002700806,15.3447132110596,15.3451251983643,15.3455371856689,15.3459501266479,15.346363067627,15.346776008606,15.347188949585,15.3476009368896,15.3480138778687,15.3484268188477,15.3488397598267,15.3492527008057,15.3496656417847,15.3500785827637,15.3504915237427,15.3509044647217,15.3513174057007,15.3517303466797,15.3521432876587,15.3525562286377,15.3529691696167,15.3533821105957,15.3537950515747,15.354208946228,15.354621887207,15.355034828186,15.355447769165,15.3558616638184,15.3562746047974,15.3566875457764,15.3571014404297,15.3575143814087,15.3579273223877,15.358341217041,15.35875415802,15.3591680526733,15.3595809936523,15.3599948883057,15.3604078292847,15.360821723938,15.361234664917,15.3616485595703,15.3620615005493,15.3624753952026,15.362889289856,15.3633031845093,15.3637161254883,15.3641300201416,15.3645439147949,15.3649578094482,15.3653717041016,15.3657846450806,15.3661985397339,15.3666124343872,15.3670263290405,15.3674402236938,15.3678541183472,15.3682680130005,15.3686809539795,15.3690958023071,15.3695096969604,15.3699235916138,15.3703374862671,15.3707513809204,15.3711652755737,15.3715801239014,15.3719940185547,15.372407913208,15.3728218078613,15.3732357025146,15.3736505508423,15.3740644454956,15.3744783401489,15.3748922348022,15.3753070831299,15.3757209777832,15.3761358261108,15.3765497207642,15.3769645690918,15.3773784637451,15.3777933120728,15.3782072067261,15.3786220550537,15.379035949707,15.3794507980347,15.3798656463623,15.3802795410156,15.3806943893433,15.3811082839966,15.3815231323242,15.3819379806519,15.3823528289795,15.3827667236328,15.3831815719604,15.3835964202881,15.3840112686157,15.3844261169434,15.384840965271,15.3852558135986,15.3856706619263,15.3860855102539,15.3865003585815,0,0,0,0,0,0,0,0,0,0,0,0,0,0,0,0,0,0,0,0,0,0,0,0,0,0,0,0,0,0,0,0,0,0,0,0,0,0,0,0,0,0,0,0,0,0,0,0,0,0,0,0,0,0,0,0,0,0,0,0,0,0,0,0,0,0,0,0,0,0,0,0,0,0,0,0,0,0,0,0,0,0,0,0,0,0,0,0,0,0,0,0,0,0,0,0,0,0,0,0,0,0,0,0
15.1385107040405,15.1389122009277,15.1393146514893,15.1397161483765,15.1401176452637,15.1405200958252,15.1409206390381,15.1413230895996,15.1417245864868,15.142126083374,15.1425285339355,15.1429300308228,15.14333152771,15.1437339782715,15.1441354751587,15.1445379257202,15.1449394226074,15.1453418731689,15.1457433700562,15.1461448669434,15.1465473175049,15.1469488143921,15.1473512649536,15.1477537155151,15.1481552124023,15.1485576629639,15.1489591598511,15.1493625640869,15.1497640609741,15.1501665115356,15.1505689620972,15.1509704589844,15.1513729095459,15.1517753601074,15.1521778106689,15.1525802612305,15.152982711792,15.1533851623535,15.153787612915,15.1541900634766,15.1545925140381,15.1549940109253,15.1553974151611,15.1557998657227,15.1562023162842,15.1566047668457,15.1570072174072,15.1574106216431,15.1578121185303,15.1582155227661,15.1586179733276,15.1590204238892,15.1594228744507,15.1598253250122,15.160228729248,15.1606311798096,15.1610336303711,15.1614370346069,15.1618394851685,15.1622428894043,15.1626453399658,15.1630487442017,15.1634511947632,15.163854598999,15.1642570495605,15.1646604537964,15.1650629043579,15.1654663085938,15.1658687591553,15.1662721633911,15.166675567627,15.1670780181885,15.1674814224243,15.1678848266602,15.168288230896,15.1686916351318,15.1690940856934,15.1694974899292,15.169900894165,15.1703042984009,15.1707077026367,15.1711101531982,15.1715135574341,15.1719179153442,15.1723203659058,15.1727237701416,15.1731271743774,15.1735315322876,15.1739349365234,15.1743383407593,15.1747417449951,15.175145149231,15.1755485534668,15.1759519577026,15.1763553619385,15.1767597198486,15.1771631240845,15.1775674819946,15.1779708862305,15.1783742904663,15.1787776947021,15.179181098938,15.1795854568481,15.179988861084,15.1803932189941,15.18079662323,15.1812009811401,15.181604385376,15.1820087432861,15.182412147522,15.1828165054321,15.183219909668,15.1836242675781,15.1840286254883,15.1844320297241,15.1848363876343,15.1852397918701,15.1856451034546,15.1860485076904,15.1864528656006,15.1868572235107,15.1872615814209,15.1876659393311,15.1880693435669,15.1884737014771,15.1888780593872,15.1892824172974,15.1896867752075,15.1900911331177,15.1904954910278,15.190899848938,15.1913042068481,15.1917085647583,15.1921129226685,15.1925172805786,15.1929216384888,15.1933259963989,15.1937313079834,15.1941356658936,15.1945400238037,15.1949453353882,15.195348739624,15.1957540512085,15.1961584091187,15.1965627670288,15.1969680786133,15.1973724365234,15.1977777481079,15.1981821060181,15.1985864639282,15.1989917755127,15.1993961334229,15.1998014450073,15.2002067565918,15.200611114502,15.2010164260864,15.2014207839966,15.2018260955811,15.2022314071655,15.2026357650757,15.2030410766602,15.2034454345703,15.2038507461548,15.2042560577393,15.2046613693237,15.2050666809082,15.2054710388184,15.2058773040771,15.2062816619873,15.2066869735718,15.2070922851562,15.2074975967407,15.2079029083252,15.2083082199097,15.2087135314941,15.2091188430786,15.2095241546631,15.2099294662476,15.210334777832,15.2107400894165,15.2111463546753,15.2115516662598,15.2119569778442,15.2123622894287,15.2127676010132,15.213173866272,15.2135791778564,15.2139844894409,15.2143907546997,15.2147960662842,15.215202331543,15.2156076431274,15.2160129547119,15.2164192199707,15.2168245315552,15.217230796814,15.2176361083984,15.2180423736572,15.2184476852417,15.2188539505005,15.2192602157593,15.2196655273438,15.2200717926025,15.220477104187,15.2208833694458,15.2212896347046,15.2216949462891,15.2221012115479,15.2225074768066,15.2229137420654,15.2233200073242,15.2237253189087,15.2241325378418,15.2245378494263,15.2249441146851,15.2253503799438,15.2257566452026,15.2261629104614,15.2265691757202,15.226975440979,15.2273817062378,15.2277879714966,15.2281942367554,15.2286005020142,15.2290077209473,15.2294139862061,15.2298202514648,15.2302265167236,15.2306327819824,15.2310400009155,15.2314462661743,15.2318525314331,15.2322587966919,15.232666015625,15.2330722808838,15.2334794998169,15.2338857650757,15.2342929840088,15.2346992492676,15.2351064682007,15.2355127334595,15.2359189987183,15.2363262176514,15.2367324829102,15.2371406555176,15.2375469207764,15.2379531860352,15.2383613586426,15.2387676239014,15.2391748428345,15.2395811080933,15.2399883270264,15.2403955459595,15.2408027648926,15.2412099838257,15.2416162490845,15.2420234680176,15.2424306869507,15.2428379058838,15.2432451248169,15.24365234375,15.2440595626831,15.2444667816162,15.2448740005493,15.2452812194824,15.2456884384155,15.2460956573486,15.2465028762817,15.2469110488892,15.2473182678223,15.2477254867554,15.2481327056885,15.2485399246216,15.2489471435547,15.2493553161621,15.2497625350952,15.2501697540283,15.2505779266357,15.2509851455688,15.2513933181763,15.2518005371094,15.2522077560425,15.2526159286499,15.253023147583,15.2534313201904,15.2538394927979,15.254246711731,15.2546548843384,15.2550621032715,15.2554702758789,15.2558784484863,15.2562856674194,15.2566938400269,15.2571020126343,15.2575092315674,15.2579174041748,15.2583255767822,15.2587337493896,0,0,0,0,0,0,0,0,0,0,0,0,0,0,0,0,0,0,0,0,0,0,0,0,0,0,0,0,0,0,0,0,0,0,0,0,0,0,0,0,0,0,0,0,0,0,0,0,0,0,0,0,0,0,0,0,0,0,0,0,0,0,0,0,0,0,0,0,0,0,0,0,0,0,0,0,0,0,0,0,0,0,0,0,0,0,0,0,0,0,0,0,0,0,0,0,0,0
15.0124425888062,15.0128383636475,15.0132331848145,15.0136280059814,15.0140228271484,15.0144176483154,15.0148134231567,15.0152082443237,15.0156030654907,15.015998840332,15.016393661499,15.0167894363403,15.0171842575073,15.0175790786743,15.0179748535156,15.0183696746826,15.0187654495239,15.0191602706909,15.0195550918579,15.0199508666992,15.0203456878662,15.0207414627075,15.0211372375488,15.0215330123901,15.0219278335571,15.0223226547241,15.0227184295654,15.0231142044067,15.0235090255737,15.023904800415,15.0243005752563,15.0246963500977,15.025092124939,15.0254878997803,15.0258827209473,15.0262784957886,15.0266742706299,15.0270700454712,15.0274658203125,15.0278615951538,15.0282573699951,15.0286531448364,15.0290489196777,15.029444694519,15.0298404693604,15.0302362442017,15.0306329727173,15.0310287475586,15.0314245223999,15.0318202972412,15.0322160720825,15.0326118469238,15.0330076217651,15.0334043502808,15.0338001251221,15.0341958999634,15.034592628479,15.0349884033203,15.0353841781616,15.0357809066772,15.0361766815186,15.0365734100342,15.0369691848755,15.0373659133911,15.0377616882324,15.038158416748,15.0385541915894,15.038950920105,15.0393476486206,15.0397434234619,15.0401401519775,15.0405368804932,15.0409326553345,15.0413293838501,15.0417261123657,15.042121887207,15.0425186157227,15.0429153442383,15.0433120727539,15.0437078475952,15.0441045761108,15.0445013046265,15.0448980331421,15.0452947616577,15.0456914901733,15.046088218689,15.0464849472046,15.0468816757202,15.0472784042358,15.0476751327515,15.0480718612671,15.048469543457,15.0488662719727,15.049262046814,15.0496597290039,15.0500564575195,15.0504541397095,15.0508499145508,15.0512475967407,15.0516443252563,15.052041053772,15.0524387359619,15.0528354644775,15.0532321929932,15.0536298751831,15.0540266036987,15.0544242858887,15.0548210144043,15.0552186965942,15.0556154251099,15.0560131072998,15.0564098358154,15.0568075180054,15.057204246521,15.0576019287109,15.0579996109009,15.0583963394165,15.0587940216064,15.0591917037964,15.059588432312,15.059986114502,15.0603837966919,15.0607805252075,15.0611782073975,15.0615758895874,15.0619735717773,15.0623712539673,15.0627689361572,15.0631656646729,15.0635643005371,15.0639619827271,15.064359664917,15.0647573471069,15.0651550292969,15.0655517578125,15.0659494400024,15.0663480758667,15.0667457580566,15.0671434402466,15.0675411224365,15.0679388046265,15.0683374404907,15.0687351226807,15.0691328048706,15.0695304870605,15.0699291229248,15.0703268051147,15.0707244873047,15.0711231231689,15.0715208053589,15.0719184875488,15.0723171234131,15.0727157592773,15.0731134414673,15.0735111236572,15.0739097595215,15.0743074417114,15.0747060775757,15.0751047134399,15.0755023956299,15.0759010314941,15.0762987136841,15.0766973495483,15.0770959854126,15.0774936676025,15.0778923034668,15.0782909393311,15.0786895751953,15.0790882110596,15.0794858932495,15.0798845291138,15.080283164978,15.0806818008423,15.0810804367065,15.0814790725708,15.0818777084351,15.0822763442993,15.0826740264893,15.0830726623535,15.0834712982178,15.083869934082,15.0842695236206,15.0846681594849,15.0850667953491,15.0854654312134,15.0858640670776,15.0862636566162,15.0866622924805,15.0870609283447,15.087459564209,15.0878582000732,15.0882577896118,15.0886564254761,15.0890560150146,15.0894546508789,15.0898532867432,15.0902528762817,15.090651512146,15.0910511016846,15.0914497375488,15.0918493270874,15.0922479629517,15.0926475524902,15.0930461883545,15.0934457778931,15.0938453674316,15.0942440032959,15.0946435928345,15.0950422286987,15.0954418182373,15.0958414077759,15.0962409973145,15.096640586853,15.0970392227173,15.0974388122559,15.0978384017944,15.098237991333,15.0986375808716,15.0990371704102,15.0994358062744,15.099835395813,15.1002359390259,15.1006345748901,15.1010341644287,15.1014337539673,15.1018333435059,15.1022329330444,15.1026334762573,15.1030330657959,15.1034326553345,15.103832244873,15.1042318344116,15.1046314239502,15.1050319671631,15.1054315567017,15.1058311462402,15.1062307357788,15.1066312789917,15.1070308685303,15.1074314117432,15.1078310012817,15.1082305908203,15.1086311340332,15.1090307235718,15.1094312667847,15.1098308563232,15.1102313995361,15.110631942749,15.1110315322876,15.1114311218262,15.1118316650391,15.112232208252,15.1126317977905,15.1130323410034,15.1134328842163,15.1138324737549,15.1142339706421,15.1146335601807,15.1150341033936,15.1154336929321,15.115834236145,15.1162347793579,15.1166353225708,15.1170358657837,15.1174364089966,15.1178369522095,15.1182374954224,15.1186380386353,15.1190385818481,15.119439125061,15.1198396682739,15.1202402114868,15.120641708374,15.1210422515869,15.1214418411255,15.1218423843384,15.1222438812256,15.1226444244385,15.1230449676514,15.1234464645386,15.1238470077515,15.1242475509644,15.1246490478516,15.1250495910645,15.1254501342773,15.1258506774902,15.1262521743774,15.1266536712646,15.1270542144775,15.1274547576904,15.1278562545776,15.1282577514648,15.1286582946777,15.1290597915649,15.1294603347778,15.1298608779907,15.1302623748779,15.1306638717651,15.1310653686523,15.1314659118652,15.1318674087524,15.1322689056396,15.1326704025269,15.1330718994141,0,0,0,0,0,0,0,0,0,0,0,0,0,0,0,0,0,0,0,0,0,0,0,0,0,0,0,0,0,0,0,0,0,0,0,0,0,0,0,0,0,0,0,0,0,0,0,0,0,0,0,0,0,0,0,0,0,0,0,0,0,0,0,0,0,0,0,0,0,0,0,0,0,0,0,0,0,0,0,0,0,0,0,0,0,0,0,0,0,0,0,0
14.8884582519531,14.8888463973999,14.8892345428467,14.8896236419678,14.8900117874146,14.8904008865356,14.8907890319824,14.8911771774292,14.8915662765503,14.8919544219971,14.8923435211182,14.8927316665649,14.8931198120117,14.8935089111328,14.8938980102539,14.894287109375,14.8946752548218,14.8950643539429,14.895453453064,14.8958415985107,14.8962306976318,14.8966197967529,14.8970079421997,14.8973970413208,14.8977861404419,14.898175239563,14.8985643386841,14.8989524841309,14.8993425369263,14.899730682373,14.9001207351685,14.9005098342896,14.9008979797363,14.9012870788574,14.9016761779785,14.9020662307739,14.902455329895,14.9028434753418,14.9032335281372,14.9036226272583,14.9040117263794,14.9044008255005,14.9047899246216,14.9051790237427,14.9055690765381,14.9059581756592,14.9063472747803,14.9067363739014,14.9071264266968,14.9075155258179,14.9079055786133,14.9082946777344,14.9086837768555,14.9090738296509,14.909462928772,14.9098529815674,14.9102430343628,14.9106311798096,14.911021232605,14.9114112854004,14.9118013381958,14.9121904373169,14.912579536438,14.9129705429077,14.9133596420288,14.9137496948242,14.9141397476196,14.9145288467407,14.9149188995361,14.9153089523315,14.915699005127,14.9160890579224,14.9164781570435,14.9168682098389,14.9172582626343,14.9176483154297,14.9180383682251,14.9184274673462,14.9188184738159,14.919207572937,14.9195985794067,14.9199886322021,14.9203777313232,14.920768737793,14.9211587905884,14.9215488433838,14.9219388961792,14.9223289489746,14.92271900177,14.9231090545654,14.9235000610352,14.9238901138306,14.924280166626,14.9246702194214,14.9250612258911,14.9254512786865,14.9258422851562,14.9262323379517,14.9266223907471,14.9270133972168,14.9274034500122,14.9277944564819,14.9281845092773,14.9285745620728,14.9289655685425,14.9293565750122,14.9297475814819,14.930136680603,14.9305276870728,14.9309186935425,14.9313097000122,14.9317007064819,14.9320907592773,14.9324817657471,14.9328727722168,14.9332637786865,14.9336538314819,14.9340448379517,14.9344358444214,14.9348268508911,14.9352178573608,14.9356088638306,14.935998916626,14.9363899230957,14.9367809295654,14.9371719360352,14.9375629425049,14.9379539489746,14.9383449554443,14.9387359619141,14.9391269683838,14.9395179748535,14.9399089813232,14.940299987793,14.940691947937,14.9410829544067,14.9414739608765,14.9418649673462,14.9422569274902,14.94264793396,14.9430389404297,14.9434309005737,14.9438209533691,14.9442129135132,14.9446039199829,14.944995880127,14.9453868865967,14.9457788467407,14.9461698532104,14.9465618133545,14.9469528198242,14.9473447799683,14.947735786438,14.948127746582,14.9485187530518,14.9489107131958,14.9493026733398,14.9496936798096,14.9500856399536,14.9504776000977,14.9508695602417,14.9512615203857,14.9516525268555,14.9520444869995,14.9524354934692,14.9528284072876,14.9532203674316,14.9536113739014,14.9540033340454,14.9543952941895,14.9547872543335,14.9551792144775,14.9555711746216,14.9559631347656,14.9563550949097,14.9567470550537,14.9571390151978,14.9575309753418,14.9579229354858,14.9583148956299,14.9587078094482,14.9590997695923,14.9594917297363,14.9598836898804,14.9602756500244,14.9606685638428,14.9610605239868,14.9614524841309,14.9618453979492,14.9622373580933,14.9626293182373,14.9630222320557,14.9634141921997,14.9638071060181,14.9641990661621,14.9645919799805,14.9649839401245,14.9653759002686,14.9657688140869,14.9661617279053,14.9665536880493,14.9669466018677,14.9673385620117,14.9677314758301,14.9681243896484,14.9685173034668,14.9689092636108,14.9693012237549,14.9696950912476,14.9700870513916,14.97047996521,14.9708728790283,14.9712657928467,14.971658706665,14.9720516204834,14.9724445343018,14.9728374481201,14.9732294082642,14.9736232757568,14.9740152359009,14.9744091033936,14.9748020172119,14.975193977356,14.9755878448486,14.9759798049927,14.9763736724854,14.9767665863037,14.9771595001221,14.9775524139404,14.9779462814331,14.9783391952515,14.9787321090698,14.9791250228882,14.9795188903809,14.9799118041992,14.9803047180176,14.9806985855103,14.9810914993286,14.9814853668213,14.9818782806396,14.9822721481323,14.9826650619507,14.983057975769,14.9834518432617,14.9838447570801,14.9842386245728,14.9846324920654,14.9850254058838,14.9854192733765,14.9858121871948,14.9862060546875,14.9865999221802,14.9869928359985,14.9873867034912,14.9877805709839,14.9881744384766,14.9885683059692,14.9889612197876,14.9893550872803,14.9897489547729,14.9901428222656,14.9905366897583,14.9909296035767,14.9913244247437,14.9917182922363,14.992112159729,14.9925060272217,14.99289894104,14.993293762207,14.9936876296997,14.9940814971924,14.9944753646851,14.9948692321777,14.9952640533447,14.9956569671631,14.9960517883301,14.9964456558228,14.9968395233154,14.9972343444824,14.9976282119751,14.9980220794678,14.9984169006348,14.9988107681274,14.9992046356201,14.9995994567871,14.9999933242798,15.0003881454468,15.0007820129395,15.0011768341064,15.0015707015991,15.0019645690918,15.0023593902588,15.0027532577515,15.0031480789185,15.0035429000854,15.0039377212524,15.0043315887451,15.0047254562378,15.0051202774048,15.0055150985718,15.0059099197388,15.0063037872314,15.0066986083984,15.0070943832397,15.0074882507324,15.0078830718994,15.0082778930664,15.0086727142334,15.0090675354004,15.0094623565674,15.0098571777344,0,0,0,0,0,0,0,0,0,0,0,0,0,0,0,0,0,0,0,0,0,0,0,0,0,0,0,0,0,0,0,0,0,0,0,0,0,0,0,0,0,0,0,0,0,0,0,0,0,0,0,0,0,0,0,0,0,0,0,0,0,0,0,0,0,0,0,0,0,0,0,0,0,0,0,0,0,0,0,0,0,0,0,0,0
14.7665033340454,14.7668857574463,14.7672672271729,14.7676496505737,14.7680320739746,14.7684144973755,14.7687959671021,14.7691783905029,14.7695608139038,14.7699432373047,14.7703256607056,14.7707080841064,14.7710905075073,14.7714729309082,14.7718553543091,14.7722368240356,14.7726192474365,14.7730026245117,14.7733850479126,14.7737674713135,14.77414894104,14.7745323181152,14.7749147415161,14.775297164917,14.7756795883179,14.7760620117188,14.7764444351196,14.7768278121948,14.7772102355957,14.7775926589966,14.7779760360718,14.7783584594727,14.7787408828735,14.7791242599487,14.7795066833496,14.7798891067505,14.7802724838257,14.7806549072266,14.7810373306274,14.7814207077026,14.7818031311035,14.7821865081787,14.7825689315796,14.7829523086548,14.78333568573,14.7837181091309,14.7841005325317,14.7844839096069,14.7848672866821,14.7852506637573,14.7856330871582,14.7860164642334,14.7863998413086,14.7867832183838,14.7871656417847,14.7875490188599,14.7879323959351,14.7883157730103,14.7886991500854,14.7890815734863,14.7894649505615,14.7898483276367,14.7902326583862,14.7906150817871,14.7909984588623,14.7913818359375,14.7917652130127,14.7921485900879,14.7925319671631,14.7929162979126,14.7932996749878,14.7936820983887,14.7940664291382,14.7944498062134,14.7948331832886,14.7952165603638,14.795599937439,14.7959842681885,14.7963676452637,14.7967519760132,14.7971353530884,14.7975187301636,14.7979030609131,14.7982864379883,14.7986698150635,14.799054145813,14.7994375228882,14.7998218536377,14.8002052307129,14.8005895614624,14.8009729385376,14.8013572692871,14.8017416000366,14.8021249771118,14.8025093078613,14.8028926849365,14.803277015686,14.8036613464355,14.8040447235107,14.8044290542603,14.8048133850098,14.805196762085,14.8055810928345,14.805965423584,14.8063497543335,14.8067331314087,14.8071174621582,14.8075017929077,14.8078861236572,14.8082704544067,14.8086547851562,14.8090391159058,14.8094234466553,14.8098077774048,14.8101921081543,14.8105764389038,14.8109607696533,14.8113460540771,14.8117294311523,14.8121147155762,14.8124990463257,14.8128833770752,14.8132677078247,14.8136520385742,14.8140363693237,14.8144216537476,14.8148059844971,14.8151912689209,14.8155755996704,14.8159599304199,14.8163442611694,14.8167295455933,14.8171138763428,14.8174991607666,14.8178834915161,14.8182687759399,14.8186531066895,14.8190383911133,14.8194227218628,14.8198080062866,14.8201923370361,14.82057762146,14.8209629058838,14.8213472366333,14.8217325210571,14.8221168518066,14.8225021362305,14.8228874206543,14.8232727050781,14.823657989502,14.8240423202515,14.8244276046753,14.8248128890991,14.8251981735229,14.8255834579468,14.8259677886963,14.8263530731201,14.8267383575439,14.8271236419678,14.8275098800659,14.8278942108154,14.8282794952393,14.8286647796631,14.8290500640869,14.8294363021851,14.8298215866089,14.8302059173584,14.8305921554565,14.8309774398804,14.8313627243042,14.831748008728,14.8321332931519,14.83251953125,14.8329048156738,14.833291053772,14.8336763381958,14.8340616226196,14.8344469070435,14.8348331451416,14.8352193832397,14.8356046676636,14.8359899520874,14.8363752365112,14.8367614746094,14.8371477127075,14.8375329971313,14.8379182815552,14.8383045196533,14.8386907577515,14.8390769958496,14.8394622802734,14.8398485183716,14.8402338027954,14.8406200408936,14.8410062789917,14.8413915634155,14.8417778015137,14.8421640396118,14.84255027771,14.8429365158081,14.8433218002319,14.8437080383301,14.8440942764282,14.8444805145264,14.8448667526245,14.8452529907227,14.8456392288208,14.8460254669189,14.8464107513428,14.8467979431152,14.8471841812134,14.8475694656372,14.8479566574097,14.8483428955078,14.848729133606,14.8491153717041,14.8495016098022,14.8498888015747,14.8502750396729,14.850661277771,14.8510475158691,14.8514337539673,14.8518209457397,14.8522081375122,14.8525943756104,14.8529806137085,14.8533668518066,14.8537540435791,14.8541402816772,14.8545274734497,14.8549137115479,14.8553009033203,14.8556871414185,14.8560743331909,14.8564605712891,14.8568477630615,14.8572340011597,14.8576211929321,14.8580083847046,14.8583955764771,14.8587818145752,14.8591690063477,14.8595552444458,14.8599424362183,14.8603296279907,14.8607158660889,14.8611030578613,14.8614902496338,14.8618774414062,14.8622646331787,14.8626518249512,14.8630390167236,14.8634262084961,14.8638134002686,14.864200592041,14.8645877838135,14.8649749755859,14.8653621673584,14.8657493591309,14.8661365509033,14.8665237426758,14.8669109344482,14.867299079895,14.8676853179932,14.8680734634399,14.8684606552124,14.8688478469849,14.8692350387573,14.8696231842041,14.8700113296509,14.870397567749,14.8707847595215,14.8711729049683,14.8715600967407,14.8719482421875,14.87233543396,14.8727226257324,14.8731107711792,14.873498916626,14.8738870620728,14.8742742538452,14.8746614456177,14.8750495910645,14.8754367828369,14.8758249282837,14.8762130737305,14.8766002655029,14.8769884109497,14.8773765563965,14.8777637481689,14.8781518936157,14.8785400390625,14.878927230835,14.8793153762817,14.8797035217285,14.8800916671753,14.8804798126221,14.8808679580688,14.8812561035156,14.8816442489624,14.8820323944092,14.8824195861816,14.8828077316284,14.8831968307495,14.883584022522,14.8839731216431,14.8843612670898,14.8847494125366,14.8851375579834,14.8855257034302,14.885913848877,14.8863019943237,14.8866910934448,14.8870792388916,14.8874673843384,14.8878555297852,14.8882436752319,0,0,0,0,0,0,0,0,0,0,0,0,0,0,0,0,0,0,0,0,0,0,0,0,0,0,0,0,0,0,0,0,0,0,0,0,0,0,0,0,0,0,0,0,0,0,0,0,0,0,0,0,0,0,0,0,0,0,0,0,0,0,0,0,0,0,0,0,0,0,0,0,0,0,0,0,0,0,0
14.6465311050415,14.6469068527222,14.6472826004028,14.6476583480835,14.6480350494385,14.6484107971191,14.6487865447998,14.6491632461548,14.6495389938354,14.6499147415161,14.6502904891968,14.6506671905518,14.6510429382324,14.6514196395874,14.6517953872681,14.6521711349487,14.6525478363037,14.6529245376587,14.6533002853394,14.6536769866943,14.654052734375,14.65442943573,14.654806137085,14.6551818847656,14.6555585861206,14.6559352874756,14.6563119888306,14.6566877365112,14.6570634841919,14.6574401855469,14.6578168869019,14.6581945419312,14.6585702896118,14.6589460372925,14.6593227386475,14.6597003936768,14.6600770950317,14.6604537963867,14.6608295440674,14.6612062454224,14.6615829467773,14.6619596481323,14.6623373031616,14.6627130508423,14.6630897521973,14.6634664535522,14.6638441085815,14.6642208099365,14.6645975112915,14.6649742126465,14.6653509140015,14.6657276153564,14.6661052703857,14.6664819717407,14.6668586730957,14.6672353744507,14.66761302948,14.667989730835,14.6683664321899,14.6687440872192,14.6691207885742,14.6694984436035,14.6698751449585,14.6702518463135,14.6706295013428,14.6710062026978,14.6713838577271,14.671760559082,14.672137260437,14.6725158691406,14.6728925704956,14.6732702255249,14.6736469268799,14.6740245819092,14.6744022369385,14.6747789382935,14.6751565933228,14.6755342483521,14.675910949707,14.6762886047363,14.6766662597656,14.6770439147949,14.6774215698242,14.6777982711792,14.6781768798828,14.6785535812378,14.6789321899414,14.6793088912964,14.6796865463257,14.680064201355,14.6804418563843,14.6808195114136,14.6811971664429,14.6815748214722,14.6819524765015,14.6823301315308,14.6827087402344,14.6830863952637,14.683464050293,14.6838417053223,14.6842193603516,14.6845979690552,14.6849756240845,14.6853532791138,14.6857309341431,14.6861095428467,14.686487197876,14.6868648529053,14.6872425079346,14.6876211166382,14.6879987716675,14.6883773803711,14.6887550354004,14.689133644104,14.6895112991333,14.6898899078369,14.6902675628662,14.6906461715698,14.6910238265991,14.6914024353027,14.6917810440063,14.6921586990356,14.6925373077393,14.6929149627686,14.6932935714722,14.6936721801758,14.6940507888794,14.694429397583,14.6948070526123,14.6951856613159,14.6955642700195,14.6959428787231,14.6963214874268,14.6966991424561,14.6970777511597,14.6974563598633,14.6978349685669,14.6982135772705,14.6985921859741,14.6989707946777,14.6993494033813,14.6997289657593,14.7001066207886,14.7004852294922,14.7008647918701,14.7012434005737,14.7016220092773,14.702000617981,14.7023792266846,14.7027578353882,14.7031364440918,14.7035160064697,14.7038946151733,14.704273223877,14.7046518325806,14.7050313949585,14.7054100036621,14.70578956604,14.7061681747437,14.7065467834473,14.7069263458252,14.7073049545288,14.7076845169067,14.7080631256104,14.7084426879883,14.7088212966919,14.7092008590698,14.7095804214478,14.7099590301514,14.710337638855,14.7107172012329,14.7110967636108,14.7114763259888,14.7118549346924,14.7122344970703,14.7126140594482,14.7129936218262,14.7133722305298,14.7137517929077,14.7141313552856,14.7145109176636,14.7148904800415,14.7152690887451,14.715648651123,14.716028213501,14.7164077758789,14.7167873382568,14.7171669006348,14.7175464630127,14.7179260253906,14.7183055877686,14.7186861038208,14.7190647125244,14.7194442749023,14.7198247909546,14.7202043533325,14.7205839157104,14.7209634780884,14.7213430404663,14.7217235565186,14.7221031188965,14.7224826812744,14.7228622436523,14.7232427597046,14.7236223220825,14.7240018844604,14.7243824005127,14.7247619628906,14.7251415252686,14.7255220413208,14.725902557373,14.726282119751,14.7266616821289,14.7270421981812,14.7274227142334,14.7278022766113,14.7281827926636,14.7285623550415,14.7289428710938,14.729323387146,14.7297029495239,14.7300834655762,14.7304639816284,14.7308435440063,14.7312240600586,14.7316045761108,14.7319850921631,14.732364654541,14.7327451705933,14.7331256866455,14.7335062026978,14.73388671875,14.7342672348022,14.7346477508545,14.7350282669067,14.735408782959,14.7357892990112,14.7361698150635,14.7365493774414,14.736930847168,14.7373113632202,14.7376918792725,14.7380723953247,14.738452911377,14.7388334274292,14.7392139434814,14.739595413208,14.7399759292603,14.7403564453125,14.7407379150391,14.7411184310913,14.7414989471436,14.7418794631958,14.742259979248,14.7426414489746,14.7430219650269,14.7434034347534,14.7437839508057,14.7441644668579,14.7445459365845,14.7449264526367,14.7453079223633,14.7456884384155,14.7460699081421,14.7464513778687,14.7468318939209,14.7472133636475,14.7475938796997,14.7479753494263,14.7483568191528,14.7487382888794,14.749119758606,14.7495002746582,14.7498807907104,14.7502632141113,14.7506437301636,14.7510251998901,14.7514066696167,14.7517881393433,14.7521696090698,14.7525510787964,14.7529325485229,14.7533130645752,14.7536954879761,14.7540760040283,14.7544574737549,14.7548398971558,14.755220413208,14.7556028366089,14.7559843063354,14.756365776062,14.7567472457886,14.7571287155151,14.757511138916,14.7578926086426,14.7582731246948,14.7586555480957,14.7590370178223,14.7594184875488,14.7598009109497,14.7601823806763,14.7605648040771,14.7609462738037,14.7613277435303,14.7617101669312,14.7620916366577,14.7624731063843,14.7628555297852,14.7632369995117,14.7636194229126,14.7640008926392,14.76438331604,14.7647647857666,14.7651472091675,14.7655296325684,14.7659111022949,14.7662935256958,14.7666749954224,14.7670574188232,14.7674398422241,14.767822265625,14.7682046890259,14.7685861587524,0,0,0,0,0,0,0,0,0,0,0,0,0,0,0,0,0,0,0,0,0,0,0,0,0,0,0,0,0,0,0,0,0,0,0,0,0,0,0,0,0,0,0,0,0,0,0,0,0,0,0,0,0,0,0,0,0,0,0,0,0,0,0,0,0,0,0,0,0,0,0,0,0
