0,0,0,0,0,0,0,0,0,0,0,0,0,0,0,0,0,0,0,0,0,0,0,0,0,0,0,0,0,0,0,0,0,0,0,0,0,0,0,0,0,0,0,0,0,0,0,0,0,0,0,0,0,0,0,0,0,0,0,0,0,0,0,0,0,0,0,0,0,0,0,0,0,0,0,0,0,0,0,0,0,0,0,0,0,0,0,0,0,0,0,0,0,0,0,0,0,0,0,0,0,0,0,0,0,0,0,0,0,0,0,0,0,0,0,0,0,0,0,0,0,0,0,0,0,0,0,0,0,0,0,0,0,0,0,0,0,0,0,0,0,0,0,0,0,0,0,0,0,0,0,0,0,0,0,0,0,0,0,0,0,0,0,0,0,0,0,0,0,0,0,0,0,0,0,0,0,0,0,0,0,0,0,0,0,0,0,0,0,0,0,0,0,0,0,0,0,0,0,0,0,0,0,0,0,0,0,0,0,0,0,0,0,0,0,0,0,0,0,0,0,0,0,0,0,0,0,0,0,0,0,0,0,0,0,0,0,0,0,0,0,0,0,0,0,0,0,0,0,0,0,0,0,0,0,0,0,0,0,0,0,0,0,0,0,0,0,0,0,0,0,0,0,0,0,0,0,0,0,0,0,0,0,0,0,0,0,0,0,0,0,0,0,0,0,0,0,0,0,0,0,0,0,0,0,0,0,0,0,0,0,0,0,0,0,0,0,0,0,0,0,0,0,0,0,0,0,0,0,0,0,0,0,0,0,0,0,0,0,0,0,0,0,0,0,0,0,0,0,0,0,0,0,0,0,0,0,0,0,0,0,0,0,0,0,0,0,0,0,0,14.925199508667,14.8802013397217,14.8354730606079,14.7910137176514,14.7468194961548,14.7028884887695,14.659218788147,14.6158075332642,14.5726528167725,14.5297517776489,14.4871025085449,14.4447040557861,14.402551651001,14.3606443405151,14.31898021698,14.2775573730469,14.2363729476929,14.224440574646
0,0,0,0,0,0,0,0,0,0,0,0,0,0,0,0,0,0,0,0,0,0,0,0,0,0,0,0,0,0,0,0,0,0,0,0,0,0,0,0,0,0,0,0,0,0,0,0,0,0,0,0,0,0,0,0,0,0,0,0,0,0,0,0,0,0,0,0,0,0,0,0,0,0,0,0,0,0,0,0,0,0,0,0,0,0,0,0,0,0,0,0,0,0,0,0,0,0,0,0,0,0,0,0,0,0,0,0,0,0,0,0,0,0,0,0,0,0,0,0,0,0,0,0,0,0,0,0,0,0,0,0,0,0,0,0,0,0,0,0,0,0,0,0,0,0,0,0,0,0,0,0,0,0,0,0,0,0,0,0,0,0,0,0,0,0,0,0,0,0,0,0,0,0,0,0,0,0,0,0,0,0,0,0,0,0,0,0,0,0,0,0,0,0,0,0,0,0,0,0,0,0,0,0,0,0,0,0,0,0,0,0,0,0,0,0,0,0,0,0,0,0,0,0,0,0,0,0,0,0,0,0,0,0,0,0,0,0,0,0,0,0,0,0,0,0,0,0,0,0,0,0,0,0,0,0,0,0,0,0,0,0,0,0,0,0,0,0,0,0,0,0,0,0,0,0,0,0,0,0,0,0,0,0,0,0,0,0,0,0,0,0,0,0,0,0,0,0,0,0,0,0,0,0,0,0,0,0,0,0,0,0,0,0,0,0,0,0,0,0,0,0,0,0,0,0,0,0,0,0,0,0,0,0,0,0,0,0,0,0,0,0,0,0,0,0,0,0,0,0,0,0,0,0,0,0,0,0,0,0,0,0,0,0,0,0,0,0,0,0,0,0,0,0,0,0,0,0,0,0,0,0,0,0,0,14.2777137756348,14.2559070587158,14.2599773406982
0,0,0,0,0,0,0,0,0,0,0,0,0,0,0,0,0,0,0,0,0,0,0,0,0,0,0,0,0,0,0,0,0,0,0,0,0,0,0,0,0,0,0,0,0,0,0,0,0,0,0,0,0,0,0,0,0,0,0,0,0,0,0,0,0,0,0,0,0,0,0,0,0,0,0,0,0,0,0,0,0,0,0,0,0,0,0,0,0,0,0,0,0,0,0,0,0,0,0,0,0,0,0,0,0,0,0,0,0,0,0,0,0,0,0,0,0,0,0,0,0,0,0,0,0,0,0,0,0,0,0,0,0,0,0,0,0,0,0,0,0,0,0,0,0,0,0,0,0,0,0,0,0,0,0,0,0,0,0,0,0,0,0,0,0,0,0,0,0,0,0,0,0,0,0,0,0,0,0,0,0,0,0,0,0,0,0,0,0,0,0,0,0,0,0,0,0,0,0,0,0,0,0,0,0,0,0,0,0,0,0,0,0,0,0,0,0,0,0,0,0,0,0,0,0,0,0,0,0,0,0,0,0,0,0,0,0,0,0,0,0,0,0,0,0,0,0,0,0,0,0,0,0,0,0,0,0,0,0,0,0,0,0,0,0,0,0,0,0,0,0,0,0,0,0,0,0,0,0,0,0,0,0,0,0,0,0,0,0,0,0,0,0,0,0,0,0,0,0,0,0,0,0,0,0,0,0,0,0,0,0,0,0,0,0,0,0,0,0,0,0,0,0,0,0,0,0,0,0,0,0,0,0,0,0,0,0,0,0,0,0,0,0,0,0,0,0,0,0,0,0,0,0,0,0,0,0,0,0,0,0,0,0,0,0,0,0,0,0,0,0,0,0,0,0,0,0,0,0,0,0,0,0,0,0,0,0,0
0,0,0,0,0,0,0,0,0,0,0,0,0,0,0,0,0,0,0,0,0,0,0,0,0,0,0,0,0,0,0,0,0,0,0,0,0,0,0,0,0,0,0,0,0,0,0,0,0,0,0,0,0,0,0,0,0,0,0,0,0,0,0,0,0,0,0,0,0,0,0,0,0,0,0,0,0,0,0,0,0,0,0,0,0,0,0,0,0,0,0,0,0,0,0,0,0,0,0,0,0,0,0,0,0,0,0,0,0,0,0,0,0,0,0,0,0,0,0,0,0,0,0,0,0,0,0,0,0,0,0,0,0,0,0,0,0,0,0,0,0,0,0,0,0,0,0,0,0,0,0,0,0,0,0,0,0,0,0,0,0,0,0,0,0,0,0,0,0,0,0,0,0,0,0,0,0,0,0,0,0,0,0,0,0,0,0,0,0,0,0,0,0,0,0,0,0,0,0,0,0,0,0,0,0,0,0,0,0,0,0,0,0,0,0,0,0,0,0,0,0,0,0,0,0,0,0,0,0,0,0,0,0,0,0,0,0,0,0,0,0,0,0,0,0,0,0,0,0,0,0,0,0,0,0,0,0,0,0,0,0,0,0,0,0,0,0,0,0,0,0,0,0,0,0,0,0,0,0,0,0,0,0,0,0,0,0,0,0,0,0,0,0,0,0,0,0,0,0,0,0,0,0,0,0,0,0,0,0,0,0,0,0,0,0,0,0,0,0,0,0,0,0,0,0,0,0,0,0,0,0,0,0,0,0,0,0,0,0,0,0,0,0,0,0,0,0,0,0,0,0,0,0,0,0,0,0,0,0,0,0,0,0,0,0,0,0,0,0,0,0,0,0,0,0,0,0,0,0,0,0,0,0,0,0,0,0,0
0,0,0,0,0,0,0,0,0,0,0,0,0,0,0,0,0,0,0,0,0,0,0,0,0,0,0,0,0,0,0,0,0,0,0,0,0,0,0,0,0,0,0,0,0,0,0,0,0,0,0,0,0,0,0,0,0,0,0,0,0,0,0,0,0,0,0,0,0,0,0,0,0,0,0,0,0,0,0,0,0,0,0,0,0,0,0,0,0,0,0,0,0,0,0,0,0,0,0,0,0,0,0,0,0,0,0,0,0,0,0,0,0,0,0,0,0,0,0,0,0,0,0,0,0,0,0,0,0,0,0,0,0,0,0,0,0,0,0,0,0,0,0,0,0,0,0,0,0,0,0,0,0,0,0,0,0,0,0,0,0,0,0,0,0,0,0,0,0,0,0,0,0,0,0,0,0,0,0,0,0,0,0,0,0,0,0,0,0,0,0,0,0,0,0,0,0,0,0,0,0,0,0,0,0,0,0,0,0,0,0,0,0,0,0,0,0,0,0,0,0,0,0,0,0,0,0,0,0,0,0,0,0,0,0,0,0,0,0,0,0,0,0,0,0,0,0,0,0,0,0,0,0,0,0,0,0,0,0,0,0,0,0,0,0,0,0,0,0,0,0,0,0,0,0,0,0,0,0,0,0,0,0,0,0,0,0,0,0,0,0,0,0,0,0,0,0,0,0,0,0,0,0,0,0,0,0,0,0,0,0,0,0,0,0,0,0,0,0,0,0,0,0,0,0,0,0,0,0,0,0,0,0,0,0,0,0,0,0,0,0,0,0,0,0,0,0,0,0,0,0,0,0,0,0,0,0,0,0,0,0,0,0,0,0,0,0,0,0,0,0,0,0,0,0,0,0,0,0,0,0,0,0,0,0,0,0,0
0,0,0,0,0,0,0,0,0,0,0,0,0,0,0,0,0,0,0,0,0,0,0,0,0,0,0,0,0,0,0,0,0,0,0,0,0,0,0,0,0,0,0,0,0,0,0,0,0,0,0,0,0,0,0,0,0,0,0,0,0,0,0,0,0,0,0,0,0,0,0,0,0,0,0,0,0,0,0,0,0,0,0,0,0,0,0,0,0,0,0,0,0,0,0,0,0,0,0,0,0,0,0,0,0,0,0,0,0,0,0,0,0,0,0,0,0,0,0,0,0,0,0,0,0,0,0,0,0,0,0,0,0,0,0,0,0,0,0,0,0,0,0,0,0,0,0,0,0,0,0,0,0,0,0,0,0,0,0,0,0,0,0,0,0,0,0,0,0,0,0,0,0,0,0,0,0,0,0,0,0,0,0,0,0,0,0,0,0,0,0,0,0,0,0,0,0,0,0,0,0,0,0,0,0,0,0,0,0,0,0,0,0,0,0,0,0,0,0,0,0,0,0,0,0,0,0,0,0,0,0,0,0,0,0,0,0,0,0,0,0,0,0,0,0,0,0,0,0,0,0,0,0,0,0,0,0,0,0,0,0,0,0,0,0,0,0,0,0,0,0,0,0,0,0,0,0,0,0,0,0,0,0,0,0,0,0,0,0,0,0,0,0,0,0,0,0,0,0,0,0,0,0,0,0,0,0,0,0,0,0,0,0,0,0,0,0,0,0,0,0,0,0,0,0,0,0,0,0,0,0,0,0,0,0,0,0,0,0,0,0,0,0,0,0,0,0,0,0,0,0,0,0,0,0,0,0,0,0,0,0,0,0,0,0,0,0,0,0,0,0,0,0,0,0,0,0,0,0,0,0,0,0,0,0,0,0,0
0,0,0,0,0,0,0,0,0,0,0,0,0,0,0,0,0,0,0,0,0,0,0,0,0,0,0,0,0,0,0,0,0,0,0,0,0,0,0,0,0,0,0,0,0,0,0,0,0,0,0,0,0,0,0,0,0,0,0,0,0,0,0,0,0,0,0,0,0,0,0,0,0,0,0,0,0,0,0,0,0,0,0,0,0,0,0,0,0,0,0,0,0,0,0,0,0,0,0,0,0,0,0,0,0,0,0,0,0,0,0,0,0,0,0,0,0,0,0,0,0,0,0,0,0,0,0,0,0,0,0,0,0,0,0,0,0,0,0,0,0,0,0,0,0,0,0,0,0,0,0,0,0,0,0,0,0,0,0,0,0,0,0,0,0,0,0,0,0,0,0,0,0,0,0,0,0,0,0,0,0,0,0,0,0,0,0,0,0,0,0,0,0,0,0,0,0,0,0,0,0,0,0,0,0,0,0,0,0,0,0,0,0,0,0,0,0,0,0,0,0,0,0,0,0,0,0,0,0,0,0,0,0,0,0,0,0,0,0,0,0,0,0,0,0,0,0,0,0,0,0,0,0,0,0,0,0,0,0,0,0,0,0,0,0,0,0,0,0,0,0,0,0,0,0,0,0,0,0,0,0,0,0,0,0,0,0,0,0,0,0,0,0,0,0,0,0,0,0,0,0,0,0,0,0,0,0,0,0,0,0,0,0,0,0,0,0,0,0,0,0,0,0,0,0,0,0,0,0,0,0,0,0,0,0,0,0,0,0,0,0,0,0,0,0,0,0,0,0,0,0,0,0,0,0,0,0,0,0,0,0,0,0,0,0,0,0,0,0,0,0,0,0,0,0,0,0,0,0,0,0,0,0,0,0,0,0,0
0,0,0,0,0,0,0,0,0,0,0,0,0,0,0,0,0,0,0,0,0,0,0,0,0,0,0,0,0,0,0,0,0,0,0,0,0,0,0,0,0,0,0,0,0,0,0,0,0,0,0,0,0,0,0,0,0,0,0,0,0,0,0,0,0,0,0,0,0,0,0,0,0,0,0,0,0,0,0,0,0,0,0,0,0,0,0,0,0,0,0,0,0,0,0,0,0,0,0,0,0,0,0,0,0,0,0,0,0,0,0,0,0,0,0,0,0,0,0,0,0,0,0,0,0,0,0,0,0,0,0,0,0,0,0,0,0,0,0,0,0,0,0,0,0,0,0,0,0,0,0,0,0,0,0,0,0,0,0,0,0,0,0,0,0,0,0,0,0,0,0,0,0,0,0,0,0,0,0,0,0,0,0,0,0,0,0,0,0,0,0,0,0,0,0,0,0,0,0,0,0,0,0,0,0,0,0,0,0,0,0,0,0,0,0,0,0,0,0,0,0,0,0,0,0,0,0,0,0,0,0,0,0,0,0,0,0,0,0,0,0,0,0,0,0,0,0,0,0,0,0,0,0,0,0,0,0,0,0,0,0,0,0,0,0,0,0,0,0,0,0,0,0,0,0,0,0,0,0,0,0,0,0,0,0,0,0,0,0,0,0,0,0,0,0,0,0,0,0,0,0,0,0,0,0,0,0,0,0,0,0,0,0,0,0,0,0,0,0,0,0,0,0,0,0,0,0,0,0,0,0,0,0,0,0,0,0,0,0,0,0,0,0,0,0,0,0,0,0,0,0,0,0,0,0,0,0,0,0,0,0,0,0,0,0,0,0,0,0,0,0,0,0,0,0,0,0,0,0,0,0,0,0,0,0,0,0,0
19.8801250457764,19.880880355835,19.8816394805908,19.8823928833008,19.8831520080566,19.8839073181152,19.8846626281738,19.8854160308838,19.886173248291,19.8869323730469,19.8876876831055,19.8884391784668,19.8892002105713,19.8899517059326,19.8907108306885,19.8914680480957,19.8922214508057,19.8929786682129,19.8937301635742,19.8944931030273,19.89524269104,19.8960037231445,19.8967609405518,19.8975143432617,19.8982715606689,19.8990306854248,19.899787902832,19.9005393981934,19.9013004302979,19.9020576477051,19.9028186798096,19.9035739898682,19.9043292999268,19.905086517334,19.9058456420898,19.9066009521484,19.9073581695557,19.9081192016602,19.9088726043701,19.909631729126,19.9103889465332,19.9111423492432,19.9118976593018,19.9126567840576,19.9134120941162,19.9141712188721,19.9149322509766,19.9156837463379,19.9164485931396,19.917200088501,19.9179592132568,19.9187202453613,19.9194812774658,19.9202365875244,19.9209938049316,19.9217548370361,19.9225120544434,19.9232711791992,19.9240283966064,19.9247875213623,19.9255447387695,19.9263038635254,19.9270648956299,19.9278221130371,19.9285831451416,19.9293403625488,19.9301013946533,19.9308624267578,19.9316177368164,19.9323787689209,19.9331378936768,19.9338970184326,19.9346561431885,19.9354133605957,19.9361782073975,19.9369335174561,19.9376945495605,19.9384498596191,19.9392166137695,19.9399719238281,19.9407367706299,19.9414939880371,19.9422550201416,19.9430141448975,19.9437694549561,19.9445343017578,19.9452972412109,19.9460563659668,19.9468154907227,19.9475746154785,19.9483337402344,19.9490966796875,19.949857711792,19.9506130218506,19.9513759613037,19.9521350860596,19.95290184021,19.9536609649658,19.9544239044189,19.9551830291748,19.9559440612793,19.9567070007324,19.9574642181396,19.9582252502441,19.9589862823486,19.9597492218018,19.9605083465576,19.9612770080566,19.9620361328125,19.9627933502197,19.9635601043701,19.964319229126,19.9650821685791,19.9658451080322,19.9666061401367,19.9673690795898,19.9681301116943,19.9688930511475,19.9696521759033,19.9704151153564,19.9711742401123,19.9719409942627,19.9727039337158,19.9734630584717,19.9742240905762,19.9749927520752,19.9757537841797,19.9765129089355,19.9772758483887,19.9780387878418,19.9788017272949,19.979564666748,19.9803295135498,19.9810905456543,19.9818534851074,19.9826164245605,19.9833793640137,19.9841423034668,19.9849014282227,19.985668182373,19.9864330291748,19.9871959686279,19.9879589080811,19.9887256622314,19.9894905090332,19.9902477264404,19.9910163879395,19.9917774200439,19.9925441741943,19.9933032989502,19.9940738677979,19.9948329925537,19.9955959320068,19.9963607788086,19.9971256256104,19.9978942871094,19.998649597168,19.9994201660156,0,0,0,0,0,0,0,0,0,0,0,0,0,0,0,0,0,0,0,0,0,0,0,0,0,0,0,0,0,0,0,0,0,0,0,0,0,0,0,0,0,0,0,0,0,0,0,0,0,0,0,0,0,0,0,0,0,0,0,0,0,0,0,0,0,0,0,0,0,0,0,0,0,0,0,0,0,0,0,0,0,0,0,0,0,0,0,0,0,0,0,0,19.7509517669678,19.751708984375,19.7524662017822,19.7532234191895,19.7539806365967,19.7547378540039,19.7554950714111,19.7562503814697,19.757007598877,19.7577648162842,19.7585220336914,19.7592811584473,19.7600383758545,19.7607955932617,19.7615528106689,19.7623100280762,19.7630672454834,19.7638244628906,19.7645835876465,19.7653408050537,19.7660980224609,0,0,0,0,0,0,0,0,0,0,0,0,0,0,0,0,0,0,0,0,0,0,0,0,0,0,0,0,0,0,0,0,0,0,0,0,0,0,0,0,0,0,0,0,0,0,0,0,0,0,0,0,0,0,0,0,0,0,0,0,0,0,0,0,0,0,0,0,0,0,0,0,0,0,0,0,0,0,0,0,0,0,0,0,0,0,0,0,0,0,0,0,0,0,0,0,0,0,0,0,0,0,0,0,0,0,0,0,0,0,0,0,0,0,0,0,0
19.6664161682129,19.6671562194824,19.6679000854492,19.6686325073242,19.6693801879883,19.6701126098633,19.6708545684814,19.671594619751,19.6723346710205,19.6730709075928,19.6738033294678,19.6745471954346,19.6752853393555,19.6760330200195,19.6767711639404,19.67751121521,19.6782493591309,19.6789875030518,19.6797294616699,19.6804695129395,19.6812114715576,19.6819496154785,19.682689666748,19.6834259033203,19.6841697692871,19.6849098205566,19.6856498718262,19.6863899230957,19.6871337890625,19.6878757476807,19.6886119842529,19.6893577575684,19.6900959014893,19.6908359527588,19.691577911377,19.6923160552979,19.6930637359619,19.6938018798828,19.6945476531982,19.6952838897705,19.6960277557373,19.6967716217041,19.697509765625,19.6982517242432,19.6989898681641,19.6997356414795,19.7004795074463,19.7012176513672,19.7019596099854,19.7026996612549,19.7034397125244,19.7041778564453,19.7049236297607,19.7056694030762,19.706413269043,19.7071514129639,19.7078952789307,19.7086372375488,19.7093772888184,19.7101230621338,19.7108669281006,19.7116069793701,19.7123489379883,19.7130928039551,19.7138366699219,19.71457862854,19.7153205871582,19.7160606384277,19.7168064117432,19.7175483703613,19.7182922363281,19.7190361022949,19.7197799682617,19.7205219268799,19.721263885498,19.7220077514648,19.7227535247803,19.7234973907471,19.724235534668,19.7249813079834,19.7257232666016,19.726469039917,19.7272129058838,19.7279605865479,19.728702545166,19.7294445037842,19.7301921844482,19.7309322357178,19.7316780090332,19.7324199676514,19.7331638336182,19.733907699585,19.7346534729004,19.7353992462158,19.7361431121826,19.7368869781494,19.7376308441162,19.7383766174316,19.7391166687012,19.7398662567139,19.740608215332,19.7413558959961,19.7420978546143,19.7428455352783,19.7435874938965,19.7443313598633,19.7450790405273,19.7458229064941,19.7465705871582,19.7473125457764,19.7480564117432,19.7488059997559,19.7495498657227,19.7502994537354,19.7510395050049,19.7517852783203,19.7525310516357,19.7532787322998,19.7540225982666,19.754768371582,19.7555141448975,19.7562580108643,19.7570037841797,19.7577495574951,19.7585029602051,19.7592468261719,19.7599906921387,19.7607364654541,19.7614803314209,19.7622318267822,19.762975692749,19.7637214660645,19.7644710540771,19.7652149200439,19.7659645080566,19.7667083740234,19.7674598693848,19.7682018280029,19.7689514160156,19.7696933746338,19.7704448699951,19.7711887359619,19.7719383239746,19.7726860046387,19.7734336853027,19.7741775512695,19.774923324585,19.7756748199463,19.7764205932617,19.777172088623,19.7779178619385,19.7786636352539,19.7794075012207,19.7801532745361,19.7809028625488,19.7816486358643,19.7824039459229,19.7831497192383,19.7839012145996,19.7846450805664,19.7853946685791,19.7861385345459,19.7868919372559,19.7876396179199,19.7883834838867,19.7891368865967,19.7898807525635,19.7906360626221,19.7913780212402,19.7921257019043,19.7928791046143,19.7936210632324,19.794376373291,19.7951240539551,19.7958717346191,19.7966213226318,19.7973728179932,19.79811668396,19.7988624572754,19.7996139526367,19.8003635406494,19.8011150360107,19.8018646240234,19.8026142120361,19.8033561706543,19.8041095733643,19.8048572540283,19.805606842041,19.806360244751,19.8071098327637,19.807861328125,19.8086090087891,19.8093585968018,19.8101081848145,19.8108596801758,19.8116130828857,19.8123588562012,19.4974575042725,19.4981956481934,19.4989318847656,19.4996700286865,19.5004081726074,19.5011463165283,19.5018825531006,19.5026206970215,19.5033588409424,19.5040969848633,19.5048351287842,19.5055732727051,19.5063095092773,19.5070495605469,19.5077877044678,19.5085258483887,19.5092639923096,19.5100021362305,19.5107402801514,19.5114784240723,19.5122165679932,19.5129566192627,19.5136947631836,19.5144329071045,19.5151710510254,19.5159111022949,19.5166492462158,19.5173892974854,19.5181274414062,19.5188655853271,19.5196056365967,19.5203437805176,19.5210838317871,19.5218238830566,19.5225620269775,19.5233020782471,19.524040222168,19.5247802734375,19.525520324707,19.5262603759766,19.5269985198975,19.527738571167,19.5284786224365,19.5292186737061,19.5299587249756,19.5306987762451,19.5314388275146,19.5321788787842,19.5329189300537,19.5336589813232,19.5343990325928,19.5351390838623,19.5358791351318,19.5366191864014,19.5373592376709,19.5381011962891,19.5388412475586,19.5395812988281,19.5403232574463,19.5410633087158,19.5418033599854,19.5425453186035,19.543285369873,19.5440273284912,19.5447673797607,19.5455093383789,19.5462493896484,19.5469913482666,19.5477313995361,19.5484733581543,19.5492153167725,19.549955368042,19.5506973266602,19.5514392852783,19.5521812438965,19.552921295166,19.5536632537842,19.5544052124023,0,0,0,0,0,0,0,0,0,0,0,0,0,0,0,0,0,0,0,0,0,0,0,0,0,0,0,0,0,0,0,0,0,0,0,0,0,0,0,0,0,0,0,0,0,0,0,0,0,0,0,0,0,0,0,0,0,0,0,0,0,0,0,0,0,0,0,0,0,0,0,0,0,0,0,0,0,0,0,0,0,0,0,0,0,0,0,0,0,0,0,0,0,0,0,0,0,0,0,0,0,0,0,0,0,0,0,0,0,0,0,0,0
19.4572486877441,19.4579696655273,19.4587001800537,19.4594192504883,19.4601440429688,19.4608688354492,19.461597442627,19.4623165130615,19.4630432128906,19.4637603759766,19.4644927978516,19.4652099609375,19.465934753418,19.4666633605957,19.4673862457275,19.4681072235107,19.4688320159912,19.4695568084717,19.4702854156494,19.471004486084,19.4717311859131,19.4724578857422,19.4731769561768,19.4739055633545,19.4746322631836,19.4753532409668,19.4760799407959,19.4767990112305,19.4775295257568,19.47825050354,19.4789867401123,19.4797058105469,19.480432510376,19.4811553955078,19.4818840026855,19.4826068878174,19.4833278656006,19.4840621948242,19.4847831726074,19.4855098724365,19.486234664917,19.4869594573975,19.4876899719238,19.4884090423584,19.4891376495361,19.4898624420166,19.4905910491943,19.4913158416748,19.4920425415039,19.4927654266357,19.4934959411621,19.4942245483398,19.4949436187744,19.4956703186035,19.4963989257812,19.4971256256104,19.4978561401367,19.4985828399658,19.4993095397949,19.5000343322754,19.5007610321045,19.501485824585,19.50221824646,19.5029392242432,19.5036659240723,19.50439453125,19.5051231384277,19.5058441162109,19.5065689086914,19.5072994232178,19.5080280303955,19.508752822876,19.5094757080078,19.5102119445801,19.5109367370605,19.5116672515869,19.5123920440674,19.5131206512451,19.5138473510742,19.514575958252,19.5153026580811,19.5160312652588,19.5167636871338,19.517484664917,19.5182132720947,19.5189476013184,19.5196666717529,19.5203971862793,19.5211277008057,19.5218563079834,19.5225849151611,19.5233173370361,19.5240383148193,19.5247669219971,19.5254955291748,19.5262260437012,19.5269546508789,19.5276851654053,19.5284156799316,19.5291442871094,19.5298748016357,19.5306015014648,19.5313282012939,19.5320568084717,19.5327892303467,19.5335159301758,19.5342426300049,19.5349769592285,19.5357036590576,19.5364379882812,19.5371646881104,19.5378894805908,19.5386238098145,19.5393486022949,19.5400810241699,19.5408153533936,19.5415420532227,19.5422706604004,19.5429973602295,19.5437297821045,19.5444602966309,19.5451965332031,19.5459175109863,19.5466499328613,19.5473823547363,19.5481128692627,19.5488433837891,19.5495719909668,19.5503044128418,19.5510349273682,19.5517654418945,19.5524959564209,19.5532283782959,19.553955078125,19.5546894073486,19.5554161071777,19.5561447143555,19.5568809509277,19.5576095581055,19.5583419799805,19.5590724945068,19.5598087310791,19.5605354309082,19.5612678527832,19.2503871917725,19.251106262207,19.2518253326416,19.2525444030762,19.2532634735107,19.2539825439453,19.2547016143799,19.2554206848145,19.256139755249,19.2568588256836,19.2575778961182,19.2582969665527,19.2590179443359,19.2597370147705,19.2604560852051,19.2611751556396,19.2618961334229,19.2626152038574,19.2633361816406,19.2640552520752,19.2647743225098,19.265495300293,19.2662143707275,19.2669353485107,19.2676544189453,19.2683753967285,19.2690963745117,19.2698154449463,19.2705364227295,19.2712574005127,19.2719764709473,19.2726974487305,19.2734184265137,19.2741394042969,19.2748584747314,19.2755794525146,19.2763004302979,19.2770214080811,19.2777423858643,19.2784633636475,19.2791843414307,19.2799053192139,19.2806262969971,19.2813472747803,19.2820682525635,19.2827892303467,19.2835121154785,19.2842330932617,19.2849540710449,19.2856750488281,19.28639793396,19.2871189117432,19.2878398895264,19.2885627746582,19.2892837524414,19.2900047302246,19.2907276153564,19.2914485931396,19.2921714782715,19.2928924560547,19.2936153411865,19.2943382263184,19.2950592041016,19.2957820892334,19.2965049743652,19.2972259521484,19.2979488372803,19.2986717224121,19.2993927001953,19.3001155853271,19.300838470459,19.3015613555908,19.3022842407227,19.3030071258545,19.3037300109863,19.3044528961182,19.30517578125,19.3058986663818,19.3066215515137,19.3073444366455,19.3080673217773,19.3087902069092,19.3095149993896,19.3102378845215,19.3109607696533,19.3116836547852,19.3124084472656,19.3131313323975,19.3138542175293,19.3145790100098,19.3153018951416,19.3160266876221,19.3167495727539,19.3174743652344,19.3181972503662,19.3189220428467,19.3196449279785,19.320369720459,19.3210926055908,19.3218173980713,19.3225421905518,19.3232669830322,19.3239898681641,19.3247146606445,19.325439453125,19.3261642456055,19.3268890380859,19.3276138305664,19.3283386230469,19.3290634155273,19.3297882080078,19.3305110931396,19.3312377929688,19.3319625854492,19.3326873779297,19.3334121704102,19.3341369628906,19.3348617553711,19.3355865478516,19.3363132476807,19.3370380401611,19.3377628326416,19.3384895324707,19.3392143249512,19.3399391174316,19.3406658172607,19.3413906097412,19.3421173095703,19.3428421020508,19.3435688018799,19.3442935943604,19.3450202941895,19.3457469940186,19.346471786499,19.3471984863281,19.3479251861572,0,0,0,0,0,0,0,0,0,0,0,0,0,0,0,0,0,0,0,0,0,0,0,0,0,0,0,0,0,0,0,0,0,0,0,0,0,0,0,0,0,0,0,0,0,0,0,0,0,0,0,0,0,0,0,0,0,0,0,0,0,0,0,0,0,0,0,0,0,0,0,0,0,0,0,0,0,0,0,0,0,0,0,0,0,0,0,0,0,0,0,0,0,0,0,0,0,0,0,0,0,0,0,0,0,0,0,0
19.2524909973145,19.25319480896,19.2539024353027,19.2546119689941,19.2553234100342,19.256031036377,19.2567367553711,19.2574481964111,19.2581596374512,19.2588653564453,19.2595748901367,19.2602863311768,19.2609920501709,19.2617034912109,19.2624111175537,19.2631244659424,19.2638244628906,19.2645378112793,19.2652492523193,19.2659568786621,19.2666664123535,19.2673778533936,19.268087387085,19.2687969207764,19.2695045471191,19.2702140808105,19.2709217071533,19.271635055542,19.2723426818848,19.2730560302734,19.2737674713135,19.2744789123535,19.275182723999,19.2758941650391,19.2766075134277,19.2773132324219,19.2780265808105,19.278736114502,19.279447555542,19.2801513671875,19.2808685302734,19.2815742492676,19.2822856903076,19.2829990386963,19.2837085723877,19.2844200134277,19.2851276397705,19.2858428955078,19.2865524291992,19.287260055542,19.287971496582,19.2886829376221,19.2893981933594,19.2901000976562,19.2908153533936,19.2915287017822,19.2922382354736,19.2929496765137,19.2936630249023,19.2943744659424,19.2950859069824,19.2957954406738,19.2965087890625,19.2972221374512,19.2979278564453,19.298641204834,19.2993583679199,19.30006980896,19.3007774353027,19.3014888763428,19.3022041320801,19.3029136657715,19.3036270141602,19.3043422698975,19.3050556182861,19.3057594299316,19.3064746856689,19.3071880340576,19.3078994750977,19.3086109161377,19.3093242645264,19.3100433349609,19.3107490539551,19.311466217041,19.3121738433838,19.3128852844238,19.3136024475098,19.3143157958984,19.3150253295898,19.3157386779785,19.3164558410645,19.3171672821045,19.0102005004883,19.0109024047852,19.0116024017334,19.0123043060303,19.0130062103271,19.0137062072754,19.0144081115723,19.0151100158691,19.0158100128174,19.0165119171143,19.0172138214111,19.017915725708,19.0186176300049,19.0193195343018,19.02001953125,19.0207214355469,19.0214233398438,19.0221252441406,19.0228271484375,19.0235290527344,19.0242309570312,19.0249347686768,19.0256366729736,19.0263385772705,19.0270404815674,19.0277423858643,19.0284442901611,19.0291481018066,19.0298500061035,19.0305519104004,19.0312557220459,19.0319576263428,19.0326595306396,19.0333633422852,19.034065246582,19.0347690582275,19.0354709625244,19.0361747741699,19.0368766784668,19.0375804901123,19.0382843017578,19.0389862060547,19.0396900177002,19.0403938293457,19.0410957336426,19.0417995452881,19.0425033569336,19.0432071685791,19.043909072876,19.0446128845215,19.045316696167,19.0460205078125,19.046724319458,19.0474281311035,19.048131942749,19.0488357543945,19.04953956604,19.0502433776855,19.0509471893311,19.0516510009766,19.0523567199707,19.0530605316162,19.0537643432617,19.0544681549072,19.0551738739014,19.0558776855469,19.0565814971924,19.0572853088379,19.057991027832,19.0586948394775,19.0594005584717,19.0601043701172,19.0608100891113,19.0615139007568,19.062219619751,19.0629234313965,19.0636291503906,19.0643329620361,19.0650386810303,19.0657444000244,19.0664501190186,19.0671539306641,19.0678596496582,19.0685653686523,19.0692710876465,19.0699768066406,19.0706806182861,19.0713863372803,19.0720920562744,19.0727977752686,19.0735034942627,19.0742092132568,19.074914932251,19.0756206512451,19.0763263702393,19.0770320892334,19.0777378082275,19.0784454345703,19.0791511535645,19.0798568725586,19.0805625915527,19.0812702178955,19.0819759368896,19.0826816558838,19.0833892822266,19.0840950012207,19.0848007202148,19.0855083465576,19.0862140655518,19.0869216918945,19.0876274108887,19.0883350372314,19.0890426635742,19.0897483825684,19.0904560089111,19.0911617279053,19.091869354248,19.0925769805908,19.0932846069336,19.0939903259277,19.0946979522705,19.0954055786133,19.0961132049561,19.0968208312988,19.0975284576416,19.0982360839844,19.0989437103271,19.0996513366699,19.1003589630127,19.1010665893555,19.1017742156982,19.102481842041,19.1031894683838,19.1038970947266,19.1046047210693,19.1053142547607,19.1060218811035,19.1067295074463,19.1074371337891,19.1081466674805,19.1088542938232,19.109561920166,19.1102714538574,19.1109790802002,19.1116886138916,19.1123962402344,19.1131057739258,19.1138134002686,19.11452293396,19.1152305603027,19.1159400939941,19.1166496276855,19.1173572540283,19.1180667877197,19.1187763214111,19.1194858551025,19.1201934814453,19.1209030151367,19.1216125488281,19.1223220825195,19.1230316162109,19.1237411499023,19.1244506835938,19.1251602172852,19.1258697509766,19.126579284668,19.1272888183594,19.1279983520508,19.1287078857422,19.1294174194336,19.130126953125,19.130838394165,19.1315479278564,19.1322574615479,19.1329669952393,19.1336784362793,19.1343879699707,19.1350975036621,19.1358089447021,19.1365184783936,19.1372299194336,19.137939453125,19.138650894165,19.1393604278564,19.1400718688965,19.1407814025879,19.1414928436279,19.142204284668,19.1429138183594,19.1436252593994,19.1443367004395,19.1450481414795,0,0,0,0,0,0,0,0,0,0,0,0,0,0,0,0,0,0,0,0,0,0,0,0,0,0,0,0,0,0,0,0,0,0,0,0,0,0,0,0,0,0,0,0,0,0,0,0,0,0,0,0,0,0,0,0,0,0,0,0,0,0,0,0,0,0,0,0,0,0,0,0,0,0,0,0,0,0,0,0,0,0,0,0,0,0,0,0,0,0,0,0,0,0,0,0,0,0,0,0,0,0,0,0
19.0519886016846,19.0526885986328,19.0533809661865,19.0540752410889,19.0547637939453,19.0554637908936,19.05615234375,19.0568504333496,19.057544708252,19.0582370758057,19.0589351654053,19.0596237182617,19.0603160858154,19.0610103607178,19.0617065429688,19.062406539917,19.0631008148193,19.063793182373,19.064489364624,19.0651798248291,19.0658721923828,19.0665740966797,19.0672664642334,19.0679607391357,19.0686511993408,19.0693511962891,19.07004737854,19.0707340240479,19.0714340209961,19.0721244812012,19.0728244781494,19.0735206604004,19.07421875,19.0749092102051,19.0756053924561,19.0762996673584,19.0769958496094,19.077693939209,19.0783843994141,18.7752513885498,18.7759342193604,18.7766189575195,18.7773017883301,18.7779865264893,18.7786693572998,18.779354095459,18.7800388336182,18.7807235717773,18.7814064025879,18.7820911407471,18.7827758789062,18.7834606170654,18.784143447876,18.7848281860352,18.7855129241943,18.7861976623535,18.7868824005127,18.7875671386719,18.7882518768311,18.7889366149902,18.7896213531494,18.7903060913086,18.7909908294678,18.791675567627,18.7923622131348,18.7930469512939,18.7937316894531,18.7944164276123,18.7951011657715,18.7957878112793,18.7964725494385,18.7971572875977,18.7978439331055,18.7985286712646,18.7992153167725,18.7999000549316,18.8005847930908,18.8012714385986,18.8019561767578,18.8026428222656,18.8033294677734,18.8040142059326,18.8047008514404,18.8053855895996,18.8060722351074,18.8067588806152,18.807445526123,18.8081302642822,18.80881690979,18.8095035552979,18.8101902008057,18.8108768463135,18.8115634918213,18.8122482299805,18.8129348754883,18.8136215209961,18.8143081665039,18.8149948120117,18.8156814575195,18.8163681030273,18.8170566558838,18.8177433013916,18.8184299468994,18.8191165924072,18.819803237915,18.8204898834229,18.8211784362793,18.8218650817871,18.8225517272949,18.8232402801514,18.8239269256592,18.824613571167,18.8253021240234,18.8259887695312,18.8266773223877,18.8273639678955,18.828052520752,18.8287391662598,18.8294277191162,18.830114364624,18.8308029174805,18.8314914703369,18.8321781158447,18.8328666687012,18.8335552215576,18.8342437744141,18.8349304199219,18.8356189727783,18.8363075256348,18.8369960784912,18.8376846313477,18.8383731842041,18.8390617370605,18.839750289917,18.8404388427734,18.8411273956299,18.8418159484863,18.8425045013428,18.8431930541992,18.8438816070557,18.8445701599121,18.8452587127686,18.8459491729736,18.8466377258301,18.8473262786865,18.848014831543,18.848705291748,18.8493938446045,18.8500823974609,18.850772857666,18.8514614105225,18.8521499633789,18.852840423584,18.8535289764404,18.8542194366455,18.854907989502,18.855598449707,18.8562889099121,18.8569774627686,18.8576679229736,18.8583583831787,18.8590469360352,18.8597373962402,18.8604278564453,18.8611183166504,18.8618068695068,18.8624973297119,18.863187789917,18.8638782501221,18.8645687103271,18.8652591705322,18.8659496307373,18.8666400909424,18.8673305511475,18.8680210113525,18.8687114715576,18.8694019317627,18.8700923919678,18.8707828521729,18.8714752197266,18.8721656799316,18.8728561401367,18.8735466003418,18.8742389678955,18.8749294281006,18.8756198883057,18.8763122558594,18.8770027160645,18.8776931762695,18.8783855438232,18.8790760040283,18.879768371582,18.8804588317871,18.8811511993408,18.8818435668945,18.8825340270996,18.8832263946533,18.8839168548584,18.8846092224121,18.8853015899658,18.8859939575195,18.8866844177246,18.8873767852783,18.888069152832,18.8887615203857,18.8894538879395,18.8901462554932,18.8908386230469,18.891529083252,18.8922214508057,18.8929138183594,18.8936061859131,18.8943004608154,18.8949928283691,18.8956851959229,18.8963775634766,18.8970699310303,18.897762298584,18.8984546661377,18.89914894104,18.8998413085938,18.9005336761475,18.9012279510498,18.9019203186035,18.9026126861572,18.9033069610596,18.9039993286133,18.9046936035156,18.9053859710693,18.9060802459717,18.9067726135254,18.9074668884277,18.9081592559814,18.9088535308838,18.9095478057861,18.9102401733398,18.9109344482422,18.9116287231445,18.9123210906982,18.9130153656006,18.9137096405029,18.9144039154053,18.9150981903076,18.91579246521,18.9164867401123,18.917179107666,18.917875289917,18.9185676574707,18.9192638397217,18.919958114624,18.9206523895264,18.9213466644287,18.9220409393311,18.9227352142334,18.9234294891357,18.9241237640381,18.9248199462891,18.9255142211914,18.9262084960938,18.9269027709961,18.9275989532471,18.9282932281494,18.9289894104004,18.9296836853027,18.9303779602051,18.9310741424561,18.9317684173584,18.9324645996094,18.9331588745117,18.9338550567627,18.9345512390137,18.935245513916,18.935941696167,18.936637878418,18.9373321533203,18.9380283355713,18.9387245178223,18.9394207000732,18.9401168823242,18.9408111572266,18.9415073394775,18.9422035217285,18.9428997039795,18.9435958862305,18.9442920684814,18.9449882507324,18.9456844329834,18.9463806152344,18.9470767974854,0,0,0,0,0,0,0,0,0,0,0,0,0,0,0,0,0,0,0,0,0,0,0,0,0,0,0,0,0,0,0,0,0,0,0,0,0,0,0,0,0,0,0,0,0,0,0,0,0,0,0,0,0,0,0,0,0,0,0,0,0,0,0,0,0,0,0,0,0,0,0,0,0,0,0,0,0,0,0,0,0,0,0,0,0,0,0,0,0,0,0,0,0,0,0,0,0,0,0
18.555383682251,18.5560512542725,18.5567188262939,18.5573863983154,18.5580539703369,18.558723449707,18.5593910217285,18.56005859375,18.5607280731201,18.5613956451416,18.5620632171631,18.5627326965332,18.5634002685547,18.5640697479248,18.5647373199463,18.5654067993164,18.5660743713379,18.566743850708,18.5674133300781,18.5680809020996,18.5687503814697,18.5694198608398,18.5700874328613,18.5707569122314,18.5714263916016,18.5720958709717,18.5727634429932,18.5734329223633,18.5741024017334,18.5747718811035,18.5754413604736,18.5761108398438,18.5767803192139,18.577449798584,18.5781192779541,18.5787887573242,18.5794582366943,18.5801277160645,18.5807971954346,18.5814666748047,18.5821361541748,18.5828056335449,18.5834770202637,18.5841464996338,18.5848159790039,18.5854873657227,18.5861568450928,18.5868263244629,18.5874977111816,18.5881671905518,18.5888366699219,18.5895080566406,18.5901775360107,18.5908489227295,18.5915184020996,18.5921897888184,18.5928592681885,18.5935306549072,18.594202041626,18.5948715209961,18.5955429077148,18.5962142944336,18.5968837738037,18.5975551605225,18.5982265472412,18.59889793396,18.5995674133301,18.6002388000488,18.6009101867676,18.6015815734863,18.6022529602051,18.6029243469238,18.6035957336426,18.6042671203613,18.6049385070801,18.6056098937988,18.6062812805176,18.6069526672363,18.6076240539551,18.6082954406738,18.6089687347412,18.60964012146,18.6103115081787,18.6109828948975,18.6116561889648,18.6123275756836,18.6129989624023,18.6136722564697,18.6143436431885,18.6150150299072,18.6156883239746,18.6163597106934,18.6170330047607,18.6177043914795,18.6183776855469,18.6190490722656,18.619722366333,18.6203956604004,18.6210670471191,18.6217403411865,18.6224117279053,18.6230850219727,18.62375831604,18.6244316101074,18.6251049041748,18.6257762908936,18.6264495849609,18.6271228790283,18.6277961730957,18.6284694671631,18.6291427612305,18.6298160552979,18.6304893493652,18.6311626434326,18.6318359375,18.6325092315674,18.6331825256348,18.6338558197021,18.6345291137695,18.6352024078369,18.6358776092529,18.6365509033203,18.6372241973877,18.6378974914551,18.6385726928711,18.6392459869385,18.6399192810059,18.6405944824219,18.6412677764893,18.6419429779053,18.6426162719727,18.64328956604,18.6439647674561,18.6446399688721,18.6453132629395,18.6459884643555,18.6466617584229,18.6473369598389,18.6480102539062,18.6486854553223,18.6493606567383,18.6500358581543,18.6507091522217,18.6513843536377,18.6520595550537,18.6527347564697,18.6534099578857,18.6540851593018,18.6547584533691,18.6554336547852,18.6561088562012,18.6567840576172,18.6574592590332,18.6581344604492,18.6588096618652,18.6594867706299,18.6601619720459,18.6608371734619,18.6615123748779,18.6621875762939,18.66286277771,18.6635398864746,18.6642150878906,18.6648902893066,18.6655673980713,18.6662425994873,18.6669178009033,18.667594909668,18.668270111084,18.6689472198486,18.6696224212646,18.6702995300293,18.6709747314453,18.67165184021,18.672327041626,18.6730041503906,18.6736793518066,18.6743564605713,18.6750335693359,18.6757106781006,18.6763858795166,18.6770629882812,18.6777400970459,18.6784172058105,18.6790924072266,18.6797695159912,18.6804466247559,18.6811237335205,18.6818008422852,18.6824779510498,18.6831550598145,18.6838321685791,18.6845092773438,18.6851863861084,18.685863494873,18.6865406036377,18.6872177124023,18.6878967285156,18.6885738372803,18.6892509460449,18.6899280548096,18.6906070709229,18.6912841796875,18.6919612884521,18.6926403045654,18.6933174133301,18.6939945220947,18.694673538208,18.6953506469727,18.6960296630859,18.6967067718506,18.6973857879639,18.6980628967285,18.6987419128418,18.6994209289551,18.7000980377197,18.700777053833,18.7014560699463,18.7021331787109,18.7028121948242,18.7034912109375,18.7041702270508,18.7048473358154,18.7055263519287,18.706205368042,18.7068843841553,18.7075634002686,18.7082424163818,18.7089214324951,18.7096004486084,18.7102794647217,18.710958480835,18.7116374969482,18.7123165130615,18.7129955291748,18.7136745452881,18.7143535614014,18.7150344848633,18.7157135009766,18.7163925170898,18.7170715332031,18.717752456665,18.7184314727783,18.7191104888916,18.7197914123535,18.7204704284668,18.7211513519287,18.721830368042,18.7225112915039,18.7231903076172,18.7238712310791,18.7245502471924,18.7252311706543,18.7259120941162,18.7265911102295,18.7272720336914,18.7279510498047,18.7286319732666,18.7293128967285,18.7299938201904,18.7306728363037,18.7313537597656,18.7320346832275,18.7327156066895,18.7333965301514,18.7340774536133,18.7347583770752,18.7354393005371,18.736120223999,18.7368011474609,18.7374820709229,18.7381629943848,18.7388439178467,18.7395248413086,18.7402057647705,18.7408885955811,18.741569519043,18.7422504425049,18.7429313659668,18.7436141967773,18.7442951202393,18.7449760437012,18.7456588745117,18.7463397979736,18.7470207214355,18.7477035522461,18.748384475708,18.7490673065186,18.7497482299805,18.750431060791,18.7511138916016,18.7517948150635,18.752477645874,0,0,0,0,0,0,0,0,0,0,0,0,0,0,0,0,0,0,0,0,0,0,0,0,0,0,0,0,0,0,0,0,0,0,0,0,0,0,0,0,0,0,0,0,0,0,0,0,0,0,0,0,0,0,0,0,0,0,0,0,0,0,0,0,0,0,0,0,0,0,0,0,0,0,0,0,0,0,0,0,0,0,0,0,0,0,0,0,0,0,0,0,0,0,0
18.3660888671875,18.3667430877686,18.3673973083496,18.3680515289307,18.3687057495117,18.3693599700928,18.3700141906738,18.3706703186035,18.3713245391846,18.3719787597656,18.3726348876953,18.3732891082764,18.3739433288574,18.3745975494385,18.3752536773682,18.3759078979492,18.3765640258789,18.37721824646,18.3778743743896,18.3785285949707,18.3791847229004,18.3798389434814,18.3804950714111,18.3811492919922,18.3818054199219,18.3824615478516,18.3831157684326,18.3837718963623,18.384428024292,18.3850841522217,18.3857383728027,18.3863945007324,18.3870506286621,18.3877067565918,18.3883628845215,18.3890190124512,18.3896751403809,18.3903312683105,18.3909873962402,18.3916435241699,18.3922996520996,18.3929557800293,18.393611907959,18.3942680358887,18.3949241638184,18.395580291748,18.3962364196777,18.3968925476074,18.3975505828857,18.3982067108154,18.3988628387451,18.3995189666748,18.4001770019531,18.4008331298828,18.4014892578125,18.4021472930908,18.4028034210205,18.4034614562988,18.4041175842285,18.4047756195068,18.4054317474365,18.4060897827148,18.4067459106445,18.4074039459229,18.4080619812012,18.4087181091309,18.4093761444092,18.4100341796875,18.4106903076172,18.4113483428955,18.4120063781738,18.4126625061035,18.4133205413818,18.4139785766602,18.4146366119385,18.4152946472168,18.4159526824951,18.4166107177734,18.4172687530518,18.4179267883301,18.4185848236084,18.4192428588867,18.419900894165,18.4205589294434,18.4212169647217,18.421875,18.4225330352783,18.4231910705566,18.4238510131836,18.4245090484619,18.4251670837402,18.4258251190186,18.4264850616455,18.4271430969238,18.4278011322021,18.4284610748291,18.4291191101074,18.4297790527344,18.4304370880127,18.4310970306396,18.431755065918,18.4324150085449,18.4330730438232,18.4337329864502,18.4343910217285,18.4350509643555,18.4357109069824,18.4363689422607,18.4370288848877,18.4376888275146,18.438346862793,18.4390068054199,18.4396667480469,18.4403266906738,18.4409866333008,18.4416465759277,18.4423046112061,18.442964553833,18.44362449646,18.4442844390869,18.4449443817139,18.4456043243408,18.4462642669678,18.4469242095947,18.4475860595703,18.4482460021973,18.4489059448242,18.4495658874512,18.4502258300781,18.4508857727051,18.4515476226807,18.4522075653076,18.4528675079346,18.4535274505615,18.4541893005371,18.4548492431641,18.4555110931396,18.4561710357666,18.4568309783936,18.4574928283691,18.4581527709961,18.4588146209717,18.4594745635986,18.4601364135742,18.4607982635498,18.4614582061768,18.4621200561523,18.4627819061279,18.4634418487549,18.4641036987305,18.4647655487061,18.465425491333,18.4660873413086,18.4667491912842,18.4674110412598,18.4680728912354,18.4687347412109,18.4693946838379,18.4700584411621,18.4707183837891,18.4713802337646,18.4720439910889,18.4727058410645,18.47336769104,18.4740295410156,18.4746913909912,18.4753532409668,18.4760150909424,18.476676940918,18.4773387908936,18.4780025482178,18.4786643981934,18.4793262481689,18.4799900054932,18.4806518554688,18.4813137054443,18.4819774627686,18.4826393127441,18.4833030700684,18.4839649200439,18.4846267700195,18.4852905273438,18.485954284668,18.4866161346436,18.4872798919678,18.4879417419434,18.4886054992676,18.4892692565918,18.4899311065674,18.4905948638916,18.4912586212158,18.49192237854,18.4925842285156,18.4932479858398,18.4939117431641,18.4945755004883,18.4952392578125,18.4959030151367,18.4965667724609,18.4972286224365,18.4978923797607,18.498556137085,18.4992218017578,18.499885559082,18.5005493164062,18.5012130737305,18.5018768310547,18.5025405883789,18.5032043457031,18.503870010376,18.5045337677002,18.5051975250244,18.5058612823486,18.5065269470215,18.5071907043457,18.5078544616699,18.5085201263428,18.509183883667,18.5098476409912,18.5105133056641,18.5111770629883,18.5118427276611,18.5125064849854,18.5131721496582,18.5138378143311,18.5145015716553,18.5151672363281,18.515832901001,18.5164966583252,18.517162322998,18.5178279876709,18.5184917449951,18.519157409668,18.5198230743408,18.5204887390137,18.5211544036865,18.5218200683594,18.5224857330322,18.5231494903564,18.5238151550293,18.5244808197021,18.525146484375,18.5258121490479,18.5264797210693,18.5271453857422,18.527811050415,18.5284767150879,18.5291423797607,18.5298080444336,18.5304737091064,18.5311412811279,18.5318069458008,18.5324726104736,18.5331382751465,18.533805847168,18.5344715118408,18.5351390838623,18.5358047485352,18.536470413208,18.5371379852295,18.5378036499023,18.5384712219238,18.5391387939453,18.5398044586182,18.5404720306396,18.5411376953125,18.541805267334,18.5424728393555,18.5431385040283,18.5438060760498,18.5444736480713,18.5451393127441,18.5458068847656,18.5464744567871,18.5471420288086,18.5478096008301,18.5484771728516,18.549144744873,18.5498123168945,18.5504779815674,18.5511474609375,18.5518131256104,18.5524826049805,18.553150177002,18.5538177490234,18.5544853210449,18.5551528930664,18.5558204650879,18.5564880371094,18.5571575164795,18.557825088501,18.5584926605225,18.5591602325439,18.5598297119141,18.5604972839355,18.561164855957,18.5618343353271,18.5625019073486,0,0,0,0,0,0,0,0,0,0,0,0,0,0,0,0,0,0,0,0,0,0,0,0,0,0,0,0,0,0,0,0,0,0,0,0,0,0,0,0,0,0,0,0,0,0,0,0,0,0,0,0,0,0,0,0,0,0,0,0,0,0,0,0,0,0,0,0,0,0,0,0,0,0,0,0,0,0,0,0,0,0,0,0,0,0,0,0,0,0
18.1806163787842,18.1812572479248,18.1819000244141,18.1825408935547,18.1831817626953,18.1838226318359,18.1844654083252,18.1851062774658,18.1857471466064,18.1863899230957,18.1870307922363,18.1876735687256,18.1883144378662,18.1889553070068,18.1895980834961,18.1902389526367,18.190881729126,18.1915245056152,18.1921653747559,18.1928081512451,18.1934490203857,18.194091796875,18.1947345733643,18.1953754425049,18.1960182189941,18.1966609954834,18.1973037719727,18.1979446411133,18.1985874176025,18.1992301940918,18.1998729705811,18.2005157470703,18.2011585235596,18.2018013000488,18.2024440765381,18.2030868530273,18.2037296295166,18.2043724060059,18.2050151824951,18.2056579589844,18.2063007354736,18.2069435119629,18.2075862884521,18.2082290649414,18.2088718414307,18.2095165252686,18.2101593017578,18.2108020782471,18.2114448547363,18.2120895385742,18.2127323150635,18.2133750915527,18.2140197753906,18.2146625518799,18.2153072357178,18.215950012207,18.2165946960449,18.2172374725342,18.2178821563721,18.2185249328613,18.2191696166992,18.2198123931885,18.2204570770264,18.2211017608643,18.2217445373535,18.2223892211914,18.2230339050293,18.2236785888672,18.2243213653564,18.2249660491943,18.2256107330322,18.2262554168701,18.226900100708,18.2275447845459,18.2281875610352,18.228832244873,18.2294769287109,18.2301216125488,18.2307662963867,18.2314109802246,18.2320556640625,18.232702255249,18.2333469390869,18.2339916229248,18.2346363067627,18.2352809906006,18.2359256744385,18.2365703582764,18.2372169494629,18.2378616333008,18.2385063171387,18.2391529083252,18.2397975921631,18.240442276001,18.2410888671875,18.2417335510254,18.2423801422119,18.2430248260498,18.2436714172363,18.2443161010742,18.2449626922607,18.2456073760986,18.2462539672852,18.246898651123,18.2475452423096,18.2481918334961,18.248836517334,18.2494831085205,18.250129699707,18.2507762908936,18.2514209747314,18.252067565918,18.2527141571045,18.253360748291,18.2540073394775,18.2546520233154,18.255298614502,18.2559452056885,18.256591796875,18.2572383880615,18.257884979248,18.2585315704346,18.2591781616211,18.2598266601562,18.2604732513428,18.2611198425293,18.2617664337158,18.2624130249023,18.2630596160889,18.263708114624,18.2643547058105,18.2650012969971,18.2656478881836,18.2662963867188,18.2669429779053,18.2675895690918,18.268238067627,18.2688846588135,18.2695331573486,18.2701797485352,18.2708282470703,18.2714748382568,18.272123336792,18.2727699279785,18.2734184265137,18.2740669250488,18.2747135162354,18.2753620147705,18.276008605957,18.2766571044922,18.2773056030273,18.2779541015625,18.278600692749,18.2792491912842,18.2798976898193,18.2805461883545,18.2811946868896,18.2818431854248,18.28249168396,18.2831401824951,18.2837886810303,18.2844371795654,18.2850856781006,18.2857341766357,18.2863826751709,18.2870311737061,18.2876796722412,18.2883281707764,18.2889766693115,18.2896270751953,18.2902755737305,18.2909240722656,18.2915725708008,18.2922210693359,18.2928714752197,18.2935199737549,18.2941703796387,18.2948188781738,18.295467376709,18.2961177825928,18.2967662811279,18.2974166870117,18.2980651855469,18.2987155914307,18.2993640899658,18.3000144958496,18.3006629943848,18.3013134002686,18.3019638061523,18.3026142120361,18.3032627105713,18.3039131164551,18.3045635223389,18.305212020874,18.3058624267578,18.3065128326416,18.3071632385254,18.3078136444092,18.308464050293,18.3091144561768,18.3097648620605,18.3104152679443,18.3110637664795,18.3117160797119,18.3123664855957,18.3130168914795,18.3136672973633,18.3143177032471,18.3149681091309,18.3156185150146,18.3162689208984,18.3169212341309,18.3175716400146,18.3182220458984,18.3188724517822,18.3195247650146,18.3201751708984,18.3208255767822,18.3214778900146,18.3221282958984,18.3227787017822,18.3234310150146,18.3240814208984,18.3247337341309,18.3253860473633,18.3260364532471,18.3266887664795,18.3273391723633,18.3279914855957,18.3286418914795,18.3292942047119,18.3299465179443,18.3305988311768,18.3312492370605,18.331901550293,18.3325538635254,18.3332061767578,18.3338565826416,18.334508895874,18.3351612091064,18.3358135223389,18.3364658355713,18.3371181488037,18.3377704620361,18.3384227752686,18.339075088501,18.3397274017334,18.3403797149658,18.3410320281982,18.3416843414307,18.3423385620117,18.3429908752441,18.3436431884766,18.344295501709,18.34494972229,18.3456020355225,18.3462543487549,18.3469066619873,18.3475608825684,18.3482131958008,18.3488674163818,18.3495197296143,18.3501720428467,18.3508262634277,18.3514785766602,18.3521327972412,18.3527870178223,18.3534393310547,18.3540935516357,18.3547458648682,18.3554000854492,18.3560543060303,18.3567066192627,18.3573608398438,18.3580150604248,18.3586673736572,18.3593215942383,18.3599758148193,18.3606300354004,18.3612842559814,18.3619384765625,18.3625926971436,18.3632469177246,18.3639011383057,18.3645553588867,18.3652095794678,18.3658638000488,18.3665180206299,18.3671722412109,18.367826461792,18.368480682373,18.3691349029541,18.3697891235352,18.3704433441162,18.3710994720459,18.371753692627,18.372407913208,18.3730640411377,18.3737182617188,18.3743724822998,18.3750286102295,18.3756828308105,0,0,0,0,0,0,0,0,0,0,0,0,0,0,0,0,0,0,0,0,0,0,0,0,0,0,0,0,0,0,0,0,0,0,0,0,0,0,0,0,0,0,0,0,0,0,0,0,0,0,0,0,0,0,0,0,0,0,0,0,0,0,0,0,0,0,0,0,0,0,0,0,0,0,0,0,0,0,0,0,0,0,0,0,0,0
17.9988536834717,17.9994831085205,18.0001106262207,18.0007400512695,18.0013675689697,18.0019969940186,18.0026264190674,18.0032539367676,18.0038833618164,18.0045108795166,18.0051403045654,18.0057697296143,18.0063991546631,18.0070266723633,18.0076560974121,18.0082855224609,18.0089149475098,18.0095443725586,18.0101737976074,18.0108013153076,18.0114307403564,18.0120601654053,18.0126895904541,18.0133190155029,18.0139484405518,18.0145778656006,18.0152072906494,18.0158367156982,18.0164680480957,18.0170974731445,18.0177268981934,18.0183563232422,18.018985748291,18.0196170806885,18.0202465057373,18.0208759307861,18.021505355835,18.0221366882324,18.0227661132812,18.0233955383301,18.0240268707275,18.0246562957764,18.0252876281738,18.0259170532227,18.0265464782715,18.0271778106689,18.0278072357178,18.0284385681152,18.0290699005127,18.0296993255615,18.030330657959,18.0309600830078,18.0315914154053,18.0322227478027,18.0328540802002,18.033483505249,18.0341148376465,18.0347461700439,18.0353775024414,18.0360069274902,18.0366382598877,18.0372695922852,18.0379009246826,18.0385322570801,18.0391635894775,18.039794921875,18.0404262542725,18.0410575866699,18.0416889190674,18.0423202514648,18.0429515838623,18.0435829162598,18.0442142486572,18.0448455810547,18.0454788208008,18.0461101531982,18.0467414855957,18.0473728179932,18.0480041503906,18.0486373901367,18.0492687225342,18.0499000549316,18.0505332946777,18.0511646270752,18.0517978668213,18.0524291992188,18.0530605316162,18.0536937713623,18.0543251037598,18.0549583435059,18.055591583252,18.0562229156494,18.0568561553955,18.057487487793,18.0581207275391,18.0587539672852,18.0593852996826,18.0600185394287,18.0606517791748,18.0612831115723,18.0619163513184,18.0625495910645,18.0631828308105,18.0638160705566,18.0644493103027,18.0650806427002,18.0657138824463,18.0663471221924,18.0669803619385,18.0676136016846,18.0682468414307,18.0688800811768,18.0695133209229,18.0701465606689,18.0707817077637,18.0714149475098,18.0720481872559,18.072681427002,18.073314666748,18.0739479064941,18.0745830535889,18.075216293335,18.0758495330811,18.0764827728271,18.0771179199219,18.077751159668,18.0783863067627,18.0790195465088,18.0796527862549,18.0802879333496,18.0809211730957,18.0815563201904,18.0821895599365,18.0828247070312,18.0834579467773,18.0840930938721,18.0847282409668,18.0853614807129,18.0859966278076,18.0866317749023,18.0872650146484,18.0879001617432,18.0885353088379,18.0891704559326,18.0898036956787,18.0904388427734,18.0910739898682,18.0917091369629,18.0923442840576,18.0929794311523,18.0936145782471,18.0942497253418,18.0948848724365,18.0955200195312,18.096155166626,18.0967903137207,18.0974254608154,18.0980606079102,18.0986957550049,18.0993309020996,18.0999660491943,18.1006031036377,18.1012382507324,18.1018733978271,18.1025085449219,18.1031455993652,18.10378074646,18.1044158935547,18.105052947998,18.1056880950928,18.1063232421875,18.1069602966309,18.1075954437256,18.1082324981689,18.1088676452637,18.109504699707,18.1101398468018,18.1107769012451,18.1114139556885,18.1120491027832,18.1126861572266,18.1133232116699,18.1139583587646,18.114595413208,18.1152324676514,18.1158676147461,18.1165046691895,18.1171417236328,18.1177787780762,18.1184158325195,18.1190528869629,18.1196899414062,18.120325088501,18.1209621429443,18.1215991973877,18.1222362518311,18.1228733062744,18.1235103607178,18.1241474151611,18.1247863769531,18.1254234313965,18.1260604858398,18.1266975402832,18.1273345947266,18.1279716491699,18.1286106109619,18.1292476654053,18.1298847198486,18.130521774292,18.131160736084,18.1317977905273,18.1324348449707,18.1330738067627,18.1337108612061,18.134349822998,18.1349868774414,18.1356258392334,18.1362628936768,18.1369018554688,18.1375389099121,18.1381778717041,18.1388149261475,18.1394538879395,18.1400928497314,18.1407299041748,18.1413688659668,18.1420078277588,18.1426467895508,18.1432838439941,18.1439228057861,18.1445617675781,18.1452007293701,18.1458396911621,18.1464786529541,18.1471176147461,18.1477546691895,18.1483936309814,18.1490325927734,18.1496715545654,18.1503105163574,18.1509494781494,18.15159034729,18.152229309082,18.152868270874,18.153507232666,18.154146194458,18.15478515625,18.155424118042,18.1560649871826,18.1567039489746,18.1573429107666,18.1579837799072,18.1586227416992,18.1592617034912,18.1599025726318,18.1605415344238,18.1611824035645,18.1618213653564,18.1624622344971,18.1631011962891,18.1637420654297,18.1643810272217,18.1650218963623,18.1656608581543,18.1663017272949,18.1669406890869,18.1675815582275,18.1682224273682,18.1688632965088,18.1695022583008,18.1701431274414,18.170783996582,18.1714248657227,18.1720657348633,18.1727046966553,18.1733455657959,18.1739864349365,18.1746273040771,18.1752681732178,18.1759090423584,18.176549911499,18.1771907806396,18.1778316497803,18.1784725189209,18.1791133880615,18.1797542572021,18.1803970336914,18.181037902832,18.1816787719727,18.1823196411133,18.1829605102539,18.1836032867432,18.1842441558838,18.1848850250244,18.1855278015137,18.1861686706543,18.1868095397949,18.1874523162842,18.1880931854248,18.1887359619141,18.1893768310547,18.1900196075439,18.1906604766846,18.1913032531738,18.1919441223145,18.1925868988037,0,0,0,0,0,0,0,0,0,0,0,0,0,0,0,0,0,0,0,0,0,0,0,0,0,0,0,0,0,0,0,0,0,0,0,0,0,0,0,0,0,0,0,0,0,0,0,0,0,0,0,0,0,0,0,0,0,0,0,0,0,0,0,0,0,0,0,0,0,0,0,0,0,0,0,0,0,0,0,0,0,0
17.8206901550293,17.8213062286377,17.8219223022461,17.8225383758545,17.8231544494629,17.8237705230713,17.8243865966797,17.8250026702881,17.8256187438965,17.8262367248535,17.8268527984619,17.8274688720703,17.8280849456787,17.8287029266357,17.8293190002441,17.8299350738525,17.8305511474609,17.831169128418,17.8317852020264,17.8324031829834,17.8330192565918,17.8336353302002,17.8342533111572,17.8348693847656,17.8354873657227,17.8361034393311,17.8367214202881,17.8373394012451,17.8379554748535,17.8385734558105,17.8391895294189,17.839807510376,17.840425491333,17.84104347229,17.8416595458984,17.8422775268555,17.8428955078125,17.8435134887695,17.8441295623779,17.844747543335,17.845365524292,17.845983505249,17.8466014862061,17.8472194671631,17.8478374481201,17.8484554290771,17.8490734100342,17.8496913909912,17.8503093719482,17.8509273529053,17.8515453338623,17.8521633148193,17.8527812957764,17.8533992767334,17.8540191650391,17.8546371459961,17.8552551269531,17.8558731079102,17.8564929962158,17.8571109771729,17.8577289581299,17.8583488464355,17.8589668273926,17.8595848083496,17.8602046966553,17.8608226776123,17.861442565918,17.862060546875,17.8626804351807,17.8632984161377,17.8639183044434,17.8645362854004,17.8651561737061,17.8657741546631,17.8663940429688,17.8670139312744,17.8676319122314,17.8682518005371,17.8688716888428,17.8694896697998,17.8701095581055,17.8707294464111,17.8713493347168,17.8719692230225,17.8725891113281,17.8732070922852,17.8738269805908,17.8744468688965,17.8750667572021,17.8756866455078,17.8763065338135,17.8769264221191,17.8775463104248,17.8781661987305,17.8787860870361,17.8794059753418,17.8800277709961,17.8806476593018,17.8812675476074,17.8818874359131,17.8825073242188,17.883129119873,17.8837490081787,17.8843688964844,17.88498878479,17.8856105804443,17.88623046875,17.8868503570557,17.88747215271,17.8880920410156,17.8887138366699,17.8893337249756,17.8899555206299,17.8905754089355,17.8911972045898,17.8918170928955,17.8924388885498,17.8930606842041,17.8936805725098,17.8943023681641,17.8949222564697,17.895544052124,17.8961658477783,17.8967876434326,17.8974075317383,17.8980293273926,17.8986511230469,17.8992729187012,17.8998947143555,17.9005146026611,17.9011363983154,17.9017581939697,17.902379989624,17.9030017852783,17.9036235809326,17.9042453765869,17.9048671722412,17.9054889678955,17.9061107635498,17.9067325592041,17.907356262207,17.9079780578613,17.9085998535156,17.9092216491699,17.9098434448242,17.9104671478271,17.9110889434814,17.9117107391357,17.91233253479,17.912956237793,17.9135780334473,17.9141998291016,17.9148235321045,17.9154453277588,17.9160690307617,17.916690826416,17.9173145294189,17.9179363250732,17.9185600280762,17.9191818237305,17.9198055267334,17.9204273223877,17.9210510253906,17.9216747283936,17.9222965240479,17.9229202270508,17.9235439300537,17.924165725708,17.9247894287109,17.9254131317139,17.9260368347168,17.9266605377197,17.9272842407227,17.927906036377,17.9285297393799,17.9291534423828,17.9297771453857,17.9304008483887,17.9310245513916,17.9316482543945,17.9322719573975,17.9328956604004,17.9335193634033,17.9341430664062,17.9347686767578,17.9353923797607,17.9360160827637,17.9366397857666,17.9372634887695,17.9378871917725,17.938512802124,17.939136505127,17.9397602081299,17.9403858184814,17.9410095214844,17.9416332244873,17.9422588348389,17.9428825378418,17.9435081481934,17.9441318511963,17.9447555541992,17.9453811645508,17.9460067749023,17.9466304779053,17.9472560882568,17.9478797912598,17.9485054016113,17.9491310119629,17.9497547149658,17.9503803253174,17.9510059356689,17.9516296386719,17.9522552490234,17.952880859375,17.9535064697266,17.9541301727295,17.9547557830811,17.9553813934326,17.9560070037842,17.9566326141357,17.9572582244873,17.9578838348389,17.9585094451904,17.959135055542,17.9597606658936,17.9603862762451,17.9610118865967,17.9616374969482,17.9622631072998,17.9628887176514,17.9635162353516,17.9641418457031,17.9647674560547,17.9653930664062,17.9660205841064,17.966646194458,17.9672718048096,17.9678993225098,17.9685249328613,17.9691505432129,17.9697780609131,17.9704036712646,17.9710311889648,17.9716567993164,17.9722843170166,17.9729099273682,17.9735355377197,17.9741630554199,17.9747905731201,17.9754161834717,17.9760437011719,17.9766712188721,17.9772968292236,17.9779243469238,17.978551864624,17.9791774749756,17.9798049926758,17.980432510376,17.9810600280762,17.9816875457764,17.9823131561279,17.9829406738281,17.9835681915283,17.9841957092285,17.9848232269287,17.9854507446289,17.9860782623291,17.9867057800293,17.9873332977295,17.9879608154297,17.9885883331299,17.9892158508301,17.9898452758789,17.9904727935791,17.9911003112793,17.9917278289795,17.9923553466797,17.9929847717285,17.9936122894287,17.9942398071289,17.9948692321777,17.9954967498779,17.9961242675781,17.9967517852783,17.9973812103271,17.9980087280273,17.9986381530762,17.9992656707764,17.9998950958252,18.0005226135254,18.0011520385742,18.001781463623,18.0024089813232,18.0030384063721,18.0036659240723,18.0042953491211,18.0049247741699,18.0055522918701,18.0061817169189,18.0068111419678,18.0074405670166,18.0080680847168,18.0086975097656,18.0093269348145,18.0099563598633,18.0105857849121,18.0112152099609,18.0118446350098,18.0124740600586,18.0131034851074,18.0137329101562,0,0,0,0,0,0,0,0,0,0,0,0,0,0,0,0,0,0,0,0,0,0,0,0,0,0,0,0,0,0,0,0,0,0,0,0,0,0,0,0,0,0,0,0,0,0,0,0,0,0,0,0,0,0,0,0,0,0,0,0,0,0,0,0,0,0,0,0,0,0,0,0,0,0,0,0,0
17.646017074585,17.6466217041016,17.6472263336182,17.6478309631348,17.6484336853027,17.6490383148193,17.6496429443359,17.6502475738525,17.6508522033691,17.6514568328857,17.6520595550537,17.6526641845703,17.6532688140869,17.6538734436035,17.6544780731201,17.6550827026367,17.6556873321533,17.6562919616699,17.6568965911865,17.6575012207031,17.6581077575684,17.658712387085,17.6593170166016,17.6599216461182,17.6605262756348,17.6611309051514,17.6617374420166,17.6623420715332,17.6629467010498,17.6635513305664,17.6641578674316,17.6647624969482,17.6653690338135,17.6659736633301,17.6665782928467,17.6671848297119,17.6677894592285,17.6683959960938,17.6690006256104,17.6696071624756,17.6702117919922,17.6708183288574,17.671422958374,17.6720294952393,17.6726360321045,17.6732406616211,17.6738471984863,17.6744537353516,17.6750583648682,17.6756649017334,17.6762714385986,17.6768779754639,17.6774826049805,17.6780891418457,17.6786956787109,17.6793022155762,17.6799087524414,17.6805152893066,17.6811218261719,17.6817283630371,17.6823348999023,17.6829414367676,17.6835479736328,17.684154510498,17.6847610473633,17.6853675842285,17.6859741210938,17.686580657959,17.6871871948242,17.6877937316895,17.6884021759033,17.6890087127686,17.6896152496338,17.690221786499,17.6908302307129,17.6914367675781,17.6920433044434,17.6926517486572,17.6932582855225,17.6938648223877,17.6944732666016,17.6950798034668,17.6956882476807,17.6962947845459,17.6969032287598,17.697509765625,17.6981182098389,17.6987247467041,17.699333190918,17.6999416351318,17.7005481719971,17.7011566162109,17.7017650604248,17.70237159729,17.7029800415039,17.7035884857178,17.704195022583,17.7048034667969,17.7054119110107,17.7060203552246,17.7066287994385,17.7072372436523,17.7078437805176,17.7084522247314,17.7090606689453,17.7096691131592,17.710277557373,17.7108860015869,17.7114944458008,17.7121028900146,17.7127113342285,17.7133197784424,17.7139301300049,17.7145385742188,17.7151470184326,17.7157554626465,17.7163639068604,17.7169742584229,17.7175827026367,17.7181911468506,17.7187995910645,17.719409942627,17.7200183868408,17.7206268310547,17.7212371826172,17.7218456268311,17.7224559783936,17.7230644226074,17.7236728668213,17.7242832183838,17.7248916625977,17.7255020141602,17.7261123657227,17.7267208099365,17.727331161499,17.7279396057129,17.7285499572754,17.7291603088379,17.7297687530518,17.7303791046143,17.7309894561768,17.7315979003906,17.7322082519531,17.7328186035156,17.7334289550781,17.7340393066406,17.7346496582031,17.735258102417,17.7358684539795,17.736478805542,17.7370891571045,17.737699508667,17.7383098602295,17.738920211792,17.7395305633545,17.740140914917,17.7407512664795,17.7413635253906,17.7419738769531,17.7425842285156,17.7431945800781,17.7438049316406,17.7444152832031,17.7450275421143,17.7456378936768,17.7462482452393,17.7468585968018,17.7474708557129,17.7480812072754,17.7486934661865,17.749303817749,17.7499141693115,17.7505264282227,17.7511367797852,17.7517490386963,17.7523593902588,17.7529716491699,17.7535820007324,17.7541942596436,17.7548046112061,17.7554168701172,17.7560291290283,17.7566394805908,17.757251739502,17.7578639984131,17.7584743499756,17.7590866088867,17.7596988677979,17.760311126709,17.7609233856201,17.7615337371826,17.7621459960938,17.7627582550049,17.763370513916,17.7639827728271,17.7645950317383,17.7652072906494,17.7658195495605,17.7664318084717,17.7670440673828,17.7676563262939,17.7682685852051,17.7688808441162,17.7694931030273,17.7701053619385,17.7707195281982,17.7713317871094,17.7719440460205,17.7725563049316,17.7731685638428,17.7737827301025,17.7743949890137,17.7750072479248,17.7756214141846,17.7762336730957,17.7768459320068,17.7774600982666,17.7780723571777,17.7786865234375,17.7792987823486,17.7799129486084,17.7805252075195,17.7811393737793,17.7817516326904,17.7823657989502,17.7829780578613,17.7835922241211,17.7842063903809,17.784818649292,17.7854328155518,17.7860469818115,17.7866592407227,17.7872734069824,17.7878875732422,17.788501739502,17.7891159057617,17.7897300720215,17.7903423309326,17.7909564971924,17.7915706634521,17.7921848297119,17.7927989959717,17.7934131622314,17.7940273284912,17.794641494751,17.7952556610107,17.7958698272705,17.7964859008789,17.7971000671387,17.7977142333984,17.7983283996582,17.798942565918,17.7995567321777,17.8001728057861,17.8007869720459,17.8014011383057,17.8020153045654,17.8026313781738,17.8032455444336,17.8038597106934,17.8044757843018,17.8050899505615,17.8057060241699,17.8063201904297,17.8069362640381,17.8075504302979,17.8081665039062,17.808780670166,17.8093967437744,17.8100109100342,17.8106269836426,17.811243057251,17.8118572235107,17.8124732971191,17.8130893707275,17.8137035369873,17.8143196105957,17.8149356842041,17.8155517578125,17.8161659240723,17.8167819976807,17.8173980712891,17.8180141448975,17.8186302185059,17.8192462921143,17.8198623657227,17.8204784393311,17.8210945129395,17.8217105865479,17.8223266601562,17.8229427337646,17.823558807373,17.8241748809814,17.8247909545898,17.8254070281982,17.8260231018066,17.826639175415,17.8272571563721,17.8278732299805,17.8284893035889,17.8291053771973,17.8297233581543,17.8303394317627,17.8309555053711,17.8315734863281,17.8321895599365,17.8328075408936,17.833423614502,17.8340396881104,17.8346576690674,17.8352756500244,17.8358917236328,17.8365097045898,17.8371257781982,17.8377437591553,0,0,0,0,0,0,0,0,0,0,0,0,0,0,0,0,0,0,0,0,0,0,0,0,0,0,0,0,0,0,0,0,0,0,0,0,0,0,0,0,0,0,0,0,0,0,0,0,0,0,0,0,0,0,0,0,0,0,0,0,0,0,0,0,0,0,0,0,0,0,0,0,0
17.4747371673584,17.4753303527832,17.4759216308594,17.4765148162842,17.4771060943604,17.4776992797852,17.47829246521,17.4788837432861,17.4794769287109,17.4800701141357,17.4806632995605,17.4812564849854,17.4818477630615,17.4824409484863,17.4830341339111,17.4836273193359,17.4842205047607,17.4848136901855,17.4854068756104,17.4860000610352,17.48659324646,17.4871864318848,17.4877796173096,17.4883728027344,17.4889659881592,17.489559173584,17.4901523590088,17.4907455444336,17.4913387298584,17.4919319152832,17.4925270080566,17.4931201934814,17.4937133789062,17.4943065643311,17.4948997497559,17.4954948425293,17.4960880279541,17.4966812133789,17.4972763061523,17.4978694915771,17.4984645843506,17.4990577697754,17.4996509552002,17.5002460479736,17.5008392333984,17.5014343261719,17.5020275115967,17.5026226043701,17.5032157897949,17.5038108825684,17.5044059753418,17.5049991607666,17.50559425354,17.5061893463135,17.5067825317383,17.5073776245117,17.5079727172852,17.5085678100586,17.5091609954834,17.5097560882568,17.5103511810303,17.5109462738037,17.5115413665771,17.5121364593506,17.5127296447754,17.5133247375488,17.5139198303223,17.5145149230957,17.5151100158691,17.5157051086426,17.516300201416,17.5168952941895,17.5174903869629,17.518087387085,17.5186824798584,17.5192775726318,17.5198726654053,17.5204677581787,17.5210628509521,17.5216598510742,17.5222549438477,17.5228500366211,17.5234451293945,17.5240421295166,17.52463722229,17.5252323150635,17.5258293151855,17.526424407959,17.5270214080811,17.5276165008545,17.5282135009766,17.52880859375,17.5294055938721,17.5300006866455,17.5305976867676,17.531192779541,17.5317897796631,17.5323848724365,17.5329818725586,17.5335788726807,17.5341739654541,17.5347709655762,17.5353679656982,17.5359630584717,17.5365600585938,17.5371570587158,17.5377540588379,17.53835105896,17.5389461517334,17.5395431518555,17.5401401519775,17.5407371520996,17.5413341522217,17.5419311523438,17.5425281524658,17.5431251525879,17.54372215271,17.544319152832,17.5449161529541,17.5455131530762,17.5461101531982,17.5467071533203,17.5473041534424,17.5479030609131,17.5485000610352,17.5490970611572,17.5496940612793,17.5502910614014,17.5508899688721,17.5514869689941,17.5520839691162,17.5526828765869,17.553279876709,17.5538768768311,17.5544757843018,17.5550727844238,17.5556716918945,17.5562686920166,17.5568675994873,17.5574645996094,17.5580635070801,17.5586605072021,17.5592594146729,17.5598564147949,17.5604553222656,17.5610523223877,17.5616512298584,17.5622501373291,17.5628490447998,17.5634460449219,17.5640449523926,17.5646438598633,17.565242767334,17.5658397674561,17.5664386749268,17.5670375823975,17.5676364898682,17.5682353973389,17.5688343048096,17.5694332122803,17.570032119751,17.5706310272217,17.5712299346924,17.5718288421631,17.5724277496338,17.5730266571045,17.5736255645752,17.5742244720459,17.5748233795166,17.5754222869873,17.576021194458,17.5766201019287,17.577220916748,17.5778198242188,17.5784187316895,17.5790176391602,17.5796184539795,17.5802173614502,17.5808162689209,17.5814170837402,17.5820159912109,17.5826148986816,17.583215713501,17.5838146209717,17.584415435791,17.5850143432617,17.5856151580811,17.5862140655518,17.5868148803711,17.5874137878418,17.5880146026611,17.5886154174805,17.5892143249512,17.5898151397705,17.5904159545898,17.5910148620605,17.5916156768799,17.5922164916992,17.5928173065186,17.5934162139893,17.5940170288086,17.5946178436279,17.5952186584473,17.5958194732666,17.5964202880859,17.5970211029053,17.5976219177246,17.5982227325439,17.5988216400146,17.5994243621826,17.600025177002,17.6006259918213,17.6012268066406,17.60182762146,17.6024284362793,17.6030292510986,17.603630065918,17.6042308807373,17.6048316955566,17.6054344177246,17.6060352325439,17.6066360473633,17.6072368621826,17.6078395843506,17.6084403991699,17.6090412139893,17.6096439361572,17.6102447509766,17.6108474731445,17.6114482879639,17.6120491027832,17.6126518249512,17.6132526397705,17.6138553619385,17.6144580841064,17.6150588989258,17.6156616210938,17.6162624359131,17.6168651580811,17.617467880249,17.6180686950684,17.6186714172363,17.6192741394043,17.6198749542236,17.6204776763916,17.6210803985596,17.6216831207275,17.6222858428955,17.6228866577148,17.6234893798828,17.6240921020508,17.6246948242188,17.6252975463867,17.6259002685547,17.6265029907227,17.6271057128906,17.6277084350586,17.6283111572266,17.6289138793945,17.6295166015625,17.6301193237305,17.6307220458984,17.6313247680664,17.631929397583,17.632532119751,17.6331348419189,17.6337375640869,17.6343402862549,17.6349449157715,17.6355476379395,17.6361503601074,17.636754989624,17.637357711792,17.63796043396,17.6385650634766,17.6391677856445,17.6397724151611,17.6403751373291,17.6409797668457,17.6415824890137,17.6421871185303,17.6427898406982,17.6433944702148,17.6439990997314,17.6446018218994,17.645206451416,17.6458110809326,17.6464138031006,17.6470184326172,17.6476230621338,17.6482257843018,17.6488304138184,17.649435043335,17.6500396728516,17.6506443023682,17.6512470245361,17.6518516540527,17.6524562835693,17.6530609130859,17.6536655426025,17.6542701721191,17.6548748016357,17.6554794311523,17.6560840606689,17.6566886901855,17.6572933197021,17.6578979492188,17.6585025787354,17.6591091156006,17.6597137451172,17.6603183746338,17.6609230041504,17.661527633667,17.6621341705322,17.6627388000488,17.6633434295654,17.6639499664307,17.6645545959473,17.6651592254639,0,0,0,0,0,0,0,0,0,0,0,0,0,0,0,0,0,0,0,0,0,0,0,0,0,0,0,0,0,0,0,0,0,0,0,0,0,0,0,0,0,0,0,0,0,0,0,0,0,0,0,0,0,0,0,0,0,0,0,0,0,0,0,0,0,0,0,0,0
17.3067493438721,17.3073310852051,17.3079109191895,17.3084926605225,17.3090744018555,17.3096542358398,17.3102359771729,17.3108177185059,17.3113994598389,17.3119812011719,17.3125610351562,17.3131427764893,17.3137245178223,17.3143062591553,17.3148880004883,17.3154697418213,17.3160514831543,17.3166332244873,17.3172149658203,17.3177967071533,17.3183784484863,17.3189601898193,17.3195419311523,17.3201236724854,17.3207054138184,17.3212871551514,17.3218688964844,17.3224506378174,17.323034286499,17.323616027832,17.324197769165,17.324779510498,17.3253631591797,17.3259449005127,17.3265266418457,17.3271083831787,17.3276920318604,17.3282737731934,17.328857421875,17.329439163208,17.330020904541,17.3306045532227,17.3311862945557,17.3317699432373,17.3323516845703,17.332935333252,17.333517074585,17.3341007232666,17.3346843719482,17.3352661132812,17.3358497619629,17.3364315032959,17.3370151519775,17.3375988006592,17.3381824493408,17.3387641906738,17.3393478393555,17.3399314880371,17.3405151367188,17.3410987854004,17.3416805267334,17.342264175415,17.3428478240967,17.3434314727783,17.34401512146,17.3445987701416,17.3451824188232,17.3457660675049,17.3463497161865,17.3469333648682,17.3475170135498,17.3481006622314,17.3486843109131,17.3492679595947,17.3498516082764,17.350435256958,17.3510208129883,17.3516044616699,17.3521881103516,17.3527717590332,17.3533573150635,17.3539409637451,17.3545246124268,17.355110168457,17.3556938171387,17.3562774658203,17.3568630218506,17.3574466705322,17.3580303192139,17.3586158752441,17.3591995239258,17.3597850799561,17.3603687286377,17.360954284668,17.3615379333496,17.3621234893799,17.3627090454102,17.3632926940918,17.3638782501221,17.3644618988037,17.365047454834,17.3656330108643,17.3662166595459,17.3668022155762,17.3673877716064,17.3679733276367,17.368558883667,17.3691425323486,17.3697280883789,17.3703136444092,17.3708992004395,17.3714847564697,17.3720703125,17.3726558685303,17.3732414245605,17.3738269805908,17.3744125366211,17.3749980926514,17.3755836486816,17.3761692047119,17.3767547607422,17.3773403167725,17.3779258728027,17.378511428833,17.3790969848633,17.3796825408936,17.3802700042725,17.3808555603027,17.381441116333,17.3820266723633,17.3826141357422,17.3831996917725,17.3837852478027,17.3843727111816,17.3849582672119,17.3855438232422,17.3861312866211,17.3867168426514,17.3873043060303,17.3878898620605,17.3884773254395,17.3890628814697,17.3896503448486,17.3902359008789,17.3908233642578,17.3914108276367,17.391996383667,17.3925838470459,17.3931713104248,17.3937568664551,17.394344329834,17.3949317932129,17.3955173492432,17.3961048126221,17.396692276001,17.3972797393799,17.3978672027588,17.3984527587891,17.399040222168,17.3996276855469,17.4002151489258,17.4008026123047,17.4013900756836,17.4019775390625,17.4025650024414,17.4031524658203,17.4037399291992,17.4043273925781,17.404914855957,17.4055023193359,17.4060897827148,17.4066772460938,17.4072666168213,17.4078540802002,17.4084415435791,17.409029006958,17.4096164703369,17.4102058410645,17.4107933044434,17.4113807678223,17.4119701385498,17.4125576019287,17.4131450653076,17.4137344360352,17.4143218994141,17.4149112701416,17.4154987335205,17.416088104248,17.416675567627,17.4172649383545,17.4178524017334,17.4184417724609,17.4190292358398,17.4196186065674,17.4202079772949,17.4207954406738,17.4213848114014,17.4219722747803,17.4225616455078,17.4231510162354,17.4237403869629,17.4243297576904,17.4249172210693,17.4255065917969,17.4260959625244,17.426685333252,17.4272747039795,17.4278621673584,17.4284515380859,17.4290409088135,17.429630279541,17.4302196502686,17.4308090209961,17.4313983917236,17.4319877624512,17.4325771331787,17.4331665039062,17.4337577819824,17.43434715271,17.4349365234375,17.435525894165,17.4361152648926,17.4367046356201,17.4372959136963,17.4378852844238,17.4384746551514,17.4390640258789,17.4396553039551,17.4402446746826,17.4408340454102,17.4414253234863,17.4420146942139,17.44260597229,17.4431953430176,17.4437847137451,17.4443759918213,17.4449653625488,17.445556640625,17.4461460113525,17.4467372894287,17.4473285675049,17.4479179382324,17.4485092163086,17.4491004943848,17.4496898651123,17.4502811431885,17.4508724212646,17.4514617919922,17.4520530700684,17.4526443481445,17.4532356262207,17.4538249969482,17.4544162750244,17.4550075531006,17.4555988311768,17.4561901092529,17.4567813873291,17.4573726654053,17.4579639434814,17.4585552215576,17.4591464996338,17.45973777771,17.4603290557861,17.4609203338623,17.4615116119385,17.4621028900146,17.4626941680908,17.463285446167,17.4638767242432,17.464469909668,17.4650611877441,17.4656524658203,17.4662437438965,17.4668369293213,17.4674282073975,17.4680194854736,17.4686126708984,17.4692039489746,17.4697952270508,17.4703884124756,17.4709796905518,17.4715728759766,17.4721641540527,17.4727573394775,17.4733486175537,17.4739418029785,17.4745330810547,17.4751262664795,17.4757175445557,17.4763107299805,17.4769039154053,17.4774951934814,17.4780883789062,17.4786815643311,17.4792728424072,17.479866027832,17.4804592132568,17.4810523986816,17.4816436767578,17.4822368621826,17.4828300476074,17.4834232330322,17.484016418457,17.4846096038818,17.4852027893066,17.4857959747314,17.4863872528076,17.4869823455811,17.4875755310059,17.4881687164307,17.4887619018555,17.4893550872803,17.4899482727051,17.4905414581299,17.4911346435547,17.4917278289795,17.4923210144043,17.4929161071777,17.4935092926025,17.4941024780273,17.4946956634521,17.4952907562256,17.4958839416504,17.4964771270752,0,0,0,0,0,0,0,0,0,0,0,0,0,0,0,0,0,0,0,0,0,0,0,0,0,0,0,0,0,0,0,0,0,0,0,0,0,0,0,0,0,0,0,0,0,0,0,0,0,0,0,0,0,0,0,0,0,0,0,0,0,0,0,0
17.141960144043,17.1425304412842,17.1431007385254,17.1436710357666,17.1442413330078,17.144811630249,17.1453819274902,17.1459522247314,17.1465225219727,17.1470928192139,17.1476631164551,17.1482334136963,17.1488037109375,17.1493740081787,17.1499443054199,17.1505146026611,17.1510848999023,17.1516571044922,17.1522274017334,17.1527976989746,17.1533679962158,17.1539402008057,17.1545104980469,17.1550807952881,17.1556510925293,17.1562232971191,17.1567935943604,17.1573657989502,17.1579360961914,17.1585063934326,17.1590785980225,17.1596488952637,17.1602210998535,17.1607913970947,17.1613636016846,17.1619338989258,17.1625061035156,17.1630764007568,17.1636486053467,17.1642208099365,17.1647911071777,17.1653633117676,17.1659355163574,17.1665058135986,17.1670780181885,17.1676502227783,17.1682224273682,17.1687927246094,17.1693649291992,17.1699371337891,17.1705093383789,17.1710815429688,17.17165184021,17.1722240447998,17.1727962493896,17.1733684539795,17.1739406585693,17.1745128631592,17.175085067749,17.1756572723389,17.1762294769287,17.1768016815186,17.1773738861084,17.1779460906982,17.1785202026367,17.1790924072266,17.1796646118164,17.1802368164062,17.1808090209961,17.1813812255859,17.1819553375244,17.1825275421143,17.1830997467041,17.1836719512939,17.1842460632324,17.1848182678223,17.1853923797607,17.1859645843506,17.1865367889404,17.1871109008789,17.1876831054688,17.1882572174072,17.1888294219971,17.1894016265869,17.1899757385254,17.1905498504639,17.1911220550537,17.1916961669922,17.192268371582,17.1928424835205,17.193416595459,17.1939888000488,17.1945629119873,17.1951370239258,17.1957092285156,17.1962833404541,17.1968574523926,17.1974315643311,17.1980037689209,17.1985778808594,17.1991519927979,17.1997261047363,17.2003002166748,17.2008743286133,17.2014484405518,17.2020225524902,17.2025947570801,17.2031688690186,17.203742980957,17.2043190002441,17.204891204834,17.2054672241211,17.2060413360596,17.206615447998,17.2071895599365,17.207763671875,17.2083377838135,17.208911895752,17.2094879150391,17.2100620269775,17.210636138916,17.2112102508545,17.2117862701416,17.2123603820801,17.2129344940186,17.2135105133057,17.2140846252441,17.2146587371826,17.2152347564697,17.2158088684082,17.2163829803467,17.2169589996338,17.2175331115723,17.2181091308594,17.2186851501465,17.219259262085,17.2198352813721,17.2204093933105,17.2209854125977,17.2215595245361,17.2221355438232,17.2227115631104,17.2232856750488,17.2238616943359,17.224437713623,17.2250137329102,17.2255878448486,17.2261638641357,17.2267398834229,17.22731590271,17.2278919219971,17.2284679412842,17.2290420532227,17.2296180725098,17.2301940917969,17.230770111084,17.2313461303711,17.2319221496582,17.2324981689453,17.2330741882324,17.2336502075195,17.2342262268066,17.2348022460938,17.2353782653809,17.2359561920166,17.2365322113037,17.2371082305908,17.2376842498779,17.238260269165,17.2388362884521,17.2394142150879,17.239990234375,17.2405662536621,17.2411441802979,17.241720199585,17.2422962188721,17.2428741455078,17.2434501647949,17.244026184082,17.2446041107178,17.2451801300049,17.2457580566406,17.2463340759277,17.2469120025635,17.2474880218506,17.2480659484863,17.2486419677734,17.2492198944092,17.2497978210449,17.250373840332,17.2509517669678,17.2515296936035,17.2521057128906,17.2526836395264,17.2532615661621,17.2538375854492,17.254415512085,17.2549934387207,17.2555713653564,17.2561492919922,17.2567253112793,17.257303237915,17.2578811645508,17.2584590911865,17.2590370178223,17.259614944458,17.2601928710938,17.2607707977295,17.2613487243652,17.261926651001,17.2625045776367,17.2630825042725,17.2636604309082,17.2642402648926,17.2648181915283,17.2653961181641,17.2659740447998,17.2665519714355,17.2671298980713,17.2677097320557,17.2682876586914,17.2688655853271,17.2694435119629,17.2700233459473,17.270601272583,17.2711811065674,17.2717590332031,17.2723369598389,17.2729167938232,17.273494720459,17.2740745544434,17.2746524810791,17.2752323150635,17.2758102416992,17.2763900756836,17.2769680023193,17.2775478363037,17.2781276702881,17.2787055969238,17.2792854309082,17.2798652648926,17.2804431915283,17.2810230255127,17.2816028594971,17.2821807861328,17.2827606201172,17.2833404541016,17.2839202880859,17.2845001220703,17.2850780487061,17.2856578826904,17.2862377166748,17.2868175506592,17.2873973846436,17.2879772186279,17.2885570526123,17.2891368865967,17.2897167205811,17.2902965545654,17.2908763885498,17.2914562225342,17.2920360565186,17.2926158905029,17.2931957244873,17.2937774658203,17.2943572998047,17.2949371337891,17.2955169677734,17.2960968017578,17.2966785430908,17.2972583770752,17.2978382110596,17.2984180450439,17.298999786377,17.2995796203613,17.3001613616943,17.3007411956787,17.3013210296631,17.3019027709961,17.3024826049805,17.3030643463135,17.3036441802979,17.3042259216309,17.3048057556152,17.3053874969482,17.3059692382812,17.3065490722656,17.3071308135986,17.307710647583,17.308292388916,17.308874130249,17.3094539642334,17.3100357055664,17.3106174468994,17.3111991882324,17.3117809295654,17.3123607635498,17.3129425048828,17.3135242462158,17.3141059875488,17.3146877288818,17.3152694702148,17.3158512115479,17.3164329528809,17.3170146942139,17.3175964355469,17.3181781768799,17.3187599182129,17.3193416595459,17.3199234008789,17.3205051422119,17.3210868835449,17.3216686248779,17.3222503662109,17.3228321075439,17.3234157562256,17.3239974975586,17.3245792388916,17.3251609802246,17.3257446289062,17.3263263702393,17.3269081115723,17.3274917602539,17.3280735015869,17.3286552429199,17.3292388916016,17.3298206329346,17.3304042816162,0,0,0,0,0,0,0,0,0,0,0,0,0,0,0,0,0,0,0,0,0,0,0,0,0,0,0,0,0,0,0,0,0,0,0,0,0,0,0,0,0,0,0,0,0,0,0,0,0,0,0,0,0,0,0,0,0,0,0,0
16.9802799224854,16.9808406829834,16.9813995361328,16.9819583892822,16.9825172424316,16.9830780029297,16.9836368560791,16.9841957092285,16.9847564697266,16.985315322876,16.985876083374,16.9864349365234,16.9869956970215,16.9875545501709,16.9881153106689,16.9886741638184,16.9892349243164,16.9897937774658,16.9903545379639,16.9909133911133,16.9914741516113,16.9920349121094,16.9925937652588,16.9931545257568,16.9937152862549,16.9942741394043,16.9948348999023,16.9953956604004,16.9959564208984,16.9965152740479,16.9970760345459,16.9976367950439,16.998197555542,16.99875831604,16.9993190765381,16.9998798370361,17.0004386901855,17.0009994506836,17.0015602111816,17.0021209716797,17.0026817321777,17.0032424926758,17.0038032531738,17.0043659210205,17.0049266815186,17.0054874420166,17.0060482025146,17.0066089630127,17.0071697235107,17.0077304840088,17.0082931518555,17.0088539123535,17.0094146728516,17.0099754333496,17.0105361938477,17.0110988616943,17.0116596221924,17.0122203826904,17.0127830505371,17.0133438110352,17.0139064788818,17.0144672393799,17.0150279998779,17.0155906677246,17.0161514282227,17.0167140960693,17.0172748565674,17.0178375244141,17.0183982849121,17.0189609527588,17.0195236206055,17.0200843811035,17.0206470489502,17.0212078094482,17.0217704772949,17.0223331451416,17.0228958129883,17.0234565734863,17.024019241333,17.0245819091797,17.0251445770264,17.0257053375244,17.0262680053711,17.0268306732178,17.0273933410645,17.0279560089111,17.0285186767578,17.0290813446045,17.0296421051025,17.0302047729492,17.0307674407959,17.0313301086426,17.0318927764893,17.0324554443359,17.0330181121826,17.0335826873779,17.0341453552246,17.0347080230713,17.035270690918,17.0358333587646,17.0363960266113,17.036958694458,17.0375232696533,17.0380859375,17.0386486053467,17.0392112731934,17.0397758483887,17.0403385162354,17.040901184082,17.0414657592773,17.042028427124,17.0425910949707,17.043155670166,17.0437183380127,17.044282913208,17.0448455810547,17.04541015625,17.0459728240967,17.046537399292,17.0471000671387,17.047664642334,17.0482273101807,17.048791885376,17.0493564605713,17.049919128418,17.0504837036133,17.05104637146,17.0516109466553,17.0521755218506,17.0527400970459,17.0533046722412,17.0538673400879,17.0544319152832,17.0549964904785,17.0555610656738,17.0561256408691,17.0566883087158,17.0572528839111,17.0578174591064,17.0583820343018,17.0589466094971,17.0595111846924,17.0600757598877,17.060640335083,17.0612049102783,17.0617694854736,17.0623340606689,17.0628986358643,17.0634632110596,17.0640296936035,17.0645942687988,17.0651588439941,17.0657234191895,17.0662879943848,17.0668544769287,17.067419052124,17.0679836273193,17.0685482025146,17.0691146850586,17.0696792602539,17.0702438354492,17.0708103179932,17.0713748931885,17.0719394683838,17.0725059509277,17.073070526123,17.073637008667,17.0742015838623,17.0747680664062,17.0753326416016,17.0758991241455,17.0764636993408,17.0770301818848,17.0775947570801,17.078161239624,17.078727722168,17.0792922973633,17.0798587799072,17.0804252624512,17.0809917449951,17.0815563201904,17.0821228027344,17.0826892852783,17.0832557678223,17.0838203430176,17.0843868255615,17.0849533081055,17.0855197906494,17.0860862731934,17.0866527557373,17.0872192382812,17.0877857208252,17.0883522033691,17.0889186859131,17.089485168457,17.090051651001,17.0906181335449,17.0911846160889,17.0917510986328,17.0923175811768,17.0928840637207,17.0934505462646,17.0940170288086,17.0945854187012,17.0951519012451,17.0957183837891,17.096284866333,17.0968532562256,17.0974197387695,17.0979862213135,17.0985546112061,17.09912109375,17.0996875762939,17.1002559661865,17.1008224487305,17.101390838623,17.101957321167,17.1025238037109,17.1030921936035,17.1036586761475,17.10422706604,17.1047954559326,17.1053619384766,17.1059303283691,17.1064968109131,17.1070652008057,17.1076335906982,17.1082000732422,17.1087684631348,17.1093368530273,17.1099033355713,17.1104717254639,17.1110401153564,17.111608505249,17.112174987793,17.1127433776855,17.1133117675781,17.1138801574707,17.1144485473633,17.1150169372559,17.1155853271484,17.116153717041,17.116720199585,17.1172904968262,17.1178569793701,17.1184272766113,17.1189937591553,17.1195640563965,17.1201324462891,17.1207008361816,17.1212692260742,17.1218376159668,17.1224060058594,17.122974395752,17.1235446929932,17.1241130828857,17.1246814727783,17.1252498626709,17.1258201599121,17.1263885498047,17.1269569396973,17.1275272369385,17.1280956268311,17.1286640167236,17.1292343139648,17.1298027038574,17.1303730010986,17.1309413909912,17.1315116882324,17.132080078125,17.1326484680176,17.1332187652588,17.1337890625,17.1343574523926,17.1349277496338,17.1354961395264,17.1360664367676,17.1366367340088,17.1372051239014,17.1377754211426,17.1383457183838,17.1389141082764,17.1394844055176,17.1400547027588,17.140625,17.1411952972412,17.1417636871338,17.142333984375,17.1429042816162,17.1434745788574,17.1440448760986,17.1446151733398,17.1451854705811,17.1457557678223,17.1463260650635,17.1468963623047,17.1474666595459,17.1480369567871,17.1486072540283,17.1491775512695,17.1497478485107,17.150318145752,17.1508884429932,17.151460647583,17.1520309448242,17.1526012420654,17.1531715393066,17.1537437438965,17.1543140411377,17.1548843383789,17.1554565429688,17.15602684021,17.1565971374512,17.1571674346924,17.1577396392822,17.1583099365234,17.1588821411133,17.1594524383545,17.1600246429443,17.1605949401855,17.1611671447754,17.1617374420166,17.1623096466064,17.1628799438477,17.1634521484375,17.1640224456787,17.1645946502686,17.1651668548584,17.1657371520996,17.1663093566895,17.1668815612793,17.1674537658691,0,0,0,0,0,0,0,0,0,0,0,0,0,0,0,0,0,0,0,0,0,0,0,0,0,0,0,0,0,0,0,0,0,0,0,0,0,0,0,0,0,0,0,0,0,0,0,0,0,0,0,0,0,0,0,0
16.8216209411621,16.8221702575684,16.8227195739746,16.8232688903809,16.8238182067871,16.8243675231934,16.8249168395996,16.8254642486572,16.8260135650635,16.8265628814697,16.827112197876,16.8276615142822,16.8282108306885,16.8287601470947,16.829309463501,16.8298587799072,16.8304080963135,16.8309574127197,16.8315086364746,16.8320579528809,16.8326072692871,16.8331565856934,16.8337059020996,16.8342552185059,16.8348064422607,16.835355758667,16.8359050750732,16.8364562988281,16.8370056152344,16.8375549316406,16.8381042480469,16.8386554718018,16.839204788208,16.8397560119629,16.8403053283691,16.8408546447754,16.8414058685303,16.8419551849365,16.8425064086914,16.8430557250977,16.8436069488525,16.8441562652588,16.8447074890137,16.8452587127686,16.8458080291748,16.8463592529297,16.8469085693359,16.8474597930908,16.8480110168457,16.848560333252,16.8491115570068,16.8496627807617,16.8502140045166,16.8507652282715,16.8513145446777,16.8518657684326,16.8524169921875,16.8529682159424,16.8535194396973,16.8540706634521,16.854621887207,16.8551712036133,16.8557224273682,16.856273651123,16.8568248748779,16.8573760986328,16.8579273223877,16.8584785461426,16.8590297698975,16.8595809936523,16.8601341247559,16.8606853485107,16.8612365722656,16.8617877960205,16.8623390197754,16.8628902435303,16.8634414672852,16.8639945983887,16.8645458221436,16.8650970458984,16.8656482696533,16.8662014007568,16.8667526245117,16.8673038482666,16.8678569793701,16.868408203125,16.8689613342285,16.8695125579834,16.8700637817383,16.8706169128418,16.8711681365967,16.8717212677002,16.8722724914551,16.8728256225586,16.8733768463135,16.873929977417,16.8744831085205,16.8750343322754,16.8755874633789,16.8761386871338,16.8766918182373,16.8772449493408,16.8777961730957,16.8783493041992,16.8789024353027,16.8794555664062,16.8800067901611,16.8805599212646,16.8811130523682,16.8816661834717,16.8822193145752,16.8827724456787,16.8833255767822,16.8838768005371,16.8844299316406,16.8849830627441,16.8855361938477,16.8860893249512,16.8866424560547,16.8871955871582,16.8877487182617,16.8883018493652,16.8888568878174,16.8894100189209,16.8899631500244,16.8905162811279,16.8910694122314,16.891622543335,16.8921756744385,16.8927307128906,16.8932838439941,16.8938369750977,16.8943901062012,16.8949451446533,16.8954982757568,16.8960514068604,16.8966064453125,16.897159576416,16.8977127075195,16.8982677459717,16.8988208770752,16.8993759155273,16.8999290466309,16.900484085083,16.9010372161865,16.9015922546387,16.9021453857422,16.9027004241943,16.9032535552979,16.90380859375,16.9043636322021,16.9049167633057,16.9054718017578,16.9060249328613,16.9065799713135,16.9071350097656,16.9076900482178,16.9082431793213,16.9087982177734,16.9093532562256,16.9099082946777,16.9104614257812,16.9110164642334,16.9115715026855,16.9121265411377,16.9126815795898,16.913236618042,16.9137916564941,16.9143466949463,16.9149017333984,16.9154567718506,16.9160118103027,16.9165668487549,16.917121887207,16.9176769256592,16.9182319641113,16.9187870025635,16.9193420410156,16.9198970794678,16.9204540252686,16.9210090637207,16.9215641021729,16.922119140625,16.9226741790771,16.9232311248779,16.9237861633301,16.9243412017822,16.924898147583,16.9254531860352,16.9260082244873,16.9265651702881,16.9271202087402,16.927677154541,16.9282321929932,16.9287891387939,16.9293441772461,16.9298992156982,16.930456161499,16.9310111999512,16.931568145752,16.9321250915527,16.9326801300049,16.9332370758057,16.9337921142578,16.9343490600586,16.9349060058594,16.9354610443115,16.9360179901123,16.9365749359131,16.9371318817139,16.937686920166,16.9382438659668,16.9388008117676,16.9393577575684,16.9399147033691,16.9404697418213,16.9410266876221,16.9415836334229,16.9421405792236,16.9426975250244,16.9432544708252,16.943811416626,16.9443683624268,16.9449253082275,16.9454822540283,16.9460391998291,16.9465961456299,16.9471530914307,16.9477100372314,16.9482669830322,16.9488258361816,16.9493827819824,16.9499397277832,16.950496673584,16.9510536193848,16.9516124725342,16.952169418335,16.9527263641357,16.9532833099365,16.9538421630859,16.9543991088867,16.9549560546875,16.9555149078369,16.9560718536377,16.9566307067871,16.9571876525879,16.9577445983887,16.9583034515381,16.9588623046875,16.9594192504883,16.9599761962891,16.9605350494385,16.9610939025879,16.9616508483887,16.9622097015381,16.9627685546875,16.9633255004883,16.9638843536377,16.9644412994385,16.9650001525879,16.9655590057373,16.9661178588867,16.9666748046875,16.9672336578369,16.9677925109863,16.9683513641357,16.9689102172852,16.9694671630859,16.9700260162354,16.9705848693848,16.9711437225342,16.9717025756836,16.972261428833,16.9728202819824,16.9733791351318,16.9739379882812,16.9744968414307,16.9750556945801,16.9756145477295,16.9761734008789,16.9767322540283,16.9772911071777,16.9778518676758,16.9784107208252,16.9789695739746,16.979528427124,16.9800872802734,16.9806480407715,16.9812068939209,16.9817657470703,16.9823265075684,16.9828853607178,16.9834442138672,16.9840049743652,16.9845638275146,16.9851226806641,16.9856834411621,16.9862422943115,16.9868030548096,16.987361907959,16.987922668457,16.9884815216064,16.9890422821045,16.9896011352539,16.990161895752,16.9907207489014,16.9912815093994,16.9918422698975,16.9924011230469,16.9929618835449,16.993522644043,16.9940814971924,16.9946422576904,16.9952030181885,16.9957637786865,16.9963226318359,16.996883392334,16.997444152832,16.9980049133301,16.9985656738281,16.9991264343262,16.9996852874756,17.0002460479736,17.0008068084717,17.0013675689697,17.0019283294678,17.0024890899658,17.0030498504639,17.0036106109619,17.00417137146,17.004732131958,17.0052928924561,17.0058555603027,17.0064163208008,17.0069770812988,17.0075378417969,17.0080986022949,0,0,0,0,0,0,0,0,0,0,0,0,0,0,0,0,0,0,0,0,0,0,0,0,0,0,0,0,0,0,0,0,0,0,0,0,0,0,0,0,0,0,0,0,0,0,0,0,0,0,0
