15.6463088989258,15.6472768783569,15.6482439041138,15.6492109298706,15.6501789093018,15.6511459350586,15.6521139144897,15.6530818939209,15.6540498733521,15.6550178527832,15.6559858322144,15.6569547653198,15.657922744751,15.6588916778564,15.6598606109619,15.6608295440674,15.6617975234985,15.6627674102783,15.6637363433838,15.6647052764893,15.665675163269,15.6666450500488,15.6676139831543,15.6685838699341,15.6695537567139,15.6705236434937,15.6714935302734,15.6724643707275,15.6734352111816,15.6744050979614,15.6753759384155,15.6763467788696,15.6773176193237,15.6782884597778,15.6792593002319,15.6802310943604,15.6812019348145,15.6821737289429,15.683144569397,15.6841163635254,15.6850881576538,15.6860609054565,15.687032699585,15.6880044937134,15.6889772415161,15.6899490356445,15.6909217834473,15.69189453125,15.6928672790527,15.6938400268555,15.6948137283325,15.6957864761353,15.6967601776123,15.697732925415,15.6987066268921,15.6996803283691,15.7006540298462,15.7016277313232,15.7026023864746,15.7035760879517,15.704550743103,15.7055244445801,15.7064990997314,15.7074737548828,15.7084484100342,15.7094230651855,15.7103977203369,15.7113733291626,15.7123489379883,15.7133235931396,15.7142992019653,15.715274810791,15.7162504196167,15.7172260284424,15.7182025909424,15.7191781997681,15.7201547622681,15.7211313247681,15.7221069335938,15.7230844497681,15.7240600585938,15.7250366210938,15.7260141372681,15.7269916534424,15.7279682159424,15.7289457321167,15.729923248291,15.7309007644653,15.7318782806396,15.732855796814,15.7338333129883,15.7348117828369,15.7357902526855,15.7367677688599,15.7377462387085,15.7387247085571,15.7397031784058,15.7406826019287,15.7416610717773,15.7426404953003,15.7436189651489,15.7445983886719,15.7455778121948,15.7465572357178,15.7475366592407,15.7485160827637,15.7494964599609,15.7504758834839,15.7514562606812,15.7524366378784,15.7534170150757,15.7543973922729,15.7553777694702,15.7563581466675,15.7573394775391,15.7583198547363,15.7593011856079,15.7602825164795,15.7612638473511,15.7622451782227,15.7632265090942,15.7642078399658,15.7651901245117,15.7661724090576,15.7671537399292,15.7681360244751,15.769118309021,15.7701005935669,15.7710828781128,15.772066116333,15.7730484008789,15.7740316390991,15.7750148773193,15.7759971618652,15.7769804000854,15.77796459198,15.7789478302002,15.7799310684204,15.7809152603149,15.7818994522095,15.7828826904297,15.7838668823242,15.7848510742188,15.7858352661133,15.7868204116821,15.7878046035767,15.7887887954712,15.78977394104,15.7907590866089,15.7917442321777,15.7927293777466,15.7937145233154,15.7946996688843,15.7956857681274,15.7966709136963,15.7976570129395,15.7986431121826,15.7996292114258,15.8006153106689,15.8016014099121,15.8025884628296,15.8035745620728,15.8045616149902,15.8055486679077,15.8065357208252,15.8075227737427,15.8085088729858,15.8094968795776,15.8104839324951,15.8114719390869,15.8124589920044,15.8134469985962,15.814435005188,15.8154230117798,15.8164110183716,15.8173999786377,15.8183879852295,15.8193759918213,15.8203649520874,15.8213539123535,15.8223428726196,15.8233318328857,15.8243207931519,15.825309753418,15.8262996673584,15.8272895812988,15.8282785415649,15.8292684555054,15.8302583694458,15.8312482833862,15.832239151001,15.8332290649414,15.8342189788818,15.8352098464966,15.8362007141113,15.8371915817261,15.8381824493408,15.8391733169556,15.8401641845703,15.8411560058594,15.8421468734741,15.8431386947632,15.8441295623779,15.8451223373413,15.8461132049561,15.8471059799194,15.8480978012085,15.8490896224976,15.8500823974609,15.8510751724243,15.8520669937134,15.8530607223511,15.8540534973145,15.8550462722778,15.8560390472412,15.8570327758789,15.8580255508423,15.85901927948,15.8600130081177,15.8610067367554,15.8620004653931,15.8629941940308,15.8639888763428,15.8649826049805,15.8659772872925,15.8669719696045,15.8679666519165,15.8689613342285,15.8699560165405,15.8709516525269,15.8719463348389,15.8729410171509,15.8739366531372,15.8749322891235,15.8759279251099,15.8769235610962,15.8779191970825,15.8789157867432,15.8799114227295,15.8809080123901,15.8819046020508,15.8829002380371,15.8838977813721,15.8848943710327,15.8858909606934,15.886887550354,15.887885093689,15.8888826370239,15.8898792266846,15.8908767700195,15.8918743133545,15.8928728103638,15.8938703536987,15.8948678970337,15.895866394043,15.8968648910522,15.8978624343872,15.8988618850708,15.8998603820801,15.9008588790894,15.9018573760986,15.9028568267822,15.9038562774658,15.9048547744751,15.9058542251587,15.9068536758423,15.9078531265259,15.9088535308838,15.9098529815674,15.9108533859253,15.9118537902832,15.9128532409668,15.9138536453247,15.9148540496826,15.9158554077148,15.9168558120728,15.917857170105,15.9188575744629,15.9198589324951,15.9208602905273,15.9218616485596,15.9228630065918,15.923864364624,15.9248666763306,15.9258680343628,15.9268703460693,15.9278726577759,15.9288749694824,15.929877281189,15.9308795928955,15.9318819046021,15.9328851699829,15.9338884353638,15.9348907470703,15.9358940124512,15.936897277832,15.9379005432129,15.9389038085938,15.9399080276489,15.9409112930298,15.941915512085,15.9429197311401,15.9439239501953,15.9449281692505,15.9459323883057,15.9469366073608,15.9479417800903,15.9489469528198,15.949951171875,15.9509563446045,15.951961517334,15.9529666900635,15.953971862793,15.9549779891968,15.9559831619263,15.9569892883301,15.9579954147339,15.9590015411377,15.9600076675415,15.9610137939453,15.9620199203491,15.9630270004272,15.9640331268311,15.9650402069092,15.9660472869873,15.9670543670654,15.9680614471436,15.969069480896,15.9700765609741,15.9710836410522,15.9720916748047,15.9730997085571,15.9741077423096,15.975115776062,15.9761238098145,14.6041641235352,14.5492010116577,14.494649887085,14.4405069351196,14.3867664337158,14.333423614502,14.2804746627808,14.227915763855,14.175742149353,14.1239490509033,14.0725336074829,14.0214910507202,13.970817565918,13.921459197998,13.8817987442017,13.8423643112183,13.8031530380249,13.7641630172729,13.7253932952881,13.6868410110474,13.6485042572021,13.6103820800781,13.5724725723267,13.5427093505859,13.5460033416748,13.5136489868164,13.4764528274536,13.4394359588623,13.4026126861572,13.3659906387329,13.329568862915,13.2933444976807,13.2573165893555,13.2214832305908,13.1858434677124,13.1503953933716,13.1151371002197,13.0800676345825,13.0451850891113,13.0104875564575,12.9759750366211,12.9416446685791,12.9074954986572,12.8735256195068,12.8397350311279,12.8061208724976,12.7726821899414,12.7394180297852,12.7063274383545,12.6734075546265,12.6406583786011,12.6080780029297,12.575665473938,12.5434188842773,12.5113372802734,12.4794206619263,12.4476890563965,12.4161176681519,12.3847055435181
15.5112886428833,15.5122385025024,15.5131893157959,15.5141401290894,15.5150909423828,15.5160417556763,15.516993522644,15.5179443359375,15.5188961029053,15.5198469161987,15.5207986831665,15.5217504501343,15.5227022171021,15.5236539840698,15.5246057510376,15.5255584716797,15.5265102386475,15.5274629592896,15.5284156799316,15.5293684005737,15.5303211212158,15.5312738418579,15.5322265625,15.5331802368164,15.5341329574585,15.5350866317749,15.5360403060913,15.5369939804077,15.5379467010498,15.5389013290405,15.5398550033569,15.5408086776733,15.5417633056641,15.5427169799805,15.5436716079712,15.5446262359619,15.5455808639526,15.5465354919434,15.5474901199341,15.5484457015991,15.5494003295898,15.5503559112549,15.5513105392456,15.5522661209106,15.5532217025757,15.5541772842407,15.5551338195801,15.5560894012451,15.5570449829102,15.5580015182495,15.5589580535889,15.5599136352539,15.5608701705933,15.5618267059326,15.5627841949463,15.5637407302856,15.564697265625,15.5656547546387,15.5666122436523,15.5675687789917,15.5685262680054,15.569483757019,15.570442199707,15.5713996887207,15.5723571777344,15.5733156204224,15.5742740631104,15.575231552124,15.576189994812,15.5771493911743,15.5781078338623,15.5790662765503,15.5800247192383,15.5809841156006,15.5819435119629,15.5829019546509,15.5838613510132,15.5848207473755,15.5857810974121,15.5867404937744,15.5876998901367,15.5886602401733,15.5896196365356,15.5905799865723,15.5915403366089,15.5925006866455,15.5934610366821,15.5944223403931,15.5953826904297,15.5963430404663,15.5973043441772,15.5982656478882,15.5992269515991,15.6001882553101,15.601149559021,15.6021108627319,15.6030731201172,15.6040344238281,15.6049966812134,15.6059589385986,15.6069202423096,15.6078834533691,15.6088457107544,15.6098079681396,15.6107702255249,15.6117334365845,15.6126956939697,15.6136589050293,15.6146221160889,15.6155853271484,15.616548538208,15.6175127029419,15.6184759140015,15.619439125061,15.6204032897949,15.6213674545288,15.6223316192627,15.6232957839966,15.6242599487305,15.6252241134644,15.6261882781982,15.6271533966064,15.6281185150146,15.6290826797485,15.6300477981567,15.6310138702393,15.6319789886475,15.6329441070557,15.6339092254639,15.6348752975464,15.6358404159546,15.6368064880371,15.6377725601196,15.6387386322021,15.6397047042847,15.6406717300415,15.641637802124,15.6426048278809,15.6435708999634,15.6445379257202,15.6455049514771,15.6464719772339,15.6474390029907,15.6484060287476,15.6493740081787,15.6503410339355,15.6513090133667,15.6522760391235,15.6532440185547,15.6542129516602,15.655179977417,15.6561489105225,15.6571168899536,15.6580858230591,15.6590538024902,15.6600227355957,15.6609916687012,15.6619606018066,15.6629295349121,15.6638984680176,15.6648683547974,15.6658382415771,15.6668071746826,15.6677770614624,15.6687469482422,15.669716835022,15.6706867218018,15.6716575622559,15.6726274490356,15.6735973358154,15.6745681762695,15.6755390167236,15.6765098571777,15.6774806976318,15.6784515380859,15.67942237854,15.6803941726685,15.6813650131226,15.682336807251,15.6833086013794,15.6842794418335,15.6852521896362,15.6862239837646,15.6871957778931,15.6881675720215,15.6891403198242,15.690113067627,15.6910848617554,15.6920576095581,15.6930313110352,15.6940040588379,15.6949768066406,15.6959495544434,15.6969232559204,15.6978969573975,15.6988697052002,15.6998434066772,15.7008180618286,15.7017917633057,15.7027654647827,15.7037391662598,15.7047138214111,15.7056884765625,15.7066621780396,15.7076368331909,15.7086124420166,15.709587097168,15.7105617523193,15.711537361145,15.7125120162964,15.7134876251221,15.7144632339478,15.7154388427734,15.7164144515991,15.7173900604248,15.7183666229248,15.7193422317505,15.7203187942505,15.7212944030762,15.7222709655762,15.7232475280762,15.7242240905762,15.7252016067505,15.7261781692505,15.7271556854248,15.7281322479248,15.7291097640991,15.7300872802734,15.7310647964478,15.7320423126221,15.7330198287964,15.733998298645,15.7349758148193,15.735954284668,15.7369318008423,15.7379102706909,15.7388887405396,15.7398681640625,15.7408466339111,15.7418251037598,15.7428045272827,15.7437839508057,15.7447624206543,15.7457418441772,15.7467212677002,15.7477016448975,15.7486810684204,15.7496604919434,15.7506408691406,15.7516202926636,15.7526006698608,15.7535810470581,15.7545614242554,15.755542755127,15.7565231323242,15.7575044631958,15.7584848403931,15.7594661712646,15.7604465484619,15.7614278793335,15.7624101638794,15.763391494751,15.7643737792969,15.7653551101685,15.76633644104,15.7673187255859,15.7683010101318,15.7692832946777,15.7702655792236,15.7712478637695,15.7722311019897,15.7732133865356,15.7741966247559,15.7751798629761,15.776162147522,15.7771453857422,15.7781295776367,15.7791128158569,15.7800970077515,15.7810802459717,15.7820634841919,15.7830476760864,15.784031867981,15.7850160598755,15.78600025177,15.7869853973389,15.7879695892334,15.7889547348022,15.7899398803711,15.7909250259399,15.7919092178345,15.7928943634033,15.7938795089722,15.7948656082153,15.7958517074585,15.7968368530273,15.7978229522705,15.7988090515137,15.7997951507568,15.80078125,15.8017673492432,15.8027534484863,15.8037405014038,15.8047275543213,15.8057136535645,15.8067007064819,15.8076877593994,15.8086748123169,15.8096618652344,15.8106498718262,15.811637878418,15.8126249313354,15.8136129379272,15.814600944519,15.8155889511108,15.8165769577026,15.8175649642944,15.8185539245605,15.8195428848267,15.8205308914185,15.8215198516846,15.8225088119507,15.8234977722168,15.8244867324829,15.8254766464233,15.8264656066895,15.8274555206299,15.8284454345703,15.8294343948364,15.8304243087769,15.8314142227173,15.832405090332,15.8333950042725,15.8343858718872,15.8353757858276,15.8363666534424,15.8373575210571,15.8383483886719,14.4745216369629,14.4205284118652,14.3669366836548,14.3137407302856,14.2609386444092,14.2085237503052,14.1564931869507,14.1048421859741,14.0535650253296,14.0026597976685,13.9521226882935,13.9019479751587,13.8521337509155,13.8031444549561,13.7641553878784,13.7253847122192,13.6868324279785,13.6484966278076,13.6103744506836,13.5724649429321,13.5440607070923,13.5473556518555,13.5136480331421,13.4764499664307,13.4394292831421,13.402606010437,13.365984916687,13.3295621871948,13.2933378219604,13.2573108673096,13.2214775085449,13.1858377456665,13.1503896713257,13.1151313781738,13.0800609588623,13.0451784133911,13.0104818344116,12.9759693145752,12.9416389465332,12.9074897766113,12.8735198974609,12.839729309082,12.8061151504517,12.7726764678955,12.7394123077393,12.7063207626343,12.6734018325806,12.6406526565552,12.6080722808838,12.5756597518921,12.5434131622314,12.5113315582275,12.4794130325317,12.447678565979,12.4161071777344,12.3846960067749
15.3785781860352,15.3795118331909,15.380446434021,15.3813810348511,15.3823156356812,15.3832502365112,15.3841857910156,15.3851203918457,15.3860559463501,15.3869905471802,15.3879261016846,15.388861656189,15.3897972106934,15.3907327651978,15.3916683197021,15.3926048278809,15.3935403823853,15.394476890564,15.3954133987427,15.3963489532471,15.3972854614258,15.3982229232788,15.3991594314575,15.4000959396362,15.4010334014893,15.401969909668,15.402907371521,15.403844833374,15.4047822952271,15.4057188034058,15.4066572189331,15.4075946807861,15.4085321426392,15.4094705581665,15.4104089736938,15.4113464355469,15.4122848510742,15.4132232666016,15.4141626358032,15.4151010513306,15.4160394668579,15.4169788360596,15.4179172515869,15.4188566207886,15.4197959899902,15.4207353591919,15.4216747283936,15.4226140975952,15.4235544204712,15.4244937896729,15.4254341125488,15.4263734817505,15.4273138046265,15.4282541275024,15.4291944503784,15.4301347732544,15.4310760498047,15.4320163726807,15.432957649231,15.4338979721069,15.4348392486572,15.4357805252075,15.4367218017578,15.4376630783081,15.4386043548584,15.4395456314087,15.4404878616333,15.4414300918579,15.4423713684082,15.4433135986328,15.4442558288574,15.445198059082,15.4461402893066,15.4470834732056,15.4480257034302,15.4489688873291,15.449912071228,15.4508543014526,15.4517974853516,15.4527416229248,15.4536848068237,15.4546279907227,15.4555711746216,15.4565153121948,15.4574584960938,15.458402633667,15.4593467712402,15.4602909088135,15.4612350463867,15.4621801376343,15.4631242752075,15.4640684127808,15.4650135040283,15.4659585952759,15.4669036865234,15.467848777771,15.4687938690186,15.4697389602661,15.470685005188,15.4716300964355,15.4725751876831,15.473521232605,15.4744672775269,15.4754133224487,15.4763593673706,15.4773054122925,15.4782524108887,15.4791984558105,15.4801454544067,15.4810914993286,15.4820384979248,15.482985496521,15.4839324951172,15.4848804473877,15.4858274459839,15.4867744445801,15.4877223968506,15.4886693954468,15.4896173477173,15.4905652999878,15.4915132522583,15.4924612045288,15.4934101104736,15.4943580627441,15.495306968689,15.4962549209595,15.4972038269043,15.4981527328491,15.4991016387939,15.5000505447388,15.5009994506836,15.5019483566284,15.5028982162476,15.5038480758667,15.5047979354858,15.5057468414307,15.5066967010498,15.5076465606689,15.5085973739624,15.5095472335815,15.5104970932007,15.5114479064941,15.5123987197876,15.5133495330811,15.5143003463745,15.515251159668,15.5162019729614,15.5171527862549,15.5181045532227,15.5190553665161,15.5200071334839,15.5209589004517,15.5219106674194,15.5228624343872,15.523814201355,15.5247659683228,15.5257186889648,15.5266704559326,15.5276231765747,15.5285758972168,15.5295286178589,15.530481338501,15.5314340591431,15.5323867797852,15.5333395004272,15.5342931747437,15.5352468490601,15.5362005233765,15.5371532440186,15.538106918335,15.5390615463257,15.5400152206421,15.5409688949585,15.5419235229492,15.5428771972656,15.5438318252563,15.5447864532471,15.5457410812378,15.5466957092285,15.5476503372192,15.5486059188843,15.549560546875,15.55051612854,15.5514717102051,15.5524263381958,15.5533819198608,15.5543375015259,15.5552940368652,15.5562496185303,15.5572061538696,15.5581617355347,15.559118270874,15.5600748062134,15.5610313415527,15.5619878768921,15.5629444122314,15.5639009475708,15.5648584365845,15.5658149719238,15.5667724609375,15.5677299499512,15.5686874389648,15.5696449279785,15.5706024169922,15.5715608596802,15.5725183486938,15.5734767913818,15.5744342803955,15.5753927230835,15.5763511657715,15.5773096084595,15.5782680511475,15.5792274475098,15.5801858901978,15.5811452865601,15.582103729248,15.5830631256104,15.5840225219727,15.584981918335,15.5859413146973,15.5869016647339,15.5878610610962,15.5888214111328,15.5897808074951,15.5907411575317,15.5917015075684,15.592661857605,15.5936222076416,15.5945835113525,15.5955438613892,15.5965051651001,15.5974655151367,15.5984268188477,15.5993881225586,15.6003494262695,15.6013107299805,15.6022729873657,15.6032342910767,15.6041965484619,15.6051578521729,15.6061201095581,15.6070823669434,15.6080446243286,15.6090068817139,15.6099691390991,15.6109323501587,15.6118955612183,15.6128578186035,15.6138210296631,15.6147842407227,15.6157474517822,15.6167106628418,15.6176738739014,15.6186380386353,15.6196012496948,15.6205654144287,15.6215295791626,15.6224927902222,15.6234579086304,15.6244220733643,15.6253862380981,15.626350402832,15.6273155212402,15.6282806396484,15.6292457580566,15.6302099227905,15.6311750411987,15.6321411132812,15.6331062316895,15.6340713500977,15.6350374221802,15.6360034942627,15.6369686126709,15.6379346847534,15.6389007568359,15.6398668289185,15.640832901001,15.6417999267578,15.6427669525146,15.6437330245972,15.644700050354,15.6456670761108,15.6466341018677,15.6476011276245,15.6485681533813,15.6495361328125,15.6505031585693,15.6514711380005,15.6524391174316,15.6534070968628,15.6543750762939,15.6553430557251,15.6563110351562,15.6572799682617,15.6582479476929,15.6592168807983,15.6601858139038,15.6611547470093,15.6621236801147,15.6630926132202,15.6640615463257,15.6650314331055,15.6660003662109,15.6669702529907,15.6679401397705,15.6689100265503,15.6698799133301,15.6708498001099,15.6718196868896,15.6727895736694,15.6737604141235,15.6747312545776,15.6757020950317,15.6766729354858,15.6776437759399,15.678614616394,15.6795854568481,15.6805572509766,15.6815280914307,15.6824998855591,15.6834716796875,15.6844434738159,15.6854152679443,15.6863870620728,15.6873588562012,15.6883306503296,15.6893033981323,15.6902761459351,15.6912488937378,15.6922216415405,15.6931943893433,15.694167137146,15.6951398849487,15.6961135864258,15.6970863342285,15.6980600357056,15.6990337371826,15.7000074386597,15.7009811401367,15.7019548416138,15.7029294967651,14.3471612930298,14.2941122055054,14.2414541244507,14.1891822814941,14.1372928619385,14.0857810974121,14.0346441268921,13.9838762283325,13.9334754943848,13.8834352493286,13.8337545394897,13.7844266891479,13.7354488372803,13.6868238449097,13.6484880447388,13.6103658676147,13.5724563598633,13.5454130172729,13.5487079620361,13.5520057678223,13.4764471054077,13.4394226074219,13.4026002883911,13.3659782409668,13.3295564651489,13.2933320999146,13.2573041915894,13.2214708328247,13.1858310699463,13.1503829956055,13.1151247024536,13.0800552368164,13.0451726913452,13.0104761123657,12.975962638855,12.9416332244873,12.9074840545654,12.873514175415,12.8397235870361,12.8061094284058,12.7726707458496,12.7394065856934,12.7063150405884,12.6733951568604,12.640645980835,12.6080665588379,12.5756530761719,12.5434064865112,12.5113248825073,12.4794073104858,12.4476690292358,12.4160976409912,12.3846864700317
15.2481184005737,15.2490377426147,15.2499561309814,15.2508745193481,15.2517938613892,15.2527122497559,15.2536315917969,15.2545509338379,15.2554702758789,15.2563896179199,15.2573089599609,15.2582292556763,15.2591485977173,15.2600679397583,15.2609882354736,15.261908531189,15.2628288269043,15.2637491226196,15.264669418335,15.2655897140503,15.2665109634399,15.2674312591553,15.2683525085449,15.2692728042603,15.2701940536499,15.2711153030396,15.2720365524292,15.2729578018188,15.2738800048828,15.2748012542725,15.2757234573364,15.2766447067261,15.27756690979,15.278489112854,15.279411315918,15.2803335189819,15.2812557220459,15.2821788787842,15.2831010818481,15.2840242385864,15.2849473953247,15.2858695983887,15.286792755127,15.2877159118652,15.2886390686035,15.2895631790161,15.2904863357544,15.291410446167,15.2923345565796,15.2932577133179,15.2941818237305,15.2951059341431,15.2960300445557,15.2969541549683,15.2978792190552,15.2988033294678,15.2997283935547,15.3006525039673,15.3015775680542,15.3025026321411,15.303427696228,15.3043527603149,15.3052787780762,15.3062038421631,15.3071298599243,15.3080549240112,15.3089809417725,15.3099069595337,15.3108329772949,15.3117589950562,15.3126850128174,15.3136110305786,15.3145380020142,15.3154640197754,15.3163909912109,15.3173179626465,15.318244934082,15.3191719055176,15.3200988769531,15.3210258483887,15.3219537734985,15.3228807449341,15.3238086700439,15.3247356414795,15.3256635665894,15.3265914916992,15.3275194168091,15.3284482955933,15.3293762207031,15.3303050994873,15.3312330245972,15.3321619033813,15.3330898284912,15.3340187072754,15.3349485397339,15.3358764648438,15.3368062973022,15.3377351760864,15.3386650085449,15.3395938873291,15.3405237197876,15.3414535522461,15.3423833847046,15.3433132171631,15.3442430496216,15.3451738357544,15.3461036682129,15.3470344543457,15.3479642868042,15.348895072937,15.3498258590698,15.3507566452026,15.3516883850098,15.3526191711426,15.3535499572754,15.3544816970825,15.3554124832153,15.3563442230225,15.3572759628296,15.3582077026367,15.3591394424438,15.360071182251,15.3610038757324,15.3619356155396,15.362868309021,15.3638000488281,15.3647327423096,15.365665435791,15.3665990829468,15.3675317764282,15.3684644699097,15.3693971633911,15.3703308105469,15.3712644577026,15.3721971511841,15.3731307983398,15.3740644454956,15.3749980926514,15.3759317398071,15.3768663406372,15.377799987793,15.378734588623,15.3796691894531,15.3806037902832,15.3815383911133,15.3824729919434,15.3834075927734,15.3843421936035,15.3852777481079,15.386212348938,15.3871479034424,15.3880825042725,15.3890190124512,15.3899545669556,15.39089012146,15.3918256759644,15.3927621841431,15.3936977386475,15.3946342468262,15.3955698013306,15.3965063095093,15.3974437713623,15.3983793258667,15.3993167877197,15.4002532958984,15.4011898040771,15.4021272659302,15.4030647277832,15.4040021896362,15.4049396514893,15.4058771133423,15.4068145751953,15.4077520370483,15.4086894989014,15.4096279144287,15.4105663299561,15.4115047454834,15.4124431610107,15.4133815765381,15.4143199920654,15.4152584075928,15.4161968231201,15.4171361923218,15.4180746078491,15.4190139770508,15.4199533462524,15.4208927154541,15.4218320846558,15.4227714538574,15.4237117767334,15.4246511459351,15.425591468811,15.426531791687,15.4274711608887,15.4284114837646,15.4293527603149,15.4302930831909,15.4312334060669,15.4321737289429,15.4331150054932,15.4340562820435,15.4349966049194,15.435938835144,15.43687915802,15.4378213882446,15.4387626647949,15.4397039413452,15.4406461715698,15.4415884017944,15.4425296783447,15.4434719085693,15.4444141387939,15.4453563690186,15.4462985992432,15.4472417831421,15.4481840133667,15.4491271972656,15.4500703811646,15.4510126113892,15.4519557952881,15.452898979187,15.4538431167603,15.4547863006592,15.4557304382324,15.4566736221313,15.4576177597046,15.4585618972778,15.4595050811768,15.46044921875,15.4613933563232,15.4623384475708,15.463282585144,15.4642276763916,15.4651727676392,15.4661169052124,15.46706199646,15.4680070877075,15.4689521789551,15.469898223877,15.4708433151245,15.4717893600464,15.4727344512939,15.4736804962158,15.4746265411377,15.4755725860596,15.4765186309814,15.4774646759033,15.4784107208252,15.4793577194214,15.4803037643433,15.4812507629395,15.4821977615356,15.4831447601318,15.484091758728,15.4850387573242,15.4859867095947,15.4869337081909,15.4878816604614,15.4888286590576,15.4897766113281,15.4907245635986,15.4916725158691,15.4926204681396,15.4935693740845,15.494517326355,15.4954652786255,15.4964141845703,15.4973630905151,15.49831199646,15.4992609024048,15.5002098083496,15.5011587142944,15.5021085739136,15.5030574798584,15.5040073394775,15.5049571990967,15.5059070587158,15.5068559646606,15.5078067779541,15.5087566375732,15.5097064971924,15.5106573104858,15.511607170105,15.5125579833984,15.5135087966919,15.5144596099854,15.5154104232788,15.5163612365723,15.51731300354,15.5182638168335,15.5192155838013,15.5201663970947,15.5211181640625,15.5220699310303,15.523021697998,15.5239734649658,15.5249261856079,15.5258779525757,15.5268306732178,15.5277824401855,15.528736114502,15.5296878814697,15.5306406021118,15.5315942764282,15.5325469970703,15.5334997177124,15.5344533920288,15.5354061126709,15.5363597869873,15.5373134613037,15.5382671356201,15.5392208099365,15.5401754379272,15.5411291122437,15.5420827865601,15.5430374145508,15.5439920425415,15.5449466705322,15.5459012985229,15.5468559265137,15.5478105545044,15.5487661361694,15.5497217178345,15.5506763458252,15.5516319274902,15.552586555481,15.553542137146,15.5544986724854,15.5554542541504,15.5564098358154,15.5573663711548,15.5583219528198,15.5592784881592,15.5602350234985,15.5611915588379,15.5621480941772,15.5631055831909,15.5640621185303,15.5650196075439,15.5659761428833,15.566933631897,15.5678911209106,15.56884765625,15.569806098938,14.2220230102539,14.1698932647705,14.1181440353394,14.0667724609375,14.015772819519,13.9651412963867,13.9148750305176,13.8649682998657,13.8154191970825,13.7662220001221,13.7173748016357,13.668872833252,13.6207132339478,13.5728902816772,13.5467653274536,13.5500612258911,13.5533599853516,13.4764423370361,13.439416885376,13.4025936126709,13.3659725189209,13.3295497894287,13.2933254241943,13.2572984695435,13.2214651107788,13.1858253479004,13.1503772735596,13.1151189804077,13.0800495147705,13.0451669692993,13.0104703903198,12.9759569168091,12.9416265487671,12.9074773788452,12.8735084533691,12.8397178649902,12.8061037063599,12.7726650238037,12.7394008636475,12.7063093185425,12.6733894348145,12.6406402587891,12.6080598831177,12.575647354126,12.5434007644653,12.5113191604614,12.4794015884399,12.4476585388184,12.416088104248,12.3846759796143
15.119854927063,15.1207580566406,15.1216611862183,15.1225643157959,15.1234674453735,15.1243715286255,15.1252756118774,15.1261787414551,15.127082824707,15.127986907959,15.1288909912109,15.1297950744629,15.1306991577148,15.1316041946411,15.1325082778931,15.1334133148193,15.1343183517456,15.1352224349976,15.1361284255981,15.1370334625244,15.1379384994507,15.138843536377,15.1397485733032,15.1406545639038,15.1415596008301,15.1424655914307,15.1433715820312,15.1442775726318,15.1451835632324,15.146089553833,15.1469964981079,15.1479024887085,15.1488084793091,15.149715423584,15.1506223678589,15.1515293121338,15.1524362564087,15.1533432006836,15.1542501449585,15.1551580429077,15.1560649871826,15.1569728851318,15.1578798294067,15.158787727356,15.1596956253052,15.1606035232544,15.1615114212036,15.1624193191528,15.1633281707764,15.1642360687256,15.1651449203491,15.1660528182983,15.1669616699219,15.1678705215454,15.1687793731689,15.1696882247925,15.1705980300903,15.1715068817139,15.1724166870117,15.1733255386353,15.1742353439331,15.175145149231,15.1760549545288,15.1769647598267,15.1778745651245,15.1787843704224,15.1796951293945,15.1806049346924,15.1815156936646,15.1824264526367,15.1833372116089,15.1842479705811,15.1851587295532,15.1860694885254,15.1869802474976,15.187891960144,15.1888027191162,15.1897144317627,15.1906261444092,15.1915378570557,15.1924495697021,15.1933612823486,15.1942729949951,15.1951856613159,15.1960973739624,15.1970100402832,15.1979217529297,15.1988344192505,15.1997470855713,15.2006597518921,15.2015724182129,15.202486038208,15.2033987045288,15.2043123245239,15.2052249908447,15.2061386108398,15.207052230835,15.2079658508301,15.2088794708252,15.2097930908203,15.2107067108154,15.2116212844849,15.21253490448,15.2134494781494,15.2143640518188,15.2152786254883,15.2161931991577,15.2171077728271,15.2180223464966,15.2189378738403,15.2198524475098,15.2207679748535,15.2216825485229,15.2225980758667,15.2235136032104,15.2244291305542,15.2253446578979,15.226261138916,15.2271766662598,15.2280921936035,15.2290086746216,15.2299251556396,15.2308416366577,15.2317581176758,15.2326745986938,15.2335910797119,15.23450756073,15.2354249954224,15.2363414764404,15.2372589111328,15.2381763458252,15.2390937805176,15.24001121521,15.2409286499023,15.2418460845947,15.2427644729614,15.2436819076538,15.2446002960205,15.2455177307129,15.2464361190796,15.2473545074463,15.248272895813,15.2491912841797,15.2501106262207,15.2510290145874,15.2519474029541,15.2528667449951,15.2537860870361,15.2547054290771,15.2556247711182,15.2565441131592,15.2574634552002,15.2583827972412,15.2593030929565,15.2602224349976,15.2611427307129,15.2620630264282,15.2629833221436,15.2639036178589,15.2648239135742,15.2657442092896,15.2666654586792,15.2675857543945,15.2685070037842,15.2694282531738,15.2703485488892,15.2712707519531,15.2721920013428,15.2731132507324,15.2740345001221,15.274956703186,15.2758779525757,15.2768001556396,15.2777214050293,15.2786436080933,15.2795667648315,15.2804889678955,15.2814111709595,15.2823333740234,15.2832565307617,15.2841787338257,15.285101890564,15.2860250473022,15.2869482040405,15.2878713607788,15.2887945175171,15.2897176742554,15.290641784668,15.2915649414062,15.2924890518188,15.2934131622314,15.294337272644,15.2952613830566,15.2961854934692,15.2971096038818,15.2980337142944,15.2989587783813,15.2998828887939,15.3008079528809,15.3017330169678,15.3026580810547,15.3035831451416,15.3045082092285,15.3054342269897,15.3063592910767,15.3072843551636,15.3082103729248,15.309136390686,15.3100624084473,15.3109884262085,15.3119144439697,15.312840461731,15.3137664794922,15.3146934509277,15.3156204223633,15.3165464401245,15.3174734115601,15.3184003829956,15.3193273544312,15.3202543258667,15.3211812973022,15.3221092224121,15.3230361938477,15.3239641189575,15.3248920440674,15.3258199691772,15.3267478942871,15.327675819397,15.3286037445068,15.329532623291,15.3304605484009,15.3313894271851,15.3323173522949,15.3332462310791,15.3341751098633,15.3351039886475,15.3360328674316,15.3369626998901,15.3378915786743,15.3388204574585,15.339750289917,15.3406801223755,15.341609954834,15.3425397872925,15.343469619751,15.3443994522095,15.3453302383423,15.3462600708008,15.3471908569336,15.3481206893921,15.3490514755249,15.3499822616577,15.3509130477905,15.3518447875977,15.3527755737305,15.3537063598633,15.3546380996704,15.3555688858032,15.3565006256104,15.3574323654175,15.3583641052246,15.3592958450317,15.3602285385132,15.3611602783203,15.3620920181274,15.3630247116089,15.363956451416,15.3648891448975,15.3658227920532,15.3667554855347,15.3676881790161,15.3686208724976,15.369553565979,15.3704872131348,15.3714208602905,15.372353553772,15.3732872009277,15.3742218017578,15.3751554489136,15.3760890960693,15.3770227432251,15.3779573440552,15.3788919448853,15.379825592041,15.3807601928711,15.3816947937012,15.3826293945312,15.3835639953613,15.3844995498657,15.3854341506958,15.3863697052002,15.3873043060303,15.3882398605347,15.3891763687134,15.3901109695435,15.3910474777222,15.3919830322266,15.392918586731,15.3938550949097,15.3947916030884,15.3957271575928,15.3966636657715,15.3976001739502,15.3985366821289,15.3994731903076,15.4004106521606,15.4013471603394,15.4022846221924,15.4032220840454,15.4041595458984,15.4050970077515,15.4060344696045,15.4069719314575,15.4079093933105,15.4088478088379,15.4097852706909,15.4107236862183,15.4116621017456,15.4126005172729,15.4135389328003,15.4144773483276,15.415415763855,15.4163551330566,15.417293548584,15.4182329177856,15.4191722869873,15.420111656189,15.4210500717163,15.4219903945923,15.4229297637939,15.4238691329956,15.4248094558716,15.4257488250732,15.4266891479492,15.4276294708252,15.4285697937012,15.4295101165771,15.4304504394531,15.4313907623291,15.4323320388794,15.4332723617554,15.4342136383057,15.435154914856,15.4360961914062,15.4370374679565,15.4379787445068,15.4389200210571,14.0990476608276,14.0478143692017,13.9969520568848,13.9464559555054,13.8963232040405,13.846549987793,13.7971324920654,13.7480659484863,13.6993465423584,13.6509714126587,13.6029376983643,13.5552396774292,13.5514144897461,13.5547132492065,13.4764356613159,13.4394102096558,13.402587890625,13.3659658432007,13.3295440673828,13.2933197021484,13.2572917938232,13.2214593887329,13.1858196258545,13.1503715515137,13.1151132583618,13.0800437927246,13.0451612472534,13.0104637145996,12.9759511947632,12.9416208267212,12.9074716567993,12.8735027313232,12.8397121429443,12.806097984314,12.7726593017578,12.7393951416016,12.7063035964966,12.6733837127686,12.6406345367432,12.6080541610718,12.5756416320801,12.5433950424194,12.5113134384155,12.4793949127197,12.4476490020752,12.4160776138306,12.3846664428711
14.9937305450439,14.9946184158325,14.9955062866211,14.996395111084,14.9972839355469,14.9981718063354,14.9990606307983,14.9999494552612,15.0008382797241,15.001727104187,15.0026159286499,15.0035057067871,15.0043954849243,15.0052843093872,15.0061740875244,15.0070629119873,15.0079536437988,15.008843421936,15.0097332000732,15.0106229782104,15.011513710022,15.0124034881592,15.0132942199707,15.0141839981079,15.0150747299194,15.015965461731,15.0168561935425,15.017746925354,15.0186386108398,15.0195293426514,15.0204210281372,15.0213117599487,15.0222034454346,15.0230951309204,15.0239858627319,15.0248785018921,15.0257701873779,15.0266618728638,15.0275545120239,15.0284461975098,15.0293378829956,15.0302305221558,15.0311231613159,15.0320158004761,15.0329084396362,15.0338010787964,15.0346937179565,15.035587310791,15.0364799499512,15.0373735427856,15.0382661819458,15.0391607284546,15.0400533676147,15.0409479141235,15.041841506958,15.0427350997925,15.043628692627,15.0445232391357,15.0454168319702,15.046311378479,15.0472059249878,15.0481004714966,15.0489950180054,15.0498895645142,15.0507841110229,15.0516796112061,15.0525741577148,15.0534696578979,15.0543651580811,15.0552606582642,15.0561561584473,15.0570507049561,15.0579471588135,15.0588426589966,15.0597381591797,15.0606346130371,15.0615310668945,15.0624265670776,15.0633230209351,15.0642194747925,15.0651159286499,15.0660133361816,15.0669088363647,15.0678062438965,15.0687026977539,15.0696001052856,15.0704975128174,15.0713949203491,15.0722923278809,15.0731897354126,15.0740871429443,15.0749845504761,15.0758829116821,15.0767803192139,15.0776786804199,15.078577041626,15.0794744491577,15.0803737640381,15.0812721252441,15.0821704864502,15.0830688476562,15.0839672088623,15.0848665237427,15.085765838623,15.0866641998291,15.0875635147095,15.0884628295898,15.0893621444702,15.0902614593506,15.0911617279053,15.0920610427856,15.0929613113403,15.0938606262207,15.0947608947754,15.0956611633301,15.0965614318848,15.0974617004395,15.0983619689941,15.0992631912231,15.1001634597778,15.1010646820068,15.1019649505615,15.1028661727905,15.1037673950195,15.1046686172485,15.1055698394775,15.1064710617065,15.1073732376099,15.1082744598389,15.1091766357422,15.1100778579712,15.1109800338745,15.1118822097778,15.1127843856812,15.1136865615845,15.1145896911621,15.1154918670654,15.1163949966431,15.1172971725464,15.118200302124,15.1191034317017,15.1200065612793,15.1209096908569,15.1218128204346,15.1227159500122,15.1236200332642,15.1245231628418,15.1254272460938,15.1263303756714,15.1272344589233,15.1281385421753,15.1290426254272,15.1299467086792,15.1308517456055,15.1317558288574,15.1326608657837,15.1335649490356,15.1344699859619,15.1353750228882,15.1362800598145,15.1371850967407,15.138090133667,15.1389951705933,15.1399011611938,15.1408061981201,15.1417121887207,15.1426181793213,15.1435232162476,15.1444292068481,15.145336151123,15.1462421417236,15.1471481323242,15.1480541229248,15.1489610671997,15.1498680114746,15.1507749557495,15.1516819000244,15.1525888442993,15.1534957885742,15.1544027328491,15.1553106307983,15.1562175750732,15.1571245193481,15.1580324172974,15.1589403152466,15.1598482131958,15.160756111145,15.1616640090942,15.1625719070435,15.163480758667,15.1643886566162,15.1652975082397,15.1662063598633,15.1671152114868,15.168023109436,15.1689319610596,15.1698417663574,15.170750617981,15.1716594696045,15.1725692749023,15.1734781265259,15.1743879318237,15.1752977371216,15.1762075424194,15.1771173477173,15.1780271530151,15.178936958313,15.1798477172852,15.1807584762573,15.1816682815552,15.1825790405273,15.1834897994995,15.1844005584717,15.1853113174438,15.186222076416,15.1871337890625,15.1880445480347,15.1889562606812,15.1898670196533,15.1907787322998,15.1916904449463,15.1926021575928,15.1935138702393,15.1944265365601,15.1953382492065,15.1962509155273,15.1971626281738,15.1980752944946,15.1989879608154,15.1999006271362,15.200813293457,15.2017259597778,15.2026386260986,15.2035522460938,15.2044649124146,15.2053785324097,15.2062921524048,15.2072048187256,15.2081184387207,15.2090330123901,15.2099466323853,15.2108602523804,15.2117748260498,15.2126884460449,15.2136030197144,15.2145175933838,15.2154321670532,15.2163457870483,15.2172613143921,15.2181758880615,15.219090461731,15.2200059890747,15.2209215164185,15.2218360900879,15.2227516174316,15.2236671447754,15.2245826721191,15.2254991531372,15.226414680481,15.2273302078247,15.2282466888428,15.2291622161865,15.2300786972046,15.2309951782227,15.2319116592407,15.2328281402588,15.2337446212769,15.2346611022949,15.2355785369873,15.2364959716797,15.2374124526978,15.2383298873901,15.2392473220825,15.2401647567749,15.2410821914673,15.2419996261597,15.2429180145264,15.2438364028931,15.2447538375854,15.2456722259521,15.2465896606445,15.2475080490112,15.2484273910522,15.2493457794189,15.2502641677856,15.2511835098267,15.2521018981934,15.2530212402344,15.2539405822754,15.2548599243164,15.2557783126831,15.2566986083984,15.2576179504395,15.2585372924805,15.2594575881958,15.2603769302368,15.2612972259521,15.2622175216675,15.2631378173828,15.2640581130981,15.2649784088135,15.2658987045288,15.2668199539185,15.2677402496338,15.2686614990234,15.2695827484131,15.2705039978027,15.2714252471924,15.272346496582,15.2732677459717,15.2741889953613,15.2751111984253,15.2760324478149,15.2769546508789,15.2778759002686,15.2787981033325,15.2797212600708,15.2806434631348,15.2815656661987,15.282488822937,15.283411026001,15.2843341827393,15.2852573394775,15.2861795425415,15.2871026992798,15.2880268096924,15.2889499664307,15.2898731231689,15.2907962799072,15.2917203903198,15.2926445007324,15.2935676574707,15.2944917678833,15.2954158782959,15.2963399887085,15.2972650527954,15.298189163208,15.2991142272949,15.3000383377075,15.3009634017944,15.3018884658813,15.3028135299683,15.3037385940552,15.3046636581421,15.305588722229,15.3065147399902,15.3074398040771,15.3083658218384,15.3092908859253,15.3102178573608,13.9781818389893,13.9278211593628,13.8778219223022,13.8281812667847,13.7788934707642,13.7299566268921,13.6813659667969,13.6331176757812,13.5852088928223,13.5527687072754,13.5560684204102,13.47642993927,13.4394044876099,13.4025812149048,13.3659591674805,13.3295373916626,13.2933139801025,13.2572860717773,13.2214527130127,13.1858129501343,13.1503648757935,13.1151065826416,13.0800371170044,13.0451555252075,13.0104579925537,12.9759454727173,12.9416151046753,12.9074659347534,12.8734970092773,12.8397064208984,12.8060922622681,12.7726535797119,12.7393894195557,12.7062978744507,12.6733779907227,12.6406278610229,12.6080474853516,12.5756349563599,12.5433883666992,12.5113067626953,12.4793891906738,12.4476385116577,12.4160680770874,12.3846569061279
14.8696928024292,14.870566368103,14.8714399337769,14.8723134994507,14.8731880187988,14.8740615844727,14.8749351501465,14.8758096694946,14.8766832351685,14.8775577545166,14.8784322738647,14.8793067932129,14.880181312561,14.8810567855835,14.8819313049316,14.8828058242798,14.8836812973022,14.8845567703247,14.8854312896729,14.8863067626953,14.8871822357178,14.8880577087402,14.888934135437,14.8898096084595,14.8906850814819,14.8915615081787,14.8924369812012,14.8933134078979,14.8941898345947,14.8950662612915,14.8959426879883,14.8968191146851,14.8976964950562,14.8985729217529,14.8994493484497,14.9003267288208,14.9012041091919,14.902081489563,14.9029588699341,14.9038362503052,14.9047136306763,14.9055910110474,14.9064683914185,14.9073467254639,14.908224105835,14.9091024398804,14.9099807739258,14.9108591079712,14.9117374420166,14.912615776062,14.9134941101074,14.9143733978271,14.9152517318726,14.9161310195923,14.9170093536377,14.9178886413574,14.9187679290771,14.9196472167969,14.9205265045166,14.9214057922363,14.9222860336304,14.9231653213501,14.9240455627441,14.9249248504639,14.9258050918579,14.926685333252,14.927565574646,14.92844581604,14.9293260574341,14.9302062988281,14.9310874938965,14.9319677352905,14.9328489303589,14.9337301254272,14.9346113204956,14.935492515564,14.9363737106323,14.9372549057007,14.938136100769,14.9390182495117,14.9398994445801,14.9407815933228,14.9416627883911,14.9425449371338,14.9434270858765,14.9443092346191,14.9451923370361,14.9460735321045,14.9469566345215,14.9478397369385,14.9487218856812,14.9496049880981,14.9504880905151,14.9513711929321,14.9522542953491,14.9531373977661,14.9540205001831,14.9549036026001,14.9557876586914,14.9566717147827,14.9575548171997,14.958438873291,14.9593229293823,14.9602069854736,14.9610910415649,14.9619750976562,14.9628601074219,14.9637441635132,14.9646291732788,14.9655132293701,14.9663982391357,14.9672832489014,14.968168258667,14.9690532684326,14.9699382781982,14.9708242416382,14.9717092514038,14.9725952148438,14.9734802246094,14.9743661880493,14.9752521514893,14.9761381149292,14.9770240783691,14.9779100418091,14.9787969589233,14.9796829223633,14.9805698394775,14.9814558029175,14.9823427200317,14.983229637146,14.9841165542603,14.9850034713745,14.9858903884888,14.9867782592773,14.9876651763916,14.9885520935059,14.9894399642944,14.990327835083,14.9912157058716,14.9921035766602,14.9929914474487,14.9938793182373,14.9947671890259,14.9956560134888,14.9965438842773,14.9974327087402,14.9983215332031,14.999210357666,15.0000982284546,15.0009870529175,15.0018768310547,15.0027656555176,15.0036554336548,15.0045442581177,15.0054340362549,15.0063228607178,15.007212638855,15.0081024169922,15.0089921951294,15.0098819732666,15.0107727050781,15.0116624832153,15.0125522613525,15.0134429931641,15.0143337249756,15.0152244567871,15.0161151885986,15.0170059204102,15.0178966522217,15.0187883377075,15.019679069519,15.0205698013306,15.0214614868164,15.0223531723022,15.0232448577881,15.0241355895996,15.0250272750854,15.0259199142456,15.0268115997314,15.0277032852173,15.0285959243774,15.0294876098633,15.0303802490234,15.0312728881836,15.0321655273438,15.0330581665039,15.0339517593384,15.0348443984985,15.0357370376587,15.0366296768188,15.0375232696533,15.0384168624878,15.0393104553223,15.0402040481567,15.0410976409912,15.0419912338257,15.0428848266602,15.0437793731689,15.0446729660034,15.0455675125122,15.046462059021,15.0473566055298,15.0482501983643,15.049144744873,15.0500402450562,15.0509347915649,15.0518293380737,15.0527248382568,15.0536203384399,15.0545148849487,15.0554103851318,15.0563058853149,15.057201385498,15.0580968856812,15.0589933395386,15.0598888397217,15.0607852935791,15.0616807937622,15.0625772476196,15.0634737014771,15.0643701553345,15.0652666091919,15.0661630630493,15.0670595169067,15.0679569244385,15.0688533782959,15.0697507858276,15.0706481933594,15.0715456008911,15.0724420547485,15.0733404159546,15.0742378234863,15.0751352310181,15.0760335922241,15.0769319534302,15.0778293609619,15.078727722168,15.0796251296997,15.0805244445801,15.0814228057861,15.0823211669922,15.0832195281982,15.0841188430786,15.0850172042847,15.085916519165,15.0868158340454,15.0877141952515,15.0886135101318,15.0895137786865,15.0904130935669,15.0913133621216,15.092212677002,15.0931119918823,15.094012260437,15.0949125289917,15.0958127975464,15.0967121124268,15.0976133346558,15.0985136032104,15.0994148254395,15.1003150939941,15.1012153625488,15.1021165847778,15.1030178070068,15.1039190292358,15.1048202514648,15.1057214736938,15.1066226959229,15.1075248718262,15.1084260940552,15.1093282699585,15.1102294921875,15.1111316680908,15.1120338439941,15.1129360198975,15.1138381958008,15.1147413253784,15.1156435012817,15.1165456771851,15.1174488067627,15.1183519363403,15.119255065918,15.1201581954956,15.1210613250732,15.1219644546509,15.1228675842285,15.1237716674805,15.1246747970581,15.1255788803101,15.1264820098877,15.1273860931396,15.1282901763916,15.1291942596436,15.1300983428955,15.1310033798218,15.1319074630737,15.1328125,15.1337175369263,15.1346216201782,15.1355266571045,15.1364316940308,15.137336730957,15.1382417678833,15.1391477584839,15.1400527954102,15.1409587860107,15.141863822937,15.1427698135376,15.1436758041382,15.1445817947388,15.1454877853394,15.1463937759399,15.1473007202148,15.1482067108154,15.1491136550903,15.1500205993652,15.1509265899658,15.1518335342407,15.1527404785156,15.1536474227905,15.1545543670654,15.1554622650146,15.1563692092896,15.1572771072388,15.158185005188,15.1590929031372,15.1599998474121,15.1609077453613,15.1618165969849,15.1627244949341,15.1636333465576,15.1645412445068,15.1654500961304,15.1663579940796,15.1672677993774,15.1681756973267,15.1690855026245,15.1699934005737,15.1709032058716,15.1718120574951,15.1727209091187,15.1736307144165,15.1745405197144,15.1754503250122,15.1763610839844,15.1772699356079,15.1781806945801,15.1790904998779,15.1800003051758,15.1809110641479,15.1818208694458,15.182731628418,15.1836423873901,13.8593692779541,13.8098602294922,13.760703086853,13.7118949890137,13.6634321212769,13.615309715271,13.5675258636475,13.5574226379395,13.4764232635498,13.4393978118896,13.4025745391846,13.3659534454346,13.3295316696167,13.2933073043823,13.2572793960571,13.2214469909668,13.1858072280884,13.1503591537476,13.1151008605957,13.0800313949585,13.0451488494873,13.0104522705078,12.9759397506714,12.9416093826294,12.9074602127075,12.8734912872314,12.8397006988525,12.8060865402222,12.772647857666,12.7393836975098,12.7062921524048,12.6733722686768,12.6406221389771,12.6080417633057,12.575629234314,12.5433826446533,12.5113010406494,12.4793834686279,12.4476289749146,12.4160575866699,12.3846464157104
14.7476902008057,14.7485494613647,14.7494087219238,14.7502679824829,14.7511281967163,14.7519874572754,14.7528476715088,14.7537069320679,14.7545671463013,14.7554273605347,14.7562875747681,14.7571477890015,14.7580080032349,14.7588682174683,14.759729385376,14.7605895996094,14.7614507675171,14.7623109817505,14.7631721496582,14.7640333175659,14.7648944854736,14.7657556533813,14.7666168212891,14.7674789428711,14.7683401107788,14.7692012786865,14.7700634002686,14.7709245681763,14.7717866897583,14.7726488113403,14.7735109329224,14.7743730545044,14.7752361297607,14.7760982513428,14.7769613265991,14.7778234481812,14.7786865234375,14.7795486450195,14.7804117202759,14.7812747955322,14.7821378707886,14.7830018997192,14.7838649749756,14.7847280502319,14.7855920791626,14.7864551544189,14.7873191833496,14.7881832122803,14.7890472412109,14.7899112701416,14.7907752990723,14.7916393280029,14.7925043106079,14.7933683395386,14.7942333221436,14.7950973510742,14.7959623336792,14.7968273162842,14.7976922988892,14.7985572814941,14.7994222640991,14.8002882003784,14.8011531829834,14.8020181655884,14.8028841018677,14.803750038147,14.8046159744263,14.8054819107056,14.8063478469849,14.8072137832642,14.8080797195435,14.8089456558228,14.8098125457764,14.81067943573,14.8115453720093,14.8124122619629,14.8132791519165,14.8141460418701,14.8150129318237,14.8158798217773,14.8167476654053,14.8176145553589,14.8184823989868,14.8193492889404,14.8202171325684,14.8210849761963,14.8219528198242,14.8228206634521,14.8236885070801,14.824556350708,14.8254251480103,14.8262929916382,14.8271617889404,14.8280296325684,14.8288984298706,14.8297672271729,14.8306360244751,14.8315057754517,14.8323745727539,14.8332433700562,14.8341131210327,14.834981918335,14.8358516693115,14.8367214202881,14.8375911712646,14.8384599685669,14.8393297195435,14.8402004241943,14.8410701751709,14.8419399261475,14.8428106307983,14.8436813354492,14.8445510864258,14.8454217910767,14.8462924957275,14.8471632003784,14.8480348587036,14.8489055633545,14.8497762680054,14.8506469726562,14.8515186309814,14.8523902893066,14.8532619476318,14.854133605957,14.8550043106079,14.8558769226074,14.8567485809326,14.8576202392578,14.8584928512573,14.8593645095825,14.860237121582,14.8611097335815,14.8619823455811,14.8628549575806,14.8637275695801,14.8646001815796,14.8654727935791,14.8663463592529,14.8672199249268,14.8680925369263,14.8689661026001,14.8698396682739,14.8707132339478,14.8715858459473,14.8724603652954,14.8733339309692,14.8742084503174,14.8750820159912,14.8759565353394,14.8768301010132,14.8777046203613,14.8785791397095,14.8794536590576,14.8803281784058,14.8812026977539,14.8820781707764,14.8829536437988,14.883828163147,14.8847026824951,14.8855781555176,14.88645362854,14.8873291015625,14.8882055282593,14.8890810012817,14.8899564743042,14.890832901001,14.8917083740234,14.8925848007202,14.893461227417,14.8943367004395,14.8952131271362,14.896089553833,14.8969669342041,14.8978433609009,14.898720741272,14.8995971679688,14.9004735946655,14.9013509750366,14.9022283554077,14.9031057357788,14.9039831161499,14.904860496521,14.9057388305664,14.9066162109375,14.9074935913086,14.908371925354,14.9092502593994,14.9101276397705,14.9110059738159,14.9118843078613,14.9127626419067,14.9136419296265,14.9145202636719,14.9153985977173,14.916277885437,14.9171571731567,14.9180364608765,14.9189157485962,14.9197950363159,14.9206743240356,14.9215536117554,14.9224328994751,14.9233131408691,14.9241933822632,14.9250726699829,14.925952911377,14.926833152771,14.927713394165,14.9285936355591,14.9294738769531,14.9303550720215,14.9312353134155,14.9321165084839,14.9329967498779,14.9338779449463,14.9347591400146,14.935640335083,14.9365215301514,14.9374027252197,14.9382839202881,14.9391660690308,14.9400472640991,14.9409294128418,14.9418106079102,14.9426937103271,14.9435749053955,14.9444580078125,14.9453401565552,14.9462223052979,14.9471044540405,14.9479875564575,14.9488706588745,14.9497528076172,14.9506359100342,14.9515190124512,14.9524021148682,14.9532852172852,14.9541683197021,14.9550523757935,14.9559354782104,14.9568195343018,14.9577026367188,14.9585876464844,14.9594717025757,14.9603548049927,14.9612398147583,14.9621238708496,14.9630079269409,14.9638929367065,14.9647779464722,14.9656620025635,14.9665470123291,14.9674320220947,14.9683170318604,14.969202041626,14.9700870513916,14.9709720611572,14.9718580245972,14.9727439880371,14.9736299514771,14.9745149612427,14.9754009246826,14.9762868881226,14.9771728515625,14.9780597686768,14.9789457321167,14.9798316955566,14.9807186126709,14.9816045761108,14.9824914932251,14.9833784103394,14.9842653274536,14.9851522445679,14.9860391616821,14.9869270324707,14.987813949585,14.9887018203735,14.9895896911621,14.9904766082764,14.9913644790649,14.9922523498535,14.9931402206421,14.994029045105,14.9949159622192,14.9958047866821,14.996693611145,14.9975814819336,14.9984703063965,14.9993591308594,15.0002479553223,15.0011367797852,15.002025604248,15.0029153823853,15.0038042068481,15.004693031311,15.0055837631226,15.0064725875854,15.0073623657227,15.0082521438599,15.0091419219971,15.0100317001343,15.0109214782715,15.011812210083,15.0127019882202,15.0135927200317,15.0144834518433,15.0153741836548,15.0162649154663,15.0171556472778,15.0180463790894,15.0189371109009,15.0198287963867,15.0207195281982,15.0216112136841,15.0225028991699,15.0233936309814,15.0242862701416,15.0251770019531,15.0260696411133,15.0269613265991,15.027853012085,15.0287456512451,15.0296382904053,15.0305309295654,15.0314226150513,15.0323152542114,15.0332088470459,15.0341005325317,15.0349941253662,15.0358867645264,15.0367803573608,15.037672996521,15.0385665893555,15.0394601821899,15.0403537750244,15.0412473678589,15.0421409606934,15.0430345535278,15.0439291000366,15.0448236465454,15.0457172393799,15.0466117858887,15.0475063323975,15.0484008789062,15.049295425415,15.0501899719238,15.0510845184326,15.0519800186157,15.0528755187988,15.0537700653076,15.0546655654907,15.0555610656738,15.0564565658569,15.05735206604,15.0582475662231,15.0591430664062,13.742561340332,13.6938810348511,13.6455450057983,13.5975484848022,13.5587778091431,13.4764194488525,13.4393901824951,13.4025678634644,13.3659467697144,13.3295249938965,13.2933015823364,13.2572736740112,13.2214403152466,13.1858015060425,13.1503534317017,13.1150951385498,13.0800256729126,13.0451431274414,13.0104465484619,12.9759340286255,12.9416036605835,12.9074544906616,12.8734855651855,12.8396949768066,12.8060808181763,12.7726421356201,12.7393779754639,12.7062864303589,12.6733665466309,12.6406164169312,12.6080360412598,12.5756225585938,12.5433759689331,12.5112953186035,12.479377746582,12.4476222991943,12.4160480499268,12.3846368789673
14.6276741027832,14.6285190582275,14.6293649673462,14.6302099227905,14.6310558319092,14.6319017410278,14.6327476501465,14.6335935592651,14.6344394683838,14.6352853775024,14.6361312866211,14.6369781494141,14.6378240585327,14.6386709213257,14.6395177841187,14.6403636932373,14.6412105560303,14.6420574188232,14.6429042816162,14.6437520980835,14.6445989608765,14.6454458236694,14.6462936401367,14.6471405029297,14.647988319397,14.6488361358643,14.6496839523315,14.6505317687988,14.6513795852661,14.6522274017334,14.653076171875,14.6539239883423,14.6547727584839,14.6556205749512,14.6564693450928,14.6573181152344,14.658166885376,14.6590156555176,14.6598644256592,14.6607131958008,14.6615629196167,14.6624116897583,14.6632614135742,14.6641111373901,14.6649608612061,14.6658096313477,14.6666593551636,14.6675100326538,14.6683597564697,14.6692094802856,14.6700592041016,14.6709098815918,14.671760559082,14.6726102828979,14.6734609603882,14.6743116378784,14.6751623153687,14.6760129928589,14.6768636703491,14.6777153015137,14.6785659790039,14.6794176101685,14.6802682876587,14.6811199188232,14.6819715499878,14.6828231811523,14.6836748123169,14.6845264434814,14.685378074646,14.6862306594849,14.6870822906494,14.6879348754883,14.6887865066528,14.6896390914917,14.6904916763306,14.6913442611694,14.6921968460083,14.6930494308472,14.6939029693604,14.6947555541992,14.6956090927124,14.6964616775513,14.6973152160645,14.6981687545776,14.6990222930908,14.699875831604,14.7007293701172,14.7015829086304,14.7024374008179,14.7032909393311,14.7041444778442,14.7049989700317,14.7058534622192,14.7067079544067,14.7075624465942,14.7084169387817,14.7092714309692,14.7101268768311,14.7109813690186,14.7118368148804,14.7126913070679,14.7135467529297,14.7144012451172,14.715256690979,14.7161130905151,14.7169675827026,14.7178239822388,14.7186794281006,14.7195358276367,14.7203912734985,14.7212476730347,14.7221040725708,14.7229604721069,14.7238168716431,14.7246723175049,14.7255296707153,14.7263860702515,14.7272424697876,14.728099822998,14.7289562225342,14.7298135757446,14.7306709289551,14.7315273284912,14.7323846817017,14.7332429885864,14.7341003417969,14.7349576950073,14.7358160018921,14.7366733551025,14.7375316619873,14.7383899688721,14.7392482757568,14.7401056289673,14.7409648895264,14.7418222427368,14.7426815032959,14.7435398101807,14.7443981170654,14.7452573776245,14.7461166381836,14.7469758987427,14.7478351593018,14.7486944198608,14.7495536804199,14.750412940979,14.7512722015381,14.7521324157715,14.7529916763306,14.753851890564,14.754711151123,14.7555713653564,14.7564315795898,14.7572917938232,14.7581520080566,14.75901222229,14.7598743438721,14.7607345581055,14.7615947723389,14.7624559402466,14.7633171081543,14.7641773223877,14.7650394439697,14.7659006118774,14.7667617797852,14.7676229476929,14.7684850692749,14.7693462371826,14.7702083587646,14.7710695266724,14.7719316482544,14.7727937698364,14.7736558914185,14.7745180130005,14.7753810882568,14.7762432098389,14.7771062850952,14.7779684066772,14.7788305282593,14.7796936035156,14.780556678772,14.7814197540283,14.7822828292847,14.7831468582153,14.7840099334717,14.784873008728,14.7857360839844,14.786600112915,14.78746509552,14.7883281707764,14.789192199707,14.7900562286377,14.7909202575684,14.7917852401733,14.792649269104,14.7935132980347,14.7943782806396,14.7952423095703,14.7961072921753,14.7969722747803,14.7978372573853,14.7987022399902,14.7995681762695,14.8004331588745,14.8012981414795,14.8021640777588,14.8030300140381,14.8038949966431,14.8047618865967,14.8056268692017,14.806492805481,14.8073587417603,14.8082256317139,14.8090915679932,14.8099584579468,14.8108243942261,14.8116912841797,14.8125581741333,14.8134241104126,14.8142910003662,14.8151588439941,14.8160257339478,14.8168926239014,14.8177604675293,14.8186273574829,14.8194952011108,14.8203630447388,14.8212308883667,14.8220987319946,14.8229656219482,14.8238344192505,14.8247022628784,14.8255701065063,14.8264389038086,14.8273077011108,14.8281755447388,14.8290452957153,14.8299131393433,14.8307819366455,14.8316516876221,14.8325204849243,14.8333892822266,14.8342580795288,14.8351278305054,14.8359975814819,14.8368673324585,14.8377361297607,14.8386068344116,14.8394765853882,14.8403463363647,14.8412160873413,14.8420858383179,14.8429574966431,14.8438272476196,14.8446979522705,14.8455686569214,14.8464393615723,14.8473100662231,14.848180770874,14.8490514755249,14.8499221801758,14.850793838501,14.8516654968262,14.8525362014771,14.8534078598022,14.8542795181274,14.8551511764526,14.8560228347778,14.8568954467773,14.8577671051025,14.8586387634277,14.8595113754272,14.8603839874268,14.861255645752,14.8621282577515,14.863000869751,14.8638734817505,14.8647470474243,14.8656196594238,14.8664932250977,14.8673658370972,14.868239402771,14.8691120147705,14.8699855804443,14.8708591461182,14.8717336654663,14.8726072311401,14.873480796814,14.8743553161621,14.8752288818359,14.8761024475098,14.8769769668579,14.8778514862061,14.8787260055542,14.8796005249023,14.8804750442505,14.8813505172729,14.8822250366211,14.8830995559692,14.8839750289917,14.8848505020142,14.8857259750366,14.8866004943848,14.8874759674072,14.888352394104,14.8892278671265,14.8901033401489,14.8909788131714,14.8918552398682,14.8927316665649,14.8936080932617,14.8944835662842,14.8953609466553,14.8962373733521,14.8971138000488,14.8979902267456,14.8988676071167,14.8997440338135,14.9006214141846,14.9014987945557,14.9023761749268,14.9032535552979,14.9041309356689,14.90500831604,14.9058856964111,14.9067640304565,14.9076414108276,14.908519744873,14.9093971252441,14.9102754592896,14.911153793335,14.9120321273804,14.9129104614258,14.9137897491455,14.9146680831909,14.9155473709106,14.9164257049561,14.9173049926758,14.9181842803955,14.9190635681152,14.919942855835,14.9208221435547,14.9217014312744,14.9225807189941,14.9234609603882,14.9243402481079,14.925220489502,14.926100730896,14.92698097229,14.9278612136841,14.9287414550781,14.9296216964722,14.9305028915405,14.9313831329346,14.9322633743286,14.933144569397,14.9340257644653,14.9349069595337,14.9357881546021,14.9366693496704,13.6277046203613,13.5798330307007,13.4764051437378,13.4393815994263,13.4025602340698,13.3659391403198,13.329517364502,13.2932939529419,13.257266998291,13.2214345932007,13.1857948303223,13.1503467559814,13.1150894165039,13.0800199508667,13.0451374053955,13.010440826416,12.9759273529053,12.9415979385376,12.9074487686157,12.8734798431396,12.8396892547607,12.8060750961304,12.7726364135742,12.739372253418,12.706280708313,12.673360824585,12.6406116485596,12.6080303192139,12.5756168365479,12.5433702468872,12.5112886428833,12.4793710708618,12.4476156234741,12.4160385131836,12.3846263885498
14.5095949172974,14.5104265213013,14.5112581253052,14.5120906829834,14.5129222869873,14.5137548446655,14.5145874023438,14.5154190063477,14.5162515640259,14.5170841217041,14.5179166793823,14.5187492370605,14.5195817947388,14.520414352417,14.5212478637695,14.5220804214478,14.5229139328003,14.5237474441528,14.5245809555054,14.5254144668579,14.5262470245361,14.527081489563,14.5279150009155,14.5287494659424,14.5295829772949,14.5304164886475,14.5312509536743,14.5320854187012,14.532919883728,14.5337533950806,14.5345878601074,14.5354223251343,14.5362577438354,14.5370922088623,14.5379266738892,14.5387620925903,14.5395965576172,14.5404329299927,14.5412673950195,14.5421028137207,14.5429382324219,14.543773651123,14.5446100234985,14.5454454421997,14.5462808609009,14.5471172332764,14.5479526519775,14.548789024353,14.5496253967285,14.550461769104,14.5512981414795,14.552134513855,14.5529708862305,14.5538082122803,14.5546445846558,14.5554819107056,14.5563192367554,14.5571556091309,14.5579929351807,14.5588302612305,14.5596675872803,14.5605049133301,14.5613422393799,14.5621795654297,14.5630178451538,14.5638561248779,14.5646934509277,14.5655317306519,14.566370010376,14.5672082901001,14.5680465698242,14.5688848495483,14.5697231292725,14.5705623626709,14.571400642395,14.5722398757935,14.5730781555176,14.573917388916,14.5747566223145,14.5755958557129,14.5764350891113,14.5772743225098,14.5781145095825,14.578953742981,14.5797929763794,14.5806331634521,14.5814733505249,14.5823125839233,14.5831527709961,14.5839939117432,14.5848331451416,14.5856742858887,14.5865144729614,14.5873546600342,14.5881958007812,14.589035987854,14.5898771286011,14.5907182693481,14.5915584564209,14.592399597168,14.5932416915894,14.5940828323364,14.5949249267578,14.5957660675049,14.596607208252,14.5974493026733,14.5982913970947,14.5991334915161,14.5999746322632,14.6008167266846,14.601658821106,14.6025009155273,14.603343963623,14.6041860580444,14.6050291061401,14.6058712005615,14.6067142486572,14.6075572967529,14.6084003448486,14.6092433929443,14.61008644104,14.6109294891357,14.6117734909058,14.6126165390015,14.6134605407715,14.6143035888672,14.6151475906372,14.6159915924072,14.6168355941772,14.6176795959473,14.6185235977173,14.6193675994873,14.6202125549316,14.6210565567017,14.621901512146,14.6227464675903,14.6235904693604,14.6244354248047,14.625280380249,14.6261253356934,14.626971244812,14.6278162002563,14.6286611557007,14.629506111145,14.6303520202637,14.6311979293823,14.6320428848267,14.6328887939453,14.6337356567383,14.6345815658569,14.6354274749756,14.6362733840942,14.6371192932129,14.6379661560059,14.6388130187988,14.6396589279175,14.6405057907104,14.6413526535034,14.6421995162964,14.6430463790894,14.6438941955566,14.6447410583496,14.6455879211426,14.6464357376099,14.6472826004028,14.6481304168701,14.6489782333374,14.6498260498047,14.650673866272,14.6515216827393,14.6523694992065,14.6532182693481,14.6540660858154,14.654914855957,14.6557636260986,14.6566114425659,14.6574602127075,14.6583089828491,14.6591577529907,14.6600065231323,14.6608562469482,14.6617050170898,14.6625547409058,14.6634044647217,14.6642532348633,14.6651029586792,14.6659526824951,14.666802406311,14.667652130127,14.6685018539429,14.6693515777588,14.670202255249,14.6710529327393,14.6719026565552,14.6727533340454,14.6736030578613,14.6744537353516,14.6753053665161,14.6761560440063,14.6770067214966,14.6778583526611,14.6787090301514,14.6795606613159,14.6804113388062,14.6812629699707,14.6821146011353,14.6829662322998,14.6838178634644,14.6846694946289,14.6855211257935,14.686372756958,14.6872253417969,14.6880779266357,14.6889305114746,14.6897830963135,14.690634727478,14.6914882659912,14.6923398971558,14.6931934356689,14.6940460205078,14.6948986053467,14.6957521438599,14.6966047286987,14.6974582672119,14.6983118057251,14.6991653442383,14.7000188827515,14.7008724212646,14.7017259597778,14.7025804519653,14.7034339904785,14.704288482666,14.7051420211792,14.7059965133667,14.7068510055542,14.707706451416,14.7085599899292,14.709415435791,14.7102699279785,14.711124420166,14.7119798660278,14.7128343582153,14.7136898040771,14.714545249939,14.7154006958008,14.7162561416626,14.7171115875244,14.7179670333862,14.7188234329224,14.7196788787842,14.7205352783203,14.7213916778564,14.7222471237183,14.7231035232544,14.7239599227905,14.7248163223267,14.7256727218628,14.7265300750732,14.7273864746094,14.7282428741455,14.729100227356,14.7299575805664,14.7308149337769,14.7316722869873,14.7325296401978,14.7333869934082,14.7342443466187,14.7351016998291,14.7359600067139,14.7368173599243,14.7376756668091,14.7385339736938,14.7393913269043,14.7402496337891,14.7411088943481,14.7419672012329,14.7428255081177,14.7436847686768,14.7445430755615,14.7454013824463,14.7462606430054,14.7471199035645,14.7479791641235,14.7488384246826,14.7496976852417,14.7505569458008,14.7514171600342,14.7522764205933,14.7531356811523,14.7539958953857,14.7548561096191,14.7557163238525,14.7565765380859,14.7574367523193,14.7582969665527,14.7591571807861,14.7600183486938,14.7608785629272,14.761739730835,14.7625999450684,14.7634611129761,14.7643222808838,14.7651834487915,14.7660446166992,14.7669057846069,14.767767906189,14.7686290740967,14.7694902420044,14.7703523635864,14.7712144851685,14.7720766067505,14.7729387283325,14.7738008499146,14.7746629714966,14.7755250930786,14.776388168335,14.777250289917,14.7781133651733,14.7789754867554,14.7798385620117,14.7807016372681,14.7815647125244,14.7824277877808,14.7832918167114,14.7841548919678,14.7850189208984,14.7858819961548,14.7867460250854,14.7876091003418,14.7884731292725,14.7893371582031,14.7902011871338,14.7910652160645,14.7919301986694,14.7927942276001,14.7936582565308,14.7945232391357,14.7953882217407,14.7962532043457,14.7971172332764,14.7979822158813,14.7988481521606,14.7997131347656,14.8005781173706,14.8014440536499,14.8023090362549,14.8031749725342,14.8040409088135,14.8049068450928,14.8057727813721,14.8066377639771,14.8075046539307,14.80837059021,14.8092365264893,14.8101034164429,14.8109703063965,14.8118362426758,14.8127031326294,14.813570022583,14.8144369125366,14.8153038024902,14.8161716461182,13.4393825531006,13.402551651001,13.3659315109253,13.3295097351074,13.2932863235474,13.2572593688965,13.2214269638062,13.1857881546021,13.1503400802612,13.1150827407837,13.0800132751465,13.0451316833496,13.0104341506958,12.9759216308594,12.9415922164917,12.9074430465698,12.8734741210938,12.8396825790405,12.8060693740845,12.7726306915283,12.7393665313721,12.7062749862671,12.6733551025391,12.6406059265137,12.608024597168,12.575611114502,12.5433645248413,12.5112829208374,12.4793653488159,12.4476099014282,12.4160280227661,12.3846139907837
14.393406867981,14.3942260742188,14.3950443267822,14.39586353302,14.3966817855835,14.397500038147,14.3983192443848,14.3991384506226,14.3999576568604,14.4007768630981,14.4015960693359,14.4024152755737,14.4032344818115,14.4040546417236,14.4048738479614,14.4056940078735,14.4065141677856,14.4073343276978,14.4081535339355,14.4089736938477,14.4097938537598,14.4106140136719,14.4114351272583,14.4122552871704,14.4130754470825,14.4138965606689,14.4147176742554,14.4155378341675,14.4163589477539,14.4171800613403,14.4180011749268,14.4188232421875,14.4196443557739,14.4204654693604,14.4212865829468,14.4221086502075,14.4229307174683,14.4237518310547,14.4245738983154,14.4253959655762,14.4262180328369,14.4270401000977,14.4278621673584,14.4286842346191,14.4295072555542,14.4303302764893,14.4311532974243,14.4319753646851,14.4327983856201,14.4336214065552,14.4344444274902,14.4352674484253,14.4360904693604,14.4369134902954,14.4377374649048,14.4385604858398,14.4393844604492,14.4402084350586,14.4410314559937,14.441855430603,14.4426794052124,14.4435033798218,14.4443273544312,14.4451522827148,14.4459762573242,14.4468011856079,14.4476251602173,14.448450088501,14.4492750167847,14.4500999450684,14.4509248733521,14.4517488479614,14.4525747299194,14.4533996582031,14.4542245864868,14.4550504684448,14.4558753967285,14.4567012786865,14.4575271606445,14.4583530426025,14.4591789245605,14.4600048065186,14.4608306884766,14.4616575241089,14.4624834060669,14.4633092880249,14.4641351699829,14.4649620056152,14.4657888412476,14.4666156768799,14.4674425125122,14.4682693481445,14.4690961837769,14.4699230194092,14.4707508087158,14.4715776443481,14.4724054336548,14.4732332229614,14.4740600585938,14.4748878479004,14.475715637207,14.4765434265137,14.4773712158203,14.4781999588013,14.4790277481079,14.4798555374146,14.4806842803955,14.4815120697021,14.4823408126831,14.4831695556641,14.483998298645,14.484827041626,14.4856557846069,14.4864845275879,14.4873142242432,14.4881429672241,14.4889726638794,14.4898023605347,14.4906311035156,14.4914608001709,14.4922904968262,14.4931201934814,14.4939498901367,14.494779586792,14.4956092834473,14.4964399337769,14.4972705841064,14.4981002807617,14.4989309310913,14.4997615814209,14.5005922317505,14.5014228820801,14.5022535324097,14.5030841827393,14.5039148330688,14.5047464370728,14.5055770874023,14.5064086914062,14.5072402954102,14.5080709457397,14.508903503418,14.5097341537476,14.5105667114258,14.5113983154297,14.5122299194336,14.5130624771118,14.5138940811157,14.5147266387939,14.5155591964722,14.5163917541504,14.5172243118286,14.5180559158325,14.5188884735107,14.5197219848633,14.5205545425415,14.5213871002197,14.5222206115723,14.5230541229248,14.5238876342773,14.5247211456299,14.5255537033081,14.5263872146606,14.5272207260132,14.52805519104,14.5288887023926,14.5297231674194,14.530556678772,14.5313901901245,14.5322246551514,14.5330591201782,14.5338935852051,14.5347280502319,14.5355625152588,14.53639793396,14.5372323989868,14.538067817688,14.5389022827148,14.539737701416,14.5405731201172,14.541407585144,14.5422430038452,14.5430784225464,14.5439138412476,14.544750213623,14.5455856323242,14.5464210510254,14.5472574234009,14.5480937957764,14.5489292144775,14.549765586853,14.5506019592285,14.551438331604,14.5522756576538,14.5531120300293,14.5539484024048,14.5547847747803,14.5556221008301,14.5564594268799,14.5572957992554,14.5581331253052,14.558970451355,14.5598077774048,14.5606451034546,14.5614824295044,14.5623207092285,14.5631580352783,14.5639963150024,14.5648345947266,14.5656728744507,14.5665102005005,14.5673484802246,14.568187713623,14.5690259933472,14.5698642730713,14.5707025527954,14.5715417861938,14.572380065918,14.5732192993164,14.5740585327148,14.5748977661133,14.5757369995117,14.5765752792358,14.5774154663086,14.578254699707,14.5790948867798,14.5799341201782,14.580774307251,14.5816135406494,14.5824537277222,14.5832948684692,14.5841341018677,14.5849742889404,14.5858144760132,14.5866556167603,14.587495803833,14.5883359909058,14.5891771316528,14.5900182723999,14.590859413147,14.591700553894,14.5925416946411,14.5933828353882,14.5942239761353,14.5950651168823,14.5959072113037,14.5967483520508,14.5975904464722,14.5984315872192,14.5992746353149,14.600115776062,14.6009578704834,14.6018009185791,14.6026430130005,14.6034851074219,14.6043281555176,14.6051712036133,14.6060132980347,14.6068563461304,14.6076993942261,14.6085414886475,14.6093854904175,14.6102275848389,14.6110715866089,14.6119146347046,14.6127576828003,14.6136016845703,14.6144456863403,14.6152896881104,14.6161327362061,14.6169767379761,14.6178216934204,14.6186656951904,14.6195096969604,14.6203536987305,14.6211986541748,14.6220436096191,14.6228876113892,14.6237325668335,14.6245775222778,14.6254224777222,14.6262674331665,14.6271123886108,14.6279573440552,14.6288032531738,14.6296482086182,14.6304941177368,14.6313400268555,14.6321859359741,14.6330308914185,14.6338777542114,14.6347236633301,14.6355695724487,14.6364154815674,14.637261390686,14.638108253479,14.638955116272,14.6398010253906,14.6406478881836,14.6414947509766,14.6423416137695,14.6431884765625,14.6440353393555,14.6448831558228,14.64573097229,14.646577835083,14.6474256515503,14.6482725143433,14.6491212844849,14.6499681472778,14.6508169174194,14.6516647338867,14.652512550354,14.6533603668213,14.6542091369629,14.6550569534302,14.6559057235718,14.6567544937134,14.657603263855,14.6584520339966,14.6593008041382,14.6601495742798,14.6609992980957,14.6618480682373,14.6626977920532,14.6635465621948,14.6643962860107,14.6652450561523,14.6660947799683,14.6669454574585,14.6677942276001,14.668643951416,14.6694946289062,14.6703443527222,14.6711950302124,14.6720457077026,14.6728963851929,14.6737470626831,14.6745977401733,14.6754474639893,14.6762990951538,14.677149772644,14.6780004501343,14.6788520812988,14.6797027587891,14.6805543899536,14.6814060211182,14.6822576522827,14.6831092834473,14.6839599609375,14.6848125457764,14.6856641769409,14.6865167617798,14.6873683929443,14.6882209777832,14.6890726089478,14.6899251937866,14.6907787322998,14.6916303634644,14.6924829483032,14.6933364868164,14.6941890716553,14.6950416564941,13.4393844604492,13.4025468826294,13.3659238815308,13.3295021057129,13.2932786941528,13.257251739502,13.2214193344116,13.1857805252075,13.1503324508667,13.1150751113892,13.0800065994263,13.0451250076294,13.0104284286499,12.9759159088135,12.9415864944458,12.9074373245239,12.8734683990479,12.8396768569946,12.8060636520386,12.7726249694824,12.7393608093262,12.7062692642212,12.6733493804932,12.6406002044678,12.6080188751221,12.5756053924561,12.5433588027954,12.5112771987915,12.47935962677,12.4476041793823,12.4160184860229,12.3846015930176
14.2790660858154,14.2798709869385,14.2806768417358,14.2814826965332,14.2822885513306,14.2830934524536,14.283899307251,14.2847061157227,14.28551197052,14.2863178253174,14.2871246337891,14.2879314422607,14.2887372970581,14.2895441055298,14.2903509140015,14.2911577224731,14.2919645309448,14.2927713394165,14.2935781478882,14.2943849563599,14.2951927185059,14.2960004806519,14.2968072891235,14.2976150512695,14.2984228134155,14.2992305755615,14.3000383377075,14.3008460998535,14.3016538619995,14.3024616241455,14.3032703399658,14.3040781021118,14.3048868179321,14.3056945800781,14.3065032958984,14.3073120117188,14.3081207275391,14.3089294433594,14.3097381591797,14.310546875,14.3113565444946,14.3121662139893,14.3129749298096,14.3137845993042,14.3145933151245,14.3154029846191,14.3162126541138,14.3170223236084,14.317831993103,14.3186416625977,14.3194522857666,14.3202619552612,14.3210725784302,14.3218822479248,14.3226928710938,14.3235034942627,14.3243131637573,14.3251247406006,14.3259353637695,14.3267459869385,14.3275566101074,14.3283681869507,14.3291788101196,14.3299903869629,14.3308010101318,14.3316125869751,14.3324241638184,14.3332357406616,14.3340473175049,14.3348588943481,14.3356704711914,14.3364820480347,14.3372945785522,14.3381061553955,14.3389196395874,14.3397312164307,14.3405437469482,14.3413562774658,14.3421688079834,14.342981338501,14.3437938690186,14.3446063995361,14.3454189300537,14.3462324142456,14.3470449447632,14.3478584289551,14.348671913147,14.3494853973389,14.3502988815308,14.3511123657227,14.3519258499146,14.3527402877808,14.3535537719727,14.3543672561646,14.3551816940308,14.355996131897,14.3568096160889,14.3576240539551,14.3584384918213,14.3592529296875,14.3600673675537,14.3608818054199,14.3616971969604,14.3625116348267,14.3633270263672,14.3641414642334,14.3649568557739,14.3657722473145,14.366587638855,14.3674030303955,14.368218421936,14.3690338134766,14.3698501586914,14.3706655502319,14.3714809417725,14.3722972869873,14.3731136322021,14.3739290237427,14.3747453689575,14.3755617141724,14.3763790130615,14.3771953582764,14.3780117034912,14.3788280487061,14.3796453475952,14.3804616928101,14.3812789916992,14.3820953369141,14.3829126358032,14.3837299346924,14.3845472335815,14.385365486145,14.3861827850342,14.3870000839233,14.3878183364868,14.388635635376,14.3894538879395,14.3902721405029,14.3910894393921,14.3919086456299,14.392725944519,14.3935441970825,14.3943634033203,14.3951816558838,14.3959999084473,14.3968191146851,14.3976373672485,14.3984565734863,14.3992757797241,14.4000949859619,14.4009132385254,14.4017333984375,14.4025526046753,14.4033727645874,14.4041919708252,14.405011177063,14.4058313369751,14.4066514968872,14.4074716567993,14.4082908630371,14.4091110229492,14.4099311828613,14.4107522964478,14.4115724563599,14.412392616272,14.4132137298584,14.4140338897705,14.4148550033569,14.4156761169434,14.4164972305298,14.4173183441162,14.4181394577026,14.4189605712891,14.4197816848755,14.4206027984619,14.4214248657227,14.4222469329834,14.4230680465698,14.4238901138306,14.4247121810913,14.4255332946777,14.4263563156128,14.4271783828735,14.4280004501343,14.4288234710693,14.4296455383301,14.4304676055908,14.4312906265259,14.4321136474609,14.4329357147217,14.4337587356567,14.4345827102661,14.4354047775269,14.4362287521362,14.4370517730713,14.4378747940063,14.4386987686157,14.4395227432251,14.4403457641602,14.4411697387695,14.4419937133789,14.4428176879883,14.4436416625977,14.4444665908813,14.4452905654907,14.4461154937744,14.4469394683838,14.4477634429932,14.4485883712769,14.4494132995605,14.4502382278442,14.4510631561279,14.4518880844116,14.4527130126953,14.453537940979,14.454363822937,14.4551887512207,14.4560146331787,14.4568405151367,14.4576654434204,14.4584913253784,14.4593172073364,14.4601440429688,14.4609699249268,14.4617958068848,14.4626216888428,14.4634475708008,14.4642744064331,14.4651012420654,14.4659271240234,14.4667539596558,14.4675807952881,14.4684085845947,14.4692354202271,14.4700622558594,14.4708890914917,14.4717168807983,14.472544670105,14.4733715057373,14.4741983413696,14.4750270843506,14.4758539199829,14.4766817092896,14.4775104522705,14.4783382415771,14.4791660308838,14.4799947738647,14.4808225631714,14.4816513061523,14.4824800491333,14.4833087921143,14.4841375350952,14.4849662780762,14.4857950210571,14.4866237640381,14.487452507019,14.4882822036743,14.4891119003296,14.4899406433105,14.4907703399658,14.4916000366211,14.4924297332764,14.4932594299316,14.4940891265869,14.4949188232422,14.4957494735718,14.4965791702271,14.4974098205566,14.4982395172119,14.4990701675415,14.4999008178711,14.5007314682007,14.5015621185303,14.5023927688599,14.5032234191895,14.5040550231934,14.5048856735229,14.5057172775269,14.5065479278564,14.5073795318604,14.5082111358643,14.5090427398682,14.5098743438721,14.510705947876,14.5115375518799,14.5123701095581,14.513201713562,14.5140342712402,14.5148658752441,14.5156984329224,14.5165309906006,14.5173635482788,14.518196105957,14.5190286636353,14.5198612213135,14.520694732666,14.5215272903442,14.5223608016968,14.5231943130493,14.5240268707275,14.5248603820801,14.5256938934326,14.5265274047852,14.5273609161377,14.5281944274902,14.5290288925171,14.5298624038696,14.5306968688965,14.531530380249,14.5323648452759,14.5331993103027,14.5340337753296,14.5348682403564,14.5357036590576,14.5365381240845,14.5373725891113,14.5382070541382,14.5390424728394,14.5398778915405,14.5407123565674,14.5415477752686,14.5423831939697,14.5432186126709,14.5440540313721,14.5448894500732,14.5457258224487,14.5465612411499,14.5473976135254,14.5482339859009,14.5490694046021,14.5499067306519,14.5507431030273,14.5515794754028,14.552414894104,14.5532522201538,14.5540885925293,14.5549259185791,14.5557622909546,14.5565996170044,14.5574369430542,14.558274269104,14.5591115951538,14.5599489212036,14.5607862472534,14.5616235733032,14.5624618530273,14.5632991790771,14.5641374588013,14.5649757385254,14.5658130645752,14.5666513442993,14.5674896240234,14.5683279037476,14.5691661834717,14.5700054168701,14.5708436965942,14.5716819763184,14.5725212097168,14.5733594894409,14.5741996765137,14.5750389099121,14.5758771896362,13.4393625259399,13.402548789978,13.3659152984619,13.3294944763184,13.2932710647583,13.2572441101074,13.2214117050171,13.185772895813,13.1503257751465,13.1150684356689,13.0799989700317,13.0451173782349,13.0104207992554,12.9759092330933,12.9415798187256,12.907431602478,12.873462677002,12.8396711349487,12.8060579299927,12.7726192474365,12.7393550872803,12.7062635421753,12.6733446121216,12.6405944824219,12.6080131530762,12.5756006240845,12.5433530807495,12.5112714767456,12.4793529510498,12.4475984573364,12.4160079956055,12.3354520797729
14.1665258407593,14.1673192977905,14.1681127548218,14.1689052581787,14.1696977615356,14.1704912185669,14.1712846755981,14.1720781326294,14.1728715896606,14.1736650466919,14.1744585037231,14.1752519607544,14.17604637146,14.1768398284912,14.1776342391968,14.178427696228,14.1792221069336,14.1800165176392,14.1808109283447,14.1816053390503,14.1823997497559,14.1831951141357,14.1839895248413,14.1847839355469,14.1855783462524,14.1863737106323,14.1871690750122,14.1879644393921,14.188759803772,14.1895542144775,14.1903505325317,14.1911458969116,14.1919412612915,14.1927366256714,14.1935329437256,14.1943283081055,14.1951246261597,14.1959209442139,14.1967163085938,14.1975135803223,14.1983089447021,14.1991062164307,14.1999025344849,14.2006988525391,14.2014951705933,14.2022924423218,14.203088760376,14.2038860321045,14.204683303833,14.2054805755615,14.20627784729,14.2070751190186,14.2078723907471,14.2086696624756,14.2094678878784,14.2102651596069,14.2110624313354,14.2118606567383,14.2126579284668,14.2134561538696,14.2142543792725,14.2150526046753,14.2158508300781,14.2166500091553,14.2174482345581,14.2182464599609,14.2190456390381,14.2198438644409,14.2206430435181,14.2214422225952,14.222240447998,14.2230396270752,14.2238388061523,14.2246389389038,14.225438117981,14.2262372970581,14.2270364761353,14.2278366088867,14.2286357879639,14.2294359207153,14.2302350997925,14.2310361862183,14.2318363189697,14.2326364517212,14.2334356307983,14.2342367172241,14.2350368499756,14.2358379364014,14.2366390228271,14.2374391555786,14.2382392883301,14.2390403747559,14.2398414611816,14.2406425476074,14.2414436340332,14.242244720459,14.2430467605591,14.2438478469849,14.244649887085,14.2454509735107,14.2462530136108,14.2470550537109,14.2478561401367,14.2486581802368,14.2494602203369,14.250262260437,14.2510652542114,14.2518672943115,14.2526702880859,14.253472328186,14.2542743682861,14.2550773620605,14.255880355835,14.2566833496094,14.2574863433838,14.2582893371582,14.2590923309326,14.259895324707,14.2606992721558,14.2615022659302,14.2623062133789,14.2631101608276,14.2639131546021,14.2647171020508,14.2655210494995,14.2663249969482,14.267128944397,14.2679328918457,14.2687368392944,14.2695417404175,14.2703466415405,14.2711505889893,14.2719554901123,14.2727603912354,14.2735652923584,14.2743692398071,14.2751741409302,14.2759799957275,14.2767848968506,14.2775897979736,14.278395652771,14.279200553894,14.2800054550171,14.2808113098145,14.2816181182861,14.2824230194092,14.2832298278809,14.2840356826782,14.2848415374756,14.2856473922729,14.2864532470703,14.287260055542,14.2880659103394,14.288872718811,14.2896795272827,14.2904853820801,14.2912931442261,14.2920999526978,14.2929067611694,14.2937135696411,14.2945213317871,14.2953281402588,14.2961359024048,14.2969436645508,14.2977504730225,14.2985582351685,14.2993659973145,14.3001737594604,14.3009815216064,14.3017892837524,14.3025970458984,14.3034057617188,14.3042135238647,14.3050222396851,14.3058309555054,14.3066387176514,14.3074474334717,14.3082571029663,14.3090658187866,14.3098745346069,14.3106832504272,14.3114919662476,14.3123016357422,14.3131103515625,14.3139200210571,14.3147296905518,14.3155393600464,14.316349029541,14.3171577453613,14.3179683685303,14.3187780380249,14.3195877075195,14.3203983306885,14.3212080001831,14.3220186233521,14.322829246521,14.3236398696899,14.3244495391846,14.3252601623535,14.3260717391968,14.3268823623657,14.3276929855347,14.3285036087036,14.3293151855469,14.3301258087158,14.3309373855591,14.3317489624023,14.3325595855713,14.3333721160889,14.3341836929321,14.3349952697754,14.3358068466187,14.3366193771362,14.3374309539795,14.3382434844971,14.3390550613403,14.3398675918579,14.3406801223755,14.3414916992188,14.3423051834106,14.3431177139282,14.3439302444458,14.3447427749634,14.345555305481,14.3463687896729,14.3471822738647,14.3479957580566,14.3488082885742,14.3496217727661,14.350435256958,14.3512487411499,14.3520622253418,14.352876663208,14.3536901473999,14.3545036315918,14.355318069458,14.3561325073242,14.3569469451904,14.3577613830566,14.3585748672485,14.3593893051147,14.3602046966553,14.3610191345215,14.361834526062,14.3626489639282,14.3634634017944,14.364278793335,14.3650932312012,14.3659086227417,14.3667240142822,14.3675403594971,14.3683557510376,14.3691711425781,14.3699865341187,14.3708019256592,14.371618270874,14.3724336624146,14.3732509613037,14.3740663528442,14.3748826980591,14.3756990432739,14.3765153884888,14.3773317337036,14.3781480789185,14.3789653778076,14.3797826766968,14.3805990219116,14.3814163208008,14.3822326660156,14.3830499649048,14.3838672637939,14.3846845626831,14.3855018615723,14.3863201141357,14.3871374130249,14.3879556655884,14.3887739181519,14.389591217041,14.3904094696045,14.3912267684937,14.3920459747314,14.3928632736206,14.3936815261841,14.3945007324219,14.3953189849854,14.3961372375488,14.3969564437866,14.3977746963501,14.3985939025879,14.3994140625,14.4002323150635,14.4010524749756,14.4018707275391,14.4026908874512,14.403510093689,14.4043292999268,14.4051494598389,14.4059686660767,14.4067888259888,14.4076089859009,14.408429145813,14.4092493057251,14.4100694656372,14.4108896255493,14.4117097854614,14.4125308990479,14.41335105896,14.4141721725464,14.4149932861328,14.4158134460449,14.4166345596313,14.4174556732178,14.4182767868042,14.4190979003906,14.4199199676514,14.4207410812378,14.4215631484985,14.422384262085,14.4232063293457,14.4240274429321,14.4248495101929,14.4256715774536,14.4264945983887,14.4273166656494,14.4281387329102,14.4289608001709,14.429783821106,14.4306058883667,14.4314289093018,14.4322519302368,14.4330739974976,14.4338979721069,14.4347200393677,14.4355430603027,14.4363670349121,14.4371900558472,14.4380140304565,14.4388370513916,14.439661026001,14.4404850006104,14.4413080215454,14.4421319961548,14.4429559707642,14.4437799453735,14.4446048736572,14.4454288482666,14.446252822876,14.4470777511597,14.447901725769,14.4487266540527,14.4495515823364,14.4503765106201,14.4512014389038,14.4520263671875,14.4528512954712,14.4536771774292,14.4545021057129,14.4553279876709,14.4561529159546,14.4569787979126,14.4578046798706,14.4586305618286,13.4393339157104,13.4025506973267,13.3659152984619,13.3294868469238,13.2932634353638,13.2572364807129,13.2214040756226,13.1857652664185,13.150318145752,13.1150608062744,13.0799922943115,13.0451097488403,13.0104141235352,12.9759016036987,12.9415721893311,12.9074239730835,12.8734550476074,12.8396654129028,12.8060522079468,12.7726135253906,12.7393493652344,12.7062587738037,12.6733388900757,12.640588760376,12.6080083847046,12.5755949020386,12.5433473587036,12.5112657546997,12.4793472290039,12.4475917816162,12.4159984588623,12.3354463577271
14.0557470321655,14.0565271377563,14.0573081970215,14.0580883026123,14.0588693618774,14.0596504211426,14.0604305267334,14.0612115859985,14.0619926452637,14.0627737045288,14.0635557174683,14.0643367767334,14.0651187896729,14.065899848938,14.0666818618774,14.0674629211426,14.068244934082,14.0690269470215,14.0698089599609,14.0705909729004,14.0713729858398,14.0721549987793,14.0729379653931,14.0737199783325,14.0745029449463,14.0752849578857,14.0760679244995,14.0768508911133,14.0776338577271,14.0784168243408,14.0791997909546,14.0799827575684,14.0807657241821,14.0815496444702,14.082332611084,14.0831155776978,14.0838994979858,14.0846824645996,14.0854663848877,14.0862503051758,14.0870342254639,14.087818145752,14.08860206604,14.0893869400024,14.0901708602905,14.0909557342529,14.091739654541,14.0925245285034,14.0933084487915,14.0940933227539,14.0948781967163,14.0956630706787,14.0964479446411,14.0972328186035,14.0980176925659,14.0988035202026,14.099588394165,14.1003732681274,14.1011590957642,14.1019449234009,14.1027307510376,14.103515625,14.104302406311,14.1050882339478,14.1058740615845,14.1066598892212,14.1074457168579,14.1082324981689,14.1090183258057,14.1098051071167,14.1105909347534,14.1113786697388,14.1121644973755,14.1129512786865,14.1137380599976,14.1145257949829,14.1153125762939,14.1161003112793,14.1168870925903,14.1176748275757,14.1184616088867,14.1192493438721,14.1200370788574,14.1208248138428,14.1216115951538,14.1224002838135,14.1231880187988,14.1239757537842,14.1247634887695,14.1255521774292,14.1263399124146,14.1271286010742,14.1279172897339,14.1287059783936,14.1294946670532,14.1302833557129,14.1310720443726,14.1318607330322,14.1326494216919,14.1334390640259,14.1342277526855,14.1350173950195,14.1358070373535,14.1365957260132,14.1373853683472,14.1381750106812,14.1389646530151,14.1397542953491,14.1405448913574,14.1413345336914,14.1421241760254,14.1429147720337,14.1437044143677,14.144495010376,14.1452856063843,14.1460762023926,14.1468658447266,14.1476573944092,14.1484479904175,14.1492385864258,14.1500291824341,14.1508207321167,14.151611328125,14.1524028778076,14.1531944274902,14.1539859771729,14.1547765731812,14.1555681228638,14.1563596725464,14.1571521759033,14.1579437255859,14.1587352752686,14.1595268249512,14.1603193283081,14.161111831665,14.1619033813477,14.1626958847046,14.1634883880615,14.1642808914185,14.1650743484497,14.1658658981323,14.1666593551636,14.1674518585205,14.1682453155518,14.1690378189087,14.1698312759399,14.1706247329712,14.1714172363281,14.1722116470337,14.1730041503906,14.1737976074219,14.1745920181274,14.1753854751587,14.1761789321899,14.1769733428955,14.1777677536011,14.1785621643066,14.1793565750122,14.1801500320435,14.180944442749,14.1817388534546,14.1825332641602,14.1833276748657,14.1841220855713,14.1849174499512,14.1857118606567,14.1865072250366,14.1873025894165,14.1880970001221,14.188892364502,14.1896886825562,14.190484046936,14.1912794113159,14.1920747756958,14.1928701400757,14.1936664581299,14.1944627761841,14.195258140564,14.1960544586182,14.1968507766724,14.1976470947266,14.1984434127808,14.199239730835,14.2000360488892,14.2008323669434,14.2016296386719,14.2024259567261,14.2032232284546,14.2040205001831,14.2048177719116,14.2056140899658,14.2064113616943,14.2072086334229,14.2080059051514,14.2088041305542,14.2096014022827,14.2103986740112,14.2111959457397,14.2119941711426,14.2127923965454,14.2135906219482,14.2143878936768,14.2151870727539,14.2159852981567,14.2167844772339,14.2175827026367,14.2183809280396,14.2191791534424,14.2199783325195,14.2207765579224,14.2215757369995,14.2223749160767,14.2231740951538,14.223973274231,14.2247724533081,14.2255716323853,14.2263708114624,14.2271709442139,14.227970123291,14.2287702560425,14.2295703887939,14.2303695678711,14.2311706542969,14.231969833374,14.2327699661255,14.2335710525513,14.2343711853027,14.2351713180542,14.23597240448,14.2367725372314,14.2375726699829,14.2383737564087,14.2391748428345,14.2399759292603,14.240777015686,14.2415790557861,14.2423801422119,14.2431812286377,14.2439823150635,14.2447843551636,14.2455854415894,14.2463874816895,14.2471895217896,14.2479906082153,14.2487926483154,14.2495956420898,14.2503976821899,14.25119972229,14.2520017623901,14.2528038024902,14.2536067962646,14.2544097900391,14.2552127838135,14.2560157775879,14.256817817688,14.2576208114624,14.2584238052368,14.2592267990112,14.26003074646,14.2608337402344,14.2616376876831,14.2624406814575,14.2632446289062,14.2640476226807,14.2648515701294,14.2656555175781,14.2664604187012,14.2672643661499,14.2680683135986,14.2688722610474,14.2696771621704,14.2704811096191,14.2712860107422,14.2720899581909,14.272894859314,14.273699760437,14.2745046615601,14.2753095626831,14.2761144638062,14.2769193649292,14.2777252197266,14.2785301208496,14.279335975647,14.2801418304443,14.2809476852417,14.2817525863647,14.2825584411621,14.2833652496338,14.2841701507568,14.2849760055542,14.2857828140259,14.2865886688232,14.2873954772949,14.2882022857666,14.289008140564,14.2898149490356,14.2906217575073,14.2914276123047,14.2922353744507,14.2930431365967,14.293848991394,14.29465675354,14.2954635620117,14.2962713241577,14.2970781326294,14.2978858947754,14.2986936569214,14.2995014190674,14.3003091812134,14.3011169433594,14.3019247055054,14.3027334213257,14.3035411834717,14.304349899292,14.305157661438,14.3059663772583,14.3067750930786,14.3075838088989,14.3083925247192,14.3092012405396,14.3100099563599,14.3108186721802,14.3116283416748,14.3124370574951,14.3132467269897,14.3140554428101,14.3148651123047,14.3156747817993,14.3164844512939,14.3172941207886,14.3181037902832,14.3189144134521,14.3197240829468,14.3205337524414,14.3213443756104,14.3221549987793,14.3229646682739,14.3237752914429,14.3245859146118,14.3253965377808,14.3262071609497,14.327018737793,14.3278284072876,14.3286399841309,14.3294515609741,14.3302621841431,14.3310737609863,14.3318853378296,14.3326969146729,14.3335084915161,14.3343200683594,14.3351316452026,14.3359432220459,14.3367547988892,14.3375673294067,14.3383798599243,14.3391914367676,14.3400039672852,14.3408164978027,14.341628074646,14.3424415588379,14.3432531356812,14.344066619873,13.402551651001,13.3659172058105,13.3294811248779,13.2932558059692,13.2572288513184,13.221396446228,13.1857576370239,13.1503105163574,13.1150531768799,13.079984664917,13.0451030731201,13.0104064941406,12.9758949279785,12.9415655136108,12.9074172973633,12.8734483718872,12.8396577835083,12.8060445785522,12.7726068496704,12.7393436431885,12.7062530517578,12.6733331680298,12.6405830383301,12.6080026626587,12.5755891799927,12.543342590332,12.5112600326538,12.479341506958,12.4475860595703,12.4159917831421,12.3354406356812
