13.2171983718872,13.2178373336792,13.2184772491455,13.2191171646118,13.2197570800781,13.2203969955444,13.2210369110107,13.2216758728027,13.2223167419434,13.2229566574097,13.223596572876,13.2242374420166,13.2248773574829,13.2255172729492,13.2261581420898,13.2267980575562,13.2274389266968,13.2280797958374,13.2287197113037,13.2293605804443,13.230001449585,13.2306423187256,13.2312831878662,13.2319240570068,13.2325649261475,13.2332057952881,13.233847618103,13.2344884872437,13.2351303100586,13.2357711791992,13.2364120483398,13.2370538711548,13.2376956939697,13.2383365631104,13.2389783859253,13.2396202087402,13.2402620315552,13.2409038543701,13.2415456771851,13.2421875,13.2428293228149,13.2434711456299,13.2441139221191,13.2447566986084,13.245397567749,13.2460403442383,13.2466831207275,13.2473249435425,13.2479677200317,13.248610496521,13.2492532730103,13.2498960494995,13.2505388259888,13.251181602478,13.2518243789673,13.2524671554565,13.2531099319458,13.2537527084351,13.2543964385986,13.2550392150879,13.2556819915771,13.2563257217407,13.2569694519043,13.2576131820679,13.2582559585571,13.2588996887207,13.2595434188843,13.2601871490479,13.2608308792114,13.261474609375,13.2621183395386,13.2627620697021,13.2634057998657,13.2640504837036,13.2646942138672,13.2653388977051,13.265983581543,13.2666273117065,13.2672719955444,13.267915725708,13.2685613632202,13.2692050933838,13.2698497772217,13.2704944610596,13.2711391448975,13.2717838287354,13.2724294662476,13.2730741500854,13.2737188339233,13.2743644714355,13.2750091552734,13.2756538391113,13.2762994766235,13.2769451141357,13.2775897979736,13.2782363891602,13.278881072998,13.2795267105103,13.2801723480225,13.2808179855347,13.2814636230469,13.2821092605591,13.2827558517456,13.2834014892578,13.28404712677,13.2846937179565,13.2853393554688,13.2859859466553,13.2866315841675,13.287278175354,13.2879247665405,13.2885713577271,13.2892179489136,13.2898645401001,13.2905111312866,13.2911577224731,13.2918043136597,13.2924518585205,13.293098449707,13.2937450408936,13.2943916320801,13.2950391769409,13.2956867218018,13.2963333129883,13.2969799041748,13.2976274490356,13.2982749938965,13.2989225387573,13.2995700836182,13.3002185821533,13.3008661270142,13.301513671875,13.3021612167358,13.3028087615967,13.3034572601318,13.3041048049927,13.3047523498535,13.3054008483887,13.3060493469238,13.3066968917847,13.3073453903198,13.307993888855,13.3086423873901,13.3092908859253,13.3099393844604,13.3105878829956,13.3112363815308,13.3118858337402,13.3125333786011,13.3131828308105,13.3138313293457,13.3144807815552,13.3151292800903,13.3157787322998,13.3164281845093,13.3170776367188,13.3177261352539,13.3183755874634,13.3190250396729,13.3196744918823,13.3203239440918,13.3209733963013,13.3216238021851,13.3222732543945,13.322922706604,13.3235731124878,13.3242225646973,13.3248729705811,13.3255224227905,13.3261728286743,13.3268232345581,13.3274736404419,13.3281230926514,13.3287734985352,13.3294239044189,13.3300743103027,13.3307256698608,13.3313760757446,13.3320264816284,13.3326778411865,13.3333282470703,13.3339786529541,13.3346300125122,13.3352813720703,13.3359317779541,13.3365831375122,13.3372344970703,13.3378849029541,13.3385372161865,13.3391876220703,13.3398399353027,13.3404912948608,13.3411426544189,13.3417940139771,13.3424463272095,13.3430976867676,13.34375,13.3444013595581,13.3450536727905,13.3457050323486,13.3463573455811,13.3470096588135,13.3476619720459,13.3483142852783,13.3489665985107,13.3496189117432,13.3502712249756,13.350923538208,13.3515768051147,13.3522291183472,13.3528823852539,13.3535346984863,13.3541879653931,13.3548402786255,13.3554935455322,13.356146812439,13.3567991256714,13.3574523925781,13.3581056594849,13.3587589263916,13.3594121932983,13.3600654602051,13.3607196807861,13.3613729476929,13.3620262145996,13.3626804351807,13.3633337020874,13.3639879226685,13.3646411895752,13.3652954101562,13.365948677063,13.3666038513184,13.3672571182251,13.3679122924805,13.3685665130615,13.3692207336426,13.3698749542236,13.3705291748047,13.3711833953857,13.3718385696411,13.3724927902222,13.3731470108032,13.3738021850586,13.3744564056396,13.375111579895,13.3757667541504,13.3764219284058,13.3770771026611,13.3777322769165,13.3783874511719,13.3790435791016,13.3796987533569,13.380352973938,13.3810091018677,13.381664276123,13.3823204040527,13.3829755783081,13.3836307525635,13.3842868804932,13.3849430084229,13.3855991363525,13.3862552642822,13.3869113922119,13.3875675201416,13.3882236480713,13.388879776001,13.3895359039307,13.3901920318604,13.3908491134644,13.391505241394,13.392162322998,13.3928184509277,13.3934755325317,13.3941316604614,13.3947887420654,13.3954458236694,13.3961029052734,13.3967590332031,13.3974161148071,13.3980741500854,13.3987312316895,13.3993883132935,13.4000453948975,13.4007024765015,13.4013605117798,13.4020175933838,13.4026756286621,13.4033336639404,13.4039907455444,13.4046487808228,13.4053068161011,13.4059648513794,13.4066228866577,13.4072799682617,13.4079389572144,13.4085969924927,13.409255027771,13.4099130630493,13.4105710983276,13.4112300872803,13.4118890762329,13.4125471115112,13.4132061004639,13.4138641357422,13.4145231246948,13.4151821136475,13.4158411026001,13.4165000915527,13.4171590805054,13.417818069458,13.4184770584106,13.4191360473633,13.4197959899902,13.4204549789429,13.4211139678955,13.4217739105225,13.4224338531494,13.4230928421021,13.423752784729,13.424412727356,13.4250717163086,13.4257316589355,13.4263916015625,13.4270515441895,13.4277114868164,13.4283723831177,13.4290323257446,13.4296932220459,13.4303522109985,13.4310131072998,13.4316740036011,13.432333946228,13.4329948425293,13.4336557388306,13.4343156814575,13.4349765777588,13.4356374740601,13.4362983703613,13.4369592666626,13.4376201629639,13.4382810592651,13.4389429092407,13.439603805542,13.4402647018433,13.4409265518188,13.4415874481201,13.4422492980957,13.442910194397,13.4435720443726,13.4442338943481,13.4448957443237,13.4455575942993,13.4462203979492,13.4468822479248,13.4475440979004,13.4482049942017,13.4488677978516,13.4495306015015,13.4501914978027,13.4508543014526,13.4515171051025,13.4521799087524,13.452841758728,13.4535045623779,13.4541673660278,13.4548301696777,13.4554929733276,13.4561557769775,13.4568185806274,13.4574813842773,13.4581441879272,13.4588079452515,13.4594707489014,13.4601345062256,13.4607973098755,13.4614601135254,13.4621238708496,13.4627876281738,13.463451385498,13.4641151428223,13.4647789001465,13.4654426574707,13.4661064147949,13.4667701721191,13.4674339294434,13.4680976867676,13.4687614440918,13.4694261550903,13.4700899124146,13.4707546234131,13.4714193344116,13.4720830917358,13.4727478027344,13.4734125137329,13.4740772247314,13.47474193573,13.4754066467285,13.4760713577271,13.4767360687256,13.4774007797241,13.478066444397,13.4787311553955,13.479395866394,13.4800615310669,13.4807271957397,13.4813919067383
13.1207056045532,13.1213359832764,13.1219663619995,13.1225967407227,13.1232271194458,13.1238574981689,13.1244878768921,13.1251182556152,13.1257495880127,13.1263799667358,13.1270112991333,13.1276416778564,13.1282730102539,13.1289033889771,13.1295347213745,13.130166053772,13.1307973861694,13.1314277648926,13.1320600509644,13.1326913833618,13.133321762085,13.1339540481567,13.1345863342285,13.135217666626,13.1358489990234,13.1364812850952,13.1371126174927,13.1377449035645,13.1383762359619,13.1390085220337,13.1396398544312,13.1402721405029,13.1409044265747,13.1415367126465,13.1421689987183,13.14280128479,13.1434335708618,13.1440668106079,13.1446990966797,13.1453313827515,13.1459636688232,13.1465969085693,13.1472291946411,13.1478624343872,13.148494720459,13.1491279602051,13.1497611999512,13.1503944396973,13.151026725769,13.1516609191895,13.1522941589355,13.1529264450073,13.1535606384277,13.1541938781738,13.1548271179199,13.1554613113403,13.1560945510864,13.1567277908325,13.1573619842529,13.157995223999,13.1586294174194,13.1592636108398,13.1598978042603,13.1605319976807,13.1611661911011,13.1618003845215,13.1624345779419,13.163067817688,13.1637029647827,13.1643371582031,13.1649713516235,13.1656064987183,13.1662406921387,13.1668758392334,13.1675100326538,13.1681451797485,13.1687793731689,13.1694145202637,13.1700496673584,13.1706848144531,13.1713199615479,13.1719551086426,13.1725902557373,13.173225402832,13.1738605499268,13.1744956970215,13.1751308441162,13.1757669448853,13.1764030456543,13.177038192749,13.1776742935181,13.1783094406128,13.1789455413818,13.1795816421509,13.1802167892456,13.180853843689,13.1814889907837,13.1821250915527,13.1827611923218,13.1833972930908,13.1840343475342,13.1846704483032,13.1853065490723,13.1859436035156,13.186580657959,13.187216758728,13.1878538131714,13.1884899139404,13.1891269683838,13.1897640228271,13.1904010772705,13.1910371780396,13.1916742324829,13.1923122406006,13.1929492950439,13.1935863494873,13.1942234039307,13.1948614120483,13.1954984664917,13.1961355209351,13.1967735290527,13.1974105834961,13.1980485916138,13.1986865997314,13.1993236541748,13.1999616622925,13.2005996704102,13.2012376785278,13.2018756866455,13.2025136947632,13.2031517028809,13.2037906646729,13.2044286727905,13.2050666809082,13.2057056427002,13.2063436508179,13.2069826126099,13.2076215744019,13.2082595825195,13.2088985443115,13.2095365524292,13.2101764678955,13.2108154296875,13.2114543914795,13.2120933532715,13.2127323150635,13.2133712768555,13.2140102386475,13.2146492004395,13.2152891159058,13.2159280776978,13.2165679931641,13.2172069549561,13.2178468704224,13.2184867858887,13.219126701355,13.2197666168213,13.2204065322876,13.2210454940796,13.2216863632202,13.2223253250122,13.2229652404785,13.2236061096191,13.2242460250854,13.2248859405518,13.2255268096924,13.2261667251587,13.2268075942993,13.2274475097656,13.2280883789062,13.2287292480469,13.2293701171875,13.2300109863281,13.2306518554688,13.2312927246094,13.23193359375,13.2325744628906,13.2332153320312,13.2338562011719,13.2344970703125,13.2351388931274,13.2357807159424,13.236421585083,13.2370634078979,13.2377042770386,13.2383460998535,13.2389879226685,13.2396297454834,13.2402715682983,13.240912437439,13.2415552139282,13.2421970367432,13.2428388595581,13.2434816360474,13.2441234588623,13.2447652816772,13.2454080581665,13.2460498809814,13.2466926574707,13.2473344802856,13.2479772567749,13.2486190795898,13.2492628097534,13.2499046325684,13.2505474090576,13.2511901855469,13.2518329620361,13.2524766921997,13.253119468689,13.2537622451782,13.2544059753418,13.2550487518311,13.2556915283203,13.2563352584839,13.2569789886475,13.2576217651367,13.2582654953003,13.2589092254639,13.2595529556274,13.260196685791,13.2608404159546,13.2614841461182,13.2621278762817,13.2627716064453,13.2634162902832,13.2640600204468,13.2647037506104,13.2653484344482,13.2659921646118,13.2666368484497,13.2672815322876,13.2679252624512,13.2685699462891,13.269214630127,13.2698593139648,13.2705039978027,13.2711486816406,13.2717933654785,13.2724380493164,13.2730827331543,13.2737283706665,13.2743730545044,13.2750186920166,13.2756633758545,13.2763090133667,13.2769546508789,13.2776002883911,13.278244972229,13.2788906097412,13.2795362472534,13.2801818847656,13.2808275222778,13.28147315979,13.2821187973022,13.2827644348145,13.2834100723267,13.2840566635132,13.2847023010254,13.2853488922119,13.2859945297241,13.286642074585,13.2872877120972,13.2879343032837,13.2885799407959,13.2892265319824,13.2898740768433,13.2905197143555,13.2911672592163,13.2918138504028,13.2924604415894,13.2931070327759,13.2937545776367,13.2944011688232,13.2950487136841,13.2956953048706,13.2963428497314,13.2969903945923,13.2976369857788,13.2982845306396,13.2989320755005,13.2995796203613,13.3002271652222,13.300874710083,13.3015222549438,13.302170753479,13.3028182983398,13.303466796875,13.3041143417358,13.3047618865967,13.3054103851318,13.3060579299927,13.3067064285278,13.307354927063,13.3080034255981,13.308650970459,13.3093004226685,13.3099479675293,13.3105964660645,13.3112459182739,13.3118944168091,13.3125438690186,13.3131923675537,13.3138408660889,13.3144903182983,13.3151388168335,13.315788269043,13.3164377212524,13.3170862197876,13.3177356719971,13.3183851242065,13.319034576416,13.3196840286255,13.320333480835,13.3209829330444,13.3216333389282,13.3222827911377,13.3229322433472,13.323582649231,13.3242321014404,13.3248815536499,13.3255319595337,13.3261823654175,13.326831817627,13.3274822235107,13.3281326293945,13.3287839889526,13.3294334411621,13.3300838470459,13.330735206604,13.3313856124878,13.3320360183716,13.3326864242554,13.3333368301392,13.3339881896973,13.3346395492554,13.3352899551392,13.3359413146973,13.3365917205811,13.3372440338135,13.3378953933716,13.3385467529297,13.3391981124878,13.3398494720459,13.340500831604,13.3411521911621,13.3418035507202,13.3424558639526,13.3431072235107,13.3437585830688,13.3444108963013,13.3450622558594,13.3457145690918,13.3463668823242,13.3470191955566,13.3476715087891,13.3483238220215,13.3489761352539,13.3496284484863,13.3502807617188,13.3509330749512,13.3515853881836,13.3522386550903,13.3528909683228,13.3535442352295,13.3541975021362,13.3548498153687,13.3555030822754,13.3561553955078,13.3568086624146,13.3574619293213,13.358115196228,13.3587684631348,13.3594217300415,13.3600749969482,13.360728263855,13.361382484436,13.3620357513428,13.3626899719238,13.3633432388306,13.3639974594116,13.3646516799927,13.3653049468994,13.3659591674805,13.3666133880615,13.3672676086426,13.3679218292236,13.3685750961304,13.3692302703857,13.3698844909668,13.3705387115479,13.3711929321289,13.3718481063843,13.3725023269653,13.3731575012207,13.3738117218018,13.3744668960571,13.3751211166382,13.3757762908936,13.3764314651489,13.3770866394043,13.3777418136597,13.378396987915,13.3790521621704,13.3797073364258,13.3803625106812,13.3810186386108
13.0256118774414,13.0262336730957,13.0268545150757,13.0274753570557,13.02809715271,13.0287179946899,13.0293397903442,13.0299615859985,13.0305824279785,13.0312051773071,13.0318260192871,13.0324487686157,13.03307056427,13.03369140625,13.0343141555786,13.0349359512329,13.0355577468872,13.0361795425415,13.0368022918701,13.0374240875244,13.038046836853,13.0386686325073,13.0392913818359,13.0399141311646,13.0405368804932,13.0411586761475,13.0417823791504,13.0424041748047,13.0430269241333,13.0436496734619,13.0442724227905,13.0448961257935,13.0455188751221,13.0461416244507,13.0467653274536,13.0473880767822,13.0480117797852,13.0486345291138,13.0492582321167,13.0498819351196,13.0505046844482,13.0511283874512,13.0517520904541,13.052375793457,13.05299949646,13.0536231994629,13.0542469024658,13.0548715591431,13.055495262146,13.0561189651489,13.0567436218262,13.0573673248291,13.0579919815063,13.0586156845093,13.0592403411865,13.0598649978638,13.0604887008667,13.0611133575439,13.0617380142212,13.0623626708984,13.0629873275757,13.0636119842529,13.0642366409302,13.0648622512817,13.065486907959,13.0661115646362,13.0667371749878,13.067361831665,13.0679874420166,13.0686120986938,13.0692377090454,13.069863319397,13.0704879760742,13.0711135864258,13.0717391967773,13.0723648071289,13.0729904174805,13.073616027832,13.0742425918579,13.0748682022095,13.075493812561,13.0761194229126,13.0767450332642,13.07737159729,13.0779972076416,13.0786237716675,13.0792503356934,13.0798759460449,13.0805025100708,13.0811290740967,13.0817556381226,13.0823822021484,13.0830087661743,13.0836353302002,13.0842618942261,13.084888458252,13.0855159759521,13.0861434936523,13.0867691040039,13.0873966217041,13.08802318573,13.0886507034302,13.0892782211304,13.0899047851562,13.0905332565308,13.0911598205566,13.0917873382568,13.092414855957,13.0930423736572,13.0936698913574,13.0942974090576,13.0949258804321,13.0955533981323,13.0961809158325,13.096809387207,13.0974369049072,13.0980653762817,13.0986928939819,13.0993213653564,13.099949836731,13.1005773544312,13.10120677948,13.1018342971802,13.1024627685547,13.1030921936035,13.1037197113037,13.1043491363525,13.1049776077271,13.1056060791016,13.1062355041504,13.1068639755249,13.1074934005737,13.1081218719482,13.1087512969971,13.1093797683716,13.1100091934204,13.1106376647949,13.1112680435181,13.1118974685669,13.1125268936157,13.1131563186646,13.1137857437134,13.1144151687622,13.1150455474854,13.1156740188599,13.116304397583,13.1169347763062,13.117564201355,13.1181936264038,13.118824005127,13.1194543838501,13.1200838088989,13.1207141876221,13.1213445663452,13.1219758987427,13.1226053237915,13.1232357025146,13.1238670349121,13.1244974136353,13.1251277923584,13.1257591247559,13.126389503479,13.1270208358765,13.1276502609253,13.1282815933228,13.1289129257202,13.1295442581177,13.1301755905151,13.1308069229126,13.1314373016357,13.1320686340332,13.1326999664307,13.1333312988281,13.1339635848999,13.1345949172974,13.1352262496948,13.1358585357666,13.1364898681641,13.1371212005615,13.1377534866333,13.1383857727051,13.1390171051025,13.1396493911743,13.1402816772461,13.1409139633179,13.1415462493896,13.1421785354614,13.1428108215332,13.143443107605,13.1440753936768,13.1447076797485,13.1453409194946,13.1459732055664,13.1466054916382,13.1472387313843,13.1478719711304,13.1485042572021,13.1491374969482,13.1497707366943,13.1504030227661,13.1510362625122,13.1516695022583,13.1523027420044,13.1529359817505,13.1535692214966,13.1542024612427,13.1548366546631,13.1554698944092,13.1561031341553,13.1567373275757,13.1573715209961,13.1580047607422,13.1586389541626,13.1592721939087,13.1599063873291,13.1605405807495,13.1611747741699,13.1618089675903,13.1624431610107,13.1630773544312,13.1637125015259,13.1643466949463,13.1649808883667,13.1656150817871,13.1662502288818,13.1668844223022,13.167519569397,13.1681547164917,13.1687889099121,13.1694231033325,13.1700582504272,13.170693397522,13.1713285446167,13.1719646453857,13.1725997924805,13.1732339859009,13.1738700866699,13.1745052337646,13.1751403808594,13.1757764816284,13.1764116287231,13.1770477294922,13.1776828765869,13.178318977356,13.1789541244507,13.1795902252197,13.1802263259888,13.1808624267578,13.1814985275269,13.1821346282959,13.1827707290649,13.183406829834,13.184042930603,13.1846799850464,13.1853160858154,13.1859521865845,13.1865892410278,13.1872253417969,13.1878623962402,13.1884994506836,13.1891355514526,13.1897735595703,13.1904096603394,13.1910467147827,13.1916837692261,13.1923208236694,13.1929578781128,13.1935949325562,13.1942329406738,13.1948699951172,13.1955070495605,13.1961450576782,13.1967830657959,13.1974201202393,13.1980581283569,13.1986951828003,13.199333190918,13.1999711990356,13.2006092071533,13.201247215271,13.2018852233887,13.2025232315063,13.203161239624,13.2037992477417,13.2044372558594,13.2050762176514,13.2057151794434,13.206353187561,13.206992149353,13.2076301574707,13.2082691192627,13.2089080810547,13.2095460891724,13.2101850509644,13.2108240127563,13.2114629745483,13.2121019363403,13.2127408981323,13.2133808135986,13.2140197753906,13.2146587371826,13.2152986526489,13.2159376144409,13.2165765762329,13.2172164916992,13.2178564071655,13.2184953689575,13.2191352844238,13.2197751998901,13.2204151153564,13.2210550308228,13.2216949462891,13.2223348617554,13.222975730896,13.223614692688,13.2242555618286,13.2248954772949,13.2255363464355,13.2261762619019,13.2268161773682,13.2274570465088,13.2280979156494,13.22873878479,13.2293796539307,13.230019569397,13.2306604385376,13.2313022613525,13.2319421768188,13.2325839996338,13.2332248687744,13.233865737915,13.2345066070557,13.2351484298706,13.2357892990112,13.2364311218262,13.2370719909668,13.2377138137817,13.2383556365967,13.2389974594116,13.2396383285522,13.2402811050415,13.2409219741821,13.2415637969971,13.2422065734863,13.2428483963013,13.2434902191162,13.2441320419312,13.2447748184204,13.2454166412354,13.2460594177246,13.2467021942139,13.2473440170288,13.2479867935181,13.248628616333,13.2492713928223,13.2499141693115,13.2505569458008,13.25119972229,13.2518424987793,13.2524862289429,13.2531290054321,13.2537717819214,13.2544145584106,13.2550582885742,13.2557020187378,13.2563447952271,13.2569875717163,13.2576313018799,13.2582750320435,13.258918762207,13.2595624923706,13.2602062225342,13.2608499526978,13.2614936828613,13.2621374130249,13.2627811431885,13.2634248733521,13.2640695571899,13.2647132873535,13.2653570175171,13.266001701355,13.2666454315186,13.2672901153564,13.2679347991943,13.2685794830322,13.2692241668701,13.269868850708,13.2705125808716,13.2711572647095,13.2718029022217,13.2724475860596,13.2730922698975,13.2737379074097,13.2743825912476,13.2750272750854,13.2756729125977,13.2763185501099,13.2769632339478,13.27760887146,13.2782545089722,13.2789001464844,13.2795448303223,13.2801914215088,13.280837059021,13.2814826965332,13.2821283340454
12.9318866729736,12.9324989318848,12.9331111907959,12.933723449707,12.9343366622925,12.9349489212036,12.9355611801147,12.9361734390259,12.936785697937,12.9373989105225,12.9380121231079,12.9386253356934,12.9392375946045,12.9398508071899,12.9404630661011,12.9410772323608,12.9416904449463,12.9423027038574,12.9429159164429,12.9435291290283,12.9441423416138,12.9447565078735,12.945369720459,12.9459838867188,12.9465970993042,12.9472103118896,12.9478244781494,12.9484386444092,12.9490518569946,12.9496660232544,12.9502792358398,12.9508934020996,12.9515075683594,12.9521217346191,12.9527359008789,12.953351020813,12.9539642333984,12.9545793533325,12.9551935195923,12.9558076858521,12.9564228057861,12.9570369720459,12.95765209198,12.9582662582397,12.9588813781738,12.9594955444336,12.9601106643677,12.9607257843018,12.9613409042358,12.9619560241699,12.962571144104,12.9631862640381,12.9638013839722,12.9644165039062,12.9650316238403,12.9656476974487,12.9662628173828,12.9668788909912,12.9674940109253,12.9681100845337,12.9687252044678,12.9693412780762,12.9699573516846,12.9705724716187,12.9711885452271,12.9718055725098,12.9724206924438,12.9730367660522,12.973653793335,12.9742698669434,12.9748859405518,12.9755020141602,12.9761180877686,12.9767351150513,12.9773511886597,12.9779682159424,12.9785852432251,12.9792013168335,12.9798183441162,12.9804344177246,12.9810514450073,12.98166847229,12.9822854995728,12.9829025268555,12.9835195541382,12.9841365814209,12.9847545623779,12.9853715896606,12.9859886169434,12.9866065979004,12.9872236251831,12.9878416061401,12.9884586334229,12.9890766143799,12.9896936416626,12.9903116226196,12.9909296035767,12.9915475845337,12.9921655654907,12.9927825927734,12.9934015274048,12.9940195083618,12.9946374893188,12.9952564239502,12.9958744049072,12.9964923858643,12.9971113204956,12.9977293014526,12.998348236084,12.998966217041,12.9995851516724,13.0002040863037,13.0008220672607,13.0014410018921,13.0020608901978,13.0026788711548,13.0032978057861,13.0039176940918,13.0045356750488,13.0051555633545,13.0057744979858,13.0063943862915,13.0070133209229,13.0076322555542,13.0082521438599,13.0088710784912,13.0094909667969,13.0101108551025,13.0107307434082,13.0113506317139,13.0119705200195,13.0125894546509,13.0132093429565,13.0138301849365,13.0144500732422,13.0150699615479,13.0156898498535,13.0163106918335,13.0169305801392,13.0175514221191,13.0181713104248,13.0187921524048,13.0194120407104,13.0200328826904,13.0206537246704,13.0212745666504,13.0218954086304,13.0225162506104,13.0231370925903,13.0237579345703,13.0243787765503,13.0249996185303,13.0256204605103,13.0262422561646,13.0268630981445,13.0274848937988,13.0281057357788,13.0287275314331,13.0293493270874,13.0299701690674,13.0305919647217,13.0312128067017,13.0318355560303,13.0324573516846,13.0330781936646,13.0337009429932,13.0343227386475,13.0349445343018,13.0355672836304,13.0361890792847,13.036810874939,13.0374336242676,13.0380554199219,13.0386781692505,13.0393009185791,13.0399227142334,13.040545463562,13.0411682128906,13.0417909622192,13.0424137115479,13.0430364608765,13.0436592102051,13.0442819595337,13.0449047088623,13.0455274581909,13.0461511611938,13.0467739105225,13.0473976135254,13.048020362854,13.0486431121826,13.0492668151855,13.0498905181885,13.0505142211914,13.0511379241943,13.0517616271973,13.0523843765259,13.0530090332031,13.0536327362061,13.054256439209,13.0548801422119,13.0555038452148,13.0561275482178,13.056752204895,13.0573759078979,13.0580005645752,13.0586252212524,13.0592489242554,13.0598735809326,13.0604982376099,13.0611228942871,13.0617475509644,13.0623722076416,13.0629968643188,13.0636205673218,13.0642461776733,13.0648708343506,13.0654954910278,13.0661201477051,13.0667457580566,13.0673704147339,13.0679960250854,13.068621635437,13.0692462921143,13.0698719024658,13.0704975128174,13.0711231231689,13.0717487335205,13.0723733901978,13.0729990005493,13.0736255645752,13.0742511749268,13.0748767852783,13.0755033493042,13.0761280059814,13.0767545700073,13.0773801803589,13.0780067443848,13.0786333084106,13.0792589187622,13.0798854827881,13.080512046814,13.0811376571655,13.0817642211914,13.0823907852173,13.0830173492432,13.0836448669434,13.0842714309692,13.0848979949951,13.085524559021,13.0861520767212,13.0867786407471,13.0874061584473,13.0880327224731,13.0886602401733,13.0892868041992,13.0899143218994,13.0905418395996,13.0911684036255,13.091796875,13.0924243927002,13.0930519104004,13.0936794281006,13.0943069458008,13.094934463501,13.0955629348755,13.0961894989014,13.0968179702759,13.0974464416504,13.0980739593506,13.0987024307251,13.0993309020996,13.0999584197998,13.1005868911743,13.1012153625488,13.1018438339233,13.1024723052979,13.1031007766724,13.1037292480469,13.1043586730957,13.1049861907959,13.1056146621704,13.1062440872192,13.1068725585938,13.1075019836426,13.1081314086914,13.1087598800659,13.1093893051147,13.1100177764893,13.1106472015381,13.1112775802612,13.1119060516357,13.1125354766846,13.1131649017334,13.1137943267822,13.1144247055054,13.1150541305542,13.115683555603,13.1163139343262,13.116943359375,13.1175737380981,13.1182041168213,13.1188335418701,13.1194639205933,13.1200933456421,13.1207237243652,13.1213541030884,13.1219844818115,13.1226148605347,13.1232452392578,13.123875617981,13.1245069503784,13.1251373291016,13.1257677078247,13.1263990402222,13.1270294189453,13.1276597976685,13.1282911300659,13.1289224624634,13.1295528411865,13.130184173584,13.1308155059814,13.1314468383789,13.1320781707764,13.1327095031738,13.1333408355713,13.1339721679688,13.1346035003662,13.135235786438,13.1358671188354,13.1364984512329,13.1371307373047,13.1377620697021,13.1383943557739,13.1390266418457,13.1396579742432,13.1402902603149,13.1409225463867,13.1415548324585,13.1421880722046,13.1428194046021,13.1434526443481,13.1440849304199,13.1447172164917,13.1453495025635,13.1459817886353,13.1466150283813,13.1472482681274,13.1478805541992,13.1485137939453,13.1491460800171,13.1497793197632,13.1504125595093,13.1510457992554,13.1516790390015,13.1523122787476,13.1529455184937,13.1535787582397,13.1542119979858,13.1548452377319,13.1554794311523,13.1561126708984,13.1567468643188,13.1573801040649,13.1580142974854,13.1586484909058,13.1592826843262,13.1599159240723,13.1605501174927,13.1611843109131,13.1618185043335,13.1624526977539,13.1630868911743,13.1637210845947,13.1643552780151,13.1649904251099,13.1656246185303,13.166259765625,13.1668939590454,13.1675281524658,13.1681632995605,13.1687984466553,13.1694326400757,13.1700677871704,13.1707029342651,13.1713380813599,13.1719732284546,13.1726083755493,13.173243522644,13.1738786697388,13.1745147705078,13.1751499176025,13.1757860183716,13.1764211654663,0,0,0,0,0,0,0,0,0,0,0,0,0
12.8395004272461,12.8401041030884,12.8407077789307,12.8413114547729,12.8419151306152,12.8425188064575,12.8431224822998,12.8437261581421,12.8443307876587,12.844934463501,12.8455390930176,12.8461427688599,12.8467464447021,12.8473510742188,12.8479557037354,12.8485593795776,12.8491640090942,12.8497686386108,12.8503732681274,12.850977897644,12.8515825271606,12.8521871566772,12.8527917861938,12.8533964157104,12.8540019989014,12.854606628418,12.8552112579346,12.8558168411255,12.8564214706421,12.857027053833,12.8576316833496,12.8582363128662,12.8588418960571,12.859447479248,12.860053062439,12.8606586456299,12.8612642288208,12.8618698120117,12.8624753952026,12.8630809783936,12.8636865615845,12.8642930984497,12.8648986816406,12.8655042648315,12.8661108016968,12.8667163848877,12.8673229217529,12.8679294586182,12.8685350418091,12.8691415786743,12.8697471618652,12.8703546524048,12.87096118927,12.8715667724609,12.8721733093262,12.8727798461914,12.873387336731,12.8739938735962,12.8746004104614,12.8752069473267,12.8758144378662,12.8764219284058,12.877028465271,12.8776359558105,12.8782424926758,12.8788499832153,12.8794574737549,12.8800640106201,12.8806715011597,12.8812789916992,12.8818864822388,12.8824939727783,12.8831014633179,12.8837089538574,12.8843173980713,12.8849248886108,12.8855323791504,12.8861408233643,12.8867483139038,12.8873558044434,12.8879642486572,12.8885726928711,12.889181137085,12.8897886276245,12.8903970718384,12.8910055160522,12.8916139602661,12.89222240448,12.8928308486938,12.8934392929077,12.8940486907959,12.8946571350098,12.8952655792236,12.8958740234375,12.8964834213257,12.8970918655396,12.8977012634277,12.8983097076416,12.8989191055298,12.899528503418,12.9001379013062,12.9007472991943,12.9013557434082,12.9019660949707,12.9025745391846,12.9031839370728,12.9037942886353,12.9044036865234,12.9050130844116,12.9056234359741,12.9062328338623,12.9068422317505,12.907452583313,12.9080629348755,12.9086723327637,12.9092826843262,12.9098930358887,12.9105033874512,12.9111127853394,12.9117231369019,12.9123334884644,12.9129438400269,12.9135541915894,12.9141654968262,12.9147758483887,12.9153861999512,12.915997505188,12.9166078567505,12.9172191619873,12.9178295135498,12.9184398651123,12.9190511703491,12.9196624755859,12.9202737808228,12.9208850860596,12.9214954376221,12.9221067428589,12.92271900177,12.9233303070068,12.9239416122437,12.9245529174805,12.9251642227173,12.9257764816284,12.9263877868652,12.9269990921021,12.9276113510132,12.9282236099243,12.9288349151611,12.9294471740723,12.9300584793091,12.9306707382202,12.9312839508057,12.9318952560425,12.9325075149536,12.9331197738647,12.9337329864502,12.9343452453613,12.9349575042725,12.9355697631836,12.936182975769,12.9367952346802,12.9374084472656,12.9380207061768,12.9386329650879,12.9392461776733,12.9398593902588,12.9404726028442,12.9410858154297,12.9416990280151,12.9423122406006,12.942925453186,12.9435386657715,12.9441518783569,12.9447650909424,12.9453783035278,12.9459924697876,12.946605682373,12.9472198486328,12.9478330612183,12.948447227478,12.9490604400635,12.9496746063232,12.950288772583,12.9509029388428,12.9515171051025,12.9521312713623,12.9527454376221,12.9533596038818,12.9539737701416,12.9545879364014,12.9552021026611,12.9558162689209,12.956431388855,12.9570455551147,12.9576606750488,12.9582748413086,12.9588899612427,12.9595050811768,12.9601192474365,12.9607343673706,12.9613494873047,12.9619646072388,12.9625797271729,12.9631948471069,12.963809967041,12.9644260406494,12.9650411605835,12.9656562805176,12.966272354126,12.9668874740601,12.9675035476685,12.9681186676025,12.9687337875366,12.969349861145,12.9699659347534,12.9705820083618,12.9711980819702,12.9718132019043,12.972430229187,12.9730463027954,12.9736623764038,12.9742784500122,12.9748945236206,12.975510597229,12.9761276245117,12.9767436981201,12.9773607254028,12.9779767990112,12.9785938262939,12.9792108535767,12.9798269271851,12.9804439544678,12.9810609817505,12.9816780090332,12.9822950363159,12.9829120635986,12.9835290908813,12.9841461181641,12.9847631454468,12.9853801727295,12.9859972000122,12.9866151809692,12.987232208252,12.987850189209,12.988468170166,12.9890851974487,12.9897031784058,12.9903202056885,12.9909391403198,12.9915561676025,12.9921741485596,12.9927921295166,12.9934101104736,12.9940280914307,12.994647026062,12.995265007019,12.9958829879761,12.9965019226074,12.9971199035645,12.9977378845215,12.9983568191528,12.9989757537842,12.9995937347412,13.0002126693726,13.0008316040039,13.0014505386353,13.0020685195923,13.0026874542236,13.0033073425293,13.0039262771606,13.004545211792,13.0051651000977,13.0057830810547,13.0064029693604,13.0070219039917,13.0076417922974,13.008261680603,13.0088806152344,13.00950050354,13.0101203918457,13.0107393264771,13.0113592147827,13.0119791030884,13.012598991394,13.0132188796997,13.0138387680054,13.014458656311,13.015079498291,13.0156993865967,13.0163192749023,13.0169401168823,13.017560005188,13.018180847168,13.0188007354736,13.0194215774536,13.0200424194336,13.0206623077393,13.0212831497192,13.0219039916992,13.0225248336792,13.0231456756592,13.0237665176392,13.0243873596191,13.0250082015991,13.0256299972534,13.0262508392334,13.0268716812134,13.0274934768677,13.028115272522,13.028736114502,13.0293579101562,13.0299797058105,13.0306015014648,13.0312223434448,13.0318441390991,13.0324659347534,13.0330877304077,13.0337104797363,13.0343313217163,13.0349540710449,13.0355758666992,13.0361976623535,13.0368194580078,13.0374422073364,13.038064956665,13.0386867523193,13.0393095016479,13.0399322509766,13.0405550003052,13.0411767959595,13.0417995452881,13.0424222946167,13.0430450439453,13.0436677932739,13.0442905426025,13.0449132919312,13.0455369949341,13.0461597442627,13.0467834472656,13.0474061965942,13.0480289459229,13.0486526489258,13.0492763519287,13.0498991012573,13.0505228042603,13.0511465072632,13.0517702102661,13.052393913269,13.053017616272,13.0536413192749,13.0542659759521,13.0548887252808,13.055513381958,13.0561370849609,13.0567607879639,0,0,0,0,0,0,0,0,0,0,0,0,0,0,0,0,0,0,0,0,0,0,0,0,0,0,0,0,0,0,0,0,0,0,0,0,0,0,0,0,0,0,0,0,0,0,0,0,0,0,0
12.7484254837036,12.7490205764771,12.7496147155762,12.7502107620239,12.7508058547974,12.7514009475708,12.7519960403442,12.7525911331177,12.7531871795654,12.7537822723389,12.7543773651123,12.7549734115601,12.7555694580078,12.7561645507812,12.756760597229,12.7573566436768,12.7579517364502,12.7585477828979,12.75914478302,12.7597398757935,12.7603359222412,12.760931968689,12.7615280151367,12.7621250152588,12.7627210617065,12.7633171081543,12.7639141082764,12.7645101547241,12.7651071548462,12.7657032012939,12.7662992477417,12.7668962478638,12.7674932479858,12.7680902481079,12.76868724823,12.7692832946777,12.7698812484741,12.7704782485962,12.7710752487183,12.7716722488403,12.7722692489624,12.7728662490845,12.7734642028809,12.7740612030029,12.774658203125,12.7752561569214,12.7758531570435,12.7764511108398,12.7770490646362,12.7776460647583,12.7782440185547,12.7788419723511,12.7794399261475,12.7800378799438,12.7806358337402,12.7812337875366,12.781831741333,12.7824296951294,12.7830276489258,12.7836265563965,12.7842254638672,12.7848234176636,12.78542137146,12.7860193252563,12.7866191864014,12.7872171401978,12.7878160476685,12.7884140014648,12.7890129089355,12.7896118164062,12.790210723877,12.7908096313477,12.7914085388184,12.7920074462891,12.7926073074341,12.7932062149048,12.7938051223755,12.7944049835205,12.7950038909912,12.7956027984619,12.7962026596069,12.7968015670776,12.7974014282227,12.7980012893677,12.7986001968384,12.7992000579834,12.7998008728027,12.8003997802734,12.8010005950928,12.8016004562378,12.8022003173828,12.8028001785278,12.8034000396729,12.8039999008179,12.8046007156372,12.8052005767822,12.8058004379272,12.8064012527466,12.8070011138916,12.8076028823853,12.8082036972046,12.8088035583496,12.8094043731689,12.8100051879883,12.8106060028076,12.811206817627,12.8118076324463,12.8124084472656,12.813009262085,12.8136100769043,12.8142118453979,12.8148126602173,12.8154134750366,12.8160152435303,12.8166160583496,12.8172178268433,12.8178195953369,12.8184204101562,12.8190231323242,12.8196239471436,12.8202257156372,12.8208274841309,12.8214292526245,12.8220310211182,12.8226327896118,12.8232345581055,12.8238372802734,12.8244390487671,12.8250417709351,12.8256435394287,12.8262453079224,12.8268480300903,12.8274507522583,12.828052520752,12.8286552429199,12.8292579650879,12.8298606872559,12.8304634094238,12.8310661315918,12.8316688537598,12.8322715759277,12.8328742980957,12.8334770202637,12.834080696106,12.8346834182739,12.8352861404419,12.8358898162842,12.8364925384521,12.8370952606201,12.8376989364624,12.8383026123047,12.838906288147,12.8395090103149,12.8401126861572,12.8407163619995,12.8413200378418,12.8419237136841,12.8425273895264,12.843132019043,12.8437356948853,12.8443393707275,12.8449430465698,12.8455476760864,12.8461513519287,12.8467559814453,12.8473596572876,12.8479642868042,12.8485689163208,12.8491725921631,12.8497772216797,12.8503818511963,12.8509864807129,12.8515911102295,12.8521957397461,12.8528003692627,12.8534049987793,12.8540105819702,12.8546152114868,12.8552207946777,12.8558254241943,12.8564300537109,12.8570356369019,12.8576412200928,12.8582458496094,12.8588514328003,12.8594560623169,12.8600616455078,12.8606672286987,12.8612728118896,12.8618783950806,12.8624839782715,12.8630895614624,12.8636960983276,12.8643016815186,12.8649072647095,12.8655138015747,12.8661193847656,12.8667259216309,12.8673315048218,12.8679370880127,12.8685436248779,12.8691501617432,12.8697557449341,12.8703632354736,12.8709688186646,12.8715763092041,12.8721828460693,12.8727884292603,12.8733959197998,12.874002456665,12.8746089935303,12.8752164840698,12.8758230209351,12.8764305114746,12.8770370483398,12.8776435852051,12.8782510757446,12.8788585662842,12.8794660568237,12.880072593689,12.8806800842285,12.8812875747681,12.8818950653076,12.8825025558472,12.8831100463867,12.8837184906006,12.8843250274658,12.8849334716797,12.8855409622192,12.8861494064331,12.8867568969727,12.8873653411865,12.8879728317261,12.8885812759399,12.8891887664795,12.8897981643677,12.8904056549072,12.8910140991211,12.891622543335,12.8922309875488,12.8928394317627,12.8934478759766,12.8940563201904,12.8946657180786,12.8952741622925,12.8958835601807,12.8964920043945,12.8971014022827,12.8977098464966,12.8983182907104,12.8989276885986,12.8995370864868,12.900146484375,12.9007558822632,12.9013643264771,12.9019746780396,12.9025840759277,12.9031934738159,12.9038028717041,12.9044122695923,12.9050226211548,12.905632019043,12.9062414169312,12.9068517684937,12.9074611663818,12.90807056427,12.9086818695068,12.909291267395,12.9099016189575,12.91051197052,12.9111223220825,12.9117317199707,12.9123430252075,12.91295337677,12.9135637283325,12.914174079895,12.9147844314575,12.9153957366943,12.9160060882568,12.9166164398193,12.9172277450562,12.9178380966187,12.9184484481812,12.9190607070923,12.9196710586548,12.9202823638916,12.9208936691284,12.9215049743652,12.9221162796021,12.9227266311646,12.9233388900757,12.9239501953125,12.9245615005493,12.9251737594604,12.9257850646973,12.9263963699341,12.9270086288452,12.927619934082,12.9282321929932,12.9288444519043,12.9294557571411,12.9300680160522,12.9306802749634,12.9312925338745,12.9319038391113,12.9325170516968,12.9331283569336,12.933741569519,12.9343528747559,12.9349660873413,12.9355792999268,12.9361915588379,12.936803817749,12.9374170303345,12.9380292892456,12.9386425018311,12.9392557144165,12.9398679733276,12.9404811859131,12.9410943984985,12.941707611084,0,0,0,0,0,0,0,0,0,0,0,0,0,0,0,0,0,0,0,0,0,0,0,0,0,0,0,0,0,0,0,0,0,0,0,0,0,0,0,0,0,0,0,0,0,0,0,0,0,0,0,0,0,0,0,0,0,0,0,0,0,0,0,0,0,0,0,0,0,0,0,0,0,0,0,0,0,0,0,0,0,0,0,0,0
12.6586322784424,12.6592197418213,12.6598062515259,12.6603927612305,12.6609802246094,12.661566734314,12.6621532440186,12.6627407073975,12.6633281707764,12.663914680481,12.6645021438599,12.6650886535645,12.6656761169434,12.6662635803223,12.6668510437012,12.6674385070801,12.668025970459,12.6686134338379,12.6692008972168,12.6697883605957,12.6703767776489,12.6709642410278,12.6715517044067,12.67214012146,12.6727275848389,12.6733160018921,12.673903465271,12.6744918823242,12.6750802993774,12.6756677627563,12.6762561798096,12.6768445968628,12.677433013916,12.6780214309692,12.6786098480225,12.6791982650757,12.6797866821289,12.6803760528564,12.6809644699097,12.6815528869629,12.6821422576904,12.6827306747437,12.6833200454712,12.6839084625244,12.6844968795776,12.6850862503052,12.6856756210327,12.6862649917603,12.6868543624878,12.6874437332153,12.6880331039429,12.6886224746704,12.6892118453979,12.6898012161255,12.690390586853,12.6909799575806,12.6915702819824,12.69215965271,12.6927490234375,12.6933393478394,12.6939296722412,12.6945190429688,12.6951093673706,12.6956987380981,12.6962890625,12.6968793869019,12.6974697113037,12.6980600357056,12.6986503601074,12.6992406845093,12.6998310089111,12.700421333313,12.7010116577148,12.701602935791,12.7021932601929,12.7027835845947,12.7033748626709,12.7039651870728,12.7045564651489,12.7051477432251,12.705738067627,12.7063293457031,12.706919670105,12.7075109481812,12.7081031799316,12.7086935043335,12.709285736084,12.7098770141602,12.7104682922363,12.7110595703125,12.7116508483887,12.7122421264648,12.7128343582153,12.7134256362915,12.714017868042,12.7146100997925,12.7152013778687,12.7157926559448,12.7163858413696,12.7169771194458,12.7175693511963,12.7181615829468,12.7187538146973,12.7193460464478,12.7199382781982,12.7205305099487,12.7211227416992,12.7217149734497,12.7223081588745,12.722900390625,12.7234926223755,12.7240858078003,12.7246789932251,12.7252721786499,12.7258644104004,12.7264575958252,12.7270498275757,12.7276430130005,12.7282361984253,12.7288293838501,12.7294225692749,12.7300157546997,12.7306089401245,12.7312021255493,12.7317953109741,12.7323904037476,12.732982635498,12.7335767745972,12.734169960022,12.7347640991211,12.7353572845459,12.735951423645,12.7365455627441,12.7371387481689,12.7377328872681,12.7383270263672,12.7389211654663,12.7395153045654,12.7401094436646,12.7407035827637,12.7412977218628,12.7418928146362,12.7424869537354,12.7430810928345,12.7436761856079,12.744270324707,12.7448654174805,12.7454595565796,12.7460536956787,12.7466487884521,12.7472438812256,12.747838973999,12.7484340667725,12.7490291595459,12.7496242523193,12.7502193450928,12.7508144378662,12.7514095306396,12.7520046234131,12.7525997161865,12.7531957626343,12.7537908554077,12.7543859481812,12.7549819946289,12.7555780410767,12.7561731338501,12.7567691802979,12.7573652267456,12.757960319519,12.7585573196411,12.7591524124146,12.7597484588623,12.7603445053101,12.7609405517578,12.7615365982056,12.7621326446533,12.7627296447754,12.7633256912231,12.7639226913452,12.764518737793,12.765115737915,12.7657117843628,12.7663087844849,12.7669048309326,12.7675018310547,12.7680988311768,12.7686958312988,12.7692928314209,12.769889831543,12.7704858779907,12.7710828781128,12.7716808319092,12.7722778320312,12.7728757858276,12.7734727859497,12.7740697860718,12.7746677398682,12.7752647399902,12.7758617401123,12.7764596939087,12.7770576477051,12.7776546478271,12.7782526016235,12.7788505554199,12.7794485092163,12.7800464630127,12.7806444168091,12.7812423706055,12.7818403244019,12.7824382781982,12.7830371856689,12.783634185791,12.7842330932617,12.7848320007324,12.7854299545288,12.7860279083252,12.7866268157959,12.7872257232666,12.7878246307373,12.788423538208,12.7890214920044,12.7896203994751,12.7902193069458,12.7908182144165,12.7914171218872,12.7920160293579,12.7926149368286,12.7932147979736,12.7938137054443,12.7944135665894,12.7950124740601,12.7956113815308,12.7962112426758,12.7968101501465,12.7974109649658,12.7980098724365,12.7986097335815,12.7992095947266,12.7998085021973,12.8004083633423,12.8010082244873,12.8016080856323,12.8022089004517,12.8028087615967,12.8034086227417,12.804009437561,12.8046083450317,12.8052091598511,12.8058099746704,12.8064098358154,12.8070106506348,12.8076114654541,12.8082113265991,12.8088121414185,12.8094129562378,12.8100137710571,12.8106145858765,12.8112154006958,12.8118162155151,12.8124170303345,12.8130178451538,12.8136186599731,12.8142204284668,12.8148212432861,12.8154220581055,12.8160238265991,12.8166255950928,12.8172264099121,12.8178272247314,12.8184289932251,12.8190317153931,12.8196325302124,12.8202342987061,12.820837020874,12.8214378356934,12.822039604187,12.8226413726807,12.8232440948486,12.8238458633423,12.8244476318359,12.8250503540039,12.8256521224976,12.8262538909912,12.8268566131592,12.8274593353271,12.8280611038208,12.8286638259888,0,0,0,0,0,0,0,0,0,0,0,0,0,0,0,0,0,0,0,0,0,0,0,0,0,0,0,0,0,0,0,0,0,0,0,0,0,0,0,0,0,0,0,0,0,0,0,0,0,0,0,0,0,0,0,0,0,0,0,0,0,0,0,0,0,0,0,0,0,0,0,0,0,0,0,0,0,0,0,0,0,0,0,0,0,0,0,0,0,0,0,0,0,0,0,0,0,0,0,0,0,0,0,0,0,0,0,0,0,0,0,0,0,0,0,0,0,0,0
12.5700960159302,12.5706748962402,12.571252822876,12.571831703186,12.5724105834961,12.5729894638062,12.5735683441162,12.5741472244263,12.5747261047363,12.5753049850464,12.5758838653564,12.5764627456665,12.5770416259766,12.5776205062866,12.578200340271,12.5787792205811,12.5793581008911,12.5799379348755,12.5805168151855,12.5810966491699,12.5816764831543,12.5822563171387,12.5828351974487,12.5834150314331,12.5839948654175,12.5845746994019,12.5851545333862,12.5857343673706,12.586314201355,12.5868940353394,12.5874738693237,12.5880537033081,12.5886344909668,12.5892152786255,12.5897951126099,12.5903749465942,12.5909557342529,12.5915355682373,12.592116355896,12.5926971435547,12.5932769775391,12.5938577651978,12.5944385528564,12.5950193405151,12.5956001281738,12.5961809158325,12.5967617034912,12.5973424911499,12.5979242324829,12.5985050201416,12.5990867614746,12.599666595459,12.600248336792,12.6008291244507,12.6014108657837,12.6019926071167,12.6025733947754,12.6031551361084,12.6037368774414,12.6043186187744,12.6049003601074,12.6054811477661,12.6060628890991,12.6066455841064,12.6072273254395,12.6078090667725,12.6083908081055,12.6089725494385,12.6095552444458,12.6101369857788,12.6107187271118,12.6113014221191,12.6118841171265,12.6124658584595,12.6130485534668,12.6136312484741,12.6142129898071,12.6147956848145,12.6153783798218,12.6159610748291,12.6165437698364,12.6171264648438,12.6177101135254,12.6182918548584,12.61887550354,12.6194581985474,12.620041847229,12.6206245422363,12.621208190918,12.6217908859253,12.6223745346069,12.6229572296143,12.6235408782959,12.6241245269775,12.6247072219849,12.6252908706665,12.6258745193481,12.6264581680298,12.6270418167114,12.6276264190674,12.6282091140747,12.6287937164307,12.6293773651123,12.6299610137939,12.6305456161499,12.6311292648315,12.6317129135132,12.6322975158691,12.6328821182251,12.6334657669067,12.6340503692627,12.6346349716187,12.6352195739746,12.6358032226562,12.6363878250122,12.6369733810425,12.6375579833984,12.6381425857544,12.6387271881104,12.6393117904663,12.6398963928223,12.6404819488525,12.6410665512085,12.6416521072388,12.6422367095947,12.642822265625,12.643406867981,12.6439924240112,12.6445779800415,12.6451625823975,12.6457481384277,12.646333694458,12.6469202041626,12.6475048065186,12.6480903625488,12.6486759185791,12.6492624282837,12.649847984314,12.6504335403442,12.6510200500488,12.6516056060791,12.6521921157837,12.652777671814,12.6533632278442,12.6539497375488,12.6545362472534,12.655122756958,12.6557092666626,12.6562957763672,12.6568813323975,12.6574678421021,12.658055305481,12.6586418151855,12.6592283248901,12.6598148345947,12.6604013442993,12.6609878540039,12.6615753173828,12.6621618270874,12.6627492904663,12.6633358001709,12.6639232635498,12.6645107269287,12.6650972366333,12.6656847000122,12.6662721633911,12.66685962677,12.6674470901489,12.6680345535278,12.6686220169067,12.6692094802856,12.6697969436646,12.6703853607178,12.6709728240967,12.6715602874756,12.6721487045288,12.6727361679077,12.6733245849609,12.6739120483398,12.6745004653931,12.6750888824463,12.6756772994995,12.6762647628784,12.6768531799316,12.6774415969849,12.6780300140381,12.6786184310913,12.6792068481445,12.6797952651978,12.6803846359253,12.6809720993042,12.6815614700317,12.6821508407593,12.6827392578125,12.68332862854,12.6839170455933,12.6845064163208,12.685094833374,12.6856842041016,12.6862735748291,12.6868629455566,12.6874513626099,12.6880407333374,12.6886310577393,12.6892204284668,12.6898097991943,12.6903991699219,12.6909885406494,12.6915788650513,12.6921682357788,12.6927576065063,12.6933479309082,12.6939373016357,12.6945276260376,12.6951179504395,12.695707321167,12.6962976455688,12.6968879699707,12.6974782943726,12.6980686187744,12.6986589431763,12.6992492675781,12.69983959198,12.7004299163818,12.7010202407837,12.7016115188599,12.7022018432617,12.7027921676636,12.7033834457397,12.7039737701416,12.7045650482178,12.7051553726196,12.7057476043701,12.706337928772,12.7069292068481,12.7075204849243,12.7081108093262,12.7087030410767,12.7092933654785,12.709885597229,12.7104759216309,12.7110681533813,12.7116594314575,12.712251663208,12.7128429412842,12.7134342193604,12.7140264511108,12.714617729187,12.7152099609375,12.715802192688,12.7163934707642,12.7169857025146,12.7175779342651,12.7181701660156,12.7187623977661,12.7193546295166,12.7199468612671,12.7205390930176,12.7211313247681,0,0,0,0,0,0,0,0,0,0,0,0,0,0,0,0,0,0,0,0,0,0,0,0,0,0,0,0,0,0,0,0,0,0,0,0,0,0,0,0,0,0,0,0,0,0,0,0,0,0,0,0,0,0,0,0,0,0,0,0,0,0,0,0,0,0,0,0,0,0,0,0,0,0,0,0,0,0,0,0,0,0,0,0,0,0,0,0,0,0,0,0,0,0,0,0,0,0,0,0,0,0,0,0,0,0,0,0,0,0,0,0,0,0,0,0,0,0,0,0,0,0,0,0,0,0,0,0,0,0,0,0,0,0,0,0,0,0,0,0,0,0,0,0,0,0,0
12.4827899932861,12.4833602905273,12.4839305877686,12.4845018386841,12.4850721359253,12.4856424331665,12.486213684082,12.4867849349976,12.4873552322388,12.4879264831543,12.4884967803955,12.489068031311,12.4896392822266,12.4902105331421,12.4907817840576,12.4913530349731,12.4919233322144,12.4924955368042,12.4930667877197,12.4936380386353,12.4942092895508,12.4947805404663,12.4953527450562,12.4959239959717,12.4964962005615,12.4970674514771,12.4976396560669,12.4982109069824,12.4987831115723,12.4993553161621,12.4999265670776,12.5004987716675,12.5010709762573,12.5016431808472,12.502215385437,12.5027875900269,12.5033597946167,12.5039329528809,12.5045051574707,12.5050773620605,12.5056505203247,12.5062217712402,12.5067949295044,12.5073680877686,12.5079402923584,12.5085134506226,12.5090856552124,12.5096588134766,12.5102319717407,12.5108051300049,12.5113773345947,12.5119504928589,12.512523651123,12.5130968093872,12.5136699676514,12.5142431259155,12.514817237854,12.5153903961182,12.5159635543823,12.5165376663208,12.517110824585,12.5176849365234,12.5182580947876,12.5188322067261,12.5194053649902,12.5199794769287,12.5205535888672,12.5211277008057,12.5217008590698,12.5222749710083,12.5228500366211,12.5234231948853,12.523998260498,12.5245723724365,12.525146484375,12.5257205963135,12.526294708252,12.5268697738647,12.5274438858032,12.528018951416,12.5285930633545,12.5291681289673,12.5297422409058,12.5303173065186,12.5308923721313,12.5314674377441,12.5320425033569,12.5326175689697,12.5331926345825,12.5337677001953,12.5343427658081,12.5349178314209,12.5354928970337,12.5360679626465,12.5366439819336,12.5372180938721,12.5377941131592,12.5383701324463,12.5389451980591,12.5395212173462,12.5400972366333,12.5406723022461,12.5412483215332,12.5418243408203,12.5424003601074,12.5429763793945,12.5435514450073,12.5441274642944,12.5447044372559,12.5452795028687,12.5458564758301,12.5464324951172,12.5470085144043,12.5475854873657,12.5481615066528,12.5487384796143,12.5493144989014,12.5498914718628,12.5504684448242,12.5510444641113,12.5516214370728,12.5521984100342,12.5527753829956,12.5533514022827,12.5539283752441,12.5545063018799,12.5550832748413,12.5556602478027,12.5562372207642,12.5568141937256,12.5573921203613,12.5579690933228,12.5585460662842,12.5591239929199,12.5597009658813,12.5602788925171,12.5608558654785,12.5614337921143,12.56201171875,12.5625896453857,12.5631675720215,12.5637454986572,12.564323425293,12.5649013519287,12.5654792785645,12.5660562515259,12.5666351318359,12.5672130584717,12.5677909851074,12.5683698654175,12.5689477920532,12.5695266723633,12.570104598999,12.5706834793091,12.5712623596191,12.5718402862549,12.5724191665649,12.5729970932007,12.5735759735107,12.5741548538208,12.5747337341309,12.5753126144409,12.575891494751,12.5764713287354,12.5770502090454,12.5776290893555,12.5782089233398,12.5787878036499,12.5793676376343,12.5799465179443,12.5805253982544,12.5811052322388,12.5816841125488,12.5822639465332,12.5828437805176,12.583423614502,12.5840034484863,12.5845832824707,12.5851631164551,12.5857429504395,12.5863227844238,12.5869026184082,12.5874824523926,12.588062286377,12.5886430740356,12.58922290802,12.5898027420044,12.5903835296631,12.5909633636475,12.5915441513062,12.5921249389648,12.5927047729492,12.5932865142822,12.5938663482666,12.5944471359253,12.595027923584,12.5956087112427,12.5961894989014,12.5967702865601,12.5973510742188,12.5979318618774,12.5985136032104,12.5990943908691,12.5996761322021,12.6002569198608,12.6008377075195,12.6014194488525,12.6020002365112,12.6025819778442,12.6031627655029,12.6037454605103,12.6043272018433,12.604907989502,12.605489730835,12.606071472168,12.606653213501,12.607234954834,12.6078176498413,12.6083993911743,12.6089811325073,12.6095628738403,12.6101455688477,12.6107273101807,12.611310005188,12.6118927001953,12.6124744415283,12.6130571365356,12.6136388778687,12.6142225265503,12.6148042678833,12.6153869628906,12.6159696578979,12.6165523529053,12.6171350479126,12.6177177429199,12.6183004379272,12.6188840866089,12.6194667816162,0,0,0,0,0,0,0,0,0,0,0,0,0,0,0,0,0,0,0,0,0,0,0,0,0,0,0,0,0,0,0,0,0,0,0,0,0,0,0,0,0,0,0,0,0,0,0,0,0,0,0,0,0,0,0,0,0,0,0,0,0,0,0,0,0,0,0,0,0,0,0,0,0,0,0,0,0,0,0,0,0,0,0,0,0,0,0,0,0,0,0,0,0,0,0,0,0,0,0,0,0,0,0,0,0,0,0,0,0,0,0,0,0,0,0,0,0,0,0,0,0,0,0,0,0,0,0,0,0,0,0,0,0,0,0,0,0,0,0,0,0,0,0,0,0,0,0,0,0,0,0,0,0,0,0,0,0,0,0,0,0,0,0,0,0,0,0,0
12.3966875076294,12.3972501754761,12.3978128433228,12.3983755111694,12.3989381790161,12.3995018005371,12.4000644683838,12.4006271362305,12.4011907577515,12.4017534255981,12.4023160934448,12.4028797149658,12.4034423828125,12.4040060043335,12.4045686721802,12.4051322937012,12.4056959152222,12.4062595367432,12.4068231582642,12.4073867797852,12.4079504013062,12.4085140228271,12.4090776443481,12.4096412658691,12.4102048873901,12.4107685089111,12.4113330841064,12.4118967056274,12.4124603271484,12.4130249023438,12.4135885238647,12.4141530990601,12.4147176742554,12.4152812957764,12.4158458709717,12.416410446167,12.4169750213623,12.4175395965576,12.4181041717529,12.4186687469482,12.4192333221436,12.4197978973389,12.4203624725342,12.4209270477295,12.4214916229248,12.4220571517944,12.4226226806641,12.4231863021851,12.4237518310547,12.4243173599243,12.4248819351196,12.4254474639893,12.4260120391846,12.4265775680542,12.4271430969238,12.4277086257935,12.4282741546631,12.4288396835327,12.4294052124023,12.429970741272,12.4305372238159,12.4311017990112,12.4316682815552,12.4322338104248,12.4327993392944,12.4333658218384,12.433931350708,12.434497833252,12.4350633621216,12.4356298446655,12.4361953735352,12.4367618560791,12.437328338623,12.437894821167,12.4384613037109,12.4390277862549,12.4395942687988,12.4401607513428,12.4407272338867,12.4412937164307,12.4418601989746,12.4424276351929,12.4429941177368,12.4435606002808,12.4441270828247,12.444694519043,12.4452619552612,12.4458284378052,12.4463958740234,12.4469633102417,12.4475297927856,12.4480972290039,12.4486646652222,12.4492321014404,12.4497995376587,12.450366973877,12.4509344100952,12.4515018463135,12.4520702362061,12.4526376724243,12.4532051086426,12.4537725448608,12.4543409347534,12.4549083709717,12.4554758071899,12.4560441970825,12.4566125869751,12.4571800231934,12.4577484130859,12.4583168029785,12.4588851928711,12.4594535827637,12.4600219726562,12.4605903625488,12.4611587524414,12.461727142334,12.4622955322266,12.4628648757935,12.4634323120117,12.4640016555786,12.4645700454712,12.4651393890381,12.4657077789307,12.4662771224976,12.4668455123901,12.467414855957,12.4679841995239,12.4685535430908,12.4691228866577,12.4696912765503,12.4702606201172,12.4708299636841,12.471399307251,12.4719696044922,12.4725379943848,12.4731073379517,12.4736776351929,12.4742469787598,12.4748163223267,12.4753866195679,12.4759569168091,12.476526260376,12.4770965576172,12.4776659011841,12.4782361984253,12.4788064956665,12.4793758392334,12.4799470901489,12.4805164337158,12.481086730957,12.4816570281982,12.4822273254395,12.4827976226807,12.4833688735962,12.4839391708374,12.4845094680786,12.4850797653198,12.4856510162354,12.4862222671509,12.4867925643921,12.4873638153076,12.4879341125488,12.4885053634644,12.4890766143799,12.4896478652954,12.4902181625366,12.4907894134521,12.4913606643677,12.4919319152832,12.4925031661987,12.4930744171143,12.4936466217041,12.4942178726196,12.4947891235352,12.495361328125,12.4959325790405,12.4965038299561,12.4970760345459,12.4976472854614,12.4982194900513,12.4987907409668,12.4993629455566,12.4999351501465,12.5005073547363,12.5010795593262,12.501651763916,12.5022239685059,12.5027961730957,12.5033683776855,12.5039405822754,12.5045127868652,12.5050849914551,12.5056581497192,12.5062303543091,12.5068035125732,12.5073757171631,12.5079488754272,12.5085210800171,12.5090942382812,12.5096673965454,12.5102396011353,12.5108137130737,12.5113859176636,12.5119590759277,12.5125322341919,12.5131063461304,12.5136785507202,12.5142517089844,12.5148248672485,12.515398979187,12.5159730911255,12.5165452957153,12.5171194076538,12.517692565918,12.5182666778564,12.5188407897949,12.5194139480591,12.5199871063232,12.520562171936,0,0,0,0,0,0,0,0,0,0,0,0,0,0,0,0,0,0,0,0,0,0,0,0,0,0,0,0,0,0,0,0,0,0,0,0,0,0,0,0,0,0,0,0,0,0,0,0,0,0,0,0,0,0,0,0,0,0,0,0,0,0,0,0,0,0,0,0,0,0,0,0,0,0,0,0,0,0,0,0,0,0,0,0,0,0,0,0,0,0,0,0,0,0,0,0,0,0,0,0,0,0,0,0,0,0,0,0,0,0,0,0,0,0,0,0,0,0,0,0,0,0,0,0,0,0,0,0,0,0,0,0,0,0,0,0,0,0,0,0,0,0,0,0,0,0,0,0,0,0,0,0,0,0,0,0,0,0,0,0,0,0,0,0,0,0,0,0,0,0,0,0,0,0,0,0,0,0,0,0,0,0,0,0,0,0,0
12.3117656707764,12.3123197555542,12.3128747940063,12.3134307861328,12.3139848709106,12.3145399093628,12.3150959014893,12.3156509399414,12.3162069320679,12.31676197052,12.3173170089722,12.3178730010986,12.3184280395508,12.3189830780029,12.3195390701294,12.3200950622559,12.320650100708,12.3212060928345,12.3217620849609,12.3223180770874,12.3228740692139,12.3234300613403,12.3239860534668,12.3245420455933,12.3250980377197,12.3256540298462,12.3262100219727,12.3267669677734,12.3273229598999,12.3278789520264,12.3284358978271,12.3289918899536,12.3295488357544,12.3301057815552,12.3306617736816,12.3312187194824,12.3317756652832,12.3323316574097,12.3328886032104,12.3334455490112,12.334002494812,12.3345594406128,12.3351154327393,12.3356733322144,12.3362302780151,12.3367881774902,12.337345123291,12.3379020690918,12.3384590148926,12.3390169143677,12.3395738601685,12.3401317596436,12.3406896591187,12.3412466049194,12.3418045043945,12.3423624038696,12.3429193496704,12.3434772491455,12.3440361022949,12.3445930480957,12.3451509475708,12.3457098007202,12.3462677001953,12.3468255996704,12.3473834991455,12.3479413986206,12.3484992980957,12.3490581512451,12.3496160507202,12.3501749038696,12.3507328033447,12.3512916564941,12.3518505096436,12.3524084091187,12.3529682159424,12.3535261154175,12.3540849685669,12.3546438217163,12.3552017211914,12.3557615280151,12.3563203811646,12.356879234314,12.3574380874634,12.3579969406128,12.3585567474365,12.3591156005859,12.3596744537354,12.3602342605591,12.3607931137085,12.3613529205322,12.3619117736816,12.3624715805054,12.3630313873291,12.3635911941528,12.3641500473022,12.364709854126,12.3652696609497,12.3658294677734,12.3663892745972,12.3669490814209,12.3675098419189,12.3680686950684,12.3686294555664,12.3691892623901,12.3697500228882,12.3703098297119,12.3708696365356,12.3714303970337,12.3719902038574,12.3725509643555,12.3731107711792,12.3736715316772,12.3742322921753,12.3747930526733,12.3753538131714,12.3759145736694,12.3764743804932,12.3770351409912,12.3775968551636,12.3781576156616,12.3787183761597,12.3792791366577,12.3798408508301,12.3804016113281,12.3809623718262,12.3815240859985,12.3820858001709,12.3826465606689,12.3832082748413,12.3837690353394,12.3843307495117,12.3848924636841,12.3854541778564,12.3860158920288,12.3865776062012,12.3871393203735,12.3877010345459,12.3882627487183,12.3888244628906,12.389386177063,12.3899478912354,12.390510559082,12.3910722732544,12.3916349411011,12.3921966552734,12.3927593231201,12.3933210372925,12.3938837051392,12.3944463729858,12.3950080871582,12.3955707550049,12.3961334228516,12.3966960906982,12.3972587585449,12.3978214263916,12.398383140564,12.398946762085,12.3995094299316,12.4000720977783,12.4006357192993,12.401198387146,12.4017610549927,12.4023237228394,12.4028873443604,12.4034509658813,12.4040145874023,12.404577255249,12.40514087677,12.4057035446167,12.4062671661377,12.406831741333,12.4073944091797,12.407958984375,12.4085216522217,12.4090852737427,12.409649848938,12.410213470459,12.41077709198,12.411340713501,12.4119052886963,12.4124689102173,12.4130325317383,12.4135971069336,12.4141616821289,12.4147253036499,12.4152898788452,12.4158544540405,12.4164180755615,12.4169826507568,12.4175472259521,12.4181118011475,12.4186763763428,12.4192409515381,12.4198055267334,12.4203701019287,12.4209356307983,12.4215002059937,12.4220657348633,12.4226303100586,12.4231948852539,12.4237604141235,12.4243249893188,0,0,0,0,0,0,0,0,0,0,0,0,0,0,0,0,0,0,0,0,0,0,0,0,0,0,0,0,0,0,0,0,0,0,0,0,0,0,0,0,0,0,0,0,0,0,0,0,0,0,0,0,0,0,0,0,0,0,0,0,0,0,0,0,0,0,0,0,0,0,0,0,0,0,0,0,0,0,0,0,0,0,0,0,0,0,0,0,0,0,0,0,0,0,0,0,0,0,0,0,0,0,0,0,0,0,0,0,0,0,0,0,0,0,0,0,0,0,0,0,0,0,0,0,0,0,0,0,0,0,0,0,0,0,0,0,0,0,0,0,0,0,0,0,0,0,0,0,0,0,0,0,0,0,0,0,0,0,0,0,0,0,0,0,0,0,0,0,0,0,0,0,0,0,0,0,0,0,0,0,0,0,0,0,0,0,0,0,0,0,0,0,0,0,0,0,0,0,0,0,0,0,0,0
12.2279977798462,12.2285451889038,12.2290935516357,12.2296409606934,12.230188369751,12.2307357788086,12.2312831878662,12.2318315505981,12.2323789596558,12.2329273223877,12.2334747314453,12.2340221405029,12.2345705032349,12.2351188659668,12.2356662750244,12.2362146377563,12.2367630004883,12.2373113632202,12.2378597259521,12.2384080886841,12.238956451416,12.2395048141479,12.2400531768799,12.2406015396118,12.2411499023438,12.2416982650757,12.2422475814819,12.2427959442139,12.2433443069458,12.2438936233521,12.244441986084,12.2449913024902,12.2455406188965,12.2460889816284,12.2466382980347,12.2471866607666,12.2477369308472,12.2482862472534,12.2488346099854,12.2493839263916,12.2499332427979,12.2504835128784,12.2510328292847,12.2515821456909,12.2521314620972,12.2526817321777,12.2532300949097,12.2537803649902,12.2543296813965,12.2548799514771,12.2554292678833,12.2559795379639,12.2565298080444,12.2570791244507,12.2576293945312,12.2581796646118,12.2587299346924,12.2592802047729,12.2598304748535,12.2603807449341,12.2609310150146,12.2614812850952,12.2620315551758,12.2625818252563,12.2631330490112,12.2636833190918,12.2642335891724,12.2647857666016,12.2653350830078,12.2658863067627,12.2664365768433,12.2669878005981,12.267539024353,12.2680902481079,12.2686405181885,12.2691917419434,12.2697429656982,12.2702941894531,12.2708463668823,12.2713966369629,12.2719478607178,12.2724990844727,12.2730512619019,12.2736024856567,12.2741537094116,12.2747049331665,12.2752571105957,12.2758083343506,12.2763605117798,12.2769117355347,12.2774639129639,12.2780160903931,12.2785673141479,12.2791194915771,12.2796716690063,12.2802238464355,12.2807760238647,12.2813282012939,12.2818794250488,12.2824325561523,12.2829847335815,12.2835369110107,12.2840890884399,12.2846422195435,12.2851943969727,12.2857475280762,12.2862997055054,12.2868518829346,12.2874050140381,12.2879571914673,12.2885103225708,12.2890634536743,12.2896165847778,12.290168762207,12.2907228469849,12.2912750244141,12.2918281555176,12.2923812866211,12.2929344177246,12.2934885025024,12.294041633606,12.2945947647095,12.295147895813,12.2957019805908,12.29625415802,12.2968082427979,12.2973623275757,12.2979164123535,12.298469543457,12.2990236282349,12.2995777130127,12.3001308441162,12.300684928894,12.3012390136719,12.3017930984497,12.3023471832275,12.3029012680054,12.3034553527832,12.304009437561,12.3045625686646,12.3051176071167,12.3056716918945,12.3062267303467,12.3067817687988,12.3073358535767,12.3078899383545,12.3084449768066,12.3089990615845,12.3095541000366,12.3101091384888,12.3106632232666,12.3112182617188,12.3117733001709,12.312328338623,12.3128833770752,12.3134384155273,12.3139934539795,12.3145484924316,12.3151035308838,12.3156585693359,12.3162145614624,12.3167695999146,12.3173246383667,12.3178806304932,12.3184356689453,12.3189916610718,12.3195466995239,12.3201026916504,12.3206586837769,12.3212146759033,12.3217697143555,12.3223266601562,12.3228816986084,12.3234386444092,12.3239936828613,12.3245496749878,12.3251056671143,12.3256616592407,12.3262186050415,12.326774597168,12.3273305892944,12.3278865814209,12.328444480896,12.3290004730225,12.3295574188232,12.3301134109497,12.3306703567505,12.331226348877,12.3317832946777,12.3323392868042,12.3328971862793,12.3334531784058,12.3340110778809,12.3345670700073,12.3351240158081,12.3356809616089,12.336238861084,12.3367958068848,12.3373527526855,12.3379096984863,12.3384675979614,0,0,0,0,0,0,0,0,0,0,0,0,0,0,0,0,0,0,0,0,0,0,0,0,0,0,0,0,0,0,0,0,0,0,0,0,0,0,0,0,0,0,0,0,0,0,0,0,0,0,0,0,0,0,0,0,0,0,0,0,0,0,0,0,0,0,0,0,0,0,0,0,0,0,0,0,0,0,0,0,0,0,0,0,0,0,0,0,0,0,0,0,0,0,0,0,0,0,0,0,0,0,0,0,0,0,0,0,0,0,0,0,0,0,0,0,0,0,0,0,0,0,0,0,0,0,0,0,0,0,0,0,0,0,0,0,0,0,0,0,0,0,0,0,0,0,0,0,0,0,0,0,0,0,0,0,0,0,0,0,0,0,0,0,0,0,0,0,0,0,0,0,0,0,0,0,0,0,0,0,0,0,0,0,0,0,0,0,0,0,0,0,0,0,0,0,0,0,0,0,0,0,0,0,0
12.1453638076782,12.1459045410156,12.1464443206787,12.1469841003418,12.1475238800049,12.1480646133423,12.1486043930054,12.1491451263428,12.1496858596802,12.1502256393433,12.1507663726807,12.1513071060181,12.1518478393555,12.1523885726929,12.1529293060303,12.1534700393677,12.1540107727051,12.1545515060425,12.1550922393799,12.1556329727173,12.156174659729,12.1567153930664,12.1572561264038,12.1577968597412,12.1583385467529,12.1588792800903,12.1594200134277,12.1599626541138,12.1605033874512,12.1610450744629,12.1615867614746,12.162127494812,12.1626691818237,12.1632108688354,12.1637525558472,12.1642942428589,12.1648359298706,12.1653776168823,12.1659202575684,12.1664609909058,12.1670036315918,12.1675453186035,12.1680870056152,12.1686296463013,12.169171333313,12.169713973999,12.1702556610107,12.1707983016968,12.1713399887085,12.1718826293945,12.1724252700806,12.1729679107666,12.1735105514526,12.1740531921387,12.1745958328247,12.1751375198364,12.1756801605225,12.1762237548828,12.1767663955688,12.1773090362549,12.1778516769409,12.1783952713013,12.1789379119873,12.1794815063477,12.1800241470337,12.1805667877197,12.1811103820801,12.1816539764404,12.1821975708008,12.1827402114868,12.1832838058472,12.1838274002075,12.1843700408936,12.1849145889282,12.1854572296143,12.1860008239746,12.1865453720093,12.1870889663696,12.18763256073,12.1881771087646,12.1887197494507,12.1892642974854,12.1898078918457,12.1903514862061,12.1908960342407,12.1914396286011,12.1919841766357,12.1925287246704,12.1930723190308,12.1936178207397,12.1941614151001,12.1947059631348,12.1952505111694,12.1957950592041,12.1963396072388,12.1968841552734,12.1974287033081,12.1979732513428,12.1985177993774,12.1990623474121,12.1996078491211,12.2001523971558,12.2006978988647,12.2012424468994,12.2017879486084,12.2023324966431,12.2028779983521,12.2034225463867,12.2039680480957,12.2045135498047,12.2050580978394,12.2056045532227,12.2061491012573,12.2066946029663,12.2072401046753,12.2077865600586,12.2083320617676,12.2088775634766,12.2094230651855,12.2099695205688,12.2105150222778,12.2110605239868,12.2116069793701,12.2121524810791,12.2126979827881,12.2132444381714,12.2137908935547,12.2143363952637,12.214882850647,12.215428352356,12.2159748077393,12.2165222167969,12.2170677185059,12.2176151275635,12.2181615829468,12.2187080383301,12.2192535400391,12.2198009490967,12.22034740448,12.2208948135376,12.2214403152466,12.2219877243042,12.2225351333618,12.2230815887451,12.2236289978027,12.2241764068604,12.2247228622437,12.225269317627,12.2258176803589,12.2263641357422,12.2269124984741,12.2274580001831,12.228006362915,12.2285537719727,12.2291011810303,12.2296485900879,12.2301959991455,12.2307443618774,12.2312917709351,12.2318391799927,12.2323875427246,12.2329349517822,12.2334823608398,12.2340307235718,12.2345790863037,12.2351264953613,12.2356748580933,12.2362232208252,12.2367706298828,12.2373199462891,12.2378673553467,12.2384157180786,12.2389650344849,12.2395124435425,12.2400617599487,12.2406091690063,12.2411584854126,12.2417068481445,12.2422552108765,12.2428035736084,12.2433528900146,12.2439012527466,12.2444505691528,12.2449998855591,12.245548248291,12.2460975646973,12.2466459274292,12.2471952438354,12.2477445602417,12.2482938766479,12.2488422393799,12.2493925094604,12.2499408721924,12.2504911422729,12.2510404586792,12.2515897750854,12.2521390914917,12.2526884078979,12.2532386779785,0,0,0,0,0,0,0,0,0,0,0,0,0,0,0,0,0,0,0,0,0,0,0,0,0,0,0,0,0,0,0,0,0,0,0,0,0,0,0,0,0,0,0,0,0,0,0,0,0,0,0,0,0,0,0,0,0,0,0,0,0,0,0,0,0,0,0,0,0,0,0,0,0,0,0,0,0,0,0,0,0,0,0,0,0,0,0,0,0,0,0,0,0,0,0,0,0,0,0,0,0,0,0,0,0,0,0,0,0,0,0,0,0,0,0,0,0,0,0,0,0,0,0,0,0,0,0,0,0,0,0,0,0,0,0,0,0,0,0,0,0,0,0,0,0,0,0,0,0,0,0,0,0,0,0,0,0,0,0,0,0,0,0,0,0,0,0,0,0,0,0,0,0,0,0,0,0,0,0,0,0,0,0,0,0,0,0,0,0,0,0,0,0,0,0,0,0,0,0,0,0,0,0,0,0,0,0
12.0638389587402,12.0643720626831,12.0649042129517,12.0654373168945,12.0659704208374,12.0665035247803,12.0670366287231,12.0675687789917,12.0681028366089,12.0686349868774,12.0691690444946,12.0697021484375,12.0702352523804,12.0707693099976,12.0713024139404,12.0718355178833,12.0723686218262,12.0729026794434,12.0734367370605,12.0739707946777,12.0745038986206,12.0750379562378,12.0755710601807,12.0761051177979,12.076639175415,12.0771732330322,12.0777072906494,12.0782413482666,12.0787754058838,12.079309463501,12.0798444747925,12.0803775787354,12.0809125900269,12.081446647644,12.0819807052612,12.0825147628784,12.0830497741699,12.0835847854614,12.0841188430786,12.0846538543701,12.0851879119873,12.0857229232788,12.0862579345703,12.0867929458618,12.087327003479,12.0878620147705,12.088397026062,12.0889320373535,12.089467048645,12.0900020599365,12.0905380249023,12.0910720825195,12.0916080474854,12.0921430587769,12.0926780700684,12.0932140350342,12.0937490463257,12.0942850112915,12.094820022583,12.0953559875488,12.0958919525146,12.0964269638062,12.096962928772,12.0974988937378,12.0980339050293,12.0985698699951,12.0991058349609,12.0996417999268,12.1001777648926,12.1007146835327,12.1012496948242,12.1017866134644,12.1023225784302,12.102858543396,12.1033954620361,12.103931427002,12.1044673919678,12.1050043106079,12.1055402755737,12.1060771942139,12.106614112854,12.1071500778198,12.10768699646,12.1082239151001,12.1087608337402,12.1092977523804,12.1098337173462,12.1103706359863,12.1109085083008,12.1114444732666,12.1119813919067,12.1125192642212,12.1130561828613,12.1135940551758,12.1141309738159,12.1146678924561,12.1152048110962,12.1157426834106,12.1162796020508,12.1168174743652,12.1173543930054,12.1178932189941,12.1184301376343,12.1189680099487,12.1195058822632,12.1200437545776,12.1205816268921,12.1211185455322,12.1216564178467,12.1221942901611,12.1227331161499,12.1232709884644,12.1238088607788,12.1243467330933,12.124885559082,12.1254234313965,12.1259613037109,12.1265001296997,12.1270389556885,12.1275768280029,12.1281156539917,12.1286544799805,12.1291923522949,12.1297311782837,12.1302700042725,12.1308088302612,12.1313467025757,12.1318855285645,12.1324243545532,12.1329641342163,12.1335029602051,12.1340417861938,12.1345815658569,12.1351194381714,12.1356592178345,12.1361980438232,12.1367378234863,12.1372766494751,12.1378154754639,12.138355255127,12.13889503479,12.1394338607788,12.1399736404419,12.1405143737793,12.1410531997681,12.1415929794312,12.1421318054199,12.1426725387573,12.1432113647461,12.1437520980835,12.1442909240723,12.144832611084,12.1453714370728,12.1459121704102,12.1464519500732,12.1469917297363,12.1475324630737,12.1480722427368,12.1486129760742,12.1491527557373,12.1496934890747,12.1502332687378,12.1507749557495,12.1513147354126,12.15185546875,12.1523962020874,12.1529369354248,12.1534776687622,12.1540184020996,12.154559135437,12.1550998687744,12.1556406021118,12.1561822891235,12.1567230224609,12.1572637557983,12.1578054428101,12.1583461761475,12.1588869094849,12.1594285964966,12.1599702835083,12.1605110168457,12.1610527038574,12.1615943908691,12.1621360778809,12.1626777648926,12.16321849823,12.1637601852417,12.1643018722534,12.1648435592651,12.1653852462769,12.1659278869629,12.1664686203003,12.1670112609863,12.167552947998,12.1680955886841,12.1686372756958,12.1691789627075,12.1697216033936,0,0,0,0,0,0,0,0,0,0,0,0,0,0,0,0,0,0,0,0,0,0,0,0,0,0,0,0,0,0,0,0,0,0,0,0,0,0,0,0,0,0,0,0,0,0,0,0,0,0,0,0,0,0,0,0,0,0,0,0,0,0,0,0,0,0,0,0,0,0,0,0,0,0,0,0,0,0,0,0,0,0,0,0,0,0,0,0,0,0,0,0,0,0,0,0,0,0,0,0,0,0,0,0,0,0,0,0,0,0,0,0,0,0,0,0,0,0,0,0,0,0,0,0,0,0,0,0,0,0,0,0,0,0,0,0,0,0,0,0,0,0,0,0,0,0,0,0,0,0,0,0,0,0,0,0,0,0,0,0,0,0,0,0,0,0,0,0,0,0,0,0,0,0,0,0,0,0,0,0,0,0,0,0,0,0,0,0,0,0,0,0,0,0,0,0,0,0,0,0,0,0,0,0,0,0,0,0
11.9834003448486,11.983925819397,11.9844522476196,11.984977722168,11.9855031967163,11.986029624939,11.9865550994873,11.98708152771,11.9876070022583,11.9881343841553,11.9886598587036,11.9891862869263,11.9897127151489,11.9902391433716,11.9907655715942,11.9912910461426,11.9918184280396,11.9923439025879,11.9928712844849,11.9933967590332,11.9939241409302,11.9944505691528,11.9949779510498,11.9955043792725,11.9960308074951,11.9965581893921,11.9970846176147,11.9976119995117,11.9981384277344,11.9986658096313,11.999192237854,11.999719619751,12.0002470016479,12.0007743835449,12.0013017654419,12.0018281936646,12.0023565292358,12.0028839111328,12.0034112930298,12.0039386749268,12.0044660568237,12.0049934387207,12.005521774292,12.006049156189,12.0065765380859,12.0071048736572,12.0076322555542,12.0081596374512,12.0086879730225,12.0092153549194,12.0097436904907,12.0102729797363,12.0108003616333,12.0113286972046,12.0118570327759,12.0123844146729,12.0129137039185,12.0134410858154,12.0139694213867,12.0144987106323,12.0150260925293,12.0155553817749,12.0160837173462,12.0166120529175,12.0171413421631,12.0176696777344,12.01819896698,12.0187273025513,12.0192565917969,12.0197849273682,12.0203142166138,12.0208425521851,12.0213718414307,12.0219011306763,12.0224304199219,12.0229587554932,12.0234889984131,12.0240182876587,12.0245475769043,12.0250768661499,12.0256061553955,12.0261354446411,12.0266647338867,12.0271949768066,12.0277242660522,12.0282535552979,12.0287837982178,12.0293130874634,12.029842376709,12.0303726196289,12.0309028625488,12.0314331054688,12.0319623947144,12.0324926376343,12.0330228805542,12.0335531234741,12.034083366394,12.0346126556396,12.0351428985596,12.0356731414795,12.0362043380737,12.0367336273193,12.0372648239136,12.0377950668335,12.0383253097534,12.0388565063477,12.0393867492676,12.0399179458618,12.0404481887817,12.040979385376,12.0415096282959,12.0420408248901,12.0425710678101,12.0431022644043,12.0436334609985,12.0441646575928,12.044695854187,12.0452270507812,12.0457582473755,12.0462894439697,12.046820640564,12.0473518371582,12.0478830337524,12.0484142303467,12.0489463806152,12.0494775772095,12.0500087738037,12.0505409240723,12.0510721206665,12.0516042709351,12.0521364212036,12.0526676177979,12.0531997680664,12.053731918335,12.0542631149292,12.0547952651978,12.0553274154663,12.0558595657349,12.0563917160034,12.056923866272,12.0574560165405,12.0579881668091,12.058521270752,12.0590534210205,12.0595855712891,12.0601177215576,12.0606498718262,12.061182975769,12.0617151260376,12.0622482299805,12.062780380249,12.0633134841919,12.0638465881348,12.0643787384033,12.0649118423462,12.0654458999634,12.0659770965576,12.0665111541748,12.0670433044434,12.0675773620605,12.0681104660034,12.0686435699463,12.0691766738892,12.069709777832,12.0702428817749,12.0707769393921,12.071310043335,12.0718431472778,12.072377204895,12.0729103088379,12.0734443664551,12.0739784240723,12.0745124816895,12.0750455856323,12.0755796432495,12.0761127471924,12.0766468048096,12.0771808624268,12.0777149200439,12.0782489776611,12.0787830352783,12.0793180465698,12.079852104187,12.0803861618042,12.0809202194214,12.0814542770386,12.0819883346558,12.0825233459473,12.0830574035645,12.083592414856,12.0841264724731,12.0846614837646,12.0851955413818,12.0857305526733,12.0862655639648,12.086799621582,12.0873355865479,12.087869644165,0,0,0,0,0,0,0,0,0,0,0,0,0,0,0,0,0,0,0,0,0,0,0,0,0,0,0,0,0,0,0,0,0,0,0,0,0,0,0,0,0,0,0,0,0,0,0,0,0,0,0,0,0,0,0,0,0,0,0,0,0,0,0,0,0,0,0,0,0,0,0,0,0,0,0,0,0,0,0,0,0,0,0,0,0,0,0,0,0,0,0,0,0,0,0,0,0,0,0,0,0,0,0,0,0,0,0,0,0,0,0,0,0,0,0,0,0,0,0,0,0,0,0,0,0,0,0,0,0,0,0,0,0,0,0,0,0,0,0,0,0,0,0,0,0,0,0,0,0,0,0,0,0,0,0,0,0,0,0,0,0,0,0,0,0,0,0,0,0,0,0,0,0,0,0,0,0,0,0,0,0,0,0,0,0,0,0,0,0,0,0,0,0,0,0,0,0,0,0,0,0,0,0,0,0,0,0,0
11.9040279388428,11.9045467376709,11.905065536499,11.9055843353271,11.9061031341553,11.9066219329834,11.9071407318115,11.907660484314,11.9081792831421,11.9086980819702,11.9092178344727,11.9097375869751,11.9102563858032,11.9107761383057,11.9112949371338,11.9118146896362,11.9123344421387,11.9128532409668,11.9133729934692,11.913893699646,11.9144124984741,11.9149322509766,11.915452003479,11.9159717559814,11.9164915084839,11.9170112609863,11.9175310134888,11.9180517196655,11.918571472168,11.9190912246704,11.9196119308472,11.9201316833496,11.9206523895264,11.9211721420288,11.9216928482056,11.922212600708,11.9227333068848,11.9232540130615,11.923773765564,11.9242944717407,11.9248151779175,11.9253358840942,11.925856590271,11.9263772964478,11.9268980026245,11.9274187088013,11.927939414978,11.9284601211548,11.9289808273315,11.9295024871826,11.9300231933594,11.9305448532104,11.9310655593872,11.931586265564,11.932107925415,11.9326286315918,11.9331502914429,11.9336719512939,11.9341926574707,11.9347143173218,11.9352359771729,11.9357576370239,11.936279296875,11.9368009567261,11.9373226165771,11.9378442764282,11.9383659362793,11.9388875961304,11.9394092559814,11.9399309158325,11.9404535293579,11.940975189209,11.9414968490601,11.9420194625854,11.9425411224365,11.9430637359619,11.9435863494873,11.9441080093384,11.9446306228638,11.9451532363892,11.9456748962402,11.9461975097656,11.946720123291,11.9472427368164,11.9477653503418,11.9482879638672,11.9488105773926,11.949333190918,11.9498558044434,11.9503793716431,11.9509019851685,11.9514245986938,11.9519472122192,11.9524707794189,11.9529933929443,11.953516960144,11.9540395736694,11.9545631408691,11.9550857543945,11.9556093215942,11.9561319351196,11.9566564559937,11.957179069519,11.9577026367188,11.9582271575928,11.9587497711182,11.9592733383179,11.9597969055176,11.9603204727173,11.960844039917,11.961368560791,11.9618921279907,11.9624156951904,11.9629392623901,11.9634637832642,11.9639883041382,11.9645118713379,11.9650363922119,11.9655599594116,11.9660844802856,11.9666090011597,11.9671325683594,11.9676570892334,11.9681816101074,11.9687051773071,11.9692296981812,11.9697551727295,11.9702796936035,11.9708042144775,11.9713287353516,11.9718532562256,11.9723777770996,11.9729022979736,11.973427772522,11.973952293396,11.97447681427,11.9750022888184,11.9755268096924,11.9760522842407,11.9765768051147,11.9771022796631,11.9776277542114,11.9781532287598,11.9786787033081,11.9792041778564,11.9797296524048,11.9802541732788,11.9807806015015,11.9813051223755,11.9818305969238,11.9823560714722,11.9828824996948,11.9834070205688,11.9839344024658,11.9844589233398,11.9849853515625,11.9855117797852,11.9860372543335,11.9865636825562,11.9870891571045,11.9876155853271,11.9881410598755,11.9886674880981,11.9891929626465,11.9897203445435,11.9902458190918,11.9907722473145,11.9912986755371,11.9918260574341,11.9923524856567,11.9928779602051,11.9934053421021,11.9939317703247,11.9944581985474,11.99498462677,11.995512008667,11.9960384368896,11.9965658187866,11.9970922470093,11.9976186752319,11.9981460571289,11.9986734390259,11.9992008209229,11.9997272491455,12.0002546310425,12.0007820129395,12.0013093948364,12.0018367767334,12.0023641586304,12.0028915405273,12.0034189224243,12.0039463043213,12.0044736862183,12.0050010681152,12.0055294036865,12.0060567855835,12.0065841674805,0,0,0,0,0,0,0,0,0,0,0,0,0,0,0,0,0,0,0,0,0,0,0,0,0,0,0,0,0,0,0,0,0,0,0,0,0,0,0,0,0,0,0,0,0,0,0,0,0,0,0,0,0,0,0,0,0,0,0,0,0,0,0,0,0,0,0,0,0,0,0,0,0,0,0,0,0,0,0,0,0,0,0,0,0,0,0,0,0,0,0,0,0,0,0,0,0,0,0,0,0,0,0,0,0,0,0,0,0,0,0,0,0,0,0,0,0,0,0,0,0,0,0,0,0,0,0,0,0,0,0,0,0,0,0,0,0,0,0,0,0,0,0,0,0,0,0,0,0,0,0,0,0,0,0,0,0,0,0,0,0,0,0,0,0,0,0,0,0,0,0,0,0,0,0,0,0,0,0,0,0,0,0,0,0,0,0,0,0,0,0,0,0,0,0,0,0,0,0,0,0,0,0,0,0,0,0,0,0
11.8256998062134,11.8262119293213,11.8267230987549,11.8272361755371,11.827748298645,11.8282594680786,11.8287725448608,11.8292846679688,11.8297967910767,11.8303089141846,11.8308219909668,11.8313341140747,11.8318471908569,11.8323583602905,11.8328714370728,11.8333835601807,11.8338975906372,11.8344097137451,11.834921836853,11.8354349136353,11.8359479904175,11.8364610671997,11.8369741439819,11.8374872207642,11.8379993438721,11.8385133743286,11.8390254974365,11.8395395278931,11.8400526046753,11.8405656814575,11.8410787582397,11.8415927886963,11.8421049118042,11.8426189422607,11.843132019043,11.8436460494995,11.8441600799561,11.8446731567383,11.8451871871948,11.8457012176514,11.8462142944336,11.8467283248901,11.8472423553467,11.8477554321289,11.8482694625854,11.848783493042,11.8492975234985,11.8498115539551,11.8503255844116,11.8508396148682,11.8513536453247,11.8518686294556,11.8523826599121,11.852897644043,11.8534107208252,11.8539257049561,11.8544397354126,11.8549547195435,11.85546875,11.8559837341309,11.8564977645874,11.8570137023926,11.8575277328491,11.85804271698,11.8585577011108,11.8590717315674,11.8595876693726,11.8601016998291,11.86061668396,11.8611316680908,11.8616466522217,11.8621616363525,11.8626775741577,11.8631916046143,11.8637075424194,11.8642234802246,11.8647384643555,11.8652534484863,11.8657684326172,11.8662843704224,11.8668003082275,11.8673152923584,11.8678312301636,11.8683471679688,11.8688621520996,11.8693790435791,11.86989402771,11.8704099655151,11.8709259033203,11.8714418411255,11.8719577789307,11.8724737167358,11.872989654541,11.8735055923462,11.8740215301514,11.8745384216309,11.875054359436,11.8755702972412,11.8760871887207,11.8766031265259,11.8771190643311,11.8776359558105,11.87815284729,11.8786697387695,11.8791856765747,11.8797035217285,11.8802185058594,11.8807363510132,11.8812522888184,11.8817701339722,11.8822860717773,11.8828029632568,11.8833198547363,11.8838376998901,11.8843536376953,11.8848714828491,11.8853893280029,11.8859052658081,11.8864231109619,11.8869400024414,11.8874578475952,11.8879747390747,11.8884916305542,11.889009475708,11.8895273208618,11.8900442123413,11.8905620574951,11.8910799026489,11.8915977478027,11.8921155929565,11.892632484436,11.8931512832642,11.893669128418,11.8941869735718,11.8947038650513,11.8952226638794,11.8957405090332,11.896258354187,11.8967761993408,11.8972949981689,11.8978128433228,11.8983316421509,11.898850440979,11.8993682861328,11.8998861312866,11.9004049301147,11.9009237289429,11.9014415740967,11.9019603729248,11.9024791717529,11.9029979705811,11.9035167694092,11.9040355682373,11.9045534133911,11.9050731658936,11.9055919647217,11.9061107635498,11.9066295623779,11.9071483612061,11.9076681137085,11.9081869125366,11.9087066650391,11.9092254638672,11.9097442626953,11.9102640151978,11.9107837677002,11.9113025665283,11.9118223190308,11.9123420715332,11.9128608703613,11.9133806228638,11.9139003753662,11.9144201278687,11.9149398803711,11.9154596328735,11.915979385376,11.9164991378784,11.9170188903809,11.9175386428833,11.9180583953857,11.9185791015625,11.9190998077393,11.9196186065674,11.9201393127441,11.9206590652466,11.9211797714233,11.9216995239258,11.9222211837769,11.922739982605,11.9232616424561,11.9237813949585,11.9243021011353,11.924822807312,11.9253435134888,11.9258642196655,11.9263849258423,0,0,0,0,0,0,0,0,0,0,0,0,0,0,0,0,0,0,0,0,0,0,0,0,0,0,0,0,0,0,0,0,0,0,0,0,0,0,0,0,0,0,0,0,0,0,0,0,0,0,0,0,0,0,0,0,0,0,0,0,0,0,0,0,0,0,0,0,0,0,0,0,0,0,0,0,0,0,0,0,0,0,0,0,0,0,0,0,0,0,0,0,0,0,0,0,0,0,0,0,0,0,0,0,0,0,0,0,0,0,0,0,0,0,0,0,0,0,0,0,0,0,0,0,0,0,0,0,0,0,0,0,0,0,0,0,0,0,0,0,0,0,0,0,0,0,0,0,0,0,0,0,0,0,0,0,0,0,0,0,0,0,0,0,0,0,0,0,0,0,0,0,0,0,0,0,0,0,0,0,0,0,0,0,0,0,0,0,0,0,0,0,0,0,0,0,0,0,0,0,0,0,0,0,0,0,0,0,0,0
11.7483959197998,11.7489013671875,11.7494068145752,11.7499113082886,11.7504177093506,11.750922203064,11.751428604126,11.7519340515137,11.7524394989014,11.7529449462891,11.7534513473511,11.7539567947388,11.7544622421265,11.7549686431885,11.7554740905762,11.7559804916382,11.7564859390259,11.7569923400879,11.7574977874756,11.7580041885376,11.7585096359253,11.7590169906616,11.7595233917236,11.7600297927856,11.7605352401733,11.7610416412354,11.7615489959717,11.7620544433594,11.7625617980957,11.7630681991577,11.7635746002197,11.7640810012817,11.7645874023438,11.7650938034058,11.7656011581421,11.7661075592041,11.7666149139404,11.7671222686768,11.7676286697388,11.7681360244751,11.7686424255371,11.7691497802734,11.7696571350098,11.7701644897461,11.7706708908081,11.7711782455444,11.7716856002808,11.7721929550171,11.7727003097534,11.7732076644897,11.7737159729004,11.7742233276367,11.774730682373,11.7752380371094,11.7757453918457,11.776252746582,11.7767610549927,11.777268409729,11.7777767181396,11.778284072876,11.7787923812866,11.7793006896973,11.7798080444336,11.7803163528442,11.7808246612549,11.7813329696655,11.7818403244019,11.7823495864868,11.7828569412231,11.7833652496338,11.7838735580444,11.7843828201294,11.7848901748657,11.7853994369507,11.785906791687,11.786416053772,11.7869253158569,11.7874336242676,11.7879419326782,11.7884502410889,11.7889595031738,11.7894687652588,11.7899770736694,11.7904863357544,11.7909955978394,11.79150390625,11.792013168335,11.7925214767456,11.7930316925049,11.7935409545898,11.7940492630005,11.7945594787598,11.7950687408447,11.7955780029297,11.7960872650146,11.7965965270996,11.7971057891846,11.7976160049438,11.7981243133545,11.7986345291138,11.7991437911987,11.799654006958,11.8001642227173,11.8006734848022,11.8011837005615,11.8016929626465,11.8022031784058,11.8027124404907,11.8032236099243,11.8037328720093,11.8042430877686,11.8047533035278,11.8052635192871,11.8057737350464,11.8062839508057,11.8067951202393,11.8073043823242,11.8078155517578,11.8083257675171,11.8088359832764,11.8093461990356,11.8098573684692,11.8103675842285,11.8108787536621,11.8113889694214,11.811900138855,11.8124103546143,11.8129215240479,11.8134326934814,11.8139429092407,11.8144550323486,11.8149652481079,11.8154773712158,11.8159875869751,11.8164987564087,11.8170099258423,11.8175210952759,11.8180322647095,11.8185443878174,11.8190546035767,11.8195667266846,11.8200788497925,11.8205890655518,11.8211011886597,11.8216123580933,11.8221244812012,11.8226356506348,11.8231477737427,11.8236589431763,11.8241720199585,11.8246831893921,11.8251953125,11.8257074356079,11.8262186050415,11.8267316818237,11.8272438049316,11.8277549743652,11.8282680511475,11.8287801742554,11.8292922973633,11.8298044204712,11.8303165435791,11.830828666687,11.8313417434692,11.8318538665771,11.8323659896851,11.8328790664673,11.8333921432495,11.8339042663574,11.8344173431396,11.8349294662476,11.8354434967041,11.835955619812,11.8364686965942,11.8369817733765,11.8374938964844,11.8380069732666,11.8385210037231,11.8390331268311,11.8395471572876,11.8400602340698,11.8405733108521,11.8410873413086,11.8415994644165,11.842113494873,11.8426265716553,11.8431396484375,11.843653678894,11.8441677093506,11.8446807861328,11.8451948165894,11.8457078933716,11.8462209701538,11.8467359542847,11.8472490310669,0,0,0,0,0,0,0,0,0,0,0,0,0,0,0,0,0,0,0,0,0,0,0,0,0,0,0,0,0,0,0,0,0,0,0,0,0,0,0,0,0,0,0,0,0,0,0,0,0,0,0,0,0,0,0,0,0,0,0,0,0,0,0,0,0,0,0,0,0,0,0,0,0,0,0,0,0,0,0,0,0,0,0,0,0,0,0,0,0,0,0,0,0,0,0,0,0,0,0,0,0,0,0,0,0,0,0,0,0,0,0,0,0,0,0,0,0,0,0,0,0,0,0,0,0,0,0,0,0,0,0,0,0,0,0,0,0,0,0,0,0,0,0,0,0,0,0,0,0,0,0,0,0,0,0,0,0,0,0,0,0,0,0,0,0,0,0,0,0,0,0,0,0,0,0,0,0,0,0,0,0,0,0,0,0,0,0,0,0,0,0,0,0,0,0,0,0,0,0,0,0,0,0,0,0,0,0,0,0,0,0
11.6720962524414,11.6725950241089,11.6730937957764,11.6735925674438,11.6740913391113,11.6745901107788,11.6750888824463,11.6755886077881,11.6760873794556,11.676586151123,11.6770858764648,11.6775846481323,11.6780843734741,11.6785831451416,11.6790828704834,11.6795816421509,11.6800813674927,11.6805801391602,11.6810808181763,11.6815795898438,11.6820793151855,11.6825790405273,11.6830787658691,11.6835784912109,11.6840782165527,11.6845779418945,11.6850776672363,11.6855783462524,11.6860780715942,11.686577796936,11.6870775222778,11.6875782012939,11.6880779266357,11.6885786056519,11.6890783309937,11.6895790100098,11.6900796890259,11.6905784606934,11.6910800933838,11.6915798187256,11.6920804977417,11.6925811767578,11.6930818557739,11.6935815811157,11.6940832138062,11.6945829391479,11.6950845718384,11.6955842971802,11.6960859298706,11.6965866088867,11.6970872879028,11.6975879669189,11.6980895996094,11.6985902786255,11.6990909576416,11.699592590332,11.7000932693481,11.7005949020386,11.7010955810547,11.7015972137451,11.7020978927612,11.7025995254517,11.7031021118164,11.7036027908325,11.7041044235229,11.7046060562134,11.7051076889038,11.7056093215942,11.7061109542847,11.7066125869751,11.7071142196655,11.707615852356,11.7081174850464,11.7086191177368,11.7091217041016,11.709623336792,11.7101249694824,11.7106275558472,11.7111291885376,11.7116317749023,11.7121334075928,11.7126359939575,11.7131376266479,11.7136402130127,11.7141427993774,11.7146453857422,11.7151470184326,11.7156496047974,11.7161531448364,11.7166547775269,11.7171573638916,11.7176599502563,11.7181634902954,11.7186660766602,11.7191686630249,11.7196712493896,11.7201747894287,11.7206764221191,11.7211809158325,11.7216825485229,11.722186088562,11.7226896286011,11.7231922149658,11.7236957550049,11.7241992950439,11.7247018814087,11.7252054214478,11.7257089614868,11.7262115478516,11.7267150878906,11.7272186279297,11.7277221679688,11.7282257080078,11.7287292480469,11.7292327880859,11.729736328125,11.7302408218384,11.7307443618774,11.7312488555908,11.7317514419556,11.7322559356689,11.732759475708,11.7332639694214,11.7337675094604,11.7342720031738,11.7347755432129,11.7352800369263,11.7357835769653,11.7362880706787,11.7367925643921,11.7372970581055,11.7378015518188,11.7383050918579,11.7388105392456,11.739315032959,11.7398195266724,11.7403230667114,11.7408285140991,11.7413330078125,11.7418384552002,11.7423429489136,11.742847442627,11.7433519363403,11.7438564300537,11.7443618774414,11.7448673248291,11.7453718185425,11.7458772659302,11.7463827133179,11.7468872070312,11.7473926544189,11.7478971481323,11.74840259552,11.748908996582,11.7494134902954,11.7499198913574,11.7504243850708,11.7509298324585,11.7514352798462,11.7519416809082,11.7524461746216,11.7529525756836,11.7534580230713,11.7539644241333,11.754469871521,11.7549753189087,11.7554817199707,11.7559871673584,11.7564935684204,11.7569999694824,11.7575054168701,11.7580118179321,11.7585182189941,11.7590236663818,11.7595300674438,11.7600364685059,11.7605428695679,11.7610492706299,11.7615556716919,11.7620620727539,11.7625684738159,11.7630748748779,11.7635822296143,11.7640886306763,11.7645950317383,11.7651023864746,11.7656087875366,11.7661151885986,11.7666215896606,11.7671298980713,11.767635345459,11.7681436538696,11.7686500549316,11.769157409668,0,0,0,0,0,0,0,0,0,0,0,0,0,0,0,0,0,0,0,0,0,0,0,0,0,0,0,0,0,0,0,0,0,0,0,0,0,0,0,0,0,0,0,0,0,0,0,0,0,0,0,0,0,0,0,0,0,0,0,0,0,0,0,0,0,0,0,0,0,0,0,0,0,0,0,0,0,0,0,0,0,0,0,0,0,0,0,0,0,0,0,0,0,0,0,0,0,0,0,0,0,0,0,0,0,0,0,0,0,0,0,0,0,0,0,0,0,0,0,0,0,0,0,0,0,0,0,0,0,0,0,0,0,0,0,0,0,0,0,0,0,0,0,0,0,0,0,0,0,0,0,0,0,0,0,0,0,0,0,0,0,0,0,0,0,0,0,0,0,0,0,0,0,0,0,0,0,0,0,0,0,0,0,0,0,0,0,0,0,0,0,0,0,0,0,0,0,0,0,0,0,0,0,0,0,0,0,0,0,0,0,0
11.5967807769775,11.5972728729248,11.5977649688721,11.5982580184937,11.5987501144409,11.5992422103882,11.5997352600098,11.600227355957,11.6007213592529,11.6012134552002,11.6017055511475,11.6021995544434,11.6026916503906,11.6031847000122,11.6036777496338,11.6041707992554,11.6046628952026,11.6051568984985,11.6056489944458,11.6061429977417,11.606635093689,11.6071290969849,11.6076221466064,11.6081161499023,11.6086091995239,11.6091022491455,11.6095962524414,11.610089302063,11.6105823516846,11.6110763549805,11.6115694046021,11.6120634078979,11.6125574111938,11.6130504608154,11.6135444641113,11.6140384674072,11.6145324707031,11.615026473999,11.6155195236206,11.6160144805908,11.6165075302124,11.6170015335083,11.6174955368042,11.6179904937744,11.6184844970703,11.6189785003662,11.6194725036621,11.619966506958,11.6204614639282,11.6209554672241,11.6214504241943,11.6219444274902,11.6224393844604,11.6229343414307,11.6234283447266,11.6239223480225,11.624418258667,11.6249122619629,11.6254072189331,11.6259021759033,11.6263961791992,11.6268920898438,11.6273860931396,11.6278820037842,11.6283769607544,11.6288719177246,11.6293668746948,11.629861831665,11.6303567886353,11.6308526992798,11.6313467025757,11.6318426132202,11.6323375701904,11.632833480835,11.6333293914795,11.6338243484497,11.6343202590942,11.6348161697388,11.635311126709,11.6358060836792,11.636302947998,11.6367979049683,11.6372947692871,11.6377897262573,11.6382856369019,11.6387815475464,11.6392774581909,11.6397733688354,11.64026927948,11.6407651901245,11.641261100769,11.6417579650879,11.6422538757324,11.6427507400513,11.6432466506958,11.6437435150146,11.6442384719849,11.6447353363037,11.6452312469482,11.6457281112671,11.6462259292603,11.6467218399048,11.6472187042236,11.6477146148682,11.648211479187,11.6487083435059,11.6492052078247,11.6497020721436,11.6501989364624,11.6506958007812,11.6511926651001,11.6516895294189,11.6521863937378,11.6526832580566,11.6531810760498,11.6536779403687,11.6541757583618,11.6546726226807,11.6551694869995,11.6556673049927,11.6561641693115,11.6566619873047,11.6571588516235,11.657657623291,11.6581544876099,11.658652305603,11.6591491699219,11.659646987915,11.6601457595825,11.6606426239014,11.6611404418945,11.6616382598877,11.6621360778809,11.662633895874,11.6631326675415,11.6636304855347,11.6641283035278,11.664626121521,11.6651248931885,11.6656227111816,11.6661214828491,11.6666193008423,11.6671180725098,11.6676158905029,11.6681146621704,11.6686124801636,11.6691112518311,11.6696100234985,11.670108795166,11.6706075668335,11.6711053848267,11.6716041564941,11.6721029281616,11.6726016998291,11.6731004714966,11.6735992431641,11.6740989685059,11.6745977401733,11.6750965118408,11.6755952835083,11.6760950088501,11.6765928268433,11.6770925521851,11.6775913238525,11.6780910491943,11.6785907745361,11.6790895462036,11.6795892715454,11.6800889968872,11.680588722229,11.6810874938965,11.6815872192383,11.6820869445801,11.6825866699219,11.6830854415894,11.6835861206055,11.6840858459473,11.6845855712891,11.6850852966309,11.6855850219727,11.6860857009888,11.6865854263306,11.6870851516724,11.6875848770142,11.6880855560303,11.6885852813721,11.6890859603882,11.68958568573,11.6900863647461,11.6905860900879,11.6910877227783,11.6915874481201,11.6920881271362,11.692587852478,11.6930885314941,11.6935892105103,11.6940898895264,11.6945905685425,11.6950912475586,11.6955919265747,11.6960926055908,0,0,0,0,0,0,0,0,0,0,0,0,0,0,0,0,0,0,0,0,0,0,0,0,0,0,0,0,0,0,0,0,0,0,0,0,0,0,0,0,0,0,0,0,0,0,0,0,0,0,0,0,0,0,0,0,0,0,0,0,0,0,0,0,0,0,0,0,0,0,0,0,0,0,0,0,0,0,0,0,0,0,0,0,0,0,0,0,0,0,0,0,0,0,0,0,0,0,0,0,0,0,0,0,0,0,0,0,0,0,0,0,0,0,0,0,0,0,0,0,0,0,0,0,0,0,0,0,0,0,0,0,0,0,0,0,0,0,0,0,0,0,0,0,0,0,0,0,0,0,0,0,0,0,0,0,0,0,0,0,0,0,0,0,0,0,0,0,0,0,0,0,0,0,0,0,0,0,0,0,0,0,0,0,0,0,0,0,0,0,0,0,0,0,0,0,0,0,0,0,0,0,0,0,0
