18.3889198303223,18.3900127410889,18.3911113739014,18.3922080993652,18.3933029174805,18.3943996429443,18.3955020904541,18.3965950012207,18.3976936340332,18.3987884521484,18.399881362915,18.4009799957275,18.4020748138428,18.4031734466553,18.404275894165,18.4053707122803,18.4064693450928,18.4075584411621,18.4086608886719,18.4097595214844,18.4108619689941,18.4119567871094,18.4130592346191,18.414155960083,18.4152565002441,18.416353225708,18.4174480438232,18.4185543060303,18.4196529388428,18.4207534790039,18.4218521118164,18.4229545593262,18.42405128479,18.4251499176025,18.4262523651123,18.4273490905762,18.4284477233887,18.4295463562012,18.4306545257568,18.4317531585693,18.4328536987305,18.4339599609375,18.43505859375,18.4361572265625,18.437255859375,18.4383602142334,18.4394664764404,18.4405689239502,18.44167137146,18.4427680969238,18.4438705444336,18.4449710845947,18.4460754394531,18.4471759796143,18.4482879638672,18.4493885040283,18.4504852294922,18.4515914916992,18.4526882171631,18.4537963867188,18.4548969268799,18.4560012817383,18.457103729248,18.4582061767578,18.4593143463135,18.4604167938232,18.4615211486816,18.4626293182373,18.4637279510498,18.4648380279541,18.4659404754639,18.4670448303223,18.4681529998779,18.4692611694336,18.4703617095947,18.4714622497559,18.4725723266602,18.4736804962158,18.4747829437256,18.4758949279785,18.4770011901855,18.478099822998,18.479211807251,18.480318069458,18.4814224243164,18.4825305938721,18.4836368560791,18.4847507476807,18.4858551025391,18.4869632720947,18.4880638122559,18.4891757965088,18.4902858734131,18.4913921356201,18.4924926757812,18.4936122894287,18.4947185516357,18.4958248138428,18.4969291687012,18.4980449676514,18.4991512298584,18.5002555847168,18.5013694763184,18.5024795532227,18.5035877227783,18.5046997070312,18.5058097839355,18.5069160461426,18.5080242156982,18.5091342926025,18.5102424621582,18.5113620758057,18.5124702453613,18.5135765075684,18.5146865844727,18.5158004760742,18.5169086456299,18.5180225372314,18.519136428833,18.5202465057373,18.5213584899902,18.5224704742432,18.5235805511475,18.524694442749,18.525806427002,18.5269165039062,18.5280265808105,18.5291404724121,18.5302505493164,18.5313682556152,18.5324764251709,18.5335922241211,18.5347023010254,18.5358180999756,18.5369300842285,18.5380458831787,18.5391616821289,18.5402755737305,18.541389465332,18.5424976348877,18.5436153411865,18.5447292327881,18.545841217041,18.5469589233398,18.54807472229,18.5491847991943,18.5503044128418,18.551420211792,18.5525341033936,18.5536518096924,18.5547657012939,18.5558834075928,18.5569953918457,18.5581111907959,18.559232711792,18.5603446960449,18.5614604949951,18.5625801086426,18.5636940002441,18.5648078918457,18.5659294128418,18.5670471191406,18.5681629180908,18.5692806243896,18.5703964233398,18.57151222229,18.5726318359375,18.5737476348877,18.5748710632324,18.575984954834,18.5771083831787,18.5782222747803,18.5793399810791,18.5804595947266,18.5815753936768,18.5826988220215,18.5838184356689,18.5849323272705,18.5860557556152,18.5871734619141,18.5882930755615,18.5894107818604,18.5905361175537,18.5916557312012,18.5927696228027,18.5938930511475,18.5950126647949,18.596134185791,18.5972557067871,18.5983734130859,18.5994930267334,18.6006145477295,18.6017379760742,18.6028575897217,18.603982925415,18.6051025390625,18.60622215271,18.6073417663574,18.608470916748,18.6095886230469,18.6107158660889,18.611837387085,18.6129608154297,18.6140804290771,18.615198135376,18.6163234710693,18.6174488067627,18.6185760498047,18.6196975708008,18.6208190917969,18.6219425201416,18.6230697631836,18.6241912841797,18.6253147125244,18.6264419555664,18.6275634765625,18.62868309021,18.6298122406006,18.6309394836426,18.6320629119873,18.6331882476807,18.6343173980713,18.6354370117188,18.6365623474121,18.6376838684082,18.6388187408447,18.6399421691895,18.6410636901855,18.6421890258789,18.6433200836182,18.6444416046143,18.6455688476562,18.6466960906982,18.6478290557861,18.6489543914795,18.6500759124756,18.6512031555176,18.6523323059082,18.6534576416016,18.6545886993408,18.6557140350342,18.6568431854248,18.6579704284668,18.6590995788574,18.6602230072021,18.66135597229,18.6624870300293,18.6636142730713,18.664737701416,18.6658706665039,18.6670017242432,18.6681289672852,18.6692581176758,18.6703929901123,18.6715126037598,18.6726455688477,18.6737728118896,18.6749095916748,18.6760406494141,18.6771659851074,18.6782932281494,18.6794261932373,18.6805591583252,18.6816883087158,18.6828174591064,18.6839504241943,18.6850872039795,18.6862144470215,18.6873474121094,18.6884784698486,18.6896114349365,18.6907424926758,18.6918754577637,18.6930046081543,18.6941413879395,18.6952686309814,18.6964054107666,18.6975345611572,18.6986694335938,18.6998062133789,18.7009315490723,18.4033298492432,18.4044456481934,18.4055614471436,18.4066753387451,18.4077911376953,18.4089069366455,18.4100227355957,18.4111385345459,18.4122543334961,18.4133701324463,18.4144878387451,18.4156036376953,18.4167194366455,18.4178371429443,18.4189529418945,18.4200706481934,18.4211883544922,18.4223041534424,18.4234218597412,18.42453956604,18.4256572723389,18.4267749786377,18.4278926849365,18.4290103912354,18.4301300048828,18.4312477111816,18.4323654174805,18.4334850311279,18.4346027374268,18.4357223510742,18.436840057373,18.4379596710205,18.439079284668,18.4401988983154,18.4413185119629,18.4424381256104,18.4435577392578,18.4446773529053,18.4457969665527,15.3085069656372,15.2113609313965,15.1635990142822,15.116135597229,15.0689687728882,15.0220956802368,14.9755115509033,14.9292163848877,14.8832063674927,14.8374795913696,14.7920322418213,14.746862411499,14.7019681930542,14.6573467254639,14.6129941940308,14.5689096450806,14.5250911712646,14.4815340042114,14.4382381439209,14.3952007293701,14.3524188995361,14.309889793396,14.2676134109497,14.2255849838257,14.1838035583496,14.1422681808472,14.100980758667,14.0599327087402,14.0191240310669,13.9785509109497,13.93821144104,13.8981046676636,13.8582286834717,13.8185806274414,13.7791576385498,13.7399597167969,13.700984954834,13.6622295379639,13.6236934661865,13.585373878479,13.5472688674927,13.5093774795532,13.471697807312,13.4342269897461,13.3969640731812,13.3599081039429,13.3230562210083,13.2864065170288,13.2499589920044,13.2137098312378,13.177659034729,13.1418037414551,13.106143951416,13.0706768035889,13.035400390625,13.0003147125244,12.9654178619385,12.9307069778442,12.8961820602417,12.8618412017822,12.8276824951172,12.7937049865723,12.7599077224731,12.7558765411377,12.7595281600952,12.7631826400757,12.7668390274048,12.6441593170166,12.6112775802612,12.5785636901855,12.5460205078125,12.5136461257935,12.4814376831055,12.4493951797485,12.417516708374,12.3858032226562,12.3542509078979,12.3228588104248,12.2916259765625,12.2605514526367,12.2296333312988,12.1988706588745,12.1682624816895,12.137806892395,12.1075038909912,12.0773420333862,12.0473194122314,12.0462303161621,11.9397811889648
18.2056102752686,18.2066860198975,18.2077617645264,18.2088317871094,18.2099075317383,18.2109813690186,18.2120609283447,18.213134765625,18.2142086029053,18.2152786254883,18.2163543701172,18.2174320220947,18.2185096740723,18.2195835113525,18.2206611633301,18.221736907959,18.2228107452393,18.2238883972168,18.2249641418457,18.2260437011719,18.2271137237549,18.2281932830811,18.2292671203613,18.2303485870361,18.231424331665,18.2325000762939,18.2335777282715,18.2346572875977,18.2357349395752,18.2368106842041,18.2378902435303,18.2389659881592,18.2400455474854,18.2411270141602,18.2422027587891,18.243278503418,18.2443599700928,18.2454376220703,18.2465171813965,18.2476005554199,18.2486743927002,18.249755859375,18.2508354187012,18.2519130706787,18.2529907226562,18.2540721893311,18.2551498413086,18.256233215332,18.2573089599609,18.258394241333,18.2594699859619,18.260555267334,18.2616329193115,18.262716293335,18.2637901306152,18.26487159729,18.2659587860107,18.2670402526855,18.2681198120117,18.2692031860352,18.27028465271,18.2713661193848,18.2724437713623,18.2735233306885,18.2746143341064,18.275691986084,18.2767772674561,18.2778568267822,18.2789421081543,18.2800197601318,18.2811031341553,18.2821865081787,18.283275604248,18.2843494415283,18.2854404449463,18.2865200042725,18.2876071929932,18.2886924743652,18.2897758483887,18.2908554077148,18.2919425964355,18.2930278778076,18.2941093444824,18.2951946258545,18.2962818145752,18.2973690032959,18.2984466552734,18.2995319366455,18.3006210327148,18.3017044067383,18.3027877807617,18.3038787841797,18.3049621582031,18.3060474395752,18.30712890625,18.308219909668,18.3093070983887,18.310396194458,18.3114833831787,18.3125648498535,18.3136539459229,18.3147411346436,18.3158283233643,18.3169136047363,18.3180027008057,18.3190860748291,18.3201770782471,18.3212623596191,18.3223495483398,18.3234405517578,18.3245239257812,18.3256149291992,18.3266983032227,18.3277931213379,18.3288822174072,18.3299674987793,18.3310546875,18.3321437835693,18.33323097229,18.334321975708,18.3354091644287,18.3365058898926,18.3375949859619,18.3386821746826,18.3397731781006,18.3408622741699,18.341947555542,18.3430404663086,18.3441314697266,18.3452262878418,18.346321105957,18.3474044799805,18.3484954833984,18.3495864868164,18.3506755828857,18.3517723083496,18.3528633117676,18.3539543151855,18.3550434112549,18.3561382293701,18.3572273254395,18.3583221435547,18.359411239624,18.3605041503906,18.3615913391113,18.3626880645752,18.3637809753418,18.3648738861084,18.3659706115723,18.3670635223389,18.3681564331055,18.3692493438721,18.37034034729,18.3714389801025,18.3725299835205,18.3736267089844,18.3747215270996,18.3758106231689,18.3769016265869,18.3779964447021,18.379093170166,18.3801898956299,18.3812847137451,18.3823795318604,18.383472442627,18.3845672607422,18.3856658935547,18.3867588043213,18.3878517150879,18.3889465332031,18.390043258667,18.3911437988281,18.3922348022461,18.39333152771,18.3944282531738,18.395528793335,18.3966178894043,18.3977184295654,18.3988208770752,18.3999156951904,18.401008605957,18.4021110534668,18.403205871582,18.4043025970459,18.4054012298584,18.406494140625,18.4075984954834,18.4086971282959,18.409797668457,18.4108905792236,18.4119892120361,18.4130878448486,18.4141864776611,18.415283203125,18.4163913726807,18.4174823760986,18.4185829162598,18.4196796417236,18.420783996582,18.4218788146973,18.422981262207,18.4240760803223,18.4251823425293,18.4262828826904,18.4273834228516,18.4284839630127,18.4295845031738,18.4306831359863,18.4317817687988,18.4328804016113,18.4339904785156,18.4350891113281,18.4361877441406,18.437292098999,18.4383888244629,18.4394912719727,18.4405956268311,18.4416923522949,18.4428005218506,18.4439010620117,18.4450016021729,18.4461040496826,18.4472103118896,18.4483108520508,18.4494171142578,18.4505157470703,18.1569023132324,18.1579875946045,18.1590728759766,18.1601581573486,18.1612434387207,18.1623306274414,18.1634159088135,18.1645030975342,18.1655883789062,18.166675567627,18.167760848999,18.1688480377197,18.1699352264404,18.1710224151611,18.1721096038818,18.1731967926025,18.1742839813232,18.1753711700439,18.1764583587646,18.1775455474854,18.1786346435547,18.1797218322754,18.1808109283447,18.1818981170654,18.1829872131348,18.1840763092041,18.1851634979248,18.1862525939941,18.1873416900635,18.1884307861328,18.1895198822021,18.1906089782715,18.1916980743408,18.1927890777588,18.1938781738281,18.1949672698975,18.1960582733154,18.1971473693848,18.1982383728027,18.1993274688721,18.20041847229,18.201509475708,18.202600479126,18.2036914825439,18.2047824859619,18.2058734893799,18.2069644927979,18.2080554962158,18.2091464996338,18.2102394104004,18.2113304138184,18.212423324585,18.2135143280029,18.2146072387695,18.2156982421875,18.2167911529541,18.2178840637207,18.2189769744873,18.2200698852539,18.2211627960205,18.2222557067871,18.2233486175537,18.2244415283203,18.2255363464355,18.2266292572021,18.2277221679688,18.228816986084,18.2299118041992,18.2310047149658,18.2320995330811,18.2331943511963,18.2342891693115,18.2353820800781,18.2364768981934,18.2375717163086,18.2386684417725,18.2397632598877,18.2408580780029,18.2419528961182,18.243049621582,18.2441444396973,18.2452411651611,18.2463359832764,18.2474327087402,18.2485294342041,18.249626159668,18.2507228851318,18.2518177032471,18.2529144287109,18.2540130615234,18.2551097869873,18.2562065124512,18.257303237915,18.2584018707275,15.3619756698608,15.2114162445068,15.1636533737183,15.1161890029907,15.0690212249756,15.0221471786499,14.9755630493164,14.9292678833008,14.8832569122314,14.8375301361084,14.7920827865601,14.7469129562378,14.7020177841187,14.657395362854,14.6130428314209,14.5689582824707,14.5251388549805,14.4815826416016,14.4382858276367,14.3952484130859,14.3524656295776,14.3099365234375,14.2676591873169,14.2256307601929,14.1838493347168,14.1423139572144,14.1010265350342,14.0599784851074,14.0191688537598,13.9785957336426,13.9382562637329,13.8981494903564,13.8582725524902,13.8186235427856,13.7792015075684,13.7400035858154,13.7010278701782,13.6622724533081,13.6237363815308,13.5854158401489,13.5473108291626,13.5094194412231,13.4717388153076,13.434268951416,13.3970060348511,13.3599491119385,13.3230962753296,13.2864475250244,13.2499990463257,13.2137498855591,13.177698135376,13.1418437957764,13.106183052063,13.0707159042358,13.035439491272,13.0003538131714,12.9654560089111,12.9307451248169,12.89621925354,12.8618774414062,12.8277187347412,12.793740272522,12.7855348587036,12.789210319519,12.7928886413574,12.7965688705444,12.6772413253784,12.6442022323608,12.6113138198853,12.5786008834839,12.5460567474365,12.5136814117432,12.4814729690552,12.4494304656982,12.4175510406494,12.385835647583,12.3542814254761,12.3228874206543,12.2916526794434,12.2605772018433,12.2296590805054,12.1988964080811,12.168288230896,12.1378326416016,12.1075296401978,12.0773782730103,12.0473737716675,12.0174989700317,12.016788482666
18.0259227752686,18.0269775390625,18.0280284881592,18.0290832519531,18.0301361083984,18.031192779541,18.0322399139404,18.0332984924316,18.0343532562256,18.035400390625,18.0364570617676,18.0375137329102,18.0385665893555,18.0396213531494,18.0406703948975,18.04172706604,18.0427837371826,18.0438365936279,18.0448989868164,18.0459537506104,18.0470066070557,18.0480575561523,18.0491180419922,18.0501689910889,18.0512256622314,18.0522899627686,18.0533466339111,18.0543956756592,18.0554542541504,18.0565090179443,18.0575695037842,18.0586204528809,18.0596752166748,18.0607376098633,18.0617942810059,18.0628471374512,18.063907623291,18.0649662017822,18.0660247802734,18.0670833587646,18.0681381225586,18.0691947937012,18.070255279541,18.0713119506836,18.0723705291748,18.0734310150146,18.0744895935059,18.0755481719971,18.076602935791,18.0776653289795,18.0787296295166,18.0797863006592,18.0808410644531,18.0818996429443,18.0829620361328,18.0840225219727,18.0850772857666,18.0861434936523,18.0872039794922,18.0882587432861,18.0893211364746,18.0903816223145,18.0914440155029,18.0925045013428,18.093563079834,18.0946273803711,18.0956859588623,18.0967445373535,18.0978088378906,18.0988731384277,18.0999298095703,18.1009941101074,18.1020526885986,18.1031188964844,18.1041812896729,18.1052436828613,18.1063060760498,18.1073665618896,18.1084232330322,18.1094913482666,18.1105518341064,18.1116180419922,18.1126842498779,18.1137428283691,18.1148090362549,18.1158695220947,18.1169281005859,18.117992401123,18.1190605163574,18.1201248168945,18.1211910247803,18.1222476959229,18.1233158111572,18.1243858337402,18.1254463195801,18.1265106201172,18.1275749206543,18.1286373138428,18.1297073364258,18.1307697296143,18.1318378448486,18.1329002380371,18.1339664459229,18.1350326538086,18.1360950469971,18.1371612548828,18.1382293701172,18.1392955780029,18.1403617858887,18.1414279937744,18.1424942016602,18.1435546875,18.1446266174316,18.1456909179688,18.146764755249,18.1478271484375,18.1488990783691,18.1499633789062,18.1510314941406,18.1520977020264,18.1531677246094,18.1542358398438,18.1553077697754,18.1563682556152,18.1574363708496,18.1585102081299,18.159574508667,18.1606426239014,18.1617164611816,18.1627826690674,18.1638507843018,18.1649208068848,18.1659927368164,18.1670589447021,18.1681270599365,18.1691989898682,18.1702632904053,18.1713333129883,18.1724128723145,18.1734790802002,18.1745510101318,18.1756172180176,18.1766872406006,18.177755355835,18.1788311004639,18.1799030303955,18.1809730529785,18.1820487976074,18.1831207275391,18.1841869354248,18.1852569580078,18.1863307952881,18.1874027252197,18.1884727478027,18.189546585083,18.1906204223633,18.1916923522949,18.1927604675293,18.1938362121582,18.1949062347412,18.1959819793701,18.1970520019531,18.1981201171875,18.1991996765137,18.2002735137939,18.2013492584229,18.2024192810059,18.2034969329834,18.2045631408691,18.2056350708008,17.9159297943115,17.9169845581055,17.9180431365967,17.9190998077393,17.9201564788818,17.9212131500244,17.9222717285156,17.9233283996582,17.9243869781494,17.925443649292,17.9265022277832,17.9275608062744,17.928617477417,17.9296760559082,17.9307346343994,17.9317932128906,17.9328517913818,17.933910369873,17.9349708557129,17.9360294342041,17.9370880126953,17.9381465911865,17.9392070770264,17.9402656555176,17.9413261413574,17.9423866271973,17.9434452056885,17.9445056915283,17.9455661773682,17.946626663208,17.9476852416992,17.9487476348877,17.9498081207275,17.9508686065674,17.9519290924072,17.9529895782471,17.9540519714355,17.9551124572754,17.9561729431152,17.9572353363037,17.9582977294922,17.959358215332,17.9604206085205,17.961483001709,17.9625453948975,17.9636077880859,17.9646701812744,17.9657325744629,17.9667949676514,17.9678573608398,17.9689197540283,17.9699840545654,17.9710464477539,17.9721088409424,17.9731731414795,17.9742374420166,17.9752998352051,17.9763641357422,17.9774284362793,17.9784927368164,17.9795570373535,17.9806213378906,17.9816856384277,17.9827499389648,17.983814239502,17.9848785400391,17.9859428405762,17.9870090484619,17.988073348999,17.9891395568848,17.9902038574219,17.9912700653076,17.9923362731934,17.9934024810791,17.9944667816162,17.995532989502,17.9965991973877,17.9976654052734,17.9987316131592,17.9997997283936,18.0008659362793,18.001932144165,18.0030002593994,18.0040664672852,18.0051345825195,18.0062007904053,18.0072689056396,18.008337020874,18.0094032287598,18.0104713439941,18.0115394592285,18.0126075744629,18.0136756896973,18.0147438049316,18.0158138275146,18.016881942749,18.0179500579834,18.0190181732178,18.0200881958008,18.0211563110352,18.0222263336182,18.0232963562012,18.0243644714355,18.0254344940186,18.0265045166016,18.0275745391846,18.0286445617676,18.0297145843506,18.0307846069336,18.0318546295166,18.0329246520996,18.0339965820312,18.0350666046143,18.0361366271973,18.0372085571289,18.0382804870605,18.0393505096436,18.0404224395752,18.0414943695068,18.0425662994385,18.0436382293701,18.0447082519531,18.0457820892334,18.046854019165,18.0479259490967,18.0489978790283,18.05006980896,18.0511436462402,18.0522155761719,18.0532894134521,18.0543613433838,18.0554351806641,18.0565090179443,18.057580947876,18.0586547851562,18.0597286224365,18.0608024597168,18.0618762969971,18.0629501342773,18.0640239715576,18.0650997161865,18.0661735534668,18.0672473907471,18.068323135376,18.0693988800049,18.0704727172852,18.0715484619141,18.0726222991943,18.0736980438232,18.0747737884521,18.0758495330811,15.2407693862915,15.1638326644897,15.1162414550781,15.069073677063,15.022198677063,14.9756145477295,14.9293184280396,14.8833084106445,14.8375797271729,14.7921323776245,14.7469625473022,14.7020673751831,14.6574449539185,14.6130924224854,14.5690069198608,14.5251874923706,14.4816303253174,14.4383335113525,14.3952951431274,14.3525133132935,14.3099842071533,14.2677059173584,14.2256774902344,14.1838960647583,14.1423606872559,14.1010713577271,14.0600233078003,14.0192136764526,13.9786405563354,13.9383010864258,13.8981943130493,13.8583164215088,13.8186683654785,13.7792453765869,13.7400465011597,13.7010707855225,13.6623153686523,13.6237783432007,13.5854587554932,13.5473537445068,13.5094614028931,13.4717807769775,13.4343099594116,13.3970470428467,13.3599901199341,13.3231372833252,13.2864875793457,13.250039100647,13.2137899398804,13.1777381896973,13.1418828964233,13.10622215271,13.0707550048828,13.0354785919189,13.000391960144,12.9654941558838,12.9307832717896,12.8962574005127,12.8619155883789,12.8277559280396,12.7961578369141,12.7994556427002,12.8027544021606,12.8060550689697,12.8093585968018,12.6773023605347,12.6442375183105,12.6113510131836,12.5786371231079,12.5460929870605,12.5137166976929,12.4815082550049,12.4494657516479,12.4175863265991,12.3858699798584,12.3543157577515,12.3229217529297,12.2916860580444,12.26060962677,12.2296886444092,12.1989240646362,12.1683139801025,12.1378593444824,12.1075553894043,12.0774040222168,12.0474014282227,12.0175476074219,11.9878263473511
17.8497486114502,17.8507747650146,17.8518142700195,17.8528461456299,17.8538818359375,17.8549175262451,17.8559417724609,17.8569793701172,17.8580093383789,17.8590412139893,17.8600807189941,17.8611125946045,17.862154006958,17.8631801605225,17.8642120361328,17.8652515411377,17.866283416748,17.8673133850098,17.8683528900146,17.8693885803223,17.870418548584,17.8714561462402,17.8724918365479,17.8735275268555,17.8745651245117,17.8755931854248,17.8766307830811,17.8776683807373,17.8787021636963,17.8797397613525,17.8807754516602,17.881814956665,17.8828449249268,17.8838806152344,17.8849182128906,17.8859596252441,17.886999130249,17.8880290985107,17.8890686035156,17.8901023864746,17.8911380767822,17.8921756744385,17.893217086792,17.8942565917969,17.8952941894531,17.8963317871094,17.8973655700684,17.8984088897705,17.8994445800781,17.9004821777344,17.9015254974365,17.9025592803955,17.9035949707031,17.9046363830566,17.9056758880615,17.906717300415,17.9077548980713,17.9087982177734,17.9098339080811,17.9108695983887,17.9119110107422,17.9129505157471,17.9139938354492,17.9150333404541,17.9160709381104,17.9171104431152,17.9181518554688,17.9191913604736,17.9202346801758,17.9212779998779,17.9223117828369,17.9233551025391,17.9243984222412,17.9254398345947,17.9264812469482,17.9275245666504,17.9285640716553,17.9296016693115,17.9306468963623,17.9316844940186,17.9327259063721,17.9337730407715,17.9348125457764,17.9358520507812,17.9368991851807,17.9379444122314,17.9389877319336,17.9400234222412,17.941068649292,17.9421119689941,17.9431533813477,17.9442005157471,17.9452438354492,17.9462871551514,17.9473342895508,17.9483757019043,17.9494171142578,17.9504585266113,17.9515056610107,17.9525489807129,17.9535942077637,17.9546413421631,17.955680847168,17.956729888916,17.9577732086182,17.9588184356689,17.9598636627197,17.9609107971191,17.9619579315186,17.9630012512207,17.9640426635742,17.965087890625,17.9661388397217,17.9671821594238,17.9682273864746,17.6822967529297,17.6833267211914,17.6843566894531,17.6853866577148,17.6864166259766,17.6874446868896,17.6884765625,17.6895065307617,17.6905364990234,17.6915664672852,17.6925964355469,17.6936264038086,17.6946582794189,17.6956882476807,17.696720123291,17.6977500915527,17.6987819671631,17.6998138427734,17.7008457183838,17.7018756866455,17.7029075622559,17.7039394378662,17.7049713134766,17.7060031890869,17.7070350646973,17.7080688476562,17.7091007232666,17.710132598877,17.7111663818359,17.7121982574463,17.7132320404053,17.7142639160156,17.7152976989746,17.716329574585,17.7173633575439,17.7183971405029,17.7194309234619,17.7204647064209,17.7214984893799,17.7225322723389,17.7235660552979,17.7245998382568,17.7256355285645,17.7266693115234,17.7277030944824,17.72873878479,17.7297744750977,17.7308082580566,17.7318439483643,17.7328796386719,17.7339134216309,17.7349491119385,17.7359848022461,17.7370204925537,17.7380561828613,17.7390918731689,17.7401275634766,17.7411651611328,17.7422008514404,17.743236541748,17.7442741394043,17.7453098297119,17.7463474273682,17.7473831176758,17.748420715332,17.7494583129883,17.7504959106445,17.7515316009521,17.7525691986084,17.7536067962646,17.7546443939209,17.7556819915771,17.756721496582,17.7577590942383,17.7587966918945,17.7598361968994,17.7608737945557,17.7619113922119,17.7629508972168,17.7639904022217,17.7650279998779,17.7660675048828,17.7671070098877,17.7681465148926,17.7691860198975,17.7702255249023,17.7712650299072,17.7723045349121,17.773344039917,17.7743854522705,17.7754249572754,17.7764644622803,17.7775058746338,17.7785453796387,17.7795867919922,17.7806262969971,17.7816677093506,17.7827091217041,17.7837505340576,17.7847919464111,17.7858333587646,17.7868747711182,17.7879161834717,17.7889575958252,17.7899990081787,17.7910404205322,17.7920837402344,17.7931251525879,17.79416847229,17.7952098846436,17.7962532043457,17.7972965240479,17.7983379364014,17.7993812561035,17.8004245758057,17.8014678955078,17.80251121521,17.8035545349121,17.8045978546143,17.8056411743164,17.8066844940186,17.8077297210693,17.8087730407715,17.8098182678223,17.8108615875244,17.8119068145752,17.8129501342773,17.8139953613281,17.8150405883789,17.8160858154297,17.8171291351318,17.8181762695312,17.8192195892334,17.8202667236328,17.8213119506836,17.8223571777344,17.8234024047852,17.8244495391846,17.8254947662354,17.8265399932861,17.8275871276855,17.828634262085,17.8296794891357,17.8307266235352,17.8317737579346,17.832820892334,17.8338680267334,17.8349151611328,17.8359622955322,17.8370094299316,17.8380565643311,17.8391036987305,17.8401508331299,17.8411998748779,17.8422470092773,17.8432960510254,17.8443431854248,17.8453922271729,17.8464412689209,17.8474884033203,17.8485374450684,17.8495864868164,17.8506355285645,17.8516845703125,17.8527336120605,17.8537826538086,17.8548316955566,17.8558826446533,17.8569316864014,17.857982635498,17.8590316772461,17.8600826263428,17.8611316680908,17.8621826171875,17.8632335662842,17.8642826080322,17.8653335571289,17.8663845062256,17.8674354553223,17.8684864044189,17.8695373535156,17.8705883026123,17.8716411590576,17.8726921081543,17.873743057251,17.8747959136963,17.875846862793,17.8768997192383,17.8779525756836,17.8790035247803,17.8800563812256,17.8811092376709,17.8821620941162,17.8832149505615,17.8842678070068,17.8853206634521,17.8863735198975,17.8874263763428,17.8884811401367,17.889533996582,17.8905868530273,17.8916416168213,17.8926944732666,17.8937492370605,17.8948040008545,17.8958568572998,15.339973449707,15.214243888855,15.1414203643799,15.0692911148071,15.0222501754761,14.9756660461426,14.9293699264526,14.8833589553833,14.8376302719116,14.7921829223633,14.7470121383667,14.7021169662476,14.6574935913086,14.6131410598755,14.569055557251,14.5252351760864,14.4816780090332,14.4383811950684,14.3953428268433,14.352560043335,14.3100309371948,14.2677526473999,14.2257232666016,14.1839418411255,14.142406463623,14.1011171340942,14.0600690841675,14.0192594528198,13.9786853790283,13.9383459091187,13.8982381820679,13.8583612442017,13.8187122344971,13.7792892456055,13.7400903701782,13.7011137008667,13.6623582839966,13.6238212585449,13.5855007171631,13.5473957061768,13.509503364563,13.4718227386475,13.4343509674072,13.3970880508423,13.3600311279297,13.3231782913208,13.2865285873413,13.2500791549683,13.2138299942017,13.1777782440186,13.1419229507446,13.1062622070312,13.0707941055298,13.0355176925659,13.000431060791,12.9655332565308,12.9308214187622,12.8962955474854,12.8619537353516,12.8277940750122,12.8081274032593,12.811429977417,12.8147354125977,12.8180418014526,12.7105588912964,12.6773386001587,12.6442728042603,12.6113882064819,12.5786743164062,12.5461292266846,12.5137529373169,12.4815435409546,12.4495010375977,12.4176216125488,12.3859052658081,12.3543500900269,12.3229560852051,12.2917203903198,12.2606430053711,12.2297229766846,12.1989583969116,12.1683473587036,12.1378898620605,12.1075849533081,12.0774307250977,12.0474271774292,12.0175724029541,11.9878664016724
17.6769771575928,17.6779918670654,17.6790046691895,17.6800270080566,17.6810417175293,17.6820468902588,17.6830615997314,17.6840744018555,17.6850852966309,17.6861000061035,17.6871109008789,17.6881256103516,17.6891422271729,17.6901588439941,17.6911735534668,17.6921844482422,17.6932010650635,17.6942138671875,17.6952285766602,17.6962432861328,17.6972599029541,17.6982746124268,17.6992950439453,17.7003040313721,17.7013187408447,17.7023296356201,17.7033500671387,17.7043685913086,17.7053852081299,17.7063999176025,17.7074146270752,17.7084312438965,17.7094421386719,17.7104606628418,17.7114734649658,17.712495803833,17.7135143280029,17.7145252227783,17.7155418395996,17.7165641784668,17.7175788879395,17.718599319458,17.7196159362793,17.7206287384033,17.7216510772705,17.7226638793945,17.7236843109131,17.724702835083,17.7257213592529,17.7267417907715,17.7277545928955,17.7287731170654,17.729793548584,17.7308120727539,17.7318363189697,17.7328548431396,17.7338695526123,17.7348861694336,17.7359085083008,17.4536781311035,17.4546813964844,17.4556846618652,17.4566879272461,17.457691192627,17.4586944580078,17.4596977233887,17.4607009887695,17.4617042541504,17.4627075195312,17.4637126922607,17.4647159576416,17.4657211303711,17.466724395752,17.4677295684814,17.4687347412109,17.4697380065918,17.4707431793213,17.4717483520508,17.4727535247803,17.4737586975098,17.4747638702393,17.4757690429688,17.4767742156982,17.4777793884277,17.4787864685059,17.4797916412354,17.4807987213135,17.481803894043,17.4828109741211,17.4838161468506,17.4848232269287,17.4858283996582,17.4868354797363,17.4878425598145,17.4888496398926,17.4898567199707,17.4908638000488,17.491870880127,17.4928779602051,17.4938850402832,17.49489402771,17.4959011077881,17.4969081878662,17.497917175293,17.4989242553711,17.4999332427979,17.500940322876,17.5019493103027,17.5029582977295,17.5039672851562,17.5049743652344,17.5059833526611,17.5069923400879,17.5080013275146,17.5090103149414,17.5100212097168,17.5110301971436,17.5120391845703,17.5130481719971,17.5140590667725,17.5150680541992,17.5160789489746,17.51708984375,17.5180988311768,17.5191097259521,17.5201206207275,17.5211296081543,17.5221405029297,17.5231513977051,17.5241622924805,17.5251731872559,17.5261859893799,17.5271968841553,17.5282077789307,17.5292186737061,17.5302314758301,17.5312423706055,17.5322551727295,17.5332660675049,17.5342788696289,17.5352916717529,17.5363025665283,17.5373153686523,17.5383281707764,17.5393409729004,17.5403537750244,17.5413665771484,17.5423793792725,17.5433940887451,17.5444068908691,17.5454196929932,17.5464324951172,17.5474472045898,17.5484600067139,17.5494747161865,17.5504894256592,17.5515022277832,17.5525169372559,17.5535316467285,17.5545463562012,17.5555610656738,17.5565738677979,17.5575904846191,17.5586051940918,17.5596199035645,17.5606346130371,17.5616493225098,17.5626659393311,17.5636806488037,17.564697265625,17.5657119750977,17.5667285919189,17.5677433013916,17.5687599182129,17.5697765350342,17.5707931518555,17.5718097686768,17.572826385498,17.5738430023193,17.5748596191406,17.5758762359619,17.5768928527832,17.5779094696045,17.5789279937744,17.5799446105957,17.5809631347656,17.5819797515869,17.5829982757568,17.5840148925781,17.585033416748,17.586051940918,17.5870704650879,17.5880889892578,17.5891075134277,17.5901260375977,17.5911445617676,17.5921630859375,17.5931816101074,17.5942001342773,17.5952205657959,17.5962390899658,17.5972576141357,17.5982780456543,17.5992984771729,17.6003170013428,17.6013374328613,17.6023578643799,17.6033782958984,17.6043968200684,17.6054172515869,17.6064376831055,17.607458114624,17.6084804534912,17.6095008850098,17.6105213165283,17.6115417480469,17.6125640869141,17.6135845184326,17.6146068572998,17.6156272888184,17.6166496276855,17.6176719665527,17.6186923980713,17.6197147369385,17.6207370758057,17.6217594146729,17.62278175354,17.6238040924072,17.6248264312744,17.6258487701416,17.6268730163574,17.6278953552246,17.6289176940918,17.6299419403076,17.6309642791748,17.6319885253906,17.6330108642578,17.6340351104736,17.6350593566895,17.6360836029053,17.6371078491211,17.6381301879883,17.6391563415527,17.6401805877686,17.6412048339844,17.6422290802002,17.643253326416,17.6442794799805,17.6453037261963,17.6463279724121,17.6473541259766,17.6483783721924,17.6494045257568,17.6504306793213,17.6514549255371,17.6524810791016,17.653507232666,17.6545333862305,17.6555595397949,17.6565856933594,17.6576118469238,17.6586380004883,17.6596660614014,17.6606922149658,17.6617183685303,17.6627464294434,17.6637725830078,17.6648006439209,17.665828704834,17.6668548583984,17.6678829193115,17.6689109802246,17.6699390411377,17.6709671020508,17.6719951629639,17.673023223877,17.67405128479,17.6750793457031,17.6761074066162,17.6771373748779,17.678165435791,17.6791934967041,17.6802234649658,17.6812515258789,17.6822814941406,17.6833114624023,17.6843395233154,17.6853694915771,17.6863994598389,17.6874294281006,17.6884593963623,17.689489364624,17.6905193328857,17.6915512084961,17.6925811767578,17.6936111450195,17.6946430206299,17.6956729888916,17.6967029571533,17.6977348327637,17.698766708374,17.6997966766357,17.7008285522461,17.7018604278564,17.7028923034668,17.7039241790771,17.7049560546875,17.7059879302979,17.7070198059082,17.7080516815186,17.7090854644775,17.7101173400879,17.7111492156982,17.7121829986572,17.7132148742676,17.7142486572266,17.7152805328369,17.7163143157959,17.7173480987549,17.7183818817139,17.7194156646729,17.7204494476318,15.2897748947144,15.1916828155518,15.1190748214722,15.0471572875977,14.9759216308594,14.9294204711914,14.8834095001221,14.8376808166504,14.7922325134277,14.7470617294312,14.702166557312,14.657543182373,14.6131896972656,14.5691041946411,14.5252838134766,14.4817266464233,14.4384288787842,14.3953905105591,14.3526067733765,14.3100776672363,14.2677993774414,14.2257699966431,14.1839876174927,14.1424522399902,14.1011629104614,14.0601148605347,14.0193042755127,13.9787302017212,13.9383907318115,13.8982830047607,13.8584051132202,13.8187561035156,13.7793321609497,13.7401332855225,13.7011575698853,13.6624011993408,13.6238641738892,13.5855436325073,13.5474376678467,13.5095453262329,13.4718647003174,13.4343929290771,13.3971290588379,13.3600721359253,13.3232192993164,13.2865686416626,13.2501192092896,13.2138700485229,13.1778182983398,13.1419620513916,13.1063013076782,13.0708332061768,13.0355567932129,13.000470161438,12.9655714035034,12.9308595657349,12.896333694458,12.8619918823242,12.8278322219849,12.8201179504395,12.8234272003174,12.8267383575439,12.743989944458,12.7106132507324,12.6773729324341,12.6443099975586,12.6114253997803,12.5787115097046,12.5461664199829,12.5137891769409,12.4815788269043,12.449535369873,12.4176559448242,12.3859395980835,12.3543853759766,12.3229904174805,12.2917547225952,12.2606773376465,12.22975730896,12.1989917755127,12.1683807373047,12.1379232406616,12.1076183319092,12.0774641036987,12.0474586486816,12.0176029205322,11.9878950119019
17.5075359344482,17.5085220336914,17.5095138549805,17.5105075836182,17.2318725585938,17.2328491210938,17.2338275909424,17.234806060791,17.235782623291,17.2367610931396,17.2377395629883,17.2387180328369,17.2396965026855,17.2406749725342,17.2416534423828,17.2426319122314,17.2436103820801,17.2445907592773,17.245569229126,17.2465476989746,17.2475280761719,17.2485065460205,17.2494869232178,17.2504653930664,17.2514457702637,17.2524261474609,17.2534065246582,17.2543849945068,17.2553653717041,17.2563457489014,17.2573261260986,17.2583065032959,17.2592868804932,17.2602691650391,17.2612495422363,17.2622299194336,17.2632102966309,17.2641925811768,17.265172958374,17.2661552429199,17.2671356201172,17.2681179046631,17.269100189209,17.2700824737549,17.2710628509521,17.272045135498,17.2730274200439,17.2740097045898,17.2749919891357,17.2759742736816,17.2769584655762,17.2779407501221,17.278923034668,17.2799053192139,17.2808895111084,17.2818717956543,17.2828559875488,17.2838382720947,17.2848224639893,17.2858066558838,17.2867889404297,17.2877731323242,17.2887573242188,17.2897415161133,17.2907257080078,17.2917098999023,17.2926940917969,17.2936782836914,17.2946643829346,17.2956485748291,17.2966327667236,17.2976188659668,17.2986030578613,17.2995891571045,17.300573348999,17.3015594482422,17.3025455474854,17.3035297393799,17.304515838623,17.3055019378662,17.3064880371094,17.3074741363525,17.3084602355957,17.3094463348389,17.310432434082,17.3114204406738,17.312406539917,17.3133926391602,17.314380645752,17.3153667449951,17.3163547515869,17.3173408508301,17.3183288574219,17.3193168640137,17.3203029632568,17.3212909698486,17.3222789764404,17.3232669830322,17.324254989624,17.3252429962158,17.3262310028076,17.3272190093994,17.3282089233398,17.3291969299316,17.3301849365234,17.3311748504639,17.3321628570557,17.3331527709961,17.3341407775879,17.3351306915283,17.3361206054688,17.3371086120605,17.338098526001,17.3390884399414,17.3400783538818,17.3410682678223,17.3420581817627,17.3430480957031,17.3440380096436,17.3450298309326,17.346019744873,17.3470096588135,17.3480014801025,17.348991394043,17.349983215332,17.3509731292725,17.3519649505615,17.3529567718506,17.353946685791,17.3549385070801,17.3559303283691,17.3569221496582,17.3579139709473,17.3589057922363,17.3598976135254,17.3608913421631,17.3618831634521,17.3628749847412,17.3638687133789,17.364860534668,17.3658542633057,17.3668460845947,17.3678398132324,17.3688316345215,17.3698253631592,17.3708190917969,17.3718128204346,17.3728065490723,17.37380027771,17.3747940063477,17.3757877349854,17.376781463623,17.3777751922607,17.3787689208984,17.3797645568848,17.3807582855225,17.3817520141602,17.3827476501465,17.3837432861328,17.3847370147705,17.3857326507568,17.3867282867432,17.3877220153809,17.3887176513672,17.3897132873535,17.3907089233398,17.3917045593262,17.3927001953125,17.3936958312988,17.3946933746338,17.3956890106201,17.3966846466064,17.3976821899414,17.3986778259277,17.3996753692627,17.400671005249,17.401668548584,17.4026641845703,17.4036617279053,17.4046592712402,17.4056568145752,17.4066543579102,17.4076519012451,17.4086494445801,17.409646987915,17.41064453125,17.411642074585,17.4126415252686,17.4136390686035,17.4146385192871,17.4156360626221,17.4166355133057,17.4176330566406,17.4186325073242,17.4196319580078,17.4206295013428,17.4216289520264,17.42262840271,17.4236278533936,17.4246273040771,17.4256267547607,17.4266262054443,17.4276275634766,17.4286270141602,17.4296264648438,17.430627822876,17.4316272735596,17.4326267242432,17.4336280822754,17.4346294403076,17.4356288909912,17.4366302490234,17.4376316070557,17.4386329650879,17.4396343231201,17.4406356811523,17.4416370391846,17.4426383972168,17.443639755249,17.4446411132812,17.4456424713135,17.4466457366943,17.4476470947266,17.4486503601074,17.4496517181396,17.4506549835205,17.4516563415527,17.4526596069336,17.4536628723145,17.4546661376953,17.4556694030762,17.4566707611084,17.4576740264893,17.4586791992188,17.4596824645996,17.4606857299805,17.4616889953613,17.4626941680908,17.4636974334717,17.4647006988525,17.465705871582,17.4667091369629,17.4677143096924,17.4687194824219,17.4697227478027,17.4707279205322,17.4717330932617,17.4727382659912,17.4737434387207,17.4747486114502,17.4757537841797,17.4767589569092,17.4777641296387,17.4787712097168,17.4797763824463,17.4807815551758,17.4817886352539,17.4827938079834,17.4838008880615,17.4848079681396,17.4858131408691,17.4868202209473,17.4878273010254,17.4888343811035,17.4898414611816,17.4908485412598,17.4918556213379,17.492862701416,17.4938697814941,17.4948768615723,17.495885848999,17.4968929290771,17.4979019165039,17.498908996582,17.4999179840088,17.5009250640869,17.5019340515137,17.5029430389404,17.5039501190186,17.5049591064453,17.5059680938721,17.5069770812988,17.5079860687256,17.5089950561523,17.5100059509277,17.5110149383545,17.5120239257812,17.513032913208,17.5140438079834,17.5150527954102,17.5160636901855,17.5170726776123,17.5180835723877,17.5190944671631,17.5201053619385,17.5211143493652,17.5221252441406,17.523136138916,17.5241470336914,17.5251579284668,17.5261688232422,17.5271816253662,17.5281925201416,17.529203414917,17.530216217041,17.5312271118164,17.5322399139404,17.5332508087158,17.5342636108398,17.5352764129639,17.5362873077393,17.5373001098633,17.5383129119873,17.5393257141113,17.5403385162354,17.5413513183594,17.5423641204834,17.5433769226074,17.5443916320801,17.5454044342041,17.5464172363281,17.5474319458008,17.5484447479248,15.2422800064087,15.1691884994507,15.0967950820923,15.025089263916,14.9540605545044,14.8837013244629,14.8377313613892,14.7922830581665,14.7471113204956,14.7022151947021,14.6575918197632,14.6132383346558,14.5691528320312,14.5253324508667,14.4817743301392,14.4384765625,14.3954372406006,14.3526544570923,14.3101243972778,14.2678461074829,14.2258167266846,14.1840333938599,14.1424980163574,14.1012086868286,14.0601596832275,14.0193490982056,13.9787750244141,13.9384346008301,13.8983268737793,13.8584489822388,13.8187999725342,13.7793760299683,13.740177154541,13.7012004852295,13.6624441146851,13.6239061355591,13.5855855941772,13.5474796295166,13.5095872879028,13.471905708313,13.4344339370728,13.3971700668335,13.3601131439209,13.3232593536377,13.2866096496582,13.2501602172852,13.2139101028442,13.1778583526611,13.1420021057129,13.1063404083252,13.0708723068237,13.0355958938599,13.0005083084106,12.9656105041504,12.9308986663818,12.8963718414307,12.8620300292969,12.828818321228,12.8321313858032,12.8354473114014,12.8387651443481,12.7440519332886,12.7106485366821,12.6774082183838,12.6443471908569,12.6114625930786,12.5787477493286,12.5462026596069,12.5138263702393,12.4816150665283,12.4495706558228,12.4176912307739,12.3859748840332,12.354419708252,12.3230247497559,12.2917890548706,12.2607116699219,12.229790687561,12.1990251541138,12.1684150695801,12.1379566192627,12.1076517105103,12.0774965286255,12.0474920272827,12.0176362991333,11.9879274368286
17.0643844604492,17.0653438568115,17.0663013458252,17.0672607421875,17.0682201385498,17.0691795349121,17.0701389312744,17.0710983276367,17.072057723999,17.0730171203613,17.0739765167236,17.0749359130859,17.0758953094482,17.0768566131592,17.0778160095215,17.0787754058838,17.0797367095947,17.0806980133057,17.081657409668,17.0826187133789,17.0835781097412,17.0845394134521,17.0855007171631,17.086462020874,17.087423324585,17.0883846282959,17.0893459320068,17.0903072357178,17.0912685394287,17.0922298431396,17.0931930541992,17.0941543579102,17.0951156616211,17.0960788726807,17.0970401763916,17.0980033874512,17.0989646911621,17.0999279022217,17.1008911132812,17.1018543243408,17.1028175354004,17.1037788391113,17.1047420501709,17.1057052612305,17.1066703796387,17.1076335906982,17.1085968017578,17.1095600128174,17.110523223877,17.1114883422852,17.1124515533447,17.1134166717529,17.1143798828125,17.1153450012207,17.1163082122803,17.1172733306885,17.1182384490967,17.1192035675049,17.1201667785645,17.1211318969727,17.1220970153809,17.1230621337891,17.1240291595459,17.1249942779541,17.1259593963623,17.1269245147705,17.1278896331787,17.1288566589355,17.1298217773438,17.1307888031006,17.1317539215088,17.1327209472656,17.1336879730225,17.1346530914307,17.1356201171875,17.1365871429443,17.1375541687012,17.138521194458,17.1394882202148,17.1404552459717,17.1414222717285,17.1423892974854,17.1433563232422,17.1443252563477,17.1452922821045,17.14626121521,17.1472282409668,17.1481971740723,17.1491641998291,17.1501331329346,17.1511001586914,17.1520690917969,17.1530380249023,17.1540069580078,17.1549758911133,17.1559448242188,17.1569137573242,17.1578826904297,17.1588516235352,17.1598205566406,17.1607913970947,17.1617603302002,17.1627292633057,17.1637001037598,17.1646690368652,17.1656398773193,17.1666088104248,17.1675796508789,17.168550491333,17.1695194244385,17.1704902648926,17.1714611053467,17.1724319458008,17.1734027862549,17.174373626709,17.1753444671631,17.1763172149658,17.1772880554199,17.178258895874,17.1792316436768,17.1802024841309,17.1811752319336,17.1821460723877,17.1831188201904,17.1840896606445,17.1850624084473,17.18603515625,17.1870079040527,17.1879787445068,17.1889514923096,17.1899242401123,17.190896987915,17.1918716430664,17.1928443908691,17.1938171386719,17.1947898864746,17.195764541626,17.1967372894287,17.1977100372314,17.1986846923828,17.1996574401855,17.2006320953369,17.2016067504883,17.2025814056396,17.2035541534424,17.2045288085938,17.2055034637451,17.2064781188965,17.2074527740479,17.2084274291992,17.2094039916992,17.2103786468506,17.211353302002,17.2123279571533,17.2133045196533,17.2142791748047,17.2152557373047,17.2162303924561,17.2172069549561,17.2181816101074,17.2191581726074,17.2201347351074,17.2211112976074,17.2220878601074,17.2230644226074,17.2240409851074,17.2250175476074,17.2259941101074,17.2269706726074,17.2279472351074,17.2289257049561,17.2299022674561,17.2308807373047,17.2318572998047,17.2328357696533,17.2338123321533,17.234790802002,17.2357692718506,17.2367458343506,17.2377243041992,17.2387027740479,17.2396812438965,17.2406597137451,17.2416381835938,17.2426166534424,17.243595123291,17.2445755004883,17.2455539703369,17.2465324401855,17.2475128173828,17.2484912872314,17.2494716644287,17.2504501342773,17.2514305114746,17.2524108886719,17.2533912658691,17.2543697357178,17.255350112915,17.2563304901123,17.2573108673096,17.2582912445068,17.2592716217041,17.26025390625,17.2612342834473,17.2622146606445,17.2631950378418,17.2641773223877,17.265157699585,17.2661399841309,17.2671203613281,17.268102645874,17.2690849304199,17.2700672149658,17.2710475921631,17.272029876709,17.2730121612549,17.2739944458008,17.2749767303467,17.2759590148926,17.2769432067871,17.277925491333,17.2789077758789,17.2798900604248,17.2808742523193,17.2818565368652,17.2828407287598,17.2838230133057,17.2848072052002,17.2857913970947,17.2867755889893,17.2877578735352,17.2887420654297,17.2897262573242,17.2907104492188,17.2916946411133,17.2926788330078,17.293664932251,17.2946491241455,17.29563331604,17.2966175079346,17.2976036071777,17.2985877990723,17.2995738983154,17.30055809021,17.3015441894531,17.3025302886963,17.3035144805908,17.304500579834,17.3054866790771,17.3064727783203,17.3074588775635,17.3084449768066,17.3094310760498,17.310417175293,17.3114051818848,17.3123912811279,17.3133773803711,17.3143653869629,17.3153514862061,17.3163394927979,17.317325592041,17.3183135986328,17.3193016052246,17.3202877044678,17.3212757110596,17.3222637176514,17.3232517242432,17.324239730835,17.3252277374268,17.3262157440186,17.3272037506104,17.3281936645508,17.3291816711426,17.3301696777344,17.3311595916748,17.3321475982666,17.333137512207,17.3341255187988,17.3351154327393,17.3361053466797,17.3370933532715,17.3380832672119,17.3390731811523,17.3400630950928,17.3410530090332,17.3420429229736,17.3430328369141,17.3440227508545,17.3450145721436,17.346004486084,17.3469944000244,17.3479862213135,17.3489761352539,17.349967956543,17.3509578704834,17.3519496917725,17.3529415130615,17.3539333343506,17.354923248291,17.3559150695801,17.3569068908691,17.3578987121582,17.3588905334473,17.359884262085,17.360876083374,17.3618679046631,17.3628597259521,17.3638534545898,17.3648452758789,17.365837097168,17.3668308258057,17.3678245544434,17.3688163757324,17.3698101043701,17.3708038330078,17.3717975616455,17.3727893829346,17.3737850189209,17.3747787475586,17.3757724761963,17.376766204834,17.3777599334717,17.3787536621094,17.3797492980957,15.2196311950684,15.1467609405518,15.0745811462402,15.0030851364136,14.9322643280029,14.8621091842651,14.792610168457,14.7471609115601,14.7022647857666,14.6576414108276,14.6132869720459,14.5692014694214,14.5253801345825,14.481822013855,14.4385242462158,14.3954849243164,14.3527011871338,14.3101711273193,14.2678918838501,14.2258625030518,14.1840801239014,14.1425437927246,14.1012544631958,14.0602054595947,14.0193948745728,13.9788198471069,13.9384794235229,13.8983716964722,13.8584928512573,13.8188428878784,13.7794198989868,13.7402200698853,13.7012434005737,13.6624870300293,13.6239490509033,13.5856285095215,13.5475215911865,13.5096292495728,13.4719476699829,13.4344758987427,13.3972120285034,13.3601541519165,13.3233003616333,13.2866497039795,13.2502002716064,13.2139501571655,13.1778974533081,13.1420412063599,13.1063804626465,13.0709114074707,13.0356340408325,13.0005474090576,12.965648651123,12.9309368133545,12.8964099884033,12.8620672225952,12.8408479690552,12.8441677093506,12.8474903106689,12.7776594161987,12.7440986633301,12.7106838226318,12.6774425506592,12.6443843841553,12.611499786377,12.578784942627,12.5462398529053,12.5138626098633,12.4816522598267,12.4496068954468,12.4177265167236,12.3860092163086,12.3544540405273,12.3230590820312,12.291823387146,12.2607460021973,12.2298250198364,12.1990594863892,12.1684484481812,12.1379899978638,12.1076850891113,12.0775299072266,12.0475254058838,12.0176687240601,11.9879598617554
16.9038829803467,16.9048233032227,16.9057655334473,16.9067058563232,16.9076461791992,16.9085884094238,16.9095287322998,16.9104709625244,16.911413192749,16.912353515625,16.9132957458496,16.9142379760742,16.9151782989502,16.9161205291748,16.9170627593994,16.918004989624,16.9189472198486,16.9198894500732,16.9208335876465,16.9217758178711,16.9227180480957,16.9236602783203,16.9246044158936,16.9255466461182,16.9264907836914,16.927433013916,16.9283771514893,16.9293193817139,16.9302635192871,16.9312076568604,16.9321517944336,16.9330959320068,16.9340400695801,16.9349842071533,16.9359283447266,16.9368724822998,16.937816619873,16.9387607574463,16.9397048950195,16.9406509399414,16.9415950775146,16.9425392150879,16.9434852600098,16.944429397583,16.9453754425049,16.9463214874268,16.947265625,16.9482116699219,16.9491577148438,16.9501037597656,16.9510498046875,16.9519958496094,16.9529418945312,16.9538879394531,16.954833984375,16.9557800292969,16.9567260742188,16.9576740264893,16.9586200714111,16.9595680236816,16.9605140686035,16.961462020874,16.9624080657959,16.9633560180664,16.9643020629883,16.9652500152588,16.9661979675293,16.9671459197998,16.9680938720703,16.9690418243408,16.9699897766113,16.9709377288818,16.9718856811523,16.9728336334229,16.9737815856934,16.9747314453125,16.975679397583,16.9766292572021,16.9775772094727,16.9785270690918,16.9794750213623,16.9804248809814,16.981372833252,16.9823226928711,16.9832725524902,16.9842224121094,16.9851722717285,16.9861221313477,16.9870719909668,16.9880218505859,16.9889717102051,16.9899215698242,16.990873336792,16.9918231964111,16.9927730560303,16.993724822998,16.9946746826172,16.995626449585,16.9965763092041,16.9975280761719,16.9984798431396,16.9994297027588,17.0003814697266,17.0013332366943,17.0022850036621,17.0032367706299,17.0041885375977,17.0051403045654,17.0060920715332,17.007043838501,17.0079975128174,17.0089492797852,17.0099010467529,17.0108547210693,17.0118064880371,17.0127601623535,17.0137138366699,17.0146656036377,17.0156192779541,17.0165729522705,17.0175247192383,17.0184783935547,17.0194320678711,17.0203857421875,17.0213394165039,17.0222930908203,17.0232486724854,17.0242023468018,17.0251560211182,17.0261096954346,17.0270652770996,17.028018951416,17.0289745330811,17.0299282073975,17.0308837890625,17.0318374633789,17.0327930450439,17.033748626709,17.034704208374,17.0356597900391,17.0366153717041,17.0375709533691,17.0385265350342,17.0394821166992,17.0404376983643,17.0413932800293,17.0423488616943,17.043306350708,17.044261932373,17.0452175140381,17.0461750030518,17.0471324920654,17.0480880737305,17.0490455627441,17.0500030517578,17.0509586334229,17.0519161224365,17.0528736114502,17.0538311004639,17.0547885894775,17.0557460784912,17.0567035675049,17.0576629638672,17.0586204528809,17.0595779418945,17.0605354309082,17.0614948272705,17.0624523162842,17.0634117126465,17.0643692016602,17.0653285980225,17.0662879943848,17.0672454833984,17.0682048797607,17.069164276123,17.0701236724854,17.0710830688477,17.07204246521,17.0730018615723,17.0739612579346,17.0749206542969,17.0758819580078,17.0768413543701,17.0778007507324,17.0787620544434,17.0797214508057,17.0806827545166,17.0816421508789,17.0826034545898,17.0835647583008,17.0845260620117,17.085485458374,17.086446762085,17.0874080657959,17.0883693695068,17.0893306732178,17.0902919769287,17.0912532806396,17.0922164916992,17.0931777954102,17.0941390991211,17.0951023101807,17.0960636138916,17.0970268249512,17.0979881286621,17.0989513397217,17.0999126434326,17.1008758544922,17.1018390655518,17.1028022766113,17.1037654876709,17.1047286987305,17.10569190979,17.1066551208496,17.1076183319092,17.1085815429688,17.1095447540283,17.1105098724365,17.1114730834961,17.1124362945557,17.1134014129639,17.1143646240234,17.1153297424316,17.1162948608398,17.1172580718994,17.1182231903076,17.1191883087158,17.120153427124,17.1211166381836,17.1220836639404,17.1230487823486,17.1240139007568,17.124979019165,17.1259441375732,17.1269092559814,17.1278762817383,17.1288414001465,17.1298065185547,17.1307735443115,17.1317386627197,17.1327056884766,17.1336727142334,17.1346378326416,17.1356048583984,17.1365718841553,17.1375389099121,17.1385059356689,17.1394729614258,17.1404399871826,17.1414070129395,17.1423740386963,17.1433429718018,17.1443099975586,17.1452770233154,17.1462459564209,17.1472129821777,17.1481819152832,17.14914894104,17.1501178741455,17.151086807251,17.1520538330078,17.1530227661133,17.1539916992188,17.1549606323242,17.1559295654297,17.1568984985352,17.1578674316406,17.1588363647461,17.1598052978516,17.1607761383057,17.1617450714111,17.1627140045166,17.1636848449707,17.1646537780762,17.1656246185303,17.1665935516357,17.1675643920898,17.1685352325439,17.169506072998,17.1704769134521,17.1714458465576,17.1724166870117,17.1733875274658,17.1743583679199,17.1753311157227,17.1763019561768,17.1772727966309,17.178243637085,17.1792163848877,17.1801872253418,17.1811599731445,17.1821308135986,17.1831035614014,17.1840744018555,17.1850471496582,17.1860198974609,17.1869926452637,17.1879653930664,17.1889381408691,17.1899108886719,17.1908836364746,17.1918563842773,17.1928291320801,17.1938018798828,17.1947746276855,17.1957492828369,17.1967220306396,17.197696685791,17.1986694335938,17.1996440887451,17.2006168365479,17.2015914916992,17.2025661468506,17.203540802002,17.2045135498047,17.2054882049561,17.2064628601074,17.2074375152588,17.2084121704102,17.2093887329102,17.2103633880615,17.2113380432129,17.2123126983643,17.2132892608643,17.2142639160156,17.2152404785156,15.1224927902222,15.0524320602417,14.9811458587646,14.9105310440063,14.8405799865723,14.7712812423706,14.7026271820068,14.6576900482178,14.6133365631104,14.5692501068115,14.5254287719727,14.4818696975708,14.4385719299316,14.3955326080322,14.3527488708496,14.3102178573608,14.2679386138916,14.2259092330933,14.1841259002686,14.1425895690918,14.101300239563,14.0602512359619,14.0194396972656,13.9788646697998,13.9385242462158,13.8984155654907,13.8585376739502,13.8188877105713,13.7794637680054,13.7402639389038,13.701286315918,13.6625299453735,13.6239919662476,13.5856704711914,13.5475645065308,13.5096712112427,13.4719896316528,13.4345169067383,13.397253036499,13.3601951599121,13.3233413696289,13.2866907119751,13.2502403259277,13.2139902114868,13.1779375076294,13.1420812606812,13.1064195632935,13.0709505081177,13.0356731414795,13.0005865097046,12.9656867980957,12.9309749603271,12.896448135376,12.8621053695679,12.8529005050659,12.8562269210815,12.8595552444458,12.7777214050293,12.7441339492798,12.7107181549072,12.6774797439575,12.6444225311279,12.6115369796753,12.5788221359253,12.5462760925293,12.5138988494873,12.4816884994507,12.4496431350708,12.4177618026733,12.3860445022583,12.3544883728027,12.3230934143066,12.2918577194214,12.2607803344727,12.2298583984375,12.1990928649902,12.1684818267822,12.1380233764648,12.1077175140381,12.0775632858276,12.0475578308105,12.0177011489868,11.9879922866821
16.746374130249,16.7472972869873,16.7482204437256,16.7491436004639,16.7500667572021,16.7509899139404,16.7519149780273,16.7528381347656,16.7537631988525,16.7546863555908,16.7556114196777,16.756534576416,16.7574596405029,16.7583847045898,16.7593078613281,16.760232925415,16.761157989502,16.7620830535889,16.7630081176758,16.7639331817627,16.7648582458496,16.7657833099365,16.7667083740234,16.767635345459,16.7685604095459,16.7694854736328,16.7704124450684,16.7713375091553,16.7722644805908,16.7731895446777,16.7741165161133,16.7750434875488,16.7759685516357,16.7768955230713,16.7778224945068,16.7787494659424,16.7796764373779,16.7806034088135,16.781530380249,16.7824573516846,16.7833843231201,16.7843112945557,16.7852401733398,16.7861671447754,16.7870941162109,16.7880229949951,16.7889499664307,16.7898788452148,16.7908058166504,16.7917346954346,16.7926635742188,16.7935905456543,16.7945194244385,16.7954483032227,16.7963771820068,16.797306060791,16.7982349395752,16.7991638183594,16.8000926971436,16.8010215759277,16.8019523620605,16.8028812408447,16.8038101196289,16.8047409057617,16.8056697845459,16.8066005706787,16.8075294494629,16.8084602355957,16.8093891143799,16.8103199005127,16.8112506866455,16.8121814727783,16.8131122589111,16.8140430450439,16.8149738311768,16.8159046173096,16.8168354034424,16.8177661895752,16.818696975708,16.8196277618408,16.8205604553223,16.8214912414551,16.8224239349365,16.8233547210693,16.8242874145508,16.8252182006836,16.826150894165,16.8270816802979,16.8280143737793,16.8289470672607,16.8298797607422,16.8308124542236,16.8317451477051,16.8326778411865,16.833610534668,16.8345432281494,16.8354759216309,16.8364086151123,16.8373432159424,16.8382759094238,16.8392086029053,16.8401432037354,16.8410758972168,16.8420104980469,16.842945098877,16.8438777923584,16.8448123931885,16.8457469940186,16.8466815948486,16.8476142883301,16.8485488891602,16.8494834899902,16.8504180908203,16.851354598999,16.8522891998291,16.8532238006592,16.8541584014893,16.855094909668,16.856029510498,16.8569641113281,16.8579006195068,16.8588352203369,16.8597717285156,16.8607082366943,16.8616428375244,16.8625793457031,16.8635158538818,16.8644523620605,16.8653888702393,16.866325378418,16.8672618865967,16.8681983947754,16.8691349029541,16.8700714111328,16.8710079193115,16.8719463348389,16.8728828430176,16.8738193511963,16.8747577667236,16.875696182251,16.8766326904297,16.877571105957,16.8785076141357,16.8794460296631,16.8803844451904,16.8813228607178,16.8822612762451,16.8831996917725,16.8841381072998,16.8850765228271,16.8860149383545,16.8869533538818,16.8878917694092,16.8888320922852,16.8897705078125,16.8907089233398,16.8916492462158,16.8925876617432,16.8935279846191,16.8944664001465,16.8954067230225,16.8963470458984,16.8972854614258,16.8982257843018,16.8991661071777,16.9001064300537,16.9010467529297,16.9019870758057,16.9029273986816,16.9038696289062,16.9048099517822,16.9057502746582,16.9066905975342,16.9076328277588,16.9085731506348,16.9095153808594,16.9104557037354,16.91139793396,16.9123401641846,16.9132804870605,16.9142227172852,16.9151649475098,16.9161071777344,16.917049407959,16.9179916381836,16.9189338684082,16.9198760986328,16.9208183288574,16.921760559082,16.9227027893066,16.9236469268799,16.9245891571045,16.9255332946777,16.9264755249023,16.9274196624756,16.9283618927002,16.9293060302734,16.9302501678467,16.9311923980713,16.9321365356445,16.9330806732178,16.934024810791,16.9349689483643,16.9359130859375,16.9368572235107,16.937801361084,16.9387454986572,16.9396915435791,16.9406356811523,16.9415798187256,16.9425258636475,16.9434700012207,16.9444160461426,16.9453601837158,16.9463062286377,16.9472522735596,16.9481964111328,16.9491424560547,16.9500885009766,16.9510345458984,16.9519805908203,16.9529266357422,16.9538726806641,16.9548187255859,16.9557647705078,16.9567127227783,16.9576587677002,16.9586048126221,16.9595527648926,16.9604988098145,16.961446762085,16.9623928070068,16.9633407592773,16.9642887115479,16.9652366638184,16.9661827087402,16.9671306610107,16.9680786132812,16.9690265655518,16.9699745178223,16.9709224700928,16.9718704223633,16.9728202819824,16.9737682342529,16.9747161865234,16.9756641387939,16.9766139984131,16.9775619506836,16.9785118103027,16.9794597625732,16.9804096221924,16.9813594818115,16.9823093414307,16.9832572937012,16.9842071533203,16.9851570129395,16.9861068725586,16.9870567321777,16.9880065917969,16.988956451416,16.9899082183838,16.9908580780029,16.9918079376221,16.9927597045898,16.993709564209,16.9946594238281,16.9956111907959,16.9965629577637,16.9975128173828,16.9984645843506,16.9994163513184,17.0003662109375,17.0013179779053,17.002269744873,17.0032215118408,17.0041732788086,17.0051250457764,17.0060787200928,17.0070304870605,17.0079822540283,17.0089340209961,17.0098876953125,17.0108394622803,17.0117931365967,17.0127449035645,17.0136985778809,17.0146503448486,17.015604019165,17.0165576934814,17.0175113677979,17.0184650421143,17.019416809082,17.0203704833984,17.0213260650635,17.0222797393799,17.0232334136963,17.0241870880127,17.0251407623291,17.0260963439941,17.0270500183105,17.028003692627,17.028959274292,17.0299129486084,17.0308685302734,17.0318241119385,17.0327777862549,17.0337333679199,17.034688949585,17.03564453125,17.036600112915,17.0375556945801,17.0385112762451,17.0394668579102,17.0404224395752,17.0413780212402,17.0423355102539,17.0432910919189,17.044246673584,17.0452041625977,17.0461597442627,17.0471172332764,17.04807472229,17.0490303039551,17.0499877929688,17.0509452819824,17.0519027709961,17.0528583526611,17.0538158416748,15.0265855789185,14.957763671875,14.888861656189,14.81911277771,14.7500143051147,14.6815567016602,14.6137323379517,14.5692987442017,14.5254764556885,14.4819183349609,14.4386196136475,14.3955793380737,14.3527956008911,14.3102645874023,14.2679853439331,14.2259550094604,14.1841716766357,14.1426362991333,14.1013460159302,14.0602960586548,14.0194845199585,13.9789094924927,13.9385690689087,13.8984603881836,13.8585815429688,13.8189306259155,13.7795066833496,13.740306854248,13.7013292312622,13.6625728607178,13.6240339279175,13.5857124328613,13.5476064682007,13.5097131729126,13.4720306396484,13.4345588684082,13.3972940444946,13.3602361679077,13.3233823776245,13.2867307662964,13.2502813339233,13.2140302658081,13.1779775619507,13.1421213150024,13.1064586639404,13.070990562439,13.0357131958008,13.0006246566772,12.9657258987427,12.9310131072998,12.8964862823486,12.8621435165405,12.8649759292603,12.8683080673218,12.8716430664062,12.7777614593506,12.7441692352295,12.7107534408569,12.6775169372559,12.6444597244263,12.6115741729736,12.5788583755493,12.5463132858276,12.5139350891113,12.4817247390747,12.4496784210205,12.417797088623,12.3860788345337,12.3545236587524,12.323127746582,12.2918920516968,12.2608137130737,12.2298927307129,12.1991271972656,12.1685152053833,12.1380567550659,12.1077508926392,12.0775957107544,12.0475912094116,12.0177345275879,11.9880256652832
16.5917701721191,16.5926780700684,16.5935840606689,16.5944900512695,16.5953979492188,16.5963039398193,16.5972099304199,16.5981178283691,16.5990238189697,16.5999317169189,16.6008396148682,16.6017456054688,16.602653503418,16.6035614013672,16.6044692993164,16.6053771972656,16.6062850952148,16.6071929931641,16.6081008911133,16.6090087890625,16.6099166870117,16.6108245849609,16.6117324829102,16.612642288208,16.6135501861572,16.6144599914551,16.6153678894043,16.6162776947021,16.6171855926514,16.6180953979492,16.6190032958984,16.6199131011963,16.6208229064941,16.621732711792,16.6226425170898,16.6235523223877,16.6244621276855,16.6253719329834,16.6262817382812,16.6271915435791,16.628101348877,16.6290111541748,16.6299228668213,16.6308326721191,16.6317443847656,16.6326541900635,16.6335639953613,16.6344757080078,16.6353874206543,16.6362972259521,16.6372089385986,16.6381206512451,16.6390323638916,16.6399440765381,16.6408557891846,16.6417675018311,16.6426792144775,16.643590927124,16.6445026397705,16.645414352417,16.6463260650635,16.6472396850586,16.6481513977051,16.6490631103516,16.6499767303467,16.6508884429932,16.6518020629883,16.6527137756348,16.6536273956299,16.654541015625,16.6554546356201,16.6563682556152,16.6572799682617,16.6581935882568,16.659107208252,16.6600208282471,16.6609344482422,16.6618499755859,16.6627635955811,16.6636772155762,16.6645908355713,16.665506362915,16.6664199829102,16.6673355102539,16.668249130249,16.6691646575928,16.6700782775879,16.6709938049316,16.6719093322754,16.6728229522705,16.6737384796143,16.674654006958,16.6755695343018,16.6764850616455,16.6774005889893,16.678316116333,16.6792316436768,16.6801490783691,16.6810646057129,16.6819801330566,16.6828956604004,16.6838130950928,16.6847286224365,16.6856460571289,16.6865615844727,16.687479019165,16.6883964538574,16.6893119812012,16.6902294158936,16.6911468505859,16.6920642852783,16.6929817199707,16.6938991546631,16.6948165893555,16.6957340240479,16.6966514587402,16.6975688934326,16.6984882354736,16.699405670166,16.7003231048584,16.7012424468994,16.7021598815918,16.7030792236328,16.7039966583252,16.7049160003662,16.7058334350586,16.7067527770996,16.7076721191406,16.7085914611816,16.7095108032227,16.7104301452637,16.7113494873047,16.7122688293457,16.7131881713867,16.7141075134277,16.7150268554688,16.7159481048584,16.7168674468994,16.7177867889404,16.7187080383301,16.7196273803711,16.7205486297607,16.7214679718018,16.7223892211914,16.7233104705811,16.7242298126221,16.7251510620117,16.7260723114014,16.726993560791,16.7279148101807,16.7288360595703,16.72975730896,16.7306785583496,16.7315998077393,16.7325210571289,16.7334442138672,16.7343654632568,16.7352867126465,16.7362098693848,16.7371311187744,16.7380542755127,16.7389755249023,16.7398986816406,16.7408218383789,16.7417430877686,16.7426662445068,16.7435894012451,16.7445125579834,16.7454357147217,16.74635887146,16.7472820281982,16.7482051849365,16.7491283416748,16.7500534057617,16.7509765625,16.7518997192383,16.7528247833252,16.7537479400635,16.7546730041504,16.7555961608887,16.7565212249756,16.7574443817139,16.7583694458008,16.7592945098877,16.7602195739746,16.7611446380615,16.7620677947998,16.7629928588867,16.7639198303223,16.7648448944092,16.7657699584961,16.766695022583,16.7676200866699,16.7685451507568,16.7694721221924,16.7703971862793,16.7713241577148,16.7722492218018,16.7731761932373,16.7741012573242,16.7750282287598,16.7759552001953,16.7768821716309,16.7778072357178,16.7787342071533,16.7796611785889,16.7805881500244,16.78151512146,16.7824420928955,16.7833709716797,16.7842979431152,16.7852249145508,16.7861518859863,16.7870807647705,16.7880077362061,16.7889366149902,16.7898635864258,16.79079246521,16.7917194366455,16.7926483154297,16.7935771942139,16.794506072998,16.7954330444336,16.7963619232178,16.797290802002,16.7982215881348,16.7991504669189,16.8000793457031,16.8010082244873,16.8019371032715,16.8028659820557,16.8037967681885,16.8047256469727,16.8056564331055,16.8065853118896,16.8075160980225,16.8084449768066,16.8093757629395,16.8103065490723,16.8112373352051,16.8121662139893,16.8130970001221,16.8140277862549,16.8149585723877,16.8158893585205,16.8168201446533,16.8177509307861,16.8186836242676,16.8196144104004,16.8205451965332,16.821475982666,16.8224086761475,16.8233394622803,16.8242721557617,16.8252048492432,16.826135635376,16.8270683288574,16.8280010223389,16.8289318084717,16.8298645019531,16.8307971954346,16.831729888916,16.8326625823975,16.8335952758789,16.8345279693604,16.8354625701904,16.8363952636719,16.8373279571533,16.8382606506348,16.8391952514648,16.8401279449463,16.8410625457764,16.8419952392578,16.8429298400879,16.843864440918,16.8447971343994,16.8457317352295,16.8466663360596,16.8476009368896,16.8485355377197,16.8494701385498,16.8504047393799,16.85133934021,16.85227394104,16.8532085418701,16.8541450500488,16.8550796508789,16.856014251709,16.8569507598877,16.8578853607178,16.8588218688965,16.8597564697266,16.8606929779053,16.861629486084,16.8625640869141,16.8635005950928,16.8644371032715,16.8653736114502,16.8663101196289,16.8672466278076,16.8681831359863,16.869119644165,16.8700580596924,16.8709945678711,16.8719310760498,16.8728675842285,16.8738059997559,16.8747425079346,16.8756809234619,16.8766174316406,16.877555847168,16.8784942626953,16.879430770874,16.8803691864014,16.8813076019287,16.8822460174561,16.8831844329834,16.8841228485107,16.8850612640381,16.8859996795654,16.8869380950928,16.8878784179688,16.8888168334961,16.8897552490234,16.8906955718994,16.8916339874268,16.8925743103027,16.8935127258301,16.8944530487061,16.8953914642334,14.9318885803223,14.8639287948608,14.7965850830078,14.7288084030151,14.6605472564697,14.5929155349731,14.5259065628052,14.4819660186768,14.4386672973633,14.3956270217896,14.3528423309326,14.3103113174438,14.2680320739746,14.226001739502,14.1842174530029,14.1426820755005,14.1013917922974,14.060341835022,14.0195302963257,13.9789543151855,13.9386138916016,13.8985042572021,13.8586254119873,13.8189744949341,13.7795505523682,13.7403507232666,13.7013731002808,13.662615776062,13.6240768432617,13.5857553482056,13.5476484298706,13.5097551345825,13.4720726013184,13.4345998764038,13.3973350524902,13.3602771759033,13.3234224319458,13.286771774292,13.2503213882446,13.2140703201294,13.178017616272,13.1421604156494,13.1064987182617,13.0710296630859,13.0357513427734,13.0006637573242,12.9657640457153,12.9310522079468,12.8965244293213,12.8737363815308,12.8770732879639,12.8804121017456,12.8115663528442,12.7777967453003,12.7442045211792,12.7107887268066,12.6775541305542,12.6444969177246,12.6116104125977,12.5788955688477,12.5463495254517,12.5139722824097,12.4817609786987,12.4497146606445,12.4178333282471,12.3861141204834,12.3545579910278,12.3231630325317,12.2919263839722,12.2608480453491,12.229926109314,12.1991605758667,12.1685485839844,12.1380910873413,12.1077842712402,12.0776290893555,12.0476236343384,12.0177669525146,11.98805809021
16.4399967193604,16.4408874511719,16.4417781829834,16.4426670074463,16.4435577392578,16.4444484710693,16.4453372955322,16.4462280273438,16.4471187591553,16.4480094909668,16.4489002227783,16.4497909545898,16.4506816864014,16.4515724182129,16.4524631500244,16.4533557891846,16.4542465209961,16.4551372528076,16.4560298919678,16.4569206237793,16.4578132629395,16.458703994751,16.4595966339111,16.4604873657227,16.4613800048828,16.462272644043,16.4631652832031,16.4640560150146,16.4649486541748,16.465841293335,16.4667339324951,16.4676265716553,16.4685192108154,16.4694118499756,16.4703063964844,16.4711990356445,16.4720916748047,16.4729862213135,16.4738788604736,16.4747714996338,16.4756660461426,16.4765586853027,16.4774532318115,16.4783477783203,16.4792404174805,16.4801349639893,16.481029510498,16.4819240570068,16.4828186035156,16.4837131500244,16.4846076965332,16.485502243042,16.4863967895508,16.4872913360596,16.4881858825684,16.4890804290771,16.4899768829346,16.4908714294434,16.4917678833008,16.4926624298096,16.4935569763184,16.4944534301758,16.4953498840332,16.496244430542,16.4971408843994,16.4980373382568,16.4989337921143,16.4998302459717,16.5007247924805,16.5016212463379,16.5025177001953,16.5034141540527,16.5043125152588,16.5052089691162,16.5061054229736,16.5070018768311,16.5079002380371,16.5087966918945,16.509693145752,16.510591506958,16.5114879608154,16.5123863220215,16.5132846832275,16.514181137085,16.515079498291,16.5159778594971,16.5168762207031,16.5177745819092,16.5186729431152,16.5195713043213,16.5204696655273,16.5213680267334,16.5222663879395,16.5231647491455,16.5240631103516,16.5249633789062,16.5258617401123,16.5267601013184,16.527660369873,16.5285587310791,16.5294589996338,16.5303592681885,16.5312576293945,16.5321578979492,16.5330581665039,16.5339584350586,16.5348567962646,16.5357570648193,16.536657333374,16.5375576019287,16.538459777832,16.5393600463867,16.5402603149414,16.5411605834961,16.5420608520508,16.5429630279541,16.5438632965088,16.5447635650635,16.5456657409668,16.5465660095215,16.5474681854248,16.5483703613281,16.5492706298828,16.5501728057861,16.5510749816895,16.5519771575928,16.5528793334961,16.5537815093994,16.5546836853027,16.5555858612061,16.5564880371094,16.5573902130127,16.558292388916,16.5591945648193,16.5600986480713,16.5610008239746,16.5619029998779,16.5628070831299,16.5637092590332,16.5646133422852,16.5655174255371,16.5664196014404,16.5673236846924,16.5682277679443,16.5691318511963,16.5700340270996,16.5709381103516,16.5718421936035,16.5727462768555,16.5736522674561,16.574556350708,16.57546043396,16.5763645172119,16.5772705078125,16.5781745910645,16.5790786743164,16.579984664917,16.5808887481689,16.5817947387695,16.5826988220215,16.5836048126221,16.5845108032227,16.5854148864746,16.5863208770752,16.5872268676758,16.5881328582764,16.589038848877,16.5899448394775,16.5908508300781,16.5917568206787,16.5926628112793,16.5935707092285,16.5944766998291,16.5953826904297,16.5962905883789,16.5971965789795,16.5981025695801,16.5990104675293,16.5999183654785,16.6008243560791,16.6017322540283,16.6026401519775,16.6035480499268,16.6044540405273,16.6053619384766,16.6062698364258,16.607177734375,16.6080856323242,16.6089935302734,16.6099033355713,16.6108112335205,16.6117191314697,16.6126270294189,16.6135368347168,16.614444732666,16.6153545379639,16.6162624359131,16.6171722412109,16.6180801391602,16.618989944458,16.6198997497559,16.6208095550537,16.6217174530029,16.6226272583008,16.6235370635986,16.6244468688965,16.6253566741943,16.6262664794922,16.6271781921387,16.6280879974365,16.6289978027344,16.6299076080322,16.6308193206787,16.6317291259766,16.632640838623,16.6335506439209,16.6344623565674,16.6353721618652,16.6362838745117,16.6371955871582,16.6381053924561,16.6390171051025,16.639928817749,16.6408405303955,16.641752243042,16.6426639556885,16.643575668335,16.6444873809814,16.6454010009766,16.646312713623,16.6472244262695,16.6481380462646,16.6490497589111,16.6499614715576,16.6508750915527,16.6517868041992,16.6527004241943,16.6536140441895,16.6545276641846,16.6554393768311,16.6563529968262,16.6572666168213,16.6581802368164,16.6590938568115,16.6600074768066,16.6609210968018,16.6618347167969,16.662748336792,16.6636638641357,16.6645774841309,16.665491104126,16.6664066314697,16.6673202514648,16.6682357788086,16.6691493988037,16.6700649261475,16.6709804534912,16.6718940734863,16.6728096008301,16.6737251281738,16.6746406555176,16.6755561828613,16.6764717102051,16.6773872375488,16.6783027648926,16.6792182922363,16.6801338195801,16.6810493469238,16.6819667816162,16.68288230896,16.6837978363037,16.6847152709961,16.6856307983398,16.6865482330322,16.6874656677246,16.6883811950684,16.6892986297607,16.6902160644531,16.6911334991455,16.6920490264893,16.6929664611816,16.693883895874,16.6948013305664,16.6957206726074,16.6966381072998,16.6975555419922,16.6984729766846,16.699390411377,16.700309753418,16.7012271881104,16.7021465301514,16.7030639648438,16.7039833068848,16.7049007415771,16.7058200836182,16.7067394256592,16.7076587677002,16.7085762023926,16.7094955444336,16.7104148864746,16.7113342285156,16.7122535705566,16.7131729125977,16.7140941619873,16.7150135040283,16.7159328460693,16.7168521881104,16.7177734375,16.718692779541,16.7196140289307,16.7205333709717,16.7214546203613,16.7223739624023,16.723295211792,16.7242164611816,16.7251377105713,16.7260589599609,16.726978302002,16.7278995513916,16.7288208007812,16.7297420501709,16.7306632995605,16.7315864562988,16.7325077056885,16.7334289550781,16.7343521118164,16.7352733612061,16.7361946105957,16.737117767334,16.7380390167236,16.7389621734619,16.7398853302002,14.8383769989014,14.7712640762329,14.7047548294067,14.6388425827026,14.5721588134766,14.5053386688232,14.4391288757324,14.3956747055054,14.3528900146484,14.3103580474854,14.2680788040161,14.2260475158691,14.1842641830444,14.1427278518677,14.1014375686646,14.0603866577148,14.0195751190186,13.9789991378784,13.9386577606201,13.898549079895,13.8586692810059,13.8190183639526,13.7795944213867,13.7403936386108,13.701416015625,13.6626586914062,13.624119758606,13.5857973098755,13.5476903915405,13.5097970962524,13.4721145629883,13.4346418380737,13.3973770141602,13.3603181838989,13.3234634399414,13.2868118286133,13.2503614425659,13.2141103744507,13.1780576705933,13.1422004699707,13.1065378189087,13.0710687637329,13.0357904434204,13.0007028579712,12.9658031463623,12.9310903549194,12.8965635299683,12.8824844360352,12.885612487793,12.8887414932251,12.8116016387939,12.77783203125,12.7442398071289,12.710823059082,12.6775922775269,12.6445341110229,12.611647605896,12.578932762146,12.54638671875,12.5140085220337,12.4817972183228,12.4497509002686,12.4178695678711,12.3861503601074,12.3545932769775,12.3231973648071,12.2919607162476,12.2608823776245,12.2299604415894,12.1991939544678,12.1685829162598,12.1381244659424,12.1078176498413,12.0776624679565,12.0476570129395,12.0177993774414,11.9880905151367
16.2909755706787,16.2918491363525,16.2927227020264,16.2935962677002,16.2944717407227,16.2953453063965,16.2962188720703,16.2970943450928,16.2979679107666,16.2988433837891,16.2997169494629,16.3005924224854,16.3014659881592,16.3023414611816,16.3032169342041,16.3040924072266,16.304967880249,16.3058414459229,16.3067169189453,16.3075923919678,16.3084678649902,16.3093433380127,16.3102207183838,16.3110961914062,16.3119716644287,16.3128471374512,16.3137245178223,16.3145999908447,16.3154773712158,16.3163528442383,16.3172283172607,16.3181056976318,16.3189830780029,16.3198585510254,16.3207359313965,16.3216133117676,16.3224906921387,16.3233680725098,16.3242454528809,16.325122833252,16.326000213623,16.3268775939941,16.3277549743652,16.3286323547363,16.3295097351074,16.3303871154785,16.3312664031982,16.3321437835693,16.3330230712891,16.3339004516602,16.3347797393799,16.335657119751,16.3365364074707,16.3374137878418,16.3382930755615,16.3391723632812,16.340051651001,16.3409309387207,16.3418083190918,16.3426876068115,16.3435668945312,16.344446182251,16.3453273773193,16.3462066650391,16.3470859527588,16.3479652404785,16.3488464355469,16.3497257232666,16.3506050109863,16.3514862060547,16.3523654937744,16.3532466888428,16.3541278839111,16.3550071716309,16.3558883666992,16.3567695617676,16.3576488494873,16.3585300445557,16.359411239624,16.3602924346924,16.3611736297607,16.3620548248291,16.3629360198975,16.3638191223145,16.3647003173828,16.3655815124512,16.3664627075195,16.3673458099365,16.3682270050049,16.3691101074219,16.3699913024902,16.3708744049072,16.3717555999756,16.3726387023926,16.3735218048096,16.3744029998779,16.3752861022949,16.3761692047119,16.3770523071289,16.3779354095459,16.3788185119629,16.3797016143799,16.3805847167969,16.3814678192139,16.3823509216309,16.3832359313965,16.3841190338135,16.3850021362305,16.3858871459961,16.3867702484131,16.3876552581787,16.3885383605957,16.3894233703613,16.3903064727783,16.3911914825439,16.3920764923096,16.3929615020752,16.3938465118408,16.3947296142578,16.3956146240234,16.3964996337891,16.3973865509033,16.3982715606689,16.3991565704346,16.4000415802002,16.4009265899658,16.4018115997314,16.4026985168457,16.4035835266113,16.4044704437256,16.4053554534912,16.4062423706055,16.4071273803711,16.4080142974854,16.4089012145996,16.4097881317139,16.4106731414795,16.4115600585938,16.412446975708,16.4133338928223,16.4142208099365,16.4151077270508,16.415994644165,16.4168815612793,16.4177703857422,16.4186573028564,16.4195442199707,16.4204330444336,16.4213199615479,16.4222068786621,16.423095703125,16.4239845275879,16.4248714447021,16.425760269165,16.4266490936279,16.4275360107422,16.4284248352051,16.429313659668,16.4302024841309,16.4310913085938,16.4319801330566,16.4328689575195,16.4337577819824,16.4346466064453,16.4355354309082,16.4364261627197,16.4373149871826,16.4382038116455,16.439094543457,16.4399833679199,16.4408740997314,16.4417629241943,16.4426536560059,16.4435443878174,16.4444332122803,16.4453239440918,16.4462146759033,16.4471054077148,16.4479961395264,16.4488868713379,16.4497776031494,16.4506683349609,16.4515590667725,16.452449798584,16.4533424377441,16.4542331695557,16.4551239013672,16.4560146331787,16.4569072723389,16.4577980041504,16.4586906433105,16.4595813751221,16.4604740142822,16.4613666534424,16.4622592926025,16.4631500244141,16.4640426635742,16.4649353027344,16.4658279418945,16.4667205810547,16.4676132202148,16.468505859375,16.4693984985352,16.4702911376953,16.4711856842041,16.4720783233643,16.4729709625244,16.4738655090332,16.4747581481934,16.4756526947021,16.4765453338623,16.4774398803711,16.4783325195312,16.47922706604,16.4801216125488,16.4810161590576,16.4819107055664,16.4828033447266,16.4836978912354,16.4845924377441,16.4854869842529,16.4863834381104,16.4872779846191,16.4881725311279,16.4890670776367,16.4899616241455,16.4908580780029,16.4917526245117,16.4926490783691,16.4935436248779,16.4944400787354,16.4953346252441,16.4962310791016,16.497127532959,16.4980239868164,16.4989185333252,16.4998149871826,16.50071144104,16.5016078948975,16.5025043487549,16.5034008026123,16.5042972564697,16.5051956176758,16.5060920715332,16.5069885253906,16.507884979248,16.5087833404541,16.5096797943115,16.5105781555176,16.511474609375,16.5123729705811,16.5132713317871,16.5141677856445,16.5150661468506,16.5159645080566,16.5168628692627,16.5177593231201,16.5186576843262,16.5195560455322,16.5204563140869,16.521354675293,16.522253036499,16.5231513977051,16.5240497589111,16.5249481201172,16.5258483886719,16.5267467498779,16.5276470184326,16.5285453796387,16.5294456481934,16.5303440093994,16.5312442779541,16.5321445465088,16.5330429077148,16.5339431762695,16.5348434448242,16.5357437133789,16.5366439819336,16.5375442504883,16.538444519043,16.5393447875977,16.540246963501,16.5411472320557,16.5420475006104,16.542947769165,16.5438499450684,16.544750213623,16.5456523895264,16.5465526580811,16.5474548339844,16.5483551025391,16.5492572784424,16.5501594543457,16.551061630249,16.5519618988037,16.552864074707,16.5537662506104,16.5546684265137,16.555570602417,16.5564727783203,16.5573768615723,16.5582790374756,16.5591812133789,16.5600833892822,16.5609874725342,16.5618896484375,16.5627937316895,16.5636959075928,16.5645999908447,16.565502166748,16.56640625,16.567310333252,16.5682144165039,16.5691165924072,16.5700206756592,16.5709247589111,16.5718288421631,16.572732925415,16.573637008667,16.5745410919189,16.5754470825195,16.5763511657715,16.5772552490234,16.578161239624,16.579065322876,16.5799694061279,16.5808753967285,16.5817794799805,16.5826854705811,16.5835914611816,16.5844955444336,16.5854015350342,16.5863075256348,16.5872135162354,14.7460289001465,14.6797466278076,14.6140575408936,14.5489540100098,14.4844274520874,14.4188070297241,14.35338306427,14.3104057312012,14.2681255340576,14.2260942459106,14.1843099594116,14.1427736282349,14.1014823913574,14.060432434082,14.0196199417114,13.9790439605713,13.938702583313,13.8985929489136,13.8587141036987,13.8190622329712,13.779637336731,13.7404375076294,13.7014589309692,13.6627016067505,13.6241626739502,13.5858402252197,13.5477323532104,13.5098390579224,13.4721565246582,13.4346828460693,13.3974180221558,13.3603591918945,13.323504447937,13.2868528366089,13.2504024505615,13.2141513824463,13.1780977249146,13.142240524292,13.10657787323,13.0711088180542,13.0358304977417,13.0007419586182,12.9658422470093,12.9311294555664,12.8966026306152,12.8837909698486,12.8869190216064,12.8900489807129,12.8116369247437,12.7778673171997,12.7442750930786,12.7108602523804,12.6776294708252,12.6445713043213,12.6116847991943,12.5789699554443,12.546422958374,12.5140447616577,12.4818334579468,12.4497871398926,12.4179048538208,12.3861856460571,12.3546285629272,12.3232316970825,12.2919950485229,12.2609167098999,12.2299947738647,12.1992282867432,12.1686162948608,12.1381578445435,12.1078510284424,12.0776948928833,12.0476894378662,12.0178327560425,11.9881229400635
16.1446304321289,16.1454887390137,16.1463470458984,16.1472053527832,16.148063659668,16.1489219665527,16.1497802734375,16.1506404876709,16.1514987945557,16.1523571014404,16.1532173156738,16.1540756225586,16.1549339294434,16.1557941436768,16.1566524505615,16.1575126647949,16.1583728790283,16.1592311859131,16.1600914001465,16.1609516143799,16.1618118286133,16.162670135498,16.1635303497314,16.1643905639648,16.1652507781982,16.1661109924316,16.166971206665,16.1678333282471,16.1686935424805,16.1695537567139,16.1704139709473,16.1712760925293,16.1721363067627,16.1729984283447,16.1738586425781,16.1747207641602,16.1755809783936,16.1764430999756,16.1773052215576,16.178165435791,16.179027557373,16.1798896789551,16.1807518005371,16.1816139221191,16.1824760437012,16.1833381652832,16.1842002868652,16.1850624084473,16.1859245300293,16.1867866516113,16.187650680542,16.188512802124,16.1893749237061,16.1902389526367,16.1911010742188,16.1919651031494,16.1928272247314,16.1936912536621,16.1945533752441,16.1954174041748,16.1962814331055,16.1971454620361,16.1980075836182,16.1988716125488,16.1997356414795,16.2005996704102,16.2014636993408,16.2023277282715,16.2031917572021,16.2040576934814,16.2049217224121,16.2057857513428,16.2066497802734,16.2075157165527,16.2083797454834,16.2092456817627,16.2101097106934,16.2109756469727,16.2118396759033,16.2127056121826,16.2135715484619,16.2144374847412,16.2153015136719,16.2161674499512,16.2170333862305,16.2178993225098,16.2187652587891,16.2196311950684,16.2204971313477,16.221363067627,16.2222309112549,16.2230968475342,16.2239627838135,16.2248287200928,16.2256965637207,16.2265625,16.2274303436279,16.2282962799072,16.2291641235352,16.2300300598145,16.2308979034424,16.2317657470703,16.2326335906982,16.2335014343262,16.2343673706055,16.2352352142334,16.2361030578613,16.2369709014893,16.2378387451172,16.2387065887451,16.2395763397217,16.2404441833496,16.2413120269775,16.2421817779541,16.243049621582,16.24391746521,16.2447872161865,16.2456550598145,16.246524810791,16.2473926544189,16.2482624053955,16.2491321563721,16.2500019073486,16.2508697509766,16.2517395019531,16.2526092529297,16.2534790039062,16.2543487548828,16.2552185058594,16.2560882568359,16.2569580078125,16.2578277587891,16.2586994171143,16.2595691680908,16.2604389190674,16.2613105773926,16.2621803283691,16.2630519866943,16.2639217376709,16.2647933959961,16.2656631469727,16.2665348052979,16.267406463623,16.2682781219482,16.2691478729248,16.27001953125,16.2708911895752,16.2717628479004,16.2726345062256,16.2735061645508,16.274377822876,16.2752513885498,16.276123046875,16.2769947052002,16.2778663635254,16.2787399291992,16.2796115875244,16.2804851531982,16.2813568115234,16.2822303771973,16.2831020355225,16.2839756011963,16.2848491668701,16.2857208251953,16.2865943908691,16.287467956543,16.2883415222168,16.2892150878906,16.2900886535645,16.2909622192383,16.2918357849121,16.2927093505859,16.2935829162598,16.2944583892822,16.2953319549561,16.2962055206299,16.2970809936523,16.2979545593262,16.2988300323486,16.2997035980225,16.3005790710449,16.3014526367188,16.3023281097412,16.3032035827637,16.3040790557861,16.3049545288086,16.3058280944824,16.3067035675049,16.3075790405273,16.3084545135498,16.3093299865723,16.3102073669434,16.3110828399658,16.3119583129883,16.3128337860107,16.3137111663818,16.3145866394043,16.3154621124268,16.3163394927979,16.3172149658203,16.3180923461914,16.3189697265625,16.319845199585,16.3207225799561,16.3215999603271,16.3224773406982,16.3233528137207,16.3242301940918,16.3251075744629,16.325984954834,16.3268642425537,16.3277416229248,16.3286190032959,16.329496383667,16.3303737640381,16.3312530517578,16.3321304321289,16.3330078125,16.3338871002197,16.3347644805908,16.3356437683105,16.3365230560303,16.3374004364014,16.3382797241211,16.3391590118408,16.3400382995605,16.3409156799316,16.3417949676514,16.3426742553711,16.3435535430908,16.3444328308105,16.3453140258789,16.3461933135986,16.3470726013184,16.3479518890381,16.3488311767578,16.3497123718262,16.3505916595459,16.3514728546143,16.352352142334,16.3532333374023,16.3541126251221,16.3549938201904,16.3558750152588,16.3567543029785,16.3576354980469,16.3585166931152,16.3593978881836,16.360279083252,16.3611602783203,16.3620414733887,16.362922668457,16.3638038635254,16.3646869659424,16.3655681610107,16.3664493560791,16.3673305511475,16.3682136535645,16.3690948486328,16.3699779510498,16.3708591461182,16.3717422485352,16.3726253509521,16.3735065460205,16.3743896484375,16.3752727508545,16.3761558532715,16.3770389556885,16.3779220581055,16.3788051605225,16.3796882629395,16.3805713653564,16.3814544677734,16.3823375701904,16.3832225799561,16.384105682373,16.38498878479,16.385871887207,16.3867568969727,16.3876399993896,16.3885250091553,16.3894100189209,16.3902931213379,16.3911781311035,16.3920631408691,16.3929481506348,16.3938312530518,16.3947162628174,16.395601272583,16.3964862823486,16.3973712921143,16.3982563018799,16.3991432189941,16.4000282287598,16.4009132385254,16.401798248291,16.4026851654053,16.4035701751709,16.4044570922852,16.4053421020508,16.406229019165,16.4071140289307,16.4080009460449,16.4088878631592,16.4097728729248,16.4106597900391,16.4115467071533,16.4124336242676,16.4133205413818,16.4142074584961,16.4150943756104,16.4159812927246,16.4168682098389,16.4177551269531,16.418643951416,16.4195308685303,16.4204177856445,16.4213066101074,16.4221935272217,16.4230823516846,16.4239692687988,16.4248580932617,16.4257469177246,16.4266338348389,16.4275226593018,16.4284114837646,16.4293003082275,16.4301891326904,16.4310779571533,16.4319667816162,16.4328556060791,16.433744430542,16.4346332550049,16.4355220794678,16.4364128112793,16.4373016357422,14.654824256897,14.5893573760986,14.5244731903076,14.4601631164551,14.3964204788208,14.3332366943359,14.2686491012573,14.2261400222778,14.1843557357788,14.1428194046021,14.1015281677246,14.0604782104492,14.0196657180786,13.9790887832642,13.9387474060059,13.8986377716064,13.8587579727173,13.8191061019897,13.7796812057495,13.7404804229736,13.7015018463135,13.6627445220947,13.6242055892944,13.585883140564,13.5477752685547,13.5098810195923,13.4721984863281,13.4347248077393,13.3974599838257,13.3604011535645,13.3235464096069,13.2868938446045,13.2504434585571,13.2141923904419,13.1781387329102,13.1422815322876,13.1066188812256,13.0711488723755,13.035870552063,13.0007820129395,12.9658823013306,12.9311695098877,12.8966417312622,12.8850975036621,12.8882265090942,12.8456249237061,12.8116731643677,12.7779026031494,12.7443103790283,12.710898399353,12.6776666641235,12.6446084976196,12.6117219924927,12.5790061950684,12.5464601516724,12.5140819549561,12.4818696975708,12.4498233795166,12.4179410934448,12.3862218856812,12.354663848877,12.3232669830322,12.2920293807983,12.260950088501,12.2300281524658,12.1992616653442,12.1686496734619,12.1381912231445,12.1078844070435,12.0777282714844,12.0477228164673,12.0178651809692,11.9881553649902
