14.0820636749268,14.0826807022095,14.0832977294922,14.0839138031006,14.0845308303833,14.085147857666,14.0857648849487,14.0863819122314,14.0869989395142,14.0876159667969,14.0882329940796,14.0888500213623,14.089467048645,14.0900850296021,14.0907020568848,14.0913190841675,14.0919370651245,14.0925540924072,14.0931720733643,14.093789100647,14.094407081604,14.095025062561,14.0956430435181,14.0962600708008,14.0968780517578,14.0974960327148,14.0981140136719,14.0987319946289,14.0993499755859,14.0999689102173,14.1005868911743,14.1012048721313,14.1018238067627,14.1024417877197,14.1030607223511,14.1036787033081,14.1042976379395,14.1049156188965,14.1055345535278,14.1061534881592,14.1067724227905,14.1073904037476,14.1080093383789,14.1086282730103,14.1092472076416,14.1098661422729,14.1104860305786,14.11110496521,14.1117238998413,14.1123428344727,14.1129627227783,14.1135816574097,14.1142015457153,14.1148204803467,14.1154403686523,14.1160593032837,14.1166791915894,14.117299079895,14.1179189682007,14.1185388565063,14.119158744812,14.1197786331177,14.1203985214233,14.121018409729,14.1216382980347,14.1222581863403,14.1228790283203,14.123498916626,14.1241188049316,14.1247396469116,14.1253595352173,14.1259803771973,14.1266012191772,14.1272211074829,14.1278419494629,14.1284627914429,14.1290836334229,14.1297044754028,14.1303253173828,14.1309461593628,14.1315670013428,14.1321878433228,14.1328086853027,14.1334295272827,14.134051322937,14.134672164917,14.1352939605713,14.1359148025513,14.1365365982056,14.1371574401855,14.1377792358398,14.1384010314941,14.1390228271484,14.1396436691284,14.1402654647827,14.140887260437,14.1415090560913,14.1421308517456,14.1427526473999,14.1433753967285,14.1439971923828,14.1446189880371,14.1452407836914,14.14586353302,14.1464853286743,14.1471080780029,14.1477298736572,14.1483526229858,14.1489753723145,14.1495981216431,14.1502199172974,14.150842666626,14.1514654159546,14.1520881652832,14.1527109146118,14.1533336639404,14.153956413269,14.1545791625977,14.1552028656006,14.1558256149292,14.1564483642578,14.1570720672607,14.1576948165894,14.1583185195923,14.1589422225952,14.1595649719238,14.1601886749268,14.1608123779297,14.1614360809326,14.1620597839355,14.1626834869385,14.1633071899414,14.1639308929443,14.1645545959473,14.1651782989502,14.1658020019531,14.1664266586304,14.1670503616333,14.1676740646362,14.1682987213135,14.1689224243164,14.1695470809937,14.1701717376709,14.1707954406738,14.1714200973511,14.1720447540283,14.1726694107056,14.1732940673828,14.1739187240601,14.1745433807373,14.1751680374146,14.1757926940918,14.1764183044434,14.1770429611206,14.1776676177979,14.1782932281494,14.1789178848267,14.1795434951782,14.1801681518555,14.180793762207,14.1814184188843,14.1820440292358,14.1826696395874,14.183295249939,14.1839208602905,14.1845464706421,14.1851720809937,14.1857976913452,14.1864233016968,14.1870489120483,14.1876754760742,14.1883010864258,14.1889266967773,14.1895532608032,14.1901788711548,14.1908054351807,14.1914310455322,14.1920576095581,14.192684173584,14.1933107376099,14.1939363479614,14.1945629119873,14.1951894760132,14.1958160400391,14.1964426040649,14.1970701217651,14.197696685791,14.1983232498169,14.1989498138428,14.199577331543,14.2002038955688,14.200831413269,14.2014579772949,14.2020854949951,14.202712059021,14.2033395767212,14.2039670944214,14.2045946121216,14.2052221298218,14.205849647522,14.2064771652222,14.2071046829224,14.2077322006226,14.2083597183228,14.2089872360229,14.2096157073975,14.2102432250977,14.2108707427979,14.2114992141724,14.2121276855469,14.2127552032471,14.2133836746216,14.2140121459961,14.2146396636963,14.2152681350708,14.2158966064453,14.2165250778198,14.2171535491943,14.2177820205688,14.2184104919434,14.2190389633179,14.2196674346924,14.2202968597412,14.2209253311157,14.2215538024902,14.2221832275391,14.2228126525879,14.2234411239624,14.2240705490112,14.2246999740601,14.2253284454346,14.2259578704834,14.2265872955322,14.2272167205811,14.2278461456299,14.2284755706787,14.2291049957275,14.2297344207764,14.2303647994995,14.2309942245483,14.2316236495972,14.2322540283203,14.2328834533691,14.2335138320923,14.2341432571411,14.2347736358643,14.2354030609131,14.2360334396362,14.2366638183594,14.2372941970825,14.2379245758057,14.2385549545288,14.239185333252,14.2398157119751,14.2404460906982,14.2410774230957,14.2417078018188,14.242338180542,14.2429695129395,14.2435998916626,14.2442302703857,14.2448616027832,14.2454929351807,14.2461233139038,14.2467546463013,14.2473859786987,14.2480173110962,14.2486486434937,14.2492799758911,14.2499113082886,14.250542640686,14.2511739730835,14.251805305481,14.2524375915527,14.2530689239502,14.2537002563477,14.2543325424194,14.2549638748169,14.2555961608887,14.2562274932861,14.2568597793579,14.2574920654297,14.2581243515015,14.2587566375732,14.2593879699707,14.2600202560425,14.2606525421143,14.2612857818604,14.2619180679321,14.2625503540039,14.2631826400757,14.2638149261475,14.2644481658936,14.2650814056396,14.2657136917114,14.2663459777832,14.2669792175293,14.2676124572754,14.2682447433472,14.2688789367676,14.2695112228394,14.2701444625854,14.2707777023315,14.2714109420776,14.2720441818237,14.2726774215698,14.2733116149902,14.2739448547363,14.2745780944824,14.2752122879028,14.2758455276489,14.2764797210693,14.2771139144897,14.2777471542358,14.2783813476562,14.2790145874023,14.2796487808228,14.2802829742432,14.2809171676636,14.281551361084,14.2821855545044,14.2828197479248,14.2834539413452,14.2840881347656,14.284722328186,14.2853574752808,14.2859916687012,14.2866268157959,14.2872610092163,14.287896156311,14.2885313034058,14.2891654968262,14.2898006439209,14.2904357910156,14.2910709381104,14.2917060852051,14.2923412322998,14.2929763793945,14.2936115264893,14.294246673584,14.2948818206787,14.2955179214478,14.2961530685425,14.2967891693115,14.2974243164062,14.2980604171753,14.29869556427,14.2993316650391,14.2999668121338,14.3006029129028,14.3012390136719,14.3018751144409,14.30251121521,14.303147315979,14.303783416748,14.3044195175171,14.3050556182861,14.3056917190552,14.3063287734985,14.3069648742676,14.3076009750366,14.30823802948,14.308874130249,14.3095111846924,14.3101472854614,14.3107852935791,14.3114213943481,14.3120584487915,14.3126955032349,14.3133325576782,14.3139696121216,14.3146066665649,14.3152437210083,14.3158807754517,14.316517829895,14.3171558380127,14.3177928924561,14.3184309005737,14.3190679550171,14.3197059631348,14.3203430175781,14.3209810256958,14.3216180801392,14.3222560882568,14.3228940963745,14.3235321044922,14.3241701126099,14.3248081207275,14.3254461288452,14.3260841369629,14.3267221450806,14.3273611068726,14.3279991149902,14.3286380767822,14.3292760848999,14.3299150466919,14.3305530548096,14.3311920166016,14.3318309783936,14.3324689865112,14.3331079483032,14.3337469100952,14.3343858718872,14.3350238800049,14.3356637954712,14.3363027572632,14.3369417190552,14.3375806808472,14.3382196426392,14.3388586044312,14.3394985198975,14.3401384353638
13.9725818634033,13.9731893539429,13.9737958908081,13.9744033813477,13.9750108718872,13.9756183624268,13.976224899292,13.9768333435059,13.9774398803711,13.9780473709106,13.9786558151245,13.9792633056641,13.9798707962036,13.9804782867432,13.9810857772827,13.9816942214966,13.9823017120361,13.98291015625,13.9835176467896,13.9841260910034,13.984733581543,13.9853420257568,13.9859504699707,13.9865589141846,13.9871673583984,13.9877758026123,13.9883832931519,13.9889917373657,13.9896011352539,13.9902086257935,13.9908180236816,13.9914264678955,13.9920349121094,13.9926443099976,13.9932527542114,13.9938621520996,13.9944705963135,13.9950799942017,13.9956884384155,13.9962978363037,13.9969072341919,13.9975166320801,13.9981250762939,13.9987344741821,13.9993438720703,13.9999532699585,14.0005626678467,14.0011730194092,14.0017824172974,14.0023918151855,14.0030012130737,14.0036115646362,14.0042209625244,14.0048303604126,14.0054407119751,14.0060501098633,14.0066604614258,14.0072708129883,14.0078811645508,14.0084915161133,14.0091018676758,14.009711265564,14.0103216171265,14.010931968689,14.0115423202515,14.0121536254883,14.0127639770508,14.0133743286133,14.0139846801758,14.0145959854126,14.0152063369751,14.0158176422119,14.0164279937744,14.0170392990112,14.0176496505737,14.0182609558105,14.0188722610474,14.0194826126099,14.0200939178467,14.0207052230835,14.0213165283203,14.0219278335571,14.0225400924683,14.0231513977051,14.0237627029419,14.0243740081787,14.0249853134155,14.0255975723267,14.0262088775635,14.0268211364746,14.0274324417114,14.0280447006226,14.0286569595337,14.0292682647705,14.0298805236816,14.0304927825928,14.0311050415039,14.031717300415,14.0323286056519,14.0329418182373,14.0335540771484,14.0341653823853,14.0347785949707,14.0353908538818,14.036003112793,14.0366163253784,14.0372285842896,14.037841796875,14.0384540557861,14.0390672683716,14.0396795272827,14.0402927398682,14.0409059524536,14.0415191650391,14.0421323776245,14.04274559021,14.0433588027954,14.0439720153809,14.0445852279663,14.0451984405518,14.0458116531372,14.046425819397,14.0470390319824,14.0476522445679,14.0482664108276,14.0488796234131,14.0494937896729,14.0501070022583,14.0507211685181,14.0513353347778,14.0519495010376,14.052562713623,14.0531768798828,14.0537910461426,14.0544052124023,14.0550193786621,14.0556335449219,14.056248664856,14.0568628311157,14.0574769973755,14.0580911636353,14.0587062835693,14.0593204498291,14.0599355697632,14.0605497360229,14.061164855957,14.0617799758911,14.0623950958252,14.063009262085,14.063624382019,14.0642395019531,14.0648546218872,14.0654697418213,14.0660848617554,14.0666999816895,14.0673151016235,14.0679311752319,14.068546295166,14.0691614151001,14.0697774887085,14.0703926086426,14.071008682251,14.0716238021851,14.0722398757935,14.0728559494019,14.0734710693359,14.0740871429443,14.0747032165527,14.0753192901611,14.0759353637695,14.0765514373779,14.0771675109863,14.0777835845947,14.0783996582031,14.0790166854858,14.0796327590942,14.0802488327026,14.0808658599854,14.0814819335938,14.0820989608765,14.0827150344849,14.0833320617676,14.0839490890503,14.0845651626587,14.0851821899414,14.0857992172241,14.0864162445068,14.0870332717896,14.0876502990723,14.088267326355,14.088885307312,14.0895023345947,14.0901193618774,14.0907363891602,14.0913543701172,14.0919713973999,14.0925893783569,14.0932064056396,14.0938243865967,14.0944423675537,14.0950593948364,14.0956773757935,14.0962953567505,14.0969133377075,14.0975313186646,14.0981492996216,14.0987672805786,14.0993852615356,14.1000032424927,14.1006212234497,14.1012401580811,14.1018581390381,14.1024761199951,14.1030950546265,14.1037139892578,14.1043319702148,14.1049509048462,14.1055698394775,14.1061878204346,14.1068067550659,14.1074256896973,14.1080446243286,14.10866355896,14.1092824935913,14.1099014282227,14.110520362854,14.1111392974854,14.1117582321167,14.1123781204224,14.112998008728,14.1136169433594,14.1142358779907,14.1148557662964,14.1154747009277,14.1160945892334,14.1167144775391,14.1173343658447,14.1179542541504,14.1185731887817,14.1191930770874,14.1198129653931,14.1204328536987,14.1210536956787,14.1216735839844,14.12229347229,14.1229133605957,14.1235342025757,14.1241540908813,14.1247749328613,14.125394821167,14.126015663147,14.1266355514526,14.1272563934326,14.1278762817383,14.1284980773926,14.1291189193726,14.1297388076782,14.1303596496582,14.1309804916382,14.1316013336182,14.1322221755981,14.1328439712524,14.1334648132324,14.1340866088867,14.1347074508667,14.1353282928467,14.135950088501,14.136570930481,14.1371927261353,14.1378145217896,14.1384353637695,14.1390571594238,14.1396789550781,14.1402997970581,14.1409225463867,14.141544342041,14.1421661376953,14.1427879333496,14.1434097290039,14.1440315246582,14.1446542739868,14.1452760696411,14.1458988189697,14.146520614624,14.1471433639526,14.1477651596069,14.1483879089355,14.1490106582642,14.1496324539185,14.1502552032471,14.1508779525757,14.1515007019043,14.1521234512329,14.1527462005615,14.1533689498901,14.1539916992188,14.1546144485474,14.1552381515503,14.1558609008789,14.1564836502075,14.1571073532104,14.1577301025391,14.158353805542,14.1589765548706,14.1596002578735,14.1602239608765,14.1608476638794,14.1614713668823,14.1620950698853,14.1627178192139,14.1633424758911,14.1639652252197,14.164589881897,14.1652135848999,14.1658372879028,14.1664619445801,14.167085647583,14.1677093505859,14.1683340072632,14.1689577102661,14.1695823669434,14.1702070236206,14.1708307266235,14.1714553833008,14.172080039978,14.1727046966553,14.1733293533325,14.1739540100098,14.174578666687,14.1752033233643,14.1758279800415,14.1764526367188,14.177077293396,14.1777029037476,14.1783275604248,14.1789531707764,14.1795778274536,14.1802034378052,14.1808280944824,14.1814546585083,14.1820793151855,14.1827049255371,14.1833305358887,14.1839561462402,14.1845808029175,14.185206413269,14.1858329772949,14.1864585876465,14.187084197998,14.1877098083496,14.1883363723755,14.1889619827271,14.1895885467529,14.1902141571045,14.1908407211304,14.1914663314819,14.1920928955078,14.1927194595337,14.1933450698853,14.1939725875854,14.1945991516113,14.1952247619629,14.1958513259888,14.1964778900146,14.1971054077148,14.1977319717407,14.1983585357666,14.1989850997925,14.1996126174927,14.2002391815186,14.2008657455444,14.2014932632446,14.2021207809448,14.2027473449707,14.2033748626709,14.2040023803711,14.2046298980713,14.2052574157715,14.2058849334717,14.2065124511719,14.2071399688721,14.2077674865723,14.2083950042725,14.2090225219727,14.2096509933472,14.2102785110474,14.2109069824219,14.2115345001221,14.2121629714966,14.2127904891968,14.2134189605713,14.2140474319458,14.2146759033203,14.2153034210205,14.215931892395,14.2165603637695,14.217188835144,14.2178173065186,14.2184467315674,14.2190752029419,14.2197036743164,14.2203321456909,14.2209606170654,14.2215900421143,14.2222185134888,14.2228479385376,14.2234764099121,14.2241058349609,14.2247352600098,14.2253637313843,14.2259931564331,14.2266225814819
13.8647890090942,13.8653869628906,13.865984916687,13.8665828704834,13.8671808242798,13.8677787780762,13.8683767318726,13.8689746856689,13.8695726394653,13.870171546936,13.8707695007324,13.8713674545288,13.8719663619995,13.8725643157959,13.8731632232666,13.873761177063,13.8743600845337,13.8749580383301,13.8755569458008,13.8761558532715,13.8767547607422,13.8773527145386,13.8779516220093,13.87855052948,13.879150390625,13.8797483444214,13.8803482055664,13.8809471130371,13.8815460205078,13.8821458816528,13.8827447891235,13.8833436965942,13.8839435577393,13.88454246521,13.885142326355,13.8857421875,13.8863410949707,13.8869409561157,13.8875408172607,13.8881406784058,13.8887405395508,13.8893404006958,13.8899402618408,13.8905401229858,13.8911399841309,13.8917398452759,13.8923397064209,13.8929405212402,13.8935403823853,13.8941402435303,13.8947410583496,13.8953409194946,13.895941734314,13.8965425491333,13.8971424102783,13.8977432250977,13.8983430862427,13.898943901062,13.8995447158813,13.9001455307007,13.90074634552,13.9013471603394,13.9019479751587,13.9025497436523,13.9031505584717,13.903751373291,13.9043521881104,13.904953956604,13.9055547714233,13.906156539917,13.9067573547363,13.90735912323,13.9079599380493,13.908561706543,13.9091634750366,13.9097652435303,13.9103670120239,13.9109687805176,13.9115705490112,13.9121723175049,13.9127740859985,13.9133758544922,13.9139776229858,13.9145793914795,13.9151821136475,13.9157838821411,13.9163856506348,13.9169883728027,13.9175901412964,13.9181928634644,13.9187955856323,13.919397354126,13.9200000762939,13.9206027984619,13.9212055206299,13.9218082427979,13.9224109649658,13.9230136871338,13.9236154556274,13.9242191314697,13.9248218536377,13.9254245758057,13.9260282516479,13.9266309738159,13.9272336959839,13.9278373718262,13.9284400939941,13.9290437698364,13.9296464920044,13.9302501678467,13.930853843689,13.9314575195312,13.9320611953735,13.9326639175415,13.9332675933838,13.9338712692261,13.9344749450684,13.935079574585,13.9356832504272,13.9362869262695,13.9368906021118,13.9374942779541,13.9380989074707,13.938702583313,13.9393072128296,13.9399108886719,13.9405155181885,13.9411201477051,13.9417238235474,13.942328453064,13.9429330825806,13.9435377120972,13.9441423416138,13.9447469711304,13.945351600647,13.9459562301636,13.9465608596802,13.9471654891968,13.9477710723877,13.9483757019043,13.9489803314209,13.9495859146118,13.9501905441284,13.9507961273193,13.9514007568359,13.9520063400269,13.9526119232178,13.9532175064087,13.9538221359253,13.9544277191162,13.9550333023071,13.955638885498,13.956244468689,13.9568500518799,13.9574556350708,13.958062171936,13.958667755127,13.9592733383179,13.9598798751831,13.960485458374,13.9610910415649,13.9616975784302,13.9623031616211,13.9629096984863,13.9635162353516,13.9641227722168,13.9647283554077,13.9653348922729,13.9659414291382,13.9665479660034,13.967155456543,13.9677619934082,13.9683685302734,13.9689750671387,13.9695816040039,13.9701881408691,13.9707956314087,13.9714021682739,13.9720087051392,13.9726161956787,13.9732236862183,13.9738302230835,13.974437713623,13.9750452041626,13.9756526947021,13.9762592315674,13.9768667221069,13.9774742126465,13.978081703186,13.9786901473999,13.9792976379395,13.979905128479,13.9805126190186,13.9811201095581,13.981728553772,13.9823360443115,13.9829444885254,13.9835519790649,13.9841604232788,13.9847679138184,13.9853763580322,13.9859848022461,13.98659324646,13.9872007369995,13.9878101348877,13.9884176254272,13.9890260696411,13.989634513855,13.9902429580688,13.990852355957,13.9914608001709,13.9920692443848,13.9926776885986,13.9932870864868,13.9938955307007,13.9945049285889,13.9951143264771,13.9957227706909,13.9963321685791,13.9969415664673,13.9975500106812,13.9981594085693,13.9987688064575,13.9993782043457,13.9999876022339,14.0005970001221,14.0012063980103,14.0018167495728,14.0024261474609,14.0030355453491,14.0036458969116,14.0042552947998,14.004864692688,14.0054750442505,14.0060844421387,14.0066947937012,14.0073051452637,14.0079154968262,14.0085248947144,14.0091352462769,14.0097455978394,14.0103559494019,14.0109663009644,14.0115766525269,14.0121870040894,14.0127983093262,14.0134086608887,14.0140190124512,14.014630317688,14.0152406692505,14.0158519744873,14.0164623260498,14.0170736312866,14.0176839828491,14.0182952880859,14.0189065933228,14.0195178985596,14.0201292037964,14.0207395553589,14.0213508605957,14.0219621658325,14.0225744247437,14.0231857299805,14.0237970352173,14.0244083404541,14.0250196456909,14.0256319046021,14.0262432098389,14.02685546875,14.0274667739868,14.0280790328979,14.0286912918091,14.0293025970459,14.029914855957,14.0305271148682,14.0311393737793,14.0317516326904,14.0323638916016,14.0329761505127,14.0335884094238,14.034200668335,14.0348129272461,14.0354251861572,14.0360383987427,14.0366506576538,14.0372638702393,14.0378761291504,14.0384893417358,14.039101600647,14.0397148132324,14.0403280258179,14.040940284729,14.0415534973145,14.0421667098999,14.0427799224854,14.0433931350708,14.0440063476562,14.0446195602417,14.0452327728271,14.0458459854126,14.0464601516724,14.0470733642578,14.0476875305176,14.048300743103,14.0489149093628,14.0495281219482,14.050142288208,14.0507555007935,14.0513696670532,14.051983833313,14.0525979995728,14.0532112121582,14.053825378418,14.0544395446777,14.0550546646118,14.0556688308716,14.0562829971313,14.0568971633911,14.0575113296509,14.0581254959106,14.0587406158447,14.0593557357788,14.0599699020386,14.0605850219727,14.0611991882324,14.0618143081665,14.0624284744263,14.0630445480347,14.0636587142944,14.0642738342285,14.0648889541626,14.0655040740967,14.0661191940308,14.0667352676392,14.0673503875732,14.0679655075073,14.0685806274414,14.0691957473755,14.0698118209839,14.070426940918,14.0710430145264,14.0716581344604,14.0722742080688,14.0728902816772,14.0735063552856,14.0741214752197,14.0747375488281,14.0753536224365,14.0759696960449,14.0765857696533,14.077202796936,14.0778188705444,14.0784349441528,14.0790510177612,14.0796670913696,14.0802841186523,14.0809001922607,14.0815162658691,14.0821332931519,14.0827503204346,14.0833673477173,14.0839834213257,14.0846004486084,14.0852165222168,14.0858345031738,14.0864515304565,14.0870676040649,14.087685585022,14.0883026123047,14.0889196395874,14.0895366668701,14.0901536941528,14.0907716751099,14.0913887023926,14.0920057296753,14.0926237106323,14.0932416915894,14.0938587188721,14.0944766998291,14.0950946807861,14.0957126617432,14.0963296890259,14.0969476699829,14.0975656509399,14.098183631897,14.098801612854,14.0994205474854,14.1000385284424,14.1006565093994,14.1012744903564,14.1018924713135,14.1025114059448,14.1031293869019,14.1037483215332,14.1043672561646,14.1049852371216,14.1056041717529,14.1062231063843,14.1068410873413,14.1074600219727,14.1080799102783,14.1086978912354,14.1093168258667,14.109935760498,14.1105556488037,14.1111745834351,14.1117935180664,14.1124124526978,14.1130323410034,14.1136512756348,14.1142711639404,14.1148900985718
13.7586469650269,13.7592353820801,13.7598247528076,13.7604131698608,13.7610015869141,13.7615909576416,13.7621803283691,13.7627687454224,13.7633581161499,13.7639465332031,13.7645359039307,13.7651252746582,13.7657146453857,13.766303062439,13.7668924331665,13.7674827575684,13.7680711746216,13.7686605453491,13.769250869751,13.7698402404785,13.7704296112061,13.7710189819336,13.7716093063354,13.772198677063,13.7727890014648,13.7733783721924,13.7739677429199,13.7745580673218,13.7751483917236,13.7757387161255,13.776328086853,13.7769184112549,13.7775087356567,13.7780990600586,13.7786893844604,13.7792797088623,13.7798700332642,13.780460357666,13.7810516357422,13.781641960144,13.7822322845459,13.7828235626221,13.7834138870239,13.7840042114258,13.784595489502,13.7851858139038,13.78577709198,13.7863674163818,13.786958694458,13.7875499725342,13.7881412506104,13.7887325286865,13.7893238067627,13.7899150848389,13.790506362915,13.7910976409912,13.7916889190674,13.7922801971436,13.792872428894,13.7934637069702,13.7940549850464,13.7946472167969,13.795238494873,13.7958307266235,13.7964220046997,13.7970142364502,13.7976055145264,13.7981977462769,13.7987899780273,13.7993822097778,13.7999744415283,13.8005666732788,13.8011589050293,13.8017511367798,13.8023433685303,13.8029356002808,13.8035278320312,13.8041210174561,13.8047132492065,13.805305480957,13.8058986663818,13.8064908981323,13.8070840835571,13.8076763153076,13.8082695007324,13.8088626861572,13.8094549179077,13.8100481033325,13.8106412887573,13.8112344741821,13.8118276596069,13.8124208450317,13.8130140304565,13.8136072158813,13.8142013549805,13.8147945404053,13.8153877258301,13.8159809112549,13.816575050354,13.8171682357788,13.8177623748779,13.8183555603027,13.8189496994019,13.8195428848267,13.8201370239258,13.8207311630249,13.821325302124,13.8219194412231,13.8225126266479,13.8231067657471,13.8237009048462,13.8242959976196,13.8248901367188,13.8254842758179,13.826078414917,13.8266725540161,13.8272676467896,13.8278617858887,13.8284568786621,13.8290510177612,13.8296461105347,13.8302402496338,13.8308353424072,13.8314304351807,13.8320255279541,13.8326206207275,13.833215713501,13.8338098526001,13.8344049453735,13.835000038147,13.8355951309204,13.8361911773682,13.8367862701416,13.837381362915,13.8379764556885,13.8385725021362,13.8391675949097,13.8397636413574,13.8403587341309,13.8409547805786,13.8415498733521,13.8421459197998,13.8427419662476,13.8433380126953,13.8439340591431,13.8445301055908,13.8451251983643,13.845721244812,13.8463182449341,13.8469142913818,13.8475103378296,13.8481063842773,13.8487033843994,13.8492994308472,13.8498954772949,13.850492477417,13.8510885238647,13.8516855239868,13.8522825241089,13.8528785705566,13.8534755706787,13.8540725708008,13.8546686172485,13.8552656173706,13.8558626174927,13.8564596176147,13.8570566177368,13.8576536178589,13.858250617981,13.8588485717773,13.8594455718994,13.8600425720215,13.8606405258179,13.8612375259399,13.861834526062,13.8624324798584,13.8630294799805,13.8636274337769,13.8642253875732,13.8648233413696,13.8654203414917,13.8660182952881,13.8666162490845,13.8672151565552,13.8678121566772,13.8684101104736,13.86900806427,13.8696069717407,13.8702049255371,13.8708028793335,13.8714017868042,13.8719997406006,13.872597694397,13.8731966018677,13.8737945556641,13.8743934631348,13.8749923706055,13.8755903244019,13.8761892318726,13.8767881393433,13.877387046814,13.8779859542847,13.8785848617554,13.8791837692261,13.8797826766968,13.8803815841675,13.8809804916382,13.8815803527832,13.8821792602539,13.8827781677246,13.8833780288696,13.8839769363403,13.8845767974854,13.8851757049561,13.8857755661011,13.8863744735718,13.8869743347168,13.8875741958618,13.8881740570068,13.8887739181519,13.8893737792969,13.8899736404419,13.8905735015869,13.8911733627319,13.891773223877,13.8923740386963,13.8929738998413,13.8935737609863,13.8941745758057,13.8947744369507,13.89537525177,13.895975112915,13.8965759277344,13.8971757888794,13.8977766036987,13.8983774185181,13.8989782333374,13.8995790481567,13.9001798629761,13.9007806777954,13.9013814926147,13.9019823074341,13.9025831222534,13.9031839370728,13.9037857055664,13.9043865203857,13.9049873352051,13.9055881500244,13.9061899185181,13.9067916870117,13.9073925018311,13.9079942703247,13.9085960388184,13.9091968536377,13.9097986221313,13.910400390625,13.9110021591187,13.9116039276123,13.912205696106,13.9128074645996,13.9134101867676,13.9140110015869,13.9146137237549,13.9152154922485,13.9158172607422,13.9164199829102,13.9170217514038,13.9176244735718,13.9182271957397,13.9188289642334,13.9194316864014,13.9200344085693,13.920636177063,13.921238899231,13.9218416213989,13.9224443435669,13.9230470657349,13.9236497879028,13.9242525100708,13.9248552322388,13.9254589080811,13.926061630249,13.9266653060913,13.9272680282593,13.9278707504272,13.9284744262695,13.9290771484375,13.9296808242798,13.9302845001221,13.9308881759644,13.9314908981323,13.9320945739746,13.9326982498169,13.9333019256592,13.9339056015015,13.9345092773438,13.935112953186,13.9357166290283,13.9363212585449,13.9369249343872,13.9375286102295,13.9381332397461,13.9387369155884,13.939341545105,13.9399452209473,13.9405488967896,13.9411535263062,13.9417581558228,13.9423627853394,13.942967414856,13.9435710906982,13.9441757202148,13.9447803497314,13.9453859329224,13.945990562439,13.9465951919556,13.9471998214722,13.9478044509888,13.9484100341797,13.9490146636963,13.9496192932129,13.9502248764038,13.9508295059204,13.9514350891113,13.9520406723022,13.9526453018188,13.9532508850098,13.9538564682007,13.9544620513916,13.9550676345825,13.9556732177734,13.9562788009644,13.9568843841553,13.9574899673462,13.9580965042114,13.9587020874023,13.9593076705933,13.9599142074585,13.9605197906494,13.9611253738403,13.9617319107056,13.9623384475708,13.9629440307617,13.9635496139526,13.9641561508179,13.9647626876831,13.9653692245483,13.9659757614136,13.9665822982788,13.967188835144,13.9677953720093,13.9684019088745,13.9690084457397,13.9696159362793,13.9702224731445,13.9708299636841,13.9714365005493,13.9720430374146,13.9726505279541,13.9732570648193,13.9738655090332,13.9744720458984,13.975079536438,13.9756860733032,13.9762935638428,13.9769010543823,13.9775085449219,13.9781160354614,13.978723526001,13.9793310165405,13.9799394607544,13.9805469512939,13.9811544418335,13.9817628860474,13.9823703765869,13.9829788208008,13.9835863113403,13.9841938018799,13.9848022460938,13.9854106903076,13.9860191345215,13.9866275787354,13.9872350692749,13.9878435134888,13.9884519577026,13.9890604019165,13.9896688461304,13.9902782440186,13.9908866882324,13.9914951324463,13.9921035766602,13.9927129745483,13.9933214187622,13.9939308166504,13.9945392608643,13.9951477050781,13.9957571029663,13.9963665008545,13.9969758987427,13.9975852966309,13.998194694519,13.9988031387329,13.9994125366211,14.0000219345093,14.0006313323975,14.0012407302856,14.0018510818481,14.0024604797363,14.0030698776245,14.003680229187,14.0042896270752,14.0048990249634
13.6541175842285,13.6546974182129,13.6552772521973,13.6558570861816,13.656436920166,13.6570167541504,13.6575965881348,13.6581764221191,13.6587572097778,13.6593370437622,13.6599168777466,13.6604976654053,13.6610774993896,13.6616582870483,13.662239074707,13.6628189086914,13.6633996963501,13.6639795303345,13.6645603179932,13.6651411056519,13.6657218933105,13.6663017272949,13.6668834686279,13.6674642562866,13.6680450439453,13.668625831604,13.6692066192627,13.6697874069214,13.6703691482544,13.6709499359131,13.6715307235718,13.6721124649048,13.6726932525635,13.6732749938965,13.6738567352295,13.6744375228882,13.6750192642212,13.6756010055542,13.6761827468872,13.6767635345459,13.6773452758789,13.6779270172119,13.6785087585449,13.6790904998779,13.6796731948853,13.6802549362183,13.6808366775513,13.6814184188843,13.6820001602173,13.6825828552246,13.6831645965576,13.6837472915649,13.6843290328979,13.6849117279053,13.6854944229126,13.6860761642456,13.6866588592529,13.6872415542603,13.6878242492676,13.6884059906006,13.6889896392822,13.6895723342896,13.6901540756226,13.6907377243042,13.6913204193115,13.6919031143188,13.6924858093262,13.6930694580078,13.6936521530151,13.6942348480225,13.6948184967041,13.6954011917114,13.6959848403931,13.6965684890747,13.697151184082,13.6977348327637,13.6983184814453,13.6989011764526,13.6994848251343,13.7000694274902,13.7006530761719,13.7012367248535,13.7018203735352,13.7024040222168,13.7029876708984,13.7035713195801,13.704155921936,13.7047395706177,13.7053232192993,13.7059078216553,13.7064914703369,13.7070760726929,13.7076597213745,13.7082443237305,13.7088289260864,13.7094125747681,13.709997177124,13.71058177948,13.7111663818359,13.7117509841919,13.7123355865479,13.7129201889038,13.7135057449341,13.71409034729,13.714674949646,13.715259552002,13.7158451080322,13.7164297103882,13.7170143127441,13.7175998687744,13.7181844711304,13.7187700271606,13.7193555831909,13.7199411392212,13.7205257415771,13.7211112976074,13.7216968536377,13.722282409668,13.7228670120239,13.7234535217285,13.7240390777588,13.7246246337891,13.7252101898193,13.7257957458496,13.7263822555542,13.7269678115845,13.7275533676147,13.7281398773193,13.7287254333496,13.7293119430542,13.7298984527588,13.7304840087891,13.7310705184937,13.7316570281982,13.7322435379028,13.7328290939331,13.7334156036377,13.7340021133423,13.7345895767212,13.7351760864258,13.7357625961304,13.736349105835,13.7369356155396,13.7375221252441,13.738109588623,13.7386960983276,13.7392835617065,13.7398700714111,13.7404565811157,13.7410440444946,13.7416315078735,13.7422189712524,13.7428064346313,13.7433929443359,13.7439804077148,13.7445678710938,13.7451553344727,13.7457427978516,13.7463302612305,13.7469177246094,13.7475051879883,13.7480926513672,13.7486810684204,13.7492685317993,13.7498569488525,13.7504444122314,13.7510328292847,13.7516202926636,13.7522087097168,13.7527961730957,13.7533845901489,13.7539730072021,13.7545614242554,13.7551498413086,13.7557373046875,13.7563257217407,13.7569141387939,13.7575035095215,13.7580919265747,13.7586803436279,13.7592687606812,13.7598571777344,13.7604465484619,13.7610349655151,13.7616243362427,13.7622127532959,13.7628021240234,13.7633905410767,13.7639799118042,13.7645692825317,13.765157699585,13.7657470703125,13.76633644104,13.7669258117676,13.7675151824951,13.7681045532227,13.7686939239502,13.7692832946777,13.7698736190796,13.7704629898071,13.7710523605347,13.7716426849365,13.7722320556641,13.7728214263916,13.7734117507935,13.7740020751953,13.7745914459229,13.7751817703247,13.7757711410522,13.7763614654541,13.776951789856,13.7775421142578,13.7781324386597,13.7787227630615,13.7793130874634,13.7799034118652,13.7804937362671,13.7810840606689,13.7816753387451,13.782265663147,13.7828559875488,13.7834463119507,13.7840375900269,13.784628868103,13.7852191925049,13.7858104705811,13.7864017486572,13.7869920730591,13.7875833511353,13.7881746292114,13.7887659072876,13.7893571853638,13.7899484634399,13.7905397415161,13.7911310195923,13.7917222976685,13.7923135757446,13.7929058074951,13.7934970855713,13.7940883636475,13.7946796417236,13.7952718734741,13.7958631515503,13.7964553833008,13.7970476150513,13.7976388931274,13.7982311248779,13.7988233566284,13.7994155883789,13.8000078201294,13.8006000518799,13.8011922836304,13.8017845153809,13.8023767471313,13.8029689788818,13.8035612106323,13.8041543960571,13.8047466278076,13.8053388595581,13.8059320449829,13.8065242767334,13.8071165084839,13.807710647583,13.8083028793335,13.8088960647583,13.8094882965088,13.8100814819336,13.8106746673584,13.8112678527832,13.811861038208,13.8124542236328,13.8130474090576,13.8136405944824,13.8142337799072,13.814826965332,13.8154211044312,13.816014289856,13.8166084289551,13.8172016143799,13.817795753479,13.8183889389038,13.8189830780029,13.8195772171021,13.8201713562012,13.820764541626,13.8213586807251,13.8219528198242,13.822546005249,13.8231401443481,13.8237342834473,13.8243293762207,13.8249235153198,13.8255176544189,13.8261117935181,13.8267068862915,13.8273010253906,13.8278951644897,13.8284902572632,13.8290843963623,13.8296794891357,13.8302736282349,13.8308687210083,13.8314638137817,13.8320589065552,13.8326539993286,13.8332490921021,13.8338441848755,13.8344383239746,13.8350343704224,13.8356294631958,13.8362245559692,13.8368196487427,13.8374147415161,13.8380098342896,13.8386058807373,13.8392009735107,13.8397970199585,13.8403930664062,13.8409881591797,13.8415842056274,13.8421792984009,13.8427753448486,13.8433713912964,13.8439674377441,13.8445634841919,13.8451595306396,13.8457555770874,13.8463516235352,13.8469476699829,13.8475437164307,13.8481397628784,13.8487367630005,13.8493328094482,13.849928855896,13.8505258560181,13.8511219024658,13.8517189025879,13.85231590271,13.8529119491577,13.8535089492798,13.8541059494019,13.8547029495239,13.8552989959717,13.8558959960938,13.8564929962158,13.8570899963379,13.8576879501343,13.858283996582,13.8588819503784,13.8594789505005,13.8600759506226,13.8606739044189,13.861270904541,13.8618688583374,13.8624668121338,13.8630638122559,13.8636608123779,13.8642587661743,13.8648567199707,13.8654546737671,13.8660516738892,13.8666505813599,13.8672475814819,13.8678464889526,13.8684434890747,13.8690423965454,13.8696393966675,13.8702392578125,13.8708362579346,13.8714351654053,13.8720331192017,13.8726320266724,13.8732299804688,13.8738288879395,13.8744268417358,13.8750257492065,13.8756246566772,13.8762226104736,13.8768215179443,13.877420425415,13.8780193328857,13.8786182403564,13.8792171478271,13.8798160552979,13.8804149627686,13.8810148239136,13.8816137313843,13.882212638855,13.8828125,13.8834114074707,13.8840112686157,13.8846101760864,13.8852090835571,0,0,0,0,0,0,0,0,0,0,0,0,0,0,0,0,0,0,0
13.5511646270752,13.5517358779907,13.5523071289062,13.5528774261475,13.553448677063,13.5540199279785,13.554591178894,13.5551624298096,13.5557336807251,13.5563058853149,13.5568771362305,13.557448387146,13.5580196380615,13.5585918426514,13.5591630935669,13.5597352981567,13.5603065490723,13.5608787536621,13.5614500045776,13.5620222091675,13.5625944137573,13.5631656646729,13.5637378692627,13.5643100738525,13.5648822784424,13.5654544830322,13.5660266876221,13.5665988922119,13.5671720504761,13.5677442550659,13.5683164596558,13.5688886642456,13.5694608688354,13.5700340270996,13.5706062316895,13.5711793899536,13.5717515945435,13.5723247528076,13.5728969573975,13.5734701156616,13.5740432739258,13.5746164321899,13.5751886367798,13.5757617950439,13.5763349533081,13.5769081115723,13.5774812698364,13.5780544281006,13.5786285400391,13.5792016983032,13.5797748565674,13.5803480148315,13.5809211730957,13.5814952850342,13.5820693969727,13.5826425552368,13.5832166671753,13.5837898254395,13.5843639373779,13.5849370956421,13.5855112075806,13.586085319519,13.5866594314575,13.587233543396,13.5878076553345,13.5883817672729,13.5889558792114,13.5895299911499,13.5901041030884,13.5906782150269,13.5912523269653,13.5918273925781,13.5924015045166,13.5929765701294,13.5935506820679,13.5941247940063,13.5946998596191,13.5952749252319,13.5958499908447,13.5964241027832,13.596999168396,13.5975742340088,13.5981483459473,13.5987234115601,13.5992994308472,13.5998735427856,13.6004495620728,13.6010246276855,13.6015996932983,13.6021747589111,13.6027507781982,13.6033248901367,13.6039009094238,13.6044769287109,13.6050519943237,13.6056280136108,13.6062030792236,13.6067790985107,13.6073541641235,13.6079301834106,13.6085062026978,13.6090822219849,13.609658241272,13.6102342605591,13.6108102798462,13.611385345459,13.6119623184204,13.6125383377075,13.6131143569946,13.6136903762817,13.6142673492432,13.6148433685303,13.6154193878174,13.6159963607788,13.6165723800659,13.6171493530273,13.6177253723145,13.6183023452759,13.6188793182373,13.6194562911987,13.6200323104858,13.6206092834473,13.6211862564087,13.6217632293701,13.6223402023315,13.622917175293,13.6234951019287,13.6240720748901,13.6246490478516,13.625226020813,13.6258029937744,13.6263809204102,13.6269578933716,13.6275358200073,13.6281127929688,13.6286907196045,13.6292676925659,13.6298456192017,13.6304235458374,13.6310014724731,13.6315784454346,13.6321563720703,13.6327342987061,13.6333122253418,13.6338901519775,13.6344690322876,13.635046005249,13.6356248855591,13.6362028121948,13.6367807388306,13.6373596191406,13.6379375457764,13.6385164260864,13.6390943527222,13.6396732330322,13.640251159668,13.640830039978,13.6414089202881,13.6419878005981,13.6425657272339,13.6431446075439,13.643723487854,13.6443023681641,13.6448812484741,13.6454601287842,13.6460390090942,13.6466188430786,13.6471977233887,13.6477766036987,13.6483554840088,13.6489343643188,13.6495141983032,13.6500930786133,13.6506729125977,13.651252746582,13.6518316268921,13.6524114608765,13.6529912948608,13.6535711288452,13.6541500091553,13.6547298431396,13.655309677124,13.6558895111084,13.6564693450928,13.6570491790771,13.6576299667358,13.6582098007202,13.6587896347046,13.659369468689,13.6599502563477,13.660530090332,13.6611108779907,13.6616907119751,13.6622714996338,13.6628513336182,13.6634321212769,13.6640119552612,13.6645927429199,13.6651735305786,13.6657543182373,13.666335105896,13.6669158935547,13.6674966812134,13.6680774688721,13.6686592102051,13.6692399978638,13.6698207855225,13.6704015731812,13.6709823608398,13.6715641021729,13.6721448898315,13.6727266311646,13.6733074188232,13.6738891601562,13.6744709014893,13.6750516891479,13.675633430481,13.676215171814,13.676796913147,13.67737865448,13.6779594421387,13.678542137146,13.679123878479,13.679705619812,13.680287361145,13.680869102478,13.681450843811,13.6820335388184,13.6826152801514,13.6831979751587,13.6837797164917,13.684362411499,13.6849451065063,13.6855268478394,13.6861085891724,13.6866912841797,13.687273979187,13.6878566741943,13.6884393692017,13.689022064209,13.6896047592163,13.6901874542236,13.690770149231,13.6913528442383,13.6919364929199,13.6925182342529,13.6931018829346,13.6936845779419,13.6942682266235,13.6948509216309,13.6954345703125,13.6960172653198,13.6966009140015,13.6971836090088,13.6977672576904,13.6983509063721,13.6989345550537,13.6995182037354,13.700101852417,13.7006855010986,13.7012691497803,13.7018527984619,13.7024364471436,13.7030200958252,13.7036046981812,13.7041883468628,13.7047719955444,13.7053565979004,13.705940246582,13.706524848938,13.7071084976196,13.7076930999756,13.7082767486572,13.7088613510132,13.7094459533691,13.7100305557251,13.7106151580811,13.711199760437,13.711784362793,13.7123689651489,13.7129526138306,13.7135381698608,13.7141227722168,13.7147073745728,13.715292930603,13.715877532959,13.7164621353149,13.7170476913452,13.7176332473755,13.7182178497314,13.7188034057617,13.7193880081177,13.7199735641479,13.7205591201782,13.7211446762085,13.7217292785645,13.722315788269,13.7229013442993,13.7234869003296,13.7240715026855,13.7246580123901,13.7252435684204,13.7258291244507,13.7264156341553,13.7270011901855,13.7275867462158,13.7281732559204,13.7287588119507,13.729344367981,13.7299308776855,13.7305173873901,13.7311038970947,13.731689453125,13.7322759628296,13.7328624725342,13.7334489822388,13.7340354919434,13.7346220016479,13.7352085113525,13.7357950210571,13.736382484436,13.7369680404663,13.7375555038452,13.7381429672241,13.7387294769287,13.7393159866333,13.7399034500122,13.7404899597168,13.7410774230957,13.7416648864746,13.7422513961792,13.7428388595581,13.743426322937,13.7440128326416,13.7446012496948,13.7451887130737,13.7457761764526,13.7463636398315,13.7469511032104,13.7475385665894,13.7481260299683,0,0,0,0,0,0,0,0,0,0,0,0,0,0,0,0,0,0,0,0,0,0,0,0,0,0,0,0,0,0,0,0,0,0,0,0,0,0,0,0,0,0,0,0,0,0,0,0,0,0,0,0,0,0,0,0,0,0,0,0,0,0,0,0,0,0,0,0,0,0,0
13.4497518539429,13.4503145217896,13.4508771896362,13.4514398574829,13.4520025253296,13.4525651931763,13.4531278610229,13.4536905288696,13.4542541503906,13.4548168182373,13.455379486084,13.4559421539307,13.4565057754517,13.4570684432983,13.4576320648193,13.458194732666,13.458758354187,13.459321975708,13.4598846435547,13.4604482650757,13.4610118865967,13.4615745544434,13.4621381759644,13.4627017974854,13.4632654190063,13.4638290405273,13.4643926620483,13.4649562835693,13.4655208587646,13.4660844802856,13.4666481018066,13.467212677002,13.4677753448486,13.4683399200439,13.4689035415649,13.4694681167603,13.4700326919556,13.4705963134766,13.4711608886719,13.4717254638672,13.4722890853882,13.4728536605835,13.4734182357788,13.4739828109741,13.4745473861694,13.4751119613647,13.4756765365601,13.4762411117554,13.4768056869507,13.4773712158203,13.4779357910156,13.4785003662109,13.4790649414062,13.4796295166016,13.4801950454712,13.4807605743408,13.4813251495361,13.4818906784058,13.4824552536011,13.4830207824707,13.4835863113403,13.48415184021,13.4847173690796,13.4852828979492,13.4858474731445,13.4864130020142,13.4869794845581,13.4875450134277,13.4881105422974,13.488676071167,13.4892416000366,13.4898080825806,13.4903736114502,13.4909391403198,13.4915056228638,13.4920721054077,13.4926376342773,13.493203163147,13.4937696456909,13.4943361282349,13.4949026107788,13.4954690933228,13.4960346221924,13.4966011047363,13.4971675872803,13.4977340698242,13.4983005523682,13.4988670349121,13.4994335174561,13.5000009536743,13.5005674362183,13.5011339187622,13.5017004013062,13.5022678375244,13.5028343200684,13.5034017562866,13.5039682388306,13.5045356750488,13.5051031112671,13.505669593811,13.5062370300293,13.5068044662476,13.5073719024658,13.5079393386841,13.5085067749023,13.5090742111206,13.5096416473389,13.5102090835571,13.5107765197754,13.5113439559937,13.5119113922119,13.5124797821045,13.5130472183228,13.5136156082153,13.5141830444336,13.5147504806519,13.5153188705444,13.5158863067627,13.5164546966553,13.5170230865479,13.5175914764404,13.5181589126587,13.5187273025513,13.5192956924438,13.5198640823364,13.520432472229,13.5210008621216,13.5215702056885,13.5221376419067,13.5227069854736,13.5232753753662,13.5238437652588,13.5244121551514,13.5249814987183,13.5255498886108,13.5261192321777,13.5266876220703,13.5272569656372,13.5278253555298,13.528395652771,13.5289640426636,13.5295333862305,13.5301027297974,13.5306720733643,13.5312404632568,13.5318098068237,13.5323801040649,13.5329494476318,13.5335187911987,13.5340881347656,13.5346574783325,13.5352277755737,13.5357971191406,13.5363674163818,13.5369367599487,13.5375061035156,13.5380764007568,13.5386457443237,13.5392160415649,13.5397863388062,13.5403566360474,13.5409259796143,13.5414962768555,13.5420665740967,13.5426368713379,13.5432071685791,13.5437774658203,13.5443487167358,13.5449180603027,13.5454883575439,13.5460596084595,13.5466299057007,13.5472011566162,13.5477714538574,13.5483427047729,13.5489130020142,13.5494842529297,13.5500545501709,13.5506258010864,13.551197052002,13.5517673492432,13.5523386001587,13.5529098510742,13.5534811019897,13.5540523529053,13.5546236038208,13.5551948547363,13.5557661056519,13.5563373565674,13.5569086074829,13.5574808120728,13.5580520629883,13.5586233139038,13.5591955184937,13.5597667694092,13.560338973999,13.5609111785889,13.5614824295044,13.5620546340942,13.5626268386841,13.5631980895996,13.5637702941895,13.5643424987793,13.5649147033691,13.565486907959,13.5660591125488,13.5666313171387,13.5672035217285,13.5677757263184,13.5683479309082,13.5689210891724,13.5694932937622,13.5700664520264,13.5706386566162,13.5712108612061,13.5717840194702,13.5723562240601,13.5729293823242,13.5735025405884,13.5740756988525,13.5746479034424,13.5752210617065,13.5757942199707,13.5763673782349,13.576940536499,13.5775136947632,13.5780868530273,13.5786600112915,13.57923412323,13.5798072814941,13.5803804397583,13.5809545516968,13.5815277099609,13.5821008682251,13.5826749801636,13.5832481384277,13.5838222503662,13.5843954086304,13.5849695205688,13.5855436325073,13.5861177444458,13.5866918563843,13.5872650146484,13.5878391265869,13.5884141921997,13.5889873504639,13.5895624160767,13.5901365280151,13.5907106399536,13.5912847518921,13.5918598175049,13.5924339294434,13.5930089950562,13.5935831069946,13.5941572189331,13.5947322845459,13.5953073501587,13.5958824157715,13.59645652771,13.5970315933228,13.5976066589355,13.5981817245483,13.5987558364868,13.5993309020996,13.5999069213867,13.6004810333252,13.6010570526123,13.6016321182251,13.6022071838379,13.6027822494507,13.6033582687378,13.6039333343506,13.6045083999634,13.6050844192505,13.6056594848633,13.6062355041504,13.6068105697632,13.6073865890503,13.6079626083374,13.6085386276245,13.6091146469116,13.6096906661987,13.6102666854858,13.6108417510986,13.6114187240601,13.6119947433472,13.6125707626343,13.6131467819214,13.6137228012085,13.6142997741699,13.614875793457,13.6154527664185,13.6160287857056,13.6166048049927,13.6171817779541,13.6177577972412,13.6183347702026,13.6189117431641,13.6194887161255,13.6200656890869,13.620641708374,13.6212186813354,13.6217956542969,13.6223726272583,13.6229496002197,13.6235275268555,13.6241035461426,13.6246814727783,13.6252584457397,13.6258354187012,13.6264133453369,13.6269903182983,13.6275682449341,13.6281452178955,13.6287231445312,13.6293001174927,13.6298789978027,13.6304559707642,13.6310329437256,13.6316118240356,0,0,0,0,0,0,0,0,0,0,0,0,0,0,0,0,0,0,0,0,0,0,0,0,0,0,0,0,0,0,0,0,0,0,0,0,0,0,0,0,0,0,0,0,0,0,0,0,0,0,0,0,0,0,0,0,0,0,0,0,0,0,0,0,0,0,0,0,0,0,0,0,0,0,0,0,0,0,0,0,0,0,0,0,0,0,0,0,0,0,0,0
13.3498468399048,13.3504009246826,13.3509550094604,13.3515100479126,13.3520641326904,13.3526182174683,13.3531723022461,13.3537273406982,13.3542814254761,13.3548364639282,13.3553905487061,13.3559455871582,13.356499671936,13.3570547103882,13.357608795166,13.3581638336182,13.3587188720703,13.3592739105225,13.3598289489746,13.3603839874268,13.3609390258789,13.3614940643311,13.3620491027832,13.3626041412354,13.3631601333618,13.363715171814,13.3642702102661,13.3648252487183,13.3653812408447,13.3659362792969,13.3664922714233,13.3670482635498,13.367603302002,13.3681592941284,13.3687143325806,13.369270324707,13.3698263168335,13.37038230896,13.3709383010864,13.3714942932129,13.372049331665,13.3726053237915,13.3731622695923,13.3737182617188,13.3742742538452,13.3748302459717,13.3753862380981,13.3759431838989,13.3765001296997,13.3770561218262,13.3776121139526,13.3781690597534,13.3787250518799,13.3792819976807,13.3798379898071,13.3803949356079,13.3809518814087,13.3815088272095,13.3820657730103,13.382622718811,13.3831796646118,13.3837366104126,13.3842935562134,13.3848505020142,13.3854074478149,13.3859643936157,13.3865213394165,13.3870792388916,13.3876361846924,13.3881940841675,13.3887510299683,13.389307975769,13.3898658752441,13.3904228210449,13.39098072052,13.3915386199951,13.3920965194702,13.3926544189453,13.3932113647461,13.3937692642212,13.3943271636963,13.3948850631714,13.3954429626465,13.3960008621216,13.3965587615967,13.3971166610718,13.3976755142212,13.3982334136963,13.3987913131714,13.3993501663208,13.3999080657959,13.4004669189453,13.4010248184204,13.4015836715698,13.4021415710449,13.4027004241943,13.4032592773438,13.4038171768188,13.4043760299683,13.4049348831177,13.4054937362671,13.4060525894165,13.4066114425659,13.4071702957153,13.4077291488647,13.4082880020142,13.4088468551636,13.4094066619873,13.4099655151367,13.4105253219604,13.4110841751099,13.4116430282593,13.412202835083,13.4127616882324,13.4133214950562,13.4138813018799,13.4144401550293,13.414999961853,13.4155597686768,13.4161186218262,13.4166784286499,13.4172391891479,13.4177980422974,13.4183578491211,13.4189186096191,13.4194774627686,13.4200382232666,13.4205980300903,13.4211578369141,13.4217185974121,13.4222784042358,13.4228382110596,13.4233989715576,13.4239597320557,13.4245195388794,13.4250802993774,13.4256401062012,13.4262008666992,13.4267616271973,13.427321434021,13.4278831481934,13.4284429550171,13.4290037155151,13.4295644760132,13.4301252365112,13.4306859970093,13.4312477111816,13.4318084716797,13.4323692321777,13.4329299926758,13.4334917068481,13.4340524673462,13.4346141815186,13.4351758956909,13.435736656189,13.436297416687,13.4368591308594,13.4374198913574,13.4379816055298,13.4385433197021,13.4391050338745,13.4396667480469,13.4402284622192,13.4407901763916,13.441351890564,13.4419136047363,13.442476272583,13.4430379867554,13.4435997009277,13.4441614151001,13.4447231292725,13.4452857971191,13.4458475112915,13.4464101791382,13.4469728469849,13.4475345611572,13.4480962753296,13.4486589431763,13.4492216110229,13.4497842788696,13.450345993042,13.450909614563,13.4514713287354,13.452033996582,13.4525966644287,13.4531593322754,13.4537220001221,13.4542856216431,13.4548482894897,13.4554109573364,13.4559745788574,13.4565372467041,13.4571008682251,13.4576635360718,13.4582271575928,13.4587898254395,13.4593534469604,13.4599161148071,13.4604797363281,13.4610433578491,13.4616069793701,13.4621696472168,13.4627332687378,13.4632978439331,13.4638605117798,13.4644250869751,13.4649887084961,13.4655523300171,13.4661159515381,13.4666795730591,13.4672431945801,13.4678077697754,13.4683713912964,13.4689359664917,13.4694995880127,13.470064163208,13.4706287384033,13.4711923599243,13.4717569351196,13.4723215103149,13.4728851318359,13.4734497070312,13.4740142822266,13.4745788574219,13.4751434326172,13.4757080078125,13.4762735366821,13.4768371582031,13.4774026870728,13.4779672622681,13.4785318374634,13.4790964126587,13.4796628952026,13.4802265167236,13.4807920455933,13.4813575744629,13.4819221496582,13.4824876785278,13.4830532073975,13.4836177825928,13.4841833114624,13.484748840332,13.4853143692017,13.4858798980713,13.4864454269409,13.4870109558105,13.4875764846802,13.4881420135498,13.4887075424194,13.4892740249634,13.489839553833,13.4904050827026,13.4909715652466,13.4915370941162,13.4921035766602,13.4926691055298,13.4932355880737,13.4938020706177,13.4943685531616,13.4949340820312,13.4955005645752,13.4960670471191,13.4966325759888,13.4971990585327,13.497766494751,13.4983329772949,13.4988994598389,13.4994659423828,13.5000324249268,13.5005989074707,13.501166343689,13.5017328262329,13.5023002624512,13.5028667449951,13.5034332275391,13.5040006637573,13.5045671463013,13.5051345825195,13.5057020187378,13.5062685012817,13.5068368911743,13.5074033737183,13.5079708099365,13.5085382461548,13.509105682373,13.5096731185913,13.5102405548096,13.5108079910278,13.5113754272461,13.5119438171387,13.5125112533569,13.5130786895752,13.5136470794678,13.5142154693604,13.5147829055786,13.5153503417969,13.5159187316895,13.516487121582,13.5170545578003,13.5176229476929,13.5181913375854,13.518759727478,13.5193271636963,13.5198955535889,13.5204648971558,13.5210332870483,13.5216007232666,13.5221700668335,13.5227384567261,13.5233068466187,13.5238761901855,13.5244445800781,13.5250129699707,13.5255823135376,13.5261507034302,13.5267200469971,13.527289390564,13.5278577804565,0,0,0,0,0,0,0,0,0,0,0,0,0,0,0,0,0,0,0,0,0,0,0,0,0,0,0,0,0,0,0,0,0,0,0,0,0,0,0,0,0,0,0,0,0,0,0,0,0,0,0,0,0,0,0,0,0,0,0,0,0,0,0,0,0,0,0,0,0,0,0,0,0,0,0,0,0,0,0,0,0,0,0,0,0,0,0,0,0,0,0,0,0,0
13.2514142990112,13.2519607543945,13.2525062561035,13.2530527114868,13.2535991668701,13.2541446685791,13.2546911239624,13.2552375793457,13.255784034729,13.2563304901123,13.2568769454956,13.2574234008789,13.2579698562622,13.2585163116455,13.2590627670288,13.2596092224121,13.2601566314697,13.260703086853,13.2612504959106,13.2617969512939,13.2623434066772,13.2628908157349,13.2634372711182,13.2639846801758,13.2645320892334,13.2650785446167,13.2656259536743,13.2661733627319,13.2667207717896,13.2672681808472,13.2678155899048,13.2683620452881,13.26891040802,13.2694578170776,13.2700052261353,13.2705526351929,13.2711000442505,13.2716474533081,13.27219581604,13.2727432250977,13.2732906341553,13.2738389968872,13.2743873596191,13.2749347686768,13.2754831314087,13.2760305404663,13.2765789031982,13.2771272659302,13.2776746749878,13.2782230377197,13.2787714004517,13.2793197631836,13.2798681259155,13.2804164886475,13.2809648513794,13.2815132141113,13.2820625305176,13.2826108932495,13.2831592559814,13.2837076187134,13.2842569351196,13.2848052978516,13.2853546142578,13.2859029769897,13.286452293396,13.2870006561279,13.2875499725342,13.2880983352661,13.2886476516724,13.2891969680786,13.2897462844849,13.2902956008911,13.2908449172974,13.2913942337036,13.2919435501099,13.2924928665161,13.2930421829224,13.2935914993286,13.2941408157349,13.2946910858154,13.2952404022217,13.2957897186279,13.2963399887085,13.2968893051147,13.2974395751953,13.2979888916016,13.2985391616821,13.2990884780884,13.2996387481689,13.3001890182495,13.3007392883301,13.3012886047363,13.3018398284912,13.3023891448975,13.302939414978,13.3034896850586,13.3040399551392,13.304591178894,13.3051414489746,13.3056917190552,13.3062419891357,13.3067932128906,13.3073434829712,13.3078937530518,13.3084440231323,13.3089952468872,13.3095464706421,13.3100967407227,13.3106479644775,13.3111991882324,13.311749458313,13.3123006820679,13.3128519058228,13.3134031295776,13.3139543533325,13.3145055770874,13.3150568008423,13.3156080245972,13.3161592483521,13.3167104721069,13.3172616958618,13.317813873291,13.3183650970459,13.3189172744751,13.31946849823,13.3200197219849,13.3205718994141,13.3211231231689,13.3216753005981,13.3222274780273,13.3227787017822,13.3233308792114,13.3238830566406,13.3244342803955,13.324987411499,13.3255386352539,13.3260908126831,13.3266439437866,13.3271961212158,13.3277473449707,13.3283004760742,13.3288526535034,13.3294048309326,13.3299579620361,13.3305101394653,13.3310623168945,13.331615447998,13.3321685791016,13.3327207565308,13.3332738876343,13.3338260650635,13.334379196167,13.3349323272705,13.335485458374,13.3360385894775,13.3365917205811,13.3371448516846,13.3376970291138,13.3382501602173,13.3388032913208,13.3393573760986,13.3399105072021,13.3404636383057,13.3410177230835,13.341570854187,13.3421239852905,13.342677116394,13.3432312011719,13.3437843322754,13.3443384170532,13.3448925018311,13.3454456329346,13.3459997177124,13.3465538024902,13.3471078872681,13.3476619720459,13.3482151031494,13.3487691879272,13.3493232727051,13.3498783111572,13.3504323959351,13.3509864807129,13.3515405654907,13.3520946502686,13.3526496887207,13.3532037734985,13.3537578582764,13.3543128967285,13.3548669815063,13.3554220199585,13.3559761047363,13.3565311431885,13.3570852279663,13.3576402664185,13.3581962585449,13.3587503433228,13.3593053817749,13.3598594665527,13.3604145050049,13.3609704971313,13.3615255355835,13.3620805740356,13.3626356124878,13.3631906509399,13.3637466430664,13.3643016815186,13.3648567199707,13.3654127120972,13.3659677505493,13.3665237426758,13.3670787811279,13.3676347732544,13.3681898117065,13.368745803833,13.3693017959595,13.3698577880859,13.3704137802124,13.3709688186646,13.371524810791,13.3720817565918,13.3726377487183,13.3731937408447,13.3737487792969,13.3743057250977,13.3748617172241,13.3754177093506,13.3759746551514,13.3765306472778,13.3770875930786,13.3776435852051,13.3781995773315,13.3787565231323,13.3793134689331,13.3798704147339,13.3804264068604,13.3809833526611,13.3815402984619,13.3820972442627,13.3826541900635,13.3832111358643,13.383768081665,13.3843240737915,13.3848819732666,13.3854389190674,13.3859958648682,13.3865528106689,13.387110710144,13.3876676559448,13.3882246017456,13.3887825012207,13.3893394470215,13.3898973464966,13.3904552459717,13.3910121917725,13.3915700912476,13.3921279907227,13.3926849365234,13.3932428359985,13.3938007354736,13.3943586349487,13.3949165344238,13.3954744338989,13.396032333374,13.3965902328491,13.3971481323242,13.3977069854736,13.3982648849487,13.3988227844238,13.3993816375732,13.3999395370483,13.4004974365234,13.4010562896729,13.4016151428223,13.4021730422974,13.4027318954468,13.4032907485962,13.4038486480713,13.4044075012207,13.4049663543701,13.4055252075195,13.4060840606689,13.4066429138184,13.4072017669678,13.4077606201172,13.4083194732666,13.4088792800903,13.4094381332397,13.4099969863892,13.4105558395386,13.4111156463623,13.4116744995117,13.4122343063354,13.4127941131592,13.4133529663086,13.413911819458,13.4144716262817,13.4150314331055,13.4155912399292,13.4161510467529,13.4167108535767,13.4172706604004,13.4178295135498,13.4183893203735,13.4189500808716,13.4195098876953,13.420069694519,13.4206295013428,13.4211893081665,13.4217491149902,13.4223098754883,13.422869682312,13.4234304428101,13.4239912033081,13.4245510101318,13.4251117706299,13.4256715774536,13.4262323379517,0,0,0,0,0,0,0,0,0,0,0,0,0,0,0,0,0,0,0,0,0,0,0,0,0,0,0,0,0,0,0,0,0,0,0,0,0,0,0,0,0,0,0,0,0,0,0,0,0,0,0,0,0,0,0,0,0,0,0,0,0,0,0,0,0,0,0,0,0,0,0,0,0,0,0,0,0,0,0,0,0,0,0,0,0,0,0,0,0,0,0,0,0,0,0
13.1544227600098,13.1549606323242,13.155499458313,13.1560373306274,13.1565761566162,13.1571140289307,13.1576519012451,13.1581907272339,13.1587285995483,13.1592674255371,13.1598052978516,13.1603441238403,13.1608829498291,13.1614208221436,13.1619596481323,13.1624984741211,13.1630373001099,13.1635761260986,13.1641149520874,13.1646537780762,13.1651926040649,13.1657314300537,13.1662702560425,13.1668100357056,13.1673488616943,13.1678876876831,13.1684274673462,13.168966293335,13.1695051193237,13.1700448989868,13.1705846786499,13.1711235046387,13.1716632843018,13.1722030639648,13.1727418899536,13.1732816696167,13.1738214492798,13.1743612289429,13.174901008606,13.175440788269,13.1759805679321,13.1765203475952,13.1770601272583,13.1775999069214,13.1781396865845,13.1786794662476,13.179220199585,13.179759979248,13.1803007125854,13.1808404922485,13.1813812255859,13.181921005249,13.1824617385864,13.1830015182495,13.1835422515869,13.18408203125,13.1846237182617,13.1851634979248,13.1857042312622,13.1862449645996,13.186785697937,13.1873264312744,13.1878671646118,13.1884078979492,13.1889486312866,13.189489364624,13.1900300979614,13.1905717849731,13.1911125183105,13.1916532516479,13.1921949386597,13.1927366256714,13.1932773590088,13.1938180923462,13.1943597793579,13.1949014663696,13.1954431533813,13.1959848403931,13.1965255737305,13.1970672607422,13.1976089477539,13.1981506347656,13.1986923217773,13.1992330551147,13.1997756958008,13.2003173828125,13.2008590698242,13.2014007568359,13.2019424438477,13.2024850845337,13.2030267715454,13.2035694122314,13.2041110992432,13.2046527862549,13.2051954269409,13.2057371139526,13.2062797546387,13.2068223953247,13.2073640823364,13.2079067230225,13.2084493637085,13.2089920043945,13.2095346450806,13.2100772857666,13.2106199264526,13.2111625671387,13.2117052078247,13.2122478485107,13.2127904891968,13.2133340835571,13.2138767242432,13.2144193649292,13.2149620056152,13.2155055999756,13.2160482406616,13.216591835022,13.217134475708,13.2176780700684,13.2182207107544,13.2187643051147,13.2193078994751,13.2198505401611,13.2203950881958,13.2209386825562,13.2214822769165,13.2220258712769,13.2225685119629,13.2231121063232,13.2236566543579,13.2242002487183,13.2247438430786,13.225287437439,13.2258319854736,13.226375579834,13.2269191741943,13.227463722229,13.2280073165894,13.228551864624,13.2290964126587,13.229640007019,13.2301845550537,13.2307291030884,13.2312726974487,13.2318172454834,13.2323617935181,13.2329063415527,13.2334508895874,13.2339954376221,13.2345399856567,13.2350845336914,13.2356290817261,13.2361745834351,13.2367191314697,13.2372636795044,13.2378082275391,13.238353729248,13.2388982772827,13.2394437789917,13.2399883270264,13.240532875061,13.24107837677,13.241623878479,13.242169380188,13.242714881897,13.243260383606,13.2438049316406,13.2443504333496,13.2448968887329,13.2454414367676,13.2459869384766,13.2465324401855,13.2470779418945,13.2476243972778,13.2481698989868,13.2487154006958,13.2492618560791,13.2498073577881,13.2503528594971,13.2508993148804,13.2514448165894,13.2519912719727,13.2525367736816,13.2530832290649,13.2536296844482,13.2541761398315,13.2547216415405,13.2552680969238,13.2558145523071,13.2563610076904,13.2569074630737,13.257453918457,13.2580003738403,13.2585468292236,13.2590932846069,13.2596406936646,13.2601871490479,13.2607336044312,13.2612810134888,13.2618274688721,13.2623748779297,13.262921333313,13.2634687423706,13.2640151977539,13.2645626068115,13.2651090621948,13.2656564712524,13.2662038803101,13.2667512893677,13.2672986984253,13.2678461074829,13.2683935165405,13.2689409255981,13.2694883346558,13.2700357437134,13.270583152771,13.2711315155029,13.2716789245605,13.2722263336182,13.2727737426758,13.2733221054077,13.2738695144653,13.2744178771973,13.2749652862549,13.2755136489868,13.2760610580444,13.2766094207764,13.2771577835083,13.2777061462402,13.2782545089722,13.2788019180298,13.2793502807617,13.2798986434937,13.2804470062256,13.2809963226318,13.2815446853638,13.2820930480957,13.2826414108276,13.2831897735596,13.2837381362915,13.2842874526978,13.284836769104,13.2853851318359,13.2859344482422,13.2864828109741,13.2870311737061,13.2875804901123,13.2881298065186,13.2886791229248,13.2892284393311,13.289776802063,13.2903261184692,13.2908754348755,13.2914247512817,13.291974067688,13.2925233840942,13.2930727005005,13.2936220169067,13.2941722869873,13.2947216033936,13.2952709197998,13.2958211898804,13.2963705062866,13.2969198226929,13.2974700927734,13.2980194091797,13.2985696792603,13.2991199493408,13.2996692657471,13.3002195358276,13.3007698059082,13.3013200759888,13.3018703460693,13.3024206161499,13.3029708862305,13.303521156311,13.3040714263916,13.3046216964722,13.3051719665527,13.3057222366333,13.3062734603882,13.3068237304688,13.3073740005493,13.3079252243042,13.3084754943848,13.3090257644653,13.3095769882202,13.3101282119751,13.31067943573,13.3112297058105,13.3117809295654,13.3123321533203,13.3128833770752,13.3134346008301,13.3139848709106,13.3145360946655,13.3150882720947,13.3156385421753,13.3161897659302,13.3167419433594,13.3172931671143,13.3178443908691,13.3183965682983,13.3189477920532,13.3194990158081,13.3200511932373,13.3206024169922,13.3211545944214,13.3217067718506,13.3222579956055,13.3228101730347,13.3233613967896,13.3239135742188,13.3244667053223,13.3250179290771,13.3255701065063,13.3261222839355,0,0,0,0,0,0,0,0,0,0,0,0,0,0,0,0,0,0,0,0,0,0,0,0,0,0,0,0,0,0,0,0,0,0,0,0,0,0,0,0,0,0,0,0,0,0,0,0,0,0,0,0,0,0,0,0,0,0,0,0,0,0,0,0,0,0,0,0,0,0,0,0,0,0,0,0,0,0,0,0,0,0,0,0,0,0,0,0,0,0,0,0,0,0,0,0
13.0588407516479,13.0593709945679,13.0599012374878,13.0604314804077,13.060962677002,13.0614929199219,13.0620231628418,13.062554359436,13.063084602356,13.0636148452759,13.0641450881958,13.06467628479,13.0652074813843,13.0657377243042,13.0662689208984,13.0668001174927,13.0673303604126,13.0678615570068,13.0683927536011,13.0689239501953,13.0694551467896,13.0699863433838,13.070517539978,13.0710487365723,13.0715799331665,13.0721111297607,13.072642326355,13.0731735229492,13.0737056732178,13.074236869812,13.0747680664062,13.0753002166748,13.075831413269,13.0763626098633,13.0768947601318,13.0774269104004,13.0779581069946,13.0784902572632,13.0790224075317,13.079553604126,13.0800857543945,13.0806179046631,13.0811500549316,13.0816822052002,13.0822143554688,13.0827465057373,13.0832786560059,13.0838117599487,13.084342956543,13.0848760604858,13.0854082107544,13.0859403610229,13.0864725112915,13.0870056152344,13.0875377655029,13.0880708694458,13.0886030197144,13.0891361236572,13.0896692276001,13.090202331543,13.0907344818115,13.0912675857544,13.0917997360229,13.0923337936401,13.092866897583,13.0933990478516,13.0939321517944,13.0944662094116,13.0949983596802,13.0955324172974,13.0960655212402,13.0965986251831,13.097131729126,13.0976657867432,13.098198890686,13.0987319946289,13.0992660522461,13.099799156189,13.1003332138062,13.100866317749,13.1014003753662,13.1019334793091,13.1024675369263,13.1030015945435,13.1035356521606,13.1040697097778,13.1046028137207,13.1051378250122,13.1056718826294,13.1062059402466,13.1067399978638,13.107274055481,13.1078081130981,13.1083421707153,13.1088771820068,13.109411239624,13.1099452972412,13.1104803085327,13.1110143661499,13.1115493774414,13.1120834350586,13.1126184463501,13.1131525039673,13.1136875152588,13.1142225265503,13.1147575378418,13.115291595459,13.1158266067505,13.116361618042,13.1168966293335,13.117431640625,13.1179666519165,13.118501663208,13.1190366744995,13.119571685791,13.1201076507568,13.1206426620483,13.1211786270142,13.1217136383057,13.1222486495972,13.1227836608887,13.1233196258545,13.1238555908203,13.1243906021118,13.1249265670776,13.1254625320435,13.125997543335,13.1265335083008,13.1270694732666,13.1276054382324,13.1281414031982,13.1286773681641,13.1292123794556,13.1297483444214,13.1302852630615,13.1308212280273,13.1313571929932,13.131893157959,13.1324300765991,13.1329660415649,13.1335020065308,13.1340389251709,13.1345748901367,13.1351118087769,13.1356477737427,13.1361846923828,13.1367216110229,13.1372575759888,13.1377944946289,13.138331413269,13.1388673782349,13.1394052505493,13.1399412155151,13.1404781341553,13.1410150527954,13.1415529251099,13.1420888900757,13.1426267623901,13.1431636810303,13.1437005996704,13.1442375183105,13.144775390625,13.1453123092651,13.1458501815796,13.1463871002197,13.1469249725342,13.1474618911743,13.1479988098145,13.1485376358032,13.1490755081177,13.1496124267578,13.1501502990723,13.1506881713867,13.1512250900269,13.1517629623413,13.1523017883301,13.1528387069702,13.1533765792847,13.1539154052734,13.1544532775879,13.1549911499023,13.1555299758911,13.1560678482056,13.15660572052,13.1571445465088,13.1576824188232,13.1582202911377,13.1587591171265,13.1592979431152,13.1598358154297,13.1603746414185,13.1609134674072,13.1614513397217,13.1619901657104,13.1625289916992,13.163067817688,13.1636066436768,13.1641454696655,13.1646842956543,13.1652231216431,13.1657619476318,13.1663017272949,13.1668395996094,13.1673793792725,13.1679182052612,13.16845703125,13.1689968109131,13.1695365905762,13.1700754165649,13.170615196228,13.1711540222168,13.1716938018799,13.1722326278687,13.1727724075317,13.1733121871948,13.1738519668579,13.174391746521,13.1749305725098,13.1754713058472,13.1760101318359,13.1765508651733,13.1770906448364,13.1776304244995,13.1781702041626,13.1787099838257,13.1792507171631,13.1797904968262,13.1803312301636,13.1808710098267,13.1814107894897,13.1819515228271,13.1824913024902,13.1830320358276,13.183572769165,13.1841135025024,13.1846532821655,13.1851940155029,13.1857347488403,13.1862754821777,13.1868162155151,13.1873569488525,13.1878976821899,13.1884384155273,13.1889791488647,13.1895198822021,13.1900606155396,13.190601348877,13.1911430358887,13.1916847229004,13.1922254562378,13.1927661895752,13.1933078765869,13.1938486099243,13.194390296936,13.1949319839478,13.1954727172852,13.1960144042969,13.1965560913086,13.197096824646,13.1976385116577,13.1981811523438,13.1987218856812,13.1992645263672,13.1998062133789,13.2003469467163,13.2008895874023,13.2014312744141,13.2019729614258,13.2025156021118,13.2030572891235,13.2035989761353,13.2041416168213,13.204683303833,13.205225944519,13.2057676315308,13.2063102722168,13.2068529129028,13.2073945999146,13.2079372406006,13.2084798812866,13.2090225219727,13.2095651626587,13.2101078033447,13.2106504440308,13.2111930847168,13.2117357254028,13.2122793197632,13.2128210067749,13.2133646011353,13.2139072418213,13.2144498825073,13.2149925231934,13.2155361175537,13.2160787582397,13.2166223526001,13.2171659469604,13.2177085876465,13.2182521820068,13.2187948226929,13.2193384170532,13.2198820114136,13.2204256057739,13.2209692001343,13.2215127944946,13.2220554351807,13.2225999832153,13.2231435775757,13.223687171936,13.2242307662964,13.2247743606567,13.2253179550171,13.2258625030518,13.2264060974121,13.2269506454468,0,0,0,0,0,0,0,0,0,0,0,0,0,0,0,0,0,0,0,0,0,0,0,0,0,0,0,0,0,0,0,0,0,0,0,0,0,0,0,0,0,0,0,0,0,0,0,0,0,0,0,0,0,0,0,0,0,0,0,0,0,0,0,0,0,0,0,0,0,0,0,0,0,0,0,0,0,0,0,0,0,0,0,0,0,0,0,0,0,0,0,0,0,0,0,0,0,0
12.964638710022,12.965160369873,12.9656829833984,12.9662065505981,12.9667291641235,12.9672517776489,12.9677753448486,12.968297958374,12.9688205718994,12.9693441390991,12.9698667526245,12.9703893661499,12.9709129333496,12.971435546875,12.9719591140747,12.9724817276001,12.9730052947998,12.9735288619995,12.9740524291992,12.9745759963989,12.9750995635986,12.9756231307983,12.976146697998,12.9766702651978,12.9771928787231,12.9777173995972,12.9782409667969,12.9787645339966,12.9792881011963,12.9798126220703,12.98033618927,12.980860710144,12.9813842773438,12.9819078445435,12.9824323654175,12.9829568862915,12.9834804534912,12.9840040206909,12.9845294952393,12.985053062439,12.985577583313,12.986102104187,12.986626625061,12.9871501922607,12.9876756668091,12.9881992340088,12.9887237548828,12.9892492294312,12.9897737503052,12.9902982711792,12.9908227920532,12.9913482666016,12.9918727874756,12.9923973083496,12.9929227828979,12.993447303772,12.993971824646,12.9944972991943,12.9950227737427,12.9955472946167,12.996072769165,12.9965982437134,12.9971227645874,12.9976482391357,12.9981737136841,12.9986991882324,12.9992246627808,12.9997501373291,13.0002756118774,13.0008010864258,13.0013265609741,13.0018520355225,13.0023775100708,13.0029039382935,13.0034284591675,13.0039548873901,13.0044813156128,13.0050067901611,13.0055332183838,13.0060586929321,13.0065841674805,13.0071105957031,13.0076360702515,13.0081624984741,13.0086898803711,13.0092153549194,13.0097417831421,13.0102682113647,13.0107936859131,13.0113201141357,13.0118474960327,13.0123739242554,13.012900352478,13.0134267807007,13.0139532089233,13.014479637146,13.0150060653687,13.0155334472656,13.0160598754883,13.0165863037109,13.0171136856079,13.0176401138306,13.0181674957275,13.0186948776245,13.0192213058472,13.0197486877441,13.0202760696411,13.0208024978638,13.0213298797607,13.0218572616577,13.0223846435547,13.0229120254517,13.0234394073486,13.0239667892456,13.0244941711426,13.0250215530396,13.0255489349365,13.0260763168335,13.0266046524048,13.0271320343018,13.0276594161987,13.02818775177,13.028715133667,13.0292434692383,13.0297708511353,13.0302991867065,13.0308265686035,13.0313549041748,13.0318832397461,13.0324115753174,13.0329399108887,13.03346824646,13.0339956283569,13.0345239639282,13.0350522994995,13.0355806350708,13.0361089706421,13.0366373062134,13.0371656417847,13.0376949310303,13.0382232666016,13.0387516021729,13.0392808914185,13.0398092269897,13.040337562561,13.0408668518066,13.0413951873779,13.0419244766235,13.0424528121948,13.0429821014404,13.043511390686,13.0440406799316,13.0445690155029,13.0450983047485,13.0456275939941,13.0461568832397,13.0466861724854,13.047215461731,13.0477447509766,13.0482740402222,13.0488033294678,13.0493326187134,13.0498628616333,13.0503921508789,13.0509214401245,13.0514516830444,13.05198097229,13.0525102615356,13.0530405044556,13.0535707473755,13.0541000366211,13.054630279541,13.0551595687866,13.0556898117065,13.0562200546265,13.0567502975464,13.0572805404663,13.0578107833862,13.0583410263062,13.0588703155518,13.059401512146,13.0599308013916,13.0604619979858,13.0609922409058,13.0615224838257,13.0620536804199,13.0625839233398,13.0631141662598,13.063645362854,13.0641756057739,13.0647058486938,13.0652370452881,13.0657682418823,13.0662984848022,13.0668296813965,13.0673608779907,13.0678911209106,13.0684232711792,13.0689535140991,13.0694847106934,13.0700159072876,13.0705471038818,13.0710783004761,13.0716094970703,13.0721406936646,13.0726718902588,13.073203086853,13.0737352371216,13.0742664337158,13.0747985839844,13.0753297805786,13.0758619308472,13.0763931274414,13.0769243240356,13.0774564743042,13.0779886245728,13.0785207748413,13.0790519714355,13.0795841217041,13.0801153182983,13.0806474685669,13.0811805725098,13.081711769104,13.0822439193726,13.0827760696411,13.0833082199097,13.0838413238525,13.0843734741211,13.0849056243896,13.0854377746582,13.0859708786011,13.0865030288696,13.0870351791382,13.0875682830811,13.0881004333496,13.0886335372925,13.0891666412354,13.0896987915039,13.0902318954468,13.0907640457153,13.0912971496582,13.0918302536011,13.0923633575439,13.0928964614868,13.0934295654297,13.0939626693726,13.0944957733154,13.0950288772583,13.0955619812012,13.096095085144,13.0966291427612,13.0971622467041,13.097695350647,13.0982284545898,13.0987615585327,13.0992956161499,13.0998296737671,13.10036277771,13.1008968353271,13.10142993927,13.1019639968872,13.1024980545044,13.1030321121216,13.1035652160645,13.1040992736816,13.1046333312988,13.105167388916,13.1057014465332,13.1062355041504,13.1067695617676,13.1073036193848,13.107837677002,13.1083726882935,13.1089067459106,13.1094408035278,13.1099758148193,13.1105098724365,13.111044883728,13.1115789413452,13.1121139526367,13.1126489639282,13.1131830215454,13.1137180328369,13.1142520904541,13.1147871017456,13.1153221130371,13.1158571243286,13.1163921356201,13.1169271469116,13.1174621582031,13.1179962158203,13.1185321807861,13.1190671920776,13.1196022033691,13.1201372146606,13.1206731796265,13.121208190918,13.1217432022095,13.122278213501,13.1228141784668,13.1233501434326,13.1238851547241,13.1244211196899,13.1249561309814,13.1254920959473,13.1260280609131,13.1265640258789,13.1270990371704,13.1276350021362,13.1281709671021,13.1287069320679,13.1292428970337,13.1297788619995,0,0,0,0,0,0,0,0,0,0,0,0,0,0,0,0,0,0,0,0,0,0,0,0,0,0,0,0,0,0,0,0,0,0,0,0,0,0,0,0,0,0,0,0,0,0,0,0,0,0,0,0,0,0,0,0,0,0,0,0,0,0,0,0,0,0,0,0,0,0,0,0,0,0,0,0,0,0,0,0,0,0,0,0,0,0,0,0,0,0,0,0,0,0,0,0,0,0,0
12.8717842102051,12.8723001480103,12.8728151321411,12.873330116272,12.8738451004028,12.874361038208,12.8748769760132,12.875391960144,12.8759069442749,12.8764228820801,12.8769388198853,12.8774538040161,12.8779697418213,12.8784856796265,12.8790016174316,12.8795166015625,12.8800325393677,12.8805484771729,12.881064414978,12.8815803527832,12.8820962905884,12.8826122283936,12.8831281661987,12.8836450576782,12.8841600418091,12.8846769332886,12.8851938247681,12.8857097625732,12.8862257003784,12.8867416381836,12.8872585296631,12.8877744674683,12.8882923126221,12.8888072967529,12.8893241882324,12.8898410797119,12.8903579711914,12.8908739089966,12.8913908004761,12.8919076919556,12.8924255371094,12.8929414749146,12.893458366394,12.8939752578735,12.894492149353,12.8950099945068,12.8955268859863,12.8960437774658,12.8965606689453,12.8970785140991,12.8975954055786,12.8981122970581,12.8986301422119,12.8991470336914,12.8996648788452,12.9001817703247,12.9006996154785,12.9012174606323,12.9017353057861,12.9022521972656,12.9027700424194,12.9032878875732,12.9038047790527,12.9043226242065,12.9048404693604,12.9053592681885,12.9058771133423,12.9063940048218,12.9069128036499,12.9074306488037,12.9079484939575,12.9084672927856,12.9089851379395,12.9095029830933,12.9100208282471,12.9105396270752,12.911057472229,12.9115762710571,12.9120950698853,12.9126129150391,12.9131317138672,12.913649559021,12.9141683578491,12.9146871566772,12.9152059555054,12.9157247543335,12.9162435531616,12.9167623519897,12.9172801971436,12.9177989959717,12.9183187484741,12.9188375473022,12.9193563461304,12.9198760986328,12.9203948974609,12.9209136962891,12.9214324951172,12.9219522476196,12.9224710464478,12.9229907989502,12.9235095977783,12.9240293502808,12.9245481491089,12.9250679016113,12.9255876541138,12.9261064529419,12.9266262054443,12.9271459579468,12.9276657104492,12.9281854629517,12.9287052154541,12.9292249679565,12.929744720459,12.9302644729614,12.9307842254639,12.9313039779663,12.9318246841431,12.9323444366455,12.9328641891479,12.9333848953247,12.9339046478271,12.9344244003296,12.9349451065063,12.9354648590088,12.9359855651855,12.9365062713623,12.9370260238647,12.9375467300415,12.9380674362183,12.9385871887207,12.9391088485718,12.9396295547485,12.940149307251,12.9406700134277,12.9411907196045,12.9417114257812,12.9422330856323,12.9427537918091,12.9432744979858,12.9437952041626,12.9443159103394,12.9448375701904,12.9453582763672,12.9458789825439,12.946400642395,12.9469213485718,12.9474430084229,12.9479646682739,12.9484853744507,12.9490070343018,12.9495286941528,12.9500503540039,12.9505710601807,12.9510927200317,12.9516143798828,12.9521360397339,12.952657699585,12.9531803131104,12.9537010192871,12.9542226791382,12.9547443389893,12.9552669525146,12.9557886123657,12.9563112258911,12.9568328857422,12.9573545455933,12.9578771591187,12.9583988189697,12.9589204788208,12.9594430923462,12.9599657058716,12.960488319397,12.961009979248,12.9615325927734,12.9620542526245,12.9625768661499,12.9630994796753,12.963623046875,12.9641447067261,12.9646673202515,12.9651908874512,12.9657125473022,12.966236114502,12.9667587280273,12.9672813415527,12.9678039550781,12.9683265686035,12.9688501358032,12.9693727493286,12.9698963165283,12.9704189300537,12.9709424972534,12.9714651107788,12.9719886779785,12.9725112915039,12.9730358123779,12.9735584259033,12.974081993103,12.9746055603027,12.9751291275024,12.9756517410278,12.9761762619019,12.9766998291016,12.9772233963013,12.977746963501,12.9782705307007,12.9787940979004,12.9793176651001,12.9798421859741,12.9803657531738,12.9808902740479,12.9814138412476,12.9819374084473,12.982460975647,12.982985496521,12.983510017395,12.984034538269,12.9845581054688,12.9850826263428,12.9856071472168,12.9861307144165,12.9866552352905,12.9871807098389,12.9877042770386,12.9882297515869,12.9887533187866,12.9892778396606,12.9898023605347,12.990327835083,12.990852355957,12.9913768768311,12.9919023513794,12.9924268722534,12.9929523468018,12.9934768676758,12.9940013885498,12.9945268630981,12.9950523376465,12.9955768585205,12.9961013793945,12.9966268539429,12.9971532821655,12.9976778030396,12.9982032775879,12.9987287521362,12.9992532730103,12.9997797012329,13.0003042221069,13.0008306503296,13.0013561248779,13.0018815994263,13.0024070739746,13.0029325485229,13.0034589767456,13.0039844512939,13.0045108795166,13.0050363540649,13.0055627822876,13.0060882568359,13.0066146850586,13.0071401596069,13.0076665878296,13.0081920623779,13.0087184906006,13.0092449188232,13.0097713470459,13.0102968215942,13.0108242034912,13.0113506317139,13.0118761062622,13.0124034881592,13.0129299163818,13.0134563446045,13.0139827728271,13.0145092010498,13.0150365829468,13.0155630111694,13.0160894393921,13.0166168212891,13.0171432495117,13.0176706314087,13.0181970596313,13.0187244415283,13.019250869751,13.0197782516479,13.0203056335449,13.0208320617676,13.0213603973389,13.0218877792358,13.0224142074585,13.0229415893555,13.0234689712524,13.0239963531494,13.0245237350464,13.0250520706177,13.0255784988403,13.0261068344116,13.0266342163086,13.0271615982056,13.0276899337769,13.0282173156738,13.0287456512451,13.0292730331421,13.0298013687134,13.0303287506104,13.0308570861816,13.0313844680786,13.0319128036499,13.0324411392212,13.0329685211182,13.0334978103638,13.0340251922607,0,0,0,0,0,0,0,0,0,0,0,0,0,0,0,0,0,0,0,0,0,0,0,0,0,0,0,0,0,0,0,0,0,0,0,0,0,0,0,0,0,0,0,0,0,0,0,0,0,0,0,0,0,0,0,0,0,0,0,0,0,0,0,0,0,0,0,0,0,0,0,0,0,0,0,0,0,0,0,0,0,0,0,0,0,0,0,0,0,0,0,0,0,0,0,0,0,0,0,0
12.7802515029907,12.7807598114014,12.781268119812,12.7817754745483,12.782283782959,12.7827911376953,12.783299446106,12.7838077545166,12.7843160629272,12.7848234176636,12.7853326797485,12.7858409881592,12.7863483428955,12.7868576049805,12.7873659133911,12.7878742218018,12.7883825302124,12.7888917922974,12.7893991470337,12.7899084091187,12.7904176712036,12.7909259796143,12.7914342880249,12.7919435501099,12.7924518585205,12.7929611206055,12.7934694290161,12.7939796447754,12.794487953186,12.794997215271,12.7955055236816,12.7960147857666,12.7965240478516,12.7970333099365,12.7975435256958,12.7980518341064,12.7985620498657,12.7990703582764,12.7995796203613,12.8000898361206,12.8005990982056,12.8011083602905,12.8016185760498,12.8021278381348,12.8026371002197,12.803147315979,12.8036575317383,12.8041667938232,12.8046760559082,12.8051862716675,12.8056964874268,12.8062057495117,12.806715965271,12.8072261810303,12.8077363967896,12.8082456588745,12.8087568283081,12.8092660903931,12.8097763061523,12.8102874755859,12.8107967376709,12.8113079071045,12.8118181228638,12.812328338623,12.8128385543823,12.8133497238159,12.8138599395752,12.8143701553345,12.8148813247681,12.8153915405273,12.8159017562866,12.8164129257202,12.8169240951538,12.8174343109131,12.8179454803467,12.8184566497803,12.8189668655396,12.8194780349731,12.8199892044067,12.8205003738403,12.8210115432739,12.8215227127075,12.8220338821411,12.8225450515747,12.8230562210083,12.8235673904419,12.8240795135498,12.8245906829834,12.825101852417,12.8256130218506,12.8261241912842,12.8266363143921,12.8271474838257,12.8276596069336,12.8281707763672,12.8286828994751,12.8291940689087,12.8297061920166,12.8302183151245,12.8307304382324,12.8312425613403,12.8317546844482,12.8322658538818,12.8327779769897,12.833291053772,12.8338022232056,12.8343143463135,12.8348264694214,12.8353385925293,12.8358516693115,12.8363637924194,12.8368759155273,12.8373889923096,12.8379011154175,12.8384132385254,12.8389263153076,12.8394384384155,12.8399515151978,12.8404636383057,12.8409767150879,12.8414888381958,12.842001914978,12.8425140380859,12.8430271148682,12.8435411453247,12.8440532684326,12.8445663452148,12.8450794219971,12.8455924987793,12.8461055755615,12.8466186523438,12.8471326828003,12.8476457595825,12.8481588363647,12.848671913147,12.8491849899292,12.8496990203857,12.850212097168,12.8507251739502,12.8512392044067,12.8517532348633,12.8522663116455,12.8527803421021,12.8532934188843,12.8538074493408,12.8543214797974,12.8548345565796,12.8553485870361,12.8558626174927,12.8563756942749,12.8568906784058,12.8574047088623,12.8579187393188,12.8584327697754,12.8589468002319,12.8594608306885,12.859974861145,12.8604898452759,12.8610038757324,12.861517906189,12.8620319366455,12.8625469207764,12.8630609512329,12.8635759353638,12.8640899658203,12.8646049499512,12.8651189804077,12.8656339645386,12.8661489486694,12.866662979126,12.8671789169312,12.8676929473877,12.8682088851929,12.8687229156494,12.8692378997803,12.8697528839111,12.8702688217163,12.8707838058472,12.871298789978,12.8718137741089,12.8723287582397,12.8728437423706,12.8733587265015,12.8738746643066,12.8743896484375,12.8749055862427,12.8754205703735,12.8759365081787,12.8764524459839,12.8769674301147,12.8774833679199,12.8779993057251,12.878514289856,12.8790302276611,12.8795461654663,12.8800621032715,12.8805770874023,12.8810930252075,12.8816089630127,12.8821258544922,12.8826417922974,12.8831577301025,12.8836736679077,12.8841896057129,12.8847055435181,12.8852224349976,12.8857383728027,12.8862543106079,12.8867712020874,12.8872880935669,12.8878040313721,12.8883199691772,12.8888378143311,12.8893537521362,12.8898696899414,12.8903865814209,12.8909034729004,12.8914203643799,12.8919372558594,12.8924541473389,12.8929710388184,12.8934869766235,12.8940048217773,12.8945217132568,12.8950386047363,12.8955554962158,12.8960723876953,12.8965892791748,12.8971071243286,12.8976240158081,12.8981418609619,12.8986587524414,12.8991765975952,12.8996934890747,12.9002113342285,12.9007291793823,12.9012460708618,12.9017639160156,12.9022817611694,12.9027986526489,12.9033164978027,12.9038343429565,12.9043521881104,12.9048700332642,12.905387878418,12.9059057235718,12.9064235687256,12.9069414138794,12.9074602127075,12.9079780578613,12.9084959030151,12.9090137481689,12.9095315933228,12.9100503921509,12.9105682373047,12.9110870361328,12.9116048812866,12.9121236801147,12.9126424789429,12.9131603240967,12.9136791229248,12.9141979217529,12.9147157669067,12.9152345657349,12.915753364563,12.9162721633911,12.9167909622192,12.9173097610474,12.9178285598755,12.9183473587036,12.9188661575317,12.9193859100342,12.9199047088623,12.9204235076904,12.9209423065186,12.921462059021,12.9219818115234,12.9225006103516,12.9230194091797,12.9235391616821,12.9240579605103,12.9245777130127,12.9250974655151,12.9256162643433,12.9261360168457,12.9266557693481,12.9271745681763,12.927695274353,12.9282150268555,12.9287338256836,12.9292545318604,12.9297733306885,12.9302940368652,12.9308137893677,12.9313335418701,12.9318542480469,12.9323740005493,12.9328937530518,12.9334135055542,12.933934211731,12.9344539642334,12.9349746704102,12.9354944229126,12.9360151290894,12.9365348815918,12.9370555877686,12.937575340271,12.9380970001221,12.9386177062988,12.9391374588013,12.939658164978,12.9401788711548,12.9406995773315,12.9412202835083,0,0,0,0,0,0,0,0,0,0,0,0,0,0,0,0,0,0,0,0,0,0,0,0,0,0,0,0,0,0,0,0,0,0,0,0,0,0,0,0,0,0,0,0,0,0,0,0,0,0,0,0,0,0,0,0,0,0,0,0,0,0,0,0,0,0,0,0,0,0,0,0,0,0,0,0,0,0,0,0,0,0,0,0,0,0,0,0,0,0,0,0,0,0,0,0,0,0
12.6900110244751,12.6905117034912,12.6910123825073,12.6915130615234,12.6920146942139,12.69251537323,12.6930160522461,12.6935176849365,12.6940183639526,12.6945199966431,12.6950206756592,12.6955213546753,12.6960229873657,12.6965246200562,12.6970252990723,12.6975269317627,12.6980276107788,12.6985292434692,12.6990308761597,12.6995325088501,12.7000341415405,12.700535774231,12.7010374069214,12.7015380859375,12.7020397186279,12.7025423049927,12.7030439376831,12.7035455703735,12.704047203064,12.7045488357544,12.7050504684448,12.7055530548096,12.7060546875,12.7065572738647,12.7070589065552,12.7075614929199,12.7080631256104,12.7085647583008,12.7090673446655,12.7095699310303,12.7100715637207,12.7105741500854,12.7110767364502,12.7115793228149,12.7120819091797,12.7125844955444,12.7130870819092,12.7135896682739,12.7140922546387,12.7145948410034,12.7150974273682,12.7156000137329,12.7161026000977,12.7166061401367,12.7171087265015,12.7176113128662,12.718113899231,12.71861743927,12.7191200256348,12.7196235656738,12.7201271057129,12.7206296920776,12.7211332321167,12.7216367721558,12.7221393585205,12.7226419448853,12.7231464385986,12.7236490249634,12.7241525650024,12.7246561050415,12.7251596450806,12.7256631851196,12.7261667251587,12.7266702651978,12.7271738052368,12.7276782989502,12.7281808853149,12.7286853790283,12.7291889190674,12.7296934127808,12.7301969528198,12.7307004928589,12.7312049865723,12.7317085266113,12.7322120666504,12.7327165603638,12.7332210540771,12.7337255477905,12.7342290878296,12.734733581543,12.7352380752563,12.7357416152954,12.7362470626831,12.7367506027222,12.7372550964355,12.7377605438232,12.7382640838623,12.7387685775757,12.7392740249634,12.7397785186768,12.7402830123901,12.7407875061035,12.7412919998169,12.7417974472046,12.742301940918,12.7428073883057,12.743311882019,12.7438173294067,12.7443218231201,12.7448272705078,12.7453317642212,12.7458362579346,12.7463426589966,12.74684715271,12.7473526000977,12.7478580474854,12.7483625411987,12.7488689422607,12.7493743896484,12.7498798370361,12.7503852844238,12.7508907318115,12.7513961791992,12.7519016265869,12.7524070739746,12.7529125213623,12.7534189224243,12.7539253234863,12.7544298171997,12.7549362182617,12.7554416656494,12.7559480667114,12.7564544677734,12.7569599151611,12.7574663162231,12.7579717636108,12.7584781646729,12.7589845657349,12.7594909667969,12.7599964141846,12.7605037689209,12.7610092163086,12.7615156173706,12.7620220184326,12.7625293731689,12.7630348205566,12.763542175293,12.764048576355,12.764554977417,12.765061378479,12.7655687332153,12.7660751342773,12.7665815353394,12.7670888900757,12.7675952911377,12.768102645874,12.768609046936,12.7691164016724,12.7696237564087,12.7701301574707,12.770637512207,12.7711448669434,12.7716522216797,12.7721586227417,12.7726669311523,12.7731742858887,12.7736806869507,12.7741889953613,12.7746953964233,12.7752027511597,12.7757110595703,12.7762184143066,12.776725769043,12.7772331237793,12.7777414321899,12.7782487869263,12.7787570953369,12.7792644500732,12.7797727584839,12.7802801132202,12.7807874679565,12.7812957763672,12.7818040847778,12.7823114395142,12.7828197479248,12.7833280563354,12.7838363647461,12.7843446731567,12.7848529815674,12.7853603363037,12.7858695983887,12.7863779067993,12.7868852615356,12.7873945236206,12.7879028320312,12.7884111404419,12.7889194488525,12.7894287109375,12.7899370193481,12.7904462814331,12.7909545898438,12.7914628982544,12.7919721603394,12.7924814224243,12.792989730835,12.7934989929199,12.7940073013306,12.7945165634155,12.7950258255005,12.7955341339111,12.7960443496704,12.7965526580811,12.797061920166,12.797571182251,12.7980804443359,12.7985897064209,12.7990999221802,12.7996091842651,12.8001184463501,12.8006277084351,12.80113697052,12.8016471862793,12.8021564483643,12.8026666641235,12.8031759262085,12.8036851882935,12.8041954040527,12.8047046661377,12.805214881897,12.8057250976562,12.8062343597412,12.8067445755005,12.8072547912598,12.8077640533447,12.808274269104,12.8087844848633,12.8092947006226,12.8098058700562,12.8103160858154,12.8108263015747,12.811336517334,12.8118457794189,12.8123569488525,12.8128671646118,12.8133773803711,12.8138885498047,12.814398765564,12.8149099349976,12.8154201507568,12.8159313201904,12.8164415359497,12.8169527053833,12.8174638748169,12.8179740905762,12.8184852600098,12.818995475769,12.8195066452026,12.8200178146362,12.8205299377441,12.8210401535034,12.821551322937,12.8220624923706,12.8225736618042,12.8230848312378,12.8235969543457,12.824107170105,12.8246192932129,12.8251304626465,12.8256416320801,12.826153755188,12.8266658782959,12.8271770477295,12.8276882171631,12.828200340271,12.8287115097046,12.8292236328125,12.8297357559204,12.830246925354,12.8307590484619,12.8312711715698,12.8317832946777,12.8322954177856,12.8328065872192,12.8333196640015,12.8338308334351,12.834342956543,12.8348560333252,12.8353681564331,12.835880279541,12.8363924026489,12.8369045257568,12.8374166488647,12.837929725647,12.8384418487549,12.8389549255371,12.839467048645,12.8399801254272,12.8404922485352,12.8410053253174,12.8415184020996,12.8420305252075,12.8425436019897,12.843056678772,12.8435697555542,12.8440818786621,12.8445959091187,12.8451080322266,12.8456211090088,12.846134185791,12.8466482162476,12.8471612930298,12.847674369812,12.8481874465942,12.8487005233765,12.8492136001587,12.8497276306152,12.8502416610718,12.850754737854,12.8512678146362,12.8517818450928,12.852294921875,12.8528089523315,12.8533229827881,12.8538360595703,0,0,0,0,0,0,0,0,0,0,0,0,0,0,0,0,0,0,0,0,0,0,0,0,0,0,0,0,0,0,0,0,0,0,0,0,0,0,0,0,0,0,0,0,0,0,0,0,0,0,0,0,0,0,0,0,0,0,0,0,0,0,0,0,0,0,0,0,0,0,0,0,0,0,0,0,0,0,0,0,0,0,0,0,0,0,0,0
