0,0,0,0,0,0,0,0,0,0,0,0,0,0,0,0,0,0,0,0,0,0,0,0,0,0,0,0,0,0,0,0,0,0,0,0,0,0,0,0,0,0,0,0,0,0,0,0,0,0,0,0,0,0,0,0,0,0,0,0,0,0,0,0,0,0,0,0,0,0,0,0,0,0,0,0,0,0,0,0,0,0,0,0,0,0,0,0,0,0,0,0,0,0,0,0,0,0,0,0,0,0,0,0,0,0,0,0,0,0,0,0,0,0,0,0,0,0,0,0,0,0,0,0,0,0,0,0,0,0,0,0,0,0,0,0,0,0,0,0,0,0,0,0,0,0,0,0,0,0,0,0,0,0,0,0,0,0,0,0,0,0,0,0,0,0,0,0,0,0,0,0,0,0,0,0,0,0,0,0,0,0,0,0,0,0,0,0,0,0,0,0,0,0,0,0,0,0,0,0,0,0,0,0,0,0,0,0,0,0,0,0,0,0,0,0,0,0,0,0,0,0,0,0,0,0,0,0,0,0,0,0,0,0,0,0,0,0,0,0,0,0,0,0,0,0,0,0,0,0,0,0,0,0,0,0,0,0,0,0,0,0,0,0,0,0,0,0,0,0,0,0,0,0,0,0,0,0,0,0,0,0,0,0,0,0,0,0,0,0,0,0,0,0,0,0,0,0,0,0,0,0,0,0,0,0,0,0,0,0,0,0,0,0,0,0,0,0,0,0,0,0,0,0,0,0,0,0,0,0,0,0,0,0,0,0,0,0,0,0,0,0,0,0,0,0,0,0,0,0,0,0,0,0,0,0,0,0,0,0,0,0,0,0,0,0,0,0,0,0,0,0,0,0,0,0,0,0,0,0,0,0,0,0,0,0,0,0,0,0,0,0,0,0,0,0,0,0,0,0,0,0,0,0,0,0,0,0,0,0,0,0,0,0,0,0,0,0,0,0,0
0,0,0,0,0,0,0,0,0,0,0,0,0,0,0,0,0,0,0,0,0,0,0,0,0,0,0,0,0,0,0,0,0,0,0,0,0,0,0,0,0,0,0,0,0,0,0,0,0,0,0,0,0,0,0,0,0,0,0,0,0,0,0,0,0,0,0,0,0,0,0,0,0,0,0,0,0,0,0,0,0,0,0,0,0,0,0,0,0,0,0,0,0,0,0,0,0,0,0,0,0,0,0,0,0,0,0,0,0,0,0,0,0,0,0,0,0,0,0,0,0,0,0,0,0,0,0,0,0,0,0,0,0,0,0,0,0,0,0,0,0,0,0,0,0,0,0,0,0,0,0,0,0,0,0,0,0,0,0,0,0,0,0,0,0,0,0,0,0,0,0,0,0,0,0,0,0,0,0,0,0,0,0,0,0,0,0,0,0,0,0,0,0,0,0,0,0,0,0,0,0,0,0,0,0,0,0,0,0,0,0,0,0,0,0,0,0,0,0,0,0,0,0,0,0,0,0,0,0,0,0,0,0,0,0,0,0,0,0,0,0,0,0,0,0,0,0,0,0,0,0,0,0,0,0,0,0,0,0,0,0,0,0,0,0,0,0,0,0,0,0,0,0,0,0,0,0,0,0,0,0,0,0,0,0,0,0,0,0,0,0,0,0,0,0,0,0,0,0,0,0,0,0,0,0,0,0,0,0,0,0,0,0,0,0,0,0,0,0,0,0,0,0,0,0,0,0,0,0,0,0,0,0,0,0,0,0,0,0,0,0,0,0,0,0,0,0,0,0,0,0,0,0,0,0,0,0,0,0,0,0,0,0,0,0,0,0,0,0,0,0,0,0,0,0,0,0,0,0,0,0,0,0,0,0,0,0,0,0,0,0,0,0,0,0,0,0,0,0,0,0,0,0,0,0,0,0,0,0,0,0,0,0,0,0,0,0,0,0,0,0
19.8657512664795,19.8664588928223,19.8671817779541,19.8678951263428,19.8686180114746,19.8693294525146,19.8700504302979,19.8707618713379,19.8714866638184,19.8721981048584,19.8729228973389,19.8736324310303,19.8743553161621,19.8750686645508,19.8757858276367,19.876501083374,19.8772220611572,19.8779335021973,19.8786602020264,19.8793716430664,19.880090713501,19.8808078765869,19.8815269470215,19.8822422027588,19.8829650878906,19.8836784362793,19.8844013214111,19.8851146697998,19.885835647583,19.8865547180176,19.8872756958008,19.8879852294922,19.8887119293213,19.8894214630127,19.8901462554932,19.8908615112305,19.8915843963623,19.892297744751,19.8930206298828,19.8937358856201,19.8944568634033,19.8951759338379,19.8959007263184,19.8966121673584,19.8973369598389,19.8980464935303,19.8987770080566,19.899486541748,19.9002113342285,19.9009246826172,19.9016513824463,19.9023666381836,19.9030876159668,19.9038047790527,19.9045314788818,19.9052429199219,19.9059677124023,19.9066848754883,19.9074039459229,19.9081230163574,19.908842086792,19.9095611572266,19.9102783203125,19.9109973907471,19.9117183685303,19.9124431610107,19.913158416748,19.9138870239258,19.9146003723145,19.9153232574463,19.9160461425781,19.9167671203613,19.9174842834473,19.9182052612305,19.9189281463623,19.9196529388428,19.9203624725342,19.9210872650146,19.9218082427979,19.9225311279297,19.9232501983643,19.9239730834961,19.9246921539307,19.9254169464111,19.9261360168457,19.9268550872803,19.9275779724121,19.9282989501953,19.9290199279785,19.9297428131104,19.9304637908936,19.9311866760254,19.9319019317627,19.9326286315918,19.933349609375,19.9340686798096,19.9347858428955,19.9355125427246,19.9362297058105,19.9369621276855,19.9376773834229,19.9384021759033,19.9391212463379,19.9398460388184,19.9405651092529,19.9412879943848,19.9420127868652,19.942741394043,19.943452835083,19.9441776275635,19.944896697998,19.945629119873,19.9463443756104,19.9470691680908,19.947790145874,19.9485187530518,19.9492378234863,19.9499607086182,19.9506797790527,19.9514083862305,19.9521255493164,19.9528522491455,19.9535751342773,19.9542961120605,19.9550189971924,19.9557437896729,19.9564647674561,19.9571895599365,19.957914352417,19.9586372375488,19.9593563079834,19.9600849151611,19.960807800293,19.9615306854248,19.9622535705566,19.9629783630371,19.9637012481689,19.9644203186035,19.9651527404785,19.965877532959,19.9665985107422,19.967321395874,19.9680461883545,19.9687690734863,19.9694938659668,19.97021484375,19.9709434509277,19.9716644287109,19.9723854064941,19.9731178283691,19.973840713501,19.9745655059814,19.9752902984619,19.9760150909424,19.9767398834229,19.9774646759033,19.9781894683838,19.978910446167,19.9796390533447,19.9803619384766,19.9810886383057,19.9818096160889,19.982536315918,19.9832630157471,19.9839878082275,19.984712600708,19.9854393005371,19.9861621856689,19.9868927001953,19.9876155853271,19.9883441925049,19.9890670776367,19.9897899627686,19.9905166625977,19.9912376403809,19.9919681549072,19.992696762085,19.9934215545654,19.9941463470459,19.9948768615723,19.9955959320068,19.9963245391846,19.9970550537109,19.9977779388428,19.9985008239746,19.9992275238037,19.9999561309814,0,0,0,0,0,0,0,0,0,0,0,0,0,0,0,0,0,0,0,0,0,0,0,0,0,0,0,0,0,0,0,0,0,0,0,0,0,0,0,0,0,0,0,0,0,0,0,0,0,0,0,0,0,0,0,0,0,0,0,0,0,0,0,0,0,0,0,0,0,0,0,0,0,0,0,0,0,0,0,0,0,0,0,0,0,0,0,0,0,0,0,0,0,0,0,0,0,0,0,0,0,0,0,0,0,0,0,0,0,0,0,0,0,0,0,0,0,0,0,0,0,0,0,0,0,0,0,0,0,0,0,0,0,0,0,0,0,0,0,0,0,0,0,0,0,0,0,0,0,0,0,0,0,0,0,0,0,0,0,0,0,0,0,0,0,0,0,0,0,0,0,0,0,0,0,0,0,0,0,0,0,0,0,0,0,0,0,0,0,0,0,0,0,0,0,0,0,0,0,0,0,0,0,0,0,0,0,0,0,0,0,0,0,0,0,0,0,0,0,0,0,0,0,0,0,0,0,0,0,0,0,0,0,0
19.6515808105469,19.6522731781006,19.6529808044434,19.653678894043,19.6543827056885,19.6550807952881,19.6557903289795,19.6564846038818,19.6571884155273,19.6578884124756,19.6585903167725,19.6592960357666,19.6599960327148,19.6606941223145,19.6613998413086,19.6621017456055,19.6628093719482,19.6635036468506,19.664213180542,19.6649131774902,19.6656150817871,19.6663150787354,19.6670227050781,19.6677207946777,19.668420791626,19.6691246032715,19.669828414917,19.6705322265625,19.671236038208,19.6719360351562,19.6726455688477,19.67333984375,19.6740474700928,19.6747455596924,19.6754531860352,19.6761493682861,19.6768569946289,19.677562713623,19.6782684326172,19.6789627075195,19.6796722412109,19.6803665161133,19.6810817718506,19.6817798614502,19.682487487793,19.6831855773926,19.6838912963867,19.6845951080322,19.6852989196777,19.6860065460205,19.6867046356201,19.6874103546143,19.6881141662598,19.6888198852539,19.6895217895508,19.6902256011963,19.6909313201904,19.69162940979,19.6923389434814,19.6930484771729,19.6937465667725,19.6944541931152,19.6951560974121,19.6958637237549,19.6965656280518,19.6972751617432,19.69797706604,19.6986865997314,19.6993865966797,19.7000942230225,19.7007942199707,19.7015056610107,19.7022037506104,19.7029113769531,19.70361328125,19.7043190002441,19.7050266265869,19.7057361602783,19.7064361572266,19.7071399688721,19.7078456878662,19.708553314209,19.7092533111572,19.7099704742432,19.7106666564941,19.7113742828369,19.7120761871338,19.7127857208252,19.7134876251221,19.7141971588135,19.714900970459,19.7156105041504,19.7163105010986,19.7170238494873,19.7177276611328,19.718433380127,19.7191371917725,19.7198467254639,19.7205486297607,19.7212581634521,19.721960067749,19.7226734161377,19.7233753204346,19.7240867614746,19.7247924804688,19.7255001068115,19.726203918457,19.7269153594971,19.7276172637939,19.7283267974854,19.7290287017822,19.7297382354736,19.7304439544678,19.7311458587646,19.7318592071533,19.7325649261475,19.733268737793,19.7339763641357,19.7346897125244,19.7353954315186,19.7360973358154,19.7368144989014,19.7375144958496,19.7382221221924,19.7389297485352,19.7396373748779,19.7403469085693,19.7410507202148,19.7417583465576,19.7424697875977,19.7431716918945,19.7438831329346,19.7445964813232,19.7453002929688,19.7460079193115,19.7467193603516,19.7474250793457,19.7481346130371,19.7488384246826,19.7495517730713,19.7502593994141,19.7509670257568,19.7516746520996,19.752384185791,19.7530918121338,19.7538013458252,19.7545127868652,19.755220413208,19.7559242248535,19.7566318511963,19.7573413848877,19.7580490112305,19.7587642669678,19.7594757080078,19.7601776123047,19.7608871459961,19.7615985870361,19.7623081207275,19.7630214691162,19.763729095459,19.7644329071045,19.7651462554932,19.7658538818359,19.7665672302246,19.7672748565674,19.7679862976074,19.7686939239502,19.7694034576416,19.7701148986816,19.7708225250244,19.7715301513672,19.7722454071045,19.7729549407959,19.77366065979,19.7743682861328,19.7750873565674,19.7757911682129,19.7765064239502,19.777214050293,19.7779235839844,19.7786293029785,19.7793426513672,19.7800483703613,19.78076171875,19.7814788818359,19.782190322876,19.7828941345215,19.7836112976074,19.7843189239502,19.7850284576416,19.7857360839844,19.7864570617676,19.7871589660645,19.7878723144531,19.7885818481445,19.7892951965332,19.7900047302246,19.7907238006592,19.7914257049561,19.7921447753906,19.7928562164307,19.7935676574707,19.7942752838135,19.7949886322021,19.7957019805908,19.7964153289795,19.7971267700195,19.7978324890137,19.798547744751,19.799259185791,19.799976348877,19.8006801605225,19.8013935089111,19.8021087646484,19.8028240203857,19.8035316467285,19.8042469024658,19.8049564361572,19.8056735992432,19.8063850402832,19.8070964813232,19.8078079223633,19.8085231781006,19.809232711792,19.8099460601807,19.8106555938721,19.8113765716553,19.812084197998,19.8127975463867,19.8135070800781,19.8142261505127,19.8149375915527,19.8156471252441,19.8163642883301,19.8170738220215,19.8177909851074,19.8185024261475,19.8192195892334,19.8199272155762,19.8206424713135,19.8213577270508,19.8220672607422,19.8227806091309,19.8234939575195,19.8242111206055,19.8249225616455,19.8256359100342,19.8263473510742,19.8270664215088,19.8277778625488,19.8284950256348,19.8292026519775,19.8299198150635,19.8306350708008,19.8313522338867,19.8320617675781,19.8327789306641,19.8334903717041,19.8342037200928,19.8349151611328,19.8356342315674,19.8363513946533,19.8370685577393,19.8377780914307,19.8384971618652,19.8392028808594,19.8399276733398,19.8406391143799,19.8413524627686,19.8420677185059,19.8427848815918,19.8434982299805,19.8442153930664,19.8449249267578,19.845645904541,19.8463554382324,19.8470802307129,19.8477935791016,19.8485107421875,19.8492221832275,19.8499374389648,19.8506507873535,19.8513717651367,19.8520832061768,19.8528003692627,19.8535118103027,19.8542327880859,19.8549461364746,19.8556690216064,19.8563804626465,19.8570976257324,19.8578090667725,19.8585300445557,19.8592414855957,19.8599605560303,19.8606739044189,19.8613929748535,19.8621101379395,19.862829208374,19.8635406494141,19.8642597198486,19.8649730682373,19.8656902313232,19.8664093017578,19.8671245574951,19.8678455352783,19.8685607910156,19.8692722320557,19.8699951171875,19.8707084655762,19.8714237213135,19.872142791748,19.8728580474854,19.8735771179199,19.8742980957031,19.8750095367432,19.875732421875,19.8764514923096,19.8771667480469,19.8778839111328,19.8786029815674,19.8793144226074,19.8800354003906,19.8807525634766,19.8814716339111,19.8821907043457,19.8829040527344,19.8836288452148,19.8843479156494,19.8850631713867,19.8857860565186,19.8865013122559,19.8872203826904,19.8879337310791,19.8886528015137,19.8893718719482,19.8900890350342,19.8908042907715,19.891529083252,19.8922462463379,19.8929653167725,19.8936805725098,19.8944053649902,19.8951263427734,19.8958377838135,19.8965644836426,19.8972759246826,19.8980007171631,19.8987121582031,19.8994407653809,19.9001502990723,19.90087890625,19.90159034729,19.9023170471191,19.9030342102051,19.9037532806396,19.904468536377,19.9051952362061,19.905912399292,19.9066276550293,19.9073467254639,19.9080715179443,19.9087867736816,19.9095115661621,19.9102268218994,19.9109535217285,19.9116687774658,19.912389755249,19.9131088256836,19.9138298034668,19.91455078125,19.9152698516846,19.9159851074219,19.9167060852051,19.9174308776855,19.9181518554688,19.9188690185547,19.9195880889893,19.9203147888184,19.9210338592529,19.9217491149902,19.9224758148193,19.9231948852539,19.9239196777344,19.9246349334717,19.9253597259521,19.9260768890381,19.9268035888672,19.9275188446045,19.928243637085,19.9289665222168,19.9296855926514,19.9304065704346,19.9311294555664,19.9318523406982,19.9325695037842,19.933292388916,19.9340171813965,19.9347362518311,19.9354591369629,19.9361801147461,19.9369029998779,19.9376258850098,19.938346862793,19.9390697479248,19.9397926330566,19.9405117034912,19.9412364959717,19.9419555664062,19.9426803588867,19.9433975219727,19.9441261291504,19.944845199585,19.9455661773682,19.9462871551514,19.9470138549805,19.9477348327637,19.9484558105469,19.9491806030273,19.9499015808105,19.9506282806396
19.4419765472412,19.4426612854004,19.4433479309082,19.4440326690674,19.4447250366211,19.4454078674316,19.4460964202881,19.4467792510986,19.4474678039551,19.4481525421143,19.4488468170166,19.4495258331299,19.4502182006836,19.4509010314941,19.4515914916992,19.4522743225098,19.4529666900635,19.4536514282227,19.4543418884277,19.4550266265869,19.4557132720947,19.4563980102539,19.4570903778076,19.4577751159668,19.4584655761719,19.4591484069824,19.4598369598389,19.4605312347412,19.4612197875977,19.4619045257568,19.4625930786133,19.4632778167725,19.4639682769775,19.4646587371826,19.4653434753418,19.4660320281982,19.4667167663574,19.4674091339111,19.4680976867676,19.4687824249268,19.4694709777832,19.4701595306396,19.470853805542,19.4715366363525,19.4722290039062,19.4729137420654,19.4736042022705,19.4742965698242,19.4749794006348,19.4756717681885,19.4763584136963,19.4770488739014,19.4777412414551,19.4784297943115,19.4791145324707,19.479808807373,19.4804935455322,19.4811916351318,19.4818744659424,19.4825630187988,19.4832458496094,19.4839420318604,19.4846286773682,19.4853229522705,19.4860076904297,19.4867000579834,19.4873847961426,19.4880790710449,19.4887676239014,19.4894638061523,19.4901466369629,19.4908409118652,19.4915218353271,19.4922218322754,19.4929065704346,19.4936008453369,19.494291305542,19.4949836730957,19.4956645965576,19.4963626861572,19.497049331665,19.497745513916,19.4984264373779,19.4991283416748,19.4998111724854,19.5005054473877,19.5011901855469,19.5018882751465,19.5025768280029,19.503267288208,19.5039558410645,19.5046501159668,19.5053310394287,19.506031036377,19.5067119598389,19.5074100494385,19.5080947875977,19.5087928771973,19.5094814300537,19.5101737976074,19.5108661651611,19.5115566253662,19.5122489929199,19.5129375457764,19.5136280059814,19.5143222808838,19.5150127410889,19.5157051086426,19.516393661499,19.5170841217041,19.5177783966064,19.5184745788574,19.5191612243652,19.5198554992676,19.5205459594727,19.5212421417236,19.5219306945801,19.5226230621338,19.5233116149902,19.5240097045898,19.5246982574463,19.5253944396973,19.5260848999023,19.5267791748047,19.5274715423584,19.5281658172607,19.5288543701172,19.5295486450195,19.5302429199219,19.5309352874756,19.5316219329834,19.5323181152344,19.5330123901367,19.5337009429932,19.5343971252441,19.5350914001465,19.5357818603516,19.5364818572998,19.5371704101562,19.5378665924072,19.5385570526123,19.5392532348633,19.539945602417,19.5406398773193,19.541332244873,19.5420265197754,19.5427150726318,19.5434093475342,19.5441112518311,19.5448036193848,19.5454902648926,19.5461864471436,19.5468864440918,19.5475749969482,19.548267364502,19.5489673614502,19.5496578216553,19.550350189209,19.55104637146,19.5517387390137,19.552433013916,19.553129196167,19.5538177490234,19.5545177459717,19.5552101135254,19.5559120178223,19.5565967559814,19.5572967529297,19.557991027832,19.5586814880371,19.5593776702881,19.5600738525391,19.5607681274414,19.5614700317383,19.5621547698975,19.5628509521484,19.5635433197021,19.5642471313477,19.5649375915527,19.5656356811523,19.5663242340088,19.5670280456543,19.5677146911621,19.568416595459,19.5691051483154,19.5698051452637,19.5705013275146,19.5712013244629,19.571891784668,19.5725898742676,19.5732860565186,19.5739841461182,19.574670791626,19.5753746032715,19.5760669708252,19.5767612457275,19.5774669647217,19.5781593322754,19.578857421875,19.5795497894287,19.5802516937256,19.5809421539307,19.5816421508789,19.582332611084,19.5830326080322,19.5837287902832,19.5844268798828,19.5851192474365,19.5858173370361,19.5865173339844,19.5872135162354,19.5879039764404,19.5886058807373,19.5893020629883,19.5900020599365,19.5906982421875,19.5913906097412,19.5920906066895,19.5927867889404,19.5934867858887,19.5941772460938,19.5948810577393,19.5955772399902,19.5962753295898,19.5969734191895,19.5976696014404,19.5983715057373,19.5990657806396,19.5997638702393,19.6004581451416,19.6011581420898,19.6018505096436,19.6025524139404,19.60325050354,19.6039505004883,19.6046466827393,19.6053466796875,19.6060428619385,19.6067409515381,19.6074409484863,19.6081371307373,19.6088371276855,19.6095333099365,19.6102294921875,19.6109313964844,19.6116218566895,19.6123275756836,19.6130237579346,19.6137218475342,19.6144161224365,19.6151218414307,19.6158199310303,19.6165218353271,19.6172161102295,19.6179218292236,19.618616104126,19.6193180084229,19.6200160980225,19.6207141876221,19.6214084625244,19.6221141815186,19.6228084564209,19.6235103607178,19.6242046356201,19.6249103546143,19.6256084442139,19.6263103485107,19.6270065307617,19.62770652771,19.6284027099609,19.6291084289551,19.6298065185547,19.6305084228516,19.6312026977539,19.631908416748,19.6326026916504,19.6333084106445,19.6340007781982,19.6347064971924,19.6354064941406,19.6361083984375,19.6368064880371,19.6375064849854,19.6382026672363,19.6389102935791,19.6396083831787,19.6403102874756,19.6410045623779,19.6417121887207,19.6424083709717,19.6431121826172,19.6438121795654,19.6445140838623,19.6452140808105,19.6459121704102,19.6466159820557,19.6473121643066,19.6480159759521,19.648717880249,19.6494178771973,19.6501216888428,19.6508197784424,19.6515216827393,19.6522274017334,19.6529293060303,19.6536273956299,19.6543273925781,19.6550331115723,19.6557312011719,19.6564292907715,19.6571350097656,19.6578330993652,19.658540725708,19.6592388153076,19.6599445343018,19.66064453125,19.6613483428955,19.6620464324951,19.6627540588379,19.6634540557861,19.664155960083,19.6648559570312,19.6655616760254,19.6662578582764,19.6669654846191,19.6676654815674,19.6683712005615,19.669075012207,19.6697731018066,19.6704750061035,19.6711807250977,19.6718807220459,19.6725845336914,19.6732883453369,19.6739902496338,19.674690246582,19.6753959655762,19.6761035919189,19.6768074035645,19.6775150299072,19.6782093048096,19.6789169311523,19.679615020752,19.6803226470947,19.6810264587402,19.6817321777344,19.6824340820312,19.6831378936768,19.6838340759277,19.6845455169678,19.685245513916,19.6859531402588,19.686653137207,19.6873645782471,19.6880588531494,19.6887664794922,19.6894683837891,19.6901741027832,19.6908779144287,19.6915817260742,19.6922855377197,19.6929893493652,19.6936950683594,19.6944007873535,19.6951007843018,19.6958065032959,19.69651222229,19.6972179412842,19.6979217529297,19.6986274719238,19.6993312835693,19.7000389099121,19.7007427215576,19.7014465332031,19.7021484375,19.7028541564941,19.703556060791,19.7042655944824,19.7049713134766,19.7056789398193,19.7063789367676,19.7070846557617,19.7077960968018,19.7084999084473,19.7092018127441,19.7099113464355,19.7106113433838,19.7113246917725,19.7120227813721,19.7127285003662,19.713436126709,19.7141380310059,19.7148475646973,19.71555519104,19.7162570953369,19.7169666290283,19.7176742553711,19.7183780670166,19.7190856933594,19.7197914123535,19.7204990386963,19.7212009429932,19.7219085693359,19.7226161956787,19.7233238220215,19.7240295410156,19.7247352600098,19.7254447937012,19.7261505126953,19.7268581390381,19.7275638580322,19.728271484375,19.7289752960205,19.7296829223633,19.7303886413574,19.7310943603516,19.7318058013916,19.7325134277344,19.7332134246826,19.7339248657227,19.7346305847168
19.2368011474609,19.2374687194824,19.2381439208984,19.2388153076172,19.2394886016846,19.2401580810547,19.240837097168,19.2415046691895,19.2421817779541,19.2428493499756,19.2435245513916,19.2441921234131,19.2448654174805,19.2455368041992,19.246208190918,19.246883392334,19.2475624084473,19.2482242584229,19.2489013671875,19.2495746612549,19.2502479553223,19.250919342041,19.251594543457,19.2522640228271,19.2529430389404,19.2536106109619,19.2542819976807,19.2549591064453,19.25563621521,19.2563037872314,19.2569828033447,19.2576541900635,19.2583274841309,19.2590026855469,19.2596740722656,19.260347366333,19.2610244750977,19.261697769165,19.2623672485352,19.2630443572998,19.2637176513672,19.2643928527832,19.2650661468506,19.2657413482666,19.2664127349854,19.2670860290527,19.2677612304688,19.2684326171875,19.2691078186035,19.2697830200195,19.2704582214355,19.2711334228516,19.2718105316162,19.2724895477295,19.2731552124023,19.2738342285156,19.2745037078857,19.2751808166504,19.2758560180664,19.2765369415283,19.2772045135498,19.2778854370117,19.2785568237305,19.2792301177979,19.2799053192139,19.2805843353271,19.2812576293945,19.2819347381592,19.2826080322266,19.2832851409912,19.28395652771,19.284631729126,19.285306930542,19.2859859466553,19.2866630554199,19.2873401641846,19.2880077362061,19.2886905670166,19.2893581390381,19.2900390625,19.2907161712646,19.2913951873779,19.2920665740967,19.2927436828613,19.2934150695801,19.294095993042,19.2947654724121,19.295446395874,19.2961196899414,19.2967948913574,19.2974720001221,19.2981510162354,19.2988262176514,19.2995052337646,19.300178527832,19.3008556365967,19.3015289306641,19.302209854126,19.3028869628906,19.3035621643066,19.3042373657227,19.3049182891846,19.3055934906006,19.3062705993652,19.3069438934326,19.3076210021973,19.3083000183105,19.3089752197266,19.3096580505371,19.3103313446045,19.3110084533691,19.3116855621338,19.3123607635498,19.3130378723145,19.3137168884277,19.3143997192383,19.3150787353516,19.3157520294189,19.3164291381836,19.3171081542969,19.3177833557129,19.3184585571289,19.3191356658936,19.3198146820068,19.3204917907715,19.321174621582,19.3218517303467,19.3225269317627,19.3232097625732,19.3238887786865,19.3245620727539,19.3252410888672,19.3259162902832,19.3265972137451,19.3272705078125,19.3279514312744,19.328634262085,19.329309463501,19.329984664917,19.3306636810303,19.3313446044922,19.3320274353027,19.3327083587646,19.3333835601807,19.3340606689453,19.3347434997559,19.3354187011719,19.3360996246338,19.3367767333984,19.337459564209,19.3381290435791,19.3388175964355,19.3394966125488,19.3401737213135,19.3408508300781,19.34153175354,19.3422088623047,19.3428936004639,19.3435688018799,19.3442459106445,19.3449268341064,19.345609664917,19.3462886810303,19.3469696044922,19.3476467132568,19.3483333587646,19.3490104675293,19.3496894836426,19.3503704071045,19.351053237915,19.3517284393311,19.3524112701416,19.3530883789062,19.3537712097168,19.3544483184814,19.3551292419434,19.3558101654053,19.3564949035645,19.3571701049805,19.357852935791,19.3585319519043,19.3592147827148,19.3598937988281,19.3605804443359,19.3612499237061,19.3619365692139,19.3626136779785,19.363302230835,19.3639793395996,19.3646602630615,19.3653335571289,19.3660221099854,19.3667068481445,19.3673877716064,19.3680725097656,19.3687496185303,19.3694305419922,19.3701095581055,19.3707962036133,19.3714733123779,19.3721580505371,19.372838973999,19.3735179901123,19.3742046356201,19.3748874664307,19.3755664825439,19.3762474060059,19.376932144165,19.377613067627,19.3782939910889,19.3789749145508,19.3796558380127,19.3803405761719,19.3810195922852,19.3817024230957,19.382381439209,19.3830699920654,19.3837471008301,19.3844318389893,19.3851070404053,19.385799407959,19.386474609375,19.3871593475342,19.3878440856934,19.3885269165039,19.3892078399658,19.389892578125,19.3905773162842,19.3912582397461,19.391939163208,19.3926258087158,19.3933048248291,19.3939876556396,19.3946685791016,19.395357131958,19.3960361480713,19.3967227935791,19.3974075317383,19.3980922698975,19.3987693786621,19.3994579315186,19.4001350402832,19.4008255004883,19.4015045166016,19.4021911621094,19.4028701782227,19.4035625457764,19.404239654541,19.4049263000488,19.4056091308594,19.4062995910645,19.4069747924805,19.4076633453369,19.4083423614502,19.4090309143066,19.4097099304199,19.4104042053223,19.4110774993896,19.4117641448975,19.412446975708,19.4131374359131,19.413818359375,19.4145088195801,19.4151878356934,19.4158744812012,19.4165554046631,19.4172420501709,19.4179248809814,19.4186096191406,19.4192962646484,19.4199810028076,19.4206638336182,19.4213562011719,19.4220314025879,19.4227237701416,19.4234046936035,19.4240913391113,19.4247760772705,19.4254608154297,19.4261455535889,19.4268341064453,19.4275207519531,19.428201675415,19.4288845062256,19.429573059082,19.4302577972412,19.430944442749,19.4316291809082,19.4323177337646,19.4330024719238,19.433687210083,19.4343700408936,19.4350566864014,19.4357490539551,19.4364337921143,19.4371185302734,19.437801361084,19.4384899139404,19.4391765594482,19.4398612976074,19.440544128418,19.441234588623,19.4419231414795,19.4426116943359,19.4432964324951,19.4439830780029,19.4446678161621,19.4453563690186,19.4460430145264,19.4467296600342,19.4474143981934,19.4481010437012,19.448787689209,19.4494724273682,19.4501647949219,19.4508514404297,19.4515361785889,19.4522228240967,19.4529132843018,19.4535999298096,19.454288482666,19.4549751281738,19.455659866333,19.4563446044922,19.4570350646973,19.4577217102051,19.4584102630615,19.4590969085693,19.4597854614258,19.4604740142822,19.46116065979,19.4618511199951,19.4625434875488,19.4632320404053,19.4639129638672,19.4646053314209,19.4652938842773,19.4659824371338,19.466667175293,19.4673557281494,19.4680461883545,19.4687347412109,19.4694232940674,19.4701099395752,19.4708003997803,19.4714870452881,19.4721755981445,19.472864151001,19.4735546112061,19.4742412567139,19.4749298095703,19.4756164550781,19.4763050079346,19.4769973754883,19.4776878356934,19.4783744812012,19.4790630340576,19.4797534942627,19.4804458618164,19.4811305999756,19.4818172454834,19.4825096130371,19.4831981658936,19.4838886260986,19.4845771789551,19.4852657318115,19.4859561920166,19.4866466522217,19.4873371124268,19.4880256652832,19.4887180328369,19.4894104003906,19.4900970458984,19.4907855987549,19.4914722442627,19.4921627044678,19.4928550720215,19.4935474395752,19.4942321777344,19.494930267334,19.4956150054932,19.4963054656982,19.4969959259033,19.4976863861084,19.4983787536621,19.4990673065186,19.4997577667236,19.5004463195801,19.5011386871338,19.5018329620361,19.5025196075439,19.5032119750977,19.5039043426514,19.5045928955078,19.5052852630615,19.5059719085693,19.506664276123,19.5073566436768,19.5080490112305,19.5087394714355,19.509428024292,19.5101165771484,19.510814666748,19.5115032196045,19.5121955871582,19.5128841400146,19.513578414917,19.5142726898193,19.5149593353271,19.5156555175781,19.5163421630859,19.5170364379883,19.5177192687988,19.5184211730957,19.5191078186035,19.5198040008545,19.5204887390137,19.5211887359619,19.5218753814697,19.5225696563721,19.5232601165771
19.0359115600586,19.0365581512451,19.0372276306152,19.0378761291504,19.0385398864746,19.0391979217529,19.0398540496826,19.0405139923096,19.0411720275879,19.0418224334717,19.0424880981445,19.0431442260742,19.0438079833984,19.0444660186768,19.0451164245605,19.0457801818848,19.0464401245117,19.04709815979,19.047758102417,19.048412322998,19.0490779876709,19.0497303009033,19.0503940582275,19.0510520935059,19.0517120361328,19.052375793457,19.053035736084,19.053689956665,19.054349899292,19.0550079345703,19.0556659698486,19.0563316345215,19.0569877624512,19.0576438903809,19.0583095550537,19.0589656829834,19.0596237182617,19.0602836608887,19.0609474182129,19.0616054534912,19.0622673034668,19.0629253387451,19.0635852813721,19.0642471313477,19.0649070739746,19.0655670166016,19.0662250518799,19.0668888092041,19.0675468444824,19.068208694458,19.0688648223877,19.0695323944092,19.0701866149902,19.0708522796631,19.0715103149414,19.0721759796143,19.0728340148926,19.0734920501709,19.074146270752,19.0748157501221,19.0754680633545,19.076135635376,19.0767936706543,19.0774593353271,19.0781173706055,19.0787811279297,19.0794429779053,19.0801067352295,19.0807609558105,19.081428527832,19.0820808410645,19.0827465057373,19.0834102630615,19.0840740203857,19.0847301483154,19.0853881835938,19.0860538482666,19.0867118835449,19.0873756408691,19.0880374908447,19.0886936187744,19.0893611907959,19.0900211334229,19.0906867980957,19.0913467407227,19.0920104980469,19.0926666259766,19.0933361053467,19.093994140625,19.094654083252,19.0953216552734,19.0959873199463,19.0966415405273,19.0973052978516,19.0979690551758,19.0986328125,19.0992965698242,19.0999565124512,19.1006183624268,19.1012783050537,19.1019439697266,19.1026096343994,19.1032695770264,19.1039333343506,19.1045951843262,19.1052570343018,19.105920791626,19.1065864562988,19.1072463989258,19.1079063415527,19.1085720062256,19.1092414855957,19.109899520874,19.1105613708496,19.1112251281738,19.1118850708008,19.1125526428223,19.1132183074951,19.1138782501221,19.1145420074463,19.1152057647705,19.1158695220947,19.1165332794189,19.1172008514404,19.117862701416,19.1185283660889,19.1191883087158,19.11985206604,19.120512008667,19.1211814880371,19.1218452453613,19.1225070953369,19.1231746673584,19.1238422393799,19.1244964599609,19.1251678466797,19.1258277893066,19.1264972686768,19.1271553039551,19.1278228759766,19.1284809112549,19.1291522979736,19.129810333252,19.1304817199707,19.1311416625977,19.1318092346191,19.1324710845947,19.1331386566162,19.1338024139404,19.1344699859619,19.1351318359375,19.1357955932617,19.1364631652832,19.137134552002,19.137788772583,19.1384563446045,19.139123916626,19.1397953033447,19.140453338623,19.1411247253418,19.1417846679688,19.1424503326416,19.1431179046631,19.1437816619873,19.1444454193115,19.145112991333,19.1457767486572,19.1464443206787,19.1471118927002,19.147777557373,19.1484394073486,19.1491088867188,19.1497688293457,19.1504440307617,19.1511077880859,19.1517753601074,19.152437210083,19.1531085968018,19.1537704467773,19.1544342041016,19.155101776123,19.1557712554932,19.156436920166,19.1571025848389,19.1577663421631,19.1584377288818,19.1591014862061,19.1597728729248,19.1604404449463,19.1611022949219,19.1617736816406,19.1624374389648,19.163106918335,19.1637668609619,19.1644439697266,19.1651077270508,19.1657752990723,19.1664409637451,19.1671123504639,19.1677761077881,19.1684417724609,19.1691150665283,19.1697788238525,19.1704387664795,19.1711120605469,19.1717758178711,19.1724510192871,19.1731090545654,19.1737861633301,19.174446105957,19.1751174926758,19.1757850646973,19.1764545440674,19.1771183013916,19.1777877807617,19.1784515380859,19.1791286468506,19.1797924041748,19.1804637908936,19.1811237335205,19.1817989349365,19.1824607849121,19.1831340789795,19.1837997436523,19.1844730377197,19.1851367950439,19.1858062744141,19.1864757537842,19.1871452331543,19.1878128051758,19.1884880065918,19.1891479492188,19.1898212432861,19.1904830932617,19.1911563873291,19.1918201446533,19.192497253418,19.1931648254395,19.1938343048096,19.1944999694824,19.1951751708984,19.1958389282227,19.1965084075928,19.1971778869629,19.1978492736816,19.1985168457031,19.1991844177246,19.1998538970947,19.2005271911621,19.201192855835,19.201868057251,19.2025318145752,19.2032032012939,19.2038726806641,19.2045497894287,19.2052116394043,19.2058887481689,19.2065544128418,19.2072219848633,19.2078857421875,19.2085666656494,19.2092304229736,19.2099075317383,19.2105751037598,19.2112407684326,19.2119083404541,19.2125835418701,19.213249206543,19.213924407959,19.2145938873291,19.2152633666992,19.2159366607666,19.2166023254395,19.2172775268555,19.2179470062256,19.2186164855957,19.2192897796631,19.2199573516846,19.2206344604492,19.2213001251221,19.2219734191895,19.2226467132568,19.223316192627,19.2239837646484,19.2246589660645,19.2253265380859,19.2259979248047,19.2266712188721,19.2273406982422,19.2280120849609,19.2286834716797,19.2293548583984,19.2300262451172,19.2306995391846,19.231372833252,19.2320404052734,19.2327136993408,19.2333850860596,19.2340545654297,19.2347278594971,19.2354030609131,19.2360725402832,19.2367496490479,19.237419128418,19.2380886077881,19.2387599945068,19.2394351959229,19.240104675293,19.240779876709,19.2414493560791,19.2421245574951,19.2427921295166,19.2434673309326,19.2441444396973,19.244815826416,19.2454872131348,19.2461605072021,19.2468299865723,19.2475032806396,19.2481803894043,19.248851776123,19.2495231628418,19.2501945495605,19.2508678436279,19.2515392303467,19.2522163391113,19.2528896331787,19.2535629272461,19.2542343139648,19.2549114227295,19.2555828094482,19.2562561035156,19.256929397583,19.2576065063477,19.2582759857178,19.2589511871338,19.2596244812012,19.2602958679199,19.2609710693359,19.261646270752,19.262321472168,19.2629909515381,19.2636642456055,19.2643413543701,19.2650146484375,19.2656898498535,19.2663650512695,19.2670402526855,19.2677116394043,19.2683887481689,19.2690620422363,19.2697372436523,19.2704086303711,19.2710857391357,19.2717571258545,19.2724342346191,19.2731056213379,19.2737808227539,19.2744579315186,19.2751331329346,19.2758045196533,19.2764778137207,19.2771549224854,19.2778301239014,19.2785053253174,19.2791805267334,19.2798538208008,19.2805328369141,19.2812042236328,19.2818832397461,19.2825546264648,19.2832355499268,19.2839050292969,19.2845840454102,19.2852573394775,19.2859325408936,19.2866096496582,19.2872829437256,19.2879581451416,19.2886352539062,19.2893123626709,19.2899837493896,19.2906589508057,19.2913379669189,19.292013168335,19.2926921844482,19.2933692932129,19.2940444946289,19.2947196960449,19.2953968048096,19.2960720062256,19.2967510223389,19.2974243164062,19.2981014251709,19.2987728118896,19.2994518280029,19.3001251220703,19.3008041381836,19.3014793395996,19.3021602630615,19.3028297424316,19.3035087585449,19.3041877746582,19.3048667907715,19.3055362701416,19.3062210083008,19.3068923950195,19.3075752258301,19.3082466125488,19.3089256286621,19.3096008300781,19.3102798461914,19.3109550476074,19.311637878418,19.3123092651367,19.3129920959473,19.3136672973633,19.3143463134766,19.3150196075439,19.3157043457031,19.3163719177246
18.8391666412354,18.839807510376,18.8404502868652,18.8410968780518,18.8417434692383,18.8423881530762,18.8430347442627,18.843677520752,18.8443241119385,18.844970703125,18.8456134796143,18.8462600708008,18.8469009399414,18.8475456237793,18.8481922149658,18.848840713501,18.849479675293,18.8501262664795,18.8507766723633,18.8514213562012,18.8520698547363,18.8527126312256,18.8533592224121,18.8540019989014,18.8546524047852,18.8552932739258,18.8559436798096,18.8565883636475,18.8572311401367,18.857873916626,18.8585205078125,18.8591690063477,18.8598136901855,18.8604621887207,18.8611106872559,18.8617496490479,18.862398147583,18.8630466461182,18.8636932373047,18.8643360137939,18.8649806976318,18.8656311035156,18.8662757873535,18.86692237854,18.8675689697266,18.8682193756104,18.8688659667969,18.869514465332,18.8701572418213,18.8708057403564,18.8714485168457,18.8720989227295,18.8727416992188,18.8733978271484,18.8740367889404,18.8746852874756,18.8753299713135,18.8759822845459,18.8766212463379,18.8772773742676,18.8779182434082,18.878568649292,18.8792152404785,18.8798580169678,18.8805141448975,18.8811550140381,18.8818035125732,18.8824481964111,18.8830947875977,18.8837471008301,18.884391784668,18.8850402832031,18.8856925964355,18.8863391876221,18.8869857788086,18.8876323699951,18.8882789611816,18.8889293670654,18.889575958252,18.8902244567871,18.8908729553223,18.8915214538574,18.8921699523926,18.8928165435791,18.8934631347656,18.8941135406494,18.8947582244873,18.895414352417,18.8960571289062,18.8967056274414,18.8973541259766,18.898006439209,18.8986530303955,18.8993034362793,18.8999481201172,18.900598526001,18.9012489318848,18.9018955230713,18.9025440216064,18.9031963348389,18.9038429260254,18.9044933319092,18.9051399230957,18.9057941436768,18.9064388275146,18.9070854187012,18.9077339172363,18.9083862304688,18.9090328216553,18.9096851348877,18.9103355407715,18.9109840393066,18.9116344451904,18.9122829437256,18.9129314422607,18.9135837554932,18.9142360687256,18.9148864746094,18.9155330657959,18.9161815643311,18.9168319702148,18.91748046875,18.9181346893311,18.9187812805176,18.9194297790527,18.9200839996338,18.9207305908203,18.9213790893555,18.9220314025879,18.9226837158203,18.9233341217041,18.9239864349365,18.924633026123,18.9252834320068,18.9259300231934,18.926586151123,18.9272365570068,18.9278831481934,18.9285335540771,18.9291915893555,18.9298400878906,18.9304885864258,18.9311370849609,18.9317970275879,18.9324359893799,18.9330959320068,18.9337406158447,18.934398651123,18.9350452423096,18.9357032775879,18.9363498687744,18.9369964599609,18.937650680542,18.9383029937744,18.9389533996582,18.9396057128906,18.9402561187744,18.9409103393555,18.941556930542,18.9422130584717,18.9428577423096,18.9435176849365,18.9441623687744,18.9448204040527,18.9454689025879,18.9461250305176,18.9467735290527,18.9474277496338,18.9480743408203,18.9487285614014,18.9493789672852,18.9500370025635,18.9506855010986,18.9513416290283,18.9519901275635,18.9526462554932,18.953296661377,18.953950881958,18.9546012878418,18.9552555084229,18.955904006958,18.9565620422363,18.9572086334229,18.9578647613525,18.9585227966309,18.9591693878174,18.9598217010498,18.9604797363281,18.9611301422119,18.9617862701416,18.9624347686768,18.9630851745605,18.9637432098389,18.964391708374,18.9650478363037,18.9656963348389,18.9663562774658,18.9670028686523,18.9676628112793,18.9683132171631,18.9689655303955,18.9696159362793,18.970272064209,18.9709186553955,18.971586227417,18.9722328186035,18.9728870391846,18.9735374450684,18.9741954803467,18.9748458862305,18.9755020141602,18.9761562347412,18.9768123626709,18.9774589538574,18.9781246185303,18.9787693023682,18.9794292449951,18.9800777435303,18.9807434082031,18.981388092041,18.9820461273193,18.9826927185059,18.9833526611328,18.9840106964111,18.9846630096436,18.9853134155273,18.9859771728516,18.9866199493408,18.9872817993164,18.9879341125488,18.9885959625244,18.9892482757568,18.9898986816406,18.9905490875244,18.9912071228027,18.9918632507324,18.9925193786621,18.9931735992432,18.9938354492188,18.9944858551025,18.9951400756836,18.9957962036133,18.9964542388916,18.9971027374268,18.9977626800537,18.9984188079834,18.9990749359131,18.9997272491455,19.0003871917725,19.0010395050049,19.0016975402832,19.0023460388184,19.0030097961426,19.0036640167236,19.0043201446533,19.0049781799316,19.0056343078613,19.0062847137451,19.0069427490234,19.0075969696045,19.0082569122314,19.0089092254639,19.0095672607422,19.0102252960205,19.0108814239502,19.0115375518799,19.0121917724609,19.0128479003906,19.0135078430176,19.0141658782959,19.0148181915283,19.015474319458,19.016134262085,19.016788482666,19.0174427032471,19.0180988311768,19.0187587738037,19.0194149017334,19.0200729370117,19.0207290649414,19.0213890075684,19.0220432281494,19.0227012634277,19.0233573913574,19.0240154266357,19.0246696472168,19.0253276824951,19.0259876251221,19.026647567749,19.0273036956787,19.027961730957,19.028621673584,19.0292778015137,19.0299339294434,19.0305919647217,19.0312519073486,19.0319080352783,19.032564163208,19.033224105835,19.033878326416,19.0345401763916,19.0351943969727,19.0358562469482,19.0365104675293,19.0371704101562,19.0378303527832,19.0384864807129,19.0391464233398,19.0398006439209,19.0404605865479,19.0411224365234,19.0417804718018,19.0424365997314,19.0430946350098,19.0437564849854,19.0444164276123,19.0450706481934,19.0457286834717,19.0463886260986,19.0470447540283,19.0477104187012,19.0483627319336,19.0490264892578,19.0496807098389,19.0503406524658,19.0510025024414,19.0516662597656,19.0523223876953,19.0529842376709,19.0536441802979,19.0543022155762,19.0549602508545,19.0556221008301,19.056282043457,19.0569381713867,19.0575981140137,19.0582599639893,19.0589179992676,19.0595741271973,19.0602378845215,19.0608959197998,19.0615558624268,19.0622158050537,19.062873840332,19.0635356903076,19.0641956329346,19.0648555755615,19.0655212402344,19.0661754608154,19.066837310791,19.067497253418,19.0681552886963,19.0688190460205,19.0694828033447,19.0701351165771,19.0707969665527,19.071460723877,19.0721206665039,19.0727825164795,19.0734405517578,19.0741004943848,19.0747623443604,19.0754203796387,19.0760841369629,19.0767421722412,19.0774059295654,19.0780639648438,19.0787258148193,19.0793933868408,19.0800552368164,19.0807132720947,19.0813770294189,19.0820331573486,19.0826950073242,19.0833606719971,19.084020614624,19.0846767425537,19.0853385925293,19.0860042572021,19.0866641998291,19.0873222351074,19.0879878997803,19.0886459350586,19.0893154144287,19.0899677276611,19.0906391143799,19.0912933349609,19.0919609069824,19.0926132202148,19.093282699585,19.0939445495605,19.0946063995361,19.0952663421631,19.0959281921387,19.0965881347656,19.0972576141357,19.0979156494141,19.0985774993896,19.0992393493652,19.0999069213867,19.100564956665,19.1012325286865,19.1018905639648,19.102560043335,19.1032161712646,19.1038837432861,19.1045417785645,19.1052112579346,19.1058673858643,19.1065349578857,19.1071949005127,19.1078605651855,19.1085166931152,19.1091842651367,19.1098480224609,19.1105136871338,19.1111698150635,19.111837387085,19.1125011444092,19.113166809082,19.1138229370117
18.6464500427246,18.6470775604248,18.6477184295654,18.6483383178711,18.6489791870117,18.6496086120605,18.6502418518066,18.6508712768555,18.6515083312988,18.6521339416504,18.6527633666992,18.6534004211426,18.6540336608887,18.6546649932861,18.6552906036377,18.6559238433838,18.6565589904785,18.6571865081787,18.6578216552734,18.6584529876709,18.659086227417,18.6597213745117,18.6603527069092,18.6609802246094,18.6616172790527,18.6622486114502,18.6628818511963,18.6635189056396,18.6641521453857,18.6647796630859,18.6654109954834,18.6660499572754,18.6666812896729,18.6673126220703,18.6679458618164,18.6685752868652,18.6692085266113,18.6698474884033,18.6704788208008,18.6711120605469,18.6717472076416,18.6723785400391,18.6730117797852,18.6736469268799,18.6742782592773,18.6749134063721,18.6755428314209,18.6761817932129,18.6768093109131,18.6774463653564,18.6780738830566,18.6787090301514,18.6793460845947,18.6799755096436,18.6806106567383,18.6812477111816,18.6818828582764,18.6825122833252,18.6831455230713,18.683780670166,18.6844158172607,18.6850509643555,18.6856861114502,18.6863174438477,18.6869506835938,18.6875877380371,18.6882209777832,18.6888542175293,18.689489364624,18.6901245117188,18.6907577514648,18.6913890838623,18.6920299530029,18.6926651000977,18.6932964324951,18.6939315795898,18.6945667266846,18.6952056884766,18.6958351135254,18.6964721679688,18.6971054077148,18.6977386474609,18.6983757019043,18.699010848999,18.6996402740479,18.7002849578857,18.7009124755859,18.7015495300293,18.7021808624268,18.702823638916,18.7034530639648,18.7040939331055,18.7047233581543,18.7053623199463,18.7059955596924,18.7066307067871,18.7072696685791,18.7079048156738,18.7085418701172,18.7091751098633,18.7098083496094,18.7104473114014,18.7110805511475,18.7117214202881,18.7123546600342,18.7129878997803,18.7136249542236,18.7142581939697,18.7148933410645,18.7155303955078,18.7161693572998,18.7168045043945,18.7174434661865,18.7180767059326,18.718713760376,18.719352722168,18.7199859619141,18.7206230163574,18.7212562561035,18.7218971252441,18.7225284576416,18.7231693267822,18.7237987518311,18.7244491577148,18.725076675415,18.7257137298584,18.7263526916504,18.726993560791,18.7276248931885,18.7282638549805,18.7289009094238,18.7295379638672,18.7301788330078,18.7308139801025,18.7314472198486,18.7320880889893,18.7327251434326,18.7333641052246,18.7339935302734,18.7346382141113,18.7352752685547,18.735912322998,18.7365455627441,18.7371921539307,18.7378234863281,18.7384624481201,18.7390956878662,18.7397384643555,18.7403736114502,18.7410163879395,18.7416477203369,18.7422943115234,18.7429237365723,18.7435684204102,18.7442035675049,18.7448425292969,18.745475769043,18.7461223602295,18.746753692627,18.7473945617676,18.7480316162109,18.7486743927002,18.7493095397949,18.7499485015869,18.7505798339844,18.7512264251709,18.751859664917,18.7525043487549,18.7531414031982,18.7537784576416,18.7544136047363,18.7550601959229,18.7556953430176,18.7563362121582,18.7569694519043,18.7576198577881,18.7582492828369,18.7588958740234,18.7595348358154,18.7601718902588,18.7608089447021,18.7614459991455,18.7620944976807,18.7627220153809,18.7633686065674,18.7640018463135,18.7646427154541,18.7652797698975,18.7659225463867,18.7665634155273,18.7672080993652,18.7678394317627,18.768482208252,18.7691192626953,18.7697601318359,18.7703971862793,18.7710418701172,18.7716751098633,18.7723236083984,18.7729587554932,18.7735996246338,18.7742366790771,18.7748832702637,18.7755184173584,18.7761631011963,18.776798248291,18.7774410247803,18.7780857086182,18.7787265777588,18.7793636322021,18.7800045013428,18.7806453704834,18.7812900543213,18.7819232940674,18.7825679779053,18.7832069396973,18.7838478088379,18.7844867706299,18.7851314544678,18.7857685089111,18.7864093780518,18.787052154541,18.7876930236816,18.7883319854736,18.7889804840088,18.7896118164062,18.7902565002441,18.7908992767334,18.7915382385254,18.7921772003174,18.7928276062012,18.7934665679932,18.7941074371338,18.7947425842285,18.795389175415,18.796028137207,18.7966747283936,18.7973136901855,18.7979583740234,18.7985973358154,18.799243927002,18.7998790740967,18.8005199432373,18.8011608123779,18.8018074035645,18.8024463653564,18.8030872344971,18.8037261962891,18.8043727874756,18.8050155639648,18.8056564331055,18.8062973022461,18.806941986084,18.8075866699219,18.8082294464111,18.8088684082031,18.8095169067383,18.8101539611816,18.8107986450195,18.8114376068115,18.8120822906494,18.81272315979,18.8133659362793,18.8140106201172,18.8146514892578,18.8152942657471,18.8159408569336,18.8165817260742,18.8172264099121,18.81787109375,18.8185119628906,18.8191547393799,18.8198013305664,18.8204383850098,18.8210849761963,18.8217296600342,18.8223743438721,18.8230171203613,18.8236560821533,18.8242988586426,18.8249454498291,18.8255882263184,18.8262348175049,18.8268775939941,18.827522277832,18.8281631469727,18.8288059234619,18.8294506072998,18.8300933837891,18.8307418823242,18.8313865661621,18.8320274353027,18.8326721191406,18.8333148956299,18.8339614868164,18.8346061706543,18.8352508544922,18.8358936309814,18.836540222168,18.8371810913086,18.8378257751465,18.838472366333,18.8391151428223,18.8397617340088,18.8404064178467,18.8410530090332,18.8416957855225,18.8423385620117,18.8429851531982,18.8436279296875,18.844274520874,18.844913482666,18.8455677032471,18.8462028503418,18.8468532562256,18.8474979400635,18.8481426239014,18.8487854003906,18.8494358062744,18.850076675415,18.8507270812988,18.8513717651367,18.8520164489746,18.8526630401611,18.853307723999,18.8539543151855,18.8545989990234,18.85524559021,18.8558883666992,18.8565368652344,18.8571815490723,18.8578262329102,18.8584766387939,18.8591251373291,18.8597660064697,18.8604164123535,18.8610591888428,18.861701965332,18.8623504638672,18.8629989624023,18.863639831543,18.8642864227295,18.8649368286133,18.8655815124512,18.8662281036377,18.8668766021729,18.867525100708,18.8681697845459,18.8688106536865,18.8694629669189,18.8701019287109,18.8707542419434,18.8714027404785,18.8720474243164,18.8726959228516,18.8733406066895,18.873987197876,18.8746356964111,18.8752861022949,18.8759269714355,18.8765754699707,18.8772277832031,18.877872467041,18.8785152435303,18.8791637420654,18.8798122406006,18.8804569244385,18.8811073303223,18.8817539215088,18.8824062347412,18.8830471038818,18.8836994171143,18.8843441009521,18.8849925994873,18.8856353759766,18.886287689209,18.8869285583496,18.8875827789307,18.8882312774658,18.8888816833496,18.8895244598389,18.890172958374,18.8908214569092,18.8914737701416,18.8921165466309,18.8927669525146,18.8934135437012,18.8940658569336,18.8947124481201,18.8953609466553,18.8960075378418,18.8966579437256,18.8973064422607,18.8979568481445,18.8986015319824,18.8992538452148,18.8999004364014,18.9005489349365,18.9011936187744,18.9018497467041,18.9024963378906,18.9031467437744,18.9037895202637,18.9044456481934,18.9050903320312,18.905740737915,18.9063873291016,18.907039642334,18.9076862335205,18.9083404541016,18.9089851379395,18.9096412658691,18.910285949707,18.9109401702881,18.911584854126,18.9122371673584,18.9128818511963,18.9135360717773,18.9141807556152,18.9148349761963,18.9154777526855
18.4576454162598,18.4582557678223,18.4588718414307,18.4594917297363,18.4601173400879,18.4607276916504,18.4613475799561,18.4619693756104,18.4625930786133,18.463207244873,18.4638233184814,18.4644470214844,18.4650726318359,18.4656829833984,18.4663028717041,18.4669227600098,18.46755027771,18.4681587219238,18.4687843322754,18.4693965911865,18.4700260162354,18.4706382751465,18.4712600708008,18.4718799591064,18.4725017547607,18.4731197357178,18.4737415313721,18.4743633270264,18.4749813079834,18.4756031036377,18.4762191772461,18.476842880249,18.4774589538574,18.4780826568604,18.4786968231201,18.4793243408203,18.4799404144287,18.4805603027344,18.4811820983887,18.4818019866943,18.482421875,18.4830436706543,18.48366355896,18.4842834472656,18.4849071502686,18.4855194091797,18.486141204834,18.4867649078369,18.4873847961426,18.4880065917969,18.4886283874512,18.4892501831055,18.4898700714111,18.4904899597168,18.4911117553711,18.4917335510254,18.4923515319824,18.4929733276367,18.4935970306396,18.4942226409912,18.494836807251,18.4954605102539,18.4960803985596,18.4967021942139,18.4973258972168,18.4979476928711,18.4985637664795,18.4991874694824,18.4998073577881,18.500431060791,18.5010509490967,18.5016708374023,18.5022945404053,18.5029144287109,18.5035419464111,18.5041599273682,18.5047855377197,18.5054016113281,18.5060253143311,18.5066471099854,18.5072689056396,18.5078945159912,18.5085144042969,18.5091381072998,18.5097618103027,18.5103797912598,18.5110015869141,18.5116291046143,18.5122489929199,18.5128746032715,18.5134944915771,18.5141162872314,18.5147361755371,18.5153617858887,18.515983581543,18.5166091918945,18.5172309875488,18.5178546905518,18.5184745788574,18.5190963745117,18.5197200775146,18.5203456878662,18.5209617614746,18.5215873718262,18.5222129821777,18.5228366851807,18.5234546661377,18.5240821838379,18.5246982574463,18.5253238677979,18.5259475708008,18.526575088501,18.5271911621094,18.5278244018555,18.5284423828125,18.5290679931641,18.529691696167,18.5303153991699,18.5309371948242,18.5315608978271,18.5321846008301,18.5328121185303,18.5334300994873,18.5340557098389,18.5346775054932,18.5353088378906,18.5359230041504,18.5365562438965,18.5371761322021,18.5378017425537,18.5384254455566,18.5390510559082,18.5396728515625,18.5403003692627,18.5409202575684,18.5415477752686,18.5421714782715,18.5427989959717,18.543420791626,18.5440444946289,18.5446662902832,18.5452938079834,18.5459136962891,18.5465412139893,18.5471649169922,18.5477905273438,18.5484180450439,18.5490474700928,18.5496692657471,18.5502948760986,18.5509147644043,18.5515403747559,18.5521640777588,18.5527954101562,18.5534172058105,18.5540447235107,18.5546703338623,18.5552997589111,18.5559177398682,18.5565414428711,18.557165145874,18.5577945709229,18.558422088623,18.559045791626,18.5596714019775,18.5602970123291,18.560920715332,18.5615463256836,18.5621738433838,18.5627975463867,18.5634231567383,18.5640468597412,18.5646743774414,18.5653018951416,18.5659313201904,18.5665512084961,18.5671844482422,18.5678081512451,18.5684337615967,18.5690593719482,18.5696907043457,18.5703105926514,18.5709457397461,18.5715675354004,18.5721893310547,18.572811126709,18.5734424591064,18.5740699768066,18.5746994018555,18.5753192901611,18.5759525299072,18.5765705108643,18.5772018432617,18.5778312683105,18.578462600708,18.5790824890137,18.5797157287598,18.5803356170654,18.5809631347656,18.5815925598145,18.5822238922119,18.5828456878662,18.583475112915,18.5841026306152,18.5847301483154,18.585355758667,18.5859870910645,18.5866107940674,18.5872421264648,18.5878620147705,18.5884971618652,18.5891170501709,18.589750289917,18.5903759002686,18.591007232666,18.5916309356689,18.5922603607178,18.592887878418,18.5935153961182,18.5941429138184,18.5947742462158,18.5953979492188,18.5960235595703,18.5966510772705,18.597282409668,18.5979080200195,18.5985431671143,18.5991687774658,18.5997943878174,18.6004180908203,18.6010494232178,18.601676940918,18.6023082733154,18.6029319763184,18.6035652160645,18.6041889190674,18.6048221588135,18.6054439544678,18.6060752868652,18.6067085266113,18.6073398590088,18.6079635620117,18.6085929870605,18.6092224121094,18.6098480224609,18.6104831695557,18.6111125946045,18.6117362976074,18.6123676300049,18.6129970550537,18.6136245727539,18.6142539978027,18.6148815155029,18.615514755249,18.6161441802979,18.616771697998,18.6174011230469,18.6180305480957,18.6186637878418,18.6192932128906,18.6199226379395,18.6205501556396,18.6211814880371,18.6218128204346,18.6224403381348,18.6230697631836,18.6237030029297,18.624324798584,18.624963760376,18.6255893707275,18.6262226104736,18.6268520355225,18.627477645874,18.6281051635742,18.6287384033203,18.6293659210205,18.6300010681152,18.6306304931641,18.6312599182129,18.6318912506104,18.6325206756592,18.6331520080566,18.6337814331055,18.6344089508057,18.6350440979004,18.6356754302979,18.6363067626953,18.6369342803955,18.6375637054443,18.6382007598877,18.6388301849365,18.6394577026367,18.6400890350342,18.6407241821289,18.6413516998291,18.6419830322266,18.6426181793213,18.6432418823242,18.6438827514648,18.6445026397705,18.6451435089111,18.6457653045654,18.6464061737061,18.647029876709,18.6476669311523,18.6482982635498,18.6489315032959,18.6495590209961,18.6501903533936,18.6508197784424,18.6514587402344,18.6520881652832,18.652717590332,18.6533470153809,18.6539840698242,18.6546173095703,18.6552505493164,18.6558799743652,18.6565093994141,18.6571426391602,18.6577739715576,18.6584091186523,18.6590404510498,18.6596755981445,18.6603050231934,18.6609382629395,18.6615676879883,18.6622009277344,18.6628379821777,18.6634712219238,18.6641006469727,18.6647338867188,18.6653652191162,18.6659984588623,18.666633605957,18.6672668457031,18.6678943634033,18.6685333251953,18.6691627502441,18.6697959899902,18.6704292297363,18.6710624694824,18.6716976165771,18.6723308563232,18.6729640960693,18.6735973358154,18.6742324829102,18.674861907959,18.6754989624023,18.6761283874512,18.6767616271973,18.6774005889893,18.6780261993408,18.6786632537842,18.6792984008789,18.6799297332764,18.6805629730225,18.6812000274658,18.6818294525146,18.6824626922607,18.6830940246582,18.6837329864502,18.6843643188477,18.6849994659424,18.6856307983398,18.6862697601318,18.6869010925293,18.6875381469727,18.6881694793701,18.6888084411621,18.6894397735596,18.6900749206543,18.6907062530518,18.6913452148438,18.6919784545898,18.6926174163818,18.693244934082,18.6938819885254,18.6945171356201,18.6951541900635,18.6957817077637,18.6964206695557,18.6970539093018,18.6976909637451,18.6983261108398,18.6989631652832,18.6995906829834,18.7002353668213,18.7008647918701,18.7015037536621,18.7021312713623,18.7027740478516,18.7034015655518,18.704044342041,18.7046718597412,18.7053127288818,18.7059459686279,18.7065830230713,18.7072143554688,18.707857131958,18.7084903717041,18.7091236114502,18.7097568511963,18.7103977203369,18.711030960083,18.7116718292236,18.7123050689697,18.7129402160645,18.7135734558105,18.7142124176025,18.71484375,18.7154846191406,18.7161159515381,18.7167568206787,18.7173957824707,18.7180290222168,18.7186641693115,18.7193069458008,18.7199363708496,18.7205772399902,18.7212085723877
18.2726135253906,18.2732162475586,18.273832321167,18.2744274139404,18.2750415802002,18.2756462097168,18.2762584686279,18.27685546875,18.2774677276611,18.2780685424805,18.2786827087402,18.2792835235596,18.2798900604248,18.2804985046387,18.2811050415039,18.2817077636719,18.2823238372803,18.2829284667969,18.2835369110107,18.2841358184814,18.2847480773926,18.2853565216064,18.2859668731689,18.2865676879883,18.287181854248,18.2877864837646,18.2883949279785,18.2889976501465,18.2896137237549,18.2902164459229,18.2908248901367,18.2914352416992,18.2920379638672,18.2926540374756,18.2932529449463,18.2938613891602,18.2944717407227,18.2950763702393,18.2956848144531,18.2962970733643,18.2969017028809,18.2975101470947,18.2981224060059,18.2987289428711,18.2993316650391,18.2999420166016,18.3005504608154,18.3011589050293,18.3017692565918,18.3023777008057,18.3029861450195,18.3035926818848,18.3042011260986,18.3048095703125,18.3054161071777,18.3060245513916,18.3066329956055,18.3072414398193,18.3078479766846,18.3084659576416,18.3090667724609,18.3096809387207,18.3102855682373,18.3108940124512,18.311502456665,18.3121147155762,18.3127212524414,18.3133373260498,18.3139419555664,18.3145484924316,18.3151588439941,18.3157711029053,18.3163795471191,18.3169898986816,18.3175964355469,18.3182048797607,18.3188133239746,18.3194274902344,18.3200359344482,18.3206424713135,18.321252822876,18.3218631744385,18.322473526001,18.3230876922607,18.3236904144287,18.3243026733398,18.3249111175537,18.3255214691162,18.3261318206787,18.3267402648926,18.3273448944092,18.3279628753662,18.3285655975342,18.3291816711426,18.3297882080078,18.3304023742676,18.3310089111328,18.3316211700439,18.3322315216064,18.3328418731689,18.3334560394287,18.3340644836426,18.3346710205078,18.3352832794189,18.3358936309814,18.3365116119385,18.3371143341064,18.3377304077148,18.3383369445801,18.3389511108398,18.3395557403564,18.3401737213135,18.3407821655273,18.3413944244385,18.3420009613037,18.3426151275635,18.3432216644287,18.3438415527344,18.344446182251,18.3450622558594,18.3456707000732,18.3462791442871,18.3468933105469,18.3475074768066,18.3481178283691,18.3487300872803,18.3493385314941,18.3499546051025,18.3505554199219,18.3511772155762,18.3517818450928,18.3523960113525,18.353006362915,18.3536224365234,18.3542289733887,18.3548450469971,18.3554515838623,18.356071472168,18.3566761016846,18.3572959899902,18.3579025268555,18.358512878418,18.3591251373291,18.3597412109375,18.3603515625,18.3609657287598,18.3615741729736,18.362190246582,18.3627986907959,18.3634128570557,18.3640270233154,18.3646411895752,18.3652458190918,18.3658695220947,18.36647605896,18.3670864105225,18.3677005767822,18.3683166503906,18.3689270019531,18.3695392608643,18.3701457977295,18.3707656860352,18.3713779449463,18.3719940185547,18.3726062774658,18.3732204437256,18.3738346099854,18.3744411468506,18.3750610351562,18.3756656646729,18.3762855529785,18.3768920898438,18.3775100708008,18.3781280517578,18.3787364959717,18.3793487548828,18.3799667358398,18.3805770874023,18.3811950683594,18.3818016052246,18.382417678833,18.3830299377441,18.3836498260498,18.3842544555664,18.384880065918,18.3854866027832,18.3861026763916,18.3867168426514,18.3873310089111,18.3879432678223,18.3885612487793,18.3891716003418,18.3897876739502,18.39040184021,18.3910179138184,18.3916301727295,18.3922443389893,18.3928546905518,18.3934726715088,18.3940811157227,18.394702911377,18.3953094482422,18.3959331512451,18.3965435028076,18.3971576690674,18.3977699279785,18.3983879089355,18.3990020751953,18.3996238708496,18.4002323150635,18.4008502960205,18.401460647583,18.40207862854,18.4026870727539,18.4033107757568,18.4039173126221,18.4045391082764,18.4051494598389,18.4057693481445,18.4063777923584,18.4069957733154,18.4076175689697,18.4082317352295,18.4088439941406,18.4094581604004,18.4100723266602,18.4106864929199,18.4113063812256,18.4119243621826,18.4125366210938,18.4131507873535,18.4137687683105,18.4143829345703,18.415002822876,18.4156150817871,18.4162292480469,18.4168510437012,18.4174613952637,18.418083190918,18.4186935424805,18.4193134307861,18.4199256896973,18.4205436706543,18.42116355896,18.4217796325684,18.4223957061768,18.4230098724365,18.4236240386963,18.4242420196533,18.424861907959,18.4254722595215,18.4260902404785,18.4267101287842,18.4273262023926,18.4279403686523,18.4285545349121,18.429178237915,18.4297924041748,18.4304122924805,18.4310245513916,18.4316444396973,18.432258605957,18.4328765869141,18.4334964752197,18.4341125488281,18.4347248077393,18.4353485107422,18.435962677002,18.4365825653076,18.4372024536133,18.4378223419189,18.4384346008301,18.4390506744385,18.4396667480469,18.4402866363525,18.4409027099609,18.441520690918,18.4421405792236,18.4427585601807,18.4433727264404,18.4439964294434,18.4446086883545,18.4452247619629,18.4458446502686,18.4464645385742,18.4470767974854,18.4476985931396,18.4483127593994,18.4489402770996,18.4495487213135,18.450174331665,18.4507846832275,18.4514102935791,18.452018737793,18.4526424407959,18.4532604217529,18.4538803100586,18.4544944763184,18.4551181793213,18.4557323455811,18.4563579559326,18.456974029541,18.4575901031494,18.4582061767578,18.4588279724121,18.4594440460205,18.4600658416748,18.4606819152832,18.4613037109375,18.4619197845459,18.4625415802002,18.4631633758545,18.4637813568115,18.4643993377686,18.465015411377,18.4656372070312,18.4662590026855,18.4668788909912,18.4674968719482,18.4681148529053,18.4687385559082,18.4693584442139,18.4699745178223,18.4705924987793,18.4712142944336,18.4718322753906,18.4724540710449,18.473072052002,18.4736938476562,18.4743156433105,18.4749355316162,18.4755535125732,18.4761753082275,18.4767951965332,18.4774150848389,18.4780330657959,18.4786548614502,18.4792728424072,18.4798927307129,18.4805164337158,18.4811382293701,18.4817562103271,18.4823741912842,18.4829978942871,18.4836177825928,18.4842357635498,18.4848518371582,18.4854793548584,18.4860954284668,18.486722946167,18.4873390197754,18.4879608154297,18.4885807037354,18.4892044067383,18.4898223876953,18.4904479980469,18.4910621643066,18.4916877746582,18.4923038482666,18.4929294586182,18.4935455322266,18.4941711425781,18.4947910308838,18.495418548584,18.4960308074951,18.496654510498,18.4972705841064,18.4979000091553,18.4985160827637,18.4991397857666,18.4997596740723,18.5003833770752,18.5010051727295,18.5016288757324,18.5022430419922,18.5028743743896,18.5034885406494,18.504114151001,18.5047302246094,18.5053577423096,18.5059795379639,18.5066013336182,18.5072231292725,18.5078449249268,18.5084667205811,18.5090942382812,18.5097064971924,18.5103359222412,18.5109558105469,18.5115833282471,18.5121955871582,18.512825012207,18.5134429931641,18.5140705108643,18.5146903991699,18.5153179168701,18.5159358978271,18.5165576934814,18.517183303833,18.5178031921387,18.5184268951416,18.5190505981445,18.5196723937988,18.5202980041504,18.5209178924561,18.5215435028076,18.5221614837646,18.5227890014648,18.5234069824219,18.5240306854248,18.5246562957764,18.5252799987793,18.525899887085,18.5265274047852,18.5271472930908,18.5277729034424,18.5283966064453,18.5290184020996,18.5296382904053,18.5302658081055,18.5308856964111
18.0912609100342,18.0918521881104,18.0924453735352,18.0930461883545,18.0936431884766,18.0942287445068,18.0948238372803,18.0954208374023,18.096019744873,18.0966033935547,18.0972080230713,18.0977993011475,18.0984001159668,18.0989875793457,18.0995845794678,18.1001815795898,18.100772857666,18.1013717651367,18.1019668579102,18.1025638580322,18.1031532287598,18.1037502288818,18.1043472290039,18.1049423217773,18.1055316925049,18.1061344146729,18.1067295074463,18.1073246002197,18.1079177856445,18.108512878418,18.10910987854,18.1097068786621,18.1102962493896,18.1108989715576,18.1114959716797,18.1120910644531,18.1126766204834,18.11328125,18.1138763427734,18.1144790649414,18.1150665283203,18.1156673431396,18.1162586212158,18.1168651580811,18.1174488067627,18.1180515289307,18.1186447143555,18.1192455291748,18.1198329925537,18.1204319000244,18.1210269927979,18.1216259002686,18.1222190856934,18.1228218078613,18.1234130859375,18.1240139007568,18.1246109008789,18.125207901001,18.1258010864258,18.1263999938965,18.1269969940186,18.127592086792,18.1281890869141,18.1287879943848,18.1293811798096,18.1299781799316,18.1305770874023,18.1311721801758,18.1317749023438,18.1323699951172,18.1329650878906,18.1335620880127,18.1341609954834,18.1347560882568,18.1353530883789,18.1359539031982,18.1365432739258,18.1371459960938,18.1377410888672,18.1383361816406,18.1389350891113,18.139533996582,18.1401309967041,18.1407337188721,18.1413288116455,18.1419239044189,18.1425170898438,18.1431179046631,18.1437149047852,18.1443195343018,18.1449089050293,18.1455116271973,18.1461086273193,18.1467113494873,18.1473026275635,18.1479072570801,18.1484966278076,18.1490993499756,18.1496982574463,18.1503009796143,18.1508922576904,18.151496887207,18.1520862579346,18.1526966094971,18.153284072876,18.1538867950439,18.1544857025146,18.1550903320312,18.1556816101074,18.1562786102295,18.1568794250488,18.1574802398682,18.1580791473389,18.1586799621582,18.1592769622803,18.159875869751,18.1604709625244,18.1610736846924,18.1616725921631,18.1622734069824,18.1628704071045,18.1634693145752,18.1640644073486,18.1646690368652,18.1652679443359,18.1658687591553,18.1664619445801,18.1670684814453,18.1676559448242,18.1682662963867,18.1688613891602,18.1694641113281,18.1700611114502,18.1706619262695,18.1712589263916,18.1718616485596,18.172456741333,18.173059463501,18.1736583709717,18.1742649078369,18.1748561859131,18.1754608154297,18.1760559082031,18.1766586303711,18.1772575378418,18.1778583526611,18.1784629821777,18.1790618896484,18.1796569824219,18.1802616119385,18.1808547973633,18.1814575195312,18.1820621490479,18.1826610565186,18.183256149292,18.1838607788086,18.1844596862793,18.18505859375,18.1856632232666,18.1862640380859,18.1868667602539,18.187463760376,18.1880664825439,18.1886672973633,18.1892681121826,18.189868927002,18.1904716491699,18.1910705566406,18.19167137146,18.1922702789307,18.1928806304932,18.1934776306152,18.1940803527832,18.1946754455566,18.1952781677246,18.1958751678467,18.1964855194092,18.1970844268799,18.1976890563965,18.1982898712158,18.1988906860352,18.1994876861572,18.2000961303711,18.2006931304932,18.2012977600098,18.2018928527832,18.2025032043457,18.2031002044678,18.2037029266357,18.2042999267578,18.2049121856689,18.2055072784424,18.206111907959,18.2067089080811,18.207311630249,18.2079105377197,18.2085151672363,18.2091178894043,18.2097244262695,18.2103233337402,18.2109260559082,18.2115306854248,18.2121315002441,18.2127285003662,18.2133388519287,18.2139358520508,18.2145366668701,18.2151432037354,18.2157440185547,18.2163467407227,18.216947555542,18.2175540924072,18.2181529998779,18.2187576293945,18.2193603515625,18.2199630737305,18.2205638885498,18.2211666107178,18.2217769622803,18.2223720550537,18.2229804992676,18.2235851287842,18.2241840362549,18.2247867584229,18.2253932952881,18.2259941101074,18.2265968322754,18.2271957397461,18.22780418396,18.2284069061279,18.2290134429932,18.2296142578125,18.2302188873291,18.2308254241943,18.2314281463623,18.2320289611816,18.2326374053955,18.2332382202148,18.2338428497314,18.2344436645508,18.2350482940674,18.2356510162354,18.2362594604492,18.2368621826172,18.2374687194824,18.2380695343018,18.2386722564697,18.2392768859863,18.2398777008057,18.2404880523682,18.2410888671875,18.2416954040527,18.2423000335693,18.2429008483887,18.2435092926025,18.2441120147705,18.2447128295898,18.2453212738037,18.2459278106689,18.2465343475342,18.2471370697021,18.2477397918701,18.2483425140381,18.2489490509033,18.2495555877686,18.2501583099365,18.250768661499,18.2513732910156,18.251974105835,18.2525787353516,18.2531852722168,18.2537899017334,18.25439453125,18.2549953460693,18.2556056976318,18.2562084197998,18.2568130493164,18.2574138641357,18.2580261230469,18.2586269378662,18.2592372894287,18.259838104248,18.2604503631592,18.2610492706299,18.261661529541,18.2622604370117,18.2628707885742,18.2634716033936,18.2640800476074,18.2646884918213,18.2652969360352,18.2658977508545,18.266508102417,18.2671089172363,18.2677173614502,18.2683238983154,18.2689323425293,18.2695331573486,18.2701416015625,18.2707462310791,18.271354675293,18.2719612121582,18.2725677490234,18.27317237854,18.2737827301025,18.2743797302246,18.274995803833,18.2756004333496,18.2762107849121,18.2768154144287,18.2774219512939,18.2780265808105,18.2786350250244,18.2792434692383,18.2798442840576,18.2804546356201,18.2810611724854,18.2816677093506,18.2822742462158,18.282886505127,18.2834930419922,18.2840957641602,18.284704208374,18.2853126525879,18.2859191894531,18.286527633667,18.2871322631836,18.2877407073975,18.2883491516113,18.2889595031738,18.2895660400391,18.2901725769043,18.2907810211182,18.291389465332,18.2919902801514,18.2926025390625,18.2932052612305,18.2938175201416,18.2944221496582,18.2950305938721,18.2956390380859,18.2962493896484,18.2968521118164,18.2974624633789,18.2980690002441,18.2986793518066,18.2992820739746,18.299898147583,18.3005027770996,18.3011112213135,18.3017196655273,18.3023300170898,18.3029346466064,18.3035449981689,18.3041534423828,18.3047618865967,18.3053684234619,18.3059787750244,18.3065872192383,18.3071956634521,18.3078022003174,18.3084182739258,18.309024810791,18.3096332550049,18.3102397918701,18.3108520507812,18.3114528656006,18.3120670318604,18.3126754760742,18.3132877349854,18.3138942718506,18.3145046234131,18.3151073455811,18.3157234191895,18.3163280487061,18.3169422149658,18.3175487518311,18.3181610107422,18.3187656402588,18.3193778991699,18.3199844360352,18.3205966949463,18.3212032318115,18.3218154907227,18.3224258422852,18.3230400085449,18.3236427307129,18.3242588043213,18.3248634338379,18.3254737854004,18.3260822296143,18.326696395874,18.3273048400879,18.327917098999,18.3285217285156,18.3291339874268,18.3297443389893,18.3303565979004,18.3309650421143,18.3315734863281,18.3321857452393,18.3327960968018,18.3334064483643,18.3340167999268,18.3346271514893,18.3352375030518,18.3358478546143,18.336462020874,18.3370666503906,18.3376808166504,18.3382911682129,18.3388996124268,18.3395118713379,18.3401260375977,18.3407344818115,18.341344833374,18.3419551849365,18.342565536499,18.3431777954102,18.3437900543213,18.3443984985352
17.9134731292725,17.9140567779541,17.9146385192871,17.9152164459229,17.915807723999,17.9163837432861,17.9169654846191,17.9175453186035,17.9181327819824,17.91872215271,17.9193019866943,17.9198780059814,17.9204654693604,17.9210510253906,17.9216327667236,17.9222106933594,17.9228019714355,17.9233837127686,17.9239616394043,17.9245529174805,17.9251346588135,17.925724029541,17.9262981414795,17.9268856048584,17.92746925354,17.9280548095703,17.9286308288574,17.9292259216309,17.9298000335693,17.9303932189941,17.9309730529785,17.9315586090088,17.9321403503418,17.9327239990234,17.9333038330078,17.9338912963867,17.934476852417,17.9350624084473,17.9356384277344,17.9362277984619,17.9368133544922,17.9374027252197,17.9379806518555,17.9385662078857,17.9391479492188,17.9397373199463,17.9403133392334,17.9409065246582,17.9414863586426,17.9420776367188,17.9426555633545,17.943244934082,17.9438247680664,17.9444141387939,17.9449977874756,17.9455852508545,17.9461669921875,17.9467582702637,17.9473323822021,17.9479217529297,17.9485111236572,17.9490985870361,17.9496765136719,17.9502601623535,17.9508457183838,17.9514350891113,17.9520149230957,17.9526081085205,17.9531898498535,17.9537696838379,17.9543571472168,17.9549446105957,17.955530166626,17.9561176300049,17.9567012786865,17.9572868347168,17.9578742980957,17.9584560394287,17.959041595459,17.9596290588379,17.9602127075195,17.9608039855957,17.9613857269287,17.9619750976562,17.9625549316406,17.9631404876709,17.9637260437012,17.9643173217773,17.9648990631104,17.9654941558838,17.9660739898682,17.9666614532471,17.9672451019287,17.9678363800049,17.9684181213379,17.9690093994141,17.9695892333984,17.9701824188232,17.9707660675049,17.9713535308838,17.9719352722168,17.9725303649902,17.9731101989746,17.9736995697021,17.9742832183838,17.97487449646,17.9754524230957,17.9760417938232,17.976634979248,17.977222442627,17.9778022766113,17.9783935546875,17.978982925415,17.9795665740967,17.9801483154297,17.9807415008545,17.9813270568848,17.9819145202637,17.9825019836426,17.9830932617188,17.9836807250977,17.9842700958252,17.9848480224609,17.9854412078857,17.9860248565674,17.9866161346436,17.9872035980225,17.9877910614014,17.9883785247803,17.9889640808105,17.9895534515381,17.9901390075684,17.9907264709473,17.9913158416748,17.991907119751,17.9924907684326,17.9930782318115,17.9936695098877,17.9942569732666,17.9948425292969,17.9954280853271,17.996021270752,17.9966049194336,17.9971961975098,17.9977836608887,17.9983749389648,17.9989604949951,17.9995441436768,18.0001392364502,18.0007247924805,18.001314163208,18.0019054412842,18.0024909973145,18.0030784606934,18.0036697387695,18.0042552947998,18.0048427581787,18.0054340362549,18.0060272216797,18.0066165924072,18.0072021484375,18.0077877044678,18.0083808898926,18.0089683532715,18.0095596313477,18.0101432800293,18.0107402801514,18.0113220214844,18.0119171142578,18.0125026702881,18.0130958557129,18.0136852264404,18.014274597168,18.0148639678955,18.015453338623,18.0160388946533,18.0166320800781,18.0172157287598,18.0178070068359,18.0183963775635,18.0189914703369,18.0195770263672,18.020170211792,18.0207557678223,18.0213470458984,18.0219345092773,18.0225296020508,18.0231170654297,18.0237045288086,18.0242958068848,18.0248870849609,18.0254764556885,18.0260715484619,18.0266532897949,18.0272483825684,18.0278396606445,18.0284252166748,18.0290184020996,18.0296039581299,18.0301990509033,18.0307846069336,18.0313777923584,18.0319709777832,18.0325584411621,18.0331516265869,18.0337390899658,18.0343284606934,18.0349178314209,18.0355052947998,18.0361022949219,18.036693572998,18.0372791290283,18.0378704071045,18.0384674072266,18.0390548706055,18.0396518707275,18.0402374267578,18.0408248901367,18.0414218902588,18.042013168335,18.0426025390625,18.04319190979,18.0437850952148,18.0443782806396,18.0449638366699,18.045560836792,18.0461559295654,18.0467395782471,18.0473327636719,18.0479278564453,18.0485191345215,18.0491104125977,18.0497016906738,18.0502910614014,18.0508861541748,18.0514793395996,18.0520648956299,18.0526561737061,18.0532512664795,18.0538444519043,18.0544376373291,18.0550270080566,18.0556240081787,18.0562133789062,18.0568027496338,18.0574016571045,18.0579872131348,18.0585842132568,18.0591697692871,18.0597686767578,18.0603542327881,18.0609512329102,18.0615463256836,18.0621356964111,18.0627307891846,18.0633182525635,18.0639133453369,18.0645065307617,18.0651016235352,18.0656871795654,18.0662860870361,18.0668754577637,18.0674705505371,18.0680561065674,18.0686588287354,18.0692443847656,18.0698375701904,18.0704326629639,18.07102394104,18.0716190338135,18.0722141265869,18.0728054046631,18.0734004974365,18.0739917755127,18.0745868682861,18.0751762390137,18.0757713317871,18.0763626098633,18.076961517334,18.0775489807129,18.0781478881836,18.0787391662598,18.0793323516846,18.0799236297607,18.0805225372314,18.0811138153076,18.0817089080811,18.0822982788086,18.0828971862793,18.0834865570068,18.0840854644775,18.0846767425537,18.0852756500244,18.085865020752,18.0864582061768,18.0870532989502,18.0876483917236,18.0882434844971,18.0888404846191,18.0894298553467,18.0900325775146,18.0906181335449,18.091215133667,18.0918121337891,18.0924034118652,18.0929985046387,18.0935955047607,18.0941905975342,18.0947818756104,18.0953788757324,18.0959758758545,18.0965709686279,18.0971622467041,18.0977554321289,18.0983505249023,18.0989456176758,18.0995426177979,18.1001377105713,18.1007328033447,18.1013278961182,18.1019229888916,18.102518081665,18.1031131744385,18.1037063598633,18.1043014526367,18.1048965454102,18.1054916381836,18.106086730957,18.1066780090332,18.1072826385498,18.107873916626,18.108470916748,18.1090621948242,18.1096630096436,18.1102561950684,18.1108531951904,18.1114444732666,18.1120452880859,18.1126384735107,18.1132392883301,18.1138286590576,18.1144237518311,18.1150226593018,18.1156177520752,18.1162109375,18.1168098449707,18.1174011230469,18.1180019378662,18.1186008453369,18.1191940307617,18.1197910308838,18.1203918457031,18.1209812164307,18.1215801239014,18.1221694946289,18.1227703094482,18.1233673095703,18.123966217041,18.1245594024658,18.1251640319824,18.1257553100586,18.1263542175293,18.1269493103027,18.1275482177734,18.1281394958496,18.1287441253662,18.1293334960938,18.1299381256104,18.1305255889893,18.1311321258545,18.131721496582,18.1323261260986,18.1329154968262,18.1335201263428,18.1341075897217,18.1347141265869,18.1353073120117,18.1359043121338,18.1365013122559,18.1371040344238,18.1376934051514,18.1382961273193,18.1388912200928,18.1394939422607,18.1400871276855,18.1406860351562,18.1412811279297,18.1418800354004,18.1424751281738,18.1430778503418,18.1436729431152,18.1442718505859,18.144868850708,18.1454677581787,18.1460647583008,18.1466655731201,18.1472606658936,18.1478576660156,18.1484546661377,18.149055480957,18.1496505737305,18.1502494812012,18.1508502960205,18.1514511108398,18.1520442962646,18.152645111084,18.1532363891602,18.1538429260254,18.1544380187988,18.1550369262695,18.1556377410889,18.1562366485596,18.156831741333,18.157434463501,18.1580295562744,18.158634185791,18.1592292785645,18.1598320007324,18.1604270935059,18.1610279083252,18.1616230010986
17.7391414642334,17.739709854126,17.7402858734131,17.7408580780029,17.7414264678955,17.7419967651367,17.7425746917725,17.7431468963623,17.7437171936035,17.7442836761475,17.7448577880859,17.7454319000244,17.746000289917,17.7465724945068,17.7471485137939,17.7477245330811,17.7482872009277,17.7488689422607,17.7494354248047,17.7500152587891,17.7505779266357,17.7511558532715,17.7517223358154,17.7523040771484,17.7528705596924,17.7534446716309,17.7540187835693,17.7545890808105,17.7551574707031,17.7557277679443,17.7563037872314,17.7568836212158,17.7574481964111,17.758020401001,17.7585926055908,17.7591724395752,17.7597389221191,17.7603187561035,17.7608890533447,17.7614593505859,17.7620258331299,17.7626075744629,17.7631778717041,17.7637577056885,17.7643222808838,17.7649002075195,17.7654724121094,17.7660465240479,17.7666130065918,17.7671928405762,17.7677612304688,17.7683391571045,17.7689056396484,17.7694797515869,17.7700576782227,17.7706317901611,17.7712001800537,17.7717781066895,17.7723484039307,17.7729263305664,17.7734966278076,17.7740745544434,17.7746505737305,17.7752208709717,17.7757892608643,17.7763633728027,17.7769412994385,17.7775135040283,17.7780895233154,17.7786655426025,17.779239654541,17.7798080444336,17.7803840637207,17.7809581756592,17.7815380096436,17.7821044921875,17.7826824188232,17.7832584381104,17.7838287353516,17.7844066619873,17.7849769592285,17.7855529785156,17.7861328125,17.7867012023926,17.7872714996338,17.7878551483154,17.7884311676025,17.7890014648438,17.7895698547363,17.7901515960693,17.7907218933105,17.7913055419922,17.7918739318848,17.7924518585205,17.793025970459,17.7936000823975,17.7941780090332,17.7947483062744,17.7953243255615,17.7959003448486,17.7964744567871,17.7970542907715,17.7976264953613,17.7982044219971,17.7987728118896,17.7993507385254,17.7999229431152,17.8005046844482,17.8010768890381,17.8016548156738,17.8022270202637,17.8028049468994,17.8033790588379,17.8039588928223,17.8045291900635,17.805103302002,17.8056793212891,17.8062591552734,17.8068332672119,17.807409286499,17.8079853057861,17.8085594177246,17.809139251709,17.8097114562988,17.8102893829346,17.810863494873,17.8114414215088,17.8120155334473,17.8125953674316,17.8131732940674,17.8137512207031,17.8143253326416,17.8149032592773,17.8154754638672,17.8160514831543,17.8166332244873,17.8172054290771,17.8177814483643,17.8183574676514,17.8189373016357,17.8195114135742,17.82008934021,17.8206691741943,17.8212432861328,17.8218193054199,17.8223934173584,17.8229732513428,17.8235511779785,17.824125289917,17.8247051239014,17.8252811431885,17.8258571624756,17.8264312744141,17.8270130157471,17.8275871276855,17.8281631469727,17.8287448883057,17.82932472229,17.8299045562744,17.8304767608643,17.8310565948486,17.8316307067871,17.8322143554688,17.8327865600586,17.8333683013916,17.8339462280273,17.8345241546631,17.8350944519043,17.8356781005859,17.8362503051758,17.8368301391602,17.8374080657959,17.8379878997803,17.8385639190674,17.8391418457031,17.8397197723389,17.8402996063232,17.8408737182617,17.8414535522461,17.8420276641846,17.8426170349121,17.8431854248047,17.8437671661377,17.8443431854248,17.8449230194092,17.8454971313477,17.8460826873779,17.8466606140137,17.8472366333008,17.8478126525879,17.8483943939209,17.8489685058594,17.8495540618896,17.8501319885254,17.8507080078125,17.8512859344482,17.8518657684326,17.8524398803711,17.8530254364014,17.8535995483398,17.8541793823242,17.85475730896,17.8553371429443,17.8559131622314,17.8564968109131,17.8570766448975,17.8576526641846,17.8582363128662,17.8588161468506,17.8593921661377,17.8599700927734,17.8605518341064,17.8611316680908,17.8617095947266,17.8622894287109,17.8628711700439,17.8634510040283,17.8640251159668,17.8646125793457,17.8651847839355,17.8657646179199,17.8663482666016,17.8669261932373,17.8675060272217,17.8680858612061,17.8686656951904,17.8692436218262,17.8698272705078,17.8704051971436,17.8709850311279,17.8715629577637,17.8721408843994,17.8727283477783,17.8733043670654,17.8738899230957,17.8744697570801,17.8750457763672,17.8756217956543,17.8762054443359,17.8767871856689,17.8773651123047,17.8779449462891,17.8785285949707,17.8791084289551,17.8796882629395,17.8802719116211,17.8808498382568,17.8814315795898,17.8820152282715,17.8825931549072,17.883171081543,17.8837490081787,17.884334564209,17.884916305542,17.885498046875,17.8860721588135,17.8866596221924,17.8872375488281,17.8878211975098,17.8884029388428,17.8889865875244,17.8895645141602,17.8901462554932,17.8907279968262,17.8913097381592,17.8918838500977,17.8924732208252,17.8930511474609,17.8936347961426,17.8942165374756,17.8948040008545,17.8953723907471,17.8959655761719,17.8965396881104,17.897123336792,17.897705078125,17.8982849121094,17.8988647460938,17.8994560241699,17.9000282287598,17.9006175994873,17.9011974334717,17.9017810821533,17.9023590087891,17.9029426574707,17.9035243988037,17.9041118621826,17.9046897888184,17.9052734375,17.9058494567871,17.9064388275146,17.907018661499,17.907600402832,17.9081783294678,17.9087657928467,17.9093456268311,17.90993309021,17.9105129241943,17.9110984802246,17.911678314209,17.9122638702393,17.9128437042236,17.9134311676025,17.9140148162842,17.9145927429199,17.9151782989502,17.9157600402832,17.9163417816162,17.9169235229492,17.9175090789795,17.9180908203125,17.9186763763428,17.9192543029785,17.9198398590088,17.9204235076904,17.9210090637207,17.9215850830078,17.9221744537354,17.9227542877197,17.9233417510986,17.9239234924316,17.9245090484619,17.925085067749,17.9256782531738,17.9262523651123,17.9268455505371,17.9274234771729,17.9280128479004,17.9285869598389,17.929178237915,17.929759979248,17.9303455352783,17.9309272766113,17.931510925293,17.932092666626,17.9326839447021,17.9332599639893,17.9338493347168,17.9344310760498,17.9350166320801,17.9355964660645,17.936185836792,17.9367656707764,17.9373569488525,17.9379367828369,17.9385204315186,17.9391059875488,17.9396896362305,17.9402694702148,17.940860748291,17.9414405822754,17.9420299530029,17.9426097869873,17.9431972503662,17.9437828063965,17.9443664550781,17.9449520111084,17.9455413818359,17.9461212158203,17.9467086791992,17.9472885131836,17.9478759765625,17.9484615325928,17.9490509033203,17.9496288299561,17.950216293335,17.9508037567139,17.9513893127441,17.9519691467285,17.952564239502,17.9531383514404,17.9537258148193,17.9543151855469,17.9549007415771,17.9554862976074,17.9560699462891,17.9566555023193,17.9572410583496,17.9578266143799,17.9584102630615,17.9589977264404,17.9595851898193,17.960168838501,17.9607582092285,17.9613418579102,17.9619255065918,17.9625129699707,17.9631023406982,17.963680267334,17.9642715454102,17.9648590087891,17.965446472168,17.9660301208496,17.9666118621826,17.9671993255615,17.9677886962891,17.9683723449707,17.9689617156982,17.9695472717285,17.9701366424561,17.9707202911377,17.9713096618652,17.9718952178955,17.9724826812744,17.9730663299561,17.973653793335,17.9742374420166,17.9748249053955,17.9754104614258,17.9759998321533,17.9765892028809,17.9771766662598,17.9777603149414,17.9783477783203,17.9789371490479,17.9795227050781,17.9801082611084,17.9806957244873,17.9812831878662,17.9818706512451,17.9824600219727
17.568172454834,17.5687351226807,17.5692939758301,17.5698490142822,17.5704174041748,17.5709743499756,17.5715370178223,17.5720920562744,17.5726623535156,17.5732154846191,17.5737781524658,17.5743427276611,17.5749034881592,17.5754642486572,17.5760231018066,17.5765819549561,17.5771427154541,17.5777130126953,17.5782680511475,17.5788288116455,17.5793914794922,17.5799560546875,17.5805130004883,17.5810718536377,17.5816402435303,17.582202911377,17.5827541351318,17.583324432373,17.5838851928711,17.5844497680664,17.5850028991699,17.5855693817139,17.5861320495605,17.58669090271,17.587251663208,17.5878143310547,17.58837890625,17.5889453887939,17.5894985198975,17.5900611877441,17.5906219482422,17.5911884307861,17.5917415618896,17.5923080444336,17.5928764343262,17.5934352874756,17.5939903259277,17.5945568084717,17.595121383667,17.595682144165,17.5962429046631,17.5968074798584,17.5973739624023,17.5979290008545,17.5984935760498,17.5990581512451,17.5996189117432,17.6001834869385,17.6007385253906,17.6013107299805,17.6018676757812,17.6024341583252,17.6029891967773,17.6035594940186,17.604118347168,17.6046867370605,17.6052494049072,17.6058082580566,17.6063747406006,17.6069316864014,17.6074962615967,17.6080646514893,17.6086273193359,17.6091861724854,17.6097469329834,17.610315322876,17.6108798980713,17.6114349365234,17.6119976043701,17.6125679016113,17.6131286621094,17.6136913299561,17.6142559051514,17.6148223876953,17.615385055542,17.6159420013428,17.6165103912354,17.6170711517334,17.6176414489746,17.6182041168213,17.6187648773193,17.6193351745605,17.61989402771,17.6204566955566,17.6210193634033,17.6215858459473,17.6221542358398,17.6227130889893,17.6232776641846,17.6238441467285,17.6244029998779,17.624963760376,17.6255321502686,17.6261005401611,17.6266613006592,17.6272277832031,17.6277847290039,17.6283512115479,17.6289176940918,17.6294822692871,17.6300468444824,17.6306076049805,17.6311779022217,17.631742477417,17.632303237915,17.6328678131104,17.6334323883057,17.6339988708496,17.6345615386963,17.6351337432861,17.6356945037842,17.6362571716309,17.6368274688721,17.6373901367188,17.6379508972168,17.6385231018066,17.6390819549561,17.6396465301514,17.6402111053467,17.6407833099365,17.6413459777832,17.6419105529785,17.6424713134766,17.6430397033691,17.6436042785645,17.6441707611084,17.644739151001,17.6453037261963,17.6458683013916,17.6464328765869,17.6469955444336,17.6475696563721,17.6481304168701,17.6486949920654,17.6492595672607,17.649829864502,17.6503925323486,17.6509590148926,17.6515274047852,17.6520919799805,17.6526565551758,17.6532192230225,17.6537895202637,17.6543502807617,17.6549243927002,17.6554870605469,17.6560535430908,17.6566200256348,17.657190322876,17.6577491760254,17.6583232879639,17.6588821411133,17.6594524383545,17.6600151062012,17.6605834960938,17.6611499786377,17.6617164611816,17.662281036377,17.6628513336182,17.6634140014648,17.6639766693115,17.6645469665527,17.6651153564453,17.665678024292,17.6662502288818,17.6668167114258,17.6673812866211,17.6679458618164,17.6685199737549,17.6690826416016,17.6696491241455,17.6702156066895,17.670783996582,17.6713542938232,17.6719150543213,17.6724910736084,17.6730499267578,17.6736164093018,17.674186706543,17.6747550964355,17.6753234863281,17.6758861541748,17.676456451416,17.6770248413086,17.6775932312012,17.6781558990479,17.6787242889404,17.679292678833,17.6798629760742,17.6804313659668,17.6809997558594,17.6815643310547,17.6821365356445,17.6826992034912,17.6832695007324,17.6838359832764,17.6844043731689,17.6849689483643,17.6855354309082,17.6861095428467,17.6866760253906,17.6872463226318,17.687816619873,17.6883811950684,17.6889533996582,17.6895141601562,17.6900901794434,17.6906509399414,17.6912269592285,17.6917896270752,17.6923637390137,17.6929264068604,17.6935024261475,17.6940689086914,17.6946353912354,17.6952056884766,17.6957702636719,17.6963405609131,17.6969108581543,17.6974754333496,17.6980457305908,17.6986141204834,17.6991863250732,17.6997489929199,17.700325012207,17.700891494751,17.7014656066895,17.7020282745361,17.7025947570801,17.7031688690186,17.7037334442139,17.7042980194092,17.7048740386963,17.7054424285889,17.7060146331787,17.7065773010254,17.7071533203125,17.7077198028564,17.7082939147949,17.7088642120361,17.7094345092773,17.709997177124,17.7105731964111,17.7111377716064,17.7117099761963,17.7122802734375,17.712854385376,17.713415145874,17.7139911651611,17.7145576477051,17.7151317596436,17.7156944274902,17.7162666320801,17.7168388366699,17.7174091339111,17.717981338501,17.7185478210449,17.7191123962402,17.719690322876,17.7202568054199,17.720832824707,17.7213935852051,17.7219734191895,17.7225360870361,17.7231140136719,17.7236824035645,17.7242546081543,17.7248210906982,17.7253932952881,17.725959777832,17.7265377044678,17.7271060943604,17.7276782989502,17.7282447814941,17.7288208007812,17.7293891906738,17.729959487915,17.730525970459,17.7311058044434,17.7316703796387,17.7322463989258,17.7328128814697,17.7333908081055,17.7339572906494,17.7345275878906,17.7350997924805,17.7356700897217,17.7362422943115,17.7368087768555,17.7373867034912,17.7379589080811,17.7385272979736,17.7390995025635,17.7396755218506,17.7402400970459,17.740816116333,17.741382598877,17.7419586181641,17.7425289154053,17.7431049346924,17.7436695098877,17.7442436218262,17.7448177337646,17.7453899383545,17.7459621429443,17.7465362548828,17.7471008300781,17.7476749420166,17.7482452392578,17.7488193511963,17.7493896484375,17.7499656677246,17.7505340576172,17.7511100769043,17.7516803741455,17.752254486084,17.7528228759766,17.7534046173096,17.7539653778076,17.754545211792,17.7551155090332,17.7556896209717,17.7562599182129,17.7568321228027,17.7574005126953,17.7579822540283,17.7585525512695,17.7591228485107,17.759693145752,17.7602729797363,17.7608413696289,17.7614154815674,17.7619857788086,17.762565612793,17.7631340026855,17.7637062072754,17.7642822265625,17.7648525238037,17.7654285430908,17.765998840332,17.7665748596191,17.767147064209,17.7677211761475,17.7682991027832,17.7688636779785,17.7694416046143,17.7700099945068,17.7705879211426,17.7711601257324,17.7717380523682,17.7723064422607,17.7728824615479,17.7734565734863,17.7740287780762,17.7745990753174,17.7751750946045,17.7757511138916,17.7763214111328,17.7768974304199,17.7774715423584,17.7780418395996,17.778621673584,17.7791900634766,17.7797679901123,17.7803382873535,17.7809181213379,17.7814865112305,17.7820644378662,17.7826366424561,17.7832126617432,17.7837886810303,17.7843589782715,17.7849349975586,17.7855072021484,17.7860813140869,17.7866592407227,17.7872333526611,17.787805557251,17.7883796691895,17.7889595031738,17.7895317077637,17.7901096343994,17.7906856536865,17.7912521362305,17.7918281555176,17.7924060821533,17.7929782867432,17.7935543060303,17.7941284179688,17.7947044372559,17.795280456543,17.7958564758301,17.7964305877686,17.7970066070557,17.7975807189941,17.7981548309326,17.798734664917,17.7993030548096,17.7998828887939,17.8004589080811,17.8010311126709,17.801607131958,17.8021850585938,17.8027610778809,17.8033332824707,17.8039093017578,17.8044872283936,17.8050632476807,17.8056354522705,17.8062171936035,17.8067855834961
