13.2023334503174,13.2025756835938,13.2028179168701,13.2030611038208,13.2033033370972,13.2035455703735,13.2037878036499,13.2040309906006,13.204273223877,13.2045154571533,13.204758644104,13.2050008773804,13.2052431106567,13.2054862976074,13.2057285308838,13.2059707641602,13.2062139511108,13.2064561843872,13.2066984176636,13.2069416046143,13.2071838378906,13.2074270248413,13.2076692581177,13.2079124450684,13.2081546783447,13.2083969116211,13.2086400985718,13.2088832855225,13.2091255187988,13.2093687057495,13.2096109390259,13.2098531723022,13.2100963592529,13.2103385925293,13.21058177948,13.2108249664307,13.211067199707,13.2113103866577,13.2115526199341,13.2117958068848,13.2120389938354,13.2122812271118,13.2125244140625,13.2127666473389,13.2130098342896,13.2132530212402,13.2134952545166,13.2137384414673,13.213981628418,13.2142238616943,13.214467048645,13.2147102355957,13.2149524688721,13.2151956558228,13.2154388427734,13.2156810760498,13.2159242630005,13.2161674499512,13.2164106369019,13.2166538238525,13.2168960571289,13.2171392440796,13.2173824310303,13.217625617981,13.2178688049316,13.218111038208,13.2183542251587,13.2185974121094,13.2188405990601,13.2190837860107,13.2193269729614,13.2195692062378,13.2198123931885,13.2200555801392,13.2202987670898,13.2205419540405,13.2207851409912,13.2210283279419,13.2212715148926,13.2215147018433,13.2217578887939,13.2220010757446,13.2222442626953,13.222487449646,13.2227306365967,13.2229738235474,13.223217010498,13.2234601974487,13.2237033843994,13.2239465713501,13.2241897583008,13.2244329452515,13.2246761322021,13.2249193191528,13.2251634597778,13.2254066467285,13.2256498336792,13.2258930206299,13.2261362075806,13.2263793945312,13.2266225814819,13.2268657684326,13.2271099090576,13.2273530960083,13.227596282959,13.2278394699097,13.2280836105347,13.2283267974854,13.228569984436,13.2288131713867,13.2290563583374,13.2293004989624,13.2295436859131,13.2297868728638,13.2300300598145,13.2302742004395,13.2305173873901,13.2307605743408,13.2310047149658,13.2312479019165,13.2314910888672,13.2317352294922,13.2319784164429,13.2322216033936,13.2324657440186,13.2327089309692,13.2329530715942,13.2331962585449,13.2334394454956,13.2336835861206,13.2339277267456,13.2341709136963,13.234414100647,13.234658241272,13.2349014282227,13.2351455688477,13.2353887557983,13.2356328964233,13.235876083374,13.236120223999,13.2363634109497,13.2366075515747,13.2368507385254,13.2370948791504,13.2373390197754,13.2375822067261,13.2378263473511,13.2380695343018,13.2383136749268,13.2385568618774,13.2388010025024,13.2390451431274,13.2392883300781,13.2395324707031,13.2397766113281,13.2400197982788,13.2402639389038,13.2405080795288,13.2407512664795,13.2409954071045,13.2412395477295,13.2414836883545,13.2417268753052,13.2419710159302,13.2422151565552,13.2424592971802,13.2427024841309,13.2429466247559,13.2431907653809,13.2434349060059,13.2436790466309,13.2439231872559,13.2441663742065,13.2444105148315,13.2446546554565,13.2448987960815,13.2451429367065,13.2453861236572,13.2456302642822,13.2458744049072,13.2461185455322,13.2463626861572,13.2466068267822,13.2468509674072,13.2470951080322,13.2473392486572,13.2475833892822,13.2478275299072,13.2480716705322,13.2483158111572,13.2485599517822,13.2488040924072,13.2490482330322,13.2492923736572,13.2495365142822,13.2497806549072,13.2500247955322,13.2502689361572,13.2505130767822,13.2507572174072,13.2510013580322,13.2512464523315,13.2514905929565,13.2517347335815,13.2519788742065,13.2522230148315,13.2524671554565,13.2527112960815,13.2529563903809,13.2532005310059,13.2534446716309,13.2536888122559,13.2539329528809,13.2541770935059,13.2544221878052,13.2546663284302,13.2549104690552,13.2551546096802,13.2553997039795,13.2556438446045,13.2558879852295,13.2561330795288,13.2563772201538,13.2566213607788,13.2568664550781,13.2571105957031,13.2573547363281,13.2575998306274,13.2578439712524,13.2580890655518,13.2583332061768,13.2585773468018,13.2588224411011,13.2590665817261,13.2593107223511,13.2595558166504,13.2597999572754,13.2600450515747,13.2602891921997,13.260534286499,13.260778427124,13.2610235214233,13.2612676620483,13.2615127563477,13.2617568969727,13.262001991272,13.262246131897,13.2624912261963,13.2627353668213,13.2629804611206,13.2632255554199,13.2634696960449,13.2637147903442,13.2639589309692,13.2642040252686,13.2644491195679,13.2646932601929,13.2649383544922,13.2651834487915,13.2654275894165,13.2656726837158,13.2659177780151,13.2661619186401,13.2664070129395,13.2666511535645,13.2668962478638,13.2671413421631,13.2673854827881,13.2676305770874,13.2678756713867,13.268120765686,13.2683658599854,13.2686100006104,13.2688550949097,13.269100189209,13.2693452835083,13.2695903778076,13.2698354721069,13.2700796127319,13.2703247070312,13.2705698013306,13.2708148956299,13.2710599899292,13.2713050842285,13.2715501785278,13.2717943191528,0,0,0,0,0,0,0,0,0,0,0,0,0,0,0,0,0,0,0,0,0,0,0,0,0,0,0,0,0,0,0,0,0,0,0,0,0,0,0,0,0,0,0,0,0,0,0,0,0,0,0,0,0,0,0,0,0,0,0,0,0,0,0,0,0,0,0,0,0,0,0,0,0,0,0,0,0,0,0,0,0,0,0,0,0,0,0,0,0,0,0,0,0,0,0,0,0,0,0,0,0,0,0,0,0,0,0,0,0,0,0,0,0,0,0,0,0,0,0,0,0,0,0,0,0,0,0,0,0,0,0,0,0,0,0,0,0,0,0,0,0,0,0,0,0,0,0,0,0,0,0,0,0,0,0,0,0,0,0
13.1056346893311,13.1058740615845,13.1061124801636,13.106351852417,13.1065902709961,13.1068296432495,13.1070680618286,13.107307434082,13.1075468063354,13.1077852249146,13.108024597168,13.1082630157471,13.1085023880005,13.1087417602539,13.108980178833,13.1092195510864,13.1094589233398,13.1096973419189,13.1099367141724,13.1101760864258,13.1104145050049,13.1106538772583,13.1108932495117,13.1111316680908,13.1113710403442,13.1116104125977,13.1118497848511,13.1120882034302,13.1123275756836,13.112566947937,13.1128063201904,13.1130456924438,13.1132841110229,13.1135234832764,13.1137628555298,13.1140022277832,13.1142416000366,13.1144800186157,13.1147193908691,13.1149587631226,13.115198135376,13.1154375076294,13.1156768798828,13.1159162521362,13.1161556243896,13.1163949966431,13.1166334152222,13.1168727874756,13.117112159729,13.1173515319824,13.1175909042358,13.1178302764893,13.1180696487427,13.1183090209961,13.1185483932495,13.1187877655029,13.1190271377563,13.1192665100098,13.1195058822632,13.1197452545166,13.11998462677,13.1202249526978,13.1204643249512,13.1207036972046,13.120943069458,13.1211824417114,13.1214218139648,13.1216611862183,13.1219005584717,13.1221408843994,13.1223802566528,13.1226196289062,13.1228590011597,13.1230983734131,13.1233377456665,13.1235771179199,13.1238174438477,13.1240568161011,13.1242961883545,13.1245355606079,13.1247758865356,13.1250152587891,13.1252546310425,13.1254940032959,13.1257343292236,13.1259737014771,13.1262130737305,13.1264533996582,13.1266927719116,13.126932144165,13.1271724700928,13.1274118423462,13.1276512145996,13.1278915405273,13.1281309127808,13.1283702850342,13.1286106109619,13.1288499832153,13.1290893554688,13.1293296813965,13.1295690536499,13.1298093795776,13.1300487518311,13.1302890777588,13.1305284500122,13.1307687759399,13.1310081481934,13.1312484741211,13.1314878463745,13.1317281723022,13.1319675445557,13.1322078704834,13.1324472427368,13.1326875686646,13.132926940918,13.1331672668457,13.1334075927734,13.1336469650269,13.1338872909546,13.134126663208,13.1343669891357,13.1346063613892,13.1348466873169,13.1350870132446,13.135326385498,13.1355667114258,13.1358070373535,13.1360464096069,13.1362867355347,13.1365270614624,13.1367664337158,13.1370067596436,13.1372470855713,13.1374864578247,13.1377267837524,13.1379671096802,13.1382074356079,13.1384477615356,13.1386871337891,13.1389274597168,13.1391677856445,13.1394081115723,13.1396484375,13.1398878097534,13.1401281356812,13.1403684616089,13.1406087875366,13.1408491134644,13.1410894393921,13.1413297653198,13.1415700912476,13.141809463501,13.1420497894287,13.1422901153564,13.1425304412842,13.1427707672119,13.1430110931396,13.1432514190674,13.1434917449951,13.1437320709229,13.1439723968506,13.1442127227783,13.1444530487061,13.1446933746338,13.1449337005615,13.1451740264893,13.145414352417,13.1456546783447,13.1458950042725,13.1461353302002,13.1463756561279,13.1466159820557,13.1468563079834,13.1470966339111,13.1473369598389,13.1475782394409,13.1478185653687,13.1480588912964,13.1482992172241,13.1485395431519,13.1487798690796,13.1490201950073,13.1492614746094,13.1495018005371,13.1497421264648,13.1499824523926,13.1502227783203,13.1504640579224,13.1507043838501,13.1509447097778,13.1511850357056,13.1514263153076,13.1516666412354,13.1519069671631,13.1521482467651,13.1523885726929,13.1526288986206,13.1528701782227,13.1531105041504,13.1533508300781,13.1535911560059,13.1538324356079,13.1540727615356,13.1543140411377,13.1545543670654,13.1547946929932,13.1550359725952,13.1552762985229,13.155517578125,13.1557579040527,13.1559991836548,13.1562395095825,13.1564798355103,13.1567211151123,13.15696144104,13.1572027206421,13.1574430465698,13.1576843261719,13.1579246520996,13.1581659317017,13.1584062576294,13.1586475372314,13.1588878631592,13.1591291427612,13.1593704223633,13.159610748291,13.1598520278931,13.1600923538208,13.1603336334229,13.1605739593506,13.1608152389526,13.1610565185547,13.1612968444824,13.1615381240845,13.1617794036865,13.1620206832886,13.1622610092163,13.1625022888184,13.1627435684204,13.1629838943481,13.1632251739502,13.1634664535522,13.16370677948,13.163948059082,13.1641893386841,13.1644306182861,13.1646709442139,13.1649122238159,13.165153503418,13.16539478302,13.1656360626221,13.1658773422241,13.1661176681519,13.1663589477539,13.166600227356,13.166841506958,13.1670827865601,13.1673240661621,13.1675643920898,13.1678056716919,13.1680469512939,13.168288230896,13.168529510498,13.1687707901001,13.1690120697021,13.1692533493042,13.1694946289062,13.1697359085083,13.1699771881104,13.1702184677124,13.1704597473145,13.1707010269165,13.1709423065186,13.1711835861206,13.1714248657227,13.1716661453247,0,0,0,0,0,0,0,0,0,0,0,0,0,0,0,0,0,0,0,0,0,0,0,0,0,0,0,0,0,0,0,0,0,0,0,0,0,0,0,0,0,0,0,0,0,0,0,0,0,0,0,0,0,0,0,0,0,0,0,0,0,0,0,0,0,0,0,0,0,0,0,0,0,0,0,0,0,0,0,0,0,0,0,0,0,0,0,0,0,0,0,0,0,0,0,0,0,0,0,0,0,0,0,0,0,0,0,0,0,0,0,0,0,0,0,0,0,0,0,0,0,0,0,0,0,0,0,0,0,0,0,0,0,0,0,0,0,0,0,0,0,0,0,0,0,0,0,0,0,0,0,0,0,0,0,0,0,0,0,0,0,0,0,0,0,0,0,0,0
13.0103425979614,13.0105781555176,13.0108137130737,13.0110492706299,13.0112838745117,13.0115203857422,13.011754989624,13.0119905471802,13.0122261047363,13.0124616622925,13.0126972198486,13.0129327774048,13.0131683349609,13.0134038925171,13.0136394500732,13.0138750076294,13.0141105651855,13.0143461227417,13.0145816802979,13.014817237854,13.0150527954102,13.0152893066406,13.0155239105225,13.0157604217529,13.0159959793091,13.0162315368652,13.0164670944214,13.0167026519775,13.0169382095337,13.0171737670898,13.017409324646,13.0176458358765,13.0178813934326,13.0181169509888,13.0183525085449,13.0185880661011,13.0188236236572,13.0190601348877,13.0192956924438,13.01953125,13.0197668075562,13.0200033187866,13.0202388763428,13.0204744338989,13.0207099914551,13.0209465026855,13.0211820602417,13.0214176177979,13.0216541290283,13.0218896865845,13.0221252441406,13.0223617553711,13.0225973129272,13.0228328704834,13.0230693817139,13.02330493927,13.0235414505005,13.0237770080566,13.0240125656128,13.0242490768433,13.0244846343994,13.0247211456299,13.024956703186,13.0251922607422,13.0254287719727,13.0256643295288,13.0259008407593,13.0261363983154,13.0263729095459,13.0266084671021,13.0268449783325,13.0270805358887,13.0273170471191,13.0275526046753,13.0277891159058,13.0280246734619,13.0282611846924,13.0284976959229,13.028733253479,13.0289697647095,13.0292053222656,13.0294418334961,13.0296783447266,13.0299139022827,13.0301504135132,13.0303859710693,13.0306224822998,13.0308589935303,13.0310945510864,13.0313310623169,13.0315675735474,13.0318031311035,13.032039642334,13.0322761535645,13.0325126647949,13.0327491760254,13.0329847335815,13.033221244812,13.0334577560425,13.0336933135986,13.0339298248291,13.0341663360596,13.03440284729,13.0346393585205,13.0348749160767,13.0351114273071,13.0353479385376,13.0355844497681,13.0358209609985,13.036057472229,13.0362939834595,13.0365295410156,13.0367660522461,13.0370025634766,13.037239074707,13.0374755859375,13.037712097168,13.0379486083984,13.0381851196289,13.0384216308594,13.0386571884155,13.0388946533203,13.0391302108765,13.0393676757812,13.0396032333374,13.0398406982422,13.0400772094727,13.0403127670288,13.0405502319336,13.0407867431641,13.0410232543945,13.041259765625,13.0414962768555,13.0417327880859,13.0419692993164,13.0422058105469,13.0424423217773,13.0426788330078,13.0429153442383,13.0431518554688,13.0433893203735,13.043625831604,13.0438623428345,13.0440988540649,13.0443353652954,13.0445718765259,13.0448093414307,13.0450458526611,13.0452823638916,13.0455188751221,13.0457553863525,13.0459928512573,13.0462293624878,13.0464658737183,13.0467023849487,13.0469398498535,13.047176361084,13.0474138259888,13.0476503372192,13.0478868484497,13.0481233596802,13.048360824585,13.0485973358154,13.0488338470459,13.0490713119507,13.0493078231812,13.0495443344116,13.0497817993164,13.0500183105469,13.0502548217773,13.0504922866821,13.0507287979126,13.0509662628174,13.0512027740479,13.0514402389526,13.0516767501831,13.0519132614136,13.0521507263184,13.0523881912231,13.0526247024536,13.0528612136841,13.0530986785889,13.0533361434937,13.0535726547241,13.0538101196289,13.0540466308594,13.0542840957642,13.0545206069946,13.0547580718994,13.0549945831299,13.0552320480347,13.0554685592651,13.0557060241699,13.0559434890747,13.0561800003052,13.05641746521,13.0566549301147,13.0568914413452,13.05712890625,13.0573663711548,13.0576028823853,13.05784034729,13.0580778121948,13.0583143234253,13.0585517883301,13.0587892532349,13.0590267181396,13.0592632293701,13.0595006942749,13.0597381591797,13.0599746704102,13.0602121353149,13.0604496002197,13.0606870651245,13.0609245300293,13.0611610412598,13.0613985061646,13.0616359710693,13.0618734359741,13.0621109008789,13.0623483657837,13.0625848770142,13.0628223419189,13.0630598068237,13.0632972717285,13.0635347366333,13.0637722015381,13.0640096664429,13.0642471313477,13.0644845962524,13.0647220611572,13.064959526062,13.0651969909668,13.0654344558716,13.0656719207764,13.0659093856812,13.0661468505859,13.0663843154907,13.0666217803955,13.0668592453003,13.0670967102051,13.0673341751099,13.0675716400146,13.0678091049194,13.0680465698242,13.068284034729,13.0685214996338,13.0687589645386,13.0689964294434,13.0692348480225,13.0694723129272,13.069709777832,13.0699472427368,13.0701847076416,13.0704221725464,13.0706605911255,13.0708980560303,13.0711355209351,13.0713729858398,13.0716104507446,13.0718479156494,13.0720863342285,13.0723237991333,13.0725612640381,13.0727987289429,13.073037147522,13.0732746124268,0,0,0,0,0,0,0,0,0,0,0,0,0,0,0,0,0,0,0,0,0,0,0,0,0,0,0,0,0,0,0,0,0,0,0,0,0,0,0,0,0,0,0,0,0,0,0,0,0,0,0,0,0,0,0,0,0,0,0,0,0,0,0,0,0,0,0,0,0,0,0,0,0,0,0,0,0,0,0,0,0,0,0,0,0,0,0,0,0,0,0,0,0,0,0,0,0,0,0,0,0,0,0,0,0,0,0,0,0,0,0,0,0,0,0,0,0,0,0,0,0,0,0,0,0,0,0,0,0,0,0,0,0,0,0,0,0,0,0,0,0,0,0,0,0,0,0,0,0,0,0,0,0,0,0,0,0,0,0,0,0,0,0,0,0,0,0,0,0,0,0,0,0,0,0,0,0,0
12.9164257049561,12.9166584014893,12.9168901443481,12.917121887207,12.9173545837402,12.9175863265991,12.917818069458,12.9180507659912,12.9182825088501,12.9185152053833,12.9187469482422,12.9189786911011,12.9192113876343,12.9194431304932,12.9196758270264,12.9199075698853,12.9201402664185,12.9203720092773,12.9206047058105,12.9208364486694,12.9210691452026,12.9213008880615,12.9215335845947,12.9217653274536,12.9219980239868,12.9222297668457,12.9224624633789,12.9226942062378,12.922926902771,12.9231595993042,12.9233913421631,12.9236240386963,12.9238557815552,12.9240884780884,12.9243211746216,12.9245529174805,12.9247856140137,12.9250183105469,12.9252500534058,12.925482749939,12.9257154464722,12.9259471893311,12.9261798858643,12.9264125823975,12.9266443252563,12.9268770217896,12.9271097183228,12.927342414856,12.9275741577148,12.927806854248,12.9280395507812,12.9282712936401,12.9285039901733,12.9287366867065,12.9289693832397,12.9292020797729,12.9294347763062,12.929666519165,12.9298992156982,12.9301319122314,12.9303646087646,12.9305973052979,12.9308300018311,12.9310626983643,12.9312944412231,12.9315271377563,12.9317598342896,12.9319925308228,12.932225227356,12.9324579238892,12.9326906204224,12.9329233169556,12.9331560134888,12.933388710022,12.9336214065552,12.9338541030884,12.9340867996216,12.9343194961548,12.934552192688,12.9347848892212,12.9350175857544,12.9352502822876,12.9354829788208,12.935715675354,12.9359483718872,12.9361810684204,12.9364137649536,12.9366464614868,12.93687915802,12.9371118545532,12.9373455047607,12.9375782012939,12.9378108978271,12.9380435943604,12.9382762908936,12.9385089874268,12.9387426376343,12.9389753341675,12.9392080307007,12.9394407272339,12.9396734237671,12.9399070739746,12.9401397705078,12.940372467041,12.9406051635742,12.9408378601074,12.9410715103149,12.9413042068481,12.9415369033813,12.9417705535889,12.9420032501221,12.9422359466553,12.9424695968628,12.942702293396,12.9429349899292,12.9431686401367,12.9434013366699,12.9436340332031,12.9438676834106,12.9441003799438,12.9443330764771,12.9445667266846,12.9447994232178,12.945032119751,12.9452657699585,12.9454984664917,12.9457321166992,12.9459648132324,12.9461984634399,12.9464311599731,12.9466648101807,12.9468975067139,12.9471302032471,12.9473638534546,12.9475975036621,12.9478302001953,12.9480638504028,12.948296546936,12.9485301971436,12.9487628936768,12.9489965438843,12.9492301940918,12.949462890625,12.9496955871582,12.9499292373657,12.9501628875732,12.9503955841064,12.950629234314,12.9508628845215,12.9510955810547,12.9513292312622,12.9515628814697,12.9517955780029,12.9520292282104,12.9522619247437,12.9524955749512,12.9527292251587,12.9529628753662,12.9531955718994,12.9534292221069,12.9536628723145,12.953896522522,12.9541292190552,12.9543628692627,12.9545965194702,12.9548301696777,12.9550638198853,12.9552965164185,12.955530166626,12.9557638168335,12.955997467041,12.9562301635742,12.9564638137817,12.9566974639893,12.9569311141968,12.9571647644043,12.9573984146118,12.9576320648193,12.9578657150269,12.9580984115601,12.9583330154419,12.9585657119751,12.9587993621826,12.9590330123901,12.9592666625977,12.9595003128052,12.9597339630127,12.9599676132202,12.9602012634277,12.9604349136353,12.9606685638428,12.9609022140503,12.9611358642578,12.9613695144653,12.9616031646729,12.9618368148804,12.9620704650879,12.9623041152954,12.9625377655029,12.9627714157104,12.963005065918,12.9632396697998,12.9634733200073,12.9637069702148,12.9639406204224,12.9641742706299,12.9644079208374,12.9646415710449,12.9648761749268,12.9651098251343,12.9653434753418,12.9655771255493,12.9658107757568,12.9660444259644,12.9662790298462,12.9665126800537,12.9667463302612,12.9669799804688,12.9672145843506,12.9674482345581,12.9676818847656,12.9679155349731,12.968150138855,12.9683837890625,12.96861743927,12.9688510894775,12.9690856933594,12.9693193435669,12.9695529937744,12.9697875976562,12.9700212478638,12.9702558517456,12.9704895019531,12.9707231521606,12.9709577560425,12.97119140625,12.9714250564575,12.9716596603394,12.9718933105469,12.9721279144287,12.9723615646362,12.9725961685181,12.9728298187256,12.9730644226074,12.9732980728149,12.9735326766968,12.9737663269043,12.9740009307861,12.9742345809937,12.9744691848755,12.974702835083,12.9749374389648,12.9751710891724,12.9754056930542,12.9756393432617,12.9758739471436,12.9761075973511,12.9763422012329,0,0,0,0,0,0,0,0,0,0,0,0,0,0,0,0,0,0,0,0,0,0,0,0,0,0,0,0,0,0,0,0,0,0,0,0,0,0,0,0,0,0,0,0,0,0,0,0,0,0,0,0,0,0,0,0,0,0,0,0,0,0,0,0,0,0,0,0,0,0,0,0,0,0,0,0,0,0,0,0,0,0,0,0,0,0,0,0,0,0,0,0,0,0,0,0,0,0,0,0,0,0,0,0,0,0,0,0,0,0,0,0,0,0,0,0,0,0,0,0,0,0,0,0,0,0,0,0,0,0,0,0,0,0,0,0,0,0,0,0,0,0,0,0,0,0,0,0,0,0,0,0,0,0,0,0,0,0,0,0,0,0,0,0,0,0,0,0,0,0,0,0,0,0,0,0,0,0,0,0,0,0,0,0,0,0,0
12.8238554000854,12.8240842819214,12.8243131637573,12.8245420455933,12.8247709274292,12.8249998092651,12.8252277374268,12.8254566192627,12.8256855010986,12.8259143829346,12.8261432647705,12.8263721466064,12.8266010284424,12.8268299102783,12.8270587921143,12.8272876739502,12.8275165557861,12.8277454376221,12.827974319458,12.8282032012939,12.8284320831299,12.8286609649658,12.8288898468018,12.8291187286377,12.8293476104736,12.8295764923096,12.8298053741455,12.8300342559814,12.8302631378174,12.8304929733276,12.8307218551636,12.8309507369995,12.8311796188354,12.8314085006714,12.8316373825073,12.8318672180176,12.8320960998535,12.8323249816895,12.8325538635254,12.8327827453613,12.8330116271973,12.8332414627075,12.8334703445435,12.8336992263794,12.8339281082153,12.8341569900513,12.8343868255615,12.8346157073975,12.8348445892334,12.8350734710693,12.8353033065796,12.8355321884155,12.8357610702515,12.8359909057617,12.8362197875977,12.8364486694336,12.8366785049438,12.8369073867798,12.8371362686157,12.837366104126,12.8375949859619,12.8378238677979,12.8380537033081,12.838282585144,12.8385124206543,12.8387413024902,12.8389701843262,12.8392000198364,12.8394289016724,12.8396587371826,12.8398876190186,12.8401174545288,12.8403463363647,12.840576171875,12.8408050537109,12.8410348892212,12.8412637710571,12.8414936065674,12.8417224884033,12.8419523239136,12.8421812057495,12.8424110412598,12.8426399230957,12.842869758606,12.8430995941162,12.8433284759521,12.8435583114624,12.8437871932983,12.8440170288086,12.8442468643188,12.8444757461548,12.844705581665,12.844934463501,12.8451642990112,12.8453941345215,12.8456230163574,12.8458528518677,12.8460826873779,12.8463115692139,12.8465414047241,12.8467712402344,12.8470010757446,12.8472299575806,12.8474597930908,12.8476896286011,12.847918510437,12.8481483459473,12.8483781814575,12.8486080169678,12.848837852478,12.849066734314,12.8492965698242,12.8495264053345,12.8497562408447,12.849986076355,12.8502149581909,12.8504447937012,12.8506746292114,12.8509044647217,12.8511343002319,12.8513641357422,12.8515939712524,12.8518238067627,12.8520536422729,12.8522834777832,12.8525123596191,12.8527421951294,12.8529720306396,12.8532018661499,12.8534317016602,12.8536615371704,12.8538913726807,12.8541212081909,12.8543510437012,12.8545808792114,12.8548107147217,12.8550405502319,12.8552703857422,12.8555002212524,12.8557300567627,12.8559598922729,12.8561897277832,12.8564195632935,12.856650352478,12.8568801879883,12.8571100234985,12.8573398590088,12.857569694519,12.8577995300293,12.8580293655396,12.8582592010498,12.8584890365601,12.8587198257446,12.8589496612549,12.8591794967651,12.8594093322754,12.8596391677856,12.8598699569702,12.8600997924805,12.8603296279907,12.860559463501,12.8607892990112,12.8610200881958,12.8612499237061,12.8614797592163,12.8617105484009,12.8619403839111,12.8621702194214,12.8624000549316,12.8626308441162,12.8628606796265,12.8630905151367,12.8633213043213,12.8635511398315,12.8637819290161,12.8640117645264,12.8642416000366,12.8644714355469,12.8647022247314,12.8649320602417,12.8651628494263,12.8653926849365,12.8656234741211,12.8658533096313,12.8660831451416,12.8663139343262,12.8665437698364,12.866774559021,12.8670043945312,12.8672351837158,12.8674650192261,12.8676958084106,12.8679256439209,12.8681564331055,12.8683862686157,12.8686170578003,12.8688468933105,12.8690776824951,12.8693084716797,12.8695383071899,12.8697690963745,12.8699989318848,12.8702297210693,12.8704595565796,12.8706903457642,12.8709211349487,12.871150970459,12.8713817596436,12.8716115951538,12.8718423843384,12.8720731735229,12.8723030090332,12.8725337982178,12.8727645874023,12.8729944229126,12.8732252120972,12.8734560012817,12.8736867904663,12.8739166259766,12.8741474151611,12.8743782043457,12.874608039856,12.8748388290405,12.8750696182251,12.8753004074097,12.8755311965942,12.8757610321045,12.8759918212891,12.8762226104736,12.8764533996582,12.8766841888428,12.8769149780273,12.8771448135376,12.8773756027222,12.8776063919067,12.8778371810913,12.8780679702759,12.8782987594604,12.878529548645,12.8787603378296,12.8789901733398,12.8792219161987,12.8794527053833,12.8796825408936,12.8799133300781,12.8801441192627,12.8803749084473,12.8806056976318,12.8808364868164,12.881067276001,12.8812980651855,12.8815288543701,12.8817596435547,12.8819904327393,12.8822212219238,12.8824520111084,12.882682800293,0,0,0,0,0,0,0,0,0,0,0,0,0,0,0,0,0,0,0,0,0,0,0,0,0,0,0,0,0,0,0,0,0,0,0,0,0,0,0,0,0,0,0,0,0,0,0,0,0,0,0,0,0,0,0,0,0,0,0,0,0,0,0,0,0,0,0,0,0,0,0,0,0,0,0,0,0,0,0,0,0,0,0,0,0,0,0,0,0,0,0,0,0,0,0,0,0,0,0,0,0,0,0,0,0,0,0,0,0,0,0,0,0,0,0,0,0,0,0,0,0,0,0,0,0,0,0,0,0,0,0,0,0,0,0,0,0,0,0,0,0,0,0,0,0,0,0,0,0,0,0,0,0,0,0,0,0,0,0,0,0,0,0,0,0,0,0,0,0,0,0,0,0,0,0,0,0,0,0,0,0,0,0,0,0,0,0,0
12.7326021194458,12.7328281402588,12.7330532073975,12.7332792282104,12.7335042953491,12.7337303161621,12.7339553833008,12.7341814041138,12.7344064712524,12.7346324920654,12.7348575592041,12.7350835800171,12.7353086471558,12.7355346679688,12.7357606887817,12.7359857559204,12.7362117767334,12.7364377975464,12.7366628646851,12.7368879318237,12.7371139526367,12.7373399734497,12.7375659942627,12.7377910614014,12.7380170822144,12.7382431030273,12.738468170166,12.738694190979,12.738920211792,12.7391452789307,12.7393712997437,12.7395973205566,12.7398223876953,12.7400484085083,12.7402744293213,12.7405004501343,12.7407255172729,12.7409515380859,12.7411775588989,12.7414035797119,12.7416286468506,12.7418546676636,12.7420806884766,12.7423067092896,12.7425327301025,12.7427577972412,12.7429838180542,12.7432098388672,12.7434358596802,12.7436618804932,12.7438879013062,12.7441139221191,12.7443389892578,12.7445650100708,12.7447910308838,12.7450170516968,12.7452430725098,12.7454690933228,12.7456951141357,12.7459211349487,12.7461471557617,12.7463731765747,12.7465991973877,12.7468252182007,12.7470512390137,12.7472772598267,12.7475032806396,12.7477293014526,12.7479553222656,12.7481813430786,12.7484073638916,12.7486333847046,12.7488594055176,12.7490854263306,12.7493114471436,12.7495374679565,12.7497634887695,12.7499904632568,12.7502164840698,12.7504425048828,12.7506685256958,12.7508945465088,12.7511205673218,12.7513465881348,12.7515726089478,12.7517995834351,12.752025604248,12.752251625061,12.752477645874,12.752703666687,12.7529306411743,12.7531566619873,12.7533826828003,12.7536087036133,12.7538347244263,12.7540616989136,12.7542877197266,12.7545137405396,12.7547397613525,12.7549667358398,12.7551927566528,12.7554187774658,12.7556457519531,12.7558717727661,12.7560977935791,12.7563247680664,12.7565507888794,12.7567768096924,12.7570037841797,12.7572298049927,12.75745677948,12.757682800293,12.757908821106,12.7581357955933,12.7583618164062,12.7585887908936,12.7588148117065,12.7590408325195,12.7592678070068,12.7594938278198,12.7597208023071,12.7599468231201,12.7601728439331,12.7603998184204,12.7606258392334,12.7608528137207,12.761079788208,12.761305809021,12.7615327835083,12.7617588043213,12.7619857788086,12.7622117996216,12.7624387741089,12.7626647949219,12.7628917694092,12.7631187438965,12.7633447647095,12.7635717391968,12.7637977600098,12.7640247344971,12.7642517089844,12.7644777297974,12.7647047042847,12.7649307250977,12.765157699585,12.7653846740723,12.7656116485596,12.7658376693726,12.7660646438599,12.7662916183472,12.7665176391602,12.7667446136475,12.7669715881348,12.7671985626221,12.7674245834351,12.7676515579224,12.7678785324097,12.768105506897,12.76833152771,12.7685585021973,12.7687854766846,12.7690124511719,12.7692384719849,12.7694654464722,12.7696924209595,12.7699193954468,12.7701463699341,12.7703733444214,12.7706003189087,12.770827293396,12.771053314209,12.7712802886963,12.7715072631836,12.7717342376709,12.7719612121582,12.7721881866455,12.7724151611328,12.7726421356201,12.7728691101074,12.7730960845947,12.773323059082,12.7735500335693,12.7737770080566,12.7740039825439,12.7742309570312,12.7744579315186,12.7746849060059,12.7749118804932,12.7751388549805,12.7753658294678,12.7755928039551,12.7758197784424,12.7760467529297,12.776273727417,12.7765007019043,12.7767276763916,12.7769546508789,12.7771825790405,12.7774085998535,12.7776365280151,12.7778635025024,12.7780904769897,12.7783174514771,12.7785444259644,12.778772354126,12.7789993286133,12.7792263031006,12.7794532775879,12.7796802520752,12.7799081802368,12.7801351547241,12.7803621292114,12.7805891036987,12.7808170318604,12.7810440063477,12.781270980835,12.7814979553223,12.7817249298096,12.7819528579712,12.7821798324585,12.7824068069458,12.7826347351074,12.7828617095947,12.783088684082,12.7833166122437,12.783543586731,12.7837705612183,12.7839984893799,12.7842254638672,12.7844533920288,12.7846803665161,12.7849073410034,12.785135269165,12.7853622436523,12.785590171814,12.7858171463013,12.7860441207886,12.7862720489502,12.7864990234375,12.7867269515991,12.7869539260864,12.787181854248,12.7874088287354,12.787636756897,12.7878637313843,12.7880916595459,12.7883195877075,12.7885465621948,12.7887744903564,12.7890014648438,12.7892284393311,12.7894563674927,12.7896842956543,12.7899112701416,12.7901391983032,12.7903661727905,12.7905941009521,0,0,0,0,0,0,0,0,0,0,0,0,0,0,0,0,0,0,0,0,0,0,0,0,0,0,0,0,0,0,0,0,0,0,0,0,0,0,0,0,0,0,0,0,0,0,0,0,0,0,0,0,0,0,0,0,0,0,0,0,0,0,0,0,0,0,0,0,0,0,0,0,0,0,0,0,0,0,0,0,0,0,0,0,0,0,0,0,0,0,0,0,0,0,0,0,0,0,0,0,0,0,0,0,0,0,0,0,0,0,0,0,0,0,0,0,0,0,0,0,0,0,0,0,0,0,0,0,0,0,0,0,0,0,0,0,0,0,0,0,0,0,0,0,0,0,0,0,0,0,0,0,0,0,0,0,0,0,0,0,0,0,0,0,0,0,0,0,0,0,0,0,0,0,0,0,0,0,0,0,0,0,0,0,0,0,0,0
12.6426391601562,12.642861366272,12.6430835723877,12.6433057785034,12.6435289382935,12.6437511444092,12.6439733505249,12.6441955566406,12.6444177627563,12.6446399688721,12.6448631286621,12.6450853347778,12.6453075408936,12.6455297470093,12.6457529067993,12.645975112915,12.6461973190308,12.6464195251465,12.6466426849365,12.6468648910522,12.647087097168,12.6473093032837,12.6475324630737,12.6477546691895,12.6479768753052,12.6482000350952,12.6484222412109,12.6486444473267,12.6488676071167,12.6490898132324,12.6493120193481,12.6495351791382,12.6497573852539,12.6499805450439,12.6502027511597,12.6504249572754,12.6506481170654,12.6508703231812,12.6510925292969,12.6513156890869,12.651538848877,12.6517610549927,12.6519842147827,12.6522064208984,12.6524295806885,12.6526517868042,12.6528749465942,12.65309715271,12.6533193588257,12.6535425186157,12.6537656784058,12.6539878845215,12.6542110443115,12.6544332504272,12.6546564102173,12.654878616333,12.655101776123,12.6553239822388,12.6555471420288,12.6557703018188,12.6559925079346,12.6562156677246,12.6564388275146,12.6566610336304,12.6568841934204,12.6571073532104,12.6573295593262,12.6575527191162,12.6577749252319,12.657998085022,12.658221244812,12.6584444046021,12.6586666107178,12.6588897705078,12.6591129302979,12.6593360900879,12.6595582962036,12.6597814559937,12.6600046157837,12.6602277755737,12.6604499816895,12.6606731414795,12.6608963012695,12.6611194610596,12.6613426208496,12.6615648269653,12.6617879867554,12.6620111465454,12.6622343063354,12.6624574661255,12.6626806259155,12.6629028320312,12.6631259918213,12.6633491516113,12.6635723114014,12.6637954711914,12.6640186309814,12.6642417907715,12.6644649505615,12.6646881103516,12.6649112701416,12.6651344299316,12.6653575897217,12.6655807495117,12.6658039093018,12.6660270690918,12.6662502288818,12.6664724349976,12.6666965484619,12.666919708252,12.667142868042,12.667366027832,12.6675891876221,12.6678123474121,12.6680355072021,12.6682586669922,12.6684818267822,12.6687049865723,12.6689281463623,12.6691513061523,12.6693744659424,12.6695976257324,12.6698217391968,12.6700448989868,12.6702680587769,12.6704912185669,12.6707143783569,12.670937538147,12.671160697937,12.6713848114014,12.6716079711914,12.6718311309814,12.6720542907715,12.6722774505615,12.6725015640259,12.6727247238159,12.672947883606,12.673171043396,12.6733951568604,12.6736183166504,12.6738414764404,12.6740655899048,12.6742887496948,12.6745119094849,12.6747360229492,12.6749591827393,12.6751823425293,12.6754055023193,12.6756296157837,12.6758527755737,12.6760768890381,12.6763000488281,12.6765232086182,12.6767473220825,12.6769704818726,12.6771936416626,12.677417755127,12.677640914917,12.6778650283813,12.6780881881714,12.6783123016357,12.6785354614258,12.6787586212158,12.6789827346802,12.6792058944702,12.6794300079346,12.6796531677246,12.679877281189,12.680100440979,12.6803245544434,12.6805477142334,12.6807718276978,12.6809949874878,12.6812191009521,12.6814432144165,12.6816663742065,12.6818904876709,12.6821136474609,12.6823377609253,12.6825618743896,12.6827850341797,12.683009147644,12.6832323074341,12.6834564208984,12.6836805343628,12.6839036941528,12.6841278076172,12.6843519210815,12.6845750808716,12.6847991943359,12.6850233078003,12.6852464675903,12.6854705810547,12.685694694519,12.6859178543091,12.6861419677734,12.6863660812378,12.6865892410278,12.6868133544922,12.6870374679565,12.6872615814209,12.6874856948853,12.6877088546753,12.6879329681396,12.688157081604,12.6883811950684,12.6886053085327,12.6888284683228,12.6890525817871,12.6892766952515,12.6895008087158,12.6897249221802,12.6899490356445,12.6901731491089,12.6903972625732,12.6906213760376,12.6908445358276,12.691068649292,12.6912927627563,12.6915168762207,12.6917409896851,12.6919651031494,12.6921892166138,12.6924133300781,12.6926374435425,12.6928615570068,12.6930856704712,12.6933097839355,12.6935338973999,12.6937580108643,12.6939821243286,12.694206237793,12.6944303512573,12.6946544647217,12.694878578186,12.6951026916504,12.6953268051147,12.6955509185791,12.6957750320435,12.6959991455078,12.6962232589722,12.6964483261108,12.6966724395752,12.6968965530396,12.6971206665039,12.6973447799683,12.6975688934326,12.6977939605713,12.6980171203613,12.6982421875,12.6984663009644,12.6986904144287,12.6989145278931,12.6991395950317,12.6993637084961,12.6995878219604,0,0,0,0,0,0,0,0,0,0,0,0,0,0,0,0,0,0,0,0,0,0,0,0,0,0,0,0,0,0,0,0,0,0,0,0,0,0,0,0,0,0,0,0,0,0,0,0,0,0,0,0,0,0,0,0,0,0,0,0,0,0,0,0,0,0,0,0,0,0,0,0,0,0,0,0,0,0,0,0,0,0,0,0,0,0,0,0,0,0,0,0,0,0,0,0,0,0,0,0,0,0,0,0,0,0,0,0,0,0,0,0,0,0,0,0,0,0,0,0,0,0,0,0,0,0,0,0,0,0,0,0,0,0,0,0,0,0,0,0,0,0,0,0,0,0,0,0,0,0,0,0,0,0,0,0,0,0,0,0,0,0,0,0,0,0,0,0,0,0,0,0,0,0,0,0,0,0,0,0,0,0,0,0,0,0,0,0,0
12.5539379119873,12.5541572570801,12.5543766021729,12.5545959472656,12.5548143386841,12.5550346374512,12.5552530288696,12.5554723739624,12.5556917190552,12.5559110641479,12.5561304092407,12.5563497543335,12.5565690994263,12.556788444519,12.5570077896118,12.5572271347046,12.5574464797974,12.5576658248901,12.5578851699829,12.5581045150757,12.5583238601685,12.5585432052612,12.558762550354,12.5589818954468,12.5592012405396,12.5594205856323,12.5596399307251,12.5598592758179,12.560079574585,12.5602989196777,12.5605182647705,12.5607376098633,12.5609569549561,12.5611763000488,12.5613956451416,12.5616149902344,12.5618352890015,12.5620546340942,12.562273979187,12.5624933242798,12.5627126693726,12.5629320144653,12.5631523132324,12.5633716583252,12.563591003418,12.5638103485107,12.5640296936035,12.5642499923706,12.5644693374634,12.5646886825562,12.5649080276489,12.565128326416,12.5653476715088,12.5655670166016,12.5657873153687,12.5660066604614,12.5662260055542,12.5664463043213,12.5666656494141,12.5668849945068,12.5671052932739,12.5673246383667,12.5675439834595,12.5677642822266,12.5679836273193,12.5682029724121,12.5684232711792,12.568642616272,12.5688629150391,12.5690822601318,12.5693016052246,12.5695219039917,12.5697412490845,12.5699615478516,12.5701808929443,12.5704011917114,12.5706205368042,12.5708408355713,12.5710601806641,12.5712804794312,12.5714998245239,12.571720123291,12.5719394683838,12.5721597671509,12.5723791122437,12.5725994110107,12.5728187561035,12.5730390548706,12.5732593536377,12.5734786987305,12.5736989974976,12.5739183425903,12.5741386413574,12.5743589401245,12.5745782852173,12.5747985839844,12.5750179290771,12.5752382278442,12.5754585266113,12.5756778717041,12.5758981704712,12.5761184692383,12.5763378143311,12.5765581130981,12.5767784118652,12.576997756958,12.5772180557251,12.5774383544922,12.5776586532593,12.5778779983521,12.5780982971191,12.5783185958862,12.5785388946533,12.5787582397461,12.5789785385132,12.5791988372803,12.5794191360474,12.5796394348145,12.5798597335815,12.5800790786743,12.5802993774414,12.5805196762085,12.5807399749756,12.5809602737427,12.5811796188354,12.5813999176025,12.5816202163696,12.5818405151367,12.5820608139038,12.5822811126709,12.582501411438,12.5827217102051,12.5829420089722,12.5831623077393,12.5833826065063,12.5836029052734,12.5838232040405,12.5840425491333,12.5842628479004,12.5844831466675,12.5847034454346,12.5849237442017,12.5851440429688,12.5853643417358,12.5855846405029,12.5858058929443,12.5860252380371,12.5862464904785,12.5864667892456,12.5866870880127,12.5869073867798,12.5871276855469,12.587347984314,12.5875682830811,12.5877885818481,12.5880088806152,12.5882291793823,12.5884494781494,12.5886707305908,12.5888910293579,12.589111328125,12.5893316268921,12.5895519256592,12.5897722244263,12.5899934768677,12.5902137756348,12.5904340744019,12.5906543731689,12.590874671936,12.5910959243774,12.5913162231445,12.5915365219116,12.5917568206787,12.5919780731201,12.5921983718872,12.5924186706543,12.5926399230957,12.5928602218628,12.5930805206299,12.593300819397,12.5935220718384,12.5937423706055,12.5939626693726,12.594183921814,12.5944042205811,12.5946245193481,12.5948457717896,12.5950660705566,12.595287322998,12.5955076217651,12.5957279205322,12.5959491729736,12.5961694717407,12.5963897705078,12.5966110229492,12.5968313217163,12.5970525741577,12.5972728729248,12.5974941253662,12.5977144241333,12.5979356765747,12.5981559753418,12.5983772277832,12.5985975265503,12.5988187789917,12.5990390777588,12.5992603302002,12.5994806289673,12.5997018814087,12.5999221801758,12.6001434326172,12.6003637313843,12.6005849838257,12.6008062362671,12.6010265350342,12.6012477874756,12.6014680862427,12.6016893386841,12.6019105911255,12.6021308898926,12.602352142334,12.6025733947754,12.6027936935425,12.6030149459839,12.6032361984253,12.6034564971924,12.6036777496338,12.6038990020752,12.6041193008423,12.6043405532837,12.6045618057251,12.6047830581665,12.6050033569336,12.605224609375,12.6054458618164,12.6056661605835,12.6058874130249,12.6061086654663,12.6063299179077,12.6065511703491,12.6067724227905,12.6069927215576,12.607213973999,12.6074352264404,12.6076564788818,12.6078767776489,12.6080980300903,12.6083192825317,12.6085405349731,12.6087617874146,12.608983039856,12.6092042922974,12.6094255447388,12.6096467971802,12.6098670959473,12.6100883483887,0,0,0,0,0,0,0,0,0,0,0,0,0,0,0,0,0,0,0,0,0,0,0,0,0,0,0,0,0,0,0,0,0,0,0,0,0,0,0,0,0,0,0,0,0,0,0,0,0,0,0,0,0,0,0,0,0,0,0,0,0,0,0,0,0,0,0,0,0,0,0,0,0,0,0,0,0,0,0,0,0,0,0,0,0,0,0,0,0,0,0,0,0,0,0,0,0,0,0,0,0,0,0,0,0,0,0,0,0,0,0,0,0,0,0,0,0,0,0,0,0,0,0,0,0,0,0,0,0,0,0,0,0,0,0,0,0,0,0,0,0,0,0,0,0,0,0,0,0,0,0,0,0,0,0,0,0,0,0,0,0,0,0,0,0,0,0,0,0,0,0,0,0,0,0,0,0,0,0,0,0,0,0,0,0,0,0,0,0
12.4664726257324,12.4666891098022,12.4669055938721,12.4671211242676,12.4673376083374,12.4675540924072,12.4677696228027,12.4679861068726,12.4682025909424,12.4684190750122,12.4686346054077,12.4688510894775,12.4690675735474,12.4692840576172,12.4694995880127,12.4697160720825,12.4699325561523,12.4701490402222,12.470365524292,12.4705810546875,12.4707975387573,12.4710140228271,12.471230506897,12.4714469909668,12.4716634750366,12.4718790054321,12.472095489502,12.4723129272461,12.4725284576416,12.4727449417114,12.4729614257812,12.4731779098511,12.4733943939209,12.4736108779907,12.4738273620605,12.4740438461304,12.4742593765259,12.47447681427,12.4746923446655,12.4749097824097,12.4751262664795,12.4753427505493,12.4755592346191,12.475775718689,12.4759912490845,12.4762086868286,12.4764251708984,12.4766416549683,12.4768581390381,12.4770746231079,12.4772911071777,12.4775075912476,12.4777240753174,12.4779405593872,12.478157043457,12.4783735275269,12.4785900115967,12.4788064956665,12.4790239334106,12.4792404174805,12.4794569015503,12.4796733856201,12.4798898696899,12.4801063537598,12.4803237915039,12.4805402755737,12.4807567596436,12.4809732437134,12.4811897277832,12.4814071655273,12.4816236495972,12.481840133667,12.4820566177368,12.482274055481,12.4824905395508,12.4827070236206,12.4829244613647,12.4831409454346,12.4833574295044,12.4835739135742,12.4837913513184,12.4840078353882,12.484224319458,12.4844417572021,12.484658241272,12.4848747253418,12.4850912094116,12.4853086471558,12.4855251312256,12.4857425689697,12.4859590530396,12.4861755371094,12.4863929748535,12.4866094589233,12.4868268966675,12.4870433807373,12.4872598648071,12.4874773025513,12.4876937866211,12.4879112243652,12.4881277084351,12.4883451461792,12.488561630249,12.4887790679932,12.488995552063,12.4892129898071,12.489429473877,12.4896469116211,12.4898633956909,12.4900808334351,12.4902973175049,12.490514755249,12.4907321929932,12.490948677063,12.4911661148071,12.491382598877,12.4916000366211,12.4918165206909,12.4920339584351,12.4922504425049,12.492467880249,12.4926853179932,12.492901802063,12.4931192398071,12.4933366775513,12.4935541152954,12.4937705993652,12.4939880371094,12.4942045211792,12.4944219589233,12.4946393966675,12.4948558807373,12.4950733184814,12.4952907562256,12.4955081939697,12.4957246780396,12.4959421157837,12.4961595535278,12.4963760375977,12.4965934753418,12.4968109130859,12.4970283508301,12.4972457885742,12.497462272644,12.4976806640625,12.4978971481323,12.4981145858765,12.4983320236206,12.4985494613647,12.4987659454346,12.4989833831787,12.4992008209229,12.499418258667,12.4996356964111,12.4998531341553,12.5000705718994,12.5002880096436,12.5005054473877,12.5007219314575,12.5009393692017,12.5011568069458,12.5013742446899,12.5015916824341,12.5018091201782,12.5020265579224,12.5022439956665,12.5024614334106,12.5026788711548,12.5028963088989,12.5031137466431,12.5033311843872,12.5035486221313,12.5037660598755,12.5039834976196,12.5042009353638,12.5044183731079,12.5046358108521,12.5048532485962,12.5050706863403,12.5052890777588,12.5055065155029,12.5057239532471,12.5059413909912,12.5061588287354,12.5063762664795,12.5065937042236,12.5068111419678,12.5070285797119,12.5072469711304,12.5074644088745,12.5076818466187,12.5078992843628,12.5081167221069,12.5083341598511,12.5085525512695,12.5087699890137,12.5089874267578,12.5092058181763,12.5094232559204,12.5096406936646,12.5098581314087,12.5100765228271,12.5102939605713,12.5105113983154,12.5107288360596,12.5109462738037,12.5111646652222,12.5113821029663,12.5115995407104,12.5118179321289,12.512035369873,12.5122537612915,12.5124711990356,12.5126886367798,12.5129060745239,12.5131244659424,12.5133419036865,12.513560295105,12.5137777328491,12.5139961242676,12.5142135620117,12.5144309997559,12.5146493911743,12.5148668289185,12.5150852203369,12.5153026580811,12.5155210494995,12.5157384872437,12.5159559249878,12.5161743164062,12.5163927078247,12.5166101455688,12.516827583313,12.5170459747314,12.5172634124756,12.517481803894,12.5177001953125,12.5179176330566,12.5181360244751,12.5183534622192,12.5185718536377,12.5187892913818,12.5190076828003,12.5192260742188,12.5194435119629,12.5196619033813,12.5198793411255,12.5200977325439,12.5203161239624,12.5205335617065,12.520751953125,12.5209703445435,12.5211877822876,12.5214061737061,12.5216245651245,12.5218420028687,0,0,0,0,0,0,0,0,0,0,0,0,0,0,0,0,0,0,0,0,0,0,0,0,0,0,0,0,0,0,0,0,0,0,0,0,0,0,0,0,0,0,0,0,0,0,0,0,0,0,0,0,0,0,0,0,0,0,0,0,0,0,0,0,0,0,0,0,0,0,0,0,0,0,0,0,0,0,0,0,0,0,0,0,0,0,0,0,0,0,0,0,0,0,0,0,0,0,0,0,0,0,0,0,0,0,0,0,0,0,0,0,0,0,0,0,0,0,0,0,0,0,0,0,0,0,0,0,0,0,0,0,0,0,0,0,0,0,0,0,0,0,0,0,0,0,0,0,0,0,0,0,0,0,0,0,0,0,0,0,0,0,0,0,0,0,0,0,0,0,0,0,0,0,0,0,0,0,0,0,0,0,0,0,0,0,0,0,0
12.3802185058594,12.3804311752319,12.3806447982788,12.3808574676514,12.3810710906982,12.3812837600708,12.3814973831177,12.3817110061646,12.3819236755371,12.382137298584,12.3823509216309,12.3825635910034,12.3827772140503,12.3829898834229,12.3832035064697,12.3834171295166,12.3836297988892,12.383843421936,12.3840570449829,12.3842697143555,12.3844833374023,12.3846969604492,12.3849105834961,12.3851232528687,12.3853368759155,12.3855504989624,12.3857641220093,12.3859767913818,12.3861904144287,12.3864040374756,12.3866176605225,12.386830329895,12.3870439529419,12.3872575759888,12.3874711990356,12.3876848220825,12.3878984451294,12.388111114502,12.3883247375488,12.3885383605957,12.3887519836426,12.3889646530151,12.3891792297363,12.3893918991089,12.3896055221558,12.3898191452026,12.3900327682495,12.3902463912964,12.3904600143433,12.3906736373901,12.390887260437,12.3911008834839,12.3913145065308,12.3915271759033,12.3917407989502,12.3919553756714,12.3921680450439,12.3923816680908,12.392596244812,12.3928098678589,12.3930225372314,12.3932361602783,12.3934497833252,12.3936634063721,12.3938770294189,12.3940916061401,12.394305229187,12.3945188522339,12.3947324752808,12.3949460983276,12.3951597213745,12.3953733444214,12.3955869674683,12.3958005905151,12.396014213562,12.3962278366089,12.3964424133301,12.396656036377,12.3968696594238,12.3970832824707,12.3972969055176,12.3975105285645,12.3977251052856,12.3979387283325,12.3981523513794,12.3983659744263,12.3985795974731,12.3987941741943,12.3990077972412,12.3992214202881,12.399435043335,12.3996496200562,12.399863243103,12.4000768661499,12.4002904891968,12.400505065918,12.4007186889648,12.4009323120117,12.4011468887329,12.4013605117798,12.4015741348267,12.4017877578735,12.4020023345947,12.4022159576416,12.4024305343628,12.4026441574097,12.4028577804565,12.4030723571777,12.4032859802246,12.4034996032715,12.4037141799927,12.4039278030396,12.4041423797607,12.4043560028076,12.4045696258545,12.4047842025757,12.4049978256226,12.4052124023438,12.4054260253906,12.4056406021118,12.4058542251587,12.4060688018799,12.4062824249268,12.4064970016479,12.4067106246948,12.4069242477417,12.4071388244629,12.4073534011841,12.407567024231,12.4077816009521,12.407995223999,12.4082098007202,12.4084234237671,12.4086380004883,12.4088525772095,12.4090662002563,12.4092807769775,12.4094944000244,12.4097089767456,12.4099225997925,12.4101371765137,12.4103517532349,12.4105653762817,12.4107799530029,12.4109945297241,12.411208152771,12.4114227294922,12.4116373062134,12.4118509292603,12.4120655059814,12.4122800827026,12.4124946594238,12.4127082824707,12.4129228591919,12.4131374359131,12.41335105896,12.4135656356812,12.4137802124023,12.4139947891235,12.4142093658447,12.4144229888916,12.4146375656128,12.414852142334,12.4150667190552,12.4152803421021,12.4154949188232,12.4157094955444,12.4159240722656,12.4161386489868,12.416353225708,12.4165678024292,12.4167823791504,12.4169969558716,12.4172105789185,12.4174251556396,12.4176397323608,12.417854309082,12.4180688858032,12.4182834625244,12.4184980392456,12.4187126159668,12.4189262390137,12.4191417694092,12.4193563461304,12.4195709228516,12.4197845458984,12.4199991226196,12.4202136993408,12.4204292297363,12.4206438064575,12.4208583831787,12.4210720062256,12.4212875366211,12.4215021133423,12.4217166900635,12.4219312667847,12.4221458435059,12.4223604202271,12.4225749969482,12.4227895736694,12.4230041503906,12.4232187271118,12.423433303833,12.4236478805542,12.4238624572754,12.4240779876709,12.4242925643921,12.4245071411133,12.4247217178345,12.4249362945557,12.4251518249512,12.4253664016724,12.4255809783936,12.4257955551147,12.4260101318359,12.4262247085571,12.4264402389526,12.4266548156738,12.426869392395,12.4270839691162,12.4272985458374,12.4275140762329,12.4277286529541,12.4279441833496,12.4281587600708,12.428373336792,12.4285879135132,12.4288034439087,12.4290180206299,12.4292325973511,12.4294471740723,12.4296627044678,12.429877281189,12.4300928115845,12.4303073883057,12.4305219650269,12.4307374954224,12.4309520721436,12.4311666488647,12.4313821792603,12.4315967559814,12.431812286377,12.4320268630981,12.4322414398193,12.4324569702148,12.432671546936,12.4328870773315,12.4331016540527,12.4333171844482,12.4335317611694,12.4337472915649,12.4339618682861,12.4341773986816,12.4343919754028,12.4346075057983,12.4348220825195,0,0,0,0,0,0,0,0,0,0,0,0,0,0,0,0,0,0,0,0,0,0,0,0,0,0,0,0,0,0,0,0,0,0,0,0,0,0,0,0,0,0,0,0,0,0,0,0,0,0,0,0,0,0,0,0,0,0,0,0,0,0,0,0,0,0,0,0,0,0,0,0,0,0,0,0,0,0,0,0,0,0,0,0,0,0,0,0,0,0,0,0,0,0,0,0,0,0,0,0,0,0,0,0,0,0,0,0,0,0,0,0,0,0,0,0,0,0,0,0,0,0,0,0,0,0,0,0,0,0,0,0,0,0,0,0,0,0,0,0,0,0,0,0,0,0,0,0,0,0,0,0,0,0,0,0,0,0,0,0,0,0,0,0,0,0,0,0,0,0,0,0,0,0,0,0,0,0,0,0,0,0,0,0,0,0,0,0,0
12.2951488494873,12.2953586578369,12.2955694198608,12.2957792282104,12.2959899902344,12.2962007522583,12.2964105606079,12.2966203689575,12.2968311309814,12.2970418930054,12.297251701355,12.2974615097046,12.2976722717285,12.2978830337524,12.2980928421021,12.298303604126,12.2985143661499,12.2987241744995,12.2989349365234,12.299144744873,12.299355506897,12.2995662689209,12.2997760772705,12.2999868392944,12.3001976013184,12.300407409668,12.3006181716919,12.3008289337158,12.3010396957397,12.3012495040894,12.3014602661133,12.3016710281372,12.3018808364868,12.3020915985107,12.3023023605347,12.3025131225586,12.3027229309082,12.3029336929321,12.3031444549561,12.30335521698,12.3035650253296,12.3037757873535,12.3039865493774,12.3041973114014,12.3044080734253,12.3046188354492,12.3048286437988,12.3050394058228,12.3052501678467,12.3054609298706,12.3056716918945,12.3058824539185,12.3060932159424,12.306303024292,12.3065137863159,12.3067245483398,12.3069353103638,12.3071460723877,12.3073568344116,12.3075675964355,12.3077783584595,12.3079891204834,12.3081998825073,12.3084096908569,12.3086214065552,12.3088321685791,12.3090419769287,12.309253692627,12.3094644546509,12.3096742630005,12.3098859786987,12.3100967407227,12.3103075027466,12.3105182647705,12.3107290267944,12.3109397888184,12.3111505508423,12.3113613128662,12.3115720748901,12.3117828369141,12.311993598938,12.3122043609619,12.3124151229858,12.3126258850098,12.312837600708,12.3130483627319,12.3132591247559,12.3134698867798,12.3136806488037,12.3138914108276,12.3141021728516,12.3143138885498,12.3145246505737,12.3147354125977,12.3149461746216,12.3151569366455,12.3153676986694,12.3155794143677,12.3157901763916,12.3160009384155,12.3162126541138,12.3164234161377,12.3166341781616,12.3168449401855,12.3170557022095,12.3172674179077,12.3174781799316,12.3176889419556,12.3178997039795,12.3181114196777,12.3183221817017,12.3185338973999,12.3187446594238,12.3189554214478,12.319167137146,12.3193778991699,12.3195886611938,12.3198003768921,12.320011138916,12.3202219009399,12.3204336166382,12.3206443786621,12.3208560943604,12.3210668563843,12.3212776184082,12.3214893341064,12.3217000961304,12.3219118118286,12.3221225738525,12.3223342895508,12.3225450515747,12.3227567672729,12.3229675292969,12.3231792449951,12.323390007019,12.3236017227173,12.3238124847412,12.3240242004395,12.3242349624634,12.3244466781616,12.3246574401855,12.3248691558838,12.3250799179077,12.325291633606,12.3255033493042,12.3257141113281,12.3259248733521,12.3261365890503,12.3263483047485,12.3265600204468,12.3267707824707,12.3269824981689,12.3271932601929,12.3274049758911,12.3276166915894,12.3278274536133,12.3280391693115,12.3282508850098,12.3284616470337,12.3286733627319,12.3288850784302,12.3290958404541,12.3293075561523,12.3295192718506,12.3297300338745,12.3299417495728,12.330153465271,12.3303651809692,12.3305768966675,12.3307876586914,12.3309993743896,12.3312110900879,12.3314228057861,12.3316335678101,12.3318452835083,12.3320569992065,12.3322687149048,12.332480430603,12.3326921463013,12.3329029083252,12.3331146240234,12.3333263397217,12.3335380554199,12.3337497711182,12.3339614868164,12.3341732025146,12.3343839645386,12.3345956802368,12.3348073959351,12.3350191116333,12.3352308273315,12.3354425430298,12.335654258728,12.3358659744263,12.3360776901245,12.3362894058228,12.336501121521,12.3367128372192,12.3369245529175,12.3371362686157,12.337347984314,12.3375597000122,12.3377714157104,12.3379831314087,12.3381948471069,12.3384065628052,12.3386182785034,12.3388299942017,12.3390417098999,12.3392534255981,12.3394651412964,12.3396768569946,12.3398885726929,12.3401012420654,12.3403129577637,12.3405246734619,12.3407363891602,12.3409481048584,12.3411598205566,12.3413715362549,12.3415832519531,12.3417959213257,12.3420076370239,12.3422193527222,12.3424310684204,12.3426427841187,12.3428554534912,12.3430671691895,12.3432788848877,12.3434906005859,12.3437023162842,12.3439149856567,12.344126701355,12.3443384170532,12.3445501327515,12.344762802124,12.3449745178223,12.3451862335205,12.3453989028931,12.3456106185913,12.3458223342896,12.3460340499878,12.3462467193604,12.3464584350586,12.3466701507568,12.3468828201294,12.3470945358276,12.3473072052002,12.3475189208984,12.3477306365967,12.3479423522949,12.3481550216675,12.3483667373657,12.3485794067383,12.3487911224365,0,0,0,0,0,0,0,0,0,0,0,0,0,0,0,0,0,0,0,0,0,0,0,0,0,0,0,0,0,0,0,0,0,0,0,0,0,0,0,0,0,0,0,0,0,0,0,0,0,0,0,0,0,0,0,0,0,0,0,0,0,0,0,0,0,0,0,0,0,0,0,0,0,0,0,0,0,0,0,0,0,0,0,0,0,0,0,0,0,0,0,0,0,0,0,0,0,0,0,0,0,0,0,0,0,0,0,0,0,0,0,0,0,0,0,0,0,0,0,0,0,0,0,0,0,0,0,0,0,0,0,0,0,0,0,0,0,0,0,0,0,0,0,0,0,0,0,0,0,0,0,0,0,0,0,0,0,0,0,0,0,0,0,0,0,0,0,0,0,0,0,0,0,0,0,0,0,0,0,0,0,0,0,0,0,0,0,0,0,0
12.2112407684326,12.2114477157593,12.2116556167603,12.2118625640869,12.2120704650879,12.2122774124146,12.2124853134155,12.2126922607422,12.2129001617432,12.2131071090698,12.2133150100708,12.2135229110718,12.2137298583984,12.2139377593994,12.2141447067261,12.2143526077271,12.2145595550537,12.2147674560547,12.2149753570557,12.2151823043823,12.2153902053833,12.2155981063843,12.2158050537109,12.2160129547119,12.2162208557129,12.2164278030396,12.2166357040405,12.2168436050415,12.2170505523682,12.2172584533691,12.2174663543701,12.2176733016968,12.2178812026978,12.2180891036987,12.2182970046997,12.2185039520264,12.2187118530273,12.2189197540283,12.2191276550293,12.219334602356,12.2195425033569,12.2197504043579,12.2199583053589,12.2201662063599,12.2203731536865,12.2205810546875,12.2207889556885,12.2209968566895,12.2212038040161,12.2214126586914,12.2216196060181,12.221827507019,12.22203540802,12.222243309021,12.222451210022,12.2226591110229,12.2228670120239,12.2230749130249,12.2232828140259,12.2234897613525,12.2236976623535,12.2239055633545,12.2241134643555,12.2243213653564,12.2245292663574,12.2247371673584,12.2249450683594,12.2251529693604,12.2253608703613,12.2255687713623,12.2257766723633,12.2259845733643,12.2261924743652,12.2264003753662,12.2266082763672,12.2268161773682,12.2270240783691,12.2272319793701,12.2274398803711,12.2276477813721,12.227855682373,12.228063583374,12.2282724380493,12.2284803390503,12.2286882400513,12.2288961410522,12.2291040420532,12.2293119430542,12.2295198440552,12.2297286987305,12.2299356460571,12.2301445007324,12.2303524017334,12.2305603027344,12.2307682037354,12.2309770584106,12.2311849594116,12.2313928604126,12.2316007614136,12.2318086624146,12.2320175170898,12.2322254180908,12.2324333190918,12.2326412200928,12.2328500747681,12.233057975769,12.23326587677,12.233473777771,12.2336826324463,12.2338905334473,12.2340984344482,12.2343072891235,12.2345151901245,12.2347230911255,12.2349319458008,12.2351398468018,12.2353477478027,12.2355556488037,12.235764503479,12.23597240448,12.2361812591553,12.2363891601562,12.2365970611572,12.2368059158325,12.2370138168335,12.2372226715088,12.2374305725098,12.2376394271851,12.237847328186,12.238055229187,12.2382640838623,12.2384719848633,12.2386808395386,12.2388887405396,12.2390975952148,12.2393054962158,12.2395143508911,12.2397222518921,12.2399311065674,12.2401390075684,12.2403478622437,12.2405557632446,12.2407646179199,12.2409725189209,12.2411813735962,12.2413892745972,12.2415981292725,12.2418069839478,12.2420148849487,12.242223739624,12.242431640625,12.2426404953003,12.2428483963013,12.2430572509766,12.2432661056519,12.2434749603271,12.2436828613281,12.2438917160034,12.2440996170044,12.2443084716797,12.244517326355,12.244725227356,12.2449340820312,12.2451429367065,12.2453517913818,12.2455596923828,12.2457685470581,12.2459774017334,12.2461853027344,12.2463941574097,12.246603012085,12.2468118667603,12.2470197677612,12.2472286224365,12.2474374771118,12.2476463317871,12.2478542327881,12.2480630874634,12.2482719421387,12.248480796814,12.2486896514893,12.2488985061646,12.2491073608398,12.2493152618408,12.2495241165161,12.2497329711914,12.2499418258667,12.250150680542,12.250358581543,12.2505674362183,12.2507762908936,12.2509851455688,12.2511940002441,12.2514028549194,12.2516117095947,12.25182056427,12.2520294189453,12.2522382736206,12.2524471282959,12.2526550292969,12.2528648376465,12.2530736923218,12.2532825469971,12.2534914016724,12.2537002563477,12.2539081573486,12.2541179656982,12.2543268203735,12.2545356750488,12.2547445297241,12.2549533843994,12.2551622390747,12.25537109375,12.2555799484253,12.2557888031006,12.2559976577759,12.2562065124512,12.2564153671265,12.2566251754761,12.2568340301514,12.2570428848267,12.257251739502,12.2574605941772,12.2576694488525,12.2578783035278,12.2580881118774,12.2582960128784,12.258505821228,12.2587146759033,12.2589235305786,12.2591323852539,12.2593421936035,12.2595510482788,12.2597599029541,12.2599687576294,12.2601776123047,12.2603874206543,12.2605962753296,12.2608051300049,12.2610149383545,12.2612237930298,12.2614326477051,12.2616415023804,12.2618503570557,12.2620601654053,12.2622690200806,12.2624788284302,12.2626876831055,12.2628965377808,12.2631053924561,12.2633152008057,12.263524055481,12.2637338638306,12.2639427185059,12.2641515731812,0,0,0,0,0,0,0,0,0,0,0,0,0,0,0,0,0,0,0,0,0,0,0,0,0,0,0,0,0,0,0,0,0,0,0,0,0,0,0,0,0,0,0,0,0,0,0,0,0,0,0,0,0,0,0,0,0,0,0,0,0,0,0,0,0,0,0,0,0,0,0,0,0,0,0,0,0,0,0,0,0,0,0,0,0,0,0,0,0,0,0,0,0,0,0,0,0,0,0,0,0,0,0,0,0,0,0,0,0,0,0,0,0,0,0,0,0,0,0,0,0,0,0,0,0,0,0,0,0,0,0,0,0,0,0,0,0,0,0,0,0,0,0,0,0,0,0,0,0,0,0,0,0,0,0,0,0,0,0,0,0,0,0,0,0,0,0,0,0,0,0,0,0,0,0,0,0,0,0,0,0,0,0,0,0,0,0,0,0,0
12.1284694671631,12.1286745071411,12.1288785934448,12.1290836334229,12.1292877197266,12.1294927597046,12.1296977996826,12.1299018859863,12.1301069259644,12.1303119659424,12.1305160522461,12.1307210922241,12.1309251785278,12.1311302185059,12.1313352584839,12.1315393447876,12.1317443847656,12.1319494247437,12.1321535110474,12.1323585510254,12.1325635910034,12.1327676773071,12.1329727172852,12.1331777572632,12.1333827972412,12.1335868835449,12.1337919235229,12.133996963501,12.1342010498047,12.1344060897827,12.1346111297607,12.1348161697388,12.1350212097168,12.1352262496948,12.1354303359985,12.1356353759766,12.1358404159546,12.1360454559326,12.1362495422363,12.1364545822144,12.1366596221924,12.1368646621704,12.1370697021484,12.1372747421265,12.1374797821045,12.1376838684082,12.1378889083862,12.1380939483643,12.1382989883423,12.1385040283203,12.1387090682983,12.1389141082764,12.1391191482544,12.1393241882324,12.1395282745361,12.1397342681885,12.1399383544922,12.1401433944702,12.1403493881226,12.1405534744263,12.1407585144043,12.1409635543823,12.1411685943604,12.1413736343384,12.1415786743164,12.1417837142944,12.1419887542725,12.1421937942505,12.1423988342285,12.1426048278809,12.1428098678589,12.1430149078369,12.1432189941406,12.143424987793,12.143630027771,12.143835067749,12.1440401077271,12.1442451477051,12.1444501876831,12.1446552276611,12.1448602676392,12.1450662612915,12.1452713012695,12.1454763412476,12.1456813812256,12.1458864212036,12.1460914611816,12.146297454834,12.146502494812,12.14670753479,12.1469125747681,12.1471176147461,12.1473236083984,12.1475286483765,12.1477336883545,12.1479387283325,12.1481437683105,12.1483497619629,12.1485548019409,12.1487598419189,12.148964881897,12.1491708755493,12.1493759155273,12.1495809555054,12.1497869491577,12.1499919891357,12.1501970291138,12.1504030227661,12.1506080627441,12.1508131027222,12.1510190963745,12.1512241363525,12.1514291763306,12.1516351699829,12.1518402099609,12.1520462036133,12.1522512435913,12.1524562835693,12.1526622772217,12.1528673171997,12.1530733108521,12.1532783508301,12.1534833908081,12.1536893844604,12.1538944244385,12.1541004180908,12.1543054580688,12.1545104980469,12.1547164916992,12.1549215316772,12.1551275253296,12.1553335189819,12.15553855896,12.1557445526123,12.1559495925903,12.1561555862427,12.1563606262207,12.156566619873,12.1567716598511,12.1569776535034,12.1571826934814,12.1573886871338,12.1575946807861,12.1577997207642,12.1580057144165,12.1582107543945,12.1584167480469,12.1586227416992,12.1588277816772,12.1590337753296,12.1592388153076,12.15944480896,12.1596508026123,12.1598558425903,12.1600618362427,12.160267829895,12.160472869873,12.1606788635254,12.1608848571777,12.1610908508301,12.1612958908081,12.1615018844604,12.1617078781128,12.1619138717651,12.1621189117432,12.1623249053955,12.1625308990479,12.1627359390259,12.1629419326782,12.1631479263306,12.1633539199829,12.1635589599609,12.1637649536133,12.1639709472656,12.164176940918,12.1643829345703,12.1645889282227,12.1647939682007,12.164999961853,12.1652059555054,12.1654119491577,12.1656179428101,12.1658239364624,12.1660299301147,12.1662349700928,12.1664409637451,12.1666469573975,12.1668529510498,12.1670589447021,12.1672649383545,12.1674709320068,12.1676769256592,12.1678829193115,12.1680889129639,12.1682949066162,12.1685009002686,12.1687068939209,12.1689128875732,12.1691188812256,12.1693248748779,12.1695308685303,12.1697359085083,12.169942855835,12.170147895813,12.1703538894653,12.170560836792,12.1707668304443,12.1709728240967,12.171178817749,12.1713848114014,12.1715908050537,12.1717967987061,12.1720027923584,12.1722087860107,12.1724147796631,12.1726207733154,12.1728277206421,12.1730337142944,12.1732397079468,12.1734457015991,12.1736516952515,12.1738576889038,12.1740636825562,12.1742706298828,12.1744766235352,12.1746826171875,12.1748886108398,12.1750946044922,12.1753015518188,12.1755075454712,12.1757135391235,12.1759195327759,12.1761264801025,12.1763324737549,12.1765384674072,12.1767444610596,12.1769504547119,12.1771574020386,12.1773633956909,12.1775693893433,12.1777763366699,12.1779823303223,12.1781883239746,12.1783952713013,12.1786012649536,12.178807258606,12.1790142059326,12.179220199585,12.1794261932373,12.179633140564,12.1798391342163,12.180046081543,12.1802520751953,12.1804580688477,12.1806650161743,0,0,0,0,0,0,0,0,0,0,0,0,0,0,0,0,0,0,0,0,0,0,0,0,0,0,0,0,0,0,0,0,0,0,0,0,0,0,0,0,0,0,0,0,0,0,0,0,0,0,0,0,0,0,0,0,0,0,0,0,0,0,0,0,0,0,0,0,0,0,0,0,0,0,0,0,0,0,0,0,0,0,0,0,0,0,0,0,0,0,0,0,0,0,0,0,0,0,0,0,0,0,0,0,0,0,0,0,0,0,0,0,0,0,0,0,0,0,0,0,0,0,0,0,0,0,0,0,0,0,0,0,0,0,0,0,0,0,0,0,0,0,0,0,0,0,0,0,0,0,0,0,0,0,0,0,0,0,0,0,0,0,0,0,0,0,0,0,0,0,0,0,0,0,0,0,0,0,0,0,0,0,0,0,0,0,0,0,0,0
12.0468130111694,12.0470151901245,12.0472173690796,12.0474185943604,12.0476207733154,12.0478229522705,12.0480251312256,12.0482263565063,12.0484285354614,12.0486307144165,12.0488328933716,12.0490341186523,12.0492362976074,12.0494384765625,12.0496397018433,12.0498418807983,12.0500440597534,12.0502462387085,12.0504484176636,12.0506505966187,12.0508527755737,12.0510540008545,12.0512561798096,12.0514583587646,12.0516595840454,12.0518627166748,12.0520639419556,12.0522661209106,12.0524682998657,12.0526704788208,12.0528726577759,12.053074836731,12.053277015686,12.0534782409668,12.0536804199219,12.053882598877,12.054084777832,12.0542869567871,12.0544891357422,12.0546913146973,12.0548934936523,12.0550956726074,12.0552978515625,12.0555000305176,12.0557022094727,12.0559043884277,12.0561065673828,12.0563087463379,12.056510925293,12.056713104248,12.0569152832031,12.0571174621582,12.0573196411133,12.0575218200684,12.0577239990234,12.0579261779785,12.0581283569336,12.0583305358887,12.0585327148438,12.0587358474731,12.0589370727539,12.0591402053833,12.0593423843384,12.0595445632935,12.0597467422485,12.0599489212036,12.0601511001587,12.0603532791138,12.0605554580688,12.0607585906982,12.0609607696533,12.0611629486084,12.0613651275635,12.0615673065186,12.0617704391479,12.061972618103,12.0621747970581,12.0623769760132,12.0625791549683,12.0627822875977,12.0629844665527,12.0631866455078,12.0633888244629,12.0635919570923,12.0637941360474,12.0639963150024,12.0641984939575,12.0644016265869,12.064603805542,12.0648059844971,12.0650091171265,12.0652112960815,12.0654134750366,12.065616607666,12.0658187866211,12.0660209655762,12.0662240982056,12.0664262771606,12.0666284561157,12.0668315887451,12.0670337677002,12.0672359466553,12.0674390792847,12.0676412582397,12.0678443908691,12.0680465698242,12.0682497024536,12.0684518814087,12.0686550140381,12.0688571929932,12.0690593719482,12.0692625045776,12.0694646835327,12.0696678161621,12.0698699951172,12.0700721740723,12.0702753067017,12.0704784393311,12.0706806182861,12.0708837509155,12.0710859298706,12.0712881088257,12.0714912414551,12.0716943740845,12.0718965530396,12.0720996856689,12.072301864624,12.0725049972534,12.0727071762085,12.0729103088379,12.0731134414673,12.0733156204224,12.0735187530518,12.0737218856812,12.0739240646362,12.0741271972656,12.0743293762207,12.0745325088501,12.0747356414795,12.0749378204346,12.075140953064,12.0753440856934,12.0755462646484,12.0757493972778,12.0759525299072,12.0761556625366,12.0763578414917,12.0765609741211,12.0767641067505,12.0769662857056,12.077169418335,12.0773725509644,12.0775756835938,12.0777778625488,12.0779809951782,12.0781841278076,12.078387260437,12.0785894393921,12.0787925720215,12.0789957046509,12.0791988372803,12.0794019699097,12.0796051025391,12.0798082351685,12.0800104141235,12.0802135467529,12.0804166793823,12.0806198120117,12.0808229446411,12.0810251235962,12.0812282562256,12.081431388855,12.0816345214844,12.0818376541138,12.0820407867432,12.0822439193726,12.082447052002,12.0826501846313,12.0828533172607,12.0830564498901,12.0832586288452,12.0834617614746,12.0836658477783,12.0838680267334,12.0840721130371,12.0842742919922,12.0844774246216,12.084680557251,12.0848836898804,12.0850877761841,12.0852899551392,12.0854930877686,12.0856971740723,12.0858993530273,12.0861034393311,12.0863065719604,12.0865087509155,12.0867128372192,12.0869159698486,12.087119102478,12.0873222351074,12.0875253677368,12.0877285003662,12.0879316329956,12.0881357192993,12.0883378982544,12.0885419845581,12.0887451171875,12.0889482498169,12.0891513824463,12.0893545150757,12.0895586013794,12.0897617340088,12.0899648666382,12.0901679992676,12.090371131897,12.0905752182007,12.0907783508301,12.0909814834595,12.0911846160889,12.0913877487183,12.091591835022,12.0917949676514,12.0919981002808,12.0922012329102,12.0924053192139,12.0926084518433,12.0928115844727,12.0930156707764,12.0932188034058,12.0934219360352,12.0936260223389,12.0938291549683,12.0940322875977,12.0942363739014,12.0944395065308,12.0946426391602,12.0948467254639,12.0950498580933,12.0952529907227,12.0954570770264,12.0956602096558,12.0958633422852,12.0960674285889,12.0962705612183,12.0964736938477,12.0966777801514,12.0968818664551,12.0970849990845,12.0972890853882,12.0974922180176,12.097695350647,12.0978994369507,12.0981025695801,12.0983066558838,0,0,0,0,0,0,0,0,0,0,0,0,0,0,0,0,0,0,0,0,0,0,0,0,0,0,0,0,0,0,0,0,0,0,0,0,0,0,0,0,0,0,0,0,0,0,0,0,0,0,0,0,0,0,0,0,0,0,0,0,0,0,0,0,0,0,0,0,0,0,0,0,0,0,0,0,0,0,0,0,0,0,0,0,0,0,0,0,0,0,0,0,0,0,0,0,0,0,0,0,0,0,0,0,0,0,0,0,0,0,0,0,0,0,0,0,0,0,0,0,0,0,0,0,0,0,0,0,0,0,0,0,0,0,0,0,0,0,0,0,0,0,0,0,0,0,0,0,0,0,0,0,0,0,0,0,0,0,0,0,0,0,0,0,0,0,0,0,0,0,0,0,0,0,0,0,0,0,0,0,0,0,0,0,0,0,0,0,0,0
11.9662494659424,11.9664487838745,11.9666471481323,11.9668464660645,11.9670457839966,11.9672451019287,11.9674444198608,11.967643737793,11.9678430557251,11.9680423736572,11.9682416915894,11.9684410095215,11.9686403274536,11.9688386917114,11.9690389633179,11.9692373275757,11.9694366455078,11.9696359634399,11.9698352813721,11.9700345993042,11.9702339172363,11.9704332351685,11.9706325531006,11.9708318710327,11.9710311889648,11.971230506897,11.9714298248291,11.9716291427612,11.9718284606934,11.9720277786255,11.9722280502319,11.9724273681641,11.9726257324219,11.9728260040283,11.9730253219604,11.9732246398926,11.9734239578247,11.9736232757568,11.973822593689,11.9740219116211,11.9742221832275,11.9744215011597,11.9746208190918,11.9748201370239,11.9750194549561,11.9752187728882,11.9754180908203,11.9756183624268,11.9758176803589,11.976016998291,11.9762163162231,11.9764156341553,11.9766149520874,11.9768152236938,11.977014541626,11.9772138595581,11.9774131774902,11.9776134490967,11.9778127670288,11.9780120849609,11.9782114028931,11.9784116744995,11.9786109924316,11.9788103103638,11.9790096282959,11.9792098999023,11.9794092178345,11.9796085357666,11.979808807373,11.9800081253052,11.9802074432373,11.9804077148438,11.9806070327759,11.980806350708,11.9810066223145,11.9812059402466,11.981406211853,11.9816055297852,11.9818058013916,11.9820051193237,11.9822044372559,11.982403755188,11.9826040267944,11.9828033447266,11.983003616333,11.9832029342651,11.9834032058716,11.9836025238037,11.9838027954102,11.9840021133423,11.9842023849487,11.9844017028809,11.984601020813,11.9848012924194,11.9850015640259,11.985200881958,11.9854011535645,11.9856004714966,11.9857997894287,11.9860000610352,11.9862003326416,11.9863996505737,11.9865999221802,11.9867992401123,11.9869995117188,11.9871997833252,11.9873991012573,11.9875993728638,11.9877986907959,11.9879989624023,11.9881992340088,11.9883985519409,11.9885988235474,11.9887981414795,11.9889984130859,11.9891986846924,11.9893980026245,11.989598274231,11.9897985458374,11.9899978637695,11.990198135376,11.9903984069824,11.9905977249146,11.990797996521,11.9909982681274,11.9911975860596,11.991397857666,11.9915981292725,11.9917984008789,11.9919986724854,11.9921979904175,11.9923982620239,11.9925985336304,11.9927988052368,11.9929990768433,11.9931983947754,11.9933986663818,11.9935989379883,11.9937992095947,11.9939985275269,11.9941987991333,11.9943990707397,11.9945993423462,11.9947986602783,11.9949989318848,11.9952001571655,11.9953994750977,11.9955997467041,11.9958000183105,11.996000289917,11.9962005615234,11.9963998794556,11.9966011047363,11.9968004226685,11.9970006942749,11.9972009658813,11.9974012374878,11.9976015090942,11.9978017807007,11.9980020523071,11.9982023239136,11.99840259552,11.9986028671265,11.9988031387329,11.9990034103394,11.9992036819458,11.9994039535522,11.9996042251587,11.9998044967651,12.0000047683716,12.000205039978,12.0004053115845,12.0006055831909,12.0008058547974,12.0010061264038,12.0012063980103,12.0014066696167,12.0016078948975,12.0018081665039,12.0020084381104,12.0022087097168,12.0024089813232,12.0026092529297,12.0028095245361,12.0030097961426,12.003210067749,12.0034112930298,12.0036115646362,12.0038118362427,12.0040121078491,12.0042123794556,12.004412651062,12.0046129226685,12.0048141479492,12.0050144195557,12.0052146911621,12.0054149627686,12.0056161880493,12.0058164596558,12.0060167312622,12.0062170028687,12.0064172744751,12.0066184997559,12.0068187713623,12.0070190429688,12.0072202682495,12.007420539856,12.0076208114624,12.0078210830688,12.0080223083496,12.0082225799561,12.0084228515625,12.0086240768433,12.0088243484497,12.0090246200562,12.0092258453369,12.0094261169434,12.0096263885498,12.0098276138306,12.010027885437,12.0102291107178,12.0104293823242,12.0106296539307,12.0108308792114,12.0110311508179,12.0112323760986,12.0114326477051,12.0116338729858,12.0118341445923,12.012035369873,12.0122356414795,12.0124359130859,12.0126371383667,12.0128374099731,12.0130386352539,12.0132389068604,12.0134401321411,12.0136404037476,12.0138416290283,12.0140419006348,12.0142431259155,12.014443397522,12.0146446228027,12.0148458480835,12.0150461196899,12.0152463912964,12.0154476165771,12.0156488418579,12.0158500671387,12.0160503387451,12.0162506103516,12.0164518356323,12.0166530609131,12.0168533325195,12.0170545578003,0,0,0,0,0,0,0,0,0,0,0,0,0,0,0,0,0,0,0,0,0,0,0,0,0,0,0,0,0,0,0,0,0,0,0,0,0,0,0,0,0,0,0,0,0,0,0,0,0,0,0,0,0,0,0,0,0,0,0,0,0,0,0,0,0,0,0,0,0,0,0,0,0,0,0,0,0,0,0,0,0,0,0,0,0,0,0,0,0,0,0,0,0,0,0,0,0,0,0,0,0,0,0,0,0,0,0,0,0,0,0,0,0,0,0,0,0,0,0,0,0,0,0,0,0,0,0,0,0,0,0,0,0,0,0,0,0,0,0,0,0,0,0,0,0,0,0,0,0,0,0,0,0,0,0,0,0,0,0,0,0,0,0,0,0,0,0,0,0,0,0,0,0,0,0,0,0,0,0,0,0,0,0,0,0,0,0,0,0,0
11.8867559432983,11.8869524002075,11.8871488571167,11.8873453140259,11.8875417709351,11.8877382278442,11.8879346847534,11.8881320953369,11.8883275985718,11.8885250091553,11.8887214660645,11.8889179229736,11.8891143798828,11.8893117904663,11.8895072937012,11.8897037506104,11.8899011611938,11.890097618103,11.8902940750122,11.8904914855957,11.8906869888306,11.8908843994141,11.8910808563232,11.8912773132324,11.8914747238159,11.8916711807251,11.8918676376343,11.8920640945435,11.892261505127,11.8924579620361,11.8926544189453,11.8928508758545,11.893048286438,11.8932447433472,11.8934412002563,11.8936386108398,11.893835067749,11.8940315246582,11.8942289352417,11.8944253921509,11.8946218490601,11.8948192596436,11.8950157165527,11.8952131271362,11.8954095840454,11.8956069946289,11.8958034515381,11.8959999084473,11.8961973190308,11.8963937759399,11.8965911865234,11.8967876434326,11.8969841003418,11.8971815109253,11.8973779678345,11.897575378418,11.8977718353271,11.8979682922363,11.8981657028198,11.8983631134033,11.8985595703125,11.8987560272217,11.8989534378052,11.8991498947144,11.8993473052979,11.8995447158813,11.8997411727905,11.899938583374,11.9001350402832,11.9003314971924,11.9005289077759,11.9007263183594,11.9009237289429,11.9011201858521,11.9013166427612,11.9015140533447,11.9017114639282,11.9019079208374,11.9021053314209,11.9023017883301,11.9024991989136,11.9026966094971,11.9028940200806,11.9030904769897,11.9032878875732,11.9034843444824,11.9036817550659,11.9038791656494,11.9040765762329,11.9042730331421,11.9044704437256,11.9046678543091,11.9048643112183,11.9050617218018,11.9052591323853,11.9054565429688,11.9056529998779,11.9058504104614,11.9060478210449,11.9062452316284,11.9064416885376,11.9066390991211,11.9068365097046,11.9070339202881,11.9072303771973,11.9074277877808,11.9076251983643,11.9078226089478,11.9080200195312,11.9082174301147,11.9084138870239,11.9086112976074,11.9088087081909,11.9090061187744,11.9092035293579,11.9094009399414,11.9095973968506,11.9097948074341,11.9099922180176,11.9101896286011,11.9103870391846,11.9105844497681,11.9107818603516,11.9109792709351,11.9111766815186,11.9113740921021,11.9115705490112,11.911768913269,11.9119653701782,11.9121627807617,11.9123601913452,11.9125576019287,11.9127550125122,11.9129524230957,11.9131498336792,11.9133472442627,11.9135446548462,11.913743019104,11.9139404296875,11.9141368865967,11.9143342971802,11.9145317077637,11.9147291183472,11.914927482605,11.9151248931885,11.915322303772,11.9155197143555,11.915717124939,11.9159145355225,11.916111946106,11.9163093566895,11.9165067672729,11.9167041778564,11.9169015884399,11.9170999526978,11.9172973632812,11.9174947738647,11.9176921844482,11.9178895950317,11.9180879592896,11.918285369873,11.9184827804565,11.91868019104,11.9188776016235,11.919075012207,11.9192733764648,11.9194707870483,11.9196681976318,11.9198656082153,11.9200639724731,11.9202613830566,11.9204587936401,11.9206562042236,11.9208545684814,11.9210519790649,11.9212493896484,11.9214477539062,11.9216442108154,11.9218425750732,11.9220399856567,11.9222383499146,11.922435760498,11.9226331710815,11.922830581665,11.9230289459229,11.9232263565063,11.9234247207642,11.9236221313477,11.9238195419312,11.924017906189,11.9242153167725,11.924412727356,11.9246110916138,11.9248085021973,11.9250059127808,11.9252042770386,11.9254026412964,11.9256000518799,11.9257974624634,11.9259958267212,11.9261932373047,11.9263916015625,11.926589012146,11.9267873764038,11.9269847869873,11.9271831512451,11.9273805618286,11.9275789260864,11.9277763366699,11.9279747009277,11.9281721115112,11.928370475769,11.9285678863525,11.9287662506104,11.9289636611938,11.9291620254517,11.9293594360352,11.929557800293,11.9297561645508,11.9299535751343,11.9301519393921,11.9303493499756,11.9305477142334,11.9307460784912,11.9309434890747,11.9311418533325,11.931339263916,11.9315376281738,11.9317359924316,11.9319334030151,11.9321317672729,11.9323301315308,11.9325275421143,11.9327259063721,11.9329242706299,11.9331216812134,11.9333200454712,11.9335174560547,11.9337158203125,11.9339141845703,11.9341125488281,11.9343109130859,11.9345083236694,11.9347066879272,11.9349050521851,11.9351034164429,11.9353008270264,11.9354991912842,11.935697555542,11.9358959197998,11.9360933303833,11.9362916946411,11.9364900588989,11.9366884231567,0,0,0,0,0,0,0,0,0,0,0,0,0,0,0,0,0,0,0,0,0,0,0,0,0,0,0,0,0,0,0,0,0,0,0,0,0,0,0,0,0,0,0,0,0,0,0,0,0,0,0,0,0,0,0,0,0,0,0,0,0,0,0,0,0,0,0,0,0,0,0,0,0,0,0,0,0,0,0,0,0,0,0,0,0,0,0,0,0,0,0,0,0,0,0,0,0,0,0,0,0,0,0,0,0,0,0,0,0,0,0,0,0,0,0,0,0,0,0,0,0,0,0,0,0,0,0,0,0,0,0,0,0,0,0,0,0,0,0,0,0,0,0,0,0,0,0,0,0,0,0,0,0,0,0,0,0,0,0,0,0,0,0,0,0,0,0,0,0,0,0,0,0,0,0,0,0,0,0,0,0,0,0,0,0,0,0,0,0,0,0
11.8083114624023,11.8085050582886,11.8086986541748,11.8088932037354,11.8090867996216,11.8092813491821,11.8094749450684,11.8096685409546,11.8098630905151,11.8100566864014,11.8102512359619,11.8104448318481,11.8106393814087,11.8108329772949,11.8110265731812,11.8112211227417,11.8114156723022,11.8116092681885,11.8118028640747,11.8119974136353,11.8121910095215,11.812385559082,11.8125801086426,11.8127737045288,11.812967300415,11.8131618499756,11.8133563995361,11.8135499954224,11.8137445449829,11.8139381408691,11.8141326904297,11.8143272399902,11.8145208358765,11.814715385437,11.8149089813232,11.8151035308838,11.8152980804443,11.8154916763306,11.8156862258911,11.8158807754517,11.8160743713379,11.8162689208984,11.8164625167847,11.8166570663452,11.8168516159058,11.817045211792,11.8172397613525,11.8174343109131,11.8176279067993,11.8178224563599,11.8180170059204,11.8182106018066,11.8184051513672,11.8185997009277,11.8187942504883,11.8189878463745,11.8191823959351,11.8193769454956,11.8195714950562,11.8197650909424,11.8199596405029,11.8201541900635,11.820348739624,11.8205423355103,11.8207368850708,11.8209314346313,11.8211259841919,11.8213205337524,11.821515083313,11.8217086791992,11.8219032287598,11.8220977783203,11.8222923278809,11.8224868774414,11.822681427002,11.8228759765625,11.8230695724487,11.8232641220093,11.8234586715698,11.8236532211304,11.8238477706909,11.8240423202515,11.824236869812,11.8244314193726,11.8246259689331,11.8248195648193,11.8250141143799,11.8252096176147,11.8254041671753,11.8255977630615,11.8257923126221,11.8259868621826,11.8261814117432,11.8263759613037,11.8265705108643,11.8267650604248,11.8269596099854,11.8271541595459,11.8273496627808,11.827543258667,11.8277378082275,11.8279323577881,11.8281278610229,11.8283224105835,11.828516960144,11.8287115097046,11.8289060592651,11.8291006088257,11.8292951583862,11.8294897079468,11.8296842575073,11.8298788070679,11.8300733566284,11.8302688598633,11.8304634094238,11.8306579589844,11.8308525085449,11.8310470581055,11.831241607666,11.8314371109009,11.8316316604614,11.831826210022,11.8320207595825,11.8322153091431,11.8324098587036,11.8326053619385,11.832799911499,11.8329944610596,11.8331890106201,11.833384513855,11.8335790634155,11.8337736129761,11.8339681625366,11.8341636657715,11.834358215332,11.8345527648926,11.8347482681274,11.834942817688,11.8351373672485,11.8353319168091,11.8355264663696,11.8357219696045,11.835916519165,11.8361110687256,11.8363065719604,11.836501121521,11.8366966247559,11.8368911743164,11.8370866775513,11.8372802734375,11.8374757766724,11.8376703262329,11.8378658294678,11.8380603790283,11.8382549285889,11.8384504318237,11.8386449813843,11.8388404846191,11.839035987854,11.8392305374146,11.8394250869751,11.8396196365356,11.8398151397705,11.8400106430054,11.8402051925659,11.8403997421265,11.8405952453613,11.8407907485962,11.8409852981567,11.8411798477173,11.8413753509521,11.8415699005127,11.8417654037476,11.8419609069824,11.842155456543,11.8423509597778,11.8425455093384,11.8427410125732,11.8429355621338,11.8431310653687,11.8433265686035,11.8435211181641,11.8437166213989,11.8439111709595,11.8441066741943,11.8443012237549,11.8444967269897,11.8446912765503,11.8448867797852,11.84508228302,11.8452768325806,11.8454732894897,11.8456678390503,11.8458623886108,11.8460578918457,11.8462533950806,11.8464488983154,11.846643447876,11.8468389511108,11.8470344543457,11.8472290039062,11.8474245071411,11.847620010376,11.8478145599365,11.8480100631714,11.8482055664062,11.8484010696411,11.848596572876,11.8487920761108,11.8489866256714,11.8491821289062,11.8493776321411,11.8495721817017,11.8497676849365,11.8499631881714,11.8501586914062,11.8503541946411,11.850549697876,11.8507452011108,11.8509397506714,11.8511352539062,11.8513307571411,11.851526260376,11.8517217636108,11.8519163131714,11.8521118164062,11.8523073196411,11.852502822876,11.8526983261108,11.8528938293457,11.8530893325806,11.8532848358154,11.8534803390503,11.8536758422852,11.85387134552,11.8540668487549,11.8542623519897,11.8544578552246,11.8546524047852,11.8548488616943,11.8550434112549,11.8552389144897,11.8554344177246,11.8556299209595,11.8558263778687,11.8560218811035,11.8562173843384,11.8564119338989,11.8566083908081,11.856803894043,11.8569993972778,11.8571949005127,11.8573904037476,11.8575859069824,0,0,0,0,0,0,0,0,0,0,0,0,0,0,0,0,0,0,0,0,0,0,0,0,0,0,0,0,0,0,0,0,0,0,0,0,0,0,0,0,0,0,0,0,0,0,0,0,0,0,0,0,0,0,0,0,0,0,0,0,0,0,0,0,0,0,0,0,0,0,0,0,0,0,0,0,0,0,0,0,0,0,0,0,0,0,0,0,0,0,0,0,0,0,0,0,0,0,0,0,0,0,0,0,0,0,0,0,0,0,0,0,0,0,0,0,0,0,0,0,0,0,0,0,0,0,0,0,0,0,0,0,0,0,0,0,0,0,0,0,0,0,0,0,0,0,0,0,0,0,0,0,0,0,0,0,0,0,0,0,0,0,0,0,0,0,0,0,0,0,0,0,0,0,0,0,0,0,0,0,0,0,0,0,0,0,0,0,0,0,0
11.7308950424194,11.731086730957,11.7312784194946,11.7314691543579,11.7316608428955,11.7318525314331,11.7320442199707,11.732234954834,11.7324266433716,11.7326183319092,11.7328100204468,11.7330017089844,11.7331924438477,11.7333841323853,11.7335758209229,11.7337675094604,11.7339582443237,11.7341499328613,11.7343416213989,11.7345333099365,11.7347249984741,11.7349166870117,11.735107421875,11.7352991104126,11.7354907989502,11.7356824874878,11.7358741760254,11.736065864563,11.7362575531006,11.7364492416382,11.7366409301758,11.7368326187134,11.737024307251,11.7372150421143,11.7374067306519,11.7375984191895,11.7377901077271,11.7379817962646,11.7381734848022,11.7383651733398,11.7385568618774,11.738748550415,11.7389402389526,11.7391319274902,11.7393236160278,11.7395153045654,11.739706993103,11.7398986816406,11.7400903701782,11.7402820587158,11.7404737472534,11.740665435791,11.7408571243286,11.7410488128662,11.7412414550781,11.7414321899414,11.7416248321533,11.7418165206909,11.7420082092285,11.7421998977661,11.7423915863037,11.7425832748413,11.7427749633789,11.7429666519165,11.7431592941284,11.743350982666,11.7435426712036,11.7437343597412,11.7439260482788,11.7441177368164,11.7443103790283,11.7445011138916,11.7446937561035,11.7448854446411,11.7450771331787,11.7452688217163,11.7454614639282,11.7456521987915,11.7458448410034,11.746036529541,11.7462291717529,11.7464208602905,11.7466125488281,11.7468042373657,11.7469959259033,11.7471885681152,11.7473802566528,11.7475719451904,11.747763633728,11.7479562759399,11.7481479644775,11.7483406066895,11.7485322952271,11.7487239837646,11.7489156723022,11.7491083145142,11.7493000030518,11.7494916915894,11.7496843338013,11.7498760223389,11.7500677108765,11.7502603530884,11.7504529953003,11.7506446838379,11.7508363723755,11.7510280609131,11.751220703125,11.7514123916626,11.7516050338745,11.7517967224121,11.7519884109497,11.7521810531616,11.7523736953735,11.7525653839111,11.752758026123,11.7529497146606,11.7531414031982,11.7533340454102,11.7535257339478,11.7537183761597,11.7539100646973,11.7541027069092,11.7542943954468,11.7544870376587,11.7546787261963,11.7548713684082,11.7550630569458,11.7552556991577,11.7554483413696,11.7556400299072,11.7558326721191,11.7560243606567,11.7562170028687,11.7564086914062,11.7566013336182,11.7567939758301,11.7569856643677,11.7571783065796,11.7573699951172,11.7575626373291,11.757755279541,11.7579479217529,11.7581396102905,11.7583312988281,11.75852394104,11.758716583252,11.7589092254639,11.7591009140015,11.7592935562134,11.7594861984253,11.7596778869629,11.7598705291748,11.7600631713867,11.7602548599243,11.7604475021362,11.7606401443481,11.7608327865601,11.761025428772,11.7612171173096,11.7614097595215,11.7616024017334,11.7617950439453,11.7619867324829,11.7621793746948,11.7623720169067,11.7625637054443,11.7627563476562,11.7629489898682,11.7631416320801,11.763334274292,11.7635269165039,11.7637195587158,11.7639122009277,11.7641038894653,11.7642965316772,11.7644891738892,11.7646818161011,11.764874458313,11.7650671005249,11.7652597427368,11.7654514312744,11.7656440734863,11.7658367156982,11.7660293579102,11.7662220001221,11.766414642334,11.7666072845459,11.7667999267578,11.7669925689697,11.7671852111816,11.7673778533936,11.7675704956055,11.7677621841431,11.7679557800293,11.7681484222412,11.7683410644531,11.768533706665,11.7687253952026,11.7689180374146,11.7691116333008,11.7693042755127,11.7694969177246,11.7696895599365,11.7698822021484,11.7700748443604,11.7702674865723,11.7704601287842,11.7706527709961,11.770845413208,11.7710380554199,11.7712316513062,11.7714233398438,11.77161693573,11.7718095779419,11.7720022201538,11.7721948623657,11.7723875045776,11.7725801467896,11.7727727890015,11.7729663848877,11.7731590270996,11.7733516693115,11.7735443115234,11.7737369537354,11.7739295959473,11.7741222381592,11.7743158340454,11.7745084762573,11.7747011184692,11.7748947143555,11.7750873565674,11.7752799987793,11.7754726409912,11.7756662368774,11.7758588790894,11.7760515213013,11.7762441635132,11.7764368057251,11.7766304016113,11.7768230438232,11.7770156860352,11.7772092819214,11.7774019241333,11.7775945663452,11.7777881622314,11.7779808044434,11.7781734466553,11.7783660888672,11.7785596847534,11.7787523269653,11.7789459228516,11.7791385650635,11.7793312072754,11.7795238494873,0,0,0,0,0,0,0,0,0,0,0,0,0,0,0,0,0,0,0,0,0,0,0,0,0,0,0,0,0,0,0,0,0,0,0,0,0,0,0,0,0,0,0,0,0,0,0,0,0,0,0,0,0,0,0,0,0,0,0,0,0,0,0,0,0,0,0,0,0,0,0,0,0,0,0,0,0,0,0,0,0,0,0,0,0,0,0,0,0,0,0,0,0,0,0,0,0,0,0,0,0,0,0,0,0,0,0,0,0,0,0,0,0,0,0,0,0,0,0,0,0,0,0,0,0,0,0,0,0,0,0,0,0,0,0,0,0,0,0,0,0,0,0,0,0,0,0,0,0,0,0,0,0,0,0,0,0,0,0,0,0,0,0,0,0,0,0,0,0,0,0,0,0,0,0,0,0,0,0,0,0,0,0,0,0,0,0,0,0,0,0
11.6544876098633,11.6546764373779,11.6548652648926,11.6550550460815,11.6552438735962,11.6554327011108,11.6556215286255,11.6558103561401,11.6560001373291,11.6561889648438,11.6563777923584,11.656566619873,11.6567554473877,11.6569442749023,11.6571340560913,11.6573219299316,11.6575117111206,11.6577005386353,11.6578893661499,11.6580791473389,11.6582679748535,11.6584568023682,11.6586456298828,11.6588354110718,11.6590242385864,11.6592130661011,11.6594018936157,11.6595916748047,11.6597805023193,11.659969329834,11.6601591110229,11.6603479385376,11.6605367660522,11.6607255935669,11.6609153747559,11.6611042022705,11.6612939834595,11.6614828109741,11.6616716384888,11.6618604660034,11.6620502471924,11.662239074707,11.662428855896,11.6626176834106,11.6628065109253,11.6629962921143,11.6631851196289,11.6633749008179,11.6635637283325,11.6637525558472,11.6639423370361,11.6641311645508,11.6643209457397,11.6645097732544,11.664698600769,11.664888381958,11.665078163147,11.6652669906616,11.6654558181763,11.6656455993652,11.6658344268799,11.6660242080688,11.6662139892578,11.6664028167725,11.6665916442871,11.6667814254761,11.6669702529907,11.6671600341797,11.6673498153687,11.6675386428833,11.6677274703979,11.6679172515869,11.6681070327759,11.6682958602905,11.6684856414795,11.6686754226685,11.6688642501831,11.6690540313721,11.6692428588867,11.6694326400757,11.6696224212646,11.6698112487793,11.6700010299683,11.6701898574829,11.6703796386719,11.6705694198608,11.6707582473755,11.6709480285645,11.6711378097534,11.6713275909424,11.671516418457,11.671706199646,11.6718950271606,11.6720848083496,11.6722745895386,11.6724643707275,11.6726541519165,11.6728429794312,11.6730327606201,11.6732215881348,11.6734113693237,11.6736011505127,11.6737899780273,11.6739797592163,11.6741695404053,11.6743593215942,11.6745491027832,11.6747388839722,11.6749286651611,11.6751174926758,11.6753072738647,11.6754970550537,11.6756868362427,11.6758756637573,11.6760654449463,11.6762552261353,11.6764450073242,11.6766347885132,11.6768245697021,11.6770143508911,11.6772041320801,11.677393913269,11.677583694458,11.6777725219727,11.6779623031616,11.6781520843506,11.6783418655396,11.6785316467285,11.6787214279175,11.6789112091064,11.6791009902954,11.6792907714844,11.6794805526733,11.6796703338623,11.6798601150513,11.6800489425659,11.6802396774292,11.6804294586182,11.6806192398071,11.6808090209961,11.6809988021851,11.681188583374,11.681378364563,11.681568145752,11.6817579269409,11.6819477081299,11.6821374893188,11.6823272705078,11.6825170516968,11.6827068328857,11.6828966140747,11.6830863952637,11.6832761764526,11.6834659576416,11.6836557388306,11.6838455200195,11.6840362548828,11.6842260360718,11.6844158172607,11.6846055984497,11.6847953796387,11.6849851608276,11.6851749420166,11.6853656768799,11.6855545043945,11.6857452392578,11.6859350204468,11.6861248016357,11.6863145828247,11.686505317688,11.686695098877,11.6868848800659,11.6870756149292,11.6872653961182,11.6874542236328,11.6876449584961,11.6878347396851,11.6880254745483,11.6882152557373,11.6884050369263,11.6885948181152,11.6887845993042,11.6889753341675,11.6891651153564,11.6893548965454,11.6895456314087,11.6897354125977,11.6899251937866,11.6901159286499,11.6903057098389,11.6904954910278,11.6906852722168,11.6908760070801,11.691065788269,11.6912565231323,11.6914463043213,11.6916370391846,11.6918268203735,11.6920166015625,11.6922073364258,11.6923971176147,11.6925868988037,11.692777633667,11.692967414856,11.6931581497192,11.6933479309082,11.6935377120972,11.6937284469604,11.6939182281494,11.6941089630127,11.6942987442017,11.6944894790649,11.6946792602539,11.6948699951172,11.6950597763062,11.6952505111694,11.6954402923584,11.6956300735474,11.6958208084106,11.6960115432739,11.6962022781372,11.6963920593262,11.6965818405151,11.6967725753784,11.6969623565674,11.6971530914307,11.6973438262939,11.6975336074829,11.6977243423462,11.6979141235352,11.6981048583984,11.6982955932617,11.6984853744507,11.6986751556396,11.6988658905029,11.6990566253662,11.6992473602295,11.6994371414185,11.6996278762817,11.6998176574707,11.700008392334,11.7001991271973,11.7003889083862,11.7005796432495,11.7007703781128,11.7009601593018,11.701150894165,11.7013416290283,11.7015323638916,11.7017221450806,11.7019128799438,11.7021036148071,11.7022933959961,11.7024841308594,0,0,0,0,0,0,0,0,0,0,0,0,0,0,0,0,0,0,0,0,0,0,0,0,0,0,0,0,0,0,0,0,0,0,0,0,0,0,0,0,0,0,0,0,0,0,0,0,0,0,0,0,0,0,0,0,0,0,0,0,0,0,0,0,0,0,0,0,0,0,0,0,0,0,0,0,0,0,0,0,0,0,0,0,0,0,0,0,0,0,0,0,0,0,0,0,0,0,0,0,0,0,0,0,0,0,0,0,0,0,0,0,0,0,0,0,0,0,0,0,0,0,0,0,0,0,0,0,0,0,0,0,0,0,0,0,0,0,0,0,0,0,0,0,0,0,0,0,0,0,0,0,0,0,0,0,0,0,0,0,0,0,0,0,0,0,0,0,0,0,0,0,0,0,0,0,0,0,0,0,0,0,0,0,0,0,0,0,0,0,0
11.5790691375732,11.5792560577393,11.579442024231,11.579628944397,11.5798149108887,11.5800018310547,11.5801887512207,11.5803747177124,11.5805616378784,11.5807476043701,11.5809345245361,11.5811214447021,11.5813074111938,11.5814943313599,11.5816802978516,11.5818672180176,11.5820541381836,11.5822401046753,11.5824279785156,11.5826139450073,11.582799911499,11.582986831665,11.5831737518311,11.5833606719971,11.5835466384888,11.5837335586548,11.5839204788208,11.5841064453125,11.5842933654785,11.5844802856445,11.5846662521362,11.5848531723022,11.5850400924683,11.5852270126343,11.5854139328003,11.5856008529663,11.585786819458,11.585973739624,11.58616065979,11.5863475799561,11.5865345001221,11.5867204666138,11.5869073867798,11.5870943069458,11.5872812271118,11.5874681472778,11.5876550674438,11.5878410339355,11.5880279541016,11.5882148742676,11.5884017944336,11.5885887145996,11.5887756347656,11.5889616012573,11.5891485214233,11.5893354415894,11.5895223617554,11.5897092819214,11.5898962020874,11.5900831222534,11.5902700424194,11.5904569625854,11.5906438827515,11.5908298492432,11.5910167694092,11.5912046432495,11.5913906097412,11.5915784835815,11.5917644500732,11.5919513702393,11.5921382904053,11.5923252105713,11.5925130844116,11.5927000045776,11.5928859710693,11.5930728912354,11.5932598114014,11.5934476852417,11.5936346054077,11.5938205718994,11.5940084457397,11.5941953659058,11.5943822860718,11.5945692062378,11.5947561264038,11.5949430465698,11.5951299667358,11.5953168869019,11.5955038070679,11.5956907272339,11.5958786010742,11.5960655212402,11.5962524414062,11.5964393615723,11.5966262817383,11.5968132019043,11.5970001220703,11.5971879959106,11.5973749160767,11.5975618362427,11.5977487564087,11.5979356765747,11.5981225967407,11.5983104705811,11.5984973907471,11.5986843109131,11.5988712310791,11.5990591049194,11.5992460250854,11.5994329452515,11.5996198654175,11.5998077392578,11.5999946594238,11.6001815795898,11.6003684997559,11.6005554199219,11.6007432937622,11.6009302139282,11.6011171340942,11.6013050079346,11.6014919281006,11.6016788482666,11.6018667221069,11.6020536422729,11.602240562439,11.6024284362793,11.6026153564453,11.6028032302856,11.6029901504517,11.6031770706177,11.6033639907837,11.603551864624,11.60373878479,11.6039266586304,11.6041135787964,11.6043014526367,11.6044883728027,11.6046752929688,11.6048631668091,11.6050500869751,11.6052370071411,11.6054248809814,11.6056118011475,11.6057996749878,11.6059865951538,11.6061744689941,11.6063613891602,11.6065492630005,11.6067361831665,11.6069240570068,11.6071109771729,11.6072988510132,11.6074857711792,11.6076736450195,11.6078605651855,11.6080484390259,11.6082353591919,11.6084232330322,11.6086111068726,11.6087980270386,11.6089849472046,11.6091728210449,11.6093597412109,11.6095476150513,11.6097354888916,11.6099233627319,11.6101102828979,11.610297203064,11.6104850769043,11.6106729507446,11.610860824585,11.611047744751,11.6112356185913,11.6114225387573,11.6116104125977,11.611798286438,11.6119861602783,11.6121730804443,11.6123600006104,11.6125478744507,11.612735748291,11.6129236221313,11.6131114959717,11.6132984161377,11.613486289978,11.613673210144,11.6138610839844,11.6140489578247,11.614236831665,11.6144237518311,11.6146116256714,11.6147994995117,11.6149873733521,11.6151752471924,11.6153621673584,11.6155500411987,11.6157379150391,11.6159257888794,11.6161136627197,11.6163005828857,11.6164884567261,11.6166763305664,11.6168642044067,11.6170520782471,11.6172399520874,11.6174268722534,11.6176147460938,11.6178026199341,11.6179904937744,11.6181783676147,11.6183662414551,11.6185531616211,11.6187419891357,11.6189289093018,11.6191177368164,11.6193046569824,11.6194925308228,11.6196804046631,11.6198682785034,11.6200561523438,11.6202440261841,11.6204319000244,11.6206197738647,11.6208076477051,11.6209955215454,11.6211833953857,11.6213703155518,11.6215581893921,11.6217470169067,11.6219348907471,11.6221227645874,11.6223106384277,11.6224985122681,11.6226863861084,11.6228742599487,11.6230621337891,11.6232500076294,11.6234378814697,11.6236257553101,11.6238136291504,11.6240015029907,11.6241893768311,11.6243772506714,11.6245651245117,11.6247529983521,11.6249408721924,11.625129699707,11.6253175735474,11.6255054473877,11.625693321228,11.6258811950684,11.6260690689087,11.626256942749,11.6264457702637,0,0,0,0,0,0,0,0,0,0,0,0,0,0,0,0,0,0,0,0,0,0,0,0,0,0,0,0,0,0,0,0,0,0,0,0,0,0,0,0,0,0,0,0,0,0,0,0,0,0,0,0,0,0,0,0,0,0,0,0,0,0,0,0,0,0,0,0,0,0,0,0,0,0,0,0,0,0,0,0,0,0,0,0,0,0,0,0,0,0,0,0,0,0,0,0,0,0,0,0,0,0,0,0,0,0,0,0,0,0,0,0,0,0,0,0,0,0,0,0,0,0,0,0,0,0,0,0,0,0,0,0,0,0,0,0,0,0,0,0,0,0,0,0,0,0,0,0,0,0,0,0,0,0,0,0,0,0,0,0,0,0,0,0,0,0,0,0,0,0,0,0,0,0,0,0,0,0,0,0,0,0,0,0,0,0,0,0,0,0,0
