16.4681587219238,16.4689140319824,16.4696807861328,16.4704399108887,16.4711971282959,16.471960067749,16.472728729248,16.4734859466553,16.4742527008057,16.4750099182129,16.4757690429688,16.4765377044678,16.4772968292236,16.4780578613281,16.4788227081299,16.4795837402344,16.4803466796875,16.481107711792,16.4818706512451,16.4826316833496,16.4833869934082,16.4841575622559,16.4849185943604,16.4856777191162,16.4864444732666,16.4872074127197,16.4879684448242,16.4887371063232,16.4894962310791,16.4902591705322,16.491024017334,16.4917907714844,16.4925498962402,16.4933166503906,16.4940738677979,16.4948406219482,16.4956073760986,16.496374130249,16.4971313476562,16.4979019165039,16.4986629486084,16.4994277954102,16.5001888275146,16.5009517669678,16.5017185211182,16.5024757385254,16.503246307373,16.5040092468262,16.504768371582,16.5055408477783,16.5062999725342,16.5070667266846,16.5078296661377,16.5085964202881,16.5093593597412,16.510124206543,16.5108947753906,16.5116596221924,16.5124244689941,16.5131893157959,16.513952255249,16.5147151947021,16.5154876708984,16.5162506103516,16.5170211791992,16.5177841186523,16.5185489654541,16.5193214416504,16.5200805664062,16.5208492279053,16.5216064453125,16.5223789215088,16.5231475830078,16.5239067077637,16.5246753692627,16.5254421234131,16.5262107849121,16.5269794464111,16.5277481079102,16.5285110473633,16.5292835235596,16.5300407409668,16.5308132171631,16.5315799713135,16.5323448181152,16.533109664917,16.533878326416,16.534646987915,16.5354118347168,16.5361881256104,16.5369529724121,16.537712097168,16.5384826660156,16.5392532348633,16.5400142669678,16.5407810211182,16.5415592193604,16.5423240661621,16.5430850982666,16.5438613891602,16.5446262359619,16.545389175415,16.5461616516113,16.5469303131104,16.547700881958,16.5484676361084,16.5492382049561,16.5500049591064,16.5507755279541,16.5515422821045,16.5523109436035,16.5530815124512,16.5538520812988,16.5546188354492,16.5553894042969,16.5561561584473,16.5569286346436,16.5576934814453,16.5584716796875,16.5592346191406,16.5600070953369,16.5607776641846,16.5615482330322,16.5623111724854,16.5630874633789,16.5638561248779,16.5646190643311,16.5653915405273,16.566162109375,16.5669345855713,16.5677089691162,16.5684757232666,16.5692367553711,16.5700206756592,16.5707836151123,16.5715618133545,16.5723323822021,16.5731029510498,16.5738697052002,16.5746383666992,16.57541847229,16.5761814117432,16.5769519805908,16.5777263641357,16.578498840332,16.5792713165283,16.5800399780273,16.5808086395264,16.5815849304199,16.5823574066162,16.5831241607666,16.5838985443115,16.5846672058105,16.5854377746582,16.5862121582031,16.5869827270508,16.5877628326416,16.5885276794434,16.5893077850342,16.5900764465332,16.590841293335,16.5916233062744,16.5923957824707,16.5931625366211,16.5939407348633,16.5947093963623,16.5954856872559,16.5962581634521,16.5970287322998,16.5978012084961,16.5985774993896,16.5993499755859,16.6001243591309,16.6009006500244,16.6016712188721,16.6024417877197,16.6032218933105,16.6039905548096,16.6047706604004,16.605541229248,16.6063137054443,16.6070899963379,16.6078662872314,16.6086368560791,16.6094074249268,16.6101818084717,16.6109657287598,16.6117324829102,16.6125106811523,16.6132831573486,16.6140575408936,16.6148319244385,16.6156063079834,16.6163787841797,16.6171588897705,16.6179294586182,16.6187114715576,16.6194820404053,16.6202564239502,16.6210308074951,16.62180519104,16.6225872039795,16.6233596801758,16.6241340637207,16.6249122619629,16.6256885528564,16.6264667510986,16.6272392272949,16.6280155181885,16.6287899017334,16.6295680999756,16.6303482055664,16.6311225891113,16.6318950653076,16.6326732635498,16.633451461792,16.6342239379883,16.6350002288818,16.635778427124,16.6365547180176,16.6373329162598,16.6381149291992,16.6388874053955,16.6396636962891,16.6404438018799,16.6412181854248,16.6419944763184,16.6427707672119,16.6435527801514,16.6443271636963,16.6451034545898,16.6458759307861,16.6466598510742,16.6474380493164,16.6482162475586,16.6489925384521,16.649772644043,16.6505508422852,16.6513233184814,16.6521091461182,16.6528797149658,16.6536560058594,16.6544437408447,16.6552200317383,16.6559963226318,16.656774520874,16.6575508117676,16.6583347320557,16.6591129302979,16.6598930358887,16.6606674194336,16.6614456176758,16.6622276306152,16.6630039215088,16.6637859344482,16.6645679473877,16.6653423309326,16.6661262512207,16.6669044494629,16.6676864624023,16.6684608459473,16.6692428588867,16.6700248718262,16.6708011627197,16.6715812683105,16.6723651885986,16.6731433868408,16.673921585083,16.6747035980225,16.675479888916,16.67626953125,16.6770458221436,16.6778259277344,16.6786041259766,16.6793899536133,16.6801662445068,16.6809539794922,16.6817302703857,16.6825141906738,16.6832942962646,16.6840763092041,16.6848526000977,16.6856365203857,16.6864204406738,16.687198638916,16.6879787445068,16.6887645721436,16.6895484924316,16.6903266906738,16.691104888916,16.6918926239014,16.6926727294922,16.6934585571289,16.694242477417,16.6950187683105,16.6958026885986,16.6965808868408,16.6973628997803,16.6981506347656,16.6989307403564,16.6997184753418,16.7004985809326,16.7012805938721,16.7020645141602,16.702844619751,16.7036323547363,16.7044105529785,16.7051982879639,16.7059803009033,16.7067604064941,16.7075443267822,16.7083320617676,16.7091083526611,16.7098922729492,16.7106761932373,16.711462020874,16.7122459411621,16.7130298614502,16.7138156890869,16.7145977020264,16.7153873443604,16.7161617279053,16.7169456481934,16.717737197876,16.7185192108154,16.7193069458008,16.7200889587402,16.7208709716797,16.7216606140137,16.7224445343018,16.7232227325439,16.7240104675293,16.7248001098633,16.7255878448486,16.7263679504395,16.7271537780762,16.7279415130615,16.7287254333496,16.7295093536377,16.730297088623,16.7310829162598,16.7318687438965,16.7326545715332,16.7334442138672,16.7342262268066,16.7350120544434,16.7357940673828,16.7365818023682,16.7373733520508,16.7381553649902,16.7389430999756,16.7397270202637,16.7405128479004,16.7413005828857,16.7420883178711,16.7428760528564,16.7436599731445,16.7444496154785,16.7452373504639,16.746021270752,16.7468090057373,16.7476005554199,16.748384475708,16.7491703033447,16.7499599456787,16.7507495880127,16.7515354156494,16.7523174285889,16.7531089782715,16.7539005279541,16.7546825408936,16.7554721832275,16.7562618255615,16.7570495605469,16.7578353881836,16.7586231231689,16.7594165802002,16.7602005004883,16.760986328125,16.7617816925049,16.762565612793,16.7633590698242,16.7641429901123,16.7649345397949,16.765718460083,16.766508102417,16.7673015594482,16.768087387085,16.7688770294189,16.7696666717529,16.7704601287842,16.7712478637695,16.7720394134521,16.7728214263916,16.7736167907715,16.7744007110596,16.7751903533936,16.7759857177734,16.7767772674561,16.7775630950928,16.7783527374268,16.7791423797607,16.779935836792,16.7807235717773,16.7815189361572,16.7823047637939,16.7830944061279,16.7838859558105,16.7846736907959,16.7854690551758,16.7862567901611,16.7870483398438,16.787841796875,16.7886257171631,16.7894268035889,16.7902145385742,16.7910041809082,16.7917957305908,16.7925910949707,16.7933807373047,16.7941722869873,16.7949638366699,16.7957553863525,16.7965450286865,16.7973384857178,16.7981262207031,16.7989196777344,16.7997150421143,16.8005046844482,16.8013038635254,16.8020896911621,16.8028812408447,16.8036766052246,16.80446434021,16.8052616119385,16.8060550689697,16.8068466186523,16.8076419830322,16.8084297180176,16.8092231750488,16.8100204467773,16.81081199646,16.8116054534912,16.8124027252197,16.8131866455078,16.8139877319336,16.8147754669189,16.8155746459961,16.8163661956787,16.8171577453613,16.8179531097412,16.8187465667725,16.8195419311523,16.8203353881836,16.8211307525635,0,0,0,0,0,0,0,0,0,0,0,0,0,0,0,0,0,0,0,0,0,0,0,0,0,0,0,0,0,0,0,0,0,0,0,0,0,0,0,0,0,0,0,0,0,0,0,0,0,0,0,0,0,0,0,0,0,0,0,0,0,0,0,0,0,0,0,0,0,0,0,0,0,0,0,0,0,0,0,0,0,0,0,0,0,0,0,0,0,0,0,0,0,0,0,0,0,0,0,0,0,0,0,0,0,0,0,0,0,0,0,0,0,0,0,0,0,0,0,0,0,0,0,0,0,0,0,0,0,0,0,0,0,0,0,0,0,0,0,0,0,0,0,0
16.3204860687256,16.3212299346924,16.3219833374023,16.3227252960205,16.3234729766846,16.3242263793945,16.3249702453613,16.325719833374,16.326473236084,16.3272151947021,16.3279590606689,16.3287105560303,16.3294639587402,16.3302040100098,16.3309574127197,16.3317070007324,16.3324489593506,16.3331985473633,16.3339557647705,16.3346977233887,16.3354454040527,16.3362045288086,16.336950302124,16.3376922607422,16.3384475708008,16.3391990661621,16.339937210083,16.3407001495361,16.3414421081543,16.3421878814697,16.3429412841797,16.3436908721924,16.3444442749023,16.3451976776123,16.3459453582764,16.3466930389404,16.3474445343018,16.3481979370117,16.3489437103271,16.3496952056885,16.3504390716553,16.3511924743652,16.3519401550293,16.3526992797852,16.3534412384033,16.3541927337646,16.354944229126,16.3556957244873,16.3564491271973,16.3571968078613,16.3579502105713,16.3586978912354,16.3594493865967,16.3602027893066,16.3609485626221,16.3617057800293,16.362455368042,16.363208770752,16.3639621734619,16.364709854126,16.36545753479,16.3662128448486,16.3669605255127,16.3677177429199,16.3684749603271,16.3692188262939,16.3699779510498,16.3707256317139,16.3714771270752,16.3722305297852,16.3729820251465,16.3737392425537,16.3744888305664,16.3752422332764,16.3759918212891,16.3767490386963,16.377498626709,16.3782539367676,16.3790073394775,16.3797588348389,16.3805103302002,16.3812675476074,16.3820133209229,16.3827705383301,16.38352394104,16.3842735290527,16.3850345611572,16.3857822418213,16.386531829834,16.3872890472412,16.3880386352539,16.3887958526611,16.3895511627197,16.3903026580811,16.3910636901855,16.3918113708496,16.3925647735596,16.3933219909668,16.3940734863281,16.3948345184326,16.3955841064453,16.3963413238525,16.3970909118652,16.3978500366211,16.3985996246338,16.3993587493896,16.4001140594482,16.4008674621582,16.4016265869141,16.4023780822754,16.403133392334,16.4038944244385,16.4046478271484,16.4053916931152,16.4061622619629,16.4069118499756,16.4076652526855,16.4084186553955,16.4091758728027,16.4099369049072,16.4106864929199,16.4114456176758,16.4121990203857,16.4129581451416,16.4137134552002,16.4144725799561,16.4152202606201,16.4159870147705,16.4167366027832,16.4174938201904,16.4182510375977,16.4190063476562,16.4197654724121,16.4205207824707,16.4212779998779,16.4220333099365,16.422794342041,16.423547744751,16.4243049621582,16.42506980896,16.4258251190186,16.4265766143799,16.4273319244385,16.4280948638916,16.4288482666016,16.4295997619629,16.4303703308105,16.4311237335205,16.4318809509277,16.4326419830322,16.4333992004395,16.4341487884521,16.4349174499512,16.4356708526611,16.4364280700684,16.4371871948242,16.4379501342773,16.4387035369873,16.4394645690918,16.440221786499,16.4409770965576,16.4417400360107,16.4424991607666,16.4432563781738,16.4440174102783,16.4447784423828,16.4455318450928,16.4462928771973,16.4470558166504,16.447811126709,16.4485740661621,16.4493274688721,16.4500846862793,16.4508438110352,16.4516048431396,16.4523696899414,16.453125,16.4538841247559,16.4546451568604,16.4554080963135,16.456169128418,16.4569244384766,16.4576892852783,16.4584465026855,16.4592056274414,16.4599609375,16.4607238769531,16.4614906311035,16.4622421264648,16.4630088806152,16.4637699127197,16.4645290374756,16.4652919769287,16.4660511016846,16.4668121337891,16.4675769805908,16.4683322906494,16.4690952301025,16.469856262207,16.4706172943115,16.4713840484619,16.4721450805664,16.4729042053223,16.4736595153809,16.474422454834,16.4751853942871,16.4759483337402,16.4767150878906,16.4774703979492,16.4782371520996,16.4790000915527,16.4797592163086,16.480525970459,16.4812870025635,16.4820442199707,16.4828109741211,16.4835739135742,16.4843311309814,16.4851016998291,16.4858570098877,16.4866275787354,16.4873809814453,16.4881458282471,16.4889087677002,16.4896717071533,16.490442276001,16.4912033081055,16.49196434021,16.4927272796631,16.4934902191162,16.494255065918,16.4950180053711,16.4957790374756,16.4965476989746,16.4973068237305,16.4980754852295,16.4988346099854,16.4996032714844,16.5003681182861,16.501127243042,16.501895904541,16.5026607513428,16.5034217834473,16.5041885375977,16.5049533843994,16.5057182312012,16.5064811706543,16.5072479248047,16.5080127716064,16.5087757110596,16.5095443725586,16.5103092193604,16.5110702514648,16.5118350982666,16.5125980377197,16.5133628845215,16.5141334533691,16.5148944854736,16.5156669616699,16.5164279937744,16.5171966552734,16.5179615020752,16.5187301635742,16.5194988250732,16.5202617645264,16.5210247039795,16.5217914581299,16.5225601196289,16.5233287811279,16.5240879058838,16.5248584747314,16.5256233215332,16.5263900756836,16.5271606445312,16.5279178619385,16.5286865234375,16.5294589996338,16.5302181243896,16.5309906005859,16.5317611694336,16.5325241088867,16.5332908630371,16.5340557098389,16.5348205566406,16.5355911254883,16.53635597229,16.5371284484863,16.5378952026367,16.5386581420898,16.5394306182861,16.5401954650879,16.5409641265869,16.5417346954346,16.542501449585,16.5432682037354,16.544038772583,16.544807434082,16.5455703735352,16.5463409423828,16.5471096038818,16.5478782653809,16.5486507415771,16.5494155883789,16.5501842498779,16.5509548187256,16.551721572876,16.552490234375,16.5532550811768,16.5540237426758,16.5548000335693,16.5555667877197,16.556339263916,16.5571060180664,16.5578746795654,16.5586490631104,16.5594158172607,16.5601768493652,16.5609531402588,16.5617256164551,16.5624961853027,16.5632629394531,16.5640335083008,16.5648059844971,16.5655727386475,16.5663414001465,16.5671119689941,16.5678863525391,16.5686569213867,16.5694274902344,16.570198059082,16.5709667205811,16.5717372894287,16.5725059509277,16.573278427124,16.5740547180176,16.574821472168,16.5755920410156,16.5763645172119,16.5771369934082,16.5779075622559,16.5786762237549,16.5794506072998,16.5802268981934,16.5809936523438,16.5817680358887,16.5825366973877,16.5833034515381,16.5840759277344,16.5848503112793,16.585620880127,16.5863971710205,16.5871658325195,16.5879364013672,16.5887088775635,16.5894832611084,16.5902557373047,16.5910263061523,16.5917987823486,16.5925712585449,16.5933456420898,16.5941219329834,16.5948925018311,16.5956649780273,16.5964336395264,16.5972061157227,16.5979843139648,16.5987529754639,16.5995311737061,16.6002998352051,16.6010799407959,16.6018562316895,16.6026229858398,16.6034030914307,16.6041698455811,16.604944229126,16.6057205200195,16.6064987182617,16.607271194458,16.608039855957,16.6088161468506,16.6095905303955,16.6103649139404,16.6111373901367,16.6119136810303,16.6126880645752,16.6134662628174,16.6142349243164,16.61501121521,16.6157855987549,16.6165637969971,16.6173419952393,16.6181144714355,16.6188869476318,16.619665145874,16.6204376220703,16.6212177276611,16.6219863891602,16.622766494751,16.6235446929932,16.6243152618408,16.6250953674316,16.6258735656738,16.6266403198242,16.627420425415,16.6281967163086,16.6289749145508,16.6297492980957,16.6305255889893,16.6313018798828,16.632080078125,16.6328563690186,16.6336288452148,16.634407043457,16.635181427002,16.6359596252441,16.6367378234863,16.6375122070312,16.6382884979248,16.6390686035156,16.6398448944092,16.6406192779541,16.6413993835449,16.6421737670898,16.6429557800293,16.6437320709229,16.6445064544678,16.6452884674072,16.6460666656494,16.6468448638916,16.6476173400879,16.6483936309814,16.6491756439209,16.6499538421631,16.6507320404053,16.6515102386475,16.6522808074951,16.6530685424805,16.6538486480713,16.6546211242676,16.6553993225098,16.6561794281006,16.65696144104,16.6577377319336,16.6585121154785,16.6592979431152,16.6600742340088,16.6608486175537,16.6616325378418,16.6624145507812,16.6631908416748,16.6639671325684,16.6647472381592,16.6655292510986,16.6663036346436,16.6670875549316,16.6678676605225,16.6686458587646,16.6694278717041,16.670202255249,16.670991897583,16.671760559082,16.672550201416,16.6733303070068,0,0,0,0,0,0,0,0,0,0,0,0,0,0,0,0,0,0,0,0,0,0,0,0,0,0,0,0,0,0,0,0,0,0,0,0,0,0,0,0,0,0,0,0,0,0,0,0,0,0,0,0,0,0,0,0,0,0,0,0,0,0,0,0,0,0,0,0,0,0,0,0,0,0,0,0,0,0,0,0,0,0,0,0,0,0,0,0,0,0,0,0,0,0,0,0,0,0,0,0,0,0,0,0,0,0,0,0,0,0,0,0,0,0,0,0,0,0,0,0,0,0,0,0,0,0,0,0,0,0,0,0,0,0,0,0
16.1754341125488,16.1761722564697,16.1769142150879,16.1776447296143,16.1783752441406,16.1791114807129,16.1798439025879,16.1805744171143,16.1813182830811,16.1820526123047,16.1827793121338,16.1835250854492,16.1842555999756,16.1849899291992,16.1857299804688,16.1864585876465,16.1871929168701,16.187931060791,16.1886711120605,16.1894016265869,16.1901340484619,16.1908760070801,16.1916084289551,16.1923446655273,16.1930809020996,16.1938152313232,16.1945476531982,16.1952896118164,16.1960220336914,16.1967601776123,16.1975002288818,16.1982326507568,16.1989669799805,16.1997089385986,16.2004470825195,16.2011775970459,16.2019157409668,16.2026500701904,16.2033824920654,16.2041282653809,16.2048587799072,16.2055988311768,16.206335067749,16.2070770263672,16.2078075408936,16.2085456848145,16.2092914581299,16.2100219726562,16.2107620239258,16.2115039825439,16.2122364044189,16.2129707336426,16.2137126922607,16.2144546508789,16.2151908874512,16.2159233093262,16.216667175293,16.2174053192139,16.2181396484375,16.2188835144043,16.2196178436279,16.2203598022461,16.2210941314697,16.2218284606934,16.2225742340088,16.2233142852783,16.2240467071533,16.224781036377,16.225528717041,16.2262630462646,16.2270050048828,16.2277431488037,16.2284851074219,16.2292175292969,16.2299633026123,16.2306995391846,16.2314395904541,16.2321815490723,16.2329196929932,16.2336559295654,16.2343997955322,16.2351398468018,16.2358779907227,16.2366161346436,16.2373638153076,16.2380924224854,16.2388381958008,16.2395820617676,16.2403163909912,16.241060256958,16.2418003082275,16.2425365447998,16.2432765960693,16.2440147399902,16.2447605133057,16.2454948425293,16.2462387084961,16.2469844818115,16.2477188110352,16.2484664916992,16.2492008209229,16.2499465942383,16.2506942749023,16.251428604126,16.2521629333496,16.2529125213623,16.2536525726318,16.25439453125,16.2551422119141,16.2558727264404,16.2566242218018,16.2573623657227,16.2581119537354,16.258846282959,16.2595825195312,16.2603321075439,16.2610664367676,16.2618160247803,16.2625617980957,16.2632999420166,16.2640399932861,16.2647819519043,16.2655277252197,16.2662677764893,16.2670116424561,16.2677574157715,16.2684955596924,16.2692470550537,16.2699851989746,16.2707233428955,16.2714710235596,16.2722148895264,16.2729568481445,16.2737007141113,16.2744464874268,16.2751884460449,16.2759284973145,16.2766761779785,16.2774143218994,16.2781562805176,16.2789039611816,16.2796516418457,16.2803821563721,16.2811393737793,16.2818813323975,16.2826194763184,16.2833671569824,16.2841110229492,16.2848510742188,16.2856006622314,16.2863464355469,16.2870826721191,16.2878341674805,16.28857421875,16.2893199920654,16.2900714874268,16.2908096313477,16.2915554046631,16.2923049926758,16.2930450439453,16.2937927246094,16.2945365905762,16.2952823638916,16.2960262298584,16.2967758178711,16.2975234985352,16.2982616424561,16.2990036010742,16.2997550964355,16.3004970550537,16.3012428283691,16.3019924163818,16.3027362823486,16.3034782409668,16.3042316436768,16.3049697875977,16.3057193756104,16.306468963623,16.3072109222412,16.3079662322998,16.3087062835693,16.3094482421875,16.3102016448975,16.3109436035156,16.3116931915283,16.3124351501465,16.3131904602051,16.3139324188232,16.3146820068359,16.3154258728027,16.3161754608154,16.3169212341309,16.3176689147949,16.3184185028076,16.3191661834717,16.3199081420898,16.3206615447998,16.3214054107666,16.3221569061279,16.322904586792,16.3236484527588,16.3244037628174,16.3251476287842,16.3258934020996,16.3266410827637,16.3273887634277,16.3281440734863,16.3288822174072,16.3296298980713,16.3303852081299,16.3311290740967,16.3318843841553,16.3326282501221,16.3333740234375,16.3341236114502,16.3348770141602,16.3356266021729,16.3363704681396,16.337121963501,16.3378715515137,16.3386173248291,16.3393726348877,16.3401184082031,16.3408699035645,16.3416194915771,16.3423690795898,16.3431186676025,16.3438663482666,16.3446159362793,16.345365524292,16.3461132049561,16.3468685150146,16.3476161956787,16.3483657836914,16.34912109375,16.3498687744141,16.3506164550781,16.3513736724854,16.3521175384521,16.3528747558594,16.3536224365234,16.3543663024902,16.3551197052002,16.3558712005615,16.3566265106201,16.3573722839355,16.3581256866455,16.3588771820068,16.3596248626709,16.3603763580322,16.3611278533936,16.3618812561035,16.3626289367676,16.3633823394775,16.3641357421875,16.3648853302002,16.3656387329102,16.3663864135742,16.3671379089355,16.3678951263428,16.3686466217041,16.3693962097168,16.370153427124,16.3709030151367,16.3716583251953,16.3724098205566,16.3731555938721,16.3739147186279,16.374662399292,16.3754177093506,16.3761672973633,16.3769207000732,16.3776779174805,16.3784255981445,16.3791770935059,16.3799343109131,16.380687713623,16.3814430236816,16.3821926116943,16.3829441070557,16.3836975097656,16.3844509124756,16.3852043151855,16.3859558105469,16.3867092132568,16.3874702453613,16.3882217407227,16.3889751434326,16.3897247314453,16.3904800415039,16.3912372589111,16.3919887542725,16.3927459716797,16.393497467041,16.3942470550537,16.3950080871582,16.3957576751709,16.3965148925781,16.397274017334,16.3980236053467,16.3987808227539,16.3995380401611,16.4002914428711,16.4010410308838,16.401798248291,16.4025535583496,16.4033107757568,16.4040622711182,16.4048194885254,16.4055786132812,16.4063282012939,16.4070854187012,16.4078426361084,16.4085998535156,16.4093570709229,16.4101104736328,16.4108619689941,16.4116172790527,16.4123764038086,16.4131317138672,16.4138927459717,16.414644241333,16.4153995513916,16.4161586761475,16.4169139862061,16.4176750183105,16.4184303283691,16.4191780090332,16.4199447631836,16.4206981658936,16.4214534759521,16.4222145080566,16.4229640960693,16.4237289428711,16.4244785308838,16.4252414703369,16.4259967803955,16.4267539978027,16.4275150299072,16.4282703399658,16.4290313720703,16.4297828674316,16.4305400848389,16.4313011169434,16.4320602416992,16.4328174591064,16.4335765838623,16.4343318939209,16.435094833374,16.435848236084,16.4366054534912,16.4373664855957,16.4381198883057,16.4388809204102,16.439640045166,16.4403953552246,16.4411563873291,16.4419136047363,16.4426746368408,16.4434375762939,16.4441871643066,16.4449558258057,16.445707321167,16.4464721679688,16.4472274780273,16.4479846954346,16.4487495422363,16.4495086669922,16.4502658843994,16.4510231018066,16.4517822265625,16.4525470733643,16.4533023834229,16.4540615081787,16.4548244476318,16.4555835723877,16.4563465118408,16.457103729248,16.4578590393066,16.4586219787598,16.4593849182129,16.4601497650146,16.4609031677246,16.4616661071777,16.4624290466309,16.4631824493408,16.4639434814453,16.4647064208984,16.4654655456543,16.4662284851074,16.4669914245605,16.4677505493164,16.4685134887695,16.4692726135254,16.4700317382812,16.4707927703857,16.4715576171875,16.472318649292,16.4730777740479,16.4738445281982,16.4746055603027,16.4753723144531,16.4761295318604,16.4768867492676,16.477653503418,16.4784126281738,16.4791774749756,16.4799346923828,16.4807014465332,16.481466293335,16.4822216033936,16.4829864501953,16.4837512969971,16.4845142364502,16.4852771759033,16.4860401153564,16.4867973327637,16.4875679016113,16.4883289337158,16.4890918731689,16.4898548126221,16.4906177520752,16.4913787841797,16.4921417236328,16.4929065704346,16.4936695098877,16.4944343566895,16.4952011108398,16.4959621429443,16.4967269897461,16.4974880218506,16.4982528686523,16.4990139007568,16.49977684021,16.500545501709,16.5013103485107,16.5020694732666,16.502836227417,16.5036029815674,16.5043678283691,16.5051345825195,16.5058917999268,16.506664276123,16.5074234008789,16.5081882476807,16.5089530944824,16.5097160339355,16.5104885101318,16.5112552642822,16.5120162963867,16.5127792358398,16.5135440826416,16.5143127441406,16.5150775909424,16.5158405303955,16.5166091918945,16.5173721313477,16.5181407928467,16.5189037322998,16.5196723937988,16.5204391479492,16.5212059020996,16.52197265625,16.5227355957031,16.5235023498535,16.5242691040039,16.5250377655029,16.5258045196533,16.5265636444092,16.5273323059082,16.5281009674072,0,0,0,0,0,0,0,0,0,0,0,0,0,0,0,0,0,0,0,0,0,0,0,0,0,0,0,0,0,0,0,0,0,0,0,0,0,0,0,0,0,0,0,0,0,0,0,0,0,0,0,0,0,0,0,0,0,0,0,0,0,0,0,0,0,0,0,0,0,0,0,0,0,0,0,0,0,0,0,0,0,0,0,0,0,0,0,0,0,0,0,0,0,0,0,0,0,0,0,0,0,0,0,0,0,0,0,0,0,0,0,0,0,0,0,0,0,0,0,0,0,0,0,0,0,0,0,0
16.0329418182373,16.0336627960205,16.0343914031982,16.0351104736328,16.035831451416,16.0365543365479,16.0372695922852,16.037992477417,16.0387172698975,16.0394401550293,16.0401649475098,16.040885925293,16.0416088104248,16.0423240661621,16.0430469512939,16.0437717437744,16.0445003509521,16.0452194213867,16.0459384918213,16.0466690063477,16.0473823547363,16.0481109619141,16.0488300323486,16.0495510101318,16.0502796173096,16.0510005950928,16.0517177581787,16.052453994751,16.0531711578369,16.0538902282715,16.0546169281006,16.0553398132324,16.0560665130615,16.0567874908447,16.0575084686279,16.058235168457,16.0589580535889,16.059684753418,16.0604095458984,16.061128616333,16.0618572235107,16.0625762939453,16.0633087158203,16.0640335083008,16.064754486084,16.0654773712158,16.0662021636963,16.066930770874,16.0676498413086,16.0683765411377,16.0690994262695,16.06982421875,16.0705528259277,16.0712795257568,16.07200050354,16.0727252960205,16.073450088501,16.0741691589355,16.0749053955078,16.0756282806396,16.0763473510742,16.0770740509033,16.0778045654297,16.0785255432129,16.0792484283447,16.0799789428711,16.0807075500488,16.0814266204834,16.0821590423584,16.082878112793,16.0836048126221,16.0843334197998,16.0850582122803,16.085786819458,16.0865154266357,16.0872440338135,16.0879611968994,16.0886917114258,16.0894145965576,16.0901412963867,16.0908737182617,16.0915985107422,16.0923252105713,16.093053817749,16.0937786102295,16.0945014953613,16.0952320098877,16.0959529876709,16.0966854095459,16.097412109375,16.0981388092041,16.0988712310791,16.0995941162109,16.1003246307373,16.1010513305664,16.1017742156982,16.1025085449219,16.1032295227051,16.1039543151855,16.1046905517578,16.1054134368896,16.1061420440674,16.106876373291,16.1076030731201,16.108325958252,16.1090564727783,16.1097850799561,16.1105136871338,16.1112461090088,16.1119728088379,16.1126976013184,16.1134300231934,16.1141567230225,16.1148853302002,16.1156101226807,16.116340637207,16.1170768737793,16.1178016662598,16.1185302734375,16.1192626953125,16.119987487793,16.1207180023193,16.121452331543,16.1221752166748,16.1229133605957,16.1236343383789,16.1243667602539,16.1250991821289,16.1258296966553,16.1265563964844,16.1272850036621,16.1280155181885,16.1287460327148,16.1294765472412,16.1302089691162,16.130931854248,16.1316699981689,16.1323986053467,16.1331253051758,16.1338539123535,16.1345901489258,16.1353187561035,16.1360473632812,16.1367778778076,16.1375141143799,16.138240814209,16.1389751434326,16.1397094726562,16.140438079834,16.1411685943604,16.1419010162354,16.1426296234131,16.143367767334,16.1440944671631,16.1448249816895,16.1455593109131,16.1462879180908,16.1470146179199,16.1477546691895,16.1484870910645,16.1492156982422,16.1499443054199,16.1506767272949,16.1514148712158,16.1521415710449,16.1528797149658,16.1536045074463,16.1543407440186,16.1550769805908,16.1558094024658,16.1565399169922,16.1572723388672,16.1580066680908,16.1587333679199,16.1594772338867,16.1602020263672,16.1609363555908,16.1616764068604,16.1624050140381,16.1631317138672,16.1638736724854,16.1646022796631,16.1653366088867,16.166072845459,16.1668033599854,16.1675357818604,16.1682662963867,16.1690082550049,16.169734954834,16.170467376709,16.1712055206299,16.1719417572021,16.1726741790771,16.1734142303467,16.1741390228271,16.1748809814453,16.1756057739258,16.1763496398926,16.1770858764648,16.177806854248,16.1785488128662,16.1792831420898,16.1800174713135,16.1807498931885,16.1814823150635,16.1822261810303,16.1829566955566,16.1836929321289,16.1844234466553,16.1851596832275,16.1858959197998,16.1866340637207,16.187370300293,16.1881065368652,16.1888389587402,16.1895751953125,16.1903057098389,16.1910438537598,16.1917819976807,16.1925086975098,16.1932563781738,16.1939849853516,16.1947231292725,16.1954593658447,16.1961936950684,16.1969299316406,16.1976699829102,16.1984043121338,16.1991386413574,16.1998729705811,16.2006168365479,16.2013511657715,16.2020854949951,16.2028274536133,16.2035636901855,16.2042961120605,16.2050380706787,16.205774307251,16.2065124511719,16.2072467803955,16.2079887390137,16.2087211608887,16.2094612121582,16.2101917266846,16.2109355926514,16.2116756439209,16.2124118804932,16.2131462097168,16.2138843536377,16.21462059021,16.2153625488281,16.216100692749,16.2168388366699,16.2175750732422,16.2183132171631,16.219051361084,16.2197914123535,16.2205276489258,16.2212657928467,16.2220039367676,16.2227382659912,16.2234840393066,16.2242202758789,16.2249622344971,16.2256984710693,16.2264385223389,16.2271766662598,16.227912902832,16.2286567687988,16.2293968200684,16.2301330566406,16.2308750152588,16.2316093444824,16.2323532104492,16.2330932617188,16.233829498291,16.2345771789551,16.2353096008301,16.236047744751,16.2367897033691,16.2375297546387,16.2382717132568,16.2390098571777,16.2397499084473,16.2404918670654,16.2412300109863,16.2419776916504,16.2427158355713,16.2434520721436,16.2441940307617,16.2449321746826,16.2456760406494,16.2464141845703,16.2471504211426,16.2478981018066,16.2486362457275,16.2493762969971,16.2501163482666,16.250862121582,16.2516040802002,16.2523441314697,16.2530841827393,16.2538280487061,16.2545738220215,16.255313873291,16.2560482025146,16.2567920684814,16.257532119751,16.2582759857178,16.2590217590332,16.2597599029541,16.2605018615723,16.2612476348877,16.2619857788086,16.2627353668213,16.2634735107422,16.2642154693604,16.2649574279785,16.265697479248,16.2664451599121,16.2671852111816,16.2679309844971,16.2686729431152,16.2694110870361,16.2701568603516,16.2708950042725,16.2716464996338,16.272388458252,16.2731285095215,16.2738723754883,16.2746162414551,16.2753562927246,16.2760982513428,16.2768440246582,16.2775897979736,16.2783317565918,16.27907371521,16.2798233032227,16.2805652618408,16.2813110351562,16.2820529937744,16.2827949523926,16.283540725708,16.2842826843262,16.2850322723389,16.2857761383057,16.2865161895752,16.2872581481934,16.2880096435547,16.2887516021729,16.2894992828369,16.2902412414551,16.2909889221191,16.2917308807373,16.2924785614014,16.2932167053223,16.2939682006836,16.294713973999,16.2954559326172,16.2962017059326,16.296947479248,16.2976875305176,16.2984428405762,16.2991809844971,16.2999267578125,16.3006725311279,16.3014183044434,16.3021717071533,16.302906036377,16.303653717041,16.304407119751,16.3051509857178,16.3058948516846,16.306640625,16.3073825836182,16.3081359863281,16.3088798522949,16.3096294403076,16.310375213623,16.3111171722412,16.3118667602539,16.3126201629639,16.3133583068848,16.3141098022461,16.3148536682129,16.315601348877,16.316349029541,16.3171005249023,16.3178405761719,16.3185901641846,16.3193378448486,16.3200855255127,16.3208351135254,16.3215808868408,16.3223304748535,16.3230781555176,16.323823928833,16.3245716094971,16.3253192901611,16.3260650634766,16.3268203735352,16.3275661468506,16.3283100128174,16.329065322876,16.3298072814941,16.3305625915527,16.3313102722168,16.3320541381836,16.3328056335449,16.3335494995117,16.3343029022217,16.335054397583,16.3358001708984,16.3365459442139,16.3372993469238,16.3380508422852,16.3387966156006,16.3395442962646,16.3402919769287,16.3410453796387,16.3417949676514,16.3425426483154,16.3432941436768,16.3440456390381,16.3447914123535,16.3455429077148,16.3462905883789,16.3470401763916,16.3477935791016,16.3485412597656,16.3492889404297,16.3500461578369,16.3507919311523,16.3515472412109,16.3522968292236,16.3530426025391,16.353796005249,16.3545436859131,16.3552951812744,16.3560485839844,16.3567943572998,16.3575477600098,16.3583011627197,16.3590545654297,16.3598003387451,16.3605518341064,16.3613033294678,16.3620548248291,16.3628082275391,16.3635578155518,16.3643112182617,16.3650608062744,16.3658142089844,16.3665733337402,16.3673114776611,16.368070602417,16.368824005127,16.369571685791,16.3703289031982,16.3710803985596,16.371826171875,16.3725852966309,16.3733348846436,16.374080657959,16.3748397827148,16.3755912780762,16.3763484954834,16.3770961761475,16.3778514862061,16.3786067962646,16.3793544769287,16.3801078796387,16.3808631896973,16.3816108703613,16.3823699951172,16.3831195831299,16.3838768005371,16.3846263885498,16.3853778839111,0,0,0,0,0,0,0,0,0,0,0,0,0,0,0,0,0,0,0,0,0,0,0,0,0,0,0,0,0,0,0,0,0,0,0,0,0,0,0,0,0,0,0,0,0,0,0,0,0,0,0,0,0,0,0,0,0,0,0,0,0,0,0,0,0,0,0,0,0,0,0,0,0,0,0,0,0,0,0,0,0,0,0,0,0,0,0,0,0,0,0,0,0,0,0,0,0,0,0,0,0,0,0,0,0,0,0,0,0,0,0,0,0,0,0,0,0,0,0,0
15.8929376602173,15.8936491012573,15.8943634033203,15.8950672149658,15.8957748413086,15.8964900970459,15.8971910476685,15.8979005813599,15.8986167907715,15.8993244171143,15.9000291824341,15.9007415771484,15.9014558792114,15.9021615982056,15.9028701782227,15.90358543396,15.9042873382568,15.9050025939941,15.9057140350342,15.9064226150513,15.9071273803711,15.9078454971313,15.9085569381714,15.9092569351196,15.9099769592285,15.9106884002686,15.9113903045654,15.9121065139771,15.9128189086914,15.9135227203369,15.9142379760742,15.9149475097656,15.9156579971313,15.9163703918457,15.9170818328857,15.9177932739258,15.9184951782227,15.9192171096802,15.9199256896973,15.9206304550171,15.921347618103,15.9220628738403,15.9227743148804,15.9234819412231,15.9241924285889,15.9249057769775,15.9256191253662,15.9263315200806,15.927041053772,15.9277563095093,15.9284639358521,15.9291801452637,15.9298982620239,15.9306011199951,15.9313125610352,15.9320316314697,15.9327421188354,15.9334487915039,15.9341697692871,15.9348754882812,15.9355897903442,15.9363012313843,15.9370126724243,15.9377288818359,15.9384412765503,15.9391613006592,15.939866065979,15.940580368042,15.9412965774536,15.9420032501221,15.9427185058594,15.9434404373169,15.9441432952881,15.9448595046997,15.9455785751343,15.9462938308716,15.94700050354,15.9477195739746,15.948431968689,15.9491395950317,15.9498605728149,15.9505739212036,15.9512815475464,15.9520053863525,15.9527139663696,15.9534311294556,15.9541368484497,15.9548587799072,15.9555768966675,15.9562845230103,15.9570026397705,15.9577207565308,15.9584255218506,15.9591484069824,15.9598598480225,15.9605712890625,15.9612913131714,15.9620065689087,15.9627265930176,15.9634342193604,15.9641532897949,15.9648666381836,15.9655828475952,15.9662971496582,15.9670152664185,15.9677324295044,15.9684467315674,15.9691581726074,15.9698839187622,15.9705896377563,15.9713077545166,15.9720239639282,15.9727363586426,15.9734506607056,15.9741744995117,15.9748859405518,15.9756021499634,15.9763212203979,15.9770431518555,15.9777536392212,15.9784679412842,15.979190826416,15.9799032211304,15.9806203842163,15.9813365936279,15.9820518493652,15.9827690124512,15.9834890365601,15.9842052459717,15.9849166870117,15.9856443405151,15.9863567352295,15.9870700836182,15.98779296875,15.9885120391846,15.9892225265503,15.9899406433105,15.9906606674194,15.9913721084595,15.9920930862427,15.9928150177002,15.9935340881348,15.9942426681519,15.9949655532837,15.9956865310669,15.9963989257812,15.9971218109131,15.997838973999,15.9985513687134,15.9992780685425,15.9999971389771,16.0007171630859,16.0014381408691,16.0021591186523,16.0028686523438,16.0035915374756,16.0043125152588,16.0050296783447,16.0057506561279,16.0064659118652,16.0071849822998,16.0079002380371,16.0086231231689,16.0093441009521,16.0100593566895,16.0107860565186,16.0115013122559,16.0122203826904,16.0129413604736,16.0136585235596,16.0143775939941,16.0150985717773,16.0158138275146,16.0165348052979,16.0172576904297,16.0179786682129,16.0186977386475,16.0194225311279,16.0201377868652,16.0208568572998,16.021577835083,16.0223026275635,16.0230140686035,16.0237369537354,16.0244579315186,16.0251808166504,16.025899887085,16.0266246795654,16.02734375,16.0280647277832,16.0287857055664,16.029504776001,16.0302257537842,16.0309505462646,16.0316715240479,16.0323886871338,16.0331134796143,16.0338363647461,16.0345554351807,16.0352821350098,16.0359992980957,16.0367221832275,16.0374450683594,16.0381717681885,16.0388870239258,16.0396099090576,16.0403327941895,16.0410499572754,16.0417747497559,16.0424976348877,16.0432147979736,16.0439472198486,16.0446643829346,16.0453853607178,16.0461120605469,16.0468330383301,16.0475578308105,16.0482807159424,16.0489959716797,16.0497264862061,16.0504512786865,16.0511722564697,16.0518951416016,16.0526142120361,16.0533390045166,16.0540580749512,16.0547904968262,16.0555095672607,16.0562324523926,16.0569591522217,16.0576820373535,16.0584087371826,16.0591278076172,16.0598468780518,16.0605754852295,16.06130027771,16.0620288848877,16.0627574920654,16.0634746551514,16.0642032623291,16.0649280548096,16.06565284729,16.0663719177246,16.0670986175537,16.0678234100342,16.0685501098633,16.0692729949951,16.0699977874756,16.0707168579102,16.0714454650879,16.0721740722656,16.0728969573975,16.0736198425293,16.0743465423584,16.0750751495361,16.075798034668,16.0765209197998,16.0772438049316,16.0779685974121,16.0786972045898,16.079418182373,16.080150604248,16.0808734893799,16.081600189209,16.0823287963867,16.0830516815186,16.0837726593018,16.0845031738281,16.0852279663086,16.0859565734863,16.0866794586182,16.0874042510986,16.088134765625,16.0888595581055,16.0895881652832,16.0903148651123,16.09104347229,16.0917682647705,16.0924949645996,16.0932197570801,16.0939483642578,16.0946731567383,16.0954055786133,16.0961303710938,16.0968589782715,16.0975818634033,16.0983085632324,16.0990409851074,16.0997638702393,16.1004905700684,16.1012191772461,16.1019439697266,16.1026763916016,16.1034069061279,16.1041297912598,16.1048603057861,16.1055812835693,16.1063137054443,16.1070442199707,16.1077728271484,16.1085014343262,16.1092224121094,16.1099548339844,16.1106853485107,16.1114082336426,16.1121406555176,16.1128711700439,16.113597869873,16.1143264770508,16.1150550842285,16.1157875061035,16.1165161132812,16.117244720459,16.1179714202881,16.1186981201172,16.1194324493408,16.1201591491699,16.1208877563477,16.121618270874,16.1223449707031,16.1230792999268,16.1238059997559,16.1245384216309,16.1252708435059,16.1259937286377,16.12672996521,16.1274585723877,16.1281833648682,16.1289176940918,16.1296443939209,16.1303787231445,16.1311092376709,16.1318321228027,16.1325702667236,16.1332969665527,16.134033203125,16.1347618103027,16.1354866027832,16.1362228393555,16.1369514465332,16.1376800537109,16.1384105682373,16.1391410827637,16.1398754119873,16.140604019165,16.1413440704346,16.142068862915,16.1427974700928,16.1435356140137,16.1442623138428,16.1449947357178,16.1457290649414,16.1464576721191,16.1471939086914,16.1479167938232,16.1486530303955,16.1493873596191,16.1501197814941,16.1508522033691,16.1515808105469,16.1523113250732,16.1530456542969,16.1537818908691,16.1545104980469,16.1552448272705,16.1559753417969,16.1567153930664,16.1574382781982,16.1581764221191,16.1589107513428,16.1596412658691,16.16037940979,16.1611080169678,16.1618404388428,16.1625785827637,16.16330909729,16.1640377044678,16.16477394104,16.1655120849609,16.16623878479,16.1669731140137,16.1677074432373,16.1684436798096,16.1691722869873,16.1699085235596,16.1706428527832,16.1713771820068,16.1721134185791,16.1728420257568,16.1735782623291,16.1743087768555,16.1750450134277,16.17578125,16.176513671875,16.1772480010986,16.1779823303223,16.1787223815918,16.1794567108154,16.1801891326904,16.1809215545654,16.1816558837891,16.1823959350586,16.1831283569336,16.1838607788086,16.1845970153809,16.1853313446045,16.1860694885254,16.1868095397949,16.1875400543213,16.1882781982422,16.1890068054199,16.1897468566895,16.1904773712158,16.1912155151367,16.1919536590576,16.1926898956299,16.1934261322021,16.1941566467285,16.1948909759521,16.1956310272217,16.1963691711426,16.1971035003662,16.1978378295898,16.1985759735107,16.1993160247803,16.2000541687012,16.2007846832275,16.2015228271484,16.2022590637207,16.2029991149902,16.2037334442139,16.2044696807861,16.205207824707,16.2059440612793,16.2066879272461,16.2074184417725,16.2081604003906,16.208890914917,16.2096328735352,16.2103729248047,16.2111034393311,16.2118453979492,16.2125854492188,16.2133159637451,16.2140617370605,16.2147941589355,16.2155323028564,16.2162704467773,16.2170085906982,16.2177467346191,16.21848487854,16.2192230224609,16.2199611663818,16.2206974029541,16.221435546875,16.2221794128418,16.2229175567627,16.2236595153809,16.2243957519531,16.225133895874,16.2258758544922,16.2266120910645,16.2273540496826,16.2280902862549,16.2288265228271,16.2295665740967,16.2303028106689,16.2310466766357,16.2317848205566,16.2325210571289,16.2332649230957,16.234001159668,16.2347450256348,16.2354888916016,16.2362194061279,16.236967086792,16.2376976013184,16.2384471893311,16.2391891479492,16.2399196624756,16.240665435791,16.2414073944092,16.2421436309814,16.2428855895996,16.2436256408691,16.2443675994873,0,0,0,0,0,0,0,0,0,0,0,0,0,0,0,0,0,0,0,0,0,0,0,0,0,0,0,0,0,0,0,0,0,0,0,0,0,0,0,0,0,0,0,0,0,0,0,0,0,0,0,0,0,0,0,0,0,0,0,0,0,0,0,0,0,0,0,0,0,0,0,0,0,0,0,0,0,0,0,0,0,0,0,0,0,0,0,0,0,0,0,0,0,0,0,0,0,0,0,0,0,0,0,0,0,0,0,0,0,0,0,0,0
15.7553672790527,15.7560567855835,15.7567558288574,15.75745677948,15.7581472396851,15.7588472366333,15.7595443725586,15.7602367401123,15.7609376907349,15.7616357803345,15.7623348236084,15.7630252838135,15.7637300491333,15.76442527771,15.7651176452637,15.7658176422119,15.7665195465088,15.7672071456909,15.7679128646851,15.768611907959,15.7692995071411,15.7700080871582,15.7707014083862,15.7714042663574,15.7721014022827,15.7727956771851,15.7734985351562,15.77419090271,15.7748937606812,15.7755918502808,15.7762908935547,15.77698802948,15.7776880264282,15.7783908843994,15.7790822982788,15.7797832489014,15.780481338501,15.7811794281006,15.7818813323975,15.7825756072998,15.783275604248,15.7839784622192,15.7846794128418,15.7853803634644,15.7860736846924,15.7867698669434,15.7874784469604,15.7881727218628,15.7888698577881,15.7895746231079,15.7902698516846,15.7909727096558,15.7916736602783,15.7923698425293,15.7930698394775,15.793776512146,15.7944746017456,15.7951698303223,15.7958784103394,15.7965774536133,15.7972736358643,15.7979726791382,15.7986783981323,15.7993698120117,15.80006980896,15.8007822036743,15.8014812469482,15.8021717071533,15.8028802871704,15.8035860061646,15.8042755126953,15.804986000061,15.8056879043579,15.8063802719116,15.8070907592773,15.8077878952026,15.8084936141968,15.809193611145,15.8098926544189,15.8105936050415,15.8112945556641,15.8120002746582,15.8126974105835,15.8134002685547,15.8141012191772,15.8148050308228,15.8155040740967,15.8162059783936,15.8169097900391,15.8176116943359,15.8183135986328,15.8190145492554,15.8197174072266,15.8204202651978,15.8211278915405,15.8218259811401,15.8225250244141,15.8232336044312,15.8239336013794,15.8246469497681,15.8253374099731,15.8260440826416,15.826753616333,15.8274478912354,15.8281497955322,15.8288583755493,15.8295526504517,15.8302621841431,15.8309679031372,15.83167552948,15.832368850708,15.8330755233765,15.8337850570679,15.8344802856445,15.8351879119873,15.8358917236328,15.8365936279297,15.8372983932495,15.8380079269409,15.8387060165405,15.8394050598145,15.8401184082031,15.8408231735229,15.8415222167969,15.8422317504883,15.8429374694824,15.8436336517334,15.8443441390991,15.8450508117676,15.8457489013672,15.8464593887329,15.8471622467041,15.8478679656982,15.8485679626465,15.8492784500122,15.8499851226807,15.850679397583,15.8513917922974,15.8520994186401,15.8527975082397,15.8535108566284,15.8542127609253,15.8549184799194,15.8556261062622,15.856330871582,15.8570365905762,15.8577404022217,15.8584461212158,15.8591556549072,15.8598594665527,15.8605661392212,15.8612718582153,15.8619766235352,15.8626861572266,15.8633899688721,15.8640975952148,15.8648014068604,15.8655099868774,15.8662128448486,15.86692237854,15.8676252365112,15.8683366775513,15.8690376281738,15.8697462081909,15.8704519271851,15.871166229248,15.871865272522,15.8725738525391,15.8732881546021,15.8739881515503,15.8746919631958,15.8754081726074,15.87610912323,15.8768148422241,15.8775329589844,15.8782377243042,15.8789377212524,15.8796548843384,15.8803606033325,15.8810625076294,15.8817777633667,15.8824844360352,15.8831872940063,15.8838930130005,15.8846063613892,15.8853101730347,15.8860168457031,15.8867311477661,15.8874378204346,15.888144493103,15.8888540267944,15.8895683288574,15.8902654647827,15.890983581543,15.8916921615601,15.8923921585083,15.8931102752686,15.8938150405884,15.8945283889771,15.8952360153198,15.8959407806396,15.8966493606567,15.897364616394,15.8980731964111,15.8987817764282,15.8994874954224,15.9002017974854,15.9009084701538,15.9016218185425,15.9023294448853,15.903037071228,15.9037475585938,15.9044570922852,15.9051704406738,15.9058780670166,15.906587600708,15.9072971343994,15.9080104827881,15.9087228775024,15.9094247817993,15.9101390838623,15.9108552932739,15.9115562438965,15.9122695922852,15.9129838943481,15.9136915206909,15.914402961731,15.9151153564453,15.9158239364624,15.9165334701538,15.9172487258911,15.9179601669312,15.9186677932739,15.9193820953369,15.9200944900513,15.9207992553711,15.921516418457,15.9222269058228,15.9229345321655,15.9236516952515,15.9243631362915,15.9250774383545,15.9257860183716,15.9264984130859,15.9272127151489,15.9279193878174,15.9286308288574,15.9293479919434,15.9300556182861,15.9307670593262,15.9314832687378,15.9321975708008,15.9329032897949,15.9336204528809,15.9343328475952,15.9350433349609,15.9357604980469,15.9364738464355,15.9371814727783,15.9378967285156,15.9386081695557,15.9393186569214,15.9400367736816,15.940749168396,15.9414625167847,15.9421710968018,15.942889213562,15.9436025619507,15.9443101882935,15.9450302124023,15.945746421814,15.9464550018311,15.9471683502197,15.9478855133057,15.948600769043,15.9493103027344,15.9500226974487,15.9507417678833,15.951452255249,15.9521684646606,15.9528856277466,15.9535942077637,15.9543075561523,15.9550266265869,15.9557447433472,15.9564523696899,15.9571695327759,15.9578857421875,15.9585962295532,15.9593143463135,15.9600257873535,15.9607372283936,15.9614572525024,15.9621715545654,15.9628839492798,15.96360206604,15.964319229126,15.9650392532349,15.965747833252,15.9664640426636,15.9671831130981,15.9678936004639,15.9686117172241,15.9693288803101,15.9700374603271,15.9707565307617,15.9714784622192,15.9721937179565,15.9729032516479,15.9736232757568,15.9743394851685,15.9750528335571,15.9757709503174,15.9764881134033,15.9771995544434,15.9779186248779,15.9786376953125,15.9793567657471,15.9800672531128,15.9807872772217,15.9815101623535,15.982216835022,15.9829359054565,15.9836597442627,15.9843683242798,15.9850912094116,15.9858055114746,15.9865188598633,15.9872398376465,15.9879579544067,15.9886751174927,15.98939037323,15.9901065826416,15.9908304214478,15.9915437698364,15.9922609329224,15.9929828643799,15.9936923980713,15.9944162368774,15.9951343536377,15.9958543777466,15.9965686798096,15.9972887039185,15.998007774353,15.998722076416,15.9994449615479,16.0001640319824,16.0008869171143,16.0016078948975,16.0023250579834,16.0030384063721,16.0037593841553,16.0044765472412,16.0051975250244,16.0059146881104,16.0066356658936,16.0073547363281,16.0080718994141,16.0087909698486,16.0095119476318,16.0102272033691,16.0109462738037,16.0116710662842,16.0123901367188,16.0131053924561,16.013822555542,16.0145473480225,16.0152645111084,16.0159816741943,16.0167064666748,16.0174312591553,16.0181446075439,16.0188674926758,16.0195865631104,16.0203094482422,16.0210304260254,16.0217456817627,16.0224685668945,16.0231914520264,16.023904800415,16.0246257781982,16.0253505706787,16.0260677337646,16.0267925262451,16.0275135040283,16.0282325744629,16.0289554595947,16.0296745300293,16.0303936004639,16.0311164855957,16.0318412780762,16.032564163208,16.0332832336426,16.0340003967285,16.0347213745117,16.0354480743408,16.0361652374268,16.0368938446045,16.0376091003418,16.038330078125,16.0390548706055,16.0397796630859,16.0405025482178,16.0412216186523,16.0419387817383,16.0426635742188,16.0433902740479,16.0441036224365,16.0448360443115,16.0455551147461,16.0462760925293,16.0470027923584,16.0477237701416,16.0484447479248,16.0491695404053,16.0498924255371,16.0506134033203,16.0513362884521,16.052059173584,16.0527820587158,16.0535125732422,16.0542316436768,16.0549545288086,16.0556812286377,16.0564022064209,16.0571327209473,16.0578517913818,16.0585708618164,16.0593013763428,16.0600204467773,16.0607471466064,16.0614681243896,16.0621929168701,16.0629215240479,16.063648223877,16.0643711090088,16.0650939941406,16.0658187866211,16.0665454864502,16.067268371582,16.0679874420166,16.0687122344971,16.0694408416748,16.070161819458,16.0708866119385,16.0716133117676,16.0723361968994,16.0730609893799,16.0737895965576,16.0745143890381,16.0752410888672,16.0759620666504,16.0766906738281,16.0774173736572,16.0781383514404,16.0788707733154,16.0795936584473,16.0803184509277,16.0810451507568,16.0817737579346,16.0824928283691,16.0832214355469,16.0839424133301,16.0846710205078,16.0854015350342,16.0861206054688,16.0868492126465,16.0875797271729,16.0883026123047,16.0890331268311,16.0897598266602,16.0904846191406,16.0912113189697,16.0919303894043,16.0926647186279,16.093391418457,16.0941181182861,16.0948448181152,16.0955715179443,16.0963001251221,16.0970287322998,16.0977535247803,16.0984764099121,16.0992088317871,16.0999355316162,16.100658416748,16.1013889312744,16.1021213531494,16.1028442382812,16.1035747528076,16.1042995452881,16.1050319671631,16.1057624816895,16.106481552124,0,0,0,0,0,0,0,0,0,0,0,0,0,0,0,0,0,0,0,0,0,0,0,0,0,0,0,0,0,0,0,0,0,0,0,0,0,0,0,0,0,0,0,0,0,0,0,0,0,0,0,0,0,0,0,0,0,0,0,0,0,0,0,0,0,0,0,0,0,0,0,0,0,0,0,0,0,0,0,0,0,0,0,0,0,0,0,0,0,0,0,0,0,0,0,0,0,0,0,0,0,0,0,0,0
0,0,0,0,0,0,15.6242561340332,15.6249380111694,15.62562084198,15.6263122558594,15.6269950866699,15.6276731491089,15.6283664703369,15.629054069519,15.6297407150269,15.6304216384888,15.6311120986938,15.6317930221558,15.6324768066406,15.6331672668457,15.6338510513306,15.6345405578613,15.6352262496948,15.635910987854,15.6366014480591,15.637282371521,15.6379680633545,15.6386604309082,15.6393375396729,15.6400232315063,15.6407175064087,15.6414012908936,15.6420879364014,15.6427717208862,15.6434679031372,15.6441440582275,15.6448345184326,15.645525932312,15.646203994751,15.6468954086304,15.6475830078125,15.6482677459717,15.6489543914795,15.6496477127075,15.6503276824951,15.6510162353516,15.6517114639282,15.652398109436,15.6530809402466,15.653772354126,15.6544609069824,15.6551389694214,15.655837059021,15.6565256118774,15.657205581665,15.6578989028931,15.6585836410522,15.6592779159546,15.6599597930908,15.6606502532959,15.6613445281982,15.6620225906372,15.6627159118652,15.6634044647217,15.6640892028809,15.6647834777832,15.6654682159424,15.6661605834961,15.6668491363525,15.667534828186,15.6682233810425,15.6689119338989,15.6696062088013,15.6702947616577,15.6709794998169,15.6716680526733,15.6723585128784,15.6730508804321,15.6737403869629,15.6744318008423,15.675124168396,15.6758089065552,15.6764965057373,15.6771869659424,15.6778774261475,15.6785659790039,15.6792573928833,15.6799478530884,15.6806383132935,15.681324005127,15.6820230484009,15.6827068328857,15.6834011077881,15.6840953826904,15.6847820281982,15.6854696273804,15.6861658096313,15.6868476867676,15.6875438690186,15.6882390975952,15.688928604126,15.6896142959595,15.6903114318848,15.6910028457642,15.691686630249,15.6923818588257,15.6930732727051,15.6937599182129,15.694450378418,15.6951456069946,15.6958351135254,15.6965217590332,15.6972198486328,15.6979150772095,15.6986017227173,15.6992950439453,15.699987411499,15.7006731033325,15.7013702392578,15.7020626068115,15.702751159668,15.7034482955933,15.704140663147,15.7048311233521,15.7055225372314,15.7062120437622,15.7069082260132,15.7076005935669,15.7082929611206,15.708984375,15.7096786499023,15.7103700637817,15.7110643386841,15.7117557525635,15.7124471664429,15.7131423950195,15.7138338088989,15.7145261764526,15.7152242660522,15.715916633606,15.7166051864624,15.7172975540161,15.7179918289185,15.7186870574951,15.7193794250488,15.7200746536255,15.7207717895508,15.7214603424072,15.7221517562866,15.7228498458862,15.723539352417,15.7242383956909,15.7249374389648,15.725622177124,15.7263154983521,15.7270164489746,15.7277154922485,15.7283983230591,15.7290954589844,15.729793548584,15.7304830551147,15.7311763763428,15.731876373291,15.7325658798218,15.7332611083984,15.7339572906494,15.7346572875977,15.7353439331055,15.7360458374023,15.736741065979,15.7374315261841,15.7381296157837,15.7388248443604,15.7395162582397,15.7402153015137,15.740912437439,15.7415990829468,15.742299079895,15.7429981231689,15.7436923980713,15.7443885803223,15.745080947876,15.745777130127,15.7464685440063,15.7471704483032,15.7478647232056,15.7485589981079,15.7492589950562,15.7499589920044,15.7506484985352,15.7513437271118,15.7520427703857,15.752739906311,15.7534370422363,15.754132270813,15.7548303604126,15.7555227279663,15.7562189102173,15.7569179534912,15.7576179504395,15.7583093643188,15.7590093612671,15.7597122192383,15.7603979110718,15.7610998153687,15.7617969512939,15.7624921798706,15.7631883621216,15.7638874053955,15.7645816802979,15.7652807235718,15.7659816741943,15.7666826248169,15.7673749923706,15.7680730819702,15.7687768936157,15.7694683074951,15.7701644897461,15.7708673477173,15.7715606689453,15.7722625732422,15.7729616165161,15.77366065979,15.7743539810181,15.7750597000122,15.7757587432861,15.7764492034912,15.7771530151367,15.777850151062,15.7785472869873,15.779242515564,15.7799482345581,15.7806491851807,15.7813405990601,15.7820472717285,15.7827425003052,15.7834348678589,15.7841415405273,15.7848443984985,15.7855358123779,15.7862377166748,15.7869386672974,15.7876348495483,15.7883358001709,15.7890348434448,15.7897424697876,15.7904348373413,15.7911348342896,15.7918386459351,15.7925319671631,15.7932367324829,15.7939376831055,15.7946357727051,15.7953357696533,15.7960357666016,15.7967386245728,15.797435760498,15.7981367111206,15.7988405227661,15.7995386123657,15.8002395629883,15.8009433746338,15.8016386032104,15.8023414611816,15.8030462265015,15.8037452697754,15.8044414520264,15.8051490783691,15.8058481216431,15.806544303894,15.8072500228882,15.8079500198364,15.8086500167847,15.8093538284302,15.8100576400757,15.8107538223267,15.8114566802979,15.8121614456177,15.8128643035889,15.8135643005371,15.8142652511597,15.8149719238281,15.8156690597534,15.8163709640503,15.8170747756958,15.8177719116211,15.8184776306152,15.8191804885864,15.8198852539062,15.8205833435059,15.8212881088257,15.8219938278198,15.8226919174194,15.8233966827393,15.8241004943848,15.824800491333,15.8255052566528,15.8262100219727,15.8269119262695,15.8276119232178,15.8283205032349,15.8290233612061,15.82972240448,15.8304271697998,15.8311328887939,15.8318309783936,15.832537651062,15.8332414627075,15.8339471817017,15.8346490859985,15.8353509902954,15.8360576629639,15.8367595672607,15.8374624252319,15.838171005249,15.8388700485229,15.8395757675171,15.8402843475342,15.8409814834595,15.8416881561279,15.8423929214478,15.8431015014648,15.8437995910645,15.8445053100586,15.8452157974243,15.8459129333496,15.8466196060181,15.8473281860352,15.8480281829834,15.8487319946289,15.8494424819946,15.8501510620117,15.85085105896,15.8515596389771,15.8522653579712,15.8529634475708,15.8536701202393,15.854380607605,15.8550796508789,15.855788230896,15.8564939498901,15.8572044372559,15.8579034805298,15.8586091995239,15.8593215942383,15.8600225448608,15.8607311248779,15.861439704895,15.8621368408203,15.8628463745117,15.8635559082031,15.8642568588257,15.8649625778198,15.8656768798828,15.8663816452026,15.8670864105225,15.8677930831909,15.8685026168823,15.8692035675049,15.8699131011963,15.8706207275391,15.8713245391846,15.872031211853,15.8727426528931,15.8734521865845,15.8741540908813,15.8748617172241,15.8755741119385,15.8762731552124,15.8769874572754,15.8776941299438,15.8783979415894,15.8791074752808,15.8798151016235,15.8805274963379,15.8812303543091,15.8819379806519,15.8826475143433,15.8833532333374,15.8840589523315,15.8847742080688,15.8854789733887,15.8861865997314,15.8868961334229,15.8875999450684,15.8883085250854,15.8890237808228,15.8897294998169,15.8904342651367,15.8911485671997,15.8918590545654,15.892560005188,15.8932723999023,15.8939800262451,15.8946876525879,15.8954010009766,15.8961095809937,15.8968200683594,15.8975219726562,15.8982372283936,15.8989477157593,15.8996524810791,15.9003629684448,15.9010763168335,15.9017820358276,15.902494430542,15.9032077789307,15.9039182662964,15.9046239852905,15.9053354263306,15.9060468673706,15.9067525863647,15.9074611663818,15.9081792831421,15.908881187439,15.9095945358276,15.910306930542,15.9110136032104,15.9117231369019,15.9124393463135,15.9131517410278,15.9138555526733,15.9145708084106,15.915283203125,15.9159889221191,15.9167022705078,15.9174137115479,15.9181203842163,15.9188365936279,15.919548034668,15.9202632904053,15.9209690093994,15.9216814041138,15.9223966598511,15.9230985641479,15.9238138198853,15.9245290756226,15.9252367019653,15.925950050354,15.9266653060913,15.927375793457,15.9280843734741,15.9288015365601,15.9295139312744,15.9302196502686,15.9309358596802,15.9316501617432,15.9323577880859,15.9330739974976,15.9337882995605,15.9344940185547,15.9352073669434,15.9359245300293,15.9366397857666,15.9373464584351,15.9380598068237,15.9387798309326,15.9394845962524,15.9402008056641,15.9409170150757,15.9416236877441,15.9423418045044,15.9430551528931,15.9437713623047,15.9444818496704,15.9451942443848,15.9459133148193,15.9466199874878,15.9473371505737,15.9480533599854,15.9487628936768,15.9494752883911,15.9501924514771,15.9509086608887,15.9516181945801,15.9523363113403,15.9530506134033,15.9537620544434,15.9544773101807,15.9551916122437,15.9559049606323,15.9566221237183,15.9573392868042,15.9580459594727,15.9587631225586,15.9594802856445,15.9601974487305,15.9609088897705,15.9616231918335,15.9623403549194,15.9630537033081,15.9637689590454,15.9644870758057,15.9651966094971,15.9659175872803,15.9666318893433,15.9673480987549,15.9680595397949,15.9687776565552,15.9694948196411,15.9702072143555,15.9709234237671,0,0,0,0,0,0,0,0,0,0,0,0,0,0,0,0,0,0,0,0,0,0,0,0,0,0,0,0,0,0,0,0,0,0,0,0,0,0,0,0,0,0,0,0,0,0,0,0,0,0,0,0,0,0,0,0,0,0,0,0,0,0,0,0,0,0,0,0,0,0,0,0,0,0,0,0,0,0,0,0,0,0,0,0,0,0,0,0,0,0,0,0,0,0,0,0,0
0,0,0,0,0,0,0,0,0,0,0,0,0,0,0,0,0,0,0,0,0,0,0,0,0,0,0,0,0,0,0,0,0,0,0,0,0,0,0,0,0,0,0,0,0,0,0,0,0,0,0,0,0,0,0,0,0,0,0,0,0,0,0,0,0,0,0,0,0,0,0,0,0,0,0,0,0,0,0,0,0,0,0,0,0,0,0,0,0,15.5473718643188,15.5480546951294,15.5487337112427,15.5494041442871,15.5500888824463,15.5507698059082,15.5514392852783,15.5521249771118,15.5528059005737,15.5534782409668,15.5541582107544,15.5548410415649,15.5555143356323,15.5561962127686,15.5568799972534,15.557559967041,15.5582323074341,15.5589170455933,15.5595979690552,15.5602693557739,15.5609550476074,15.5616321563721,15.5623111724854,15.5629911422729,15.5636749267578,15.5643510818481,15.5650320053101,15.5657119750977,15.5663919448853,15.5670738220215,15.5677547454834,15.5684328079224,15.5691089630127,15.5697908401489,15.5704689025879,15.5711603164673,15.5718374252319,15.5725145339966,15.5732021331787,15.5738744735718,15.5745544433594,15.5752363204956,15.5759143829346,15.5766019821167,15.5772800445557,15.5779581069946,15.5786399841309,15.57932472229,15.5800104141235,15.5806837081909,15.5813674926758,15.5820550918579,15.5827283859253,15.5834112167358,15.584098815918,15.5847721099854,15.5854539871216,15.5861444473267,15.5868263244629,15.5875015258789,15.5881872177124,15.5888700485229,15.5895471572876,15.5902347564697,15.5909175872803,15.5915966033936,15.5922794342041,15.592963218689,15.5936441421509,15.5943212509155,15.5950107574463,15.5956945419312,15.5963726043701,15.5970582962036,15.5977401733398,15.5984210968018,15.5991086959839,15.5997924804688,15.6004667282104,15.6011543273926,15.6018371582031,15.6025238037109,15.6032009124756,15.6038875579834,15.6045713424683,15.6052560806274,15.6059370040894,15.6066217422485,15.607307434082,15.607985496521,15.6086711883545,15.6093587875366,15.6100358963013,15.6107225418091,15.6114082336426,15.6120901107788,15.6127786636353,15.6134634017944,15.614143371582,15.6148271560669,15.6155118942261,15.6161985397339,15.6168832778931,15.6175661087036,15.6182527542114,15.6189317703247,15.6196203231812,15.6203098297119,15.6209907531738,15.6216735839844,15.6223640441895,15.6230411529541,15.6237258911133,15.6244173049927,15.6251001358032,15.6257791519165,15.6264696121216,15.6271591186523,15.6278381347656,15.6285276412964,15.6292133331299,15.6298942565918,15.630578994751,15.631272315979,15.6319551467896,15.6326370239258,15.6333293914795,15.6340160369873,15.6346960067749,15.6353874206543,15.6360740661621,15.6367511749268,15.6374425888062,15.638129234314,15.638819694519,15.639500617981,15.6401891708374,15.6408777236938,15.6415634155273,15.6422481536865,15.6429357528687,15.6436176300049,15.6443119049072,15.6449995040894,15.645679473877,15.646369934082,15.6470594406128,15.647744178772,15.6484308242798,15.6491165161133,15.649806022644,15.6504936218262,15.6511812210083,15.6518697738647,15.6525535583496,15.6532402038574,15.6539306640625,15.6546239852905,15.6553068161011,15.6559944152832,15.6566896438599,15.6573705673218,15.6580562591553,15.6587514877319,15.6594324111938,15.6601190567017,15.6608142852783,15.6615009307861,15.6621856689453,15.6628761291504,15.6635675430298,15.6642513275146,15.6649417877197,15.6656303405762,15.666316986084,15.6670093536377,15.6676979064941,15.6683826446533,15.6690731048584,15.6697645187378,15.6704578399658,15.6711416244507,15.6718311309814,15.6725254058838,15.6732063293457,15.6739015579224,15.6745948791504,15.6752758026123,15.675971031189,15.6766624450684,15.6773509979248,15.6780385971069,15.6787309646606,15.6794233322144,15.6801061630249,15.68079662323,15.681489944458,15.6821784973145,15.6828670501709,15.6835632324219,15.684253692627,15.6849412918091,15.6856317520142,15.6863241195679,15.6870107650757,15.687705039978,15.6883983612061,15.6890840530396,15.6897745132446,15.6904668807983,15.6911544799805,15.6918468475342,15.6925430297852,15.6932353973389,15.6939220428467,15.6946134567261,15.6953067779541,15.6959943771362,15.6966886520386,15.6973838806152,15.6980676651001,15.6987609863281,15.6994571685791,15.7001495361328,15.7008371353149,15.7015314102173,15.7022266387939,15.7029123306274,15.7036075592041,15.7043037414551,15.7049913406372,15.7056837081909,15.7063779830933,15.7070751190186,15.7077569961548,15.7084541320801,15.7091484069824,15.7098360061646,15.7105312347412,15.7112274169922,15.7119121551514,15.7126092910767,15.713303565979,15.7139949798584,15.7146883010864,15.7153816223145,15.7160797119141,15.7167663574219,15.7174615859985,15.7181596755981,15.7188444137573,15.7195405960083,15.7202386856079,15.7209272384644,15.7216215133667,15.7223196029663,15.723014831543,15.7237033843994,15.7244005203247,15.7250938415527,15.7257833480835,15.7264842987061,15.7271766662598,15.7278671264648,15.7285623550415,15.7292604446411,15.7299575805664,15.7306461334229,15.7313385009766,15.7320384979248,15.7327260971069,15.7334241867065,15.7341232299805,15.7348108291626,15.7355089187622,15.7362060546875,15.7368955612183,15.7375936508179,15.7382936477661,15.7389869689941,15.7396793365479,15.7403736114502,15.7410726547241,15.7417640686035,15.7424602508545,15.7431573867798,15.7438497543335,15.7445468902588,15.7452459335327,15.7459449768066,15.7466344833374,15.747332572937,15.7480335235596,15.7487211227417,15.7494201660156,15.7501153945923,15.7508096694946,15.7515096664429,15.7522010803223,15.7529048919678,15.7535963058472,15.7542943954468,15.7549915313721,15.7556838989258,15.756383895874,15.7570829391479,15.7577743530273,15.7584705352783,15.7591753005981,15.7598695755005,15.7605638504028,15.761266708374,15.7619609832764,15.7626533508301,15.7633571624756,15.7640552520752,15.7647476196289,15.7654466629028,15.7661457061768,15.7668390274048,15.7675371170044,15.7682390213013,15.7689399719238,15.769627571106,15.7703323364258,15.7710313796997,15.7717247009277,15.7724266052246,15.7731256484985,15.7738170623779,15.7745199203491,15.7752180099487,15.7759208679199,15.7766151428223,15.7773132324219,15.7780141830444,15.778712272644,15.779408454895,15.7801122665405,15.7808046340942,15.7815036773682,15.782208442688,15.7829132080078,15.7836008071899,15.7843036651611,15.7850036621094,15.7857007980347,15.7864017486572,15.7871017456055,15.7877960205078,15.7884998321533,15.7892017364502,15.7898979187012,15.7905979156494,15.7912998199463,15.7920017242432,15.7926979064941,15.7934017181396,15.7941026687622,15.7947969436646,15.7955007553101,15.7962017059326,15.7968969345093,15.7976016998291,15.7983026504517,15.7990045547485,15.7996997833252,15.8004055023193,15.8011074066162,15.8018007278442,15.8025054931641,15.8032064437866,15.8039045333862,15.8046083450317,15.8053102493286,15.8060131072998,15.8067102432251,15.8074140548706,15.8081178665161,15.8088121414185,15.8095169067383,15.8102216720581,15.8109197616577,15.8116226196289,15.8123245239258,15.8130235671997,15.8137283325195,15.8144302368164,15.8151359558105,15.8158359527588,15.816535949707,15.8172416687012,15.8179359436035,15.818639755249,15.8193473815918,15.8200435638428,15.8207492828369,15.8214550018311,15.8221569061279,15.8228578567505,15.8235635757446,15.8242645263672,15.8249626159668,15.8256711959839,15.8263731002808,15.8270740509033,15.8277759552002,15.8284826278687,15.8291902542114,15.8298854827881,15.8305931091309,15.8312959671021,15.8319959640503,15.8327035903931,15.8334083557129,15.8341073989868,15.8348121643066,15.8355178833008,15.8362159729004,15.8369226455688,15.837628364563,0,0,0,0,0,0,0,0,0,0,0,0,0,0,0,0,0,0,0,0,0,0,0,0,0,0,0,0,0,0,0,0,0,0,0,0,0,0,0,0,0,0,0,0,0,0,0,0,0,0,0,0,0,0,0,0,0,0,0,0,0,0,0,0,0,0,0,0,0,0,0,0,0,0,0,0,0,0,0,0,0,0,0,0,0,0,0,0,0
0,0,0,0,0,0,0,0,0,0,0,0,0,0,0,0,0,0,0,0,0,0,0,0,0,0,0,0,0,0,0,0,0,0,0,0,0,0,0,0,0,0,0,0,0,0,0,0,0,0,0,0,0,0,0,0,0,0,0,0,0,0,0,0,0,0,0,0,0,0,0,0,0,0,0,0,0,0,0,0,0,0,0,0,0,0,0,0,0,0,0,0,0,0,0,0,0,0,0,0,0,0,0,0,0,0,0,0,0,0,0,0,0,0,0,0,0,0,0,0,0,0,0,0,0,0,0,0,0,0,0,0,0,0,0,0,0,0,0,0,0,0,0,0,15.4524574279785,15.4531240463257,15.4537992477417,15.4544706344604,15.4551391601562,15.4558086395264,15.4564809799194,15.4571514129639,15.457820892334,15.4584894180298,15.4591655731201,15.4598264694214,15.4605045318604,15.4611768722534,15.4618434906006,15.4625196456909,15.4631872177124,15.4638595581055,15.4645309448242,15.4651985168457,15.4658756256104,15.4665441513062,15.4672136306763,15.4678907394409,15.4685564041138,15.4692277908325,15.4699029922485,15.4705772399902,15.4712419509888,15.4719161987305,15.4725952148438,15.4732608795166,15.4739351272583,15.4746055603027,15.4752759933472,15.4759454727173,15.4766178131104,15.4772977828979,15.4779615402222,15.4786376953125,15.4793138504028,15.4799842834473,15.4806518554688,15.481333732605,15.4819993972778,15.4826736450195,15.4833498001099,15.4840173721313,15.4846925735474,15.485369682312,15.4860401153564,15.4867095947266,15.4873886108398,15.4880628585815,15.4887285232544,15.4894094467163,15.4900808334351,15.4907455444336,15.4914216995239,15.4920988082886,15.4927730560303,15.4934434890747,15.4941205978394,15.4947967529297,15.4954624176025,15.4961423873901,15.4968175888062,15.4974842071533,15.4981641769409,15.4988355636597,15.4995145797729,15.500186920166,15.5008592605591,15.5015363693237,15.5022087097168,15.5028848648071,15.5035581588745,15.5042333602905,15.5049076080322,15.5055828094482,15.5062532424927,15.5069303512573,15.5076093673706,15.5082807540894,15.5089530944824,15.50963306427,15.5103054046631,15.5109796524048,15.5116577148438,15.5123300552368,15.5130043029785,15.5136814117432,15.5143575668335,15.5150394439697,15.5157108306885,15.5163869857788,15.5170679092407,15.5177354812622,15.5184116363525,15.5190944671631,15.5197639465332,15.5204410552979,15.5211191177368,15.521800994873,15.5224666595459,15.5231494903564,15.5238275527954,15.5244970321655,15.5251750946045,15.5258569717407,15.5265274047852,15.5272006988525,15.5278854370117,15.5285558700562,15.5292310714722,15.5299167633057,15.5305910110474,15.5312652587891,15.5319452285767,15.5326242446899,15.5332918167114,15.5339756011963,15.5346536636353,15.5353269577026,15.5360097885132,15.5366830825806,15.5373630523682,15.5380401611328,15.5387201309204,15.5393962860107,15.5400686264038,15.540753364563,15.5414276123047,15.5420999526978,15.5427846908569,15.5434637069702,15.5441427230835,15.5448179244995,15.5454988479614,15.5461750030518,15.5468482971191,15.5475292205811,15.5482120513916,15.548885345459,15.5495672225952,15.5502481460571,15.5509185791016,15.5516023635864,15.5522842407227,15.5529623031616,15.553638458252,15.5543165206909,15.5549983978271,15.5556764602661,15.5563564300537,15.5570373535156,15.5577116012573,15.5583906173706,15.5590734481812,15.5597543716431,15.560432434082,15.5611133575439,15.5617952346802,15.5624685287476,15.5631532669067,15.56383228302,15.5645084381104,15.5651884078979,15.5658712387085,15.566556930542,15.5672292709351,15.567910194397,15.5685930252075,15.5692701339722,15.5699520111084,15.5706348419189,15.5713090896606,15.5719957351685,15.5726776123047,15.5733489990234,15.5740365982056,15.5747175216675,15.5753974914551,15.5760774612427,15.5767612457275,15.5774402618408,15.5781183242798,15.5787992477417,15.5794839859009,15.5801620483398,15.5808448791504,15.5815277099609,15.5822143554688,15.5828866958618,15.5835742950439,15.5842590332031,15.5849332809448,15.585618019104,15.5863008499146,15.5869798660278,15.587664604187,15.5883455276489,15.5890312194824,15.5897102355957,15.5903921127319,15.5910768508911,15.5917549133301,15.5924396514893,15.5931224822998,15.5937995910645,15.5944843292236,15.5951709747314,15.5958452224731,15.5965337753296,15.5972185134888,15.597900390625,15.5985794067383,15.5992660522461,15.599949836731,15.6006317138672,15.6013154983521,15.6020002365112,15.6026792526245,15.6033658981323,15.6040477752686,15.6047344207764,15.6054086685181,15.6060991287231,15.606785774231,15.6074600219727,15.6081485748291,15.6088314056396,15.6095132827759,15.6101970672607,15.6108875274658,15.6115694046021,15.6122493743896,15.6129331588745,15.613621711731,15.6142997741699,15.6149892807007,15.6156768798828,15.6163549423218,15.617039680481,15.6177282333374,15.6184101104736,15.6190958023071,15.619779586792,15.6204700469971,15.6211500167847,15.6218338012695,15.6225185394287,15.6232023239136,15.6238889694214,15.6245756149292,15.6252574920654,15.6259431838989,15.6266326904297,15.6273193359375,15.6280002593994,15.6286888122559,15.6293745040894,15.6300554275513,15.6307439804077,15.6314334869385,15.6321086883545,15.6327991485596,15.633487701416,15.6341762542725,15.6348571777344,15.6355457305908,15.6362314224243,15.6369161605835,15.6376028060913,15.6382923126221,15.638973236084,15.6396589279175,15.6403512954712,15.6410293579102,15.6417198181152,15.642409324646,15.6430978775024,15.6437788009644,15.6444692611694,15.6451587677002,15.6458396911621,15.6465311050415,15.6472158432007,15.6478986740112,15.6485891342163,15.6492795944214,15.6499700546265,15.6506509780884,15.6513404846191,15.6520280838013,15.6527137756348,15.6534032821655,15.6540908813477,15.6547718048096,15.6554660797119,15.656156539917,15.6568460464478,15.657527923584,15.6582183837891,15.6589069366455,15.6595916748047,15.6602840423584,15.6609716415405,15.6616592407227,15.6623497009277,15.6630363464355,15.663722038269,15.6644124984741,15.6651039123535,15.6657953262329,15.6664781570435,15.6671724319458,15.6678609848022,15.6685447692871,15.6692361831665,15.6699275970459,15.6706132888794,15.6713047027588,15.6719932556152,15.6726856231689,15.6733694076538,15.6740617752075,15.6747531890869,15.6754379272461,15.6761312484741,15.6768226623535,15.6775093078613,15.6782007217407,15.6788921356201,15.6795835494995,15.680269241333,15.6809606552124,15.6816530227661,15.6823396682739,15.6830310821533,15.6837253570557,15.6844081878662,15.6851015090942,15.6857957839966,15.6864852905273,15.6871728897095,15.6878643035889,15.6885585784912,15.689245223999,15.6899375915527,15.6906309127808,15.6913146972656,15.6920108795166,15.6927042007446,15.6933898925781,15.6940841674805,15.6947774887085,15.6954698562622,15.6961603164673,15.6968507766724,15.6975440979004,15.6982316970825,15.6989240646362,15.6996202468872,15.7003078460693,15.7009983062744,15.7016954421997,15.7023906707764,15.7030744552612,15.7037715911865,15.7044658660889,15.7051515579224,15.7058477401733,15.7065391540527,0,0,0,0,0,0,0,0,0,0,0,0,0,0,0,0,0,0,0,0,0,0,0,0,0,0,0,0,0,0,0,0,0,0,0,0,0,0,0,0,0,0,0,0,0,0,0,0,0,0,0,0,0,0,0,0,0,0,0,0,0,0,0,0,0,0,0,0,0,0,0,0,0,0,0,0,0,0,0,0,0
0,0,0,0,0,0,0,0,0,0,0,0,0,0,0,0,0,0,0,0,0,0,0,0,0,0,0,0,0,0,0,0,0,0,0,0,0,0,0,0,0,0,0,0,0,0,0,0,0,0,0,0,0,0,0,0,0,0,0,0,0,0,0,0,0,0,0,0,0,0,0,0,0,0,0,0,0,0,0,0,0,0,0,0,0,0,0,0,0,0,0,0,0,0,0,0,0,0,0,0,0,0,0,0,0,0,0,0,0,0,0,0,0,0,0,0,0,0,0,0,0,0,0,0,0,0,0,0,0,0,0,0,0,0,0,0,0,0,0,0,0,0,0,0,0,15.3230276107788,15.3236827850342,15.3243446350098,15.3250017166138,15.3256597518921,15.326322555542,15.3269805908203,15.3276405334473,15.328296661377,15.3289613723755,15.3296146392822,15.3302774429321,15.3309383392334,15.3315944671631,15.3322582244873,15.3329162597656,15.3335742950439,15.3342409133911,15.3348951339722,15.3355531692505,15.336217880249,15.336874961853,15.33753490448,15.3382015228271,15.3388557434082,15.3395166397095,15.340184211731,15.3408374786377,15.3414974212646,15.3421649932861,15.3428249359131,15.3434810638428,15.3441390991211,15.3448095321655,15.3454618453979,15.3461265563965,15.3467874526978,15.3474435806274,15.3481035232544,15.3487720489502,15.3494358062744,15.3500909805298,15.3507537841797,15.3514194488525,15.3520679473877,15.3527383804321,15.3533983230591,15.3540554046631,15.3547248840332,15.3553876876831,15.3560514450073,15.3567085266113,15.3573722839355,15.3580312728882,15.3586978912354,15.359354019165,15.3600196838379,15.3606748580933,15.3613405227661,15.3620071411133,15.3626699447632,15.3633289337158,15.3639917373657,15.3646554946899,15.3653192520142,15.3659820556641,15.366641998291,15.3673009872437,15.3679714202881,15.3686304092407,15.369291305542,15.3699579238892,15.3706216812134,15.3712892532349,15.3719453811646,15.3726081848145,15.3732786178589,15.3739356994629,15.3746013641357,15.3752679824829,15.3759241104126,15.3765916824341,15.377254486084,15.3779191970825,15.3785791397095,15.379246711731,15.3799114227295,15.3805704116821,15.3812370300293,15.3819065093994,15.3825635910034,15.383228302002,15.3838977813721,15.3845596313477,15.3852186203003,15.3858880996704,15.3865537643433,15.3872117996216,15.3878793716431,15.3885469436646,15.3892068862915,15.389874458313,15.3905410766602,15.3911962509155,15.3918695449829,15.3925352096558,15.3932008743286,15.3938579559326,15.3945283889771,15.3951959609985,15.3958539962769,15.396523475647,15.3971891403198,15.3978490829468,15.3985214233398,15.3991861343384,15.3998508453369,15.4005174636841,15.4011840820312,15.4018487930298,15.4025135040283,15.4031820297241,15.4038486480713,15.4045124053955,15.4051790237427,15.4058437347412,15.4065170288086,15.4071760177612,15.4078426361084,15.4085073471069,15.4091739654541,15.4098415374756,15.4105072021484,15.4111709594727,15.4118404388428,15.4125061035156,15.4131736755371,15.4138383865356,15.4145069122314,15.4151792526245,15.4158420562744,15.4165105819702,15.4171772003174,15.4178400039673,15.418511390686,15.4191780090332,15.4198427200317,15.4205121994019,15.4211797714233,15.4218511581421,15.4225130081177,15.4231815338135,15.4238529205322,15.4245176315308,15.4251832962036,15.4258546829224,15.4265165328979,15.427188873291,15.4278602600098,15.4285259246826,15.4291934967041,15.4298601150513,15.4305305480957,15.4311943054199,15.431866645813,15.4325342178345,15.433201789856,15.4338684082031,15.4345388412476,15.4352054595947,15.4358777999878,15.4365453720093,15.437216758728,15.4378805160522,15.4385509490967,15.4392232894897,15.4398899078369,15.4405584335327,15.4412288665771,15.4418964385986,15.4425687789917,15.4432363510132,15.4439096450806,15.4445743560791,15.4452438354492,15.4459180831909,15.4465808868408,15.4472522735596,15.4479265213013,15.4485883712769,15.4492616653442,15.4499349594116,15.4506053924561,15.4512739181519,15.4519472122192,15.4526147842407,15.4532842636108,15.4539546966553,15.454626083374,15.4552927017212,15.4559631347656,15.456636428833,15.4573049545288,15.4579772949219,15.4586505889893,15.4593210220337,15.4599876403809,15.4606628417969,15.4613361358643,15.4619979858398,15.4626712799072,15.4633455276489,15.4640140533447,15.4646863937378,15.4653587341309,15.4660320281982,15.466700553894,15.4673719406128,15.4680452346802,15.4687156677246,15.4693870544434,15.4700622558594,15.4707260131836,15.4714031219482,15.4720764160156,15.4727506637573,15.4734163284302,15.4740886688232,15.4747610092163,15.4754333496094,15.4761066436768,15.4767808914185,15.4774465560913,15.4781227111816,15.4787979125977,15.4794692993164,15.4801378250122,15.4808120727539,15.4814891815186,15.4821548461914,15.4828310012817,15.4835052490234,15.4841728210449,15.4848508834839,15.4855260848999,15.4861907958984,15.4868698120117,15.4875411987305,15.4882192611694,15.4888858795166,15.4895620346069,15.4902391433716,15.4909114837646,15.4915819168091,15.4922561645508,15.4929275512695,15.4935998916626,15.4942770004272,15.4949531555176,15.4956226348877,15.4963006973267,15.496973991394,15.4976472854614,15.4983215332031,15.4989976882935,15.4996652603149,15.5003442764282,15.5010185241699,15.5016870498657,15.502366065979,15.5030422210693,15.503719329834,15.5043859481812,15.5050659179688,15.5057411193848,15.5064086914062,15.5070886611938,15.5077667236328,15.50843334198,15.5091152191162,15.5097904205322,15.5104675292969,15.5111360549927,15.5118131637573,15.5124931335449,15.5131645202637,15.5138368606567,15.5145149230957,15.515191078186,15.5158672332764,15.5165433883667,15.5172243118286,15.517894744873,15.5185747146606,15.5192537307739,15.519923210144,15.5206003189087,15.521279335022,15.5219478607178,15.5226278305054,15.523307800293,15.523980140686,15.5246562957764,15.5253343582153,15.52601146698,15.5266857147217,15.5273599624634,15.5280447006226,15.528712272644,15.5293912887573,15.5300712585449,15.530743598938,15.5314226150513,15.5321025848389,15.5327787399292,15.5334539413452,15.5341358184814,15.5348129272461,15.5354871749878,15.5361633300781,15.5368413925171,15.5375194549561,15.5381946563721,15.5388774871826,15.5395565032959,15.5402269363403,15.5409107208252,15.5415906906128,15.5422630310059,15.5429420471191,15.5436239242554,15.5442934036255,15.5449752807617,15.5456562042236,15.5463314056396,15.5470104217529,15.5476894378662,15.5483722686768,15.5490455627441,15.5497245788574,15.550404548645,15.5510778427124,15.5517625808716,15.303409576416,15.3040781021118,15.3047456741333,15.3054132461548,15.3060817718506,15.3067502975464,15.3074178695679,15.3080854415894,15.3087539672852,15.309422492981,15.3100910186768,15.3107595443726,15.3114280700684,15.3120956420898,15.31276512146,15.3134336471558,15.3141021728516,15.3147706985474,15.3154392242432,15.316107749939,15.3167772293091,15.3174467086792,15.318115234375,15.3187847137451,15.3194532394409,15.320122718811,15.3207921981812,15.321460723877,15.3221311569214,15.3228006362915,15.3234691619873,15.3241386413574,15.3248090744019,15.325478553772,15.3261480331421,15.3268175125122,15.3274879455566,15.3281574249268,0,0,0,0,0,0,0,0,0,0,0,0,0,0,0,0,0,0,0,0,0,0,0,0,0,0,0,0,0,0,0,0,0,0,0,0,0,0,0,0,0,0,0,0,0,0,0,0,0,0,0,0,0,0,0,0,0,0,0,0,0,0,0,0,0,0,0,0,0,0,0,0,0
0,0,0,0,0,0,0,0,0,0,0,0,0,0,0,0,0,0,0,0,0,0,0,0,0,0,0,0,0,0,0,0,0,0,0,0,0,0,0,0,0,0,0,0,0,0,0,0,0,0,0,0,0,0,0,0,0,0,0,0,0,0,0,0,0,0,0,0,0,0,0,0,0,0,0,0,0,0,0,0,0,0,0,0,0,0,0,0,0,0,0,0,0,0,0,0,0,0,0,0,0,0,0,0,0,0,0,0,0,0,0,0,0,0,0,0,0,0,0,0,0,0,0,0,0,0,0,0,0,0,0,0,0,0,0,0,0,0,0,0,0,0,0,0,0,15.1950922012329,15.1957492828369,15.1963901519775,15.1970405578613,15.1976871490479,15.198338508606,15.1989831924438,15.1996374130249,15.2002859115601,15.2009296417236,15.2015771865845,15.2022333145142,15.2028732299805,15.2035217285156,15.2041778564453,15.2048234939575,15.2054738998413,15.2061252593994,15.2067651748657,15.2074155807495,15.2080678939819,15.2087173461914,15.2093620300293,15.2100191116333,15.2106685638428,15.2113084793091,15.2119693756104,15.2126178741455,15.2132587432861,15.2139081954956,15.2145643234253,15.215217590332,15.2158603668213,15.2165126800537,15.2171659469604,15.2178058624268,15.2184648513794,15.2191123962402,15.2197580337524,15.2204113006592,15.221061706543,15.2217130661011,15.2223596572876,15.2230157852173,15.2236642837524,15.2243127822876,15.2249631881714,15.2256183624268,15.2262668609619,15.2269201278687,15.2275676727295,15.2282190322876,15.2288722991943,15.2295227050781,15.2301740646362,15.2308206558228,15.2314720153809,15.2321243286133,15.2327785491943,15.2334241867065,15.2340774536133,15.2347259521484,15.2353782653809,15.2360343933105,15.2366886138916,15.2373361587524,15.2379856109619,15.2386426925659,15.2392892837524,15.2399454116821,15.2406015396118,15.2412462234497,15.2418975830078,15.2425565719604,15.2432060241699,15.2438516616821,15.2445116043091,15.2451620101929,15.2458086013794,15.2464637756348,15.2471199035645,15.2477655410767,15.2484169006348,15.2490787506104,15.2497234344482,15.2503776550293,15.2510356903076,15.25168800354,15.2523374557495,15.2529945373535,15.2536468505859,15.2542963027954,15.2549533843994,15.2556047439575,15.2562522888184,15.2569122314453,15.2575654983521,15.2582206726074,15.2588729858398,15.2595262527466,15.2601804733276,15.2608337402344,15.2614889144897,15.2621421813965,15.2627868652344,15.26344871521,15.2640991210938,15.2647571563721,15.2654075622559,15.2660617828369,15.2667169570923,15.267373085022,15.2680263519287,15.2686805725098,15.2693338394165,15.2699871063232,15.2706413269043,15.2712955474854,15.2719497680664,15.2726049423218,15.2732667922974,15.2739124298096,15.2745666503906,15.2752304077148,15.2758779525757,15.2765331268311,15.2771949768066,15.2778415679932,15.2784996032715,15.2791519165039,15.2798137664795,15.2804641723633,15.2811212539673,15.2817802429199,15.2824287414551,15.2830848693848,15.2837448120117,15.2843942642212,15.2850503921509,15.2857112884521,15.2863674163818,15.2870168685913,15.2876777648926,15.2883367538452,15.2889842987061,15.2896451950073,15.2903032302856,15.2909517288208,15.2916164398193,15.292272567749,15.2929267883301,15.2935810089111,15.2942390441895,15.2948951721191,15.2955465316772,15.2962093353271,15.2968683242798,15.2975187301636,15.2981758117676,15.2988376617432,15.2994890213013,15.3001480102539,15.3008069992065,15.3014669418335,15.3021173477173,15.3027763366699,15.3034391403198,15.3040885925293,15.3047485351562,15.3054103851318,15.3060617446899,15.3067226409912,15.3073778152466,15.3080396652222,15.3086948394775,15.3093528747559,15.3100109100342,15.3106670379639,15.3113241195679,15.3119869232178,15.3126430511475,15.3132982254028,15.3139610290527,15.3146200180054,15.3152751922607,15.3159303665161,15.3165912628174,15.3172483444214,15.317910194397,15.3185701370239,15.319224357605,15.3198833465576,15.3205451965332,15.3211975097656,15.3218622207642,15.3225183486938,15.3231840133667,15.3238344192505,15.3244981765747,15.325159072876,15.3258152008057,15.3264760971069,15.3271369934082,15.3277912139893,15.3284540176392,15.3291149139404,15.3297758102417,15.3304309844971,15.3310871124268,15.3317556381226,15.3324089050293,15.3330698013306,15.3337306976318,15.3343896865845,15.3350486755371,15.3357124328613,15.3363761901855,15.3370304107666,15.3376922607422,15.3383560180664,15.3390102386475,15.3396739959717,15.3403339385986,15.3409910202026,15.3416528701782,15.3423166275024,15.3429718017578,15.3436336517334,15.3442974090576,15.3449592590332,15.3456172943115,15.3462800979614,15.3469409942627,15.3475971221924,15.3482608795166,15.3489265441895,15.3495817184448,15.3502445220947,15.3509082794189,15.3515720367432,15.3522319793701,15.3528938293457,15.3535566329956,15.3542165756226,15.3548784255981,15.3555393218994,15.3562002182007,15.356861114502,15.3575267791748,15.3581914901733,15.358847618103,15.3595132827759,15.3601789474487,15.3608341217041,15.361499786377,15.3621644973755,15.3628196716309,15.3634843826294,15.3641452789307,15.3648061752319,15.3654718399048,15.3661375045776,15.3668012619019,15.3674583435059,15.3681211471558,15.3687887191772,15.3694496154785,15.3701114654541,15.3707752227783,15.3714370727539,15.3721008300781,15.3727645874023,15.3734312057495,15.3740911483765,15.374755859375,15.3754186630249,15.3760786056519,15.3767471313477,15.3774118423462,15.3780708312988,15.3787364959717,15.3793992996216,15.3800668716431,15.3807277679443,15.3813943862915,15.3820571899414,15.382719039917,15.3833866119385,15.3840551376343,15.3847093582153,15.3853778839111,15.3860425949097,15.3867044448853,15.3873710632324,15.388032913208,15.3887033462524,15.3893604278564,15.3900289535522,15.3906965255737,15.3913545608521,15.3920211791992,15.3926887512207,15.3933515548706,15.3940172195435,15.1481904983521,15.1488447189331,15.1494989395142,15.1501541137695,15.1508083343506,15.1514625549316,15.1521167755127,15.1527719497681,15.1534271240234,15.1540813446045,15.1547365188599,15.1553916931152,15.1560459136963,15.1567010879517,15.157356262207,15.1580114364624,15.1586666107178,15.1593217849731,15.1599769592285,15.1606321334839,15.1612882614136,15.1619434356689,15.1625986099243,15.163254737854,15.1639099121094,15.1645660400391,15.1652212142944,15.1658773422241,15.1665325164795,15.1671886444092,15.1678447723389,15.1685009002686,15.1691570281982,15.1698131561279,15.1704692840576,15.1711254119873,15.171781539917,15.172438621521,15.1730947494507,15.1737508773804,15.1744079589844,15.1750640869141,15.1757211685181,15.1763772964478,15.1770343780518,15.1776914596558,15.1783475875854,15.1790056228638,15.1796617507935,15.1803188323975,15.1809759140015,15.1816329956055,15.1822900772095,15.1829481124878,15.1836051940918,15.1842622756958,15.1849203109741,15.1855773925781,15.1862344741821,15.1868925094604,15.1875505447388,15.1882085800171,15.1888656616211,15.1895236968994,15.1901817321777,15.1908397674561,15.1914978027344,15.1921558380127,15.192813873291,15.1934719085693,15.1941299438477,15.1947889328003,15.1954469680786,15.1961050033569,15.1967639923096,15.1974220275879,15.1980810165405,15.1987390518188,15.1993980407715,15.2000570297241,15.2007160186768,15.2013750076294,15.2020330429077,15.2026929855347,15.2033519744873,0,0,0,0,0,0,0,0,0,0,0,0,0,0,0,0,0,0,0,0,0,0,0,0,0,0,0,0,0,0,0,0,0,0,0,0,0,0,0,0,0,0,0,0,0,0,0,0,0,0,0,0,0,0,0,0,0,0,0,0,0,0,0,0,0
0,0,0,0,0,0,0,0,0,0,0,0,0,0,0,0,0,0,0,0,0,0,0,0,0,0,0,0,0,0,0,0,0,0,0,0,0,0,0,0,0,0,0,0,0,0,0,0,0,0,0,0,0,0,0,0,0,0,0,0,0,0,0,0,0,0,0,0,0,0,0,0,0,0,0,0,0,0,0,0,0,0,0,0,0,0,0,0,0,0,0,0,0,0,0,0,0,0,0,0,0,0,0,0,0,0,0,0,0,0,0,0,0,0,0,0,0,0,0,0,0,0,0,0,0,0,0,0,0,0,0,0,0,0,0,0,0,0,0,0,0,0,0,0,0,15.069281578064,15.0699291229248,15.0705671310425,15.071195602417,15.0718326568604,15.0724763870239,15.0731058120728,15.073748588562,15.0743885040283,15.0750179290771,15.0756607055664,15.076301574707,15.0769443511963,15.0775690078735,15.0782165527344,15.0788545608521,15.0794878005981,15.0801277160645,15.0807657241821,15.0813999176025,15.0820426940918,15.0826807022095,15.0833206176758,15.0839624404907,15.0845975875854,15.0852384567261,15.0858755111694,15.0865144729614,15.0871515274048,15.0877847671509,15.0884304046631,15.0890674591064,15.0897130966187,15.0903472900391,15.0909852981567,15.0916271209717,15.0922651290894,15.0929050445557,15.0935459136963,15.094181060791,15.094820022583,15.0954618453979,15.0960998535156,15.0967397689819,15.0973825454712,15.0980243682861,15.0986585617065,15.0993022918701,15.0999422073364,15.1005754470825,15.1012191772461,15.1018657684326,15.1024961471558,15.1031398773193,15.1037797927856,15.1044225692749,15.1050605773926,15.1056976318359,15.1063451766968,15.1069793701172,15.1076211929321,15.10826587677,15.1089057922363,15.1095418930054,15.1101922988892,15.1108293533325,15.1114664077759,15.1121110916138,15.1127529144287,15.1133852005005,15.1140336990356,15.1146774291992,15.115309715271,15.1159563064575,15.1166009902954,15.1172342300415,15.1178750991821,15.1185255050659,15.1191673278809,15.119800567627,15.1204490661621,15.1210889816284,15.1217269897461,15.1223726272583,15.1230144500732,15.1236515045166,15.1242980957031,15.1249408721924,15.125584602356,15.1262235641479,15.1268672943115,15.1275081634521,15.1281480789185,15.1287927627563,15.129433631897,15.1300792694092,15.1307182312012,15.1313638687134,15.1320123672485,15.1326484680176,15.1332912445068,15.133936882019,15.1345767974854,15.1352186203003,15.1358613967896,15.1365051269531,15.137149810791,15.1377935409546,15.1384325027466,15.1390781402588,15.1397228240967,15.1403684616089,15.1410055160522,15.1416521072388,15.1422986984253,15.1429347991943,15.1435813903809,15.1442270278931,15.1448669433594,15.1455116271973,15.1461601257324,15.1468029022217,15.1474418640137,15.1480941772461,15.1487369537354,15.149374961853,15.1500186920166,15.1506671905518,15.1513061523438,15.1519498825073,15.1525983810425,15.1532459259033,15.1538820266724,15.1545352935791,15.155179977417,15.155816078186,15.1564655303955,15.1571130752563,15.157751083374,15.1584024429321,15.1590461730957,15.1596851348877,15.1603336334229,15.1609811782837,15.1616249084473,15.1622714996338,15.162917137146,15.1635637283325,15.1642045974731,15.1648530960083,15.1654987335205,15.1661386489868,15.1667890548706,15.1674356460571,15.1680784225464,15.1687240600586,15.1693706512451,15.170015335083,15.1706628799438,15.171311378479,15.1719579696655,15.1726026535034,15.1732454299927,15.1738929748535,15.174542427063,15.1751852035522,15.1758327484131,15.1764831542969,15.1771230697632,15.1777696609497,15.1784210205078,15.1790637969971,15.1797075271606,15.1803598403931,15.1810035705566,15.1816511154175,15.1823015213013,15.1829481124878,15.1835927963257,15.1842403411865,15.184889793396,15.1855297088623,15.1861801147461,15.1868295669556,15.1874713897705,15.1881246566772,15.1887693405151,15.1894178390503,15.1900644302368,15.190712928772,15.1913661956787,15.192006111145,15.1926546096802,15.1933078765869,15.1939458847046,15.194598197937,15.1952486038208,15.1958980560303,15.1965427398682,15.1971940994263,15.1978416442871,15.1984891891479,15.1991386413574,15.1997861862183,15.2004299163818,15.2010841369629,15.2017297744751,15.2023839950562,15.2030258178711,15.2036790847778,15.2043323516846,15.2049741744995,15.2056245803833,15.2062759399414,15.2069187164307,15.2075710296631,15.2082204818726,15.2088661193848,15.2095184326172,15.210165977478,15.2108211517334,15.2114629745483,15.2121143341064,15.2127704620361,15.2134103775024,15.2140617370605,15.2147159576416,15.2153606414795,15.2160129547119,15.2166652679443,15.2173175811768,15.217960357666,15.2186136245728,15.2192640304565,15.2199106216431,15.2205629348755,15.2212171554565,15.2218618392944,15.2225170135498,15.223165512085,15.2238206863403,15.2244682312012,15.2251167297363,15.2257690429688,15.2264156341553,15.227068901062,15.2277231216431,15.2283658981323,15.2290191650391,15.2296743392944,15.2303218841553,15.2309732437134,15.2316255569458,15.2322807312012,15.2329263687134,15.2335805892944,15.2342319488525,15.2348794937134,15.2355346679688,15.2361850738525,15.236834526062,15.2374849319458,15.2381401062012,15.2387952804565,15.2394428253174,14.9960880279541,14.9967288970947,14.9973707199097,14.9980115890503,14.9986534118652,14.9992952346802,14.9999361038208,15.0005779266357,15.0012197494507,15.0018606185913,15.0025024414062,15.0031442642212,15.0037860870361,15.0044288635254,15.0050706863403,15.0057125091553,15.0063543319702,15.0069961547852,15.0076389312744,15.0082807540894,15.0089235305786,15.0095653533936,15.0102081298828,15.0108509063721,15.011492729187,15.0121355056763,15.0127782821655,15.0134210586548,15.014063835144,15.0147066116333,15.0153493881226,15.0159921646118,15.0166349411011,15.0172777175903,15.0179214477539,15.0185642242432,15.0192070007324,15.019850730896,15.0204944610596,15.0211372375488,15.0217809677124,15.0224237442017,15.0230674743652,15.0237112045288,15.0243549346924,15.024998664856,15.0256423950195,15.0262861251831,15.0269298553467,15.0275735855103,15.0282173156738,15.0288619995117,15.0295057296753,15.0301504135132,15.0307941436768,15.0314388275146,15.0320825576782,15.0327272415161,15.0333709716797,15.0340156555176,15.0346603393555,15.0353050231934,15.0359497070312,15.0365943908691,15.037239074707,15.0378837585449,15.0385284423828,15.0391731262207,15.0398178100586,15.0404634475708,15.0411081314087,15.0417537689209,15.0423984527588,15.043044090271,15.0436887741089,15.0443344116211,15.0449800491333,15.0456256866455,15.0462703704834,15.0469169616699,15.0475616455078,15.04820728302,15.0488529205322,15.0494995117188,15.050145149231,15.0507907867432,15.0514364242554,15.0520830154419,15.0527286529541,15.0533752441406,15.0540208816528,15.0546674728394,15.0553131103516,15.0559597015381,15.0566062927246,15.0572528839111,15.0578994750977,15.0585451126099,15.0591926574707,15.0598392486572,15.0604858398438,15.0611324310303,15.0617790222168,15.0624265670776,15.0630731582642,15.0637197494507,15.0643672943115,15.065013885498,15.0656614303589,15.0663080215454,15.0669565200806,15.0676031112671,15.0682506561279,15.0688982009888,15.0695457458496,15.0701932907104,15.0708408355713,15.0714883804321,15.072135925293,15.0727834701538,15.073431968689,15.0740795135498,15.0747270584106,15.0753755569458,15.0760231018066,15.0766716003418,15.077320098877,15.0779676437378,15.0786161422729,15.0792646408081,15.0799131393433,15.0805616378784,15.0812101364136,15.0818586349487,0,0,0,0,0,0,0,0,0,0,0,0,0,0,0,0,0,0,0,0,0,0,0,0,0,0,0,0,0,0,0,0,0,0,0,0,0,0,0,0,0,0,0,0,0,0,0,0,0,0,0,0,0,0,0
