0,0,0,0,0,0,0,0,0,0,0,0,0,0,0,0,0,0,0,0,0,0,0,0,0,0,0,0,0,0,0,0,0,0,0,0,0,0,0,0,0,0,0,0,0,0,0,0,0,0,0,0,0,0,0,0,0,0,0,0,0,0,0,0,0,0,0,0,0,0,0,0,0,0,0,0,0,0,0,0,0,0,0,0,0,0,0,0,0,0,0,0,0,0,0,0,0,0,0,0,0,0,0,0,0,0,0,0,0,0,0,0,0,0,0,0,0,0,0,0,0,0,0,0,0,0,0,0,0,0,0,0,0,0,0,0,0,0,0,0,0,0,0,0,0,0,0,0,0,0,0,0,0,0,0,0,0,0,0,0,0,0,19.3230819702148,19.3236598968506,19.3242473602295,19.3248271942139,19.3254051208496,19.3259887695312,19.3265705108643,19.3271522521973,19.3277339935303,19.3283138275146,19.3288974761963,19.3294773101807,19.3300590515137,19.3306369781494,19.3312168121338,19.3318042755127,19.3323860168457,19.3329677581787,19.3335475921631,19.3341312408447,19.3347110748291,19.335298538208,19.3358764648438,19.3364543914795,19.337043762207,19.33762550354,19.3382053375244,19.3387870788574,19.3393726348877,19.3399524688721,19.340539932251,19.341121673584,19.341703414917,19.3422775268555,19.3428688049316,19.343448638916,19.3440284729004,19.3446140289307,19.3452014923096,19.3457813262939,19.3463668823242,19.3469390869141,19.3475227355957,19.3481121063232,19.3486919403076,19.3492736816406,19.3498592376709,19.3504390716553,19.3510265350342,19.3516120910645,19.3521900177002,19.3527755737305,19.3533535003662,19.3539390563965,19.3545207977295,19.3551063537598,19.3556938171387,19.3562755584717,19.3568534851074,19.3574390411377,19.3580226898193,19.3586006164551,19.3591861724854,19.359769821167,19.3603553771973,19.3609352111816,19.3615188598633,19.3621101379395,19.3626918792725,19.3632736206055,19.3638515472412,19.3644390106201,19.3650226593018,19.365608215332,19.3661956787109,19.3667774200439,19.3673629760742,19.3679428100586,19.3685264587402,19.3691101074219,19.3696994781494,19.3702812194824,19.3708629608154,19.3714504241943,19.372034072876,19.3726177215576,19.3732051849365,19.3737812042236,19.3743686676025,19.3749504089355,19.3755397796631,19.3761234283447,19.376708984375,19.377290725708,19.3778762817383,19.3784637451172,19.3790493011475,19.3796272277832,19.3802146911621,19.3807983398438,19.3813858032227,19.3819732666016,19.3825569152832,19.3831443786621,19.3837261199951,19.3843078613281,19.3848876953125,19.38547706604,19.3860645294189,19.3866519927979,19.3872375488281,19.387825012207,19.3884105682373,19.3889904022217,19.389575958252,19.3901634216309,19.3907508850098,19.3913307189941,19.3919143676758,19.3924999237061,19.3930912017822,19.3936786651611,19.3942623138428,19.394847869873,19.3954257965088,19.3960113525391,19.3965969085693,19.3971881866455,19.3977737426758,19.3983592987061,19.3989448547363,19.399528503418,19.4001197814941,19.4007034301758,19.4012813568115,19.4018745422363,19.402458190918,19.4030418395996,19.4036331176758,19.4042167663574,19.4048080444336,19.4053897857666,19.4059734344482,19.4065608978271,19.4071502685547,19.4077339172363,19.4083213806152,19.4089069366455,19.409496307373,19.4100799560547,19.4106693267822,19.4112529754639,19.4118366241455,19.4124279022217,19.4130153656006,19.4136028289795,19.4141883850098,19.4147777557373,19.4153652191162,19.4159469604492,19.4165382385254,19.4171237945557,19.4177074432373,19.4182968139648,19.4188861846924,19.4194755554199,19.4200572967529,19.4206447601318,19.4212322235107,19.4218196868896,19.4224090576172,19.4229888916016,19.4235782623291,19.4241676330566,19.4247531890869,19.4253463745117,19.4259357452393,19.4265232086182,19.4271087646484,19.4276924133301,19.4282760620117,19.4288692474365,19.4294548034668,19.4300422668457,19.430627822876,19.4312152862549,19.4318084716797,19.4323959350586,19.4329814910889,19.4335689544678,19.4341564178467,19.434741973877,19.4353332519531,19.435920715332,19.4365119934082,19.4370975494385,19.4376888275146,19.4382762908936,19.4388599395752,19.4394474029541,19.4400386810303,19.4406242370605,19.4412174224854,19.441801071167,19.4423942565918,19.442985534668,19.4435710906982,19.4441604614258,19.4447441101074,19.4453353881836,19.4459209442139,19.4465141296387,19.4471035003662,19.4476928710938,19.448278427124,19.4488677978516,19.4494590759277,19.4500427246094,19.4506340026855,19.4512252807617,19.4518146514893,19.4524040222168,19.4529933929443,19.4535789489746,19.4541702270508,19.4547576904297,19.4553489685059,19.4559383392334,19.4565277099609,19.4571170806885,19.457706451416,19.4582977294922,19.4588851928711,19.4594745635986,19.4600639343262,19.4606590270996,19.4612369537354,19.4618282318115,19.462423324585,19.4630107879639,19.4635982513428,19.4641876220703,19.4647827148438,19.4653701782227,19.4659595489502,19.4665489196777,19.4671363830566,19.4677295684814,19.4683170318604,19.4689121246338,19.4694995880127,19.4700927734375,19.470682144165,19.4712753295898,19.4718551635742,19.4724502563477,19.4730415344238,19.4736328125,19.4742240905762,19.4748134613037,19.4754028320312,19.4759960174561,19.476583480835,19.4771785736084,19.4777641296387,19.4783554077148,19.4789505004883,19.4795360565186,19.4801273345947,19.4807186126709,19.4813117980957,19.4819049835205,19.4824962615967,19.483081817627,19.4836750030518,19.4842681884766,19.4848518371582,19.485445022583,19.4860363006592,19.4866275787354,19.4872207641602,19.4878158569336,19.4884033203125,19.4889945983887,19.4895858764648,19.490177154541,19.4907665252686,19.4913578033447,19.4919528961182,19.492546081543,19.4931354522705,19.4937229156494,19.4943161010742,19.4949054718018,19.4954967498779,19.4960918426514,19.4966850280762,19.4972724914551,19.4978713989258,19.4984588623047,19.4990482330322,19.4996395111084,19.5002365112305,19.500825881958,19.5014171600342,19.5020122528076,19.5026016235352,19.5031967163086,19.503791809082,19.5043792724609,19.5049610137939,19.505558013916,19.5061550140381,19.506742477417,19.5073375701904,19.5079326629639,19.5085220336914,19.5091133117676,19.5097122192383,19.5102996826172,19.510892868042,19.5114803314209,19.5120754241943,19.5126724243164,19.5132656097412,19.513858795166,19.5144557952881,19.5150451660156,19.5156402587891,19.516227722168,19.5168209075928,19.5174160003662,19.518009185791,19.5186023712158,19.5191974639893,19.5197887420654,19.5203819274902,19.5209770202637,19.5215644836426,19.5221614837646,19.5227546691895,19.5233497619629,19.5239410400391,19.5245323181152,19.5251312255859,19.5257263183594,19.5263175964355,19.5269069671631,19.5275001525879,19.5280914306641,19.5286903381348,19.5292797088623,19.5298748016357,19.5304718017578,19.5310649871826,19.5316619873047,19.532247543335,19.532844543457,19.5334339141846,19.5340328216553,19.5346240997314,19.5352191925049,19.5358104705811,19.5364093780518,19.5370063781738,19.5375995635986,19.5381889343262,19.5387859344482,19.5393810272217,19.5399742126465,19.5405712127686,19.541166305542,19.5417633056641,19.5423526763916,19.5429496765137,19.5435409545898,19.5441360473633,19.5447330474854,19.5453300476074,19.5459251403809,19.5465202331543,19.5471172332764,19.5477066040039,19.5483016967773,19.5488967895508,19.5494937896729,19.5500888824463,19.5506839752197,19.5512771606445,19.5518741607666,19.55246925354,19.5530643463135,19.5536575317383,19.5542526245117,19.5548496246338,19.5554447174072,19.5560359954834,19.5566368103027,19.5572319030762,19.5578269958496,19.558422088623,19.5590190887451,19.5596141815186,19.5602073669434,19.5608024597168,19.5613975524902,19.5619945526123,19.5625877380371,19.5631847381592,19.5637817382812,19.5643787384033,19.5649738311768,19.5655670166016,19.5661582946777,19.5667572021484,19.5673580169678,19.5679512023926,19.5685482025146,19.5691432952881,19.5697422027588,19.5703411102295,19.5709342956543,19.5715255737305,19.5721244812012,19.5727252960205,19.5733222961426,19.5739116668701,19.5745124816895,19.5751094818115,19.5757083892822,19.5763053894043,19.5768966674805,19.5774955749512,19.5780925750732,19.5786914825439,19.579288482666,19.5798873901367,19.5804824829102,19.5810832977295,19.5816764831543,19.5822658538818,19.5828647613525,19.5834655761719,19.5840606689453,19.5846557617188,19.5852527618408,19.5858554840088,19.5864505767822,19.5870494842529,19.587646484375,19.5882415771484,19.5888385772705,19.5894336700439,19.5900363922119,19.590633392334,19.5912284851074,19.5918292999268,19.5924243927002,19.5930213928223,19.5936145782471,19.5942115783691,19.5948162078857,19.5954093933105,19.5960063934326,19.5966033935547,19.597204208374,19.5978012084961,19.5984020233154,19.5989952087402,19.5995960235596,19.6001892089844,19.600793838501,19.601390838623,19.6019878387451,19.6025886535645,19.6031913757324,19.6037826538086,19.604377746582,19.6049766540527,19.6055774688721,19.6061763763428,19.6067790985107,11.8778772354126,11.8165454864502,11.7558259963989,11.699164390564,11.6695499420166,11.6400842666626,11.610767364502,11.5815982818604,11.5525751113892,11.5236968994141,11.4949626922607,11.4663705825806,11.4379215240479,11.4096126556396,11.381443977356,11.3534145355225,11.3255214691162,11.2977657318115,11.2701463699341,11.2426614761353,11.2153100967407,11.1880912780762,11.1610040664673,11.1340484619141,11.1072216033936,11.0805244445801,11.053955078125,11.0275135040283
0,0,0,0,0,0,0,0,0,0,0,0,0,0,0,0,0,0,0,0,0,0,0,0,0,0,0,0,0,0,0,0,0,0,0,0,0,0,0,0,0,0,0,0,0,0,0,0,0,0,0,0,0,0,0,0,0,0,0,0,0,0,0,0,0,0,0,0,0,0,0,0,0,0,0,0,0,0,0,0,0,0,0,0,0,0,0,0,0,0,0,0,0,0,0,0,0,0,0,0,0,0,0,0,0,0,0,0,0,0,0,0,0,0,0,0,0,0,0,0,0,0,0,0,0,0,0,0,0,0,0,0,0,0,0,0,0,0,0,0,0,0,0,0,0,0,0,0,0,19.1129665374756,19.1135311126709,19.1141052246094,19.1146697998047,19.1152362823486,19.1158046722412,19.1163806915283,19.1169471740723,19.1175212860107,19.1180858612061,19.1186561584473,19.1192226409912,19.1197929382324,19.1203594207764,19.1209278106689,19.1214981079102,19.1220684051514,19.1226387023926,19.1232128143311,19.123779296875,19.1243457794189,19.1249160766602,19.1254825592041,19.1260547637939,19.1266193389893,19.127197265625,19.1277656555176,19.1283397674561,19.12890625,19.129467010498,19.1300430297852,19.1306133270264,19.1311817169189,19.1317501068115,19.1323223114014,19.1328907012939,19.1334648132324,19.1340351104736,19.1346054077148,19.1351718902588,19.1357402801514,19.1363124847412,19.1368808746338,19.1374530792236,19.1380252838135,19.1385898590088,19.13916015625,19.1397342681885,19.1402969360352,19.1408748626709,19.1414413452148,19.1420116424561,19.1425819396973,19.1431541442871,19.1437244415283,19.1443023681641,19.144868850708,19.1454315185547,19.1460075378418,19.1465759277344,19.147144317627,19.1477146148682,19.1482944488525,19.1488628387451,19.1494274139404,19.1500072479248,19.1505756378174,19.1511421203613,19.1517143249512,19.1522884368896,19.1528549194336,19.1534328460693,19.1540012359619,19.1545734405518,19.1551456451416,19.1557159423828,19.156286239624,19.156852722168,19.1574268341064,19.1580047607422,19.1585712432861,19.1591453552246,19.1597175598145,19.1602878570557,19.1608581542969,19.1614284515381,19.1620006561279,19.162576675415,19.1631469726562,19.1637134552002,19.1642875671387,19.1648635864258,19.1654357910156,19.1660060882568,19.166576385498,19.1671485900879,19.1677227020264,19.1682929992676,19.1688671112061,19.1694393157959,19.1700115203857,19.1705837249756,19.1711540222168,19.171724319458,19.1722888946533,19.1728649139404,19.1734409332275,19.1740131378174,19.1745872497559,19.1751575469971,19.1757297515869,19.1763000488281,19.1768760681152,19.1774425506592,19.1780166625977,19.1785926818848,19.1791648864746,19.1797351837158,19.1803112030029,19.1808834075928,19.1814575195312,19.1820316314697,19.182596206665,19.1831741333008,19.183744430542,19.1843204498291,19.1848926544189,19.1854686737061,19.1860370635986,19.1866149902344,19.1871852874756,19.1877574920654,19.1883316040039,19.1889019012451,19.1894779205322,19.1900520324707,19.1906242370605,19.1912002563477,19.1917762756348,19.1923446655273,19.1929206848145,19.193489074707,19.1940650939941,19.1946411132812,19.1952075958252,19.1957855224609,19.196361541748,19.1969356536865,19.197509765625,19.1980838775635,19.1986560821533,19.1992282867432,19.1998043060303,19.2003784179688,19.2009525299072,19.2015266418457,19.2021026611328,19.2026767730713,19.2032508850098,19.2038154602051,19.2043895721436,19.2049655914307,19.2055435180664,19.2061176300049,19.2066917419434,19.2072658538818,19.2078399658203,19.2084121704102,19.2089862823486,19.2095584869385,19.2101345062256,19.2107124328613,19.2112846374512,19.2118587493896,19.2124366760254,19.2130088806152,19.2135848999023,19.2141628265381,19.2147350311279,19.2153091430664,19.2158813476562,19.216459274292,19.2170314788818,19.2176094055176,19.2181835174561,19.2187614440918,19.219331741333,19.2199058532715,19.2204818725586,19.2210597991943,19.2216339111328,19.2222118377686,19.2227821350098,19.2233600616455,19.2239379882812,19.224515914917,19.2250862121582,19.225658416748,19.2262363433838,19.2268142700195,19.227388381958,19.2279682159424,19.228536605835,19.2291164398193,19.2296905517578,19.2302684783936,19.2308387756348,19.2314167022705,19.2319927215576,19.2325687408447,19.2331447601318,19.2337226867676,19.2342987060547,19.2348766326904,19.2354488372803,19.2360210418701,19.2366008758545,19.237174987793,19.2377510070801,19.2383289337158,19.2389030456543,19.2394771575928,19.2400608062744,19.2406368255615,19.2412052154541,19.2417869567871,19.2423610687256,19.2429351806641,19.2435111999512,19.2440929412842,19.2446670532227,19.2452487945557,19.2458229064941,19.2463989257812,19.2469730377197,19.2475471496582,19.2481269836426,19.2487010955811,19.2492828369141,19.2498550415039,19.2504367828369,19.2510185241699,19.2515907287598,19.2521648406982,19.2527446746826,19.2533187866211,19.2538967132568,19.2544784545898,19.2550506591797,19.2556304931641,19.2562103271484,19.2567844390869,19.2573585510254,19.2579345703125,19.2585163116455,19.2590942382812,19.2596759796143,19.2602481842041,19.2608261108398,19.2614040374756,19.26198387146,19.2625560760498,19.2631340026855,19.2637138366699,19.2642917633057,19.2648696899414,19.2654457092285,19.2660255432129,19.2666034698486,19.267183303833,19.2677593231201,19.2683372497559,19.2689170837402,19.2694892883301,19.2700672149658,19.2706451416016,19.2712306976318,19.2718067169189,19.2723865509033,19.2729625701904,19.2735385894775,19.2741165161133,19.274694442749,19.275276184082,19.2758541107178,19.2764301300049,19.2770118713379,19.277587890625,19.2781658172607,19.2787418365479,19.2793254852295,19.2799015045166,19.2804832458496,19.2810611724854,19.2816410064697,19.2822189331055,19.2828006744385,19.2833766937256,19.2839527130127,19.2845344543457,19.2851104736328,19.2856922149658,19.2862739562988,19.2868480682373,19.2874279022217,19.2880096435547,19.2885856628418,19.2891674041748,19.2897434234619,19.2903251647949,19.2909049987793,19.2914867401123,19.2920665740967,19.2926406860352,19.2932224273682,19.2938022613525,19.2943820953369,19.294958114624,19.295539855957,19.2961177825928,19.2966995239258,19.2972793579102,19.2978591918945,19.2984371185303,19.2990169525146,19.2996006011963,19.300178527832,19.3007583618164,19.3013362884521,19.3019142150879,19.3024940490723,19.3030796051025,19.3036594390869,19.3042373657227,19.3048152923584,19.3053951263428,19.3059768676758,19.3065547943115,19.3071403503418,19.3077201843262,19.3082962036133,19.3088817596436,19.3094615936279,19.310037612915,19.3106231689453,19.3112030029297,19.3117809295654,19.3123626708984,19.3129425048828,19.3135261535645,19.3141040802002,19.3146896362305,19.3152656555176,19.3158531188965,19.316427230835,19.3170070648193,19.3175868988037,19.3181743621826,19.3187503814697,19.3193321228027,19.3199157714844,19.3204917907715,19.3210754394531,19.3216533660889,19.3222370147705,19.3228206634521,19.3233966827393,19.3239803314209,19.3245620727539,19.3251438140869,19.3257255554199,19.3263092041016,19.3268909454346,19.3274669647217,19.3280467987061,19.3286304473877,19.3292140960693,19.3297958374023,19.3303775787354,19.3309593200684,19.33154296875,19.3321228027344,19.3327045440674,19.333288192749,19.3338661193848,19.3344497680664,19.335033416748,19.3356151580811,19.3361930847168,19.3367767333984,19.3373641967773,19.3379402160645,19.3385200500488,19.3391056060791,19.3396873474121,19.3402671813965,19.3408546447754,19.3414344787598,19.3420219421387,19.342601776123,19.3431816101074,19.3437633514404,19.3443489074707,19.3449287414551,19.3455142974854,19.3460922241211,19.3466796875,19.3472652435303,19.3478450775146,19.3484287261963,19.3490123748779,19.3495903015137,19.3501739501953,19.3507595062256,19.3513450622559,19.3519229888916,19.3525104522705,19.3530941009521,19.3536796569824,19.3542556762695,19.3548450469971,19.3554210662842,19.3560028076172,19.3565883636475,19.3571739196777,19.3577575683594,19.3583450317383,19.3589286804199,19.359504699707,19.3600921630859,19.3606739044189,19.3612594604492,19.3618412017822,19.3624267578125,19.3630104064941,19.3635902404785,19.364185333252,19.3647575378418,19.3653450012207,19.3659267425537,19.3665103912354,19.3670978546143,19.3676815032959,19.3682632446289,19.3688449859619,19.3694362640381,19.3700160980225,19.3705997467041,19.3711814880371,19.3717632293701,19.372350692749,19.3729362487793,19.3735237121582,19.3741054534912,19.3746891021729,19.3752784729004,19.3758583068848,19.3764400482178,19.3770294189453,19.3776073455811,19.3781986236572,19.378776550293,19.3793659210205,19.379955291748,19.3805370330811,19.3811168670654,19.381706237793,19.3822917938232,19.3828735351562,19.3834609985352,19.3840446472168,19.3846321105957,19.3852138519287,19.385799407959,19.3863849639893,19.3869686126709,19.3875541687012,19.3881416320801,19.3887271881104,19.3893146514893,19.3898944854736,19.3904819488525,19.3910655975342,19.3916511535645,19.392240524292,19.3928241729736,19.3934097290039,19.3939952850342,19.3945789337158,19.3951663970947,19.395751953125,19.3963356018066,19.3969211578369,19.3975086212158,19.3980922698975,11.8785743713379,11.8172330856323,11.7565050125122,11.6987857818604,11.6691732406616,11.6397094726562,11.6103944778442,11.5812273025513,11.5522050857544,11.5233287811279,11.4945964813232,11.466007232666,11.4375600814819,11.4092531204224,11.381085395813,11.3530578613281,11.3251667022705,11.2974128723145,11.2697944641113,11.2423114776611,11.2149620056152,11.1877450942993,11.1606597900391,11.1337051391602,11.1068801879883,11.0801849365234,11.053617477417,11.0271768569946
0,0,0,0,0,0,0,0,0,0,0,0,0,0,0,0,0,0,0,0,0,0,0,0,0,0,0,0,0,0,0,0,0,0,0,0,0,0,0,0,0,0,0,0,0,0,0,0,0,0,0,0,0,0,0,0,0,0,0,0,0,0,0,0,0,0,0,0,0,0,0,0,0,0,0,0,0,0,0,0,0,0,0,0,0,0,0,0,0,0,0,0,0,0,0,0,0,0,0,0,0,0,0,0,0,0,0,0,0,0,0,0,0,0,0,0,0,0,0,0,0,0,0,0,0,0,0,0,0,0,0,0,0,0,0,0,0,18.9079265594482,18.9084873199463,18.9090423583984,18.9096012115479,18.9101600646973,18.9107151031494,18.9112663269043,18.9118270874023,18.9123821258545,18.9129390716553,18.9134979248047,18.9140529632568,18.9146099090576,18.915168762207,18.9157238006592,18.91628074646,18.9168395996094,18.9173946380615,18.9179515838623,18.9185085296631,18.9190654754639,18.9196262359619,18.9201793670654,18.9207382202148,18.9212894439697,18.921854019165,18.9224014282227,18.9229640960693,18.9235210418701,18.9240760803223,18.9246387481689,18.9251976013184,18.9257564544678,18.9263114929199,18.9268741607666,18.9274215698242,18.9279842376709,18.9285411834717,18.9291000366211,18.9296550750732,18.9302158355713,18.9307727813721,18.9313335418701,18.9318923950195,18.9324512481689,18.9330043792725,18.9335613250732,18.9341220855713,18.9346752166748,18.9352378845215,18.9357967376709,18.936351776123,18.9369144439697,18.9374732971191,18.9380264282227,18.9385890960693,18.9391460418701,18.9397068023682,18.9402637481689,18.9408206939697,18.9413814544678,18.9419384002686,18.9425010681152,18.9430541992188,18.9436111450195,18.9441680908203,18.9447288513184,18.945291519165,18.9458484649658,18.9464073181152,18.9469699859619,18.9475326538086,18.9480857849121,18.9486408233643,18.9492034912109,18.9497566223145,18.950325012207,18.9508819580078,18.9514427185059,18.9520015716553,18.9525585174561,18.9531192779541,18.9536724090576,18.9542350769043,18.9547939300537,18.9553489685059,18.9559135437012,18.956470489502,18.95703125,18.9575939178467,18.9581527709961,18.9587116241455,18.9592666625977,18.959831237793,18.9603862762451,18.9609489440918,18.9615077972412,18.9620666503906,18.9626274108887,18.9631881713867,18.9637470245361,18.9643020629883,18.9648666381836,18.965425491333,18.9659862518311,18.9665451049805,18.9671115875244,18.9676647186279,18.9682292938232,18.9687824249268,18.9693450927734,18.9699077606201,18.9704666137695,18.9710273742676,18.9715900421143,18.9721508026123,18.9727115631104,18.973274230957,18.9738349914551,18.9743881225586,18.9749507904053,18.9755153656006,18.9760761260986,18.976634979248,18.9771976470947,18.9777584075928,18.9783210754395,18.9788799285889,18.9794330596924,18.9799957275391,18.9805526733398,18.9811134338379,18.9816837310791,18.9822425842285,18.9828033447266,18.9833641052246,18.9839248657227,18.9844856262207,18.9850406646729,18.9856014251709,18.9861679077148,18.9867267608643,18.9872875213623,18.9878520965576,18.9884128570557,18.9889736175537,18.9895362854004,18.9900913238525,18.9906558990479,18.9912147521973,18.9917793273926,18.9923400878906,18.9929046630859,18.9934635162354,18.9940299987793,18.9945888519287,18.9951457977295,18.9957103729248,18.9962692260742,18.9968338012695,18.9974002838135,18.9979591369629,18.9985237121582,18.9990863800049,18.9996452331543,19.0002021789551,19.0007667541504,19.0013294219971,19.0018939971924,19.0024528503418,19.0030155181885,19.0035781860352,19.0041446685791,19.0047073364258,19.0052661895752,19.0058288574219,19.0063896179199,19.0069561004639,19.0075206756592,19.0080833435059,19.0086460113525,19.0092086791992,19.0097713470459,19.0103359222412,19.0108909606934,19.01145362854,19.0120182037354,19.012580871582,19.0131435394287,19.0137119293213,19.0142726898193,19.014835357666,19.0153999328613,19.0159606933594,19.0165214538574,19.0170822143555,19.0176429748535,19.0182113647461,19.0187740325928,19.0193347930908,19.0199012756348,19.0204639434814,19.0210266113281,19.0215892791748,19.0221462249756,19.0227146148682,19.0232753753662,19.0238437652588,19.0244064331055,19.0249729156494,19.0255336761475,19.0260944366455,19.0266551971436,19.0272216796875,19.0277881622314,19.0283508300781,19.0289154052734,19.0294761657715,19.0300426483154,19.0306091308594,19.0311698913574,19.0317287445068,19.0322971343994,19.0328598022461,19.03342628479,19.0339870452881,19.0345516204834,19.0351181030273,19.0356845855713,19.0362491607666,19.036808013916,19.0373764038086,19.037935256958,19.0384979248047,19.0390663146973,19.0396308898926,19.0401954650879,19.0407600402832,19.0413246154785,19.0418834686279,19.0424480438232,19.0430202484131,19.0435848236084,19.0441493988037,19.0447120666504,19.0452785491943,19.045841217041,19.046407699585,19.046968460083,19.0475330352783,19.0480976104736,19.0486640930176,19.049222946167,19.0497932434082,19.0503578186035,19.0509204864502,19.0514907836914,19.0520553588867,19.052619934082,19.0531806945801,19.0537490844727,19.054313659668,19.0548820495605,19.0554466247559,19.0560092926025,19.0565776824951,19.0571403503418,19.0577049255371,19.0582752227783,19.0588340759277,19.0594043731689,19.0599670410156,19.0605354309082,19.0611038208008,19.0616664886475,19.06223487854,19.0627975463867,19.0633583068848,19.0639266967773,19.0644931793213,19.0650634765625,19.0656242370605,19.0661926269531,19.0667610168457,19.0673274993896,19.0678939819336,19.0684566497803,19.0690250396729,19.0695858001709,19.0701522827148,19.0707206726074,19.0712871551514,19.0718555450439,19.0724220275879,19.0729904174805,19.0735492706299,19.0741176605225,19.0746841430664,19.0752487182617,19.0758152008057,19.0763893127441,19.0769538879395,19.0775203704834,19.0780868530273,19.0786476135254,19.0792198181152,19.0797882080078,19.0803527832031,19.0809192657471,19.0814819335938,19.0820503234863,19.0826168060303,19.0831813812256,19.0837554931641,19.0843143463135,19.0848865509033,19.0854511260986,19.0860176086426,19.0865879058838,19.0871505737305,19.0877246856689,19.0882892608643,19.0888576507568,19.0894165039062,19.0899887084961,19.0905532836914,19.0911235809326,19.0916881561279,19.0922603607178,19.092830657959,19.0933933258057,19.0939636230469,19.0945301055908,19.0950908660889,19.0956611633301,19.0962314605713,19.0968017578125,19.0973644256592,19.097936630249,19.0985050201416,19.0990753173828,19.0996379852295,19.1002082824707,19.1007709503174,19.10133934021,19.1019115447998,19.1024799346924,19.103048324585,19.1036167144775,19.1041851043701,19.1047534942627,19.105318069458,19.1058864593506,19.1064548492432,19.1070232391357,19.107593536377,19.1081619262695,19.1087284088135,19.1093044281006,19.1098709106445,19.1104335784912,19.1110000610352,19.1115741729736,19.1121425628662,19.1127109527588,19.1132774353027,19.1138439178467,19.1144161224365,19.1149845123291,19.1155529022217,19.1161193847656,19.1166877746582,19.117259979248,19.1178283691406,19.1183948516846,19.1189670562744,19.119535446167,19.1201076507568,19.1206684112549,19.1212406158447,19.1218070983887,19.1223812103271,19.122953414917,19.1235218048096,19.1240940093994,19.1246585845947,19.1252307891846,19.1258029937744,19.1263637542725,19.1269359588623,19.1275081634521,19.1280708312988,19.1286430358887,19.1292171478271,19.1297874450684,19.1303558349609,19.1309261322021,19.1314888000488,19.1320629119873,19.1326351165771,19.1332054138184,19.1337757110596,19.1343460083008,19.134916305542,19.1354808807373,19.1360530853271,19.1366233825684,19.1371955871582,19.137767791748,19.1383361816406,19.1389064788818,19.1394786834717,19.1400489807129,19.1406192779541,19.1411895751953,19.1417579650879,19.1423301696777,19.1429004669189,19.1434669494629,19.1440391540527,19.1446056365967,19.1451835632324,19.145751953125,19.1463184356689,19.1468944549561,19.1474571228027,19.1480293273926,19.1486034393311,19.1491718292236,19.1497402191162,19.1503162384033,19.1508884429932,19.151460647583,19.1520290374756,19.1525993347168,19.1531677246094,19.1537399291992,19.1543083190918,19.1548824310303,19.1554584503174,19.15602684021,19.1566028594971,19.157169342041,19.157735824585,19.1583118438721,19.1588859558105,19.1594543457031,19.1600284576416,19.1606025695801,19.161169052124,19.1617431640625,19.162317276001,19.1628894805908,19.1634578704834,19.1640300750732,19.1645946502686,19.1651725769043,19.1657428741455,19.166316986084,19.1668910980225,19.167459487915,19.1680355072021,19.1686019897461,19.1691741943359,19.1697463989258,19.1703205108643,19.1708908081055,19.1714630126953,19.1720371246338,19.172607421875,19.1731872558594,19.1737537384033,19.1743240356445,19.1748962402344,19.1754684448242,19.17604637146,19.1766185760498,19.177188873291,19.1777629852295,19.1783351898193,19.1789054870605,19.1794776916504,19.1800479888916,19.1806201934814,19.1811981201172,19.1817684173584,19.1823387145996,19.1829166412354,19.1834850311279,19.1840629577637,19.1846294403076,19.1852054595947,19.1857776641846,19.1863536834717,19.1869220733643,19.1874980926514,19.1880760192871,19.1886444091797,19.1892204284668,19.1897926330566,19.1903610229492,19.1909351348877,19.1915130615234,19.1920795440674,19.1926574707031,19.1932334899902,19.1938095092773,11.8792715072632,11.8179197311401,11.7571849822998,11.6984071731567,11.6687965393066,11.6393346786499,11.6100215911865,11.5808563232422,11.5518360137939,11.5229616165161,11.4942312240601,11.4656438827515,11.4371976852417,11.4088926315308,11.3807277679443,11.3527011871338,11.3248119354248,11.2970600128174,11.2694435119629,11.241961479187,11.2146139144897,11.1873979568481,11.1603145599365,11.1333618164062,11.1065397262573,11.0798454284668,11.0532789230347,11.0268402099609
0,0,0,0,0,0,0,0,0,0,0,0,0,0,0,0,0,0,0,0,0,0,0,0,0,0,0,0,0,0,0,0,0,0,0,0,0,0,0,0,0,0,0,0,0,0,0,0,0,0,0,0,0,0,0,0,0,0,0,0,0,0,0,0,0,0,0,0,0,0,0,0,0,0,0,0,0,0,0,0,0,0,0,0,0,0,0,0,0,0,0,0,0,0,0,0,0,0,0,0,0,0,0,0,0,0,0,0,0,0,0,0,0,0,0,0,0,0,0,0,18.7045116424561,18.7050647735596,18.7056064605713,18.7061500549316,18.7066955566406,18.7072448730469,18.7077865600586,18.7083320617676,18.7088756561279,18.7094173431396,18.7099647521973,18.7105102539062,18.711051940918,18.7115993499756,18.7121448516846,18.7126884460449,18.7132396697998,18.7137851715088,18.7143211364746,18.7148704528809,18.7154178619385,18.7159595489502,18.7165088653564,18.7170543670654,18.7175979614258,18.7181453704834,18.718692779541,18.7192344665527,18.719783782959,18.7203273773193,18.720874786377,18.7214164733887,18.7219619750977,18.7225093841553,18.7230529785156,18.7236042022705,18.7241497039795,18.7246856689453,18.7252407073975,18.7257823944092,18.7263298034668,18.7268714904785,18.727424621582,18.7279663085938,18.7285175323486,18.729061126709,18.7296085357666,18.730152130127,18.7306976318359,18.7312450408936,18.7317867279053,18.7323379516602,18.7328834533691,18.733434677124,18.7339782714844,18.7345180511475,18.7350673675537,18.7356109619141,18.7361621856689,18.7367057800293,18.7372550964355,18.7378025054932,18.7383499145508,18.738899230957,18.739444732666,18.7399864196777,18.7405300140381,18.7410755157471,18.7416286468506,18.7421760559082,18.7427234649658,18.7432689666748,18.7438163757324,18.7443618774414,18.7449073791504,18.7454509735107,18.7460021972656,18.7465476989746,18.7470970153809,18.7476463317871,18.7481937408447,18.7487411499023,18.7492904663086,18.749828338623,18.7503757476807,18.7509269714355,18.7514762878418,18.7520236968994,18.7525672912598,18.7531185150146,18.7536659240723,18.7542152404785,18.7547588348389,18.7553043365479,18.7558536529541,18.7564067840576,18.7569522857666,18.7574996948242,18.7580432891846,18.7585964202881,18.7591438293457,18.7596893310547,18.7602386474609,18.7607822418213,18.7613372802734,18.7618827819824,18.76243019104,18.7629814147949,18.7635250091553,18.7640781402588,18.764627456665,18.7651710510254,18.765718460083,18.7662677764893,18.7668132781982,18.7673645019531,18.7679138183594,18.7684650421143,18.7690124511719,18.7695579528809,18.7701034545898,18.7706546783447,18.7711963653564,18.7717475891113,18.7722988128662,18.7728462219238,18.7733974456787,18.773946762085,18.7744960784912,18.7750396728516,18.7755908966064,18.7761363983154,18.7766876220703,18.7772369384766,18.7777843475342,18.7783393859863,18.7788848876953,18.7794361114502,18.7799777984619,18.7805290222168,18.7810802459717,18.7816295623779,18.7821807861328,18.7827262878418,18.7832794189453,18.7838306427002,18.7843761444092,18.7849292755127,18.785472869873,18.786018371582,18.7865657806396,18.7871246337891,18.7876739501953,18.7882213592529,18.7887687683105,18.7893199920654,18.789867401123,18.7904167175293,18.7909660339355,18.7915134429932,18.7920684814453,18.7926158905029,18.7931652069092,18.7937202453613,18.7942676544189,18.7948169708252,18.7953701019287,18.7959175109863,18.7964668273926,18.7970180511475,18.7975673675537,18.79811668396,18.7986698150635,18.799222946167,18.799768447876,18.8003234863281,18.8008708953857,18.8014183044434,18.8019733428955,18.8025150299072,18.8030681610107,18.8036212921143,18.8041687011719,18.8047199249268,18.8052730560303,18.8058204650879,18.8063678741455,18.8069190979004,18.8074722290039,18.8080253601074,18.8085784912109,18.8091220855713,18.8096752166748,18.8102264404297,18.8107776641846,18.8113250732422,18.8118762969971,18.8124294281006,18.8129825592041,18.813533782959,18.8140850067139,18.8146381378174,18.8151874542236,18.8157386779785,18.8162841796875,18.8168354034424,18.8173923492432,18.817943572998,18.8184947967529,18.8190479278564,18.8195991516113,18.8201484680176,18.8206977844238,18.8212509155273,18.8218002319336,18.8223514556885,18.8229064941406,18.8234596252441,18.8240089416504,18.8245582580566,18.8251171112061,18.8256664276123,18.8262157440186,18.8267669677734,18.8273162841797,18.8278732299805,18.8284225463867,18.8289775848389,18.8295269012451,18.8300838470459,18.8306331634521,18.8311882019043,18.8317317962646,18.8322849273682,18.8328437805176,18.8333911895752,18.8339424133301,18.834493637085,18.8350467681885,18.8356037139893,18.8361530303955,18.8367004394531,18.8372573852539,18.8378105163574,18.8383598327637,18.8389129638672,18.8394680023193,18.8400230407715,18.8405723571777,18.8411235809326,18.8416728973389,18.842227935791,18.8427829742432,18.8433361053467,18.8438892364502,18.8444442749023,18.8449974060059,18.845552444458,18.8461036682129,18.8466510772705,18.847204208374,18.8477573394775,18.8483123779297,18.8488674163818,18.8494186401367,18.8499717712402,18.8505249023438,18.8510780334473,18.8516292572021,18.8521842956543,18.8527374267578,18.8532905578613,18.8538398742676,18.8544006347656,18.8549537658691,18.8555068969727,18.8560562133789,18.856616973877,18.8571624755859,18.857723236084,18.8582744598389,18.8588275909424,18.8593845367432,18.8599338531494,18.8604869842529,18.8610458374023,18.8615989685059,18.8621501922607,18.8627090454102,18.8632583618164,18.8638153076172,18.8643665313721,18.8649253845215,18.8654747009277,18.8660297393799,18.8665809631348,18.8671398162842,18.8676910400391,18.8682403564453,18.8687973022461,18.8693542480469,18.8699035644531,18.8704605102539,18.8710174560547,18.8715744018555,18.8721256256104,18.8726749420166,18.8732318878174,18.8737869262695,18.8743438720703,18.8748970031738,18.8754558563232,18.8760051727295,18.8765602111816,18.8771171569824,18.8776664733887,18.8782215118408,18.878776550293,18.8793334960938,18.8798885345459,18.8804416656494,18.8809986114502,18.8815536499023,18.8821144104004,18.8826637268066,18.8832187652588,18.8837738037109,18.8843288421631,18.8848838806152,18.8854446411133,18.8859996795654,18.8865547180176,18.8871078491211,18.8876628875732,18.8882179260254,18.8887710571289,18.8893299102783,18.8898849487305,18.8904399871826,18.890998840332,18.8915519714355,18.8921051025391,18.8926677703857,18.8932151794434,18.8937740325928,18.8943271636963,18.8948860168457,18.8954410552979,18.8959999084473,18.8965530395508,18.8971099853516,18.8976631164551,18.8982162475586,18.898775100708,18.8993263244629,18.8998870849609,18.9004459381104,18.9009990692139,18.9015560150146,18.9021148681641,18.9026679992676,18.903226852417,18.9037780761719,18.9043369293213,18.9048938751221,18.9054489135742,18.906005859375,18.9065628051758,18.9071216583252,18.9076805114746,18.9082374572754,18.9087905883789,18.9093475341797,18.9099044799805,18.9104633331299,18.9110107421875,18.9115695953369,18.9121265411377,18.9126834869385,18.9132423400879,18.9137992858887,18.9143562316895,18.9149150848389,18.915470123291,18.9160270690918,18.9165859222412,18.9171409606934,18.91770362854,18.9182605743408,18.9188117980957,18.9193725585938,18.9199295043945,18.9204845428467,18.9210414886475,18.9216041564941,18.9221611022949,18.9227161407471,18.9232788085938,18.9238319396973,18.924388885498,18.9249439239502,18.925500869751,18.926061630249,18.9266166687012,18.9271812438965,18.927734375,18.9282932281494,18.9288501739502,18.9294033050537,18.9299621582031,18.9305171966553,18.931079864502,18.9316349029541,18.9321956634521,18.9327564239502,18.9333114624023,18.9338703155518,18.9344253540039,18.9349880218506,18.9355411529541,18.9361019134521,18.9366645812988,18.9372215270996,18.9377765655518,18.9383354187012,18.9388942718506,18.9394474029541,18.9400100708008,18.9405708312988,18.9411277770996,18.941686630249,18.9422492980957,18.9428100585938,18.9433670043945,18.9439239501953,18.9444847106934,18.9450416564941,18.9455966949463,18.9461574554443,18.9467182159424,18.9472732543945,18.9478340148926,18.948392868042,18.9489517211914,18.9495162963867,18.950065612793,18.950626373291,18.9511833190918,18.9517498016357,18.9523048400879,18.9528636932373,18.9534244537354,18.9539890289307,18.9545459747314,18.9551029205322,18.9556617736816,18.9562187194824,18.9567832946777,18.9573402404785,18.9578971862793,18.9584617614746,18.9590187072754,18.9595794677734,18.9601345062256,18.9606952667236,18.9612579345703,18.9618148803711,18.9623756408691,18.9629344940186,18.9634990692139,18.964054107666,18.9646167755127,18.9651737213135,18.965726852417,18.9662895202637,18.9668560028076,18.9674091339111,18.9679698944092,18.9685363769531,18.9690952301025,18.969654083252,18.9702129364014,18.9707717895508,18.9713344573975,18.9718933105469,18.9724559783936,18.9730167388916,18.9735794067383,18.9741401672363,18.9746952056885,18.9752578735352,18.9758186340332,18.9763793945312,18.9769401550293,18.9775009155273,18.978063583374,18.9786243438721,18.9791851043701,18.9797458648682,18.9803066253662,18.9808673858643,18.9814281463623,18.9819869995117,18.9825496673584,18.9831085205078,18.9836673736572,18.9842357635498,18.9847965240479,18.9853534698486,18.9859180450439,18.9864749908447,18.9870338439941,18.9876003265381,18.9881591796875,18.9887180328369,18.9892864227295,18.9898471832275,18.9904041290283,18.9909687042236,18.9915294647217,18.9920845031738,18.9926509857178,18.9932098388672,18.9937744140625,11.8799686431885,11.8186063766479,11.7578649520874,11.6980285644531,11.6684198379517,11.6389598846436,11.6096487045288,11.5804843902588,11.5514669418335,11.5225944519043,11.4938659667969,11.4652795791626,11.4368362426758,11.4085321426392,11.3803691864014,11.3523445129395,11.3244571685791,11.2967071533203,11.2690925598145,11.2416124343872,11.2142658233643,11.1870517730713,11.1599702835083,11.1330194473267,11.1061983108521,11.0795059204102,11.0529413223267,11.0265045166016
0,0,0,0,0,0,0,0,0,0,0,0,0,0,0,0,0,0,0,0,0,0,0,0,0,0,0,0,0,0,0,0,0,0,0,0,0,0,0,0,0,0,0,0,0,0,0,0,0,0,0,0,0,0,0,0,0,0,0,0,0,0,0,0,0,0,0,0,0,0,0,0,0,0,0,0,0,0,0,0,0,0,0,0,0,0,0,0,0,0,0,0,0,0,0,0,0,0,0,0,0,0,0,18.5054397583008,18.5059680938721,18.506498336792,18.5070362091064,18.5075721740723,18.5081024169922,18.5086345672607,18.5091743469238,18.5097026824951,18.5102386474609,18.5107765197754,18.5113048553467,18.5118389129639,18.5123691558838,18.5129051208496,18.5134372711182,18.5139751434326,18.5145111083984,18.5150451660156,18.5155773162842,18.5161056518555,18.5166416168213,18.5171756744385,18.5177135467529,18.518238067627,18.5187740325928,18.51930809021,18.5198440551758,18.5203800201416,18.5209140777588,18.521448135376,18.5219783782959,18.5225162506104,18.5230503082275,18.5235805511475,18.5241184234619,18.524658203125,18.5251884460449,18.5257186889648,18.526252746582,18.5267887115479,18.5273246765137,18.5278587341309,18.528392791748,18.5289287567139,18.5294628143311,18.5299949645996,18.5305328369141,18.5310649871826,18.5315990447998,18.5321273803711,18.5326652526855,18.5331993103027,18.5337333679199,18.534273147583,18.5348052978516,18.5353450775146,18.5358695983887,18.5364074707031,18.5369491577148,18.5374794006348,18.5380172729492,18.5385513305664,18.5390892028809,18.5396194458008,18.5401592254639,18.5406894683838,18.5412254333496,18.5417575836182,18.542293548584,18.5428314208984,18.543363571167,18.5439033508301,18.5444412231445,18.544979095459,18.5455074310303,18.5460433959961,18.5465755462646,18.5471134185791,18.5476493835449,18.5481872558594,18.5487232208252,18.5492610931396,18.5497989654541,18.5503330230713,18.5508670806885,18.5514030456543,18.5519351959229,18.5524749755859,18.5530128479004,18.5535449981689,18.554084777832,18.5546207427979,18.5551528930664,18.555685043335,18.5562267303467,18.5567646026611,18.5572986602783,18.5578327178955,18.5583686828613,18.5589027404785,18.5594501495361,18.5599784851074,18.560510635376,18.5610523223877,18.5615882873535,18.5621204376221,18.5626525878906,18.563196182251,18.5637321472168,18.564266204834,18.5648078918457,18.5653381347656,18.5658779144287,18.5664119720459,18.5669498443604,18.5674877166748,18.5680274963379,18.5685577392578,18.5691032409668,18.569637298584,18.5701732635498,18.5707092285156,18.5712432861328,18.5717849731445,18.5723171234131,18.5728549957275,18.5733966827393,18.5739269256592,18.5744686126709,18.575008392334,18.5755443572998,18.5760746002197,18.5766162872314,18.5771522521973,18.5776920318604,18.5782260894775,18.5787658691406,18.5793056488037,18.5798454284668,18.5803813934326,18.5809154510498,18.5814552307129,18.5819911956787,18.5825271606445,18.583065032959,18.5836009979248,18.5841426849365,18.5846824645996,18.5852165222168,18.5857582092285,18.586296081543,18.5868301391602,18.5873718261719,18.5879096984863,18.5884437561035,18.5889835357666,18.5895214080811,18.5900611877441,18.59059715271,18.5911312103271,18.5916709899902,18.5922107696533,18.5927410125732,18.5932884216309,18.593822479248,18.5943622589111,18.5949001312256,18.5954341888428,18.5959739685059,18.5965137481689,18.5970516204834,18.5975875854492,18.5981330871582,18.598669052124,18.5992031097412,18.5997467041016,18.6002826690674,18.6008186340332,18.6013622283936,18.6018981933594,18.6024398803711,18.6029758453369,18.6035175323486,18.6040534973145,18.6045970916748,18.605131149292,18.6056652069092,18.6062088012695,18.6067504882812,18.6072864532471,18.6078300476074,18.6083679199219,18.6089038848877,18.6094455718994,18.6099872589111,18.610523223877,18.61106300354,18.6115970611572,18.6121406555176,18.6126804351807,18.6132183074951,18.6137599945068,18.6142959594727,18.6148376464844,18.6153774261475,18.615909576416,18.6164512634277,18.6169910430908,18.6175327301025,18.6180725097656,18.6186180114746,18.6191596984863,18.6196994781494,18.6202392578125,18.6207714080811,18.6213130950928,18.6218528747559,18.6223926544189,18.622932434082,18.6234760284424,18.6240119934082,18.6245517730713,18.6250915527344,18.6256294250488,18.6261711120605,18.626708984375,18.6272487640381,18.6277942657471,18.6283321380615,18.6288719177246,18.629415512085,18.629955291748,18.6304931640625,18.631031036377,18.63157081604,18.6321144104004,18.6326541900635,18.6331977844238,18.6337337493896,18.6342792510986,18.6348190307617,18.6353626251221,18.6358947753906,18.6364364624023,18.6369819641113,18.6375198364258,18.6380615234375,18.6386013031006,18.6391448974609,18.6396884918213,18.6402263641357,18.6407642364502,18.6413040161133,18.6418514251709,18.6423854827881,18.6429290771484,18.6434726715088,18.6440162658691,18.644552230835,18.6450958251953,18.6456317901611,18.6461753845215,18.6467170715332,18.6472606658936,18.6478042602539,18.6483459472656,18.6488876342773,18.6494312286377,18.6499652862549,18.6505069732666,18.651050567627,18.65159034729,18.6521339416504,18.6526737213135,18.6532173156738,18.6537609100342,18.6542987823486,18.6548385620117,18.6553802490234,18.6559219360352,18.6564655303955,18.6570053100586,18.6575450897217,18.658088684082,18.658634185791,18.6591758728027,18.6597156524658,18.6602592468262,18.6607990264893,18.661340713501,18.66188621521,18.6624279022217,18.6629695892334,18.6635150909424,18.6640548706055,18.6645946502686,18.6651420593262,18.6656799316406,18.6662197113037,18.6667671203613,18.667308807373,18.667854309082,18.6683940887451,18.6689395904541,18.6694793701172,18.6700248718262,18.6705646514893,18.6711044311523,18.6716499328613,18.6721897125244,18.6727352142334,18.6732807159424,18.6738204956055,18.6743640899658,18.6749114990234,18.6754550933838,18.6759929656982,18.6765327453613,18.6770782470703,18.677619934082,18.6781673431396,18.6787109375,18.679256439209,18.6797962188721,18.6803398132324,18.6808834075928,18.6814193725586,18.6819648742676,18.6825084686279,18.6830539703369,18.6835975646973,18.6841430664062,18.6846866607666,18.6852283477783,18.6857719421387,18.6863136291504,18.6868572235107,18.6874008178711,18.6879444122314,18.6884880065918,18.6890316009521,18.6895809173584,18.6901226043701,18.6906681060791,18.6912040710449,18.6917514801025,18.6922969818115,18.6928405761719,18.6933841705322,18.6939315795898,18.6944732666016,18.6950149536133,18.6955642700195,18.6961002349854,18.6966495513916,18.697193145752,18.6977405548096,18.6982822418213,18.698823928833,18.6993732452393,18.6999130249023,18.7004623413086,18.7010040283203,18.7015438079834,18.7020950317383,18.70263671875,18.7031841278076,18.7037239074707,18.7042713165283,18.7048206329346,18.7053604125977,18.7059020996094,18.706449508667,18.7069969177246,18.7075366973877,18.7080821990967,18.7086315155029,18.7091770172119,18.7097187042236,18.7102661132812,18.7108116149902,18.711353302002,18.7118968963623,18.7124443054199,18.7129917144775,18.7135391235352,18.7140769958496,18.7146263122559,18.7151699066162,18.7157154083252,18.7162590026855,18.7168064117432,18.7173538208008,18.7178993225098,18.7184448242188,18.7189903259277,18.7195358276367,18.7200813293457,18.7206268310547,18.721170425415,18.721715927124,18.722261428833,18.7228088378906,18.723352432251,18.7238960266113,18.7244472503662,18.7249908447266,18.7255363464355,18.7260818481445,18.7266273498535,18.7271709442139,18.7277221679688,18.7282657623291,18.7288093566895,18.7293605804443,18.7299041748047,18.7304534912109,18.7309989929199,18.7315444946289,18.7320861816406,18.7326354980469,18.7331848144531,18.7337303161621,18.7342739105225,18.7348251342773,18.7353668212891,18.7359180450439,18.7364616394043,18.737003326416,18.7375526428223,18.7381019592285,18.7386493682861,18.7391948699951,18.73974609375,18.7402954101562,18.7408332824707,18.7413768768311,18.7419281005859,18.7424755096436,18.7430248260498,18.7435684204102,18.7441158294678,18.744665145874,18.7452125549316,18.7457599639893,18.7463092803955,18.74684715271,18.7473945617676,18.7479438781738,18.7484912872314,18.7490386962891,18.7495880126953,18.7501354217529,18.7506847381592,18.7512302398682,18.7517738342285,18.7523174285889,18.7528667449951,18.7534198760986,18.7539691925049,18.7545146942139,18.7550621032715,18.7556095123291,18.7561550140381,18.7567005157471,18.7572498321533,18.7577972412109,18.7583484649658,18.7588939666748,18.7594413757324,18.7599945068359,18.7605419158936,18.7610874176025,18.7616405487061,18.7621784210205,18.762731552124,18.7632751464844,18.7638301849365,18.7643756866455,18.7649230957031,18.7654724121094,18.7660179138184,18.7665710449219,18.7671165466309,18.7676620483398,18.7682151794434,18.768762588501,18.7693099975586,18.7698593139648,18.7704048156738,18.7709579467773,18.7715072631836,18.7720527648926,18.7725963592529,18.7731475830078,18.7736988067627,18.7742500305176,18.7747955322266,18.7753467559814,18.7758941650391,18.7764472961426,18.7769889831543,18.7775421142578,18.7780876159668,18.7786331176758,18.779182434082,18.7797317504883,18.7802829742432,18.780834197998,18.7813816070557,18.7819309234619,18.7824745178223,18.7830257415771,18.7835750579834,18.7841300964355,18.7846794128418,18.785228729248,18.7857780456543,18.7863254547119,18.7868747711182,18.7874183654785,18.7879753112793,18.7885246276855,18.7890720367432,18.7896194458008,18.790168762207,18.7907180786133,18.7912731170654,18.7918224334717,18.7923698425293,18.7929153442383,18.7934646606445,18.7940196990967,18.7945671081543,18.7951145172119,18.7956695556641,18.7962188720703,18.7967720031738,18.7973213195801,18.7978687286377,11.8806657791138,11.8192930221558,11.758544921875,11.6984167098999,11.6680431365967,11.6385850906372,11.6092758178711,11.5801134109497,11.551097869873,11.5222272872925,11.4934997558594,11.464916229248,11.4364738464355,11.4081726074219,11.3800106048584,11.3519878387451,11.3241024017334,11.2963542938232,11.2687406539917,11.2412624359131,11.2139177322388,11.1867055892944,11.1596260070801,11.1326761245728,11.1058568954468,11.0791664123535,11.0526037216187,11.0261678695679
0,0,0,0,0,0,0,0,0,0,0,0,0,0,0,0,0,0,0,0,0,0,0,0,0,0,0,0,0,0,0,0,0,0,0,0,0,0,0,0,0,0,0,0,0,0,0,0,0,0,0,0,0,0,0,0,0,0,0,0,0,0,0,0,0,0,0,0,0,0,0,0,0,0,0,0,0,0,0,0,0,0,0,0,18.3095092773438,18.3100299835205,18.3105545043945,18.3110752105713,18.311595916748,18.3121204376221,18.3126335144043,18.313159942627,18.3136825561523,18.314208984375,18.3147296905518,18.3152503967285,18.3157711029053,18.3162956237793,18.3168125152588,18.3173351287842,18.3178596496582,18.3183822631836,18.318904876709,18.319429397583,18.3199501037598,18.3204727172852,18.3209972381592,18.3215217590332,18.3220443725586,18.3225688934326,18.3230876922607,18.3236083984375,18.3241329193115,18.3246574401855,18.3251781463623,18.3257064819336,18.3262252807617,18.3267459869385,18.3272743225098,18.3277931213379,18.328311920166,18.3288326263428,18.3293628692627,18.3298873901367,18.3304080963135,18.3309307098389,18.331449508667,18.3319702148438,18.332498550415,18.3330211639404,18.3335475921631,18.3340702056885,18.3346004486084,18.3351192474365,18.3356399536133,18.3361625671387,18.3366870880127,18.3372077941895,18.3377361297607,18.3382530212402,18.3387813568115,18.3393020629883,18.3398303985596,18.3403568267822,18.340877532959,18.3413963317871,18.3419208526611,18.3424472808838,18.3429679870605,18.3434944152832,18.3440189361572,18.3445415496826,18.3450660705566,18.3455905914307,18.3461112976074,18.3466358184814,18.3471660614014,18.3476867675781,18.3482093811035,18.3487339019775,18.3492603302002,18.3497829437256,18.3503112792969,18.3508319854736,18.351354598999,18.3518772125244,18.3524036407471,18.3529300689697,18.3534526824951,18.3539772033691,18.3545036315918,18.3550262451172,18.3555545806885,18.3560771942139,18.3566036224365,18.3571281433105,18.3576469421387,18.3581733703613,18.3586978912354,18.3592224121094,18.359748840332,18.3602733612061,18.3607902526855,18.3613224029541,18.3618450164795,18.3623695373535,18.3628940582275,18.3634223937988,18.3639450073242,18.3644695281982,18.3650016784668,18.3655185699463,18.3660449981689,18.366569519043,18.3670997619629,18.3676223754883,18.3681507110596,18.3686752319336,18.3692054748535,18.3697261810303,18.370246887207,18.3707695007324,18.3712997436523,18.3718223571777,18.372350692749,18.3728809356689,18.3733997344971,18.3739280700684,18.3744525909424,18.3749847412109,18.3755054473877,18.376033782959,18.3765525817871,18.3770809173584,18.3776092529297,18.3781394958496,18.3786602020264,18.3791885375977,18.3797130584717,18.3802375793457,18.380765914917,18.381290435791,18.381814956665,18.3823413848877,18.3828659057617,18.3833961486816,18.3839225769043,18.3844451904297,18.3849697113037,18.3854961395264,18.3860244750977,18.386547088623,18.3870792388916,18.387601852417,18.3881244659424,18.3886566162109,18.3891830444336,18.389705657959,18.390230178833,18.3907566070557,18.391284942627,18.391809463501,18.3923358917236,18.3928642272949,18.3933944702148,18.3939189910889,18.3944473266602,18.3949756622314,18.3955001831055,18.3960266113281,18.3965492248535,18.3970813751221,18.3976058959961,18.3981342315674,18.3986644744873,18.39919090271,18.3997116088867,18.4002418518066,18.4007740020752,18.401294708252,18.4018249511719,18.4023494720459,18.4028816223145,18.4034099578857,18.4039402008057,18.4044551849365,18.4049873352051,18.4055118560791,18.4060440063477,18.4065723419189,18.4070949554443,18.4076251983643,18.4081554412842,18.4086818695068,18.4092102050781,18.4097347259521,18.4102649688721,18.4107894897461,18.4113178253174,18.4118499755859,18.4123783111572,18.4129009246826,18.4134311676025,18.4139614105225,18.4144821166992,18.4150123596191,18.4155426025391,18.4160709381104,18.4165992736816,18.4171295166016,18.4176483154297,18.418176651001,18.4187068939209,18.4192352294922,18.4197635650635,18.4202938079834,18.4208202362061,18.4213523864746,18.4218788146973,18.4224071502686,18.4229354858398,18.4234638214111,18.4239845275879,18.4245204925537,18.4250469207764,18.4255752563477,18.4261054992676,18.4266319274902,18.4271602630615,18.4276943206787,18.4282207489014,18.4287490844727,18.4292755126953,18.4298038482666,18.4303321838379,18.4308643341064,18.4313907623291,18.4319190979004,18.4324512481689,18.4329814910889,18.4335136413574,18.4340324401855,18.4345664978027,18.4350929260254,18.4356269836426,18.4361515045166,18.4366855621338,18.4372119903564,18.437744140625,18.438268661499,18.4387969970703,18.4393291473389,18.4398555755615,18.4403877258301,18.4409217834473,18.4414463043213,18.4419784545898,18.442512512207,18.4430351257324,18.4435615539551,18.444091796875,18.4446239471436,18.4451560974121,18.4456825256348,18.4462146759033,18.4467468261719,18.4472751617432,18.4478054046631,18.4483280181885,18.448860168457,18.4493923187256,18.4499168395996,18.4504489898682,18.4509773254395,18.4515075683594,18.4520397186279,18.4525699615479,18.4531021118164,18.4536266326904,18.4541568756104,18.4546871185303,18.4552192687988,18.4557476043701,18.4562797546387,18.45680809021,18.4573421478271,18.4578742980957,18.4583988189697,18.4589290618896,18.4594650268555,18.4599933624268,18.4605236053467,18.4610538482666,18.4615840911865,18.4621162414551,18.4626483917236,18.4631786346436,18.4637069702148,18.4642353057861,18.4647693634033,18.4652996063232,18.4658279418945,18.4663639068604,18.4668941497803,18.4674282073975,18.4679565429688,18.46848487854,18.46901512146,18.4695491790771,18.4700775146484,18.4706115722656,18.4711380004883,18.4716758728027,18.472204208374,18.4727363586426,18.4732666015625,18.4737968444824,18.4743270874023,18.4748611450195,18.4753952026367,18.4759216308594,18.4764556884766,18.4769916534424,18.477518081665,18.4780426025391,18.4785766601562,18.4791088104248,18.4796409606934,18.4801750183105,18.4807014465332,18.4812355041504,18.4817676544189,18.4823017120361,18.4828338623047,18.483362197876,18.4838962554932,18.4844284057617,18.4849586486816,18.4854907989502,18.4860248565674,18.4865570068359,18.4870910644531,18.487621307373,18.4881477355957,18.4886798858643,18.4892196655273,18.4897499084473,18.4902820587158,18.490816116333,18.4913482666016,18.4918785095215,18.49241065979,18.4929428100586,18.4934749603271,18.4940032958984,18.4945430755615,18.4950733184814,18.49560546875,18.4961357116699,18.4966735839844,18.4972057342529,18.4977359771729,18.4982681274414,18.4987983703613,18.4993362426758,18.4998664855957,18.5004024505615,18.5009365081787,18.5014705657959,18.5020008087158,18.5025367736816,18.5030612945557,18.5035991668701,18.50412940979,18.5046653747559,18.5052013397217,18.5057315826416,18.5062656402588,18.5067977905273,18.5073337554932,18.5078620910645,18.508394241333,18.5089244842529,18.5094623565674,18.5099964141846,18.5105266571045,18.5110626220703,18.5115966796875,18.512134552002,18.5126609802246,18.5131969451904,18.5137271881104,18.5142631530762,18.5147972106934,18.5153312683105,18.5158653259277,18.5164012908936,18.5169353485107,18.5174694061279,18.5179977416992,18.5185317993164,18.5190696716309,18.5195999145508,18.5201358795166,18.5206718444824,18.5212059020996,18.5217399597168,18.522274017334,18.5228004455566,18.5233421325684,18.5238761901855,18.5244102478027,18.5249423980713,18.5254764556885,18.5260105133057,18.5265483856201,18.5270824432373,18.5276107788086,18.5281505584717,18.5286827087402,18.5292167663574,18.529748916626,18.5302906036377,18.5308208465576,18.5313529968262,18.5318927764893,18.5324268341064,18.532958984375,18.5334911346436,18.534029006958,18.5345630645752,18.5351009368896,18.5356349945068,18.5361709594727,18.5367069244385,18.5372447967529,18.5377769470215,18.5383052825928,18.5388412475586,18.539379119873,18.5399131774902,18.5404491424561,18.5409812927246,18.5415191650391,18.5420551300049,18.5425891876221,18.543119430542,18.5436592102051,18.5441932678223,18.544734954834,18.5452690124512,18.5457992553711,18.5463390350342,18.546875,18.5474052429199,18.5479431152344,18.5484790802002,18.5490169525146,18.5495548248291,18.5500888824463,18.5506267547607,18.5511569976807,18.5516929626465,18.5522289276123,18.5527648925781,18.5533008575439,18.5538387298584,18.5543746948242,18.5549087524414,18.5554428100586,18.555980682373,18.5565166473389,18.5570526123047,18.5575866699219,18.5581226348877,18.5586585998535,18.559196472168,18.5597343444824,18.5602722167969,18.5608100891113,18.5613441467285,18.5618839263916,18.5624141693115,18.562952041626,18.5634880065918,18.5640239715576,18.5645656585693,18.5650978088379,18.5656356811523,18.5661754608154,18.5667095184326,18.5672435760498,18.5677795410156,18.5683193206787,18.5688495635986,18.5693912506104,18.5699234008789,18.5704650878906,18.5710048675537,18.5715389251709,18.572078704834,18.5726127624512,18.5731449127197,18.5736846923828,18.5742282867432,18.5747604370117,18.5752983093262,18.5758399963379,18.5763740539551,18.5769119262695,18.5774459838867,18.5779857635498,18.5785255432129,18.5790576934814,18.5795974731445,18.580135345459,18.5806732177734,18.5812149047852,18.581750869751,18.5822849273682,18.5828227996826,18.5833625793457,18.5838985443115,18.584436416626,18.5849761962891,18.5855159759521,18.586051940918,18.5865898132324,18.5871276855469,18.5876617431641,18.5881996154785,18.5887355804443,18.5892734527588,18.5898170471191,18.5903549194336,18.5908946990967,18.5914287567139,18.5919666290283,18.5925045013428,18.5930442810059,18.5935802459717,18.5941162109375,18.5946598052979,18.5951957702637,18.5957355499268,18.5962791442871,18.5968132019043,18.5973510742188,18.5978889465332,18.5984230041504,18.5989646911621,18.5994987487793,18.6000423431396,18.6005783081055,18.6011238098145,18.6016578674316,18.6021938323975,18.6027297973633,18.603271484375,18.6038074493408,18.6043510437012,18.6048908233643,18.6054267883301,18.6059684753418,11.8813629150391,11.8199806213379,11.7592248916626,11.6990900039673,11.6676664352417,11.6382102966309,11.6089029312134,11.5797424316406,11.5507287979126,11.5218601226807,11.4931344985962,11.4645528793335,11.4361124038696,11.4078121185303,11.3796529769897,11.3516311645508,11.3237476348877,11.2960004806519,11.2683897018433,11.240912437439,11.2135696411133,11.1863594055176,11.1592807769775,11.1323337554932,11.1055154800415,11.0788269042969,11.0522651672363,11.0258312225342
0,0,0,0,0,0,0,0,0,0,0,0,0,0,0,0,0,0,0,0,0,0,0,0,0,0,0,0,0,0,0,0,0,0,0,0,0,0,0,0,0,0,0,0,0,0,0,0,0,0,0,0,0,0,0,0,0,0,0,0,0,0,18.1161499023438,18.1166610717773,18.1171741485596,18.1176834106445,18.1181964874268,18.1187076568604,18.1192188262939,18.1197299957275,18.1202411651611,18.1207504272461,18.1212615966797,18.1217727661133,18.1222858428955,18.1227970123291,18.1233081817627,18.1238193511963,18.1243286132812,18.1248397827148,18.125358581543,18.1258659362793,18.1263771057129,18.1268863677979,18.1274013519287,18.127908706665,18.1284160614014,18.1289329528809,18.1294422149658,18.1299533843994,18.1304702758789,18.1309795379639,18.1314888000488,18.1319999694824,18.1325130462646,18.1330223083496,18.1335391998291,18.1340522766113,18.1345653533936,18.1350765228271,18.1355876922607,18.1360950469971,18.1366100311279,18.1371154785156,18.1376342773438,18.1381492614746,18.1386585235596,18.1391716003418,18.1396808624268,18.1401958465576,18.1407127380371,18.1412200927734,18.1417293548584,18.142240524292,18.1427593231201,18.1432723999023,18.14377784729,18.1442947387695,18.1448097229004,18.1453247070312,18.1458301544189,18.1463432312012,18.146858215332,18.147367477417,18.1478805541992,18.1483936309814,18.1489086151123,18.1494216918945,18.1499366760254,18.1504440307617,18.1509571075439,18.1514682769775,18.1519832611084,18.152494430542,18.1530113220215,18.1535243988037,18.1540355682373,18.1545486450195,18.1550617218018,18.1555767059326,18.1560859680176,18.1565990447998,18.157112121582,18.1576251983643,18.1581439971924,18.158655166626,18.1591663360596,18.1596813201904,18.1601905822754,18.1607055664062,18.1612148284912,18.161735534668,18.1622486114502,18.1627578735352,18.1632766723633,18.1637897491455,18.1643009185791,18.16481590271,18.1653232574463,18.165843963623,18.166353225708,18.1668739318848,18.167387008667,18.1679019927979,18.1684150695801,18.1689300537109,18.1694374084473,18.1699542999268,18.170467376709,18.1709842681885,18.1714992523193,18.1720123291016,18.1725273132324,18.1730403900146,18.1735572814941,18.174072265625,18.17458152771,18.1750907897949,18.175609588623,18.1761245727539,18.1766414642334,18.177152633667,18.1776714324951,18.1781883239746,18.1787014007568,18.1792144775391,18.1797275543213,18.1802387237549,18.1807556152344,18.1812705993652,18.1817874908447,18.1822986602783,18.1828193664551,18.1833343505859,18.1838455200195,18.1843585968018,18.1848735809326,18.1853904724121,18.1859016418457,18.1864223480225,18.1869316101074,18.1874446868896,18.1879634857178,18.1884784698486,18.1889915466309,18.1895084381104,18.1900234222412,18.1905345916748,18.1910533905029,18.1915664672852,18.1920833587646,18.1926002502441,18.193115234375,18.1936225891113,18.1941452026367,18.1946582794189,18.1951732635498,18.1956901550293,18.1962070465088,18.1967220306396,18.1972370147705,18.1977558135986,18.1982688903809,18.1987819671631,18.1992950439453,18.1998138427734,18.2003288269043,18.2008495330811,18.2013626098633,18.2018814086914,18.202392578125,18.2029094696045,18.2034225463867,18.2039375305176,18.2044544219971,18.2049732208252,18.2054882049561,18.2060031890869,18.206521987915,18.2070369720459,18.2075519561768,18.2080688476562,18.2085876464844,18.2090969085693,18.2096138000488,18.2101345062256,18.2106533050537,18.2111625671387,18.2116813659668,18.2122001647949,18.2127170562744,18.2132339477539,18.2137489318848,18.214262008667,18.2147789001465,18.2152976989746,18.2158164978027,18.216329574585,18.2168464660645,18.2173595428467,18.2178745269775,18.2183933258057,18.2189121246338,18.2194271087646,18.2199440002441,18.2204627990723,18.2209777832031,18.2214984893799,18.2220115661621,18.2225303649902,18.2230472564697,18.2235641479492,18.2240791320801,18.2245979309082,18.225118637085,18.2256355285645,18.2261505126953,18.2266693115234,18.2271862030029,18.2277011871338,18.2282161712646,18.2287406921387,18.2292575836182,18.229772567749,18.2302894592285,18.2308101654053,18.2313251495361,18.231840133667,18.2323551177979,18.2328777313232,18.2333927154541,18.233907699585,18.2344303131104,18.2349452972412,18.2354698181152,18.2359828948975,18.2364978790283,18.2370185852051,18.2375335693359,18.2380561828613,18.2385711669922,18.2390918731689,18.2396125793457,18.2401256561279,18.2406463623047,18.2411613464355,18.2416744232178,18.2421970367432,18.2427158355713,18.243236541748,18.2437515258789,18.2442722320557,18.2447910308838,18.2453136444092,18.2458248138428,18.2463359832764,18.2468566894531,18.2473754882812,18.2478981018066,18.2484149932861,18.2489376068115,18.249454498291,18.2499752044678,18.25048828125,18.2510089874268,18.2515258789062,18.2520446777344,18.2525653839111,18.2530860900879,18.2536029815674,18.2541217803955,18.2546424865723,18.2551612854004,18.255672454834,18.2561931610107,18.2567119598389,18.2572364807129,18.2577533721924,18.2582721710205,18.2587909698486,18.2593097686768,18.2598266601562,18.2603511810303,18.2608642578125,18.2613830566406,18.261905670166,18.2624244689941,18.2629413604736,18.2634658813477,18.2639827728271,18.2645015716553,18.2650241851807,18.2655353546143,18.2660617828369,18.2665786743164,18.2670955657959,18.2676181793213,18.2681350708008,18.2686614990234,18.2691764831543,18.2697010040283,18.2702178955078,18.2707347869873,18.2712554931641,18.2717742919922,18.2722949981689,18.2728118896484,18.2733364105225,18.2738590240479,18.2743759155273,18.2748908996582,18.2754096984863,18.2759342193604,18.2764492034912,18.2769737243652,18.277494430542,18.2780094146729,18.2785301208496,18.279052734375,18.279577255249,18.2800922393799,18.2806148529053,18.281135559082,18.2816486358643,18.2821731567383,18.282693862915,18.2832145690918,18.2837371826172,18.2842578887939,18.2847747802734,18.2852935791016,18.285816192627,18.2863368988037,18.2868576049805,18.2873783111572,18.287899017334,18.2884197235107,18.2889404296875,18.2894630432129,18.2899837493896,18.2905025482178,18.2910213470459,18.2915439605713,18.292064666748,18.2925910949707,18.2931098937988,18.2936305999756,18.2941513061523,18.2946701049805,18.2951927185059,18.295711517334,18.2962379455566,18.2967567443848,18.2972774505615,18.2978019714355,18.2983226776123,18.2988414764404,18.2993602752686,18.2998809814453,18.3004055023193,18.3009262084961,18.3014526367188,18.3019676208496,18.3024959564209,18.3030128479004,18.3035373687744,18.3040523529053,18.3045768737793,18.3050975799561,18.3056163787842,18.3061428070068,18.306661605835,18.307186126709,18.307710647583,18.3082275390625,18.3087463378906,18.3092708587646,18.3097953796387,18.3103122711182,18.3108367919922,18.3113613128662,18.3118801116943,18.3124027252197,18.3129253387451,18.3134517669678,18.3139667510986,18.3144912719727,18.3150157928467,18.3155384063721,18.3160572052002,18.316577911377,18.317102432251,18.3176250457764,18.3181495666504,18.3186645507812,18.3191890716553,18.3197116851807,18.3202342987061,18.3207588195801,18.3212814331055,18.3218059539795,18.3223323822021,18.3228549957275,18.323371887207,18.3238945007324,18.3244171142578,18.3249378204346,18.3254680633545,18.3259887695312,18.3265113830566,18.3270359039307,18.3275547027588,18.3280849456787,18.3285980224609,18.3291282653809,18.3296508789062,18.3301696777344,18.3306922912598,18.3312206268311,18.3317432403564,18.3322639465332,18.3327903747559,18.3333110809326,18.333833694458,18.3343544006348,18.3348789215088,18.3353996276855,18.3359260559082,18.336446762085,18.3369750976562,18.337495803833,18.3380165100098,18.3385429382324,18.3390636444092,18.3395900726318,18.3401184082031,18.3406391143799,18.3411636352539,18.341682434082,18.3422088623047,18.3427314758301,18.3432579040527,18.3437824249268,18.3443012237549,18.3448295593262,18.3453540802002,18.3458805084229,18.346399307251,18.346923828125,18.3474502563477,18.3479709625244,18.3484973907471,18.3490219116211,18.3495464324951,18.3500709533691,18.3505973815918,18.3511142730713,18.3516407012939,18.352165222168,18.3526916503906,18.3532161712646,18.3537406921387,18.3542652130127,18.3547916412354,18.3553161621094,18.3558387756348,18.3563652038574,18.3568897247314,18.3574142456055,18.3579387664795,18.3584594726562,18.3589839935303,18.3595104217529,18.3600330352783,18.3605632781982,18.3610897064209,18.3616123199463,18.3621368408203,18.3626613616943,18.3631839752197,18.363712310791,18.364236831665,18.3647556304932,18.3652858734131,18.3658084869385,18.3663349151611,18.3668613433838,18.3673782348633,18.3679103851318,18.3684368133545,18.3689613342285,18.3694820404053,18.3700122833252,18.3705348968506,18.3710651397705,18.3715915679932,18.372106552124,18.3726387023926,18.3731670379639,18.3736877441406,18.3742160797119,18.3747386932373,18.3752689361572,18.3757953643799,18.3763179779053,18.376838684082,18.3773670196533,18.3778953552246,18.3784236907959,18.3789443969727,18.3794727325439,18.3799991607666,18.3805255889893,18.3810558319092,18.3815746307373,18.3821048736572,18.3826236724854,18.3831520080566,18.3836803436279,18.384204864502,18.3847332000732,18.3852596282959,18.3857898712158,18.3863124847412,18.3868370056152,18.3873615264893,18.3878879547119,18.3884124755859,18.3889408111572,18.3894653320312,18.3899993896484,18.3905277252197,18.3910541534424,18.3915729522705,18.3920993804932,18.3926315307617,18.3931560516357,18.3936824798584,18.3942070007324,18.3947315216064,18.395263671875,18.395788192749,18.3963165283203,18.3968410491943,18.3973655700684,18.3978900909424,18.3984222412109,18.3989486694336,18.3994789123535,18.4000034332275,18.4005279541016,18.4010581970215,18.4015865325928,18.4021091461182,18.4026355743408,18.4031677246094,18.4036884307861,18.4042224884033,18.404748916626,18.4052772521973,18.4058055877686,18.4063320159912,18.4068546295166,18.4073867797852,18.4079074859619,18.4084415435791,18.4089698791504,18.4094944000244,18.4100246429443,18.4105529785156,18.4110774993896,18.4116058349609,18.4121284484863,18.4126625061035,18.4131889343262,18.4137172698975,18.414249420166,18.4147720336914,18.4153022766113,18.4158306121826,18.4163513183594,18.4168834686279,18.4174118041992,18.4179382324219,11.8820600509644,11.8206672668457,11.7599048614502,11.6997632980347,11.6672897338867,11.6378355026245,11.6085300445557,11.5793714523315,11.5503597259521,11.5214920043945,11.492769241333,11.4641885757446,11.4357500076294,11.407452583313,11.3792943954468,11.3512744903564,11.323392868042,11.2956476211548,11.2680377960205,11.2405633926392,11.2132225036621,11.1860132217407,11.1589365005493,11.1319904327393,11.1051740646362,11.0784864425659,11.0519275665283,11.0254955291748
0,0,0,0,0,0,0,0,0,0,0,0,0,0,0,0,0,0,0,0,0,0,0,0,0,0,0,0,0,0,17.9218254089355,17.9223308563232,17.9228324890137,17.9233341217041,17.9238262176514,17.924337387085,17.9248332977295,17.9253311157227,17.9258308410645,17.9263362884521,17.9268321990967,17.9273319244385,17.9278316497803,17.928337097168,17.9288311004639,17.9293403625488,17.9298362731934,17.9303436279297,17.9308376312256,17.9313373565674,17.9318332672119,17.9323406219482,17.9328365325928,17.9333419799805,17.9338397979736,17.9343433380127,17.9348449707031,17.9353446960449,17.9358367919922,17.9363422393799,17.9368438720703,17.9373455047607,17.9378452301025,17.9383506774902,17.9388484954834,17.9393501281738,17.9398517608643,17.9403591156006,17.9408512115479,17.9413585662842,17.9418487548828,17.9423561096191,17.9428539276123,17.9433612823486,17.9438629150391,17.9443645477295,17.9448699951172,17.9453639984131,17.9458675384521,17.9463653564453,17.946870803833,17.9473724365234,17.9478759765625,17.9483737945557,17.9488754272461,17.9493789672852,17.9498748779297,17.9503765106201,17.9508781433105,17.951379776001,17.9518795013428,17.9523811340332,17.9528827667236,17.9533939361572,17.953893661499,17.9543895721436,17.9548950195312,17.9553985595703,17.9559001922607,17.9563961029053,17.956901550293,17.9574069976807,17.9579086303711,17.9584064483643,17.9589061737061,17.9594078063965,17.9599170684814,17.9604167938232,17.960916519165,17.96142578125,17.9619235992432,17.962423324585,17.9629287719727,17.9634265899658,17.9639263153076,17.9644336700439,17.9649333953857,17.9654331207275,17.9659385681152,17.9664402008057,17.9669437408447,17.9674491882324,17.9679508209229,17.9684524536133,17.968957901001,17.9694557189941,17.9699592590332,17.9704685211182,17.9709663391113,17.9714698791504,17.9719772338867,17.9724769592285,17.9729747772217,17.9734783172607,17.9739818572998,17.9744873046875,17.9749889373779,17.975492477417,17.9759979248047,17.9765033721924,17.9770050048828,17.9775047302246,17.9780082702637,17.978515625,17.9790115356445,17.9795188903809,17.9800186157227,17.9805278778076,17.9810314178467,17.9815330505371,17.9820404052734,17.982536315918,17.9830360412598,17.9835414886475,17.9840450286865,17.9845561981201,17.9850559234619,17.9855632781982,17.9860687255859,17.9865684509277,17.9870662689209,17.9875774383545,17.9880828857422,17.9885807037354,17.9890842437744,17.9895877838135,17.9900932312012,17.9905967712402,17.9910984039307,17.9916038513184,17.9921054840088,17.9926071166992,17.9931106567383,17.9936218261719,17.9941234588623,17.9946269989014,17.9951343536377,17.9956340789795,17.9961433410645,17.9966411590576,17.9971485137939,17.9976482391357,17.9981575012207,17.9986591339111,17.9991664886475,17.9996681213379,18.0001792907715,18.0006790161133,18.0011806488037,18.0016918182373,18.0021896362305,18.0026988983154,18.0032005310059,18.0037059783936,18.0042133331299,18.0047149658203,18.005220413208,18.0057239532471,18.0062274932861,18.0067291259766,18.0072364807129,18.0077419281006,18.0082530975342,18.0087509155273,18.0092601776123,18.0097637176514,18.0102729797363,18.0107727050781,18.0112800598145,18.0117835998535,18.0122871398926,18.0127944946289,18.0132961273193,18.0138072967529,18.0143127441406,18.0148143768311,18.0153179168701,18.0158214569092,18.0163288116455,18.0168323516846,18.0173416137695,18.0178470611572,18.0183486938477,18.0188598632812,18.0193653106689,18.0198650360107,18.0203685760498,18.0208721160889,18.0213794708252,18.0218868255615,18.0223979949951,18.0229034423828,18.0234050750732,18.0239124298096,18.0244178771973,18.0249195098877,18.025426864624,18.0259380340576,18.0264377593994,18.0269451141357,18.0274486541748,18.0279598236084,18.0284671783447,18.0289688110352,18.0294742584229,18.0299816131592,18.0304870605469,18.0309925079346,18.0315036773682,18.0320053100586,18.0325145721436,18.0330181121826,18.0335254669189,18.0340328216553,18.0345363616943,18.0350437164307,18.035551071167,18.0360622406006,18.0365619659424,18.0370750427246,18.0375843048096,18.0380878448486,18.0385875701904,18.0390968322754,18.0395984649658,18.0401096343994,18.0406169891357,18.0411281585693,18.0416316986084,18.0421390533447,18.0426483154297,18.0431575775146,18.0436592102051,18.0441665649414,18.0446701049805,18.0451793670654,18.0456867218018,18.0461940765381,18.046703338623,18.0472106933594,18.0477199554443,18.0482177734375,18.0487270355225,18.0492324829102,18.0497417449951,18.0502490997314,18.0507564544678,18.0512657165527,18.0517711639404,18.0522804260254,18.0527820587158,18.0532875061035,18.0538024902344,18.0543098449707,18.0548152923584,18.0553226470947,18.0558280944824,18.0563373565674,18.0568447113037,18.05735206604,18.0578594207764,18.0583648681641,18.0588779449463,18.059383392334,18.0598907470703,18.0604019165039,18.0609111785889,18.0614147186279,18.0619220733643,18.0624294281006,18.0629405975342,18.0634460449219,18.0639514923096,18.0644645690918,18.0649700164795,18.0654830932617,18.0659885406494,18.066499710083,18.0669975280762,18.067512512207,18.0680160522461,18.0685291290283,18.069034576416,18.0695457458496,18.0700569152832,18.0705623626709,18.0710735321045,18.0715789794922,18.0720825195312,18.0725936889648,18.0731067657471,18.0736103057861,18.0741214752197,18.074634552002,18.0751438140869,18.075647354126,18.0761585235596,18.0766620635986,18.0771713256836,18.0776805877686,18.0781898498535,18.0786952972412,18.0792045593262,18.0797157287598,18.0802268981934,18.080738067627,18.0812397003174,18.081750869751,18.0822582244873,18.0827693939209,18.0832805633545,18.0837879180908,18.0842990875244,18.084810256958,18.085319519043,18.0858211517334,18.0863304138184,18.086841583252,18.0873565673828,18.0878639221191,18.0883750915527,18.0888824462891,18.089391708374,18.0898990631104,18.0904083251953,18.0909175872803,18.0914268493652,18.0919361114502,18.0924510955811,18.0929565429688,18.093469619751,18.0939769744873,18.0944919586182,18.0949993133545,18.0955066680908,18.0960159301758,18.0965232849121,18.0970363616943,18.0975475311279,18.0980606079102,18.0985679626465,18.0990753173828,18.0995903015137,18.1000957489014,18.1006031036377,18.1011180877686,18.1016235351562,18.1021385192871,18.1026458740234,18.1031589508057,18.103666305542,18.1041793823242,18.1046886444092,18.1051940917969,18.1057071685791,18.1062164306641,18.106725692749,18.1072387695312,18.1077518463135,18.1082572937012,18.1087684631348,18.109281539917,18.1097888946533,18.1103038787842,18.1108074188232,18.1113185882568,18.1118316650391,18.1123428344727,18.1128578186035,18.1133689880371,18.1138744354248,18.1143856048584,18.1148986816406,18.1154041290283,18.1159152984619,18.1164302825928,18.1169395446777,18.1174507141113,18.1179637908936,18.1184749603271,18.1189861297607,18.1194972991943,18.1200084686279,18.1205196380615,18.1210308074951,18.1215419769287,18.1220531463623,18.1225643157959,18.1230754852295,18.1235866546631,18.1240978240967,18.1246089935303,18.1251201629639,18.1256332397461,18.1261444091797,18.1266555786133,18.1271667480469,18.1276817321777,18.12819480896,18.128698348999,18.1292133331299,18.1297245025635,18.1302337646484,18.1307487487793,18.1312599182129,18.1317768096924,18.1322860717773,18.1327953338623,18.1333045959473,18.1338195800781,18.1343307495117,18.1348457336426,18.1353511810303,18.1358680725098,18.1363773345947,18.1368923187256,18.1374015808105,18.1379089355469,18.1384258270264,18.1389350891113,18.1394481658936,18.1399631500244,18.140474319458,18.1409854888916,18.1415023803711,18.1420116424561,18.1425189971924,18.1430320739746,18.1435489654541,18.144063949585,18.1445713043213,18.1450862884521,18.1455993652344,18.1461143493652,18.1466312408447,18.1471424102783,18.1476516723633,18.1481647491455,18.1486721038818,18.1491851806641,18.1497001647949,18.1502132415771,18.1507263183594,18.1512393951416,18.1517543792725,18.1522674560547,18.1527805328369,18.1532936096191,18.1538066864014,18.1543197631836,18.1548309326172,18.155345916748,18.1558609008789,18.1563720703125,18.1568851470947,18.1573963165283,18.1579113006592,18.1584224700928,18.158935546875,18.1594562530518,18.1599655151367,18.1604804992676,18.1609897613525,18.1615104675293,18.162015914917,18.1625270843506,18.1630477905273,18.1635570526123,18.1640701293945,18.1645851135254,18.1650981903076,18.1656131744385,18.1661262512207,18.1666393280029,18.1671485900879,18.167667388916,18.168176651001,18.1686954498291,18.1692066192627,18.1697254180908,18.170238494873,18.1707534790039,18.1712665557861,18.1717739105225,18.1722927093506,18.1728096008301,18.1733207702637,18.1738357543945,18.1743488311768,18.174861907959,18.1753807067871,18.1758918762207,18.1764068603516,18.1769180297852,18.177433013916,18.1779499053955,18.1784648895264,18.1789798736572,18.1794929504395,18.1800098419189,18.1805248260498,18.1810359954834,18.1815490722656,18.1820659637451,18.182580947876,18.1830978393555,18.1836166381836,18.1841297149658,18.1846408843994,18.1851539611816,18.1856708526611,18.186185836792,18.1866989135742,18.1872138977051,18.1877288818359,18.1882438659668,18.1887607574463,18.1892738342285,18.1897888183594,18.1903057098389,18.1908187866211,18.1913356781006,18.1918506622314,18.1923637390137,18.1928844451904,18.1933994293213,18.1939105987549,18.1944236755371,18.1949443817139,18.1954498291016,18.195972442627,18.1964855194092,18.1969985961914,18.1975212097168,18.1980323791504,18.1985473632812,18.1990699768066,18.1995830535889,18.2000942230225,18.2006072998047,18.2011280059814,18.201639175415,18.2021598815918,18.2026748657227,18.2031917572021,18.2037086486816,18.2042274475098,18.2047367095947,18.2052516937256,18.2057685852051,18.2062816619873,18.2068023681641,18.2073192596436,18.2078323364258,18.2083511352539,18.208869934082,18.2093811035156,18.2098960876465,18.210412979126,18.2109336853027,18.2114505767822,18.2119598388672,18.2124786376953,18.2129993438721,18.2135162353516,18.2140350341797,18.2145462036133,18.2150630950928,18.2155818939209,18.2160987854004,18.216609954834,18.2171287536621,18.2176456451416,18.2181606292725,18.2186794281006,18.2191982269287,18.2197151184082,18.2202301025391,18.2207469940186,18.2212657928467,18.2217826843262,18.222297668457,18.2228126525879,18.223331451416,18.2238483428955,18.2243633270264,18.2248802185059,18.225399017334,18.2259140014648,18.2264308929443,18.2269535064697,18.2274684906006,18.2279834747314,18.2285022735596,18.2290153503418,18.2295303344727,18.2300548553467,18.2305698394775,18.231086730957,18.2316093444824,18.2321243286133,18.23264503479,18.2331600189209,18.2336769104004,11.882755279541,11.8213548660278,11.7605848312378,11.7004365921021,11.6669130325317,11.6374607086182,11.6081571578979,11.5790004730225,11.5499906539917,11.5211248397827,11.4924039840698,11.4638252258301,11.4353885650635,11.4070920944214,11.3789358139038,11.3509187698364,11.3230381011963,11.2952947616577,11.2676868438721,11.240213394165,11.2128744125366,11.1856670379639,11.1585922241211,11.1316480636597,11.104832649231,11.0781478881836,11.0515899658203,11.0251598358154
17.7326107025146,17.7331085205078,17.7335968017578,17.7340908050537,17.7345752716064,17.7350673675537,17.7355499267578,17.7360439300537,17.7365303039551,17.7370281219482,17.737512588501,17.7380084991455,17.738489151001,17.7389869689941,17.7394714355469,17.7399673461914,17.7404479980469,17.7409420013428,17.7414283752441,17.7419242858887,17.7424125671387,17.7429008483887,17.7433929443359,17.7438850402832,17.7443733215332,17.7448635101318,17.7453498840332,17.7458438873291,17.7463321685791,17.7468280792236,17.747314453125,17.7478103637695,17.7482986450195,17.7487907409668,17.7492733001709,17.7497730255127,17.7502574920654,17.7507495880127,17.7512378692627,17.7517337799072,17.7522201538086,17.7527122497559,17.7532005310059,17.7536907196045,17.7541847229004,17.7546768188477,17.7551612854004,17.7556591033936,17.7561454772949,17.7566299438477,17.7571315765381,17.7576179504395,17.7581043243408,17.7586002349854,17.7590923309326,17.7595729827881,17.7600727081299,17.7605648040771,17.7610549926758,17.7615489959717,17.7620391845703,17.762523651123,17.7630214691162,17.7635059356689,17.7640018463135,17.7644939422607,17.764986038208,17.7654762268066,17.7659740447998,17.7664546966553,17.7669544219971,17.7674388885498,17.7679347991943,17.7684192657471,17.768913269043,17.7694053649902,17.7699031829834,17.7703914642334,17.7708797454834,17.7713718414307,17.7718601226807,17.7723541259766,17.7728462219238,17.7733383178711,17.773832321167,17.7743244171143,17.7748203277588,17.7753086090088,17.7758026123047,17.7762889862061,17.7767791748047,17.7772731781006,17.7777652740479,17.7782554626465,17.7787494659424,17.7792434692383,17.7797355651855,17.7802276611328,17.7807197570801,17.7812099456787,17.781702041626,17.7821941375732,17.7826843261719,17.783182144165,17.7836742401123,17.7841663360596,17.7846565246582,17.7851486206055,17.7856407165527,17.7861289978027,17.7866268157959,17.7871208190918,17.7876129150391,17.7881031036377,17.7885990142822,17.7890930175781,17.7895889282227,17.7900714874268,17.7905712127686,17.7910594940186,17.7915534973145,17.7920455932617,17.7925395965576,17.7930335998535,17.7935237884521,17.7940216064453,17.7945098876953,17.7950038909912,17.7954978942871,17.7959899902344,17.7964839935303,17.7969741821289,17.7974720001221,17.797966003418,17.7984561920166,17.7989482879639,17.7994403839111,17.7999286651611,17.8004264831543,17.8009185791016,17.8014125823975,17.8019065856934,17.8024005889893,17.8028984069824,17.8033847808838,17.803882598877,17.8043689727783,17.8048667907715,17.8053569793701,17.8058547973633,17.8063488006592,17.8068370819092,17.8073329925537,17.8078308105469,17.8083248138428,17.8088188171387,17.8093109130859,17.8098049163818,17.8102989196777,17.8107967376709,17.8112945556641,17.8117866516113,17.81227684021,17.8127670288086,17.8132610321045,17.8137550354004,17.8142509460449,17.8147430419922,17.8152370452881,17.8157405853271,17.8162307739258,17.816722869873,17.8172187805176,17.8177127838135,17.8182067871094,17.8186988830566,17.8191947937012,17.8196849822998,17.8201866149902,17.8206806182861,17.8211708068848,17.821662902832,17.8221569061279,17.8226509094238,17.823148727417,17.8236408233643,17.8241424560547,17.8246326446533,17.8251247406006,17.8256244659424,17.8261203765869,17.8266048431396,17.8270988464355,17.8275985717773,17.8280906677246,17.8285884857178,17.8290824890137,17.8295783996582,17.8300743103027,17.8305683135986,17.8310623168945,17.8315525054932,17.8320503234863,17.8325519561768,17.8330402374268,17.8335380554199,17.8340377807617,17.8345260620117,17.8350276947021,17.835521697998,17.8360137939453,17.8365039825439,17.8370018005371,17.8374996185303,17.8379955291748,17.8384895324707,17.8389835357666,17.8394832611084,17.8399791717529,17.8404693603516,17.8409690856934,17.8414649963379,17.8419609069824,17.8424606323242,17.8429470062256,17.8434429168701,17.8439407348633,17.8444404602051,17.844934463501,17.8454303741455,17.8459243774414,17.8464241027832,17.8469200134277,17.8474159240723,17.8479099273682,17.8484058380127,17.8489017486572,17.8493995666504,17.8498954772949,17.8503913879395,17.850887298584,17.8513813018799,17.8518772125244,17.8523731231689,17.8528652191162,17.8533725738525,17.8538627624512,17.8543586730957,17.8548526763916,17.8553485870361,17.8558444976807,17.8563442230225,17.8568382263184,17.8573341369629,17.8578319549561,17.8583316802979,17.8588218688965,17.859317779541,17.8598175048828,17.8603096008301,17.8608055114746,17.8613090515137,17.8618030548096,17.8623008728027,17.8627967834473,17.8632965087891,17.8637886047363,17.8642845153809,17.8647842407227,17.8652763366699,17.865779876709,17.8662757873535,17.866771697998,17.8672714233398,17.8677654266357,17.8682594299316,17.8687572479248,17.8692588806152,17.8697490692139,17.8702507019043,17.8707504272461,17.8712501525879,17.8717403411865,17.872241973877,17.8727340698242,17.873233795166,17.8737335205078,17.874231338501,17.8747310638428,17.87522315979,17.8757190704346,17.8762187957764,17.8767185211182,17.8772106170654,17.8777103424072,17.8782062530518,17.8787059783936,17.8792057037354,17.8797016143799,17.8802032470703,17.8806991577148,17.881196975708,17.8816928863525,17.8821926116943,17.8826904296875,17.883186340332,17.8836841583252,17.8841800689697,17.8846778869629,17.8851757049561,17.8856735229492,17.8861770629883,17.8866672515869,17.887170791626,17.8876686096191,17.8881664276123,17.8886623382568,17.88916015625,17.8896636962891,17.8901596069336,17.8906574249268,17.8911533355713,17.8916492462158,17.8921527862549,17.8926486968994,17.8931465148926,17.8936500549316,17.8941440582275,17.8946495056152,17.8951435089111,17.8956413269043,17.8961372375488,17.8966407775879,17.8971366882324,17.8976383209229,17.8981323242188,17.8986339569092,17.8991317749023,17.8996315002441,17.9001369476318,17.9006290435791,17.9011268615723,17.9016284942627,17.9021244049072,17.902624130249,17.9031257629395,17.9036235809326,17.9041233062744,17.9046268463135,17.9051208496094,17.9056224822998,17.9061164855957,17.9066162109375,17.9071178436279,17.9076194763184,17.9081211090088,17.9086151123047,17.9091148376465,17.9096164703369,17.9101123809814,17.9106101989746,17.911111831665,17.9116096496582,17.912109375,17.9126091003418,17.9131107330322,17.913610458374,17.9141101837158,17.9146022796631,17.9151058197021,17.9156036376953,17.9161033630371,17.9166049957275,17.9171104431152,17.9176082611084,17.9181098937988,17.9186096191406,17.9191036224365,17.9196071624756,17.9201068878174,17.9206066131592,17.921106338501,17.9216060638428,17.9221096038818,17.9226093292236,17.9231090545654,17.9236068725586,17.9241065979004,17.9246044158936,17.9251079559326,17.9256076812744,17.9261054992676,17.9266109466553,17.9271106719971,17.9276065826416,17.9281063079834,17.9286117553711,17.9291076660156,17.9296073913574,17.9301109313965,17.9306106567383,17.9311141967773,17.9316120147705,17.9321174621582,17.9326133728027,17.9331111907959,17.933614730835,17.9341125488281,17.9346160888672,17.9351196289062,17.9356174468994,17.9361228942871,17.9366245269775,17.9371223449707,17.9376182556152,17.9381237030029,17.938627243042,17.9391231536865,17.9396266937256,17.9401245117188,17.9406299591064,17.941125869751,17.9416275024414,17.9421253204346,17.942626953125,17.9431324005127,17.9436321258545,17.9441356658936,17.944637298584,17.945140838623,17.9456367492676,17.9461402893066,17.9466419219971,17.9471416473389,17.9476451873779,17.9481468200684,17.9486503601074,17.9491519927979,17.9496517181396,17.9501533508301,17.9506568908691,17.9511585235596,17.9516525268555,17.9521541595459,17.9526615142822,17.9531650543213,17.9536666870117,17.9541664123535,17.9546661376953,17.955171585083,17.9556770324707,17.9561710357666,17.956672668457,17.9571781158447,17.9576797485352,17.9581813812256,17.9586791992188,17.9591884613037,17.9596900939941,17.9601898193359,17.9606895446777,17.9611892700195,17.9616966247559,17.9621982574463,17.962703704834,17.9632053375244,17.9637107849121,17.9642105102539,17.9647102355957,17.9652156829834,17.9657173156738,17.9662170410156,17.9667205810547,17.9672203063965,17.9677276611328,17.9682350158691,17.9687271118164,17.9692344665527,17.9697341918945,17.9702339172363,17.970739364624,17.9712448120117,17.9717407226562,17.9722480773926,17.9727535247803,17.9732532501221,17.9737567901611,17.9742641448975,17.974760055542,17.9752655029297,17.9757690429688,17.9762687683105,17.9767742156982,17.9772777557373,17.9777812957764,17.9782867431641,17.9787921905518,17.9792881011963,17.979793548584,17.9802989959717,17.9808025360107,17.9813060760498,17.9818096160889,17.9823131561279,17.9828186035156,17.9833221435547,17.9838256835938,17.9843235015869,17.9848251342773,17.985330581665,17.9858341217041,17.9863357543945,17.9868469238281,17.9873504638672,17.9878520965576,17.9883556365967,17.9888610839844,17.9893608093262,17.9898643493652,17.9903697967529,17.9908714294434,17.9913806915283,17.9918842315674,17.9923858642578,17.9928951263428,17.9933910369873,17.9938983917236,17.9944038391113,17.9949035644531,17.9954128265381,17.9959144592285,17.9964160919189,17.9969253540039,17.9974231719971,17.9979305267334,17.9984340667725,17.9989376068115,17.9994449615479,17.9999446868896,18.0004539489746,18.000955581665,18.00146484375,18.0019626617432,18.0024719238281,18.0029754638672,18.0034732818604,18.0039806365967,18.004487991333,18.0049915313721,18.0054969787598,18.0060043334961,18.0065059661865,18.0070114135742,18.007511138916,18.008020401001,18.0085258483887,18.0090274810791,18.0095348358154,18.0100402832031,18.0105476379395,18.0110549926758,18.0115547180176,18.0120582580566,18.0125675201416,18.0130672454834,18.0135726928711,18.0140781402588,18.0145874023438,18.0150909423828,18.0155982971191,18.0161018371582,18.0166091918945,18.0171070098877,18.0176200866699,18.0181293487549,18.0186309814453,18.0191383361816,18.019645690918,18.0201473236084,18.0206546783447,18.0211582183838,18.0216636657715,18.0221691131592,18.0226726531982,18.0231781005859,18.0236854553223,18.0241947174072,18.0247001647949,18.025203704834,18.0257091522217,18.0262107849121,18.0267162322998,18.0272254943848,18.0277290344238,18.0282344818115,18.0287437438965,18.0292491912842,18.0297527313232,18.0302639007568,18.0307674407959,18.0312728881836,18.031774520874,18.0322856903076,18.0327911376953,18.0333003997803,18.0338001251221,18.0343112945557,18.0348148345947,18.0353260040283,18.0358295440674,18.0363330841064,18.0368404388428,18.0373439788818,18.0378551483154,18.0383644104004,18.0388679504395,18.0393772125244,18.0398826599121,18.0403881072998,18.0408897399902,18.0413990020752,18.0419082641602,18.0424156188965,18.0429191589355,18.0434265136719,18.0439357757568,18.0444450378418,18.0449485778809,18.0454540252686,18.0459632873535,18.0464706420898,18.0469741821289,18.0474834442139,18.0479888916016,18.0484962463379,18.0490055084229,18.0495128631592,18.0500221252441,18.0505275726318,18.0510349273682,18.0515441894531,18.0520534515381,18.0525588989258,18.0530662536621,11.8834495544434,11.8220415115356,11.7612648010254,11.7011098861694,11.6665363311768,11.6370859146118,11.6077842712402,11.5786294937134,11.5496215820312,11.5207576751709,11.4920387268066,11.4634618759155,11.4350271224976,11.4067325592041,11.3785781860352,11.3505620956421,11.3226833343506,11.2949419021606,11.2673358917236,11.2398643493652,11.2125263214111,11.185320854187,11.1582479476929,11.1313056945801,11.1044931411743,11.0778093338013,11.0512533187866,11.0248241424561
