0,0,0,0,0,0,0,0,0,0,0,0,0,0,0,0,0,0,0,0,0,0,0,0,0,0,0,0,0,0,0,0,0,0,0,0,0,0,0,0,0,0,0,0,0,0,0,0,0,0,0,0,0,0,0,0,0,0,0,0,0,0,0,0,0,0,0,0,0,0,0,0,0,0,0,0,0,0,0,0,0,0,0,0,0,0,0,0,0,0,0,0,0,0,0,0,0,0,0,0,0,0,0,0,0,0,0,0,0,0,0,0,0,0,0,0,0,0,0,0,0,0,0,0,0,0,0,0,0,0,0,0,0,0,0,0,0,0,0,0,0,0,0,0,0,0,0,0,0,0,0,0,0,0,0,0,0,0,0,0,0,0,0,0,0,0,0,0,0,0,0,0,0,0,0,0,0,0,0,0,0,0,0,0,0,0,0,0,0,0,0,0,0,0,0,0,0,0,0,0,0,0,0,0,0,0,0,0,0,0,0,0,0,0,0,0,0,0,0,0,0,0,0,0,0,0,0,0,0,0,0,0,0,0,0,0,0,0,0,0,0,0,0,0,0,0,0,0,0,0,0,0,0,0,0,0,0,0,0,0,0,0,0,0,0,0,0,0,0,0,0,0,0,0,0,0,0,0,0,0,0,0,0,0,0,0,0,0,0,0,0,0,0,0,0,0,0,0,0,0,0,0,0,0,0,0,0,0,0,0,0,0,0,0,0,0,0,0,0,0,0,0,0,0,0,0,0,0,0,0,0,0,0,0,0,0,0,0,0,0,0,0,0,0,0,0,0,0,0,0,0,0,0,0,0,0,0,0,0,0,0,0,0,0,0,0,0,0,0,0,0,0,0,0,0,0,0,0,0,0,0,0,0,0,0,0,0,0,0,0,0,0,0,0,0,0,0,0,0,0,0,0,0,0,0,0,0,0,0,0,0,0,0,0,0,0,0,0,0,0,0,0,0,0,0,0,0,0,0,0,0,0,0,0,0,0,0,0,0,0,0,0,0,0,0,0,0,0,0,0,0,0,0,0,0,0,0,0,0,0,0,0,0,0,0,0,0,0,0,0,0,0,0,0,0,0,0,0,0,0,0,0,0,0,0,0,0,0,0,0,0,0,0
0,0,0,0,0,0,0,0,0,0,0,0,0,0,0,0,0,0,0,0,0,0,0,0,0,0,0,0,0,0,0,0,0,0,0,0,0,0,0,0,0,0,0,0,0,0,0,0,0,0,0,0,0,0,0,0,0,0,0,0,0,0,0,0,0,0,0,0,0,0,0,0,0,0,0,0,0,0,0,0,0,0,0,0,0,0,0,0,0,0,0,0,0,0,0,0,0,0,0,0,0,0,0,0,0,0,0,0,0,0,0,0,0,0,0,0,0,0,0,0,0,0,0,0,0,0,0,0,0,0,0,0,0,0,0,0,0,0,0,0,0,0,0,0,0,0,0,0,0,0,0,0,0,0,0,0,0,0,0,0,0,0,0,0,0,0,0,0,0,0,0,0,0,0,0,0,0,0,0,0,0,0,0,0,0,0,0,0,0,0,0,0,0,0,0,0,0,0,0,0,0,0,0,0,0,0,0,0,0,0,0,0,0,0,0,0,0,0,0,0,0,0,0,0,0,0,0,0,0,0,0,0,0,0,0,0,0,0,0,0,0,0,0,0,0,0,0,0,0,0,0,0,0,0,0,0,0,0,0,0,0,0,0,0,0,0,0,0,0,0,0,0,0,0,0,0,0,0,0,0,0,0,0,0,0,0,0,0,0,0,0,0,0,0,0,0,0,0,0,0,0,0,0,0,0,0,0,0,0,0,0,0,0,0,0,0,0,0,0,0,0,0,0,0,0,0,0,0,0,0,0,0,0,0,0,0,0,0,0,0,0,0,0,0,0,0,0,0,0,0,0,0,0,0,0,0,0,0,0,0,0,0,0,0,0,0,0,0,0,0,0,0,0,0,0,0,0,0,0,0,0,0,0,0,0,0,0,0,0,0,0,0,0,0,0,0,0,0,0,0,0,0,0,0,0,0,0,0,0,0,0,0,0,0,0,0,0,0,0,0,0,0,0,0,0,0,0,0,0,0,0,0,0,0,0,0,0,0,0,0,0,0,0,0,0,0,0,0,0,0,0,0,0,0,0,0,0,0,0,0,0,0,0,0,0,0,0,0,0,0,0,0,0,0,0,0,0,0,0,0,0,0,0,0,0,0,0,0,0,0,0,0,0
0,0,0,0,0,0,0,0,0,0,0,0,0,0,0,0,0,0,0,0,0,0,0,0,0,0,0,0,0,0,0,0,0,0,0,0,0,0,0,0,0,0,0,0,0,0,0,0,0,0,0,0,0,0,0,0,0,0,0,0,0,0,0,0,0,0,0,0,0,0,0,0,0,0,0,0,0,0,0,0,0,0,0,0,0,0,0,0,0,0,0,0,0,0,0,0,0,0,0,0,0,0,0,0,0,0,0,0,0,0,0,0,0,0,0,0,0,0,0,0,0,0,0,0,0,0,0,0,0,0,0,0,0,0,0,0,0,0,0,0,0,0,0,0,0,0,0,0,0,0,0,0,0,0,0,0,0,0,0,0,0,0,0,0,0,0,0,0,0,0,0,0,0,0,0,0,0,0,0,0,0,0,0,0,0,0,0,0,0,0,0,0,0,0,0,0,0,0,0,0,0,0,0,0,0,0,0,0,0,0,0,0,0,0,0,0,0,0,0,0,0,0,0,0,0,0,0,0,0,0,0,0,0,0,0,0,0,0,0,0,0,0,0,0,0,0,0,0,0,0,0,0,0,0,0,0,0,0,0,0,0,0,0,0,0,0,0,0,0,0,0,0,0,0,0,0,0,0,0,0,0,0,0,0,0,0,0,0,0,0,0,0,0,0,0,0,0,0,0,0,0,0,0,0,0,0,0,0,0,0,0,0,0,0,0,0,0,0,0,0,0,0,0,0,0,0,0,0,0,0,0,0,0,0,0,0,0,0,0,0,0,0,0,0,0,0,0,0,0,0,0,0,0,0,0,0,0,0,0,0,0,0,0,0,0,0,0,0,0,0,0,0,0,0,0,0,0,0,0,0,0,0,0,0,0,0,0,0,0,0,0,0,0,0,0,0,0,0,0,0,0,0,0,0,0,0,0,0,0,0,0,0,0,0,0,0,0,0,0,0,0,0,0,0,0,0,0,0,0,0,0,0,0,0,0,0,0,0,0,0,0,0,0,0,0,0,0,0,0,0,0,0,0,0,0,0,0,0,0,0,0,0,0,0,0,0,0,0,0,0,0,0,0,0,0,0,0,0,0,0,0,0,0,0,0,0,0,0,0,0,0,0,0
0,0,0,0,0,0,0,0,0,0,0,0,0,0,0,0,0,0,0,0,0,0,0,0,0,0,0,0,0,0,0,0,0,0,0,0,0,0,0,0,0,0,0,0,0,0,0,0,0,0,0,0,0,0,0,0,0,0,0,0,0,0,0,0,0,0,0,0,0,0,0,0,0,0,0,0,0,0,0,0,0,0,0,0,0,0,0,0,0,0,0,0,0,0,0,0,0,0,0,0,0,0,0,0,0,0,0,0,0,0,0,0,0,0,0,0,0,0,0,0,0,0,0,0,0,0,0,0,0,0,0,0,0,0,0,0,0,0,0,0,0,0,0,0,0,0,0,0,0,0,0,0,0,0,0,0,0,0,0,0,0,0,0,0,0,0,0,0,0,0,0,0,0,0,0,0,0,0,0,0,0,0,0,0,0,0,0,0,0,0,0,0,0,0,0,0,0,0,0,0,0,0,0,0,0,0,0,0,0,0,0,0,0,0,0,0,0,0,0,0,0,0,0,0,0,0,0,0,0,0,0,0,0,0,0,0,0,0,0,0,0,0,0,0,0,0,0,0,0,0,0,0,0,0,0,0,0,0,0,0,0,0,0,0,0,0,0,0,0,0,0,0,0,0,0,0,0,0,0,0,0,0,0,0,0,0,0,0,0,0,0,0,0,0,0,0,0,0,0,0,0,0,0,0,0,0,0,0,0,0,0,0,0,0,0,0,0,0,0,0,0,0,0,0,0,0,0,0,0,0,0,0,0,0,0,0,0,0,0,0,0,0,0,0,0,0,0,0,0,0,0,0,0,0,0,0,0,0,0,0,0,0,0,0,0,0,0,0,0,0,0,0,0,0,0,0,0,0,0,0,0,0,0,0,0,0,0,0,0,0,0,0,0,0,0,0,0,0,0,0,0,0,0,0,0,0,0,0,0,0,0,0,0,0,0,0,0,0,0,0,0,0,0,0,0,0,0,0,0,0,0,0,0,0,0,0,0,0,0,0,0,0,0,0,0,0,0,0,0,0,0,0,0,0,0,0,0,0,0,0,0,0,0,0,0,0,0,0,0,0,0,0,0,0,0,0,0,0,0,0,0,0,0,0,0,0,0,0,0,0,0,0,0
0,0,0,0,0,0,0,0,0,0,0,0,0,0,0,0,0,0,0,0,0,0,0,0,0,0,0,0,0,0,0,0,0,0,0,0,0,0,0,0,0,0,0,0,0,0,0,0,0,0,0,0,0,0,0,0,0,0,0,0,0,0,0,0,0,0,0,0,0,0,0,0,0,0,0,0,0,0,0,0,0,0,0,0,0,0,0,0,0,0,0,0,0,0,0,0,0,0,0,0,0,0,0,0,0,0,0,0,0,0,0,0,0,0,0,0,0,0,0,0,0,0,0,0,0,0,0,0,0,0,0,0,0,0,0,0,0,0,0,0,0,0,0,0,0,0,0,0,0,0,0,0,0,0,0,0,0,0,0,0,0,0,0,0,0,0,0,0,0,0,0,0,0,0,0,0,0,0,0,0,0,0,0,0,0,0,0,0,0,0,0,0,0,0,0,0,0,0,0,0,0,0,0,0,0,0,0,0,0,0,0,0,0,0,0,0,0,0,0,0,0,0,0,0,0,0,0,0,0,0,0,0,0,0,0,0,0,0,0,0,0,0,0,0,0,0,0,0,0,0,0,0,0,0,0,0,0,0,0,0,0,0,0,0,0,0,0,0,0,0,0,0,0,0,0,0,0,0,0,0,0,0,0,0,0,0,0,0,0,0,0,0,0,0,0,0,0,0,0,0,0,0,0,0,0,0,0,0,0,0,0,0,0,0,0,0,0,0,0,0,0,0,0,0,0,0,0,0,0,0,0,0,0,0,0,0,0,0,0,0,0,0,0,0,0,0,0,0,0,0,0,0,0,0,0,0,0,0,0,0,0,0,0,0,0,0,0,0,0,0,0,0,0,0,0,0,0,0,0,0,0,0,0,0,0,0,0,0,0,0,0,0,0,0,0,0,0,0,0,0,0,0,0,0,0,0,0,0,0,0,0,0,0,0,0,0,0,0,0,0,0,0,0,0,0,0,0,0,0,0,0,0,0,0,0,0,0,0,0,0,0,0,0,0,0,0,0,0,0,0,0,0,0,0,0,0,0,0,0,0,0,0,0,0,0,0,0,0,0,0,0,0,0,0,0,0,0,0,0,0,0,0,0,0,0,0,0,0,0,0,0,0,0
0,0,0,0,0,0,0,0,0,0,0,0,0,0,0,0,0,0,0,0,0,0,0,0,0,0,0,0,0,0,0,0,0,0,0,0,0,0,0,0,0,0,0,0,0,0,0,0,0,0,0,0,0,0,0,0,0,0,0,0,0,0,0,0,0,0,0,0,0,0,0,0,0,0,0,0,0,0,0,0,0,0,0,0,0,0,0,0,0,0,0,0,0,0,0,0,0,0,0,0,0,0,0,0,0,0,0,0,0,0,0,0,0,0,0,0,0,0,0,0,0,0,0,0,0,0,0,0,0,0,0,0,0,0,0,0,0,0,0,0,0,0,0,0,0,0,0,0,0,0,0,0,0,0,0,0,0,0,0,0,0,0,0,0,0,0,0,0,0,0,0,0,0,0,0,0,0,0,0,0,0,0,0,0,0,0,0,0,0,0,0,0,0,0,0,0,0,0,0,0,0,0,0,0,0,0,0,0,0,0,0,0,0,0,0,0,0,0,0,0,0,0,0,0,0,0,0,0,0,0,0,0,0,0,0,0,0,0,0,0,0,0,0,0,0,0,0,0,0,0,0,0,0,0,0,0,0,0,0,0,0,0,0,0,0,0,0,0,0,0,0,0,0,0,0,0,0,0,0,0,0,0,0,0,0,0,0,0,0,0,0,0,0,0,0,0,0,0,0,0,0,0,0,0,0,0,0,0,0,0,0,0,0,0,0,0,0,0,0,0,0,0,0,0,0,0,0,0,0,0,0,0,0,0,0,0,0,0,0,0,0,0,0,0,0,0,0,0,0,0,0,0,0,0,0,0,0,0,0,0,0,0,0,0,0,0,0,0,0,0,0,0,0,0,0,0,0,0,0,0,0,0,0,0,0,0,0,0,0,0,0,0,0,0,0,0,0,0,0,0,0,0,0,0,0,0,0,0,0,0,0,0,0,0,0,0,0,0,0,0,0,0,0,0,0,0,0,0,0,0,0,0,0,0,0,0,0,0,0,0,0,0,0,0,0,0,0,0,0,0,0,0,0,0,0,0,0,0,0,0,0,0,0,0,0,0,0,0,0,0,0,0,0,0,0,0,0,0,0,0,0,0,0,0,0,0,0,0,0,0,0,0,0
19.8471298217773,19.8482074737549,19.8492870330811,19.8503608703613,19.8514499664307,19.8525238037109,19.853609085083,19.854679107666,19.8557643890381,19.8568420410156,19.8579235076904,19.8590030670166,19.8600845336914,19.8611602783203,19.8622455596924,19.8633213043213,19.864408493042,19.8654823303223,19.8665676116943,19.8676414489746,19.868724822998,19.8698062896729,19.8708915710449,19.8719615936279,19.8730564117432,19.8741340637207,19.8752155303955,19.8762950897217,19.8773784637451,19.8784618377686,19.8795433044434,19.8806190490723,19.8817081451416,19.8827838897705,19.8838806152344,19.8849544525146,19.8860397338867,19.8871231079102,19.8882026672363,19.8892860412598,19.8903732299805,19.8914527893066,19.8925361633301,19.8936176300049,19.8947086334229,19.8957901000977,19.896879196167,19.8979568481445,19.8990383148193,19.90012550354,19.9012088775635,19.9022960662842,19.9033832550049,19.9044589996338,19.9055519104004,19.9066390991211,19.9077262878418,19.9088096618652,19.9098930358887,19.9109802246094,19.9120674133301,19.913143157959,19.9142322540283,19.9153175354004,19.9164085388184,19.9174900054932,19.9185810089111,19.9196643829346,19.9207553863525,19.9218406677246,19.922924041748,19.9240112304688,19.9251003265381,19.9261837005615,19.9272804260254,19.9283638000488,19.9294509887695,19.9305362701416,19.9316272735596,19.9327144622803,19.9337997436523,19.9348888397217,19.9359741210938,19.9370651245117,19.9381542205811,19.939245223999,19.940336227417,19.9414253234863,19.9425163269043,19.9435997009277,19.9446926116943,19.9457778930664,19.9468669891357,19.9479541778564,19.9490432739258,19.9501361846924,19.9512329101562,19.9523162841797,19.9534111022949,19.954496383667,19.955587387085,19.9566822052002,19.9577674865723,19.958854675293,19.9599475860596,19.9610462188721,19.9621353149414,19.9632244110107,19.964319229126,19.9654083251953,19.9665012359619,19.9675903320312,19.9686794281006,19.9697723388672,19.9708671569824,19.9719638824463,19.9730548858643,19.974142074585,19.9752426147461,19.9763355255127,19.9774227142334,19.9785099029541,19.979606628418,19.9806976318359,19.9817905426025,19.9828853607178,19.9839859008789,19.9850769042969,19.9861679077148,19.9872646331787,19.9883556365967,19.9894504547119,19.9905471801758,19.9916343688965,19.992733001709,19.9938316345215,19.9949283599854,19.996021270752,19.9971160888672,19.9982089996338,19.999303817749,0,0,0,0,0,0,0,0,0,0,0,0,0,0,0,0,0,0,0,0,0,0,0,0,0,0,0,0,0,0,0,0,0,0,0,0,0,0,0,0,0,0,0,0,0,0,0,0,0,0,0,0,0,0,0,0,0,0,0,0,0,0,0,0,0,0,0,0,0,0,0,0,0,0,0,0,0,0,0,0,0,0,0,0,0,0,0,0,0,0,0,0,0,0,0,0,0,0,0,0,0,0,0,0,0,0,0,0,0,0,0,0,0,0,0,0,0,0,0,0,0,0,0,0,0,0,0,0,0,0,0,0,0,0,0,0,0,0,0,0,0,0,0,0,0,0,0,0,0,0,0,0,0,0,0,0,0,0,0,0,0,0,0,0,0,0,0,0,0,0,0,0,0,0,0,0,0,0,0,0,0,0,0,0,0,0,0,0,0,0,0,0,0,0,0,0,0,0,0,0,0,0,0,0,0,0,0,0,0,0,0,0,0,0,0,0,0,0,0,0,0,0,0,0,0,0,0,0,0,0,0,0,0,0,0,0,0,0,0,0,0,0,0,0,0,0,0,0,0,0,0,0,0,0,0,0,0,0,0,0,0,0,0,0,0,0,0,0,0,0,0,0,0,0,0,0,0,0,0,0,0,0,0,0,0,0,0,0,0,0,0,0,0,0,0,0,0,0,0,0,0,0,0,0,0,0,0,0,0,0,0,0,0,0,0,0,0,0,0,0,0,0,0,0,0,0,0,0,0,0,0,0,0,0,0,0,0,0,0,0,0,0,0,0,0,0,0,0,0,0,0,0
19.630485534668,19.6315383911133,19.6325969696045,19.6336498260498,19.6347007751465,19.6357612609863,19.6368141174316,19.6378726959229,19.6389293670654,19.6399803161621,19.6410446166992,19.6421012878418,19.643159866333,19.6442089080811,19.6452674865723,19.6463260650635,19.6473846435547,19.6484375,19.6494922637939,19.6505470275879,19.6516094207764,19.6526718139648,19.6537246704102,19.6547870635986,19.6558475494385,19.6568984985352,19.657958984375,19.6590194702148,19.6600780487061,19.6611309051514,19.6621952056885,19.6632537841797,19.6643104553223,19.6653633117676,19.666431427002,19.6674842834473,19.6685466766357,19.6696014404297,19.6706676483154,19.6717205047607,19.6727886199951,19.6738452911377,19.6749076843262,19.675968170166,19.67702293396,19.6780853271484,19.679141998291,19.6802024841309,19.6812648773193,19.6823215484619,19.6833896636963,19.6844482421875,19.6855182647705,19.6865711212158,19.6876335144043,19.6886978149414,19.6897563934326,19.6908149719238,19.6918830871582,19.6929397583008,19.6940078735352,19.6950702667236,19.6961345672607,19.6971969604492,19.6982555389404,19.6993198394775,19.700382232666,19.7014389038086,19.7025012969971,19.7035617828369,19.7046394348145,19.705696105957,19.7067604064941,19.7078247070312,19.708890914917,19.7099494934082,19.7110137939453,19.7120780944824,19.7131366729736,19.7141990661621,19.7152709960938,19.7163333892822,19.7174015045166,19.7184600830078,19.7195281982422,19.7205963134766,19.7216606140137,19.7227210998535,19.7237873077393,19.7248497009277,19.7259254455566,19.7269840240479,19.7280540466309,19.7291202545166,19.7301864624023,19.7312450408936,19.7323112487793,19.7333755493164,19.7344436645508,19.7355079650879,19.7365837097168,19.7376518249512,19.7387142181396,19.739782333374,19.7408504486084,19.7419147491455,19.7429866790771,19.744047164917,19.7451210021973,19.7461814880371,19.7472534179688,19.7483234405518,19.7493953704834,19.7504596710205,19.7515277862549,19.7525939941406,19.753662109375,19.7547283172607,19.7557983398438,19.7568702697754,19.7579364776611,19.7590065002441,19.7600803375244,19.7611446380615,19.7622184753418,19.7632827758789,19.7643547058105,19.7654228210449,19.7664947509766,19.7675647735596,19.7686328887939,19.7697067260742,19.7707767486572,19.7718448638916,19.7729167938232,19.773983001709,19.7750606536865,19.7761268615723,19.7771949768066,19.7782688140869,19.7793426513672,19.7804145812988,19.7814884185791,19.7825546264648,19.7836265563965,19.7846946716309,19.7857704162598,19.7868404388428,19.787914276123,19.7889842987061,19.7900562286377,19.7911319732666,19.7922077178955,19.7932777404785,19.7943534851074,19.7954235076904,19.7964992523193,19.7975673675537,19.798641204834,19.7997150421143,19.8007926940918,19.8018646240234,19.8029403686523,19.804012298584,19.8050880432129,19.8061580657959,19.8072299957275,19.8083095550537,19.8093852996826,19.8104553222656,19.8115329742432,19.8126087188721,19.8136863708496,19.8147563934326,19.8158359527588,19.8169116973877,19.8179836273193,19.8190593719482,19.8201370239258,19.8212070465088,19.8222846984863,19.8233642578125,19.8244400024414,19.8255157470703,19.8265953063965,19.8276691436768,19.8287448883057,19.8298206329346,19.8308963775635,19.831974029541,19.8330574035645,19.8341274261475,19.8352127075195,19.8362884521484,19.837366104126,19.8384437561035,19.8395233154297,19.8405990600586,19.8416767120361,19.842752456665,19.8438282012939,19.8449096679688,19.8459930419922,19.8470668792725,19.8481502532959,19.8492240905762,19.850305557251,19.8513851165771,19.8524608612061,19.8535385131836,19.8546199798584,19.8556976318359,19.8567867279053,19.8578605651855,19.8589420318604,19.8600196838379,19.8610992431641,19.8621845245361,19.8632640838623,19.8643379211426,19.865421295166,19.8664970397949,19.8675861358643,19.8686618804932,19.8697471618652,19.87082862854,19.8719120025635,19.872989654541,19.8740730285645,19.8751525878906,19.8762340545654,19.8773136138916,19.8784008026123,19.8794803619385,19.8805656433105,19.8816452026367,19.8827247619629,19.8838081359863,19.8848972320557,19.8859729766846,19.8870582580566,19.8881378173828,19.889232635498,19.890308380127,19.8913917541504,19.8924751281738,19.8935661315918,19.8946475982666,19.8957271575928,19.8968086242676,19.897891998291,19.8989791870117,19.9000663757324,19.9011516571045,19.9022350311279,19.9033184051514,19.9044075012207,19.9054851531982,19.9065723419189,19.9076557159424,19.9087448120117,19.9098243713379,19.9109172821045,19.9120006561279,19.9130859375,19.9141693115234,19.9152603149414,19.9163436889648,19.9174346923828,19.918514251709,19.9196033477783,19.9206829071045,19.9217796325684,19.9228668212891,19.9239521026611,19.9250354766846,19.9261245727539,19.927209854126,19.9282989501953,19.9293880462646,19.9304752349854,19.9315605163574,19.9326477050781,19.9337425231934,19.9348278045654,19.9359188079834,19.9370040893555,19.9380931854248,19.9391784667969,19.9402675628662,19.9413566589355,19.9424457550049,19.9435348510742,19.9446296691895,19.9457206726074,19.9468059539795,19.9478950500488,19.9489822387695,19.9500770568848,19.9511642456055,19.9522552490234,19.9533405303955,19.9544353485107,19.9555282592773,19.9566211700439,19.9577102661133,19.9587955474854,19.959888458252,19.9609794616699,19.9620685577393,19.9631614685059,19.9642486572266,19.9653472900391,19.9664402008057,19.9675312042236,19.9686183929443,19.9697170257568,19.9708042144775,19.9718971252441,19.9729919433594,19.9740810394287,19.975170135498,19.9762687683105,19.9773597717285,19.9784564971924,19.9795417785645,19.9806365966797,19.9817276000977,19.9828281402588,19.9839191436768,19.9850120544434,19.9861068725586,19.9871959686279,19.9882926940918,19.9893894195557,19.9904861450195,19.9915752410889,19.9926719665527,19.993766784668,19.9948596954346,19.9959564208984,19.997049331665,19.9981460571289,19.9992446899414,0,0,0,0,0,0,0,0,0,0,0,0,0,0,0,0,0,0,0,0,0,0,0,0,0,0,0,0,0,0,0,0,0,0,0,0,0,0,0,0,0,0,0,0,0,0,0,0,0,0,0,0,0,0,0,0,0,0,0,0,0,0,0,0,0,0,0,0,0,0,0,0,0,0,0,0,0,0,0,0,0,0,0,0,0,0,0,0,0,0,0,0,0,0,0,0,0,0,0,0,0,0,0,0,0,0,0,0,0,0,0,0,0,0,0,0,0,0,0,0,0,0,0,0,0,0,0,0,0,0,0,0,0,0,0,0,0,0,0,0,0,0,0,0,0,0,0,0,0
19.4185180664062,19.4195499420166,19.4205837249756,19.4216079711914,19.422643661499,19.423677444458,19.4247150421143,19.425745010376,19.4267826080322,19.4278182983398,19.4288425445557,19.4298763275146,19.4309101104736,19.431941986084,19.4329795837402,19.4340190887451,19.4350566864014,19.4360847473145,19.4371223449707,19.4381580352783,19.4391918182373,19.4402198791504,19.4412612915039,19.4422931671143,19.4433269500732,19.4443626403809,19.445405960083,19.4464359283447,19.4474697113037,19.4485054016113,19.4495410919189,19.4505767822266,19.4516124725342,19.4526519775391,19.4536895751953,19.4547176361084,19.4557628631592,19.4568004608154,19.457836151123,19.4588737487793,19.4599075317383,19.4609413146973,19.4619846343994,19.4630165100098,19.464054107666,19.465087890625,19.4661331176758,19.467170715332,19.4682102203369,19.4692440032959,19.4702835083008,19.4713249206543,19.4723587036133,19.4733924865723,19.474437713623,19.4754734039307,19.4765186309814,19.4775562286377,19.4785976409912,19.4796276092529,19.4806709289551,19.48171043396,19.4827518463135,19.4837894439697,19.4848327636719,19.4858703613281,19.4869136810303,19.4879512786865,19.48899269104,19.490026473999,19.4910736083984,19.4921092987061,19.4931468963623,19.4941883087158,19.4952335357666,19.4962711334229,19.4973182678223,19.4983520507812,19.4993991851807,19.5004386901855,19.5014801025391,19.5025157928467,19.5035610198975,19.504602432251,19.5056419372559,19.5066814422607,19.5077285766602,19.5087661743164,19.5098152160645,19.5108509063721,19.5118999481201,19.5129375457764,19.5139808654785,19.5150184631348,19.5160636901855,19.5171031951904,19.5181579589844,19.5191993713379,19.52024269104,19.5212860107422,19.5223293304443,19.5233707427979,19.5244159698486,19.5254535675049,19.5265026092529,19.5275440216064,19.52858543396,19.5296401977539,19.5306816101074,19.5317249298096,19.532772064209,19.5338153839111,19.5348606109619,19.5359020233154,19.5369510650635,19.5379943847656,19.5390396118164,19.5400886535645,19.5411338806152,19.5421772003174,19.5432243347168,19.5442695617676,19.545316696167,19.5463562011719,19.5474090576172,19.548454284668,19.5494976043701,19.5505523681641,19.5515937805176,19.552640914917,19.553689956665,19.5547332763672,19.5557842254639,19.556827545166,19.5578784942627,19.5589218139648,19.5599689483643,19.5610198974609,19.5620727539062,19.5631160736084,19.5641632080078,19.5652122497559,19.5662651062012,19.5673065185547,19.5683574676514,19.569408416748,19.5704517364502,19.5715065002441,19.5725574493408,19.5736064910889,19.5746536254883,19.5757007598877,19.5767517089844,19.5777988433838,19.5788536071777,19.5798988342285,19.5809459686279,19.5819988250732,19.5830516815186,19.5840969085693,19.5851497650146,19.5862007141113,19.5872497558594,19.5883007049561,19.5893497467041,19.5903987884521,19.5914535522461,19.59250831604,19.5935611724854,19.5946102142334,19.5956592559814,19.5967082977295,19.5977668762207,19.5988121032715,19.5998687744141,19.6009159088135,19.6019725799561,19.6030254364014,19.6040802001953,19.605131149292,19.60618019104,19.6072330474854,19.6082878112793,19.609338760376,19.6103916168213,19.611442565918,19.6124954223633,19.6135520935059,19.6146125793457,19.6156616210938,19.6167125701904,19.6177711486816,19.6188201904297,19.6198749542236,19.6209259033203,19.6219825744629,19.6230392456055,19.6240921020508,19.625150680542,19.6262016296387,19.6272583007812,19.6283111572266,19.6293659210205,19.6304264068604,19.6314792633057,19.6325283050537,19.6335849761963,19.6346416473389,19.6357021331787,19.6367607116699,19.6378135681152,19.6388721466064,19.6399230957031,19.6409778594971,19.6420364379883,19.6430931091309,19.6441497802734,19.6452045440674,19.6462707519531,19.6473217010498,19.648380279541,19.6494331359863,19.6504898071289,19.6515502929688,19.6526069641113,19.6536655426025,19.6547222137451,19.6557788848877,19.6568393707275,19.6578979492188,19.6589584350586,19.6600170135498,19.6610717773438,19.6621284484863,19.6631870269775,19.6642436981201,19.6653118133545,19.6663665771484,19.6674308776855,19.6684875488281,19.6695442199707,19.6706047058105,19.6716632843018,19.6727237701416,19.6737880706787,19.674840927124,19.6759033203125,19.6769618988037,19.6780261993408,19.679084777832,19.6801452636719,19.6812038421631,19.6822662353516,19.6833248138428,19.6843910217285,19.6854496002197,19.6865081787109,19.687572479248,19.6886367797852,19.6896953582764,19.6907615661621,19.6918201446533,19.6928806304932,19.6939430236816,19.6950054168701,19.6960678100586,19.6971340179443,19.6981945037842,19.6992607116699,19.7003192901611,19.7013854980469,19.7024459838867,19.7035064697266,19.7045726776123,19.7056350708008,19.7066974639893,19.7077579498291,19.7088241577148,19.7098903656006,19.7109546661377,19.7120208740234,19.7130794525146,19.7141418457031,19.7152080535889,19.716272354126,19.7173347473145,19.7184009552002,19.7194671630859,19.720531463623,19.7215957641602,19.7226619720459,19.7237281799316,19.7247924804688,19.7258605957031,19.7269229888916,19.7279872894287,19.7290554046631,19.7301216125488,19.7311840057373,19.7322540283203,19.7333221435547,19.7343864440918,19.7354545593262,19.7365169525146,19.7375907897949,19.738655090332,19.7397212982178,19.7407875061035,19.7418537139893,19.7429237365723,19.7439918518066,19.7450580596924,19.7461261749268,19.7471923828125,19.7482624053955,19.7493286132812,19.7504005432129,19.75146484375,19.7525329589844,19.7536029815674,19.7546730041504,19.7557392120361,19.7568073272705,19.7578773498535,19.7589435577393,19.7600135803223,19.7610816955566,19.7621536254883,19.7632179260254,19.7642955780029,19.7653675079346,19.7664337158203,19.7675018310547,19.7685699462891,19.7696380615234,19.770715713501,19.771785736084,19.7728519439697,19.7739200592041,19.7749938964844,19.7760677337646,19.7771377563477,19.7782135009766,19.7792778015137,19.7803535461426,19.781421661377,19.7824897766113,19.7835597991943,19.7846355438232,19.7857112884521,19.7867851257324,19.7878551483154,19.7889270782471,19.7899971008301,19.7910690307617,19.7921447753906,19.7932186126709,19.7942848205566,19.7953643798828,19.7964363098145,19.7975120544434,19.798583984375,19.7996559143066,19.8007259368896,19.8018035888672,19.8028755187988,19.8039512634277,19.8050212860107,19.8060970306396,19.8071746826172,19.8082485198975,19.8093242645264,19.8104000091553,19.811466217041,19.8125495910645,19.8136196136475,19.814697265625,19.8157749176025,19.8168430328369,19.8179302215576,19.8190021514893,19.8200798034668,19.8211555480957,19.8222332000732,19.8233051300049,19.8243808746338,19.8254547119141,19.8265285491943,19.8276100158691,19.8286819458008,19.8297595977783,19.8308410644531,19.8319187164307,19.8329944610596,19.8340702056885,19.8351516723633,19.8362255096436,19.8372993469238,19.8383769989014,19.8394565582275,19.840539932251,19.8416137695312,19.8426952362061,19.8437747955322,19.8448486328125,19.84592628479,19.8470096588135,19.8480834960938,19.8491630554199,19.8502445220947,19.8513240814209,19.8524074554443,19.8534851074219,19.8545608520508,19.8556365966797,19.8567180633545,19.8577938079834,19.8588790893555,19.8599605560303,19.8610382080078,19.8621234893799,19.8632011413574,19.8642826080322,19.8653621673584,19.8664417266846,19.8675231933594,19.8686027526855,19.869686126709,19.8707637786865,19.8718433380127,19.8729305267334,19.8740119934082,19.875093460083,19.8761749267578,19.8772525787354,19.8783397674561,19.8794193267822,19.880500793457,19.8815841674805,19.8826675415039,19.8837547302246,19.8848342895508,19.8859157562256,19.8870029449463,19.8880825042725,19.8891658782959,19.8902492523193,19.8913326263428,19.8924140930176,19.893497467041,19.8945846557617,19.8956680297852,19.89674949646,19.8978385925293,19.8989200592041,19.9000072479248,19.901086807251,19.902172088623,19.9032516479492,19.9043407440186,19.9054298400879,19.9065113067627,19.9075965881348,19.9086818695068,19.9097652435303,19.9108543395996,19.9119338989258,19.9130268096924,19.9141101837158,19.9151954650879,19.91628074646,19.9173717498779,19.9184532165527,19.9195442199707,19.9206314086914,19.9217147827148,19.9228000640869,19.9238891601562,19.924976348877,19.9260673522949,19.9271488189697,19.9282455444336,19.929328918457,19.9304180145264,19.9314994812012,19.9325923919678,19.9336776733398,19.9347629547119,19.9358520507812,19.936939239502,19.9380283355713,19.9391250610352,19.94020652771
19.2110786437988,19.2120895385742,19.213098526001,19.2141094207764,19.2151184082031,19.2161312103271,19.2171440124512,19.2181587219238,19.2191696166992,19.2201728820801,19.2211856842041,19.2221965789795,19.223217010498,19.2242240905762,19.2252388000488,19.2262535095215,19.2272605895996,19.2282695770264,19.2292881011963,19.2302894592285,19.2313079833984,19.2323188781738,19.2333393096924,19.2343502044678,19.2353591918945,19.2363719940186,19.2373943328857,19.2384033203125,19.2394123077393,19.2404289245605,19.2414379119873,19.2424564361572,19.2434749603271,19.2444877624512,19.2455005645752,19.2465152740479,19.2475318908691,19.2485427856445,19.2495594024658,19.2505741119385,19.2515869140625,19.2526035308838,19.2536239624023,19.2546329498291,19.255651473999,19.256664276123,19.2576808929443,19.2586936950684,19.2597160339355,19.2607250213623,19.2617435455322,19.262752532959,19.2637767791748,19.2647933959961,19.2658081054688,19.26682472229,19.2678413391113,19.2688541412354,19.2698745727539,19.2708892822266,19.2719078063965,19.2729244232178,19.2739505767822,19.274959564209,19.2759799957275,19.2769966125488,19.2780113220215,19.2790298461914,19.2800464630127,19.2810668945312,19.2820854187012,19.2831001281738,19.284122467041,19.2851409912109,19.2861614227295,19.2871780395508,19.288200378418,19.289213180542,19.2902336120605,19.2912483215332,19.292272567749,19.2932872772217,19.2943134307861,19.2953281402588,19.2963542938232,19.2973651885986,19.2983913421631,19.299409866333,19.3004264831543,19.3014469146729,19.30246925354,19.3034858703613,19.3045177459717,19.3055324554443,19.3065528869629,19.3075714111328,19.3085975646973,19.3096103668213,19.3106327056885,19.3116588592529,19.3126754760742,19.3136959075928,19.3147220611572,19.3157386779785,19.316764831543,19.3177890777588,19.3188076019287,19.3198261260986,19.3208503723145,19.321870803833,19.3228950500488,19.3239154815674,19.3249397277832,19.325963973999,19.3269882202148,19.3280067443848,19.3290271759033,19.3300533294678,19.331075668335,19.3321018218994,19.3331260681152,19.3341464996338,19.3351726531982,19.3361949920654,19.3372249603271,19.3382453918457,19.3392734527588,19.3402900695801,19.3413143157959,19.3423442840576,19.3433685302734,19.3443908691406,19.3454151153564,19.3464431762695,19.347469329834,19.3484916687012,19.349515914917,19.3505439758301,19.3515663146973,19.3525924682617,19.3536224365234,19.3546409606934,19.3556690216064,19.3566989898682,19.3577270507812,19.3587512969971,19.3597793579102,19.360803604126,19.3618316650391,19.3628540039062,19.3638782501221,19.3649082183838,19.3659343719482,19.36696434021,19.3679943084717,19.3690166473389,19.3700466156006,19.3710689544678,19.3720989227295,19.3731288909912,19.3741588592529,19.3751850128174,19.3762073516846,19.3772411346436,19.378267288208,19.3792934417725,19.3803253173828,19.3813552856445,19.3823833465576,19.3834095001221,19.3844413757324,19.3854637145996,19.3864974975586,19.3875293731689,19.3885650634766,19.3895874023438,19.3906192779541,19.3916454315186,19.3926792144775,19.3937015533447,19.3947334289551,19.3957595825195,19.3967971801758,19.3978252410889,19.3988628387451,19.3998889923096,19.4009170532227,19.4019451141357,19.4029808044434,19.4040069580078,19.4050426483154,19.4060668945312,19.4071025848389,19.4081401824951,19.4091682434082,19.4101982116699,19.4112319946289,19.4122619628906,19.4132957458496,19.4143257141113,19.4153594970703,19.4163875579834,19.4174251556396,19.4184551239014,19.419490814209,19.4205207824707,19.421558380127,19.4225845336914,19.4236221313477,19.4246501922607,19.425687789917,19.4267196655273,19.4277534484863,19.428783416748,19.4298229217529,19.4308567047119,19.4318904876709,19.4329242706299,19.4339561462402,19.4349937438965,19.4360275268555,19.4370555877686,19.4380970001221,19.4391269683838,19.4401683807373,19.4412021636963,19.4422340393066,19.4432678222656,19.4443092346191,19.4453411102295,19.4463748931885,19.4474086761475,19.4484443664551,19.4494781494141,19.4505214691162,19.4515552520752,19.4525909423828,19.4536304473877,19.4546661376953,19.4556980133057,19.4567394256592,19.4577732086182,19.4588108062744,19.4598426818848,19.4608898162842,19.4619197845459,19.4629592895508,19.463996887207,19.4650363922119,19.4660701751709,19.4671115875244,19.468147277832,19.4691848754883,19.4702186584473,19.471263885498,19.4722995758057,19.4733409881592,19.4743766784668,19.4754199981689,19.4764537811279,19.4774951934814,19.4785270690918,19.4795703887939,19.4806079864502,19.4816493988037,19.4826889038086,19.4837303161621,19.4847660064697,19.4858093261719,19.4868450164795,19.4878902435303,19.4889278411865,19.4899673461914,19.4910049438477,19.4920558929443,19.493091583252,19.4941349029541,19.4951705932617,19.4962158203125,19.4972496032715,19.4982967376709,19.4993324279785,19.5003776550293,19.5014190673828,19.5024604797363,19.5034980773926,19.5045490264893,19.5055809020996,19.5066204071045,19.5076675415039,19.5087070465088,19.5097465515137,19.5107936859131,19.5118312835693,19.5128784179688,19.5139198303223,19.5149631500244,19.5160083770752,19.517053604126,19.5180892944336,19.5191345214844,19.5201778411865,19.5212211608887,19.5222625732422,19.5233116149902,19.5243530273438,19.5254001617432,19.5264434814453,19.5274848937988,19.5285320281982,19.5295734405518,19.5306167602539,19.531665802002,19.5327053070068,19.5337524414062,19.5348033905029,19.5358428955078,19.5368900299072,19.537935256958,19.5389766693115,19.5400218963623,19.5410747528076,19.542121887207,19.5431613922119,19.5442047119141,19.5452518463135,19.5463047027588,19.5473480224609,19.5483951568604,19.5494441986084,19.5504856109619,19.5515327453613,19.5525817871094,19.5536270141602,19.5546779632568,19.5557250976562,19.556770324707,19.5578155517578,19.5588626861572,19.5599155426025,19.560962677002,19.5620040893555,19.5630588531494,19.5641021728516,19.5651531219482,19.5662040710449,19.5672492980957,19.5682983398438,19.5693492889404,19.5703964233398,19.5714492797852,19.57248878479,19.5735397338867,19.5745849609375,19.5756378173828,19.5766925811768,19.5777473449707,19.5787925720215,19.5798416137695,19.5808944702148,19.581937789917,19.5829887390137,19.5840377807617,19.5850944519043,19.5861358642578,19.5871963500977,19.5882472991943,19.5892925262451,19.5903415679932,19.5913982391357,19.5924453735352,19.5934982299805,19.5945472717285,19.5956020355225,19.5966491699219,19.5977077484131,19.5987606048584,19.5998115539551,19.600866317749,19.6019134521484,19.6029663085938,19.6040134429932,19.6050701141357,19.6061248779297,19.6071758270264,19.6082286834717,19.609281539917,19.6103343963623,19.611385345459,19.6124458312988,19.6134948730469,19.6145496368408,19.6155967712402,19.6166553497314,19.6177062988281,19.6187629699707,19.6198177337646,19.6208782196045,19.6219215393066,19.6229801177979,19.6240310668945,19.6250877380371,19.6261425018311,19.6272010803223,19.6282539367676,19.6293087005615,19.6303691864014,19.6314220428467,19.632474899292,19.6335353851318,19.6345844268799,19.6356391906738,19.636697769165,19.6377487182617,19.6388053894043,19.6398639678955,19.6409225463867,19.6419811248779,19.6430377960205,19.6440944671631,19.6451454162598,19.6462059020996,19.6472625732422,19.6483173370361,19.6493721008301,19.6504344940186,19.6514949798584,19.6525497436523,19.6536083221436,19.6546630859375,19.6557235717773,19.6567840576172,19.6578350067139,19.6588954925537,19.6599521636963,19.6610126495361,19.6620712280273,19.6631298065186,19.6641941070557,19.6652545928955,19.6663074493408,19.667366027832,19.6684226989746,19.6694869995117,19.6705417633057,19.6716060638428,19.6726665496826,19.6737308502197,19.674783706665,19.6758460998535,19.6769065856934,19.6779708862305,19.6790237426758,19.6800842285156,19.6811408996582,19.6822090148926,19.6832675933838,19.6843338012695,19.6853942871094,19.6864528656006,19.6875152587891,19.6885757446289,19.6896381378174,19.6906967163086,19.6917591094971,19.6928234100342,19.693883895874,19.6949481964111,19.6960124969482,19.6970729827881,19.6981334686279,19.699197769165,19.7002582550049,19.7013206481934,19.7023830413818,19.7034435272217,19.7045135498047,19.7055778503418,19.7066345214844,19.707706451416,19.7087688446045,19.7098293304443,19.7108936309814,19.7119579315186,19.7130146026611,19.7140827178955,19.7151432037354,19.716215133667,19.7172794342041,19.7183437347412,19.7194042205811,19.7204742431641,19.7215347290039
19.0080223083496,19.00901222229,19.0100002288818,19.0109901428223,19.0119743347168,19.0129642486572,19.0139579772949,19.014949798584,19.015941619873,19.0169277191162,19.0179214477539,19.0189151763916,19.019905090332,19.0208930969238,19.0218849182129,19.0228691101074,19.023868560791,19.0248527526855,19.0258522033691,19.0268363952637,19.0278358459473,19.0288219451904,19.0298156738281,19.0307998657227,19.0317974090576,19.0327835083008,19.0337810516357,19.0347690582275,19.0357685089111,19.0367622375488,19.0377540588379,19.0387401580811,19.0397319793701,19.0407295227051,19.0417175292969,19.0427112579346,19.0437030792236,19.04469871521,19.0456962585449,19.0466842651367,19.0476818084717,19.0486736297607,19.0496711730957,19.0506591796875,19.0516586303711,19.0526504516602,19.0536441802979,19.0546379089355,19.0556392669678,19.0566329956055,19.0576229095459,19.0586185455322,19.0596141815186,19.0606098175049,19.0616016387939,19.0625991821289,19.0635929107666,19.0645809173584,19.0655899047852,19.0665760040283,19.0675716400146,19.0685653686523,19.0695629119873,19.070556640625,19.0715522766113,19.0725536346436,19.0735473632812,19.0745429992676,19.0755443572998,19.0765419006348,19.0775356292725,19.0785331726074,19.0795288085938,19.0805225372314,19.0815200805664,19.08251953125,19.0835189819336,19.0845146179199,19.0855121612549,19.0865077972412,19.0875072479248,19.0885009765625,19.0895004272461,19.0904941558838,19.0915031433105,19.0924949645996,19.0934925079346,19.0944938659668,19.0954971313477,19.0964889526367,19.0974922180176,19.0984840393066,19.0994873046875,19.1004867553711,19.1014823913574,19.1024799346924,19.1034832000732,19.1044788360596,19.1054878234863,19.106481552124,19.1074867248535,19.1084823608398,19.1094818115234,19.1104793548584,19.1114845275879,19.1124782562256,19.1134853363037,19.1144790649414,19.1154861450195,19.1164875030518,19.1174850463867,19.1184864044189,19.1194915771484,19.1204872131348,19.1214923858643,19.1224842071533,19.1234912872314,19.124490737915,19.1254920959473,19.1264934539795,19.1274948120117,19.1285018920898,19.1294994354248,19.1305027008057,19.1315078735352,19.1325054168701,19.1335124969482,19.1345081329346,19.1355152130127,19.1365184783936,19.1375255584717,19.1385250091553,19.1395320892334,19.1405353546143,19.1415386199951,19.1425399780273,19.1435432434082,19.1445426940918,19.1455478668213,19.146556854248,19.1475582122803,19.1485633850098,19.149564743042,19.1505680084229,19.151575088501,19.1525726318359,19.1535816192627,19.1545886993408,19.1555881500244,19.1565971374512,19.1576061248779,19.1586093902588,19.1596164703369,19.1606197357178,19.1616249084473,19.1626281738281,19.1636333465576,19.1646366119385,19.1656494140625,19.1666564941406,19.1676616668701,19.1686630249023,19.1696720123291,19.1706733703613,19.1716823577881,19.1726913452148,19.1736946105957,19.1747016906738,19.175708770752,19.1767196655273,19.1777286529541,19.1787338256836,19.1797428131104,19.1807479858398,19.1817569732666,19.1827621459961,19.1837730407715,19.1847763061523,19.1857833862305,19.1867923736572,19.1878032684326,19.1888084411621,19.1898193359375,19.1908283233643,19.1918315887451,19.1928424835205,19.1938514709473,19.194860458374,19.1958713531494,19.1968860626221,19.1978931427002,19.1989002227783,19.1999111175537,19.2009162902832,19.20192527771,19.202938079834,19.2039470672607,19.2049579620361,19.2059650421143,19.206974029541,19.2079906463623,19.2090015411377,19.2100086212158,19.2110195159912,19.2120304107666,19.2130393981934,19.2140522003174,19.2150611877441,19.2160739898682,19.2170829772949,19.2180995941162,19.2191066741943,19.2201175689697,19.2211322784424,19.2221431732178,19.2231578826904,19.2241649627686,19.2251777648926,19.2261867523193,19.227201461792,19.2282161712646,19.22922706604,19.2302436828613,19.2312545776367,19.2322692871094,19.2332782745361,19.2342929840088,19.2353038787842,19.2363166809082,19.237325668335,19.2383460998535,19.2393608093262,19.2403736114502,19.2413902282715,19.2424011230469,19.2434158325195,19.2444267272949,19.2454433441162,19.2464580535889,19.2474689483643,19.2484874725342,19.2495021820068,19.2505187988281,19.2515296936035,19.2525463104248,19.2535591125488,19.2545738220215,19.2555904388428,19.2566051483154,19.2576179504395,19.258638381958,19.2596569061279,19.2606678009033,19.2616863250732,19.2627048492432,19.2637138366699,19.2647323608398,19.2657489776611,19.2667675018311,19.2677822113037,19.268798828125,19.2698154449463,19.2708377838135,19.2718505859375,19.2728691101074,19.2738838195801,19.2748985290527,19.2759170532227,19.2769336700439,19.2779541015625,19.2789764404297,19.279993057251,19.2810096740723,19.2820262908936,19.2830467224121,19.2840595245361,19.2850799560547,19.286096572876,19.2871170043945,19.2881336212158,19.2891578674316,19.2901744842529,19.2911930084229,19.2922134399414,19.29323387146,19.2942485809326,19.2952728271484,19.2962856292725,19.2973098754883,19.2983303070068,19.2993545532227,19.3003730773926,19.3013896942139,19.3024082183838,19.3034324645996,19.3044490814209,19.3054733276367,19.3064918518066,19.3075122833252,19.3085308074951,19.3095588684082,19.3105773925781,19.3115997314453,19.3126182556152,19.3136444091797,19.314661026001,19.3156852722168,19.3167037963867,19.3177223205566,19.3187465667725,19.3197708129883,19.3207931518555,19.3218173980713,19.3228378295898,19.3238620758057,19.3248805999756,19.3259029388428,19.32692527771,19.3279514312744,19.328971862793,19.3299942016602,19.3310203552246,19.3320446014404,19.3330631256104,19.3340911865234,19.3351154327393,19.3361377716064,19.3371601104736,19.3381862640381,19.3392086029053,19.3402328491211,19.3412570953369,19.3422908782959,19.3433113098145,19.3443374633789,19.3453578948975,19.3463821411133,19.3474063873291,19.3484325408936,19.3494567871094,19.3504829406738,19.3515090942383,19.3525390625,19.3535633087158,19.354585647583,19.3556137084961,19.3566379547119,19.357666015625,19.3586940765381,19.3597183227539,19.3607425689697,19.3617763519287,19.3627967834473,19.363826751709,19.3648548126221,19.3658790588379,19.3669052124023,19.3679332733154,19.3689556121826,19.369987487793,19.3710136413574,19.3720474243164,19.3730735778809,19.3741016387939,19.3751220703125,19.3761539459229,19.3771781921387,19.378210067749,19.3792400360107,19.3802719116211,19.3812942504883,19.3823280334473,19.3833522796631,19.3843879699707,19.3854084014893,19.3864459991455,19.3874702453613,19.3885021209717,19.3895225524902,19.3905582427979,19.3915863037109,19.3926181793213,19.393648147583,19.3946781158447,19.3957080841064,19.3967380523682,19.3977699279785,19.3987998962402,19.399829864502,19.400857925415,19.401891708374,19.4029273986816,19.4039535522461,19.4049873352051,19.4060134887695,19.4070472717285,19.4080810546875,19.4091091156006,19.4101409912109,19.4111709594727,19.412202835083,19.413236618042,19.4142742156982,19.4153060913086,19.4163360595703,19.4173679351807,19.418399810791,19.4194297790527,19.4204597473145,19.4214973449707,19.4225234985352,19.42356300354,19.4245948791504,19.4256324768066,19.426664352417,19.4276924133301,19.4287281036377,19.4297637939453,19.4307956695557,19.4318294525146,19.432861328125,19.433895111084,19.4349327087402,19.4359741210938,19.4370040893555,19.4380378723145,19.4390697479248,19.4401073455811,19.4411392211914,19.442174911499,19.443208694458,19.4442481994629,19.4452819824219,19.4463195800781,19.4473552703857,19.4483909606934,19.449426651001,19.4504623413086,19.4514942169189,19.4525318145752,19.4535694122314,19.4546051025391,19.4556446075439,19.4566783905029,19.4577178955078,19.4587516784668,19.4597930908203,19.4608306884766,19.4618606567383,19.4629001617432,19.4639377593994,19.4649772644043,19.4660148620605,19.4670524597168,19.4680919647217,19.4691314697266,19.4701652526855,19.4712047576904,19.472240447998,19.4732837677002,19.4743175506592,19.4753589630127,19.4763984680176,19.4774360656738,19.4784755706787,19.4795169830322,19.4805488586426,19.4815921783447,19.4826278686523,19.4836711883545,19.4847049713135,19.4857501983643,19.4867916107178,19.4878330230713,19.4888687133789,19.4899139404297,19.4909496307373,19.4919910430908,19.4930324554443,19.4940700531006,19.4951133728027,19.4961566925049,19.4971961975098,19.4982395172119,19.4992752075195,19.5003204345703,19.5013599395752,19.5024013519287,19.5034427642822,19.5044803619385,19.5055198669434,19.5065612792969,19.5076007843018
18.8092155456543,18.8101806640625,18.811149597168,18.8121242523193,18.8130931854248,18.8140621185303,18.8150329589844,18.8159961700439,18.8169727325439,18.8179359436035,18.8189086914062,18.8198795318604,18.8208446502686,18.8218173980713,18.822790145874,18.8237609863281,18.8247318267822,18.8256988525391,18.8266735076904,18.8276424407959,18.82861328125,18.8295860290527,18.8305568695068,18.8315258026123,18.832498550415,18.8334693908691,18.8344421386719,18.835412979126,18.8363780975342,18.8373508453369,18.8383255004883,18.839298248291,18.8402671813965,18.8412418365479,18.8422183990479,18.8431854248047,18.8441638946533,18.8451251983643,18.8461036682129,18.847074508667,18.8480472564697,18.8490180969238,18.8499908447266,18.8509616851807,18.8519439697266,18.8529148101807,18.8538913726807,18.8548641204834,18.8558349609375,18.8568096160889,18.857780456543,18.8587551116943,18.8597259521484,18.8607025146484,18.8616809844971,18.8626537322998,18.8636302947998,18.8646030426025,18.8655776977539,18.8665504455566,18.8675270080566,18.8684997558594,18.8694763183594,18.8704490661621,18.8714256286621,18.8724021911621,18.8733749389648,18.8743553161621,18.8753280639648,18.8763065338135,18.8772773742676,18.8782558441162,18.8792285919189,18.8802032470703,18.8811855316162,18.8821601867676,18.8831348419189,18.8841094970703,18.8850860595703,18.8860626220703,18.8870410919189,18.8880176544189,18.8889961242676,18.8899726867676,18.8909530639648,18.8919296264648,18.8929042816162,18.8938846588135,18.8948593139648,18.8958396911621,18.8968162536621,18.8977909088135,18.898775100708,18.8997421264648,18.900728225708,18.9017105102539,18.9026908874512,18.9036693572998,18.9046459197998,18.9056205749512,18.9066009521484,18.9075736999512,18.9085559844971,18.909538269043,18.9105205535889,18.9114933013916,18.9124717712402,18.9134540557861,18.9144325256348,18.9154109954834,18.9163970947266,18.9173679351807,18.9183540344238,18.9193325042725,18.9203224182129,18.921293258667,18.9222774505615,18.9232521057129,18.9242420196533,18.9252147674561,18.9262008666992,18.9271755218506,18.9281558990479,18.9291400909424,18.9301204681396,18.9311027526855,18.9320888519287,18.9330635070801,18.9340496063232,18.9350299835205,18.9360103607178,18.936990737915,18.9379749298096,18.9389553070068,18.9399394989014,18.9409255981445,18.9419097900391,18.9428901672363,18.9438743591309,18.9448528289795,18.9458351135254,18.9468212127686,18.9478015899658,18.9487800598145,18.9497699737549,18.9507522583008,18.9517421722412,18.9527187347412,18.9537048339844,18.9546890258789,18.9556751251221,18.9566516876221,18.9576396942139,18.9586219787598,18.9596061706543,18.9605941772461,18.9615783691406,18.9625625610352,18.9635467529297,18.9645328521729,18.965518951416,18.9664974212646,18.9674873352051,18.9684677124023,18.9694576263428,18.9704437255859,18.9714317321777,18.9724102020264,18.9733982086182,18.9743843078613,18.9753723144531,18.9763584136963,18.9773426055908,18.9783306121826,18.9793167114258,18.9803028106689,18.9812908172607,18.9822750091553,18.9832611083984,18.9842510223389,18.985237121582,18.9862270355225,18.9872074127197,18.9881973266602,18.9891815185547,18.990177154541,18.9911613464355,18.9921474456787,18.9931373596191,18.9941253662109,18.9951133728027,18.9960994720459,18.9970874786377,18.9980735778809,18.9990634918213,19.0000534057617,19.0010433197021,19.0020351409912,19.0030212402344,19.0040073394775,19.0049991607666,19.0059833526611,19.0069751739502,19.007963180542,19.0089492797852,19.0099468231201,19.0109386444092,19.0119209289551,19.0129127502441,19.0139026641846,19.0148906707764,19.0158805847168,19.0168762207031,19.0178642272949,19.0188541412354,19.0198421478271,19.0208339691162,19.0218296051025,19.022819519043,19.0238094329834,19.0248012542725,19.0257911682129,19.0267791748047,19.0277690887451,19.0287647247314,19.0297565460205,19.0307483673096,19.03173828125,19.0327320098877,19.0337238311768,19.0347118377686,19.0357093811035,19.0367012023926,19.0376892089844,19.0386829376221,19.0396785736084,19.0406742095947,19.0416603088379,19.0426597595215,19.0436458587646,19.0446434020996,19.0456352233887,19.0466251373291,19.0476188659668,19.0486145019531,19.0496063232422,19.0506076812744,19.0515995025635,19.0525951385498,19.0535869598389,19.0545864105225,19.0555763244629,19.0565700531006,19.057559967041,19.0585594177246,19.0595512390137,19.0605525970459,19.0615463256836,19.0625419616699,19.063533782959,19.0645294189453,19.0655269622803,19.0665225982666,19.0675163269043,19.068510055542,19.0695018768311,19.0705032348633,19.071496963501,19.0725021362305,19.0734920501709,19.0744895935059,19.0754814147949,19.0764827728271,19.0774726867676,19.0784759521484,19.0794677734375,19.080472946167,19.0814647674561,19.0824642181396,19.0834617614746,19.0844535827637,19.08544921875,19.0864505767822,19.0874462127686,19.0884437561035,19.0894412994385,19.0904445648193,19.0914402008057,19.0924434661865,19.0934371948242,19.0944347381592,19.0954341888428,19.0964317321777,19.0974292755127,19.0984268188477,19.0994262695312,19.1004276275635,19.1014270782471,19.1024284362793,19.1034278869629,19.1044254302979,19.1054248809814,19.1064262390137,19.107421875,19.1084232330322,19.1094207763672,19.1104202270508,19.1114234924316,19.1124267578125,19.1134223937988,19.1144275665283,19.1154251098633,19.1164302825928,19.1174221038818,19.1184253692627,19.1194267272949,19.1204299926758,19.1214294433594,19.1224346160889,19.1234321594238,19.1244373321533,19.1254348754883,19.1264381408691,19.1274356842041,19.1284446716309,19.1294441223145,19.1304454803467,19.1314525604248,19.1324520111084,19.1334533691406,19.1344585418701,19.1354637145996,19.1364593505859,19.1374664306641,19.1384696960449,19.1394710540771,19.140474319458,19.1414813995361,19.1424827575684,19.1434841156006,19.1444854736328,19.1454963684082,19.1464977264404,19.1475009918213,19.1485023498535,19.149507522583,19.1505107879639,19.1515254974365,19.1525230407715,19.153528213501,19.1545276641846,19.1555366516113,19.1565380096436,19.1575489044189,19.1585540771484,19.1595573425293,19.1605606079102,19.1615676879883,19.1625690460205,19.1635818481445,19.1645851135254,19.1655902862549,19.1665954589844,19.1676006317139,19.1686058044434,19.1696128845215,19.1706142425537,19.171630859375,19.1726341247559,19.173641204834,19.1746482849121,19.1756572723389,19.1766624450684,19.1776638031006,19.1786727905273,19.1796855926514,19.1806926727295,19.1817035675049,19.1827087402344,19.1837158203125,19.1847190856934,19.185733795166,19.1867351531982,19.1877460479736,19.1887493133545,19.1897621154785,19.1907711029053,19.1917819976807,19.1927890777588,19.1938037872314,19.194803237915,19.1958141326904,19.1968193054199,19.1978302001953,19.1988430023193,19.1998558044434,19.2008590698242,19.2018756866455,19.202880859375,19.2038955688477,19.2048988342285,19.2059135437012,19.2069206237793,19.2079334259033,19.2089366912842,19.2099494934082,19.210958480835,19.2119731903076,19.2129802703857,19.2139930725098,19.2150058746338,19.2160186767578,19.2170219421387,19.2180423736572,19.219051361084,19.2200622558594,19.2210693359375,19.2220859527588,19.2230987548828,19.2241153717041,19.2251224517822,19.2261371612549,19.2271423339844,19.2281608581543,19.2291736602783,19.2301845550537,19.2311916351318,19.2322063446045,19.2332229614258,19.2342357635498,19.2352466583252,19.2362594604492,19.2372760772705,19.2382888793945,19.2392978668213,19.2403163909912,19.2413234710693,19.2423439025879,19.2433586120605,19.2443733215332,19.24538230896,19.2464008331299,19.2474174499512,19.2484302520752,19.2494449615479,19.2504615783691,19.2514743804932,19.2524890899658,19.2535057067871,19.2545223236084,19.2555351257324,19.2565498352051,19.257568359375,19.2585773468018,19.2595920562744,19.260612487793,19.2616291046143,19.2626419067383,19.2636642456055,19.2646770477295,19.2656917572021,19.2667102813721,19.2677268981934,19.2687454223633,19.2697582244873,19.2707767486572,19.2717933654785,19.2728061676025,19.2738265991211,19.2748489379883,19.2758636474609,19.2768802642822,19.2778987884521,19.2789154052734,19.2799320220947,19.2809524536133,19.2819652557373,19.2829856872559,19.2840099334717,19.2850303649902,19.2860412597656,19.2870578765869,19.2880840301514,19.2891025543213,19.2901191711426,19.2911376953125,19.2921543121338,19.293176651001,19.2941970825195,19.2952175140381,19.2962379455566,19.2972564697266,19.2982749938965
18.6145305633545,18.6154727935791,18.6164207458496,18.617374420166,18.6183242797852,18.6192722320557,18.6202220916748,18.6211681365967,18.6221199035645,18.623067855835,18.6240196228027,18.6249694824219,18.6259231567383,18.6268672943115,18.6278190612793,18.6287631988525,18.6297225952148,18.6306686401367,18.6316165924072,18.6325702667236,18.63352394104,18.6344718933105,18.6354198455811,18.6363754272461,18.6373310089111,18.6382732391357,18.6392288208008,18.6401767730713,18.6411304473877,18.6420783996582,18.6430377960205,18.6439876556396,18.6449413299561,18.6458930969238,18.6468391418457,18.6477909088135,18.6487464904785,18.6496982574463,18.6506481170654,18.6516075134277,18.6525630950928,18.6535110473633,18.6544666290283,18.6554145812988,18.6563720703125,18.6573219299316,18.6582736968994,18.6592254638672,18.6601829528809,18.6611328125,18.6620864868164,18.6630439758301,18.6639976501465,18.6649513244629,18.6659069061279,18.6668567657471,18.6678123474121,18.6687602996826,18.6697235107422,18.6706714630127,18.6716346740723,18.6725921630859,18.6735420227051,18.6744976043701,18.6754550933838,18.6764049530029,18.677360534668,18.6783180236816,18.679271697998,18.6802272796631,18.6811828613281,18.6821365356445,18.6830959320068,18.6840572357178,18.6850128173828,18.685962677002,18.6869163513184,18.6878776550293,18.6888294219971,18.6897850036621,18.6907520294189,18.6917018890381,18.6926670074463,18.6936149597168,18.6945762634277,18.6955337524414,18.6964836120605,18.6974411010742,18.6984024047852,18.6993579864502,18.7003192901611,18.7012786865234,18.7022361755371,18.7031898498535,18.7041473388672,18.7051029205322,18.7060699462891,18.7070217132568,18.7079753875732,18.7089405059814,18.7098999023438,18.7108592987061,18.7118186950684,18.7127780914307,18.7137393951416,18.7146911621094,18.715648651123,18.716609954834,18.7175731658936,18.7185287475586,18.7194976806641,18.7204532623291,18.7214107513428,18.7223682403564,18.7233276367188,18.7242851257324,18.7252502441406,18.7262077331543,18.7271709442139,18.7281284332275,18.7290916442871,18.7300510406494,18.7310199737549,18.7319717407227,18.7329368591309,18.7338943481445,18.7348575592041,18.735818862915,18.7367763519287,18.737735748291,18.7387027740479,18.7396640777588,18.740629196167,18.7415885925293,18.7425498962402,18.7435092926025,18.744478225708,18.745433807373,18.7464008331299,18.7473564147949,18.7483234405518,18.7492866516113,18.7502536773682,18.7512111663818,18.75217628479,18.7531356811523,18.7541007995605,18.7550621032715,18.7560272216797,18.7569885253906,18.7579536437988,18.7589206695557,18.7598857879639,18.7608451843262,18.7618083953857,18.7627716064453,18.7637367248535,18.7647037506104,18.7656650543213,18.7666282653809,18.7675895690918,18.7685604095459,18.7695236206055,18.7704887390137,18.7714538574219,18.7724189758301,18.7733860015869,18.7743473052979,18.7753143310547,18.7762794494629,18.7772445678711,18.7782135009766,18.7791786193848,18.7801418304443,18.7811050415039,18.7820720672607,18.7830371856689,18.7840042114258,18.784969329834,18.7859344482422,18.7868995666504,18.7878723144531,18.7888412475586,18.7898006439209,18.7907695770264,18.7917366027832,18.7927055358887,18.7936706542969,18.7946357727051,18.7956008911133,18.7965679168701,18.7975406646729,18.7985076904297,18.7994766235352,18.8004455566406,18.8014144897461,18.8023796081543,18.8033466339111,18.804313659668,18.8052825927734,18.8062534332275,18.8072242736816,18.8081932067871,18.8091602325439,18.810131072998,18.8110980987549,18.812068939209,18.8130378723145,18.8140068054199,18.8149719238281,18.8159408569336,18.816915512085,18.8178806304932,18.8188533782959,18.81982421875,18.8207931518555,18.8217601776123,18.8227310180664,18.8237037658691,18.8246688842773,18.8256435394287,18.8266143798828,18.8275852203369,18.8285541534424,18.8295269012451,18.8304958343506,18.8314685821533,18.8324375152588,18.8334159851074,18.8343811035156,18.8353538513184,18.8363208770752,18.8372974395752,18.8382720947266,18.8392429351807,18.8402156829834,18.8411827087402,18.8421573638916,18.843132019043,18.8441047668457,18.8450736999512,18.8460464477539,18.8470249176025,18.8479957580566,18.8489685058594,18.8499393463135,18.8509120941162,18.8518848419189,18.8528594970703,18.853832244873,18.8548069000244,18.8557758331299,18.8567523956299,18.8577289581299,18.8587017059326,18.8596744537354,18.860652923584,18.8616180419922,18.8625984191895,18.8635692596436,18.8645477294922,18.865514755249,18.8664989471436,18.8674716949463,18.8684463500977,18.8694190979004,18.8703937530518,18.8713722229004,18.8723449707031,18.8733177185059,18.8743000030518,18.8752670288086,18.8762474060059,18.8772277832031,18.8782005310059,18.8791770935059,18.8801555633545,18.88112449646,18.8821029663086,18.8830795288086,18.8840560913086,18.8850326538086,18.8860111236572,18.88698387146,18.8879680633545,18.8889408111572,18.8899192810059,18.89089012146,18.8918762207031,18.8928489685059,18.8938255310059,18.8948020935059,18.8957824707031,18.8967609405518,18.8977394104004,18.8987159729004,18.8996963500977,18.9006729125977,18.9016494750977,18.9026222229004,18.9036045074463,18.9045810699463,18.9055671691895,18.9065456390381,18.9075202941895,18.908504486084,18.9094829559326,18.9104557037354,18.9114418029785,18.9124145507812,18.9133987426758,18.914379119873,18.9153594970703,18.9163398742676,18.9173202514648,18.9183025360107,18.9192771911621,18.9202613830566,18.9212379455566,18.9222221374512,18.9231967926025,18.9241771697998,18.9251556396484,18.9261436462402,18.9271221160889,18.928108215332,18.9290866851807,18.9300708770752,18.9310474395752,18.9320278167725,18.9330081939697,18.9339942932129,18.9349689483643,18.935962677002,18.9369430541992,18.9379196166992,18.9389019012451,18.9398880004883,18.9408664703369,18.9418487548828,18.9428310394287,18.943811416626,18.9447994232178,18.9457874298096,18.9467658996582,18.9477500915527,18.9487342834473,18.9497127532959,18.9506988525391,18.9516792297363,18.9526615142822,18.953649520874,18.9546298980713,18.9556198120117,18.9566020965576,18.9575901031494,18.9585666656494,18.9595527648926,18.9605407714844,18.9615268707275,18.9625053405762,18.9634914398193,18.964469909668,18.965461730957,18.9664440155029,18.9674301147461,18.968412399292,18.9694023132324,18.9703826904297,18.9713687896729,18.972354888916,18.9733448028564,18.9743232727051,18.9753170013428,18.9763050079346,18.9772911071777,18.9782752990723,18.9792613983154,18.98024559021,18.9812335968018,18.9822216033936,18.9832096099854,18.9841899871826,18.9851818084717,18.9861717224121,18.9871559143066,18.9881439208984,18.9891300201416,18.9901180267334,18.9911060333252,18.992094039917,18.9930744171143,18.9940624237061,18.9950580596924,18.9960479736328,18.997034072876,18.9980201721191,18.9990062713623,18.9999942779541,19.0009899139404,19.0019760131836,19.0029621124268,19.0039539337158,19.0049457550049,19.0059280395508,19.0069217681885,19.0079097747803,19.0088977813721,19.0098857879639,19.0108814239502,19.0118675231934,19.0128593444824,19.0138492584229,19.0148372650146,19.0158271789551,19.0168209075928,19.0178108215332,19.0188007354736,19.0197887420654,19.0207824707031,19.0217685699463,19.0227565765381,19.0237503051758,19.0247478485107,19.0257415771484,19.026725769043,19.027717590332,19.0287113189697,19.0297012329102,19.0306968688965,19.0316867828369,19.0326805114746,19.033670425415,19.0346603393555,19.0356559753418,19.0366497039795,19.0376396179199,19.0386295318604,19.039623260498,19.0406150817871,19.0416088104248,19.0425987243652,19.0435943603516,19.044584274292,19.0455837249756,19.046573638916,19.0475654602051,19.0485610961914,19.0495529174805,19.0505485534668,19.0515422821045,19.0525417327881,19.0535335540771,19.0545272827148,19.0555229187012,19.0565185546875,19.0575084686279,19.0585098266602,19.0594997406006,19.0604972839355,19.0614852905273,19.0624866485596,19.0634803771973,19.0644702911377,19.0654735565186,19.0664691925049,19.0674591064453,19.0684547424316,19.0694465637207,19.0704460144043,19.0714454650879,19.0724430084229,19.0734348297119,19.0744285583496,19.0754280090332,19.0764293670654,19.0774192810059,19.0784244537354,19.0794162750244,19.0804176330566,19.0814037322998,19.082405090332,19.0834045410156,19.0844039916992,19.0853977203369,19.0863990783691,19.0873947143555,19.0883922576904,19.0893859863281,19.0903854370117,19.0913867950439,19.0923843383789,19.0933799743652
18.4238243103027,18.4247512817383,18.425687789917,18.4266109466553,18.4275417327881,18.4284763336182,18.4294052124023,18.4303359985352,18.4312610626221,18.4321918487549,18.4331283569336,18.4340591430664,18.4349918365479,18.4359092712402,18.4368438720703,18.437780380249,18.4387149810791,18.439640045166,18.4405727386475,18.4415054321289,18.4424343109131,18.4433612823486,18.4442958831787,18.4452304840088,18.446159362793,18.447093963623,18.4480247497559,18.4489517211914,18.4498882293701,18.4508171081543,18.4517498016357,18.4526844024658,18.4536190032959,18.4545478820801,18.455472946167,18.4564094543457,18.4573497772217,18.4582748413086,18.4592094421387,18.460147857666,18.4610805511475,18.4620113372803,18.4629421234131,18.4638805389404,18.4648113250732,18.4657459259033,18.4666805267334,18.4676132202148,18.4685497283936,18.4694843292236,18.470422744751,18.4713459014893,18.4722843170166,18.4732189178467,18.4741516113281,18.4750881195068,18.4760284423828,18.4769649505615,18.477897644043,18.4788303375244,18.4797630310059,18.4806938171387,18.4816360473633,18.4825687408447,18.4835090637207,18.4844379425049,18.4853801727295,18.4863147735596,18.4872493743896,18.4881839752197,18.4891204833984,18.4900569915771,18.4909934997559,18.4919300079346,18.4928684234619,18.4937973022461,18.4947414398193,18.4956798553467,18.4966144561768,18.4975509643555,18.4984855651855,18.4994239807129,18.5003623962402,18.5012950897217,18.5022373199463,18.5031700134277,18.5041122436523,18.5050525665283,18.5059909820557,18.5069217681885,18.5078659057617,18.5088024139404,18.5097389221191,18.5106735229492,18.5116138458252,18.5125503540039,18.5134944915771,18.5144329071045,18.5153713226318,18.5163097381592,18.5172500610352,18.5181884765625,18.5191287994385,18.5200614929199,18.5210018157959,18.5219421386719,18.5228843688965,18.5238246917725,18.5247688293457,18.5257015228271,18.5266437530518,18.5275802612305,18.5285186767578,18.5294609069824,18.5303993225098,18.5313415527344,18.5322895050049,18.533224105835,18.5341644287109,18.5351028442383,18.5360431671143,18.5369892120361,18.5379295349121,18.5388679504395,18.5398101806641,18.54075050354,18.5416965484619,18.5426368713379,18.5435848236084,18.5445175170898,18.5454635620117,18.5464038848877,18.5473480224609,18.548282623291,18.5492248535156,18.5501670837402,18.5511131286621,18.5520572662354,18.55299949646,18.5539379119873,18.5548820495605,18.5558280944824,18.556770324707,18.557710647583,18.5586585998535,18.5595951080322,18.5605411529541,18.561487197876,18.5624332427979,18.5633716583252,18.5643196105957,18.5652637481689,18.5662078857422,18.5671424865723,18.5680885314941,18.569034576416,18.5699768066406,18.5709266662598,18.571870803833,18.572811126709,18.5737628936768,18.5747051239014,18.575647354126,18.5765953063965,18.5775394439697,18.5784797668457,18.5794277191162,18.5803737640381,18.5813217163086,18.5822677612305,18.5832099914551,18.5841579437256,18.5851078033447,18.5860481262207,18.5869960784912,18.5879402160645,18.5888900756836,18.5898323059082,18.5907802581787,18.5917301177979,18.5926742553711,18.5936183929443,18.5945644378662,18.5955123901367,18.5964584350586,18.5974063873291,18.5983543395996,18.5992984771729,18.6002521514893,18.6011981964111,18.6021404266357,18.6030883789062,18.604040145874,18.6049861907959,18.6059341430664,18.6068801879883,18.6078300476074,18.6087837219238,18.6097297668457,18.6106777191162,18.6116256713867,18.6125679016113,18.6135215759277,18.6144676208496,18.615421295166,18.6163673400879,18.6173191070557,18.6182708740234,18.6192207336426,18.6201629638672,18.621114730835,18.6220645904541,18.6230163574219,18.623966217041,18.6249179840088,18.6258640289307,18.6268138885498,18.6277618408203,18.6287212371826,18.6296691894531,18.6306171417236,18.6315631866455,18.6325187683105,18.6334648132324,18.6344146728516,18.6353664398193,18.636323928833,18.6372680664062,18.6382217407227,18.6391735076904,18.6401271820068,18.6410789489746,18.642032623291,18.6429843902588,18.6439304351807,18.6448764801025,18.6458358764648,18.646785736084,18.6477451324463,18.6486949920654,18.6496448516846,18.6505947113037,18.6515522003174,18.6525001525879,18.6534557342529,18.6544055938721,18.6553611755371,18.6563110351562,18.6572723388672,18.6582183837891,18.6591758728027,18.6601276397705,18.6610832214355,18.662036895752,18.662992477417,18.6639404296875,18.6648960113525,18.6658477783203,18.6668071746826,18.6677589416504,18.6687183380127,18.6696701049805,18.6706218719482,18.6715793609619,18.6725292205811,18.6734867095947,18.6744384765625,18.6753940582275,18.6763515472412,18.6773071289062,18.6782627105713,18.679220199585,18.68017578125,18.681131362915,18.6820869445801,18.6830406188965,18.6839962005615,18.6849479675293,18.6859130859375,18.6868648529053,18.6878261566162,18.688777923584,18.689733505249,18.6906929016113,18.6916446685791,18.6926021575928,18.6935615539551,18.6945152282715,18.6954803466797,18.6964321136475,18.6973896026611,18.6983451843262,18.6993045806885,18.7002601623535,18.7012214660645,18.7021789550781,18.7031326293945,18.7040901184082,18.7050533294678,18.7060165405273,18.7069683074951,18.7079277038574,18.7088871002197,18.7098426818848,18.7108039855957,18.7117576599121,18.7127170562744,18.713680267334,18.7146377563477,18.7156009674072,18.7165603637695,18.7175216674805,18.7184772491455,18.7194366455078,18.7203960418701,18.7213554382324,18.7223129272461,18.7232723236084,18.7242336273193,18.7251987457275,18.7261543273926,18.7271213531494,18.7280769348145,18.729040145874,18.7299976348877,18.7309589385986,18.7319145202637,18.7328758239746,18.7338371276855,18.7348079681396,18.7357597351074,18.7367248535156,18.7376861572266,18.7386455535889,18.7396125793457,18.7405738830566,18.7415313720703,18.7424926757812,18.7434539794922,18.7444267272949,18.74538230896,18.7463436126709,18.7473068237305,18.7482662200928,18.7492294311523,18.7501964569092,18.7511520385742,18.7521171569824,18.753080368042,18.7540512084961,18.7550144195557,18.7559757232666,18.7569389343262,18.7579040527344,18.758861541748,18.7598266601562,18.7607860565186,18.7617588043213,18.762716293335,18.7636852264404,18.7646446228027,18.7656135559082,18.7665710449219,18.7675399780273,18.7685050964355,18.7694664001465,18.7704296112061,18.7713985443115,18.7723617553711,18.7733268737793,18.7742919921875,18.7752571105957,18.7762222290039,18.777193069458,18.7781581878662,18.7791213989258,18.7800827026367,18.7810516357422,18.7820167541504,18.7829875946045,18.7839488983154,18.7849197387695,18.7858829498291,18.7868499755859,18.7878150939941,18.7887840270996,18.7897453308105,18.7907123565674,18.7916793823242,18.7926540374756,18.7936210632324,18.7945861816406,18.7955513000488,18.7965183258057,18.7974853515625,18.7984523773193,18.7994213104248,18.8003845214844,18.8013591766357,18.8023300170898,18.8032932281494,18.8042640686035,18.805233001709,18.8061981201172,18.807165145874,18.8081378936768,18.8091068267822,18.8100776672363,18.8110408782959,18.8120136260986,18.8129787445068,18.8139476776123,18.8149223327637,18.8158912658691,18.8168563842773,18.8178291320801,18.8187980651855,18.8197650909424,18.8207359313965,18.8217067718506,18.8226833343506,18.8236503601074,18.8246192932129,18.8255958557129,18.8265552520752,18.8275279998779,18.828498840332,18.8294715881348,18.8304405212402,18.831413269043,18.8323879241943,18.8333568572998,18.8343276977539,18.8353042602539,18.8362731933594,18.8372421264648,18.8382148742676,18.8391857147217,18.8401584625244,18.8411273956299,18.8421077728271,18.8430767059326,18.8440456390381,18.8450241088867,18.8459949493408,18.8469696044922,18.8479404449463,18.8489151000977,18.8498840332031,18.8508605957031,18.8518352508545,18.8528060913086,18.8537769317627,18.8547496795654,18.8557262420654,18.8566989898682,18.8576755523682,18.8586463928223,18.859619140625,18.8605899810791,18.8615703582764,18.8625431060791,18.8635177612305,18.8644924163818,18.8654689788818,18.8664417266846,18.8674144744873,18.8683910369873,18.86936378479,18.8703365325928,18.8713188171387,18.8722915649414,18.8732681274414,18.8742427825928,18.8752136230469,18.8761940002441,18.8771667480469,18.8781471252441,18.8791236877441,18.8800926208496,18.8810749053955,18.8820476531982,18.8830223083496,18.8840026855469,18.8849792480469,18.8859558105469,18.8869285583496,18.8879089355469,18.8888778686523,18.8898620605469,18.8908443450928,18.8918190002441,18.8927936553955
18.2369899749756,18.2378997802734,18.2388114929199,18.2397232055664,18.2406406402588,18.2415428161621,18.2424583435059,18.2433681488037,18.2442817687988,18.2451858520508,18.2461013793945,18.247013092041,18.2479267120361,18.2488384246826,18.2497539520264,18.250659942627,18.2515754699707,18.2524890899658,18.2533988952637,18.2543106079102,18.2552261352539,18.256139755249,18.2570514678955,18.2579650878906,18.2588768005371,18.2597885131836,18.2607021331787,18.2616100311279,18.2625274658203,18.2634391784668,18.2643566131592,18.265266418457,18.2661819458008,18.2670936584473,18.2680072784424,18.2689228057861,18.2698345184326,18.2707538604736,18.2716674804688,18.2725772857666,18.2734909057617,18.2744045257568,18.2753257751465,18.276237487793,18.2771530151367,18.2780723571777,18.278980255127,18.2798938751221,18.2808094024658,18.2817230224609,18.2826385498047,18.2835559844971,18.2844715118408,18.2853851318359,18.2863082885742,18.287223815918,18.2881412506104,18.2890510559082,18.2899703979492,18.2908782958984,18.2918033599854,18.2927131652832,18.2936382293701,18.294548034668,18.2954692840576,18.2963809967041,18.2973003387451,18.2982177734375,18.2991313934326,18.3000507354736,18.3009662628174,18.3018836975098,18.302806854248,18.3037185668945,18.3046398162842,18.3055534362793,18.3064708709717,18.3073883056641,18.3083057403564,18.3092269897461,18.3101444244385,18.3110580444336,18.3119812011719,18.3129043579102,18.3138160705566,18.3147392272949,18.3156566619873,18.3165740966797,18.3174915313721,18.3184089660645,18.3193283081055,18.3202457427979,18.3211708068848,18.3220901489258,18.3230113983154,18.3239269256592,18.3248500823975,18.3257617950439,18.3266830444336,18.3276023864746,18.3285255432129,18.3294448852539,18.3303661346436,18.3312816619873,18.3322105407715,18.3331241607666,18.3340492248535,18.3349628448486,18.3358898162842,18.3368034362793,18.3377265930176,18.3386497497559,18.3395690917969,18.3404922485352,18.3414134979248,18.3423347473145,18.3432540893555,18.3441772460938,18.3450965881348,18.3460159301758,18.34694480896,18.347864151001,18.3487911224365,18.3497085571289,18.3506317138672,18.3515510559082,18.3524780273438,18.3533973693848,18.3543243408203,18.3552379608154,18.3561630249023,18.3570861816406,18.3580131530762,18.3589363098145,18.3598594665527,18.360782623291,18.3617057800293,18.3626251220703,18.3635501861572,18.3644714355469,18.3653964996338,18.3663177490234,18.3672466278076,18.3681735992432,18.3690948486328,18.3700218200684,18.370943069458,18.3718681335449,18.3727893829346,18.3737144470215,18.3746376037598,18.375560760498,18.3764896392822,18.3774127960205,18.3783397674561,18.3792629241943,18.3801898956299,18.3811130523682,18.3820381164551,18.382963180542,18.3838882446289,18.3848114013672,18.3857364654541,18.3866653442383,18.3875961303711,18.3885154724121,18.3894462585449,18.3903675079346,18.391300201416,18.3922176361084,18.3931503295898,18.3940696716309,18.3949966430664,18.3959312438965,18.3968524932861,18.3977794647217,18.3987083435059,18.3996334075928,18.400562286377,18.4014854431152,18.4024124145508,18.4033451080322,18.4042720794678,18.4052028656006,18.4061279296875,18.4070529937744,18.4079837799072,18.4089069366455,18.4098415374756,18.4107627868652,18.411693572998,18.4126243591309,18.4135475158691,18.4144840240479,18.415412902832,18.4163360595703,18.4172668457031,18.4181938171387,18.4191246032715,18.4200496673584,18.4209785461426,18.421911239624,18.4228401184082,18.4237747192383,18.4247016906738,18.4256286621094,18.4265632629395,18.4274883270264,18.4284229278564,18.4293479919434,18.4302806854248,18.4312114715576,18.4321384429932,18.4330768585205,18.4340000152588,18.4349308013916,18.435863494873,18.4367923736572,18.43772315979,18.4386558532715,18.4395866394043,18.4405136108398,18.4414482116699,18.4423866271973,18.4433155059814,18.4442443847656,18.4451808929443,18.4461078643799,18.4470367431641,18.4479694366455,18.4489059448242,18.4498310089111,18.4507617950439,18.4516944885254,18.4526329040527,18.4535598754883,18.4544925689697,18.4554271697998,18.4563598632812,18.4572925567627,18.4582233428955,18.4591541290283,18.4600925445557,18.4610252380371,18.4619617462158,18.462890625,18.4638233184814,18.4647617340088,18.465690612793,18.466625213623,18.4675636291504,18.4684925079346,18.4694290161133,18.4703636169434,18.4713001251221,18.4722309112549,18.4731674194336,18.4741020202637,18.4750385284424,18.4759712219238,18.4769096374512,18.477840423584,18.4787750244141,18.4797077178955,18.4806461334229,18.4815769195557,18.4825210571289,18.4834518432617,18.4843902587891,18.4853191375732,18.4862613677979,18.487190246582,18.488130569458,18.4890651702881,18.4900054931641,18.4909400939941,18.4918785095215,18.4928131103516,18.4937515258789,18.4946899414062,18.4956245422363,18.4965629577637,18.4974956512451,18.4984302520752,18.4993705749512,18.5003147125244,18.5012474060059,18.5021839141846,18.5031223297119,18.504056930542,18.5049953460693,18.5059299468994,18.5068702697754,18.5078105926514,18.5087490081787,18.5096893310547,18.510627746582,18.5115642547607,18.5125026702881,18.5134410858154,18.5143775939941,18.5153179168701,18.5162544250488,18.5171947479248,18.5181350708008,18.519079208374,18.5200157165527,18.5209522247314,18.5218925476074,18.5228309631348,18.5237712860107,18.5247077941895,18.5256481170654,18.52659034729,18.5275287628174,18.5284748077393,18.5294132232666,18.5303554534912,18.5312919616699,18.5322341918945,18.5331707000732,18.5341148376465,18.5350513458252,18.5359935760498,18.5369300842285,18.5378761291504,18.5388202667236,18.539758682251,18.5407028198242,18.5416412353516,18.5425834655762,18.5435237884521,18.5444641113281,18.54541015625,18.5463447570801,18.5472946166992,18.5482368469238,18.5491790771484,18.5501194000244,18.551061630249,18.5520038604736,18.5529460906982,18.5538864135742,18.5548305511475,18.5557689666748,18.5567169189453,18.5576629638672,18.5586032867432,18.5595474243164,18.560489654541,18.5614337921143,18.5623760223389,18.5633201599121,18.5642642974854,18.5652084350586,18.5661544799805,18.5670967102051,18.568042755127,18.5689849853516,18.5699329376221,18.5708713531494,18.5718173980713,18.5727615356445,18.5737037658691,18.5746536254883,18.5756015777588,18.5765438079834,18.5774879455566,18.5784339904785,18.5793743133545,18.580322265625,18.5812721252441,18.5822124481201,18.583158493042,18.5841026306152,18.5850505828857,18.5859966278076,18.5869445800781,18.5878887176514,18.5888347625732,18.5897789001465,18.590726852417,18.5916709899902,18.5926170349121,18.5935688018799,18.5945167541504,18.5954608917236,18.5964126586914,18.5973529815674,18.5983047485352,18.5992450714111,18.6002006530762,18.6011409759521,18.6020908355713,18.6030368804932,18.6039867401123,18.6049327850342,18.605884552002,18.6068305969238,18.6077766418457,18.6087226867676,18.6096744537354,18.6106243133545,18.611572265625,18.6125183105469,18.6134700775146,18.6144161224365,18.6153717041016,18.6163139343262,18.6172657012939,18.6182174682617,18.6191635131836,18.6201133728027,18.6210651397705,18.6220111846924,18.6229648590088,18.6239128112793,18.6248645782471,18.6258125305176,18.6267623901367,18.6277122497559,18.628662109375,18.6296100616455,18.6305656433105,18.6315116882324,18.6324615478516,18.6334133148193,18.6343688964844,18.6353149414062,18.6362724304199,18.6372146606445,18.6381683349609,18.6391201019287,18.6400699615479,18.641019821167,18.641975402832,18.6429290771484,18.6438827514648,18.644832611084,18.6457862854004,18.6467361450195,18.6476860046387,18.6486377716064,18.6495876312256,18.6505451202393,18.651496887207,18.6524486541748,18.6534061431885,18.654354095459,18.6553134918213,18.6562595367432,18.6572132110596,18.658166885376,18.659122467041,18.6600704193115,18.6610260009766,18.6619815826416,18.662935256958,18.6638870239258,18.6648426055908,18.6657943725586,18.666748046875,18.6677074432373,18.6686611175537,18.6696090698242,18.6705684661865,18.6715259552002,18.6724796295166,18.6734352111816,18.674388885498,18.6753425598145,18.6763000488281,18.6772575378418,18.6782073974609,18.6791591644287,18.680118560791,18.681079864502,18.6820373535156,18.6829891204834,18.6839427947998,18.6848983764648,18.6858539581299,18.6868133544922,18.6877689361572,18.688720703125,18.6896781921387,18.6906394958496,18.6915950775146,18.6925506591797,18.6935119628906,18.6944637298584,18.6954231262207,18.6963787078857
18.0539054870605,18.0547981262207,18.0556945800781,18.0565814971924,18.0574741363525,18.0583686828613,18.0592594146729,18.0601577758789,18.0610504150391,18.0619449615479,18.0628414154053,18.0637264251709,18.064624786377,18.0655117034912,18.0664100646973,18.0672988891602,18.0681972503662,18.069091796875,18.0699882507324,18.0708827972412,18.07177734375,18.0726718902588,18.0735702514648,18.0744533538818,18.0753593444824,18.0762500762939,18.0771408081055,18.0780391693115,18.0789375305176,18.0798282623291,18.0807285308838,18.081615447998,18.0825176239014,18.0834083557129,18.0843086242676,18.0852012634277,18.0860958099365,18.0869941711426,18.0878944396973,18.0887813568115,18.0896797180176,18.0905799865723,18.0914745330811,18.0923748016357,18.0932712554932,18.0941619873047,18.0950622558594,18.0959568023682,18.0968532562256,18.0977535247803,18.0986499786377,18.0995445251465,18.1004390716553,18.1013412475586,18.1022357940674,18.1031341552734,18.1040306091309,18.1049308776855,18.1058311462402,18.1067218780518,18.1076202392578,18.1085243225098,18.1094207763672,18.1103115081787,18.1112117767334,18.1121120452881,18.1130104064941,18.1139068603516,18.1148128509521,18.1157112121582,18.116605758667,18.1175022125244,18.1184024810791,18.1193027496338,18.1201972961426,18.1210975646973,18.121997833252,18.1228942871094,18.1237983703613,18.1246967315674,18.1256008148193,18.1264953613281,18.1273975372314,18.1282958984375,18.1291923522949,18.1300926208496,18.1309947967529,18.131893157959,18.1328029632568,18.1336975097656,18.1346015930176,18.1355018615723,18.1363983154297,18.137300491333,18.1382026672363,18.1390991210938,18.1400012969971,18.1409034729004,18.141809463501,18.1427059173584,18.1436100006104,18.1445045471191,18.1454105377197,18.1463146209717,18.1472129821777,18.1481170654297,18.1490154266357,18.1499195098877,18.1508235931396,18.1517238616943,18.152624130249,18.153528213501,18.1544361114502,18.1553344726562,18.1562366485596,18.1571388244629,18.1580410003662,18.1589469909668,18.1598491668701,18.1607494354248,18.161657333374,18.1625576019287,18.1634654998779,18.1643676757812,18.1652698516846,18.1661701202393,18.1670780181885,18.1679763793945,18.1688861846924,18.1697902679443,18.1706943511963,18.1715965270996,18.1725025177002,18.1734046936035,18.1743087768555,18.1752109527588,18.176118850708,18.17702293396,18.1779327392578,18.1788330078125,18.1797428131104,18.180643081665,18.1815547943115,18.1824512481689,18.1833610534668,18.1842670440674,18.1851673126221,18.1860733032227,18.1869812011719,18.1878871917725,18.188793182373,18.189697265625,18.1906051635742,18.1915092468262,18.1924152374268,18.1933193206787,18.1942348480225,18.1951351165771,18.1960430145264,18.1969509124756,18.1978588104248,18.198766708374,18.199670791626,18.2005805969238,18.2014827728271,18.2023887634277,18.2033023834229,18.2042007446289,18.205114364624,18.2060222625732,18.2069320678711,18.2078380584717,18.2087478637695,18.2096519470215,18.2105617523193,18.2114677429199,18.2123756408691,18.2132873535156,18.2141933441162,18.2151069641113,18.2160148620605,18.2169189453125,18.2178325653076,18.2187385559082,18.2196502685547,18.220552444458,18.2214660644531,18.2223739624023,18.2232818603516,18.2241973876953,18.2251071929932,18.226016998291,18.2269229888916,18.2278308868408,18.2287406921387,18.2296485900879,18.2305679321289,18.2314739227295,18.232385635376,18.2332954406738,18.2342052459717,18.2351131439209,18.2360305786133,18.2369365692139,18.2378520965576,18.2387580871582,18.2396717071533,18.2405776977539,18.2414932250977,18.2424030303955,18.2433166503906,18.2442283630371,18.2451419830322,18.2460517883301,18.2469635009766,18.2478771209717,18.2487869262695,18.249698638916,18.2506103515625,18.2515258789062,18.2524356842041,18.253345489502,18.2542629241943,18.2551708221436,18.25608253479,18.2569980621338,18.2579097747803,18.2588195800781,18.2597370147705,18.2606506347656,18.2615661621094,18.2624740600586,18.2633895874023,18.2643013000488,18.2652149200439,18.2661285400391,18.2670440673828,18.2679576873779,18.2688694000244,18.2697811126709,18.2707004547119,18.2716121673584,18.2725257873535,18.2734432220459,18.2743549346924,18.2752742767334,18.2761859893799,18.277099609375,18.2780113220215,18.2789287567139,18.2798461914062,18.2807636260986,18.2816734313965,18.2825870513916,18.2835063934326,18.2844181060791,18.2853355407715,18.2862510681152,18.287166595459,18.2880783081055,18.2890014648438,18.2899131774902,18.2908363342285,18.2917518615723,18.2926654815674,18.293586730957,18.2944984436035,18.2954120635986,18.2963275909424,18.2972507476807,18.2981662750244,18.2990875244141,18.2999973297119,18.3009166717529,18.3018341064453,18.3027515411377,18.3036689758301,18.3045864105225,18.3055038452148,18.3064212799072,18.307336807251,18.3082618713379,18.3091773986816,18.310094833374,18.3110084533691,18.3119297027588,18.3128452301025,18.3137683868408,18.3146820068359,18.3156032562256,18.3165225982666,18.3174381256104,18.318359375,18.3192806243896,18.3201999664307,18.3211212158203,18.3220291137695,18.3229522705078,18.3238677978516,18.3247890472412,18.3257141113281,18.3266334533691,18.3275527954102,18.3284778594971,18.3293933868408,18.3303127288818,18.3312339782715,18.3321514129639,18.3330745697021,18.3339958190918,18.3349151611328,18.3358383178711,18.3367595672607,18.3376770019531,18.3385982513428,18.3395214080811,18.3404445648193,18.3413639068604,18.3422832489014,18.3432064056396,18.3441257476807,18.3450469970703,18.3459663391113,18.3468952178955,18.3478107452393,18.3487319946289,18.3496589660645,18.3505802154541,18.3514957427979,18.3524227142334,18.3533420562744,18.3542709350586,18.355188369751,18.3561153411865,18.3570384979248,18.3579635620117,18.3588790893555,18.3598041534424,18.360725402832,18.3616504669189,18.3625717163086,18.3635025024414,18.3644218444824,18.3653450012207,18.3662662506104,18.3671951293945,18.3681144714355,18.3690433502197,18.369966506958,18.370885848999,18.3718128204346,18.3727397918701,18.373664855957,18.3745861053467,18.3755111694336,18.3764400482178,18.3773555755615,18.3782844543457,18.3792095184326,18.3801326751709,18.3810577392578,18.3819904327393,18.3829154968262,18.3838386535645,18.3847618103027,18.385684967041,18.3866138458252,18.3875370025635,18.3884582519531,18.3893909454346,18.3903141021729,18.3912487030029,18.3921718597412,18.3931007385254,18.394021987915,18.3949489593506,18.3958759307861,18.3968067169189,18.3977317810059,18.3986530303955,18.3995761871338,18.4005107879639,18.401439666748,18.4023628234863,18.4032897949219,18.4042224884033,18.4051494598389,18.4060726165771,18.4070014953613,18.4079303741455,18.4088592529297,18.4097900390625,18.4107131958008,18.4116477966309,18.4125747680664,18.413501739502,18.4144268035889,18.4153594970703,18.4162883758545,18.41721534729,18.418140411377,18.419075012207,18.4200019836426,18.4209308624268,18.4218559265137,18.4227924346924,18.4237194061279,18.4246482849121,18.4255771636963,18.4265079498291,18.427433013916,18.428373336792,18.4292964935303,18.430233001709,18.4311580657959,18.4320888519287,18.4330196380615,18.433952331543,18.4348754882812,18.4358081817627,18.4367408752441,18.4376773834229,18.4386043548584,18.4395351409912,18.4404621124268,18.4413986206055,18.4423332214355,18.4432621002197,18.4441909790039,18.445125579834,18.4460525512695,18.4469890594482,18.4479236602783,18.4488506317139,18.4497852325439,18.4507122039795,18.4516448974609,18.4525814056396,18.4535026550293,18.454439163208,18.4553718566895,18.4563064575195,18.4572410583496,18.4581756591797,18.4591026306152,18.4600391387939,18.460973739624,18.4619083404541,18.4628372192383,18.4637756347656,18.4647045135498,18.4656352996826,18.4665775299072,18.4675102233887,18.4684448242188,18.4693775177002,18.4703102111816,18.4712448120117,18.4721775054932,18.4731140136719,18.474048614502,18.4749851226807,18.4759178161621,18.4768524169922,18.477783203125,18.4787273406982,18.4796581268311,18.4805927276611,18.4815273284912,18.4824657440186,18.4833946228027,18.4843368530273,18.4852714538574,18.4862060546875,18.4871425628662,18.4880828857422,18.489013671875,18.4899482727051,18.4908847808838,18.4918231964111,18.4927597045898,18.4936962127686,18.4946346282959,18.495569229126,18.4965076446533,18.4974460601807,18.4983806610107,18.4993171691895,18.5002517700195,18.5011920928955,18.5021286010742,18.5030689239502,18.5040073394775
17.8744640350342,17.8753395080566,17.8762111663818,17.8770904541016,17.8779697418213,17.8788394927979,17.8797130584717,17.8805904388428,17.8814659118652,17.8823356628418,17.8832149505615,17.8840866088867,17.8849658966064,17.8858432769775,17.8867263793945,17.8875980377197,17.8884792327881,17.8893489837646,17.8902225494385,17.8911018371582,17.891975402832,17.8928546905518,17.8937358856201,17.8946151733398,17.8954887390137,17.8963603973389,17.8972434997559,17.898120880127,17.898998260498,17.8998756408691,17.9007530212402,17.9016304016113,17.9025039672852,17.9033851623535,17.9042682647705,17.9051418304443,17.9060153961182,17.9068946838379,17.9077758789062,17.9086494445801,17.9095325469971,17.9104080200195,17.9112892150879,17.9121646881104,17.9130477905273,17.9139194488525,17.9148044586182,17.9156856536865,17.9165573120117,17.9174365997314,17.9183197021484,17.9191932678223,17.9200763702393,17.9209518432617,17.9218368530273,17.9227180480957,17.9235954284668,17.9244709014893,17.9253540039062,17.9262351989746,17.9271125793457,17.9279899597168,17.9288749694824,17.9297504425049,17.9306411743164,17.9315166473389,17.9324016571045,17.9332714080811,17.9341583251953,17.9350395202637,17.9359264373779,17.9367961883545,17.9376792907715,17.9385566711426,17.9394493103027,17.9403285980225,17.9412059783936,17.9420909881592,17.9429702758789,17.9438457489014,17.9447326660156,17.9456176757812,17.946496963501,17.9473819732666,17.9482688903809,17.949146270752,17.9500274658203,17.9509048461914,17.9517917633057,17.9526710510254,17.9535522460938,17.954439163208,17.9553260803223,17.9561977386475,17.9570922851562,17.957971572876,17.958854675293,17.9597396850586,17.960620880127,17.9615001678467,17.9623870849609,17.9632682800293,17.9641571044922,17.9650382995605,17.9659271240234,17.9668064117432,17.9676914215088,17.9685707092285,17.9694595336914,17.9703407287598,17.9712257385254,17.9721050262451,17.9729957580566,17.973876953125,17.9747657775879,17.9756488800049,17.9765338897705,17.9774208068848,17.9783058166504,17.9791889190674,17.980073928833,17.9809589385986,17.9818439483643,17.9827289581299,17.9836196899414,17.9845066070557,17.9853897094727,17.9862728118896,17.9871616363525,17.9880428314209,17.9889335632324,17.9898128509521,17.9907054901123,17.9915904998779,17.9924793243408,17.9933662414551,17.9942569732666,17.9951343536377,17.9960250854492,17.9969100952148,17.9977970123291,17.9986820220947,17.999568939209,18.0004539489746,18.0013484954834,18.002233505249,18.0031261444092,18.0040111541748,18.0048980712891,18.0057849884033,18.0066719055176,18.0075607299805,18.0084457397461,18.0093364715576,18.0102214813232,18.0111179351807,18.0120010375977,18.0128898620605,18.0137786865234,18.014669418335,18.0155601501465,18.0164451599121,18.0173358917236,18.0182228088379,18.0191116333008,18.019998550415,18.0208950042725,18.0217819213867,18.022668838501,18.0235557556152,18.024450302124,18.0253353118896,18.0262298583984,18.0271148681641,18.0280094146729,18.0289001464844,18.0297870635986,18.0306758880615,18.0315685272217,18.0324592590332,18.0333461761475,18.034236907959,18.0351276397705,18.036018371582,18.0369091033936,18.0378036499023,18.0386943817139,18.0395832061768,18.0404739379883,18.0413627624512,18.0422630310059,18.0431461334229,18.044038772583,18.0449314117432,18.0458202362061,18.0467128753662,18.0476112365723,18.0485038757324,18.0493927001953,18.0502834320068,18.0511798858643,18.0520668029785,18.0529594421387,18.0538520812988,18.0547466278076,18.055643081665,18.0565357208252,18.0574264526367,18.0583209991455,18.0592098236084,18.0601043701172,18.0610008239746,18.0618915557861,18.0627822875977,18.0636806488037,18.0645751953125,18.0654678344727,18.0663623809814,18.067253112793,18.0681476593018,18.0690441131592,18.0699310302734,18.0708293914795,18.0717239379883,18.0726184844971,18.0735130310059,18.074405670166,18.0753002166748,18.0761966705322,18.0770893096924,18.0779914855957,18.0788822174072,18.079776763916,18.0806694030762,18.0815677642822,18.0824661254883,18.0833625793457,18.0842571258545,18.0851535797119,18.0860481262207,18.0869388580322,18.0878391265869,18.0887355804443,18.0896282196045,18.0905246734619,18.0914211273193,18.0923175811768,18.0932159423828,18.0941104888916,18.0950088500977,18.0959014892578,18.0968055725098,18.0977020263672,18.098596572876,18.0994911193848,18.1003875732422,18.1012859344482,18.1021900177002,18.1030807495117,18.1039848327637,18.1048755645752,18.1057758331299,18.10666847229,18.1075706481934,18.1084671020508,18.1093692779541,18.1102657318115,18.1111640930176,18.1120643615723,18.1129627227783,18.1138610839844,18.1147594451904,18.1156539916992,18.1165561676025,18.1174488067627,18.1183490753174,18.1192493438721,18.120153427124,18.1210498809814,18.1219463348389,18.1228485107422,18.123743057251,18.1246452331543,18.1255493164062,18.1264419555664,18.1273460388184,18.128246307373,18.1291465759277,18.1300468444824,18.1309471130371,18.1318473815918,18.1327495574951,18.1336498260498,18.1345481872559,18.1354484558105,18.136344909668,18.1372528076172,18.1381511688232,18.1390552520752,18.1399555206299,18.1408500671387,18.1417579650879,18.1426525115967,18.1435604095459,18.1444549560547,18.1453590393066,18.14626121521,18.1471652984619,18.1480674743652,18.1489715576172,18.149866104126,18.1507720947266,18.1516704559326,18.1525726318359,18.1534748077393,18.1543846130371,18.1552829742432,18.1561908721924,18.1570911407471,18.1579933166504,18.1588916778564,18.1598014831543,18.1606998443604,18.1616058349609,18.162504196167,18.1634101867676,18.1643142700195,18.1652240753174,18.1661205291748,18.1670265197754,18.1679286956787,18.1688365936279,18.1697368621826,18.1706428527832,18.1715450286865,18.1724510192871,18.1733531951904,18.1742630004883,18.175163269043,18.1760692596436,18.1769695281982,18.1778793334961,18.1787815093994,18.1796913146973,18.180591583252,18.1815013885498,18.1823978424072,18.1833095550537,18.1842155456543,18.1851234436035,18.1860237121582,18.1869297027588,18.1878337860107,18.1887435913086,18.1896457672119,18.1905536651611,18.1914596557617,18.1923732757568,18.1932754516602,18.1941814422607,18.1950855255127,18.1959972381592,18.1968994140625,18.1978054046631,18.1987152099609,18.1996173858643,18.2005271911621,18.2014389038086,18.2023410797119,18.2032508850098,18.204158782959,18.2050628662109,18.2059669494629,18.2068786621094,18.2077865600586,18.2086944580078,18.2096004486084,18.2105159759521,18.2114219665527,18.2123279571533,18.2132358551025,18.2141418457031,18.2150554656982,18.2159633636475,18.216869354248,18.2177829742432,18.2186832427979,18.219596862793,18.2205085754395,18.2214221954346,18.2223243713379,18.223237991333,18.2241439819336,18.2250499725342,18.2259578704834,18.2268695831299,18.2277774810791,18.2286968231201,18.2296047210693,18.2305164337158,18.231424331665,18.2323322296143,18.2332401275635,18.2341556549072,18.2350635528564,18.2359733581543,18.2368850708008,18.2377986907959,18.2387104034424,18.2396202087402,18.2405319213867,18.2414417266846,18.2423515319824,18.2432651519775,18.244176864624,18.2450828552246,18.2459945678711,18.2469158172607,18.2478256225586,18.2487373352051,18.2496471405029,18.2505588531494,18.2514686584473,18.2523860931396,18.2532939910889,18.254207611084,18.2551193237305,18.2560386657715,18.2569484710693,18.2578620910645,18.2587699890137,18.2596855163574,18.2605953216553,18.261510848999,18.2624225616455,18.2633380889893,18.2642498016357,18.2651596069336,18.2660789489746,18.2669944763184,18.2679042816162,18.2688179016113,18.2697296142578,18.2706508636475,18.2715606689453,18.2724742889404,18.2733860015869,18.2743053436279,18.275218963623,18.2761344909668,18.2770500183105,18.277961730957,18.2788791656494,18.2797985076904,18.280704498291,18.281623840332,18.2825393676758,18.2834529876709,18.284366607666,18.285285949707,18.2861995697021,18.2871170043945,18.2880325317383,18.2889518737793,18.2898635864258,18.2907791137695,18.2916927337646,18.2926139831543,18.2935314178467,18.2944469451904,18.2953643798828,18.2962799072266,18.2971954345703,18.2981109619141,18.2990283966064,18.2999477386475,18.3008651733398,18.3017768859863,18.3027019500732,18.3036193847656,18.3045330047607,18.3054523468018,18.3063697814941,18.3072872161865,18.3082027435303,18.309118270874,18.3100414276123,18.3109588623047,18.3118801116943,18.3127975463867,18.3137149810791,18.3146305084229,18.3155517578125
