0,0,0,0,0,0,0,0,0,0,0,0,0,0,0,0,0,0,0,0,0,0,0,0,0,0,0,0,0,0,0,0,0,0,0,0,0,0,0,0,0,0,0,0,0,0,0,0,0,0,0,0,0,0,0,0,0,0,0,0,0,0,0,0,0,0,0,0,0,0,0,0,0,0,0,0,0,0,0,0,0,0,0,0,0,0,0,0,0,0,0,0,0,0,0,0,0,0,0,0,0,0,0,0,0,0,0,0,0,0,0,0,0,0,0,0,0,0,0,0,0,0,0,0,0,0,0,0,0,0,0,0,0,0,0,0,0,0,0,0,0,0,0,0,0,0,0,0,0,0,0,0,0,0,0,0,0,0,0,0,0,0,0,0,0,0,0,0,0,0,0,0,0,0,0,0,0,0,0,0,0,0,0,0,0,0,0,0,0,0,0,0,0,0,0,0,0,0,0,0,0,0,0,0,0,0,0,0,0,0,0,0,0,0,0,0,0,0,0,0,0,0,0,0,0,0,0,0,0,0,0,0,0,0,0,0,0,0,0,0,0,0,0,0,0,0,0,0,0,0,0,0,0,0,0,0,0,0,0,0,0,0,0,0,0,0,0,0,0,0,0,0,0,0,0,0,0,0,0,0,0,0,0,0,0,0,0,0,0,0,0,0,0,0,0,0,0,0,0,0,0,0,0,0,0,0,0,0,0,0,0,0,0,0,0,0,0,0,0,0,0,0,0,0,0,0,0,0,0,0,0,0,0,0,0,0,0,0,0,0,0,0,0,0,0,0,0,0,0,0,0,0,0,0,0,0,0,0,0,0,0,0,0,0,0,0,0,0,0,0,0,0,0,0,0,0,0,0,0,0,0,0,0,0,0,0,0,0,0,0,0,0,0,0,0,0,0,0,0,0,0,0,0,0,0,0,0,0,0,0,0,0,0,0,0,0,0,0,0,0,0,0,0,0,0,0,0,0,0,0,0,0,0,0,0,0,0,0,0,0,0,0,0,0,0,0,0,0,0,0,0,0,0,0,0,0,0,0,0,0,0,0,0,0,0,0,0,0,0,0,0,0,0,0,0,0,0,0,0,0,0,0,0,0,0,0,0,0,0,0,0,0,0,0,0,0,0,0,0,0,0,0,0,0,0,0,0,0,0,0,0
0,0,0,0,0,0,0,0,0,0,0,0,0,0,0,0,0,0,0,0,0,0,0,0,0,0,0,0,0,0,0,0,0,0,0,0,0,0,0,0,0,0,0,0,0,0,0,0,0,0,0,0,0,0,0,0,0,0,0,0,0,0,0,0,0,0,0,0,0,0,0,0,0,0,0,0,0,0,0,0,0,0,0,0,0,0,0,0,0,0,0,0,0,0,0,0,0,0,0,0,0,0,0,0,0,0,0,0,0,0,0,0,0,0,0,0,0,0,0,0,0,0,0,0,0,0,0,0,0,0,0,0,0,0,0,0,0,0,0,0,0,0,0,0,0,0,0,0,0,0,0,0,0,0,0,0,0,0,0,0,0,0,0,0,0,0,0,0,0,0,0,0,0,0,0,0,0,0,0,0,0,0,0,0,0,0,0,0,0,0,0,0,0,0,0,0,0,0,0,0,0,0,0,0,0,0,0,0,0,0,0,0,0,0,0,0,0,0,0,0,0,0,0,0,0,0,0,0,0,0,0,0,0,0,0,0,0,0,0,0,0,0,0,0,0,0,0,0,0,0,0,0,0,0,0,0,0,0,0,0,0,0,0,0,0,0,0,0,0,0,0,0,0,0,0,0,0,0,0,0,0,0,0,0,0,0,0,0,0,0,0,0,0,0,0,0,0,0,0,0,0,0,0,0,0,0,0,0,0,0,0,0,0,0,0,0,0,0,0,0,0,0,0,0,0,0,0,0,0,0,0,0,0,0,0,0,0,0,0,0,0,0,0,0,0,0,0,0,0,0,0,0,0,0,0,0,0,0,0,0,0,0,0,0,0,0,0,0,0,0,0,0,0,0,0,0,0,0,0,0,0,0,0,0,0,0,0,0,0,0,0,0,0,0,0,0,0,0,0,0,0,0,0,0,0,0,0,0,0,0,0,0,0,0,0,0,0,0,0,0,0,0,0,0,0,0,0,0,0,0,0,0,0,0,0,0,0,0,0,0,0,0,0,0,0,0,0,0,0,0,0,0,0,0,0,0,0,0,0,0,0,0,0,0,0,0,0,0,0,0,0,0,0,0,0,0,0,0,0,0,0,0,0,0,0,0,0,0,0,0,0,0,0,0,0,0,0,0,0,0,0,0,0,0,0,0,0,0,0,0,0
0,0,0,0,0,0,0,0,0,0,0,0,0,0,0,0,0,0,0,0,0,0,0,0,0,0,0,0,0,0,0,0,0,0,0,0,0,0,0,0,0,0,0,0,0,0,0,0,0,0,0,0,0,0,0,0,0,0,0,0,0,0,0,0,0,0,0,0,0,0,0,0,0,0,0,0,0,0,0,0,0,0,0,0,0,0,0,0,0,0,0,0,0,0,0,0,0,0,0,0,0,0,0,0,0,0,0,0,0,0,0,0,0,0,0,0,0,0,0,0,0,0,0,0,0,0,0,0,0,0,0,0,0,0,0,0,0,0,0,0,0,0,0,0,0,0,0,0,0,0,0,0,0,0,0,0,0,0,0,0,0,0,0,0,0,0,0,0,0,0,0,0,0,0,0,0,0,0,0,0,0,0,0,0,0,0,0,0,0,0,0,0,0,0,0,0,0,0,0,0,0,0,0,0,0,0,0,0,0,0,0,0,0,0,0,0,0,0,0,0,0,0,0,0,0,0,0,0,0,0,0,0,0,0,0,0,0,0,0,0,0,0,0,0,0,0,0,0,0,0,0,0,0,0,0,0,0,0,0,0,0,0,0,0,0,0,0,0,0,0,0,0,0,0,0,0,0,0,0,0,0,0,0,0,0,0,0,0,0,0,0,0,0,0,0,0,0,0,0,0,0,0,0,0,0,0,0,0,0,0,0,0,0,0,0,0,0,0,0,0,0,0,0,0,0,0,0,0,0,0,0,0,0,0,0,0,0,0,0,0,0,0,0,0,0,0,0,0,0,0,0,0,0,0,0,0,0,0,0,0,0,0,0,0,0,0,0,0,0,0,0,0,0,0,0,0,0,0,0,0,0,0,0,0,0,0,0,0,0,0,0,0,0,0,0,0,0,0,0,0,0,0,0,0,0,0,0,0,0,0,0,0,0,0,0,0,0,0,0,0,0,0,0,0,0,0,0,0,0,0,0,0,0,0,0,0,0,0,0,0,0,0,0,0,0,0,0,0,0,0,0,0,0,0,0,0,0,0,0,0,0,0,0,0,0,0,0,0,0,0,0,0,0,0,0,0,0,0,0,0,0,0,0,0,0,0,0,0,0,0,0,0,0,0,0,0,0,0,0,0,0,0,0,0,0,0,0,0,0,0,0
19.9048957824707,19.9050273895264,19.9051513671875,19.9052848815918,19.9054126739502,19.9055461883545,19.9056816101074,19.9058113098145,19.9059352874756,19.9060726165771,19.9062023162842,19.9063339233398,19.9064674377441,19.9065971374512,19.9067230224609,19.9068584442139,19.9069900512695,19.9071254730225,19.907247543335,19.9073829650879,19.9075126647949,19.9076461791992,19.907772064209,19.9079074859619,19.9080352783203,19.9081649780273,19.908296585083,19.9084300994873,19.9085559844971,19.9086894989014,19.9088230133057,19.9089527130127,19.9090824127197,19.909215927124,19.9093475341797,19.9094772338867,19.9096069335938,19.9097442626953,19.9098701477051,19.9099998474121,19.9101333618164,19.9102668762207,19.9103946685791,19.9105262756348,19.9106616973877,19.9107837677002,19.9109191894531,19.9110546112061,19.9111785888672,19.9113140106201,19.9114456176758,19.9115715026855,19.9117050170898,19.9118404388428,19.9119663238525,19.9121017456055,19.9122276306152,19.9123573303223,19.9124927520752,19.9126262664795,19.9127540588379,19.9128799438477,19.9130153656006,19.9131450653076,19.9132766723633,19.9134082794189,19.9135360717773,19.913667678833,19.9137992858887,19.9139270782471,19.9140605926514,19.9141960144043,19.9143257141113,19.9144535064697,19.9145832061768,19.9147186279297,19.9148483276367,19.9149742126465,19.915111541748,19.9152450561523,19.9153709411621,19.9155025482178,19.9156379699707,19.9157657623291,19.9158935546875,19.9160270690918,19.9161624908447,19.9162979125977,19.9164237976074,19.9165515899658,19.9166831970215,19.916820526123,19.9169464111328,19.9170780181885,19.9172115325928,19.9173450469971,19.9174709320068,19.9176063537598,19.9177341461182,19.9178638458252,19.9179935455322,19.9181289672852,19.9182567596436,19.9183883666992,19.9185199737549,19.9186534881592,19.9187774658203,19.9189109802246,19.9190444946289,19.9191703796387,19.9193058013916,19.9194393157959,19.9195690155029,19.9196968078613,19.919828414917,19.9199638366699,19.9200954437256,19.9202251434326,19.9203548431396,19.9204883575439,19.9206161499023,19.920747756958,19.9208831787109,19.9210090637207,19.921142578125,19.9212741851807,19.9214000701904,19.9215354919434,19.921667098999,19.921802520752,19.9219264984131,19.9220600128174,19.922191619873,19.9223155975342,19.9224491119385,19.9225826263428,19.9227161407471,19.9228515625,19.9229793548584,19.9231147766113,19.9232425689697,19.9233741760254,19.9235038757324,19.9236354827881,19.9237651824951,19.9238967895508,19.9240207672119,19.9241561889648,19.9242877960205,19.9244194030762,19.9245567321777,19.924690246582,19.9248180389404,19.9249439239502,19.9250774383545,19.9252090454102,19.9253463745117,19.9254703521729,19.9256000518799,19.9257335662842,19.9258594512939,19.9259910583496,19.9261264801025,19.9262542724609,19.9263877868652,19.9265232086182,19.9266567230225,19.9267807006836,19.9269123077393,19.9270477294922,19.9271717071533,19.9273052215576,19.9274425506592,19.9275684356689,19.9277019500732,19.9278354644775,19.9279689788818,19.9280967712402,19.9282245635986,19.9283580780029,19.9284839630127,19.9286193847656,19.9287490844727,19.9288864135742,19.929012298584,19.9291477203369,19.9292812347412,19.929407119751,19.9295387268066,19.9296703338623,19.9297962188721,19.9299297332764,19.9300651550293,19.9301948547363,19.9303245544434,19.930456161499,19.9305934906006,19.9307174682617,19.9308471679688,19.9309864044189,19.9311122894287,19.9312381744385,19.9313793182373,19.9315147399902,19.9316387176514,19.931770324707,19.9319000244141,19.9320278167725,19.9321632385254,19.9322948455811,19.9324264526367,19.9325580596924,19.932689666748,19.9328212738037,19.9329490661621,19.9330825805664,19.9332103729248,19.9333438873291,19.933479309082,19.9336071014404,19.933744430542,19.9338684082031,19.9339981079102,19.9341354370117,19.9342651367188,19.9343967437744,19.9345302581787,19.934663772583,19.9347896575928,19.9349212646484,19.9350547790527,19.9351863861084,19.9353160858154,19.9354476928711,19.9355754852295,19.9357109069824,19.9358406066895,19.9359722137451,19.9361038208008,19.9362373352051,19.9363689422607,19.9364967346191,19.9366264343262,19.9367599487305,19.9368896484375,19.9370231628418,19.9371566772461,19.9372882843018,19.9374141693115,19.9375438690186,19.9376792907715,19.9378108978271,19.9379425048828,19.9380722045898,19.9382057189941,19.9383316040039,19.9384651184082,19.9386043548584,19.9387283325195,19.9388599395752,19.9389934539795,19.9391269683838,19.9392528533936,19.9393920898438,19.9395198822021,19.9396457672119,19.9397811889648,19.9399127960205,19.9400463104248,19.9401760101318,19.9403095245361,19.9404392242432,19.9405689239502,19.9407005310059,19.9408340454102,19.9409618377686,19.9410953521729,19.9412269592285,19.9413547515869,19.9414939880371,19.9416217803955,19.9417552947998,19.9418792724609,19.9420146942139,19.9421463012695,19.9422760009766,19.9424076080322,19.9425392150879,19.9426727294922,19.9428062438965,19.9429340362549,19.9430675506592,19.9431953430176,19.9433269500732,19.9434604644775,19.9435920715332,19.9437217712402,19.9438552856445,19.9439868927002,19.9441204071045,19.9442520141602,19.9443817138672,19.944507598877,19.9446411132812,19.9447803497314,19.9449119567871,19.9450359344482,19.9451675415039,19.9453010559082,19.9454326629639,19.9455642700195,19.9456977844238,19.945821762085,19.9459590911865,19.9460906982422,19.9462242126465,19.9463500976562,19.9464817047119,19.9466190338135,19.9467449188232,19.9468784332275,19.9470119476318,19.9471397399902,19.9472694396973,19.9474048614502,19.9475364685059,19.9476699829102,19.9478034973145,19.9479312896729,19.948055267334,19.9481964111328,19.9483261108398,19.9484615325928,19.9485836029053,19.9487190246582,19.9488544464111,19.9489822387695,19.9491138458252,19.9492435455322,19.9493732452393,19.9495086669922,19.9496402740479,19.9497718811035,19.9499073028564,19.9500350952148,19.9501667022705,19.9503002166748,19.9504318237305,19.9505615234375,19.9506931304932,19.9508209228516,19.9509563446045,19.9510898590088,19.9512157440186,19.951343536377,19.9514846801758,19.9516086578369,19.9517440795898,19.9518756866455,19.9520130157471,19.9521350860596,19.9522705078125,19.9524078369141,19.9525318145752,19.9526653289795,19.9527931213379,19.9529266357422,19.9530601501465,19.9531936645508,19.9533233642578,19.9534530639648,19.9535846710205,19.9537162780762,19.9538516998291,19.9539813995361,19.9541168212891,19.9542446136475,19.9543762207031,19.9545078277588,19.9546394348145,19.9547729492188,19.9549007415771,19.9550323486328,19.9551620483398,19.9552974700928,19.9554290771484,19.9555606842041,19.9556922912598,19.9558219909668,19.9559574127197,19.9560832977295,19.9562187194824,19.9563503265381,19.9564819335938,19.956615447998,19.9567470550537,19.956880569458,19.9570083618164,19.9571399688721,19.9572734832764,19.9573974609375,19.9575366973877,19.9576625823975,19.957799911499,19.9579315185547,19.9580631256104,19.958194732666,19.9583263397217,19.9584560394287,19.9585876464844,19.9587173461914,19.958854675293,19.958984375,19.959114074707,19.9592475891113,19.9593753814697,19.9595108032227,19.9596424102783,19.9597702026367,19.9599018096924,19.960033416748,19.9601669311523,19.960298538208,19.9604320526123,19.9605579376221,19.9606895446777,19.9608249664307,19.9609565734863,19.961088180542,19.9612159729004,19.961353302002,19.9614810943604,19.9616146087646,19.9617500305176,19.9618740081787,19.9620132446289,19.9621429443359,19.9622745513916,19.9624080657959,19.9625396728516,19.9626693725586,19.9628028869629,19.9629344940186,19.9630641937256,19.9631958007812,19.9633274078369,19.9634590148926,19.9635887145996,19.9637222290039,19.9638519287109,19.9639873504639,19.9641151428223,19.9642467498779,19.9643840789795,19.9645099639893,19.9646415710449,19.9647789001465,19.9649085998535,19.9650344848633,19.9651737213135,19.9653072357178,19.9654350280762,19.9655666351318,19.9657001495361,19.9658298492432,19.9659633636475,19.9660892486572,19.9662284851074,19.9663543701172,19.9664859771729,19.9666233062744,19.9667510986328,19.9668769836426,19.9670143127441,19.9671497344971,19.9672813415527,19.9674129486084,19.9675388336182,19.9676723480225,19.9678058624268,19.9679374694824,19.968074798584,19.9681949615479,19.9683284759521,19.9684677124023,19.9685916900635,19.968729019165,19.968864440918,19.9689922332764,19.9691219329834,19.9692554473877,19.969388961792,19.969518661499,19.9696483612061,19.9697875976562,19.9699115753174,19.9700489044189,19.9701805114746,19.9703102111816,19.9704437255859,19.970573425293,19.9707069396973,19.9708366394043,19.9709663391113,19.9711036682129,19.9712314605713,19.9713592529297,19.9714984893799,19.9716320037842,19.9717597961426,19.9718894958496
19.684326171875,19.6844635009766,19.6845893859863,19.6847152709961,19.6848468780518,19.6849689483643,19.6851024627686,19.6852226257324,19.6853580474854,19.6854858398438,19.6856098175049,19.6857395172119,19.6858692169189,19.6860008239746,19.6861228942871,19.6862545013428,19.6863822937012,19.6865081787109,19.686637878418,19.6867656707764,19.6868934631348,19.6870155334473,19.6871509552002,19.6872787475586,19.6874084472656,19.6875324249268,19.6876640319824,19.6877880096436,19.6879177093506,19.6880493164062,19.688175201416,19.6883010864258,19.6884269714355,19.6885623931885,19.6886825561523,19.6888160705566,19.6889457702637,19.6890678405762,19.6891975402832,19.6893272399902,19.6894588470459,19.6895885467529,19.6897125244141,19.6898403167725,19.6899642944336,19.690092086792,19.6902313232422,19.6903457641602,19.6904811859131,19.6906089782715,19.6907424926758,19.6908645629883,19.6909961700439,19.6911201477051,19.6912498474121,19.6913757324219,19.6915054321289,19.6916389465332,19.6917572021484,19.6918907165527,19.6920185089111,19.6921443939209,19.6922721862793,19.692403793335,19.6925296783447,19.6926593780518,19.6927890777588,19.6929206848145,19.6930503845215,19.6931705474854,19.693302154541,19.6934261322021,19.6935539245605,19.6936874389648,19.6938133239746,19.693941116333,19.69407081604,19.6942024230957,19.6943244934082,19.6944561004639,19.694580078125,19.694709777832,19.6948356628418,19.6949729919434,19.6950969696045,19.6952247619629,19.6953506469727,19.695484161377,19.6956043243408,19.6957397460938,19.6958618164062,19.6959953308105,19.696117401123,19.6962490081787,19.6963787078857,19.6965026855469,19.6966285705566,19.6967639923096,19.6968841552734,19.6970176696777,19.6971435546875,19.6972789764404,19.6973972320557,19.6975326538086,19.697660446167,19.6977844238281,19.6979122161865,19.6980438232422,19.6981735229492,19.6982975006104,19.6984348297119,19.6985569000244,19.6986865997314,19.6988143920898,19.6989459991455,19.6990661621094,19.6992015838623,19.6993236541748,19.6994571685791,19.6995811462402,19.6997108459473,19.6998405456543,19.6999664306641,19.7000904083252,19.7002258300781,19.7003536224365,19.7004795074463,19.7006034851074,19.7007389068604,19.7008666992188,19.7009925842285,19.7011280059814,19.7012500762939,19.701379776001,19.7015018463135,19.7016410827637,19.7017574310303,19.7018947601318,19.7020149230957,19.7021465301514,19.702278137207,19.7024059295654,19.7025337219238,19.7026538848877,19.7027893066406,19.7029190063477,19.7030467987061,19.7031707763672,19.7033061981201,19.7034282684326,19.703556060791,19.7036914825439,19.7038097381592,19.7039432525635,19.7040691375732,19.7042026519775,19.7043304443359,19.7044582366943,19.7045841217041,19.7047100067139,19.7048435211182,19.7049674987793,19.7051048278809,19.7052211761475,19.705358505249,19.7054786682129,19.7056102752686,19.7057437896729,19.7058696746826,19.7059955596924,19.7061176300049,19.7062530517578,19.7063808441162,19.7065086364746,19.7066402435303,19.7067642211914,19.7068920135498,19.7070178985596,19.7071533203125,19.7072792053223,19.7074069976807,19.707540512085,19.7076663970947,19.7077922821045,19.7079277038574,19.7080535888672,19.7081756591797,19.7083053588867,19.7084350585938,19.7085647583008,19.7086906433105,19.7088222503662,19.7089462280273,19.709077835083,19.7092018127441,19.7093353271484,19.7094650268555,19.7095851898193,19.7097187042236,19.709846496582,19.7099761962891,19.7101058959961,19.7102298736572,19.7103595733643,19.7104816436768,19.710620880127,19.7107467651367,19.7108707427979,19.7110042572021,19.7111301422119,19.7112579345703,19.7113933563232,19.711519241333,19.7116413116455,19.7117729187012,19.7119007110596,19.7120304107666,19.7121543884277,19.7122859954834,19.7124118804932,19.7125434875488,19.7126750946045,19.7128009796143,19.7129306793213,19.7130565643311,19.7131824493408,19.7133197784424,19.7134456634521,19.7135696411133,19.7136993408203,19.7138214111328,19.7139530181885,19.7140865325928,19.7142162322998,19.7143383026123,19.7144718170166,19.714599609375,19.7147254943848,19.7148513793945,19.7149810791016,19.71510887146,19.7152366638184,19.7153701782227,19.7155017852783,19.7156219482422,19.7157535552979,19.7158794403076,19.716007232666,19.7161407470703,19.7162666320801,19.7163963317871,19.7165260314941,19.7166519165039,19.7167835235596,19.716911315918,19.7170333862305,19.7171669006348,19.7172946929932,19.7174205780029,19.7175521850586,19.7176818847656,19.7178039550781,19.7179355621338,19.7180652618408,19.7181930541992,19.7183227539062,19.718448638916,19.7185802459717,19.7187080383301,19.7188339233398,19.7189674377441,19.7190914154053,19.7192192077637,19.7193508148193,19.7194786071777,19.7196102142334,19.7197380065918,19.7198677062988,19.7199935913086,19.720121383667,19.7202529907227,19.7203807830811,19.7205047607422,19.7206382751465,19.7207622528076,19.7208919525146,19.7210235595703,19.7211475372314,19.7212753295898,19.7214069366455,19.7215347290039,19.7216606140137,19.7217960357666,19.721923828125,19.7220497131348,19.7221775054932,19.7223091125488,19.7224369049072,19.7225608825684,19.722692489624,19.7228183746338,19.7229461669922,19.7230777740479,19.723201751709,19.7233352661133,19.723461151123,19.723596572876,19.7237205505371,19.7238483428955,19.7239799499512,19.7241039276123,19.7242374420166,19.724365234375,19.7244911193848,19.7246208190918,19.7247467041016,19.7248783111572,19.7250061035156,19.7251358032227,19.7252635955811,19.7253894805908,19.7255210876465,19.7256507873535,19.7257766723633,19.7259082794189,19.7260322570801,19.7261638641357,19.7262897491455,19.7264194488525,19.7265510559082,19.7266731262207,19.7268085479736,19.7269344329834,19.7270660400391,19.7271938323975,19.72731590271,19.7274475097656,19.7275772094727,19.7277069091797,19.7278327941895,19.7279682159424,19.7280902862549,19.7282180786133,19.7283515930176,19.7284774780273,19.7286014556885,19.7287349700928,19.7288646697998,19.7289924621582,19.7291202545166,19.7292518615723,19.7293815612793,19.7294998168945,19.7296352386475,19.7297649383545,19.7298946380615,19.7300186157227,19.7301502227783,19.7302837371826,19.7304096221924,19.7305355072021,19.7306690216064,19.7307910919189,19.7309226989746,19.731050491333,19.7311820983887,19.7313079833984,19.7314300537109,19.7315635681152,19.7316913604736,19.7318229675293,19.7319507598877,19.7320747375488,19.7322063446045,19.7323398590088,19.7324657440186,19.7325897216797,19.7327251434326,19.7328548431396,19.7329807281494,19.7331085205078,19.7332382202148,19.7333698272705,19.7334938049316,19.73362159729,19.7337512969971,19.7338829040527,19.7340126037598,19.7341384887695,19.7342624664307,19.734395980835,19.7345275878906,19.7346534729004,19.7347812652588,19.7349090576172,19.7350425720215,19.7351684570312,19.7352962493896,19.7354278564453,19.7355575561523,19.7356834411621,19.7358112335205,19.7359428405762,19.7360687255859,19.7362022399902,19.7363224029541,19.7364482879639,19.7365837097168,19.7367153167725,19.7368469238281,19.7369651794434,19.737096786499,19.7372303009033,19.7373542785645,19.7374897003174,19.7376136779785,19.7377376556396,19.7378692626953,19.738000869751,19.7381286621094,19.7382545471191,19.7383842468262,19.7385158538818,19.7386436462402,19.7387771606445,19.7389011383057,19.7390327453613,19.7391586303711,19.7392883300781,19.7394180297852,19.7395401000977,19.7396697998047,19.7398052215576,19.7399311065674,19.7400608062744,19.7401885986328,19.7403221130371,19.740442276001,19.7405776977539,19.740701675415,19.7408313751221,19.7409610748291,19.7410888671875,19.7412223815918,19.7413482666016,19.74147605896,19.7416038513184,19.7417297363281,19.7418651580811,19.7419948577881,19.7421207427979,19.7422466278076,19.7423801422119,19.7425098419189,19.7426357269287,19.7427673339844,19.7428932189941,19.7430229187012,19.7431488037109,19.7432823181152,19.7434062957764,19.743537902832,19.7436637878418,19.7437934875488,19.7439212799072,19.7440490722656,19.7441844940186,19.744312286377,19.7444343566895,19.7445678710938,19.7446975708008,19.7448215484619,19.7449569702148,19.7450885772705,19.745210647583,19.74534034729,19.7454700469971,19.7455959320068,19.7457275390625,19.7458572387695,19.7459831237793,19.7461109161377,19.7462406158447,19.746374130249,19.7465019226074,19.7466297149658,19.7467594146729,19.7468872070312,19.747013092041,19.747142791748,19.7472743988037,19.7474021911621,19.7475299835205,19.7476673126221,19.7477893829346,19.7479152679443,19.748046875,19.748176574707,19.7483062744141,19.7484359741211,19.7485675811768,19.7486915588379,19.7488193511963,19.748950958252,19.7490749359131,19.7492084503174,19.7493381500244,19.7494659423828,19.7495937347412,19.749719619751,19.7498512268066
19.4686069488525,19.4687328338623,19.4688587188721,19.4689788818359,19.4691123962402,19.4692344665527,19.4693622589111,19.4694786071777,19.4696083068848,19.4697360992432,19.4698543548584,19.4699840545654,19.4701080322266,19.4702339172363,19.4703598022461,19.4704856872559,19.470609664917,19.4707317352295,19.4708595275879,19.4709873199463,19.4711074829102,19.4712371826172,19.4713649749756,19.4714832305908,19.4716129302979,19.4717426300049,19.4718608856201,19.4719905853271,19.4721126556396,19.4722423553467,19.4723625183105,19.4724903106689,19.4726181030273,19.4727382659912,19.4728660583496,19.472993850708,19.4731178283691,19.4732418060303,19.4733695983887,19.4734954833984,19.4736137390137,19.4737434387207,19.4738693237305,19.4739952087402,19.4741153717041,19.4742431640625,19.4743747711182,19.4744968414307,19.4746246337891,19.4747467041016,19.4748687744141,19.4749946594238,19.4751224517822,19.4752464294434,19.4753723144531,19.4754962921143,19.4756240844727,19.4757480621338,19.4758739471436,19.476001739502,19.4761238098145,19.4762496948242,19.4763793945312,19.4765014648438,19.4766235351562,19.4767475128174,19.4768753051758,19.4769992828369,19.4771251678467,19.4772567749023,19.4773750305176,19.477502822876,19.4776268005371,19.4777545928955,19.477876663208,19.4780025482178,19.4781303405762,19.4782485961914,19.4783763885498,19.4785060882568,19.4786357879639,19.4787540435791,19.4788780212402,19.47900390625,19.4791355133057,19.4792613983154,19.4793891906738,19.4795093536377,19.4796352386475,19.4797630310059,19.4798908233643,19.4800128936768,19.4801387786865,19.4802665710449,19.4803848266602,19.4805145263672,19.4806385040283,19.4807586669922,19.480884552002,19.4810161590576,19.4811420440674,19.4812622070312,19.4813899993896,19.4815120697021,19.4816417694092,19.481761932373,19.4818897247314,19.4820213317871,19.4821453094482,19.4822673797607,19.482400894165,19.4825191497803,19.48264503479,19.4827728271484,19.4828910827637,19.4830169677734,19.4831466674805,19.4832744598389,19.4833946228027,19.4835224151611,19.4836463928223,19.4837684631348,19.4838981628418,19.4840240478516,19.4841480255127,19.4842739105225,19.4844055175781,19.4845314025879,19.4846515655518,19.4847793579102,19.4849071502686,19.4850273132324,19.4851512908936,19.4852771759033,19.4854068756104,19.4855251312256,19.485652923584,19.4857788085938,19.4859104156494,19.4860363006592,19.4861602783203,19.4862804412842,19.4864082336426,19.4865341186523,19.4866619110107,19.4867839813232,19.4869060516357,19.4870357513428,19.4871635437012,19.4872856140137,19.487419128418,19.4875431060791,19.4876594543457,19.4877910614014,19.4879169464111,19.4880352020264,19.4881649017334,19.4882907867432,19.488410949707,19.48854637146,19.4886741638184,19.4887962341309,19.488920211792,19.4890441894531,19.4891738891602,19.4892921447754,19.4894218444824,19.4895420074463,19.4896755218506,19.4897994995117,19.4899253845215,19.4900531768799,19.4901695251465,19.4902973175049,19.4904251098633,19.4905471801758,19.4906749725342,19.4907989501953,19.4909248352051,19.4910545349121,19.4911804199219,19.4913063049316,19.4914302825928,19.4915523529053,19.491678237915,19.4917984008789,19.4919261932373,19.4920616149902,19.4921855926514,19.4923057556152,19.4924354553223,19.4925594329834,19.4926815032959,19.4928073883057,19.4929313659668,19.4930610656738,19.4931888580322,19.4933166503906,19.4934406280518,19.4935646057129,19.4936847686768,19.4938125610352,19.4939422607422,19.4940700531006,19.4941921234131,19.4943180084229,19.494441986084,19.4945659637451,19.4946956634521,19.4948177337646,19.4949474334717,19.4950752258301,19.4952011108398,19.4953212738037,19.4954509735107,19.4955730438232,19.4956932067871,19.49582862854,19.4959526062012,19.4960746765137,19.4961986541748,19.4963264465332,19.4964561462402,19.4965801239014,19.4967079162598,19.4968338012695,19.4969520568848,19.4970817565918,19.4972057342529,19.4973258972168,19.4974594116211,19.4975833892822,19.4977111816406,19.4978313446045,19.4979591369629,19.4980869293213,19.4982109069824,19.4983386993408,19.4984645843506,19.4985904693604,19.4987125396729,19.4988346099854,19.4989643096924,19.4990921020508,19.4992160797119,19.4993457794189,19.4994640350342,19.4995880126953,19.4997177124023,19.499849319458,19.4999694824219,19.5000991821289,19.5002212524414,19.5003414154053,19.5004768371582,19.500602722168,19.5007266998291,19.500846862793,19.5009746551514,19.5011005401611,19.5012283325195,19.5013542175293,19.5014801025391,19.5015983581543,19.5017242431641,19.5018577575684,19.5019855499268,19.5021057128906,19.5022315979004,19.5023574829102,19.5024852752686,19.5026111602783,19.5027389526367,19.5028629302979,19.5029811859131,19.5031089782715,19.5032444000244,19.5033645629883,19.503490447998,19.5036144256592,19.5037422180176,19.5038681030273,19.5039958953857,19.5041198730469,19.5042381286621,19.5043678283691,19.5044994354248,19.50461769104,19.5047492980957,19.5048694610596,19.5049877166748,19.5051174163818,19.5052452087402,19.5053768157959,19.5054988861084,19.5056228637695,19.5057487487793,19.5058765411377,19.5060005187988,19.5061283111572,19.5062522888184,19.5063743591309,19.5065040588379,19.5066337585449,19.5067520141602,19.5068778991699,19.5070037841797,19.5071315765381,19.5072574615479,19.5073852539062,19.5075130462646,19.5076351165771,19.5077610015869,19.5078868865967,19.5080089569092,19.5081348419189,19.5082664489746,19.5083923339844,19.5085144042969,19.5086402893066,19.5087718963623,19.5088901519775,19.5090179443359,19.5091438293457,19.5092697143555,19.5093975067139,19.5095233917236,19.5096454620361,19.5097751617432,19.5099010467529,19.5100269317627,19.5101470947266,19.5102767944336,19.510404586792,19.5105266571045,19.5106506347656,19.510778427124,19.5109081268311,19.5110301971436,19.5111541748047,19.5112838745117,19.5114078521729,19.5115337371826,19.5116596221924,19.5117855072021,19.5119113922119,19.5120410919189,19.5121631622314,19.5122871398926,19.5124168395996,19.5125427246094,19.5126628875732,19.5127964019775,19.5129203796387,19.5130424499512,19.5131645202637,19.513298034668,19.5134258270264,19.5135459899902,19.5136680603027,19.513801574707,19.5139274597168,19.5140495300293,19.5141754150391,19.5143032073975,19.5144271850586,19.5145511627197,19.5146789550781,19.5148048400879,19.514928817749,19.5150547027588,19.5151863098145,19.515308380127,19.5154323577881,19.5155620574951,19.5156841278076,19.515811920166,19.5159397125244,19.5160636901855,19.5161914825439,19.5163135528564,19.5164413452148,19.516565322876,19.516695022583,19.5168209075928,19.5169448852539,19.5170707702637,19.5171966552734,19.5173225402832,19.5174503326416,19.5175743103027,19.5176982879639,19.5178260803223,19.517951965332,19.5180797576904,19.5182056427002,19.5183296203613,19.5184555053711,19.5185813903809,19.5187091827393,19.518835067749,19.5189571380615,19.5190849304199,19.5192089080811,19.5193347930908,19.5194664001465,19.5195903778076,19.5197124481201,19.5198402404785,19.5199642181396,19.520092010498,19.5202198028564,19.5203437805176,19.5204696655273,19.5205955505371,19.5207290649414,19.5208473205566,19.5209712982178,19.5211048126221,19.5212230682373,19.5213489532471,19.5214805603027,19.5216045379639,19.521728515625,19.5218601226807,19.5219841003418,19.5221042633057,19.5222396850586,19.5223579406738,19.522481918335,19.522611618042,19.522741317749,19.5228691101074,19.5229892730713,19.5231170654297,19.5232410430908,19.5233688354492,19.5234928131104,19.5236225128174,19.5237445831299,19.5238723754883,19.523998260498,19.5241241455078,19.5242481231689,19.5243740081787,19.5244979858398,19.5246257781982,19.5247535705566,19.5248775482178,19.5250072479248,19.5251293182373,19.5252590179443,19.5253868103027,19.525505065918,19.5256404876709,19.5257606506348,19.5258808135986,19.5260143280029,19.5261402130127,19.5262660980225,19.526388168335,19.5265140533447,19.5266399383545,19.5267677307129,19.5268936157227,19.5270156860352,19.5271434783936,19.5272693634033,19.527400970459,19.527530670166,19.5276489257812,19.5277767181396,19.5279026031494,19.5280246734619,19.5281562805176,19.5282859802246,19.5284042358398,19.5285301208496,19.528657913208,19.5287895202637,19.5289096832275,19.5290355682373,19.5291633605957,19.5292835235596,19.5294132232666,19.5295448303223,19.5296688079834,19.5297946929932,19.5299186706543,19.5300464630127,19.5301723480225,19.5302963256836,19.5304203033447,19.5305557250977,19.5306720733643,19.5308036804199,19.5309314727783,19.5310497283936,19.5311794281006,19.5313053131104,19.5314331054688,19.5315570831299,19.5316848754883,19.5318145751953,19.5319328308105,19.5320587158203,19.532190322876,19.5323104858398,19.5324401855469,19.5325698852539,19.5326957702637
19.2575531005859,19.257682800293,19.2577991485596,19.257926940918,19.2580451965332,19.2581653594971,19.2582950592041,19.2584133148193,19.258544921875,19.258659362793,19.2587852478027,19.2589054107666,19.2590274810791,19.259147644043,19.2592716217041,19.259391784668,19.2595157623291,19.2596454620361,19.2597637176514,19.2598857879639,19.2600059509277,19.2601299285889,19.2602558135986,19.2603759765625,19.2605018615723,19.2606220245361,19.2607421875,19.2608642578125,19.2609920501709,19.2611141204834,19.2612323760986,19.261360168457,19.2614765167236,19.2616024017334,19.2617244720459,19.2618503570557,19.2619705200195,19.2620906829834,19.2622222900391,19.2623348236084,19.2624626159668,19.2625789642334,19.2627067565918,19.2628288269043,19.2629508972168,19.2630805969238,19.2631912231445,19.2633209228516,19.2634391784668,19.2635631561279,19.2636890411377,19.2638092041016,19.2639350891113,19.2640495300293,19.2641754150391,19.2642974853516,19.2644176483154,19.2645454406738,19.2646675109863,19.2647857666016,19.2649154663086,19.2650394439697,19.2651634216309,19.2652740478516,19.26540184021,19.2655258178711,19.265645980835,19.2657737731934,19.2658939361572,19.266019821167,19.2661418914795,19.266263961792,19.2663917541504,19.2665023803711,19.2666320800781,19.2667560577393,19.2668724060059,19.2669982910156,19.2671165466309,19.2672424316406,19.2673683166504,19.2674884796143,19.267614364624,19.2677364349365,19.2678565979004,19.2679805755615,19.268102645874,19.2682247161865,19.2683525085449,19.2684726715088,19.2685890197754,19.2687129974365,19.2688388824463,19.2689628601074,19.2690773010254,19.2692089080811,19.2693290710449,19.2694492340088,19.2695789337158,19.2696990966797,19.2698154449463,19.2699451446533,19.2700672149658,19.2701835632324,19.2703151702881,19.2704334259033,19.2705593109131,19.2706832885742,19.2708015441895,19.2709274291992,19.2710418701172,19.2711696624756,19.271297454834,19.2714176177979,19.2715396881104,19.2716636657715,19.271785736084,19.2719039916992,19.2720336914062,19.2721519470215,19.2722759246826,19.2723941802979,19.2725200653076,19.272647857666,19.2727603912354,19.2728862762451,19.2730159759521,19.2731285095215,19.2732582092285,19.2733821868896,19.2735042572021,19.2736263275146,19.2737503051758,19.273868560791,19.2739925384521,19.2741203308105,19.274242401123,19.274356842041,19.2744846343994,19.2746047973633,19.274730682373,19.2748546600342,19.274974822998,19.2750968933105,19.2752208709717,19.2753429412842,19.2754726409912,19.2755908966064,19.2757091522217,19.2758331298828,19.2759590148926,19.2760772705078,19.2762050628662,19.2763252258301,19.2764472961426,19.2765731811523,19.2766971588135,19.276819229126,19.2769393920898,19.277063369751,19.2771873474121,19.2773036956787,19.2774333953857,19.2775535583496,19.2776737213135,19.2777976989746,19.2779197692871,19.2780494689941,19.278169631958,19.2782878875732,19.2784156799316,19.2785358428955,19.2786598205566,19.2787837982178,19.2789058685303,19.2790298461914,19.2791481018066,19.2792778015137,19.2793998718262,19.2795181274414,19.2796440124512,19.279764175415,19.2798843383789,19.2800121307373,19.2801399230957,19.2802486419678,19.2803764343262,19.2805080413818,19.2806243896484,19.2807464599609,19.2808723449707,19.2809906005859,19.2811145782471,19.2812423706055,19.2813682556152,19.2814865112305,19.281608581543,19.2817306518555,19.2818508148193,19.2819728851318,19.2821025848389,19.2822246551514,19.282341003418,19.2824649810791,19.2825946807861,19.2827129364014,19.2828330993652,19.2829570770264,19.2830829620361,19.283203125,19.2833290100098,19.2834568023682,19.2835731506348,19.2836933135986,19.283821105957,19.2839412689209,19.2840614318848,19.2841854095459,19.2843112945557,19.2844333648682,19.284553527832,19.2846851348877,19.2847995758057,19.2849254608154,19.2850475311279,19.2851657867432,19.2852916717529,19.2854156494141,19.2855396270752,19.2856597900391,19.2857875823975,19.28590965271,19.2860279083252,19.286153793335,19.2862815856934,19.2863941192627,19.2865219116211,19.2866477966309,19.2867660522461,19.2868900299072,19.2870140075684,19.2871417999268,19.2872638702393,19.2873821258545,19.2875061035156,19.287633895874,19.2877540588379,19.2878742218018,19.2880039215088,19.2881183624268,19.2882461547852,19.288366317749,19.2884864807129,19.2886142730713,19.2887306213379,19.2888603210449,19.2889785766602,19.2891063690186,19.2892265319824,19.2893466949463,19.2894706726074,19.2895984649658,19.2897205352783,19.2898368835449,19.289966583252,19.2900905609131,19.2902088165283,19.2903308868408,19.2904567718506,19.2905788421631,19.2907028198242,19.2908229827881,19.2909507751465,19.2910709381104,19.2911968231201,19.291316986084,19.2914352416992,19.291561126709,19.291690826416,19.2918109893799,19.2919292449951,19.2920532226562,19.2921829223633,19.2923011779785,19.2924270629883,19.2925491333008,19.2926654815674,19.2927913665771,19.2929210662842,19.293041229248,19.2931594848633,19.2932872772217,19.2934131622314,19.2935314178467,19.2936515808105,19.2937774658203,19.2938976287842,19.2940235137939,19.2941455841064,19.2942695617676,19.2943897247314,19.2945156097412,19.294641494751,19.2947597503662,19.2948818206787,19.2950096130371,19.2951354980469,19.2952575683594,19.295373916626,19.2954998016357,19.2956218719482,19.2957458496094,19.2958736419678,19.2959899902344,19.2961139678955,19.2962379455566,19.2963676452637,19.2964859008789,19.2966022491455,19.2967300415039,19.2968502044678,19.2969760894775,19.2971038818359,19.2972240447998,19.2973403930664,19.2974700927734,19.2975940704346,19.2977142333984,19.2978420257568,19.2979583740234,19.2980804443359,19.2982063293457,19.2983322143555,19.2984580993652,19.2985763549805,19.2986946105957,19.2988243103027,19.2989444732666,19.2990703582764,19.2991962432861,19.2993144989014,19.2994365692139,19.299560546875,19.2996883392334,19.2998085021973,19.2999324798584,19.3000507354736,19.3001728057861,19.3002986907959,19.3004245758057,19.3005504608154,19.3006687164307,19.3007869720459,19.3009166717529,19.3010368347168,19.3011608123779,19.3012866973877,19.3014068603516,19.3015251159668,19.3016548156738,19.301778793335,19.3018970489502,19.3020248413086,19.3021488189697,19.3022689819336,19.3023910522461,19.3025150299072,19.3026351928711,19.3027610778809,19.3028888702393,19.3030052185059,19.303129196167,19.3032531738281,19.3033771514893,19.3034973144531,19.3036251068115,19.3037490844727,19.3038692474365,19.3039875030518,19.3041152954102,19.3042411804199,19.3043632507324,19.3044853210449,19.3046112060547,19.3047313690186,19.3048515319824,19.3049812316895,19.305103302002,19.3052215576172,19.3053493499756,19.3054752349854,19.3055953979492,19.3057136535645,19.3058376312256,19.305965423584,19.3060855865479,19.306209564209,19.3063354492188,19.306453704834,19.3065814971924,19.3066997528076,19.3068218231201,19.3069477081299,19.3070735931396,19.3071956634521,19.3073196411133,19.307445526123,19.3075618743896,19.3076839447021,19.3078079223633,19.307933807373,19.3080539703369,19.3081798553467,19.3083038330078,19.3084297180176,19.3085498809814,19.3086681365967,19.3087959289551,19.3089160919189,19.3090419769287,19.3091678619385,19.3092918395996,19.3094100952148,19.3095397949219,19.3096580505371,19.3097801208496,19.3099021911621,19.3100261688232,19.3101482391357,19.3102741241455,19.310396194458,19.3105239868164,19.3106441497803,19.31077003479,19.3108901977539,19.3110179901123,19.3111343383789,19.31125831604,19.3113842010498,19.3115062713623,19.3116302490234,19.3117523193359,19.3118743896484,19.3120021820068,19.312126159668,19.3122482299805,19.3123645782471,19.3124904632568,19.3126163482666,19.3127384185791,19.3128623962402,19.3129901885986,19.3131065368652,19.3132305145264,19.3133583068848,19.3134841918945,19.3136043548584,19.3137226104736,19.3138484954834,19.3139667510986,19.314094543457,19.3142185211182,19.3143367767334,19.3144645690918,19.3145885467529,19.3147144317627,19.3148365020752,19.3149604797363,19.3150844573975,19.3152046203613,19.3153305053711,19.3154487609863,19.3155765533447,19.3156929016113,19.3158187866211,19.3159465789795,19.3160648345947,19.3161907196045,19.3163166046143,19.3164348602295,19.3165588378906,19.3166885375977,19.3168125152588,19.3169326782227,19.3170547485352,19.3171768188477,19.3173007965088,19.3174209594727,19.3175468444824,19.3176612854004,19.3177890777588,19.3179149627686,19.318042755127,19.3181591033936,19.318286895752,19.3184089660645,19.3185291290283,19.3186569213867,19.3187828063965,19.3189105987549,19.3190288543701,19.3191509246826,19.3192768096924,19.3193969726562,19.319522857666,19.3196449279785,19.3197650909424,19.3198909759521,19.320011138916,19.320140838623,19.3202533721924
19.0510387420654,19.0511474609375,19.0512752532959,19.0513973236084,19.051513671875,19.0516338348389,19.0517520904541,19.0518760681152,19.0519943237305,19.0521183013916,19.0522384643555,19.0523509979248,19.05246925354,19.0525970458984,19.0527153015137,19.0528373718262,19.05295753479,19.053071975708,19.0531959533691,19.0533180236816,19.0534362792969,19.0535507202148,19.0536689758301,19.0537929534912,19.053918838501,19.0540294647217,19.0541553497314,19.054271697998,19.0543956756592,19.0545177459717,19.0546379089355,19.0547580718994,19.054874420166,19.0549907684326,19.055118560791,19.0552310943604,19.0553550720215,19.055477142334,19.055591583252,19.0557155609131,19.0558338165283,19.0559597015381,19.0560722351074,19.0561943054199,19.0563144683838,19.0564289093018,19.0565509796143,19.0566730499268,19.0567951202393,19.0569133758545,19.057035446167,19.0571517944336,19.0572757720947,19.0573959350586,19.0575141906738,19.0576267242432,19.0577526092529,19.0578727722168,19.0579986572266,19.0581092834473,19.0582313537598,19.0583534240723,19.0584735870361,19.0585956573486,19.0587196350098,19.0588302612305,19.0589542388916,19.0590801239014,19.0591983795166,19.0593109130859,19.0594291687012,19.0595550537109,19.0596694946289,19.0597953796387,19.0599117279053,19.0600337982178,19.0601539611816,19.0602722167969,19.0603942871094,19.0605163574219,19.0606346130371,19.060754776001,19.0608692169189,19.0609970092773,19.0611152648926,19.0612392425537,19.0613498687744,19.0614700317383,19.0615978240967,19.0617122650146,19.0618343353271,19.061954498291,19.0620784759521,19.0621948242188,19.0623168945312,19.0624370574951,19.0625610351562,19.0626735687256,19.0627975463867,19.0629177093506,19.0630378723145,19.0631580352783,19.0632781982422,19.0634002685547,19.0635185241699,19.0636386871338,19.0637531280518,19.0638694763184,19.0639991760254,19.064115524292,19.0642318725586,19.0643577575684,19.0644817352295,19.0645942687988,19.0647144317627,19.0648365020752,19.0649547576904,19.0650768280029,19.0651912689209,19.0653209686279,19.0654373168945,19.0655574798584,19.0656795501709,19.0657997131348,19.0659160614014,19.0660400390625,19.0661602020264,19.0662784576416,19.0664024353027,19.0665187835693,19.0666370391846,19.0667591094971,19.0668792724609,19.0670013427734,19.06711769104,19.0672397613525,19.067361831665,19.0674839019775,19.0676040649414,19.067720413208,19.0678386688232,19.067964553833,19.0680828094482,19.0681953430176,19.068323135376,19.0684413909912,19.0685634613037,19.0686836242676,19.0688056945801,19.0689220428467,19.0690364837646,19.0691623687744,19.0692844390869,19.0694007873535,19.0695266723633,19.0696449279785,19.0697631835938,19.0698833465576,19.0700035095215,19.0701217651367,19.0702419281006,19.0703639984131,19.0704860687256,19.0706081390381,19.0707244873047,19.0708465576172,19.0709648132324,19.0710868835449,19.0712051391602,19.0713291168213,19.0714473724365,19.0715656280518,19.0716876983643,19.0718059539795,19.0719261169434,19.0720481872559,19.0721683502197,19.0722846984863,19.0724086761475,19.0725288391113,19.0726451873779,19.0727691650391,19.0728874206543,19.0730056762695,19.0731296539307,19.0732498168945,19.0733680725098,19.0734882354736,19.0736083984375,19.0737285614014,19.0738563537598,19.0739688873291,19.0740909576416,19.0742149353027,19.0743255615234,19.0744476318359,19.0745716094971,19.0746898651123,19.0748081207275,19.0749320983887,19.0750541687012,19.0751705169678,19.0752964019775,19.0754127502441,19.075532913208,19.0756530761719,19.0757751464844,19.0758972167969,19.0760116577148,19.0761318206787,19.0762538909912,19.0763702392578,19.0764961242676,19.0766143798828,19.076732635498,19.0768527984619,19.0769710540771,19.0770988464355,19.0772132873535,19.0773410797119,19.0774555206299,19.0775699615479,19.0776996612549,19.0778198242188,19.0779399871826,19.0780563354492,19.0781803131104,19.0783004760742,19.0784187316895,19.0785388946533,19.0786571502686,19.0787792205811,19.0788993835449,19.0790195465088,19.0791454315186,19.0792560577393,19.0793838500977,19.0795040130615,19.0796165466309,19.0797424316406,19.0798645019531,19.0799827575684,19.0801010131836,19.0802230834961,19.08034324646,19.0804653167725,19.0805816650391,19.0807075500488,19.0808200836182,19.0809421539307,19.0810680389404,19.0811862945557,19.0813064575195,19.0814266204834,19.0815448760986,19.0816688537598,19.0817890167236,19.0819053649902,19.0820274353027,19.0821475982666,19.0822658538818,19.0823936462402,19.0825042724609,19.0826320648193,19.0827522277832,19.0828723907471,19.0829906463623,19.0831089019775,19.0832290649414,19.0833492279053,19.0834712982178,19.0835971832275,19.0837097167969,19.083833694458,19.0839538574219,19.0840682983398,19.0841979980469,19.0843162536621,19.0844326019287,19.0845546722412,19.0846729278564,19.0847988128662,19.0849132537842,19.0850372314453,19.0851593017578,19.0852718353271,19.0853977203369,19.0855197906494,19.0856380462646,19.0857563018799,19.0858764648438,19.0860023498535,19.0861186981201,19.0862445831299,19.0863590240479,19.0864791870117,19.0866012573242,19.0867214202881,19.0868434906006,19.0869579315186,19.0870780944824,19.0872058868408,19.0873203277588,19.0874443054199,19.0875682830811,19.0876846313477,19.0878028869629,19.0879249572754,19.0880489349365,19.0881633758545,19.0882892608643,19.0884075164795,19.0885276794434,19.0886497497559,19.0887699127197,19.0888900756836,19.0890045166016,19.0891304016113,19.0892505645752,19.0893707275391,19.0894908905029,19.0896091461182,19.0897369384766,19.0898494720459,19.0899772644043,19.0900974273682,19.0902137756348,19.0903339385986,19.0904560089111,19.0905742645264,19.0906944274902,19.0908145904541,19.0909385681152,19.0910587310791,19.0911769866943,19.0912990570068,19.0914173126221,19.0915355682373,19.0916595458984,19.0917816162109,19.0919017791748,19.0920219421387,19.0921363830566,19.0922565460205,19.092378616333,19.0925045013428,19.0926170349121,19.0927429199219,19.0928611755371,19.0929870605469,19.0931034088135,19.0932292938232,19.0933475494385,19.0934638977051,19.0935840606689,19.0937023162842,19.0938339233398,19.0939464569092,19.0940685272217,19.0941867828369,19.0943088531494,19.0944271087646,19.0945568084717,19.0946655273438,19.0947914123535,19.094913482666,19.0950317382812,19.0951519012451,19.095272064209,19.0953941345215,19.0955085754395,19.0956363677979,19.0957546234131,19.095874786377,19.0959930419922,19.0961170196533,19.0962371826172,19.0963592529297,19.0964775085449,19.0965957641602,19.0967121124268,19.0968399047852,19.096960067749,19.0970821380615,19.0972023010254,19.0973167419434,19.0974445343018,19.097562789917,19.0976848602295,19.0978031158447,19.09792137146,19.0980415344238,19.0981636047363,19.0982875823975,19.0984077453613,19.0985221862793,19.0986499786377,19.0987644195557,19.0988883972168,19.0990104675293,19.0991344451904,19.0992450714111,19.0993728637695,19.0994930267334,19.0996112823486,19.0997314453125,19.099853515625,19.0999698638916,19.1000957489014,19.100212097168,19.1003398895264,19.1004524230957,19.1005764007568,19.1006946563721,19.1008167266846,19.1009368896484,19.1010608673096,19.1011753082275,19.1012992858887,19.1014194488525,19.1015453338623,19.101655960083,19.1017799377441,19.1019020080566,19.1020202636719,19.1021404266357,19.1022644042969,19.1023826599121,19.102502822876,19.1026229858398,19.1027488708496,19.1028671264648,19.1029891967773,19.1031074523926,19.1032257080078,19.1033477783203,19.1034717559814,19.1035919189453,19.1037044525146,19.1038341522217,19.1039524078369,19.1040706634521,19.104190826416,19.1043148040771,19.1044330596924,19.1045551300049,19.1046752929688,19.1047992706299,19.1049137115479,19.1050338745117,19.1051559448242,19.1052780151367,19.1054019927979,19.1055202484131,19.105640411377,19.1057586669922,19.1058826446533,19.1060047149658,19.1061229705811,19.1062412261963,19.1063690185547,19.1064796447754,19.1066055297852,19.106725692749,19.1068496704102,19.1069641113281,19.1070880889893,19.1072120666504,19.1073265075684,19.1074542999268,19.1075687408447,19.1076927185059,19.1078090667725,19.1079330444336,19.1080532073975,19.1081714630127,19.1082954406738,19.1084156036377,19.1085357666016,19.1086540222168,19.1087799072266,19.1088981628418,19.1090183258057,19.1091346740723,19.109260559082,19.1093826293945,19.1094989776611,19.1096229553223,19.1097431182861,19.1098651885986,19.1099834442139,19.110107421875,19.1102237701416,19.1103420257568,19.1104698181152,19.1105842590332,19.1107082366943,19.1108264923096,19.1109504699707,19.1110687255859,19.1111907958984,19.1113166809082,19.1114253997803,19.1115531921387,19.1116714477539,19.1117916107178,19.1119174957275,19.1120338439941,19.1121597290039,19.1122741699219,19.112398147583
18.8488922119141,18.8490123748779,18.8491287231445,18.8492450714111,18.8493595123291,18.8494834899902,18.8495998382568,18.8497161865234,18.8498363494873,18.8499488830566,18.8500652313232,18.8501853942871,18.850305557251,18.8504257202148,18.8505401611328,18.8506603240967,18.8507747650146,18.8508892059326,18.8510074615479,18.8511238098145,18.851245880127,18.8513622283936,18.8514804840088,18.851598739624,18.8517055511475,18.8518295288086,18.8519477844238,18.8520622253418,18.8521823883057,18.8523025512695,18.8524169921875,18.8525314331055,18.8526477813721,18.8527698516846,18.8528861999512,18.8530044555664,18.8531265258789,18.8532371520996,18.8533630371094,18.8534736633301,18.8535919189453,18.8537063598633,18.8538265228271,18.853946685791,18.854061126709,18.8541812896729,18.8542976379395,18.8544139862061,18.854528427124,18.8546504974365,18.8547687530518,18.8548793792725,18.8550033569336,18.8551216125488,18.8552379608154,18.8553581237793,18.8554649353027,18.8555908203125,18.8557052612305,18.8558254241943,18.8559455871582,18.8560619354248,18.8561782836914,18.856294631958,18.8564109802246,18.8565330505371,18.8566436767578,18.8567638397217,18.8568801879883,18.8569984436035,18.8571186065674,18.8572311401367,18.8573513031006,18.8574695587158,18.8575859069824,18.8577079772949,18.8578205108643,18.8579444885254,18.8580532073975,18.8581695556641,18.8582935333252,18.8584117889404,18.858528137207,18.8586483001709,18.8587665557861,18.8588771820068,18.8589992523193,18.8591156005859,18.859224319458,18.8593444824219,18.8594665527344,18.8595886230469,18.8597030639648,18.8598213195801,18.8599376678467,18.8600540161133,18.8601722717285,18.8602962493896,18.8604068756104,18.8605270385742,18.8606395721436,18.8607597351074,18.8608741760254,18.8609924316406,18.8611125946045,18.8612289428711,18.8613452911377,18.8614654541016,18.8615894317627,18.8617038726807,18.86181640625,18.8619346618652,18.8620510101318,18.8621673583984,18.8622875213623,18.8624000549316,18.8625202178955,18.862642288208,18.8627624511719,18.8628749847412,18.8629932403564,18.8631134033203,18.8632278442383,18.8633441925049,18.863468170166,18.8635845184326,18.863697052002,18.8638210296631,18.8639316558838,18.8640518188477,18.8641700744629,18.8642826080322,18.8643989562988,18.8645172119141,18.8646392822266,18.8647594451904,18.8648700714111,18.864990234375,18.8651084899902,18.8652248382568,18.8653469085693,18.8654651641846,18.8655776977539,18.8656959533691,18.8658142089844,18.8659400939941,18.8660526275635,18.8661689758301,18.8662910461426,18.8664035797119,18.8665237426758,18.8666400909424,18.866756439209,18.8668727874756,18.8669891357422,18.8671073913574,18.867223739624,18.8673439025879,18.8674621582031,18.8675746917725,18.8676929473877,18.8678131103516,18.8679332733154,18.8680477142334,18.8681678771973,18.8682842254639,18.8683986663818,18.8685207366943,18.8686389923096,18.8687572479248,18.8688735961914,18.868989944458,18.8691158294678,18.8692264556885,18.8693447113037,18.8694667816162,18.8695793151855,18.8696975708008,18.8698196411133,18.8699359893799,18.8700504302979,18.8701705932617,18.870288848877,18.8704032897949,18.8705215454102,18.870641708374,18.870756149292,18.8708744049072,18.8709945678711,18.8711128234863,18.8712253570557,18.8713474273682,18.871467590332,18.8715801239014,18.8717021942139,18.8718166351318,18.8719387054443,18.872049331665,18.8721714019775,18.8722896575928,18.8724002838135,18.8725242614746,18.8726444244385,18.8727569580078,18.872875213623,18.8729934692383,18.8731155395508,18.8732280731201,18.873348236084,18.8734703063965,18.8735790252686,18.8736953735352,18.8738193511963,18.8739414215088,18.8740520477295,18.8741760253906,18.87428855896,18.8744049072266,18.8745250701904,18.8746452331543,18.8747577667236,18.8748779296875,18.8749923706055,18.8751125335693,18.8752269744873,18.8753490447998,18.8754653930664,18.8755798339844,18.8756999969482,18.8758182525635,18.8759384155273,18.8760528564453,18.8761711120605,18.8762874603271,18.8764038085938,18.8765239715576,18.8766422271729,18.8767566680908,18.8768730163574,18.8769950866699,18.8771152496338,18.8772296905518,18.877347946167,18.8774642944336,18.8775844573975,18.8777046203613,18.8778190612793,18.8779373168945,18.8780536651611,18.878173828125,18.8782939910889,18.8784103393555,18.8785285949707,18.8786487579346,18.8787593841553,18.8788795471191,18.878999710083,18.8791179656982,18.8792324066162,18.8793487548828,18.8794708251953,18.879581451416,18.8797035217285,18.8798217773438,18.8799324035645,18.8800525665283,18.8801727294922,18.8802947998047,18.8804130554199,18.8805332183838,18.880651473999,18.8807621002197,18.8808822631836,18.8810024261475,18.8811225891113,18.8812351226807,18.8813514709473,18.8814716339111,18.8815860748291,18.8817043304443,18.8818244934082,18.8819370269775,18.8820552825928,18.8821773529053,18.8822956085205,18.8824157714844,18.8825340270996,18.8826541900635,18.8827667236328,18.882884979248,18.8830051422119,18.8831157684326,18.8832378387451,18.8833560943604,18.8834743499756,18.8835887908936,18.8837070465088,18.8838233947754,18.8839473724365,18.8840656280518,18.8841819763184,18.8843059539795,18.8844165802002,18.8845329284668,18.8846549987793,18.8847675323486,18.8848857879639,18.8850040435791,18.8851184844971,18.8852386474609,18.8853588104248,18.8854751586914,18.8855934143066,18.8857135772705,18.8858318328857,18.8859462738037,18.8860664367676,18.8861865997314,18.8863010406494,18.8864135742188,18.8865375518799,18.8866558074951,18.8867740631104,18.8868923187256,18.8870105743408,18.8871231079102,18.8872451782227,18.8873653411865,18.8874816894531,18.8875961303711,18.8877143859863,18.8878345489502,18.8879528045654,18.8880729675293,18.8881912231445,18.8883037567139,18.8884239196777,18.888542175293,18.8886642456055,18.8887729644775,18.8888912200928,18.8890113830566,18.8891334533691,18.8892517089844,18.889368057251,18.8894863128662,18.8896007537842,18.8897190093994,18.8898410797119,18.8899517059326,18.8900775909424,18.8901958465576,18.8903102874756,18.8904304504395,18.8905487060547,18.8906650543213,18.8907794952393,18.8908958435059,18.8910179138184,18.8911380767822,18.8912544250488,18.8913745880127,18.8914928436279,18.8916053771973,18.8917255401611,18.891845703125,18.891960144043,18.8920803070068,18.8922004699707,18.89231300354,18.8924331665039,18.8925476074219,18.8926696777344,18.8927841186523,18.8929080963135,18.8930282592773,18.8931369781494,18.8932571411133,18.8933773040771,18.8934898376465,18.8936100006104,18.8937301635742,18.8938503265381,18.8939666748047,18.8940830230713,18.8942031860352,18.8943157196045,18.8944339752197,18.894552230835,18.8946781158447,18.8947925567627,18.8949108123779,18.8950290679932,18.8951416015625,18.8952598571777,18.895378112793,18.8955001831055,18.8956184387207,18.8957347869873,18.8958568572998,18.8959674835205,18.8960857391357,18.8962135314941,18.8963260650635,18.8964443206787,18.8965644836426,18.8966808319092,18.896800994873,18.8969173431396,18.8970375061035,18.8971500396729,18.8972702026367,18.897388458252,18.8975067138672,18.8976249694824,18.8977432250977,18.8978633880615,18.8979759216309,18.8980941772461,18.8982124328613,18.8983306884766,18.8984527587891,18.8985691070557,18.898681640625,18.8987998962402,18.8989200592041,18.8990440368652,18.8991603851318,18.8992767333984,18.8993968963623,18.899507522583,18.8996334075928,18.899751663208,18.8998718261719,18.8999824523926,18.9001007080078,18.9002208709717,18.9003372192383,18.9004573822021,18.9005794525146,18.9006862640381,18.9008045196533,18.9009342193604,18.9010524749756,18.9011611938477,18.9012851715088,18.9014015197754,18.901517868042,18.9016399383545,18.9017581939697,18.901876449585,18.9019889831543,18.9021053314209,18.9022312164307,18.90234375,18.9024639129639,18.9025783538818,18.9027004241943,18.9028186798096,18.9029388427734,18.9030570983887,18.903169631958,18.9032859802246,18.9034118652344,18.9035243988037,18.9036464691162,18.9037628173828,18.9038791656494,18.9039974212646,18.9041175842285,18.9042377471924,18.9043483734131,18.9044704437256,18.9045925140381,18.9047031402588,18.904821395874,18.9049434661865,18.9050636291504,18.9051780700684,18.9052963256836,18.9054164886475,18.9055347442627,18.9056568145752,18.9057712554932,18.9058837890625,18.9060039520264,18.9061279296875,18.9062480926514,18.9063587188721,18.9064769744873,18.9065933227539,18.906717300415,18.9068336486816,18.9069557189941,18.9070701599121,18.9071884155273,18.9073066711426,18.9074287414551,18.9075393676758,18.9076633453369,18.9077816009521,18.9078941345215,18.9080123901367,18.908130645752,18.9082546234131,18.9083671569824,18.9084854125977,18.9086074829102,18.9087257385254,18.9088401794434,18.9089603424072
18.6509990692139,18.6511154174805,18.6512336730957,18.6513385772705,18.651460647583,18.6515731811523,18.6516857147217,18.6518039703369,18.6519184112549,18.6520328521729,18.6521453857422,18.6522655487061,18.6523761749268,18.6524906158447,18.6526050567627,18.6527290344238,18.6528377532959,18.6529483795166,18.6530723571777,18.6531829833984,18.6532955169678,18.6534080505371,18.653528213501,18.6536407470703,18.6537532806396,18.6538734436035,18.6539878845215,18.6540966033936,18.6542186737061,18.654333114624,18.6544494628906,18.6545600891113,18.6546764373779,18.6547946929932,18.6549053192139,18.6550254821777,18.6551399230957,18.6552486419678,18.6553630828857,18.655481338501,18.6555957794189,18.6557102203369,18.6558303833008,18.6559391021729,18.6560554504395,18.6561756134033,18.6562881469727,18.6564025878906,18.6565132141113,18.6566333770752,18.6567497253418,18.6568603515625,18.6569805145264,18.6570930480957,18.657205581665,18.6573276519775,18.6574401855469,18.6575565338135,18.6576652526855,18.6577816009521,18.6578960418701,18.6580123901367,18.6581287384033,18.6582450866699,18.6583557128906,18.6584758758545,18.6585865020752,18.6586990356445,18.6588191986084,18.6589317321777,18.6590518951416,18.659158706665,18.6592807769775,18.6593952178955,18.6595039367676,18.6596221923828,18.6597366333008,18.6598510742188,18.6599712371826,18.6600818634033,18.6602001190186,18.6603183746338,18.6604290008545,18.6605491638184,18.6606616973877,18.6607685089111,18.660888671875,18.6610050201416,18.6611194610596,18.6612319946289,18.6613521575928,18.6614608764648,18.6615753173828,18.661693572998,18.6618099212646,18.6619205474854,18.6620407104492,18.6621513366699,18.6622638702393,18.6623859405518,18.6624984741211,18.6626110076904,18.6627330780029,18.662841796875,18.662956237793,18.6630783081055,18.6631889343262,18.6633052825928,18.663423538208,18.6635322570801,18.6636562347412,18.6637687683105,18.6638813018799,18.6639995574951,18.6641120910645,18.6642265319824,18.6643447875977,18.6644554138184,18.6645698547363,18.6646900177002,18.6648006439209,18.6649150848389,18.6650333404541,18.6651420593262,18.6652660369873,18.665376663208,18.6654930114746,18.6656131744385,18.6657199859619,18.6658325195312,18.6659545898438,18.6660671234131,18.6661796569824,18.666296005249,18.666410446167,18.666524887085,18.6666469573975,18.6667575836182,18.6668682098389,18.6669864654541,18.6671085357666,18.6672210693359,18.6673336029053,18.6674518585205,18.6675643920898,18.6676788330078,18.6677989959717,18.667911529541,18.6680278778076,18.6681423187256,18.6682567596436,18.6683750152588,18.6684894561768,18.6685981750488,18.6687183380127,18.6688289642334,18.6689453125,18.6690654754639,18.6691837310791,18.6692886352539,18.6694087982178,18.6695308685303,18.6696376800537,18.6697540283203,18.6698741912842,18.6699829101562,18.6700992584229,18.6702136993408,18.6703300476074,18.6704406738281,18.6705589294434,18.6706714630127,18.6707859039307,18.6709060668945,18.6710262298584,18.6711387634277,18.6712474822998,18.6713676452637,18.671480178833,18.6715965270996,18.6717109680176,18.6718273162842,18.6719379425049,18.6720600128174,18.672176361084,18.6722888946533,18.672399520874,18.6725177764893,18.6726303100586,18.6727485656738,18.6728668212891,18.672981262207,18.6730880737305,18.673210144043,18.6733264923096,18.6734409332275,18.6735553741455,18.6736717224121,18.6737823486328,18.6738967895508,18.6740169525146,18.6741352081299,18.6742458343506,18.6743583679199,18.6744785308838,18.6745910644531,18.6747035980225,18.6748237609863,18.6749382019043,18.6750545501709,18.6751670837402,18.6752834320068,18.6754016876221,18.6755104064941,18.6756267547607,18.6757488250732,18.6758613586426,18.6759738922119,18.6760921478271,18.6762046813965,18.6763172149658,18.6764373779297,18.6765575408936,18.6766719818115,18.676778793335,18.6769008636475,18.6770114898682,18.6771259307861,18.6772441864014,18.677360534668,18.6774730682373,18.6775875091553,18.6777076721191,18.6778202056885,18.6779384613037,18.678050994873,18.6781635284424,18.678279876709,18.678394317627,18.6785144805908,18.6786251068115,18.6787433624268,18.6788558959961,18.6789722442627,18.6790885925293,18.6792049407959,18.6793193817139,18.6794319152832,18.6795501708984,18.6796703338623,18.6797790527344,18.6798915863037,18.6800136566162,18.6801261901855,18.6802444458008,18.6803588867188,18.6804752349854,18.6805877685547,18.680700302124,18.6808204650879,18.6809329986572,18.6810474395752,18.6811637878418,18.681282043457,18.6813926696777,18.6815128326416,18.6816234588623,18.6817359924316,18.6818542480469,18.6819763183594,18.6820850372314,18.682201385498,18.6823177337646,18.6824340820312,18.6825485229492,18.6826610565186,18.6827812194824,18.6828899383545,18.6830081939697,18.6831226348877,18.6832370758057,18.6833572387695,18.6834697723389,18.6835842132568,18.6836967468262,18.68381690979,18.6839351654053,18.6840476989746,18.6841640472412,18.6842765808105,18.6843967437744,18.6845073699951,18.6846313476562,18.6847381591797,18.684850692749,18.6849708557129,18.6850891113281,18.6852016448975,18.6853141784668,18.6854305267334,18.6855487823486,18.6856651306152,18.6857757568359,18.6858959197998,18.6860065460205,18.6861228942871,18.6862449645996,18.6863594055176,18.6864700317383,18.6865844726562,18.6867046356201,18.6868190765381,18.6869297027588,18.687047958374,18.6871604919434,18.68727684021,18.6873912811279,18.6875114440918,18.6876239776611,18.6877422332764,18.6878604888916,18.6879711151123,18.688081741333,18.6882057189941,18.6883144378662,18.6884307861328,18.688549041748,18.688663482666,18.6887760162354,18.6888961791992,18.6890125274658,18.6891231536865,18.6892375946045,18.6893558502197,18.689474105835,18.6895885467529,18.6897029876709,18.6898155212402,18.6899280548096,18.6900463104248,18.69016456604,18.6902770996094,18.6903972625732,18.6905078887939,18.6906280517578,18.6907405853271,18.6908569335938,18.6909770965576,18.6910877227783,18.6912002563477,18.6913223266602,18.6914386749268,18.6915454864502,18.6916694641113,18.691780090332,18.6918907165527,18.6920108795166,18.6921291351318,18.6922397613525,18.6923599243164,18.6924705505371,18.6925888061523,18.6927013397217,18.6928176879883,18.6929378509521,18.6930503845215,18.6931629180908,18.6932830810547,18.6933917999268,18.6935119628906,18.6936302185059,18.6937427520752,18.6938610076904,18.6939697265625,18.6940879821777,18.6942043304443,18.6943206787109,18.6944408416748,18.6945514678955,18.6946620941162,18.6947803497314,18.6949005126953,18.6950130462646,18.6951313018799,18.6952419281006,18.6953601837158,18.6954708099365,18.695592880249,18.6957092285156,18.6958198547363,18.6959381103516,18.6960525512695,18.6961708068848,18.6962833404541,18.6963977813721,18.6965179443359,18.6966304779053,18.6967487335205,18.6968612670898,18.6969738006592,18.6970901489258,18.6972103118896,18.6973209381104,18.6974411010742,18.6975574493408,18.6976680755615,18.6977882385254,18.6978988647461,18.6980171203613,18.6981315612793,18.6982479095459,18.6983642578125,18.6984786987305,18.6985969543457,18.6987075805664,18.6988277435303,18.6989364624023,18.6990566253662,18.6991748809814,18.6992874145508,18.6994037628174,18.6995182037354,18.699634552002,18.6997470855713,18.6998672485352,18.6999835968018,18.7000923156738,18.7002143859863,18.7003307342529,18.7004432678223,18.7005558013916,18.7006759643555,18.7007884979248,18.7009029388428,18.701021194458,18.7011394500732,18.7012538909912,18.7013683319092,18.7014808654785,18.7016010284424,18.7017135620117,18.7018299102783,18.7019462585449,18.7020587921143,18.7021770477295,18.7022972106934,18.7024097442627,18.7025279998779,18.7026348114014,18.7027549743652,18.7028675079346,18.7029838562012,18.7031021118164,18.7032146453857,18.703332901001,18.7034435272217,18.7035636901855,18.7036743164062,18.7037906646729,18.7039108276367,18.7040233612061,18.7041397094727,18.7042598724365,18.7043704986572,18.7044887542725,18.7046051025391,18.704719543457,18.7048301696777,18.7049503326416,18.7050647735596,18.7051773071289,18.7052955627441,18.7054138183594,18.7055282592773,18.7056407928467,18.7057609558105,18.7058753967285,18.7059917449951,18.7061042785645,18.7062225341797,18.7063312530518,18.706449508667,18.7065696716309,18.7066898345947,18.7068004608154,18.7069149017334,18.7070331573486,18.707145690918,18.7072639465332,18.7073822021484,18.7074947357178,18.707612991333,18.7077217102051,18.7078437805176,18.7079524993896,18.7080745697021,18.7081871032715,18.7082977294922,18.7084197998047,18.7085342407227,18.7086563110352,18.7087669372559,18.7088832855225,18.7090015411377,18.709114074707,18.7092304229736,18.7093391418457,18.7094612121582,18.7095718383789,18.7096881866455,18.7098064422607
18.4572105407715,18.4573307037354,18.4574375152588,18.4575500488281,18.4576663970947,18.4577808380127,18.4578876495361,18.4580039978027,18.4581146240234,18.4582233428955,18.4583396911621,18.4584560394287,18.4585609436035,18.4586811065674,18.4587917327881,18.4589042663574,18.4590167999268,18.4591312408447,18.4592380523682,18.4593524932861,18.4594669342041,18.4595813751221,18.4596900939941,18.4598007202148,18.4599151611328,18.4600257873535,18.4601440429688,18.4602546691895,18.4603652954102,18.4604759216309,18.4605884552002,18.4607028961182,18.4608211517334,18.4609279632568,18.4610443115234,18.4611549377441,18.4612636566162,18.4613857269287,18.4614944458008,18.4615993499756,18.4617214202881,18.4618301391602,18.4619426727295,18.4620590209961,18.4621696472168,18.4622821807861,18.4623947143555,18.4625072479248,18.4626216888428,18.4627361297607,18.4628410339355,18.4629554748535,18.4630718231201,18.4631805419922,18.4632968902588,18.4634075164795,18.4635162353516,18.4636344909668,18.4637451171875,18.4638614654541,18.4639739990234,18.4640808105469,18.4641971588135,18.4643115997314,18.4644184112549,18.4645328521729,18.4646453857422,18.4647541046143,18.4648761749268,18.4649868011475,18.4650936126709,18.4652118682861,18.4653224945068,18.4654369354248,18.4655494689941,18.4656620025635,18.4657745361328,18.4658851623535,18.4659996032715,18.4661178588867,18.4662227630615,18.4663352966309,18.4664535522461,18.4665565490723,18.4666786193848,18.4667873382568,18.4669017791748,18.4670143127441,18.4671249389648,18.4672355651855,18.4673538208008,18.4674644470215,18.4675750732422,18.4676895141602,18.4677963256836,18.4679145812988,18.4680309295654,18.4681434631348,18.4682521820068,18.4683666229248,18.4684753417969,18.4685916900635,18.4687023162842,18.4688186645508,18.4689235687256,18.4690475463867,18.4691581726074,18.4692707061768,18.4693832397461,18.4694900512695,18.4696025848389,18.4697151184082,18.4698295593262,18.46994972229,18.4700527191162,18.4701690673828,18.4702835083008,18.4703979492188,18.4705085754395,18.4706211090088,18.4707298278809,18.4708423614502,18.4709548950195,18.4710731506348,18.4711799621582,18.4712982177734,18.4714107513428,18.4715270996094,18.4716339111328,18.4717483520508,18.4718647003174,18.4719734191895,18.4720821380615,18.4722061157227,18.4723072052002,18.4724254608154,18.4725379943848,18.4726486206055,18.4727611541748,18.4728736877441,18.4729919433594,18.4730987548828,18.4732151031494,18.4733276367188,18.4734401702881,18.4735565185547,18.4736652374268,18.4737815856934,18.4738903045654,18.474006652832,18.4741172790527,18.4742298126221,18.4743404388428,18.4744529724121,18.4745655059814,18.4746761322021,18.474796295166,18.4749088287354,18.4750175476074,18.4751300811768,18.4752445220947,18.4753551483154,18.4754638671875,18.4755859375,18.4756965637207,18.4758110046387,18.4759216308594,18.4760341644287,18.4761447906494,18.4762573242188,18.4763774871826,18.4764823913574,18.4766025543213,18.4767112731934,18.4768238067627,18.4769325256348,18.4770469665527,18.4771690368652,18.4772701263428,18.477388381958,18.4774990081787,18.4776134490967,18.477725982666,18.4778366088867,18.477954864502,18.4780616760254,18.4781799316406,18.47829246521,18.478401184082,18.4785137176514,18.4786281585693,18.4787445068359,18.4788570404053,18.478967666626,18.4790782928467,18.4791889190674,18.4793033599854,18.4794216156006,18.4795265197754,18.479642868042,18.47975730896,18.4798755645752,18.47998046875,18.4801006317139,18.4802093505859,18.4803218841553,18.4804306030273,18.4805450439453,18.4806613922119,18.4807682037354,18.4808864593506,18.4809970855713,18.4811134338379,18.4812240600586,18.4813423156738,18.4814414978027,18.481559753418,18.4816741943359,18.4817848205566,18.4818992614746,18.4820194244385,18.4821281433105,18.4822425842285,18.4823513031006,18.4824638366699,18.4825839996338,18.4826927185059,18.4828033447266,18.4829196929932,18.4830303192139,18.4831409454346,18.4832592010498,18.4833698272705,18.4834804534912,18.4835948944092,18.4837131500244,18.4838161468506,18.4839344024658,18.4840469360352,18.4841594696045,18.4842739105225,18.4843883514404,18.4844932556152,18.4846115112305,18.4847240447998,18.484842300415,18.4849472045898,18.4850635528564,18.4851741790771,18.4852886199951,18.4853992462158,18.4855175018311,18.4856281280518,18.4857406616211,18.4858512878418,18.485969543457,18.4860744476318,18.4861946105957,18.4863014221191,18.4864177703857,18.4865264892578,18.4866466522217,18.486759185791,18.4868679046631,18.4869804382324,18.4870986938477,18.4872035980225,18.4873237609863,18.4874362945557,18.4875507354736,18.4876575469971,18.4877758026123,18.487886428833,18.4879989624023,18.488109588623,18.4882278442383,18.488338470459,18.4884510040283,18.4885635375977,18.4886779785156,18.488790512085,18.4889030456543,18.4890155792236,18.4891262054443,18.4892463684082,18.4893550872803,18.4894676208496,18.4895782470703,18.4896965026855,18.4898109436035,18.489917755127,18.4900283813477,18.4901485443115,18.490255355835,18.4903717041016,18.4904823303223,18.4905986785889,18.4907054901123,18.4908218383789,18.4909381866455,18.4910488128662,18.4911632537842,18.4912757873535,18.4913883209229,18.4914989471436,18.4916191101074,18.4917259216309,18.4918403625488,18.4919528961182,18.4920692443848,18.4921760559082,18.4922924041748,18.4924011230469,18.4925212860107,18.4926338195801,18.4927444458008,18.4928550720215,18.4929656982422,18.4930839538574,18.4931945800781,18.4933090209961,18.4934196472168,18.4935359954834,18.4936466217041,18.4937591552734,18.4938774108887,18.493989944458,18.4940986633301,18.4942111968994,18.4943294525146,18.4944362640381,18.4945526123047,18.494665145874,18.4947814941406,18.4948902130127,18.4950046539307,18.4951229095459,18.4952278137207,18.4953460693359,18.4954566955566,18.4955730438232,18.4956855773926,18.4957981109619,18.4959049224854,18.4960174560547,18.4961376190186,18.4962482452393,18.49635887146,18.4964733123779,18.4965877532959,18.4966983795166,18.4968090057373,18.4969272613525,18.4970397949219,18.4971504211426,18.4972629547119,18.4973773956299,18.4974937438965,18.4976043701172,18.4977188110352,18.4978313446045,18.4979419708252,18.4980525970459,18.4981727600098,18.4982852935791,18.4983921051025,18.498514175415,18.4986228942871,18.4987335205078,18.4988536834717,18.4989624023438,18.4990730285645,18.4991874694824,18.499303817749,18.4994163513184,18.4995250701904,18.4996433258057,18.4997539520264,18.4998664855957,18.499979019165,18.5000953674316,18.5002059936523,18.5003147125244,18.5004329681396,18.500545501709,18.500659942627,18.5007724761963,18.5008869171143,18.500997543335,18.5011081695557,18.5012264251709,18.501335144043,18.5014476776123,18.5015640258789,18.5016765594482,18.5017890930176,18.5019054412842,18.5020179748535,18.5021266937256,18.5022373199463,18.5023574829102,18.5024681091309,18.5025768280029,18.5026950836182,18.5028076171875,18.5029182434082,18.5030364990234,18.5031452178955,18.5032577514648,18.5033760070801,18.5034866333008,18.5036029815674,18.5037097930908,18.5038242340088,18.5039367675781,18.5040512084961,18.5041656494141,18.5042762756348,18.5043888092041,18.5045051574707,18.50461769104,18.5047359466553,18.504846572876,18.504955291748,18.5050754547119,18.5051784515381,18.5052947998047,18.5054168701172,18.5055255889893,18.5056324005127,18.5057487487793,18.5058631896973,18.505973815918,18.5060882568359,18.5062007904053,18.5063152313232,18.5064239501953,18.5065422058105,18.5066547393799,18.5067615509033,18.5068836212158,18.5069942474365,18.5071029663086,18.5072250366211,18.5073337554932,18.5074501037598,18.5075626373291,18.5076732635498,18.5077877044678,18.5079021453857,18.5080108642578,18.508129119873,18.5082397460938,18.5083503723145,18.5084686279297,18.5085792541504,18.5086898803711,18.5088062286377,18.5089206695557,18.5090312957764,18.509147644043,18.5092582702637,18.5093669891357,18.509485244751,18.5095996856689,18.5097160339355,18.5098247528076,18.5099353790283,18.5100536346436,18.5101642608643,18.5102767944336,18.5103931427002,18.5105018615723,18.510612487793,18.5107326507568,18.5108451843262,18.5109558105469,18.5110702514648,18.5111808776855,18.5112934112549,18.5114097595215,18.5115203857422,18.5116367340088,18.5117492675781,18.5118598937988,18.5119762420654,18.5120906829834,18.5121994018555,18.5123157501221,18.5124340057373,18.5125427246094,18.5126552581787,18.5127735137939,18.5128803253174,18.5129928588867,18.513111114502,18.5132236480713,18.513334274292,18.5134468078613,18.5135612487793,18.5136699676514,18.5137882232666,18.5138988494873,18.514009475708,18.5141258239746,18.5142440795898,18.5143508911133,18.5144653320312,18.5145854949951,18.5146923065186,18.5148048400879
18.2674198150635,18.2675247192383,18.2676372528076,18.2677478790283,18.267858505249,18.2679710388184,18.2680816650391,18.2681941986084,18.2682971954346,18.2684097290039,18.268518447876,18.268627166748,18.2687358856201,18.268856048584,18.2689647674561,18.2690696716309,18.2691841125488,18.2692947387695,18.2693996429443,18.269510269165,18.2696228027344,18.2697353363037,18.269847869873,18.2699546813965,18.2700672149658,18.2701740264893,18.2702808380127,18.2703971862793,18.2705059051514,18.2706184387207,18.2707290649414,18.2708396911621,18.2709445953369,18.2710590362549,18.2711715698242,18.2712745666504,18.2713832855225,18.2714996337891,18.2716121673584,18.2717189788818,18.2718315124512,18.2719440460205,18.2720470428467,18.2721557617188,18.2722702026367,18.2723789215088,18.2724933624268,18.2726039886475,18.2727165222168,18.2728176116943,18.2729301452637,18.2730407714844,18.2731533050537,18.273265838623,18.2733783721924,18.2734775543213,18.2735919952393,18.2737045288086,18.2738132476807,18.2739276885986,18.2740383148193,18.2741508483887,18.2742557525635,18.2743644714355,18.2744750976562,18.274585723877,18.2746963500977,18.2748069763184,18.2749195098877,18.2750244140625,18.2751369476318,18.2752513885498,18.2753582000732,18.2754726409912,18.2755813598633,18.2756938934326,18.2757968902588,18.2759113311768,18.276029586792,18.2761325836182,18.2762432098389,18.2763538360596,18.2764644622803,18.276575088501,18.2766895294189,18.2768001556396,18.2769012451172,18.2770137786865,18.2771263122559,18.2772388458252,18.2773494720459,18.277458190918,18.2775707244873,18.2776756286621,18.2777900695801,18.2778949737549,18.2780075073242,18.2781219482422,18.2782325744629,18.2783374786377,18.2784442901611,18.2785625457764,18.2786750793457,18.2787837982178,18.2788887023926,18.2790031433105,18.2791137695312,18.2792263031006,18.2793350219727,18.2794456481934,18.2795543670654,18.2796630859375,18.2797756195068,18.2798862457275,18.2799968719482,18.2801094055176,18.280216217041,18.2803268432617,18.2804412841797,18.280553817749,18.2806587219238,18.2807693481445,18.2808780670166,18.2809906005859,18.2811012268066,18.281213760376,18.2813243865967,18.281436920166,18.2815456390381,18.2816581726074,18.2817630767822,18.2818737030029,18.2819805145264,18.2820930480957,18.282205581665,18.2823181152344,18.2824268341064,18.2825412750244,18.2826480865479,18.2827587127686,18.282865524292,18.2829742431641,18.2830905914307,18.2831974029541,18.2833061218262,18.2834167480469,18.2835330963135,18.2836418151855,18.2837524414062,18.2838649749756,18.283971786499,18.2840785980225,18.2841987609863,18.2843074798584,18.2844085693359,18.2845249176025,18.2846336364746,18.2847461700439,18.2848587036133,18.284969329834,18.2850723266602,18.285192489624,18.2853012084961,18.2854137420654,18.285514831543,18.2856254577637,18.2857456207275,18.2858467102051,18.285961151123,18.2860794067383,18.2861862182617,18.2862930297852,18.2864017486572,18.2865180969238,18.2866268157959,18.286735534668,18.2868480682373,18.2869606018066,18.2870712280273,18.2871837615967,18.2872905731201,18.2873954772949,18.2875156402588,18.2876224517822,18.287727355957,18.2878379821777,18.2879467010498,18.2880668640137,18.2881717681885,18.2882823944092,18.2883949279785,18.2884998321533,18.2886123657227,18.288724899292,18.2888336181641,18.288948059082,18.2890586853027,18.2891654968262,18.2892799377441,18.2893924713135,18.2895011901855,18.289608001709,18.2897167205811,18.2898330688477,18.2899417877197,18.2900505065918,18.2901592254639,18.2902793884277,18.2903823852539,18.2904930114746,18.2906055450439,18.2907161712646,18.2908248901367,18.2909374237061,18.2910442352295,18.2911567687988,18.2912731170654,18.2913799285889,18.2914886474609,18.2915992736816,18.2917137145996,18.2918148040771,18.2919330596924,18.2920436859131,18.2921543121338,18.2922592163086,18.2923793792725,18.2924861907959,18.2925910949707,18.2927017211914,18.292818069458,18.2929286956787,18.2930355072021,18.2931461334229,18.2932605743408,18.2933654785156,18.293478012085,18.293586730957,18.293701171875,18.2938079833984,18.2939186096191,18.294038772583,18.2941417694092,18.2942523956299,18.2943630218506,18.2944717407227,18.2945823669434,18.2946968078613,18.294807434082,18.2949161529541,18.2950248718262,18.2951374053955,18.2952480316162,18.2953605651855,18.2954692840576,18.2955780029297,18.2956886291504,18.2957992553711,18.2959117889404,18.2960262298584,18.2961330413818,18.2962436676025,18.2963562011719,18.2964668273926,18.2965755462646,18.296688079834,18.2967948913574,18.2969074249268,18.2970199584961,18.2971305847168,18.2972393035889,18.2973499298096,18.2974586486816,18.297571182251,18.2976837158203,18.297794342041,18.2979030609131,18.2980117797852,18.2981224060059,18.2982349395752,18.2983493804932,18.2984561920166,18.2985668182373,18.2986793518066,18.2987880706787,18.2988967895508,18.2990112304688,18.2991199493408,18.2992305755615,18.2993392944336,18.2994518280029,18.2995643615723,18.2996711730957,18.2997817993164,18.2998924255371,18.3000087738037,18.3001136779785,18.3002243041992,18.3003387451172,18.3004455566406,18.30055809021,18.300666809082,18.3007850646973,18.3008861541748,18.3009967803955,18.3011169433594,18.3012218475342,18.3013362884521,18.3014469146729,18.3015518188477,18.3016662597656,18.3017768859863,18.3018894195557,18.3020000457764,18.3021106719971,18.3022212982178,18.3023319244385,18.3024425506592,18.3025531768799,18.3026599884033,18.3027725219727,18.3028831481934,18.3029937744141,18.303108215332,18.3032131195068,18.3033237457275,18.3034362792969,18.3035449981689,18.3036575317383,18.3037757873535,18.3038768768311,18.3039875030518,18.304105758667,18.3042087554932,18.3043251037598,18.3044357299805,18.3045406341553,18.3046550750732,18.3047676086426,18.3048782348633,18.3049850463867,18.3050975799561,18.3052101135254,18.3053207397461,18.3054294586182,18.3055400848389,18.3056507110596,18.3057594299316,18.3058700561523,18.3059883117676,18.3060932159424,18.3062000274658,18.3063182830811,18.3064212799072,18.3065395355225,18.3066501617432,18.3067569732666,18.3068714141846,18.3069820404053,18.307092666626,18.307201385498,18.3073120117188,18.3074188232422,18.3075370788574,18.3076419830322,18.3077526092529,18.3078727722168,18.3079719543457,18.3080883026123,18.3082008361816,18.3083057403564,18.308422088623,18.3085308074951,18.3086414337158,18.3087520599365,18.3088645935059,18.3089733123779,18.3090839385986,18.3091907501221,18.3093090057373,18.3094139099121,18.3095245361328,18.309642791748,18.3097496032715,18.3098602294922,18.3099727630615,18.3100814819336,18.3101921081543,18.3103008270264,18.3104114532471,18.3105278015137,18.3106327056885,18.3107490539551,18.3108596801758,18.3109645843506,18.3110809326172,18.3111896514893,18.3113021850586,18.3114128112793,18.3115177154541,18.3116321563721,18.3117427825928,18.3118515014648,18.3119697570801,18.3120708465576,18.3121871948242,18.3122997283936,18.3124103546143,18.3125190734863,18.3126316070557,18.3127403259277,18.3128471374512,18.3129596710205,18.3130779266357,18.3131809234619,18.3132953643799,18.3134059906006,18.3135147094727,18.3136291503906,18.3137378692627,18.3138446807861,18.3139572143555,18.3140678405762,18.3141822814941,18.3142871856689,18.3144054412842,18.3145122528076,18.314624786377,18.3147354125977,18.3148460388184,18.314962387085,18.3150653839111,18.3151760101318,18.3152904510498,18.3154029846191,18.3155117034912,18.3156204223633,18.315731048584,18.3158435821533,18.315954208374,18.3160724639893,18.3161754608154,18.3162860870361,18.3163986206055,18.3165073394775,18.3166179656982,18.3167304992676,18.3168430328369,18.3169479370117,18.317066192627,18.3171768188477,18.3172855377197,18.3173942565918,18.3175048828125,18.3176231384277,18.3177280426025,18.3178443908691,18.3179531097412,18.3180618286133,18.3181705474854,18.3182830810547,18.3184013366699,18.3185043334961,18.3186168670654,18.3187294006348,18.3188400268555,18.3189487457275,18.3190612792969,18.3191680908203,18.319278717041,18.3193950653076,18.319507598877,18.319616317749,18.3197250366211,18.3198356628418,18.3199443817139,18.3200550079346,18.3201732635498,18.3202838897705,18.3203887939453,18.320499420166,18.3206119537354,18.3207206726074,18.3208332061768,18.3209476470947,18.3210525512695,18.3211688995361,18.3212757110596,18.3213901519775,18.3215007781982,18.3216114044189,18.3217258453369,18.3218326568604,18.3219451904297,18.3220558166504,18.3221702575684,18.3222732543945,18.3223896026611,18.3225002288818,18.3226108551025,18.322717666626,18.3228282928467,18.322940826416,18.323055267334,18.3231658935547,18.3232746124268,18.3233814239502,18.3234939575195,18.3236122131348,18.3237133026123,18.3238334655762
18.081485748291,18.0815868377686,18.0816974639893,18.0818119049072,18.0819149017334,18.0820255279541,18.0821342468262,18.082239151001,18.0823497772217,18.0824565887451,18.0825614929199,18.0826683044434,18.0827751159668,18.0828876495361,18.0829887390137,18.083101272583,18.0832099914551,18.0833168029785,18.0834274291992,18.0835361480713,18.083646774292,18.0837497711182,18.0838603973389,18.0839710235596,18.0840759277344,18.0841865539551,18.0842933654785,18.0844058990479,18.0845050811768,18.0846195220947,18.0847244262695,18.0848331451416,18.0849475860596,18.0850486755371,18.0851573944092,18.0852603912354,18.0853710174561,18.085485458374,18.0855903625488,18.0856952667236,18.0858058929443,18.0859107971191,18.0860214233398,18.0861339569092,18.0862407684326,18.0863437652588,18.0864543914795,18.0865631103516,18.086669921875,18.0867786407471,18.0868873596191,18.0869903564453,18.0871047973633,18.087215423584,18.0873260498047,18.087423324585,18.0875358581543,18.087646484375,18.0877513885498,18.0878639221191,18.0879707336426,18.0880756378174,18.0881843566895,18.0882968902588,18.0883979797363,18.0885066986084,18.0886154174805,18.0887241363525,18.0888347625732,18.0889434814453,18.0890464782715,18.0891571044922,18.0892696380615,18.0893726348877,18.0894794464111,18.0895919799805,18.0896911621094,18.0898036956787,18.089916229248,18.0900173187256,18.0901317596436,18.0902404785156,18.0903415679932,18.0904502868652,18.0905628204346,18.0906753540039,18.0907783508301,18.0908832550049,18.0909957885742,18.091100692749,18.0912113189697,18.0913238525391,18.091423034668,18.0915298461914,18.0916442871094,18.0917568206787,18.0918579101562,18.0919666290283,18.0920753479004,18.0921821594238,18.0922927856445,18.0924034118652,18.0925121307373,18.0926170349121,18.0927219390869,18.0928325653076,18.092945098877,18.0930500030518,18.0931549072266,18.0932693481445,18.0933704376221,18.0934829711914,18.0935916900635,18.0936985015869,18.0938053131104,18.0939159393311,18.0940246582031,18.0941333770752,18.09423828125,18.0943489074707,18.0944595336914,18.0945701599121,18.0946750640869,18.0947818756104,18.0948944091797,18.0950012207031,18.0951061248779,18.09521484375,18.0953273773193,18.0954284667969,18.0955390930176,18.0956478118896,18.095760345459,18.0958633422852,18.0959758758545,18.0960788726807,18.0961818695068,18.0962944030762,18.0964069366455,18.0965099334717,18.0966186523438,18.0967292785645,18.0968360900879,18.0969429016113,18.0970516204834,18.0971584320068,18.0972747802734,18.097375869751,18.097484588623,18.0975952148438,18.0977039337158,18.0978145599365,18.0979194641113,18.098030090332,18.0981407165527,18.0982475280762,18.098352432251,18.0984592437744,18.0985736846924,18.0986804962158,18.0987854003906,18.0988941192627,18.0990028381348,18.0991039276123,18.0992202758789,18.099328994751,18.0994319915771,18.0995388031006,18.0996475219727,18.099760055542,18.0998706817627,18.0999813079834,18.1000804901123,18.1001949310303,18.1003017425537,18.100414276123,18.1005229949951,18.1006240844727,18.100736618042,18.1008453369141,18.1009483337402,18.1010570526123,18.101167678833,18.1012725830078,18.1013813018799,18.1014919281006,18.1016044616699,18.1017093658447,18.1018161773682,18.1019287109375,18.1020355224609,18.1021423339844,18.1022548675537,18.1023559570312,18.1024627685547,18.102575302124,18.1026878356934,18.1027908325195,18.1029014587402,18.103006362915,18.1031169891357,18.1032276153564,18.1033306121826,18.103443145752,18.1035499572754,18.1036605834961,18.1037673950195,18.1038761138916,18.103982925415,18.1040897369385,18.1041984558105,18.104305267334,18.1044158935547,18.1045246124268,18.1046352386475,18.1047439575195,18.1048545837402,18.104959487915,18.1050701141357,18.1051769256592,18.105281829834,18.1053867340088,18.1055011749268,18.1056079864502,18.105712890625,18.1058235168457,18.1059303283691,18.1060390472412,18.1061515808105,18.1062641143799,18.1063690185547,18.1064720153809,18.1065826416016,18.1066913604736,18.1067962646484,18.1069068908691,18.1070137023926,18.1071224212646,18.1072330474854,18.1073436737061,18.1074523925781,18.1075553894043,18.107666015625,18.1077728271484,18.1078777313232,18.1079883575439,18.1080989837646,18.1082057952881,18.1083145141602,18.1084251403809,18.1085376739502,18.1086406707764,18.1087474822998,18.1088581085205,18.1089668273926,18.1090755462646,18.1091861724854,18.1092948913574,18.1093997955322,18.1095085144043,18.109619140625,18.1097202301025,18.1098327636719,18.1099395751953,18.1100482940674,18.1101608276367,18.1102714538574,18.1103782653809,18.1104831695557,18.1105918884277,18.1107006072998,18.1108074188232,18.1109199523926,18.1110286712646,18.1111354827881,18.1112422943115,18.1113529205322,18.1114597320557,18.1115646362305,18.1116714477539,18.1117820739746,18.1118927001953,18.112003326416,18.1121120452881,18.1122188568115,18.1123237609863,18.1124324798584,18.1125431060791,18.1126537322998,18.1127605438232,18.1128692626953,18.1129817962646,18.1130847930908,18.1131954193115,18.1133041381836,18.113410949707,18.1135215759277,18.1136322021484,18.1137351989746,18.1138439178467,18.1139507293701,18.1140613555908,18.1141719818115,18.1142826080322,18.1143913269043,18.1144943237305,18.1146011352539,18.1147117614746,18.1148204803467,18.1149311065674,18.1150417327881,18.1151485443115,18.1152534484863,18.1153602600098,18.1154708862305,18.1155834197998,18.1156883239746,18.1157989501953,18.1159076690674,18.1160125732422,18.1161212921143,18.1162281036377,18.1163387298584,18.1164474487305,18.1165599822998,18.1166610717773,18.1167736053467,18.1168785095215,18.1169872283936,18.1170978546143,18.1172103881836,18.117317199707,18.1174201965332,18.1175289154053,18.1176376342773,18.117748260498,18.1178588867188,18.1179656982422,18.1180744171143,18.1181774139404,18.1182880401611,18.1183986663818,18.1185092926025,18.118616104126,18.118724822998,18.1188373565674,18.1189384460449,18.1190547943115,18.119161605835,18.1192665100098,18.1193752288818,18.1194858551025,18.1195945739746,18.1196994781494,18.1198120117188,18.1199207305908,18.120023727417,18.1201324462891,18.1202449798584,18.1203479766846,18.1204605102539,18.120569229126,18.1206798553467,18.1207847595215,18.1208953857422,18.1210060119629,18.1211071014404,18.1212196350098,18.1213283538818,18.1214351654053,18.121545791626,18.121654510498,18.1217632293701,18.1218700408936,18.121976852417,18.122091293335,18.1221942901611,18.1223049163818,18.1224117279053,18.1225261688232,18.122631072998,18.1227397918701,18.1228504180908,18.122953414917,18.1230640411377,18.123176574707,18.1232795715332,18.1233863830566,18.1235008239746,18.123607635498,18.1237182617188,18.1238250732422,18.1239356994629,18.1240367889404,18.124153137207,18.1242656707764,18.1243705749512,18.124475479126,18.124584197998,18.1246929168701,18.1248035430908,18.1249084472656,18.1250171661377,18.1251277923584,18.1252403259277,18.1253471374512,18.1254577636719,18.1255569458008,18.1256656646729,18.1257839202881,18.1258888244629,18.1259956359863,18.1261005401611,18.1262130737305,18.1263236999512,18.1264324188232,18.1265430450439,18.1266479492188,18.1267566680908,18.1268672943115,18.1269702911377,18.1270790100098,18.1271915435791,18.1273021697998,18.1274032592773,18.1275157928467,18.1276264190674,18.1277332305908,18.1278400421143,18.127950668335,18.1280612945557,18.1281700134277,18.1282806396484,18.1283855438232,18.1284885406494,18.1286010742188,18.1287155151367,18.1288185119629,18.128927230835,18.1290321350098,18.1291427612305,18.1292533874512,18.1293621063232,18.1294727325439,18.1295776367188,18.1296882629395,18.1297988891602,18.1298999786377,18.1300144195557,18.1301250457764,18.1302337646484,18.1303367614746,18.1304512023926,18.1305618286133,18.1306629180908,18.1307716369629,18.130880355835,18.1309947967529,18.1310977935791,18.1312103271484,18.1313152313232,18.1314220428467,18.131534576416,18.1316432952881,18.1317520141602,18.1318607330322,18.1319675445557,18.1320781707764,18.1321887969971,18.1322956085205,18.1324043273926,18.1325092315674,18.1326236724854,18.1327323913574,18.1328353881836,18.1329441070557,18.133056640625,18.1331672668457,18.1332702636719,18.1333789825439,18.1334953308105,18.1335945129395,18.1337032318115,18.1338138580322,18.1339302062988,18.134033203125,18.1341419219971,18.1342506408691,18.1343574523926,18.1344699859619,18.1345748901367,18.1346874237061,18.1347923278809,18.1349010467529,18.135009765625,18.1351222991943,18.1352310180664,18.1353359222412,18.1354465484619,18.1355571746826,18.1356639862061,18.1357765197754,18.1358814239502,18.1359882354736,18.136100769043,18.136209487915,18.1363162994385,18.1364288330078,18.1365280151367,18.1366424560547,18.1367511749268
