18.9784297943115,18.9788818359375,18.9793243408203,18.9797801971436,18.9802303314209,18.9806785583496,18.9811267852783,18.9815788269043,18.9820232391357,18.9824771881104,18.9829196929932,18.9833755493164,18.9838218688965,18.9842758178711,18.9847259521484,18.9851741790771,18.9856224060059,18.9860687255859,18.9865188598633,18.9869709014893,18.9874210357666,18.9878711700439,18.9883251190186,18.9887714385986,18.9892177581787,18.9896717071533,18.990119934082,18.990571975708,18.9910202026367,18.9914741516113,18.9919242858887,18.9923686981201,18.9928169250488,18.9932708740234,18.9937229156494,18.9941673278809,18.9946212768555,18.9950695037842,18.9955196380615,18.9959716796875,18.9964199066162,18.9968681335449,18.9973201751709,18.9977703094482,18.9982204437256,18.9986763000488,18.9991188049316,18.9995708465576,19.0000267028809,19.0004749298096,19.0009269714355,19.0013732910156,19.0018215179443,19.0022716522217,19.002721786499,19.0031757354736,19.0036296844482,19.0040798187256,19.0045261383057,19.0049800872803,19.0054321289062,19.005880355835,19.0063304901123,19.0067768096924,19.0072326660156,19.0076847076416,19.0081367492676,19.0085887908936,19.0090312957764,19.0094833374023,19.0099411010742,19.0103893280029,19.0108375549316,19.0112895965576,19.0117378234863,19.0121917724609,19.0126399993896,19.013090133667,19.0135440826416,19.0139942169189,19.0144481658936,19.0148944854736,19.0153484344482,19.0158042907715,19.0162525177002,19.0166988372803,19.0171508789062,19.0176010131836,19.0180568695068,19.0185089111328,19.0189571380615,19.0194053649902,19.0198574066162,19.0203094482422,19.0207576751709,19.0212116241455,19.0216636657715,19.0221176147461,19.0225639343262,19.0230140686035,19.0234642028809,19.0239200592041,19.0243721008301,19.0248279571533,19.0252723693848,19.0257263183594,19.0261821746826,19.0266265869141,19.02707862854,19.027530670166,19.0279865264893,19.0284366607666,19.0288887023926,19.0293426513672,19.0297889709473,19.0302429199219,19.0306949615479,19.0311489105225,19.0316028594971,19.032054901123,19.032506942749,19.0329570770264,19.0334033966064,19.0338554382324,19.034309387207,19.0347633361816,19.035213470459,19.0356636047363,19.0361175537109,19.0365715026855,19.0370235443115,19.0374736785889,19.0379257202148,19.0383777618408,19.0388336181641,19.03928565979,19.0397396087646,19.0401802062988,19.0406398773193,19.0410919189453,19.0415439605713,19.0419940948486,19.0424461364746,19.0429058074951,19.0433521270752,19.0438079833984,19.0442581176758,19.044713973999,19.0451679229736,19.045618057251,19.0460681915283,19.0465297698975,19.0469703674316,19.0474281311035,19.0478782653809,19.0483303070068,19.0487880706787,19.0492382049561,19.0496959686279,19.0501441955566,19.050594329834,19.0510444641113,19.0515022277832,19.0519580841064,19.0524063110352,19.052864074707,19.053316116333,19.0537643432617,19.054220199585,19.0546722412109,19.0551319122314,19.0555801391602,19.0560359954834,19.0564861297607,19.056941986084,19.0573902130127,19.0578460693359,19.0582981109619,19.0587539672852,19.0592079162598,19.0596580505371,19.0601100921631,19.0605640411377,19.0610198974609,19.061466217041,19.0619220733643,19.0623779296875,19.0628356933594,19.0632858276367,19.0637378692627,19.0641860961914,19.0646419525146,19.0650997161865,19.0655536651611,19.0659961700439,19.0664520263672,19.0669116973877,19.0673656463623,19.067813873291,19.0682640075684,19.0687217712402,19.0691776275635,19.0696315765381,19.0700836181641,19.0705413818359,19.070987701416,19.0714454650879,19.0718975067139,19.0723495483398,19.0728054046631,19.0732612609863,19.0737152099609,19.0741672515869,19.0746154785156,19.0750713348389,19.0755310058594,19.075984954834,19.0764389038086,19.0768928527832,19.0773487091064,19.0777950286865,19.0782489776611,19.0787086486816,19.0791606903076,19.0796165466309,19.0800704956055,19.0805225372314,19.0809803009033,19.0814304351807,19.0818824768066,19.0823421478271,19.0827960968018,19.0832481384277,19.0837001800537,19.0841617584229,19.0846157073975,19.0850677490234,19.085521697998,19.085973739624,19.0864334106445,19.0868854522705,19.0873394012451,19.087797164917,19.0882434844971,19.0887031555176,19.0891551971436,19.0896148681641,19.09006690979,19.0905265808105,19.0909767150879,19.0914306640625,19.0918807983398,19.0923404693604,19.0927925109863,19.0932502746582,19.0937023162842,19.0941619873047,19.0946140289307,19.095064163208,19.0955219268799,19.0959777832031,19.0964336395264,19.0968914031982,19.0973415374756,19.0978012084961,19.098258972168,19.0987033843994,19.0991592407227,19.0996189117432,19.1000785827637,19.1005306243896,19.1009845733643,19.1014404296875,19.1018962860107,19.1023464202881,19.1028022766113,19.1032600402832,19.1037158966064,19.104175567627,19.1046257019043,19.1050815582275,19.1055335998535,19.1059894561768,19.1064491271973,19.1069049835205,19.1073589324951,19.1078186035156,19.1082668304443,19.1087284088135,19.1091823577881,19.1096305847168,19.1100883483887,19.1105480194092,19.1110019683838,19.1114597320557,19.1119136810303,19.1123676300049,19.1128253936768,19.1132793426514,19.1137351989746,19.1141929626465,19.1146488189697,19.115104675293,19.1155586242676,19.1160087585449,19.1164684295654,19.11692237854,19.1173839569092,19.1178398132324,19.118293762207,19.1187534332275,19.1192016601562,19.1196613311768,19.1201171875,19.1205730438232,19.1210289001465,19.1214904785156,19.1219444274902,19.1223983764648,19.1228561401367,19.1233100891113,19.1237659454346,19.1242218017578,19.1246814727783,19.1251373291016,19.1255912780762,19.1260509490967,19.1264991760254,19.1269626617432,19.1274166107178,19.127872467041,19.1283321380615,19.1287860870361,19.1292457580566,19.129695892334,19.1301555633545,19.1306095123291,19.1310710906982,19.1315250396729,19.1319847106934,19.132438659668,19.1329002380371,19.1333541870117,19.1338081359863,19.1342678070068,19.1347217559814,19.135181427002,19.1356353759766,19.1360969543457,19.1365509033203,19.1370029449463,19.1374645233154,19.1379241943359,19.1383762359619,0,0,0,0,0,0,0,0,0,0,0,0,0,0,0,0,0,0,0,0,0,0,0,0,0,0,0,0,0,0,0,0,0,0,0,0,0,0,0,0,0,0,0,0,0,0,0,0,0,0,0,0,0,0,0,0,0,0,0,0,0,0,0,0,0,0,0,0,0,0,0,0,0,0,0,0,0,0,0,0,0,0,0,0,0,0,0,0,0,0,0,0,0,0,0,0,0,0,0,0,0,0,0,0,0,0,0,0,0,0,0,0,0,0,0,0,0,0,0,0,0,0,0,0,0,0,0,0,0,0,0,0,0,0,0,0,0,0,0,0,0,0,0,0,0,0,0,0,0,0,0,0,0,0,0,0,0,0,0
18.7591915130615,18.7596340179443,18.7600708007812,18.7605113983154,18.7609462738037,18.7613887786865,18.7618274688721,18.7622661590576,18.7627067565918,18.7631435394287,18.7635879516602,18.7640266418457,18.764461517334,18.7649002075195,18.7653427124023,18.7657833099365,18.7662181854248,18.7666606903076,18.7670993804932,18.7675457000732,18.767972946167,18.7684173583984,18.7688541412354,18.7692947387695,18.7697353363037,18.7701778411865,18.7706108093262,18.7710514068604,18.7714939117432,18.7719287872314,18.7723751068115,18.7728137969971,18.7732486724854,18.7736930847168,18.7741298675537,18.7745704650879,18.7750110626221,18.7754554748535,18.7758884429932,18.7763347625732,18.7767753601074,18.7772064208984,18.777645111084,18.7780857086182,18.778528213501,18.7789649963379,18.7794094085693,18.7798500061035,18.7802925109863,18.7807292938232,18.7811679840088,18.7816066741943,18.7820491790771,18.7824878692627,18.7829322814941,18.783374786377,18.7838077545166,18.784252166748,18.7846851348877,18.7851257324219,18.7855682373047,18.7860107421875,18.7864513397217,18.7868938446045,18.7873344421387,18.7877712249756,18.7882118225098,18.7886524200439,18.7890949249268,18.7895336151123,18.7899723052979,18.790412902832,18.7908554077148,18.7912921905518,18.7917327880859,18.7921733856201,18.7926139831543,18.7930545806885,18.7935009002686,18.7939395904541,18.794376373291,18.7948150634766,18.7952556610107,18.7956962585449,18.7961444854736,18.7965812683105,18.7970237731934,18.7974643707275,18.7979068756104,18.7983455657959,18.7987842559814,18.7992267608643,18.7996711730957,18.8001079559326,18.8005485534668,18.800989151001,18.8014259338379,18.8018646240234,18.8023109436035,18.8027515411377,18.8031921386719,18.8036365509033,18.8040752410889,18.804515838623,18.8049545288086,18.80539894104,18.8058395385742,18.8062801361084,18.8067245483398,18.8071632385254,18.8076038360596,18.8080444335938,18.8084888458252,18.8089294433594,18.8093757629395,18.8098125457764,18.8102550506592,18.8106937408447,18.8111343383789,18.8115768432617,18.8120193481445,18.8124599456787,18.8129005432129,18.8133449554443,18.8137855529785,18.8142261505127,18.8146667480469,18.8151111602783,18.8155479431152,18.8159923553467,18.8164405822754,18.8168773651123,18.8173217773438,18.8177680969238,18.8182029724121,18.8186435699463,18.8190898895264,18.8195285797119,18.8199691772461,18.8204116821289,18.820858001709,18.8212909698486,18.8217372894287,18.8221817016602,18.8226184844971,18.8230609893799,18.82350730896,18.8239517211914,18.8243942260742,18.8248310089111,18.8252735137939,18.8257160186768,18.8261604309082,18.8266067504883,18.8270416259766,18.827486038208,18.8279304504395,18.828369140625,18.8288135528564,18.8292579650879,18.8297023773193,18.8301410675049,18.8305835723877,18.8310298919678,18.8314666748047,18.8319072723389,18.8323497772217,18.8327922821045,18.8332386016846,18.8336791992188,18.8341217041016,18.8345642089844,18.8350067138672,18.8354473114014,18.8358898162842,18.836332321167,18.8367786407471,18.8372268676758,18.8376693725586,18.8381004333496,18.8385448455811,18.8389949798584,18.8394374847412,18.8398742675781,18.8403205871582,18.8407688140869,18.8412075042725,18.8416442871094,18.8420906066895,18.8425331115723,18.8429756164551,18.8434219360352,18.8438663482666,18.8443069458008,18.8447456359863,18.8451900482178,18.8456325531006,18.8460731506348,18.8465213775635,18.8469619750977,18.8474025726318,18.8478507995605,18.8482933044434,18.8487319946289,18.8491744995117,18.8496208190918,18.8500652313232,18.8505096435547,18.8509521484375,18.851390838623,18.8518390655518,18.8522777557373,18.8527240753174,18.8531665802002,18.8536128997803,18.8540573120117,18.8544979095459,18.8549404144287,18.8553867340088,18.855827331543,18.856273651123,18.8567180633545,18.8571605682373,18.8576068878174,18.8580513000488,18.8584899902344,18.8589324951172,18.8593788146973,18.8598232269287,18.8602619171143,18.860710144043,18.8611545562744,18.8615951538086,18.8620414733887,18.8624858856201,18.8629264831543,18.8633728027344,18.8638172149658,18.8642616271973,18.8647079467773,18.8651466369629,18.865592956543,18.866039276123,18.86647605896,18.86692237854,18.8673686981201,18.8678112030029,18.8682518005371,18.8686981201172,18.8691425323486,18.8695869445801,18.8700313568115,18.8704776763916,18.8709201812744,18.8713684082031,18.8718128204346,18.8722553253174,18.8726997375488,18.8731460571289,18.8735904693604,18.8740329742432,18.8744773864746,18.8749237060547,18.8753623962402,18.875804901123,18.876256942749,18.8766994476318,18.8771457672119,18.8775882720947,18.8780326843262,18.8784770965576,18.8789215087891,18.8793659210205,18.8798065185547,18.8802585601807,18.8807029724121,18.8811473846436,18.8815898895264,18.8820343017578,18.8824787139893,18.8829212188721,18.8833713531494,18.8838157653809,18.8842582702637,18.8847064971924,18.8851451873779,18.8855972290039,18.8860378265381,18.8864803314209,18.8869285583496,18.8873729705811,18.8878231048584,18.8882637023926,18.8887062072754,18.8891506195068,18.8896026611328,18.8900413513184,18.8904933929443,18.8909301757812,18.8913822174072,18.8918228149414,18.8922653198242,18.8927154541016,18.893159866333,18.8936061859131,18.8940467834473,18.894495010376,18.8949375152588,18.8953819274902,18.8958301544189,18.896276473999,18.8967189788818,18.8971672058105,18.897611618042,18.8980579376221,18.8985080718994,18.8989486694336,18.8993911743164,18.8998374938965,18.9002838134766,18.9007339477539,18.9011745452881,18.9016246795654,18.9020652770996,18.9025115966797,18.9029598236084,18.9034080505371,18.9038505554199,18.904296875,18.9047412872314,18.9051933288574,18.9056339263916,18.9060802459717,18.9065265655518,18.9069728851318,18.9074230194092,18.9078693389893,18.9083099365234,18.9087562561035,18.9092025756836,18.9096527099609,18.9100971221924,18.9105434417725,18.9109897613525,18.9114379882812,18.9118824005127,18.9123268127441,18.9127712249756,18.913215637207,18.9136657714844,18.9141120910645,18.9145565032959,18.9150047302246,18.9154510498047,18.9158954620361,18.9163436889648,18.9167881011963,18.9172344207764,18.9176826477051,18.9181289672852,18.9185810089111,0,0,0,0,0,0,0,0,0,0,0,0,0,0,0,0,0,0,0,0,0,0,0,0,0,0,0,0,0,0,0,0,0,0,0,0,0,0,0,0,0,0,0,0,0,0,0,0,0,0,0,0,0,0,0,0,0,0,0,0,0,0,0,0,0,0,0,0,0,0,0,0,0,0,0,0,0,0,0,0,0,0,0,0,0,0,0,0,0,0,0,0,0,0,0,0,0,0,0,0,0,0,0,0,0,0,0,0,0,0,0,0,0,0,0,0,0,0,0,0,0,0,0,0,0,0,0,0,0,0,0,0,0,0,0,0,0,0,0,0,0,0,0,0,0,0,0,0,0,0,0,0
18.5449657440186,18.5453872680664,18.5458183288574,18.5462436676025,18.5466766357422,18.5471115112305,18.5475425720215,18.5479679107666,18.5484008789062,18.5488224029541,18.5492477416992,18.5496845245361,18.5501117706299,18.5505409240723,18.5509719848633,18.5514030456543,18.5518283843994,18.5522575378418,18.5526866912842,18.5531177520752,18.5535507202148,18.5539798736572,18.5544090270996,18.5548343658447,18.5552616119385,18.5556907653809,18.5561218261719,18.5565567016602,18.5569839477539,18.5574131011963,18.5578479766846,18.5582752227783,18.5587005615234,18.5591297149658,18.5595588684082,18.5599937438965,18.5604209899902,18.5608558654785,18.5612812042236,18.561710357666,18.5621376037598,18.5625705718994,18.5630016326904,18.5634326934814,18.5638580322266,18.5642929077148,18.5647220611572,18.5651473999023,18.5655784606934,18.5660076141357,18.566442489624,18.5668697357178,18.5673065185547,18.5677299499512,18.5681571960449,18.5685901641846,18.569019317627,18.569450378418,18.5698852539062,18.5703105926514,18.5707416534424,18.5711688995361,18.5715980529785,18.5720291137695,18.5724620819092,18.5728950500488,18.5733261108398,18.5737552642822,18.5741882324219,18.5746154785156,18.5750389099121,18.575475692749,18.5759086608887,18.5763378143311,18.5767707824707,18.5771961212158,18.5776290893555,18.5780544281006,18.578483581543,18.5789203643799,18.5793552398682,18.5797824859619,18.5802154541016,18.5806407928467,18.5810737609863,18.581506729126,18.5819358825684,18.5823593139648,18.5827922821045,18.5832271575928,18.5836563110352,18.5840873718262,18.5845184326172,18.5849533081055,18.5853824615479,18.5858135223389,18.5862445831299,18.5866718292236,18.5871086120605,18.5875377655029,18.587963104248,18.5883960723877,18.5888252258301,18.5892562866211,18.5896873474121,18.5901222229004,18.5905570983887,18.5909805297852,18.5914134979248,18.5918407440186,18.5922756195068,18.5927085876465,18.5931377410889,18.5935707092285,18.5939998626709,18.5944290161133,18.5948638916016,18.5952911376953,18.5957298278809,18.5961608886719,18.596586227417,18.5970211029053,18.5974559783936,18.59787940979,18.5983180999756,18.598747253418,18.5991744995117,18.5996112823486,18.6000423431396,18.6004695892334,18.6009044647217,18.6013336181641,18.6017665863037,18.6021995544434,18.6026363372803,18.6030654907227,18.6034984588623,18.6039295196533,18.6043586730957,18.6047897338867,18.6052227020264,18.6056537628174,18.6060905456543,18.6065216064453,18.6069526672363,18.6073799133301,18.6078128814697,18.6082439422607,18.6086769104004,18.60910987854,18.6095390319824,18.6099739074707,18.610408782959,18.6108341217041,18.6112670898438,18.6117038726807,18.6121292114258,18.6125640869141,18.6129989624023,18.6134281158447,18.6138610839844,18.614294052124,18.6147289276123,18.6151599884033,18.6155891418457,18.616024017334,18.6164588928223,18.6168880462646,18.6173210144043,18.617748260498,18.6181907653809,18.6186199188232,18.6190528869629,18.6194839477539,18.6199188232422,18.6203517913818,18.6207809448242,18.6212139129639,18.6216487884521,18.6220798492432,18.6225128173828,18.6229457855225,18.6233787536621,18.6238040924072,18.6242408752441,18.6246757507324,18.6251049041748,18.6255416870117,18.6259727478027,18.6264057159424,18.6268424987793,18.6272716522217,18.6277084350586,18.628137588501,18.6285724639893,18.6290073394775,18.6294384002686,18.6298675537109,18.6303024291992,18.6307277679443,18.6311626434326,18.6315975189209,18.6320343017578,18.6324653625488,18.6329002380371,18.6333332061768,18.6337642669678,18.6341991424561,18.6346321105957,18.6350612640381,18.6354923248291,18.6359348297119,18.6363658905029,18.6367988586426,18.6372299194336,18.6376609802246,18.6380920410156,18.6385326385498,18.6389656066895,18.6393985748291,18.639835357666,18.6402606964111,18.6406993865967,18.6411285400391,18.6415634155273,18.6420001983643,18.6424331665039,18.6428623199463,18.6433010101318,18.6437320709229,18.6441631317139,18.6445960998535,18.6450309753418,18.6454639434814,18.645902633667,18.6463356018066,18.6467666625977,18.6472015380859,18.6476364135742,18.6480731964111,18.6485023498535,18.6489372253418,18.6493701934814,18.649808883667,18.650239944458,18.6506690979004,18.6511058807373,18.6515445709229,18.6519737243652,18.6524105072021,18.6528491973877,18.6532783508301,18.6537075042725,18.6541442871094,18.6545810699463,18.6550140380859,18.6554508209229,18.6558856964111,18.6563148498535,18.6567440032959,18.6571826934814,18.6576175689697,18.6580543518066,18.658483505249,18.6589221954346,18.6593570709229,18.6597938537598,18.6602230072021,18.6606578826904,18.6610946655273,18.6615314483643,18.6619606018066,18.6623973846436,18.6628322601318,18.6632614135742,18.6636962890625,18.6641330718994,18.6645679473877,18.6650047302246,18.6654396057129,18.6658763885498,18.6663112640381,18.6667385101318,18.6671733856201,18.667610168457,18.6680431365967,18.6684799194336,18.6689167022705,18.6693496704102,18.6697864532471,18.6702194213867,18.6706562042236,18.6710891723633,18.6715278625488,18.6719608306885,18.6723957061768,18.6728363037109,18.6732654571533,18.673698425293,18.6741333007812,18.6745662689209,18.6750049591064,18.6754417419434,18.675874710083,18.6763114929199,18.6767444610596,18.6771793365479,18.6776123046875,18.6780529022217,18.6784858703613,18.6789207458496,18.6793575286865,18.6797885894775,18.6802234649658,18.6806621551514,18.6810970306396,18.6815299987793,18.6819705963135,18.6824035644531,18.6828384399414,18.6832714080811,18.6837120056152,18.6841449737549,18.6845779418945,18.6850204467773,18.6854496002197,18.6858921051025,18.6863250732422,18.6867561340332,18.6871929168701,18.6876316070557,18.6880626678467,18.6885013580322,18.6889419555664,18.6893749237061,18.6898078918457,18.6902408599854,18.6906795501709,18.6911201477051,18.6915512084961,18.6919898986816,18.6924228668213,18.6928615570068,18.6932945251465,18.693733215332,18.694164276123,18.6946048736572,18.6950454711914,18.6954746246338,18.6959133148193,18.6963443756104,18.6967830657959,18.6972236633301,18.6976547241211,18.6980934143066,18.6985301971436,18.6989688873291,18.6994037628174,18.6998329162598,18.7002696990967,18.7007083892822,18.7011470794678,18.7015857696533,18.7020225524902,18.7024555206299,18.7028923034668,18.7033252716064,0,0,0,0,0,0,0,0,0,0,0,0,0,0,0,0,0,0,0,0,0,0,0,0,0,0,0,0,0,0,0,0,0,0,0,0,0,0,0,0,0,0,0,0,0,0,0,0,0,0,0,0,0,0,0,0,0,0,0,0,0,0,0,0,0,0,0,0,0,0,0,0,0,0,0,0,0,0,0,0,0,0,0,0,0,0,0,0,0,0,0,0,0,0,0,0,0,0,0,0,0,0,0,0,0,0,0,0,0,0,0,0,0,0,0,0,0,0,0,0,0,0,0,0,0,0,0,0,0,0,0,0,0,0,0,0,0,0,0,0,0,0,0,0,0,0
18.3355655670166,18.3359870910645,18.3364067077637,18.3368282318115,18.3372497558594,18.33766746521,18.3380851745605,18.3385066986084,18.3389263153076,18.3393440246582,18.3397636413574,18.3401832580566,18.3406047821045,18.3410205841064,18.3414459228516,18.3418655395508,18.3422813415527,18.3427028656006,18.3431224822998,18.343542098999,18.3439617156982,18.3443794250488,18.3447971343994,18.3452167510986,18.3456439971924,18.3460655212402,18.3464813232422,18.34690284729,18.3473167419434,18.3477382659912,18.3481559753418,18.3485813140869,18.3490028381348,18.3494167327881,18.3498477935791,18.3502655029297,18.3506813049316,18.3511009216309,18.3515205383301,18.3519439697266,18.3523635864258,18.3527812957764,18.3532028198242,18.3536148071289,18.3540420532227,18.3544616699219,18.354887008667,18.3553028106689,18.3557281494141,18.356143951416,18.3565692901611,18.3569793701172,18.3574047088623,18.3578205108643,18.358247756958,18.3586673736572,18.3590869903564,18.3595123291016,18.3599300384521,18.3603458404541,18.3607730865479,18.3611869812012,18.3616142272949,18.3620319366455,18.3624515533447,18.3628787994385,18.3632926940918,18.3637104034424,18.3641357421875,18.3645515441895,18.3649787902832,18.3654022216797,18.3658218383789,18.3662395477295,18.3666553497314,18.3670787811279,18.367504119873,18.3679237365723,18.3683452606201,18.368766784668,18.3691864013672,18.3696041107178,18.3700256347656,18.3704509735107,18.3708667755127,18.3712882995605,18.3717136383057,18.3721370697021,18.3725566864014,18.372974395752,18.3733959197998,18.3738174438477,18.3742427825928,18.374662399292,18.3750820159912,18.3755035400391,18.3759231567383,18.3763408660889,18.3767681121826,18.3771820068359,18.3775997161865,18.3780269622803,18.3784465789795,18.378870010376,18.3792915344238,18.379711151123,18.3801364898682,18.380558013916,18.3809757232666,18.3814010620117,18.3818206787109,18.3822441101074,18.3826656341553,18.3830833435059,18.3835105895996,18.3839321136475,18.3843479156494,18.3847713470459,18.3851909637451,18.3856143951416,18.3860359191895,18.3864555358887,18.3868789672852,18.3873043060303,18.3877258300781,18.388147354126,18.3885669708252,18.388988494873,18.3894100189209,18.3898277282715,18.3902530670166,18.3906745910645,18.3910980224609,18.3915195465088,18.3919467926025,18.3923587799072,18.3927879333496,18.3932075500488,18.3936328887939,18.3940525054932,18.3944721221924,18.3948993682861,18.3953151702881,18.3957424163818,18.3961582183838,18.3965873718262,18.3970069885254,18.3974323272705,18.3978538513184,18.3982715606689,18.3986949920654,18.3991165161133,18.3995380401611,18.3999652862549,18.4003849029541,18.4008121490479,18.4012317657471,18.4016494750977,18.4020729064941,18.4024925231934,18.4029197692871,18.4033432006836,18.4037666320801,18.4041919708252,18.4046096801758,18.4050312042236,18.4054546356201,18.4058799743652,18.4062995910645,18.4067249298096,18.4071483612061,18.4075660705566,18.4079856872559,18.408411026001,18.4088344573975,18.4092597961426,18.4096794128418,18.4101066589355,18.4105319976807,18.4109573364258,18.4113712310791,18.4117984771729,18.4122161865234,18.4126434326172,18.4130687713623,18.4134902954102,18.4139137268066,18.4143409729004,18.414758682251,18.4151802062988,18.4156036376953,18.4160232543945,18.4164505004883,18.4168701171875,18.4172954559326,18.4177188873291,18.4181385040283,18.4185600280762,18.4189872741699,18.4194068908691,18.4198341369629,18.4202556610107,18.4206771850586,18.4211025238037,18.4215278625488,18.4219512939453,18.4223728179932,18.4227962493896,18.4232215881348,18.4236450195312,18.4240684509277,18.4244899749756,18.4249134063721,18.4253368377686,18.425760269165,18.4261837005615,18.426607131958,18.4270362854004,18.427453994751,18.4278774261475,18.4282989501953,18.4287300109863,18.4291515350342,18.4295749664307,18.4299983978271,18.4304256439209,18.4308433532715,18.431266784668,18.4316959381104,18.4321155548096,18.4325408935547,18.4329681396484,18.4333896636963,18.4338130950928,18.4342346191406,18.4346580505371,18.4350852966309,18.4355068206787,18.4359321594238,18.4363594055176,18.4367790222168,18.4372043609619,18.4376239776611,18.4380550384521,18.4384765625,18.4389019012451,18.4393253326416,18.439754486084,18.4401683807373,18.4405975341797,18.4410190582275,18.4414463043213,18.4418659210205,18.4422950744629,18.4427242279053,18.4431438446045,18.443567276001,18.4439945220947,18.4444141387939,18.4448432922363,18.4452667236328,18.4456920623779,18.4461193084717,18.4465370178223,18.4469623565674,18.4473876953125,18.4478168487549,18.4482345581055,18.4486637115479,18.4490928649902,18.4495124816895,18.44993019104,18.4503574371338,18.4507808685303,18.451208114624,18.4516334533691,18.4520606994629,18.4524803161621,18.4529075622559,18.4533290863037,18.4537544250488,18.4541797637939,18.4546089172363,18.4550342559814,18.4554595947266,18.4558792114258,18.4563064575195,18.4567279815674,18.4571514129639,18.4575786590576,18.4580039978027,18.4584331512451,18.4588565826416,18.4592838287354,18.4597034454346,18.4601287841797,18.4605560302734,18.4609813690186,18.4614067077637,18.4618320465088,18.4622592926025,18.4626808166504,18.4631042480469,18.463529586792,18.4639549255371,18.4643821716309,18.464807510376,18.4652328491211,18.4656581878662,18.4660835266113,18.4665088653564,18.4669342041016,18.4673595428467,18.4677848815918,18.4682083129883,18.468635559082,18.4690647125244,18.469482421875,18.4699096679688,18.4703407287598,18.4707641601562,18.47119140625,18.4716129302979,18.472038269043,18.4724636077881,18.4728870391846,18.4733180999756,18.4737434387207,18.4741668701172,18.4745998382568,18.4750213623047,18.4754467010498,18.4758720397949,18.4762954711914,18.4767265319824,18.4771480560303,18.477575302124,18.478006362915,18.4784278869629,18.4788513183594,18.4792766571045,18.4797058105469,18.480131149292,18.480562210083,18.4809837341309,18.4814147949219,18.4818382263184,18.4822597503662,18.4826889038086,18.4831123352051,18.4835453033447,18.4839687347412,18.4843978881836,18.4848213195801,18.4852523803711,18.4856739044189,18.4860954284668,18.4865245819092,18.4869556427002,18.4873790740967,18.4878082275391,18.4882316589355,18.4886531829834,18.4890823364258,18.4895133972168,18.4899349212646,18.4903621673584,18.4907913208008,18.4912204742432,18.4916439056396,18.4920673370361,18.4924945831299,18.4929218292236,18.4933547973633,0,0,0,0,0,0,0,0,0,0,0,0,0,0,0,0,0,0,0,0,0,0,0,0,0,0,0,0,0,0,0,0,0,0,0,0,0,0,0,0,0,0,0,0,0,0,0,0,0,0,0,0,0,0,0,0,0,0,0,0,0,0,0,0,0,0,0,0,0,0,0,0,0,0,0,0,0,0,0,0,0,0,0,0,0,0,0,0,0,0,0,0,0,0,0,0,0,0,0,0,0,0,0,0,0,0,0,0,0,0,0,0,0,0,0,0,0,0,0,0,0,0,0,0,0,0,0,0,0,0,0,0,0,0,0,0,0,0,0
18.1308536529541,18.1312637329102,18.1316661834717,18.1320781707764,18.1324901580811,18.1329040527344,18.1333141326904,18.1337261199951,18.1341323852539,18.1345462799072,18.1349563598633,18.1353607177734,18.1357727050781,18.1361808776855,18.1365947723389,18.1370067596436,18.1374168395996,18.137825012207,18.1382331848145,18.1386432647705,18.1390533447266,18.1394672393799,18.1398811340332,18.1402854919434,18.1407032012939,18.1411094665527,18.1415233612061,18.1419315338135,18.1423377990723,18.1427555084229,18.1431636810303,18.1435718536377,18.1439895629883,18.1443958282471,18.1448040008545,18.1452102661133,18.1456279754639,18.1460380554199,18.1464519500732,18.1468620300293,18.1472682952881,18.1476764678955,18.1480884552002,18.1485023498535,18.1489124298096,18.1493225097656,18.1497364044189,18.1501502990723,18.1505527496338,18.1509685516357,18.1513824462891,18.1517887115479,18.1522045135498,18.1526145935059,18.1530265808105,18.1534328460693,18.1538467407227,18.1542568206787,18.154670715332,18.1550769805908,18.1554908752441,18.1559047698975,18.1563110351562,18.1567249298096,18.157133102417,18.1575469970703,18.157958984375,18.1583652496338,18.1587791442871,18.1591930389404,18.1596031188965,18.1600151062012,18.1604309082031,18.1608371734619,18.1612491607666,18.1616611480713,18.1620750427246,18.1624889373779,18.1628913879395,18.16330909729,18.1637210845947,18.1641311645508,18.1645412445068,18.1649513244629,18.1653633117676,18.1657791137695,18.166187286377,18.166597366333,18.1670112609863,18.167423248291,18.167839050293,18.1682510375977,18.1686611175537,18.1690673828125,18.1694793701172,18.1698932647705,18.1703052520752,18.1707172393799,18.1711254119873,18.171537399292,18.1719551086426,18.1723613739014,18.1727733612061,18.1731853485107,18.1735973358154,18.1740074157715,18.1744213104248,18.1748390197754,18.1752471923828,18.1756591796875,18.1760692596436,18.1764888763428,18.1768989562988,18.1773109436035,18.1777191162109,18.1781330108643,18.1785430908203,18.178955078125,18.1793689727783,18.1797828674316,18.1801986694336,18.1806087493896,18.1810169219971,18.1814365386963,18.1818389892578,18.1822566986084,18.1826705932617,18.1830787658691,18.183500289917,18.183910369873,18.1843204498291,18.1847305297852,18.1851387023926,18.1855564117432,18.1859664916992,18.1863822937012,18.1867961883545,18.1872062683105,18.1876239776611,18.1880359649658,18.1884460449219,18.1888542175293,18.1892719268799,18.1896839141846,18.1900997161865,18.1905097961426,18.19091796875,18.1913318634033,18.191743850708,18.1921634674072,18.1925716400146,18.1929836273193,18.1933975219727,18.1938152313232,18.1942234039307,18.1946411132812,18.1950492858887,18.195463180542,18.1958751678467,18.1962909698486,18.1967067718506,18.1971130371094,18.1975231170654,18.197940826416,18.1983585357666,18.198766708374,18.199182510376,18.1995964050293,18.2000141143799,18.2004222869873,18.2008304595947,18.2012481689453,18.20166015625,18.202075958252,18.2024879455566,18.2028999328613,18.2033176422119,18.2037258148193,18.2041397094727,18.2045555114746,18.2049694061279,18.2053813934326,18.2057952880859,18.2062072753906,18.2066173553467,18.20703125,18.2074451446533,18.2078609466553,18.2082786560059,18.2086906433105,18.2091045379639,18.2095222473145,18.2099266052246,18.2103424072266,18.2107582092285,18.2111740112305,18.2115840911865,18.2120018005371,18.2124137878418,18.2128276824951,18.2132415771484,18.2136535644531,18.2140674591064,18.2144832611084,18.2148933410645,18.2153091430664,18.2157230377197,18.216136932373,18.2165489196777,18.2169647216797,18.217378616333,18.2177925109863,18.2182064056396,18.218620300293,18.2190380096436,18.219446182251,18.2198581695557,18.2202796936035,18.2206916809082,18.2211036682129,18.2215194702148,18.2219390869141,18.2223453521729,18.2227573394775,18.2231769561768,18.2235908508301,18.2240028381348,18.224422454834,18.2248363494873,18.2252464294434,18.2256641387939,18.2260761260986,18.2264938354492,18.2269039154053,18.2273197174072,18.2277355194092,18.2281513214111,18.2285614013672,18.2289752960205,18.2293930053711,18.2298069000244,18.2302265167236,18.2306365966797,18.2310543060303,18.2314701080322,18.2318801879883,18.232292175293,18.2327098846436,18.2331237792969,18.2335414886475,18.2339534759521,18.2343730926514,18.2347888946533,18.235200881958,18.2356128692627,18.2360305786133,18.236442565918,18.2368583679199,18.2372722625732,18.2376899719238,18.2381019592285,18.2385196685791,18.2389316558838,18.239351272583,18.2397651672363,18.240177154541,18.2405948638916,18.2410125732422,18.2414245605469,18.2418422698975,18.2422523498535,18.2426719665527,18.2430877685547,18.2435035705566,18.2439136505127,18.2443313598633,18.2447414398193,18.2451591491699,18.2455768585205,18.2459945678711,18.2464122772217,18.2468223571777,18.2472400665283,18.2476558685303,18.2480659484863,18.2484817504883,18.2489013671875,18.2493171691895,18.2497329711914,18.250150680542,18.2505645751953,18.2509765625,18.251392364502,18.2518081665039,18.2522258758545,18.2526416778564,18.2530574798584,18.2534732818604,18.2538833618164,18.2542991638184,18.2547168731689,18.2551307678223,18.2555465698242,18.2559680938721,18.256383895874,18.2567977905273,18.2572078704834,18.257625579834,18.2580394744873,18.2584552764893,18.2588768005371,18.2592926025391,18.2597103118896,18.2601165771484,18.2605400085449,18.2609539031982,18.2613716125488,18.2617855072021,18.2621994018555,18.2626209259033,18.2630367279053,18.2634468078613,18.2638702392578,18.2642822265625,18.2646961212158,18.265115737915,18.2655334472656,18.2659511566162,18.2663650512695,18.2667770385742,18.2671928405762,18.267614364624,18.2680282592773,18.2684440612793,18.2688617706299,18.2692794799805,18.2696933746338,18.2701091766357,18.2705268859863,18.2709445953369,18.2713584899902,18.2717781066895,18.2721920013428,18.272611618042,18.2730293273926,18.2734413146973,18.2738628387451,18.2742729187012,18.2746963500977,18.2751121520996,18.2755317687988,18.2759380340576,18.2763557434082,18.2767791748047,18.277193069458,18.2776107788086,18.2780246734619,18.2784481048584,18.2788600921631,18.2792701721191,18.2796897888184,18.2801132202148,18.2805252075195,18.2809448242188,18.281364440918,18.2817764282227,18.282190322876,18.2826099395752,18.2830276489258,18.2834434509277,18.2838611602783,18.2842826843262,18.2847003936768,18.2851123809814,18.2855319976807,18.2859516143799,18.2863636016846,18.2867832183838,18.287202835083,18.2876205444336,0,0,0,0,0,0,0,0,0,0,0,0,0,0,0,0,0,0,0,0,0,0,0,0,0,0,0,0,0,0,0,0,0,0,0,0,0,0,0,0,0,0,0,0,0,0,0,0,0,0,0,0,0,0,0,0,0,0,0,0,0,0,0,0,0,0,0,0,0,0,0,0,0,0,0,0,0,0,0,0,0,0,0,0,0,0,0,0,0,0,0,0,0,0,0,0,0,0,0,0,0,0,0,0,0,0,0,0,0,0,0,0,0,0,0,0,0,0,0,0,0,0,0,0,0,0,0,0,0,0,0,0,0
17.9306564331055,17.931058883667,17.9314613342285,17.9318599700928,17.932258605957,17.9326667785645,17.9330635070801,17.9334659576416,17.9338645935059,17.9342670440674,17.9346694946289,17.9350719451904,17.9354724884033,17.9358730316162,17.9362735748291,17.9366703033447,17.9370746612549,17.9374752044678,17.9378814697266,17.9382781982422,17.9386825561523,17.9390830993652,17.9394817352295,17.939884185791,17.9402866363525,17.9406871795654,17.9410934448242,17.9414920806885,17.9418964385986,17.9422950744629,17.9426937103271,17.9430961608887,17.9434986114502,17.9438972473145,17.9443016052246,17.944709777832,17.945104598999,17.9455089569092,17.9459075927734,17.9463138580322,17.9467163085938,17.9471111297607,17.9475173950195,17.9479217529297,17.9483165740967,17.9487209320068,17.949125289917,17.9495239257812,17.9499263763428,17.9503326416016,17.9507350921631,17.951135635376,17.9515361785889,17.9519367218018,17.9523410797119,17.9527454376221,17.953145980835,17.9535465240479,17.9539489746094,17.9543533325195,17.9547500610352,17.9551544189453,17.9555568695068,17.9559574127197,17.9563636779785,17.95676612854,17.9571666717529,17.9575710296631,17.9579753875732,17.9583740234375,17.9587783813477,17.9591789245605,17.9595832824707,17.9599876403809,17.9603881835938,17.960786819458,17.9611892700195,17.9615898132324,17.9619941711426,17.9624042510986,17.9628067016602,17.9632053375244,17.9636039733887,17.9640045166016,17.9644145965576,17.9648151397705,17.9652194976807,17.9656200408936,17.9660224914551,17.9664211273193,17.9668254852295,17.9672260284424,17.9676284790039,17.9680404663086,17.9684371948242,17.968843460083,17.9692440032959,17.9696502685547,17.9700450897217,17.9704532623291,17.970853805542,17.9712562561035,17.9716625213623,17.9720611572266,17.9724674224854,17.9728622436523,17.9732666015625,17.9736709594727,17.9740772247314,17.9744777679443,17.9748821258545,17.9752864837646,17.9756946563721,17.9760875701904,17.9764919281006,17.9768962860107,17.9773025512695,17.9777011871338,17.9781112670898,17.9785079956055,17.9789142608643,17.979320526123,17.9797210693359,17.9801254272461,17.9805240631104,17.980936050415,17.9813327789307,17.9817409515381,17.9821376800537,17.9825382232666,17.982946395874,17.9833488464355,17.9837512969971,17.9841632843018,17.9845581054688,17.9849605560303,17.9853687286377,17.9857730865479,17.9861755371094,17.9865837097168,17.9869861602783,17.9873828887939,17.9877891540527,17.9881916046143,17.9885997772217,17.9889965057373,17.9894027709961,17.9898109436035,17.990213394165,17.9906158447266,17.9910221099854,17.9914207458496,17.9918251037598,17.9922332763672,17.9926376342773,17.9930438995361,17.9934406280518,17.9938488006592,17.9942531585693,17.994649887085,17.9950523376465,17.9954624176025,17.9958667755127,17.9962711334229,17.9966773986816,17.9970817565918,17.9974822998047,17.9978885650635,17.9982891082764,17.9986953735352,17.9991016387939,17.9995040893555,17.9999103546143,18.0003108978271,18.0007152557373,18.0011196136475,18.001522064209,18.0019245147705,18.0023326873779,18.0027370452881,18.0031414031982,18.003547668457,18.0039501190186,18.0043544769287,18.0047588348389,18.0051651000977,18.0055656433105,18.0059700012207,18.0063819885254,18.0067806243896,18.0071849822998,18.0075874328613,18.0080013275146,18.0084056854248,18.0088062286377,18.0092067718506,18.0096111297607,18.0100154876709,18.0104217529297,18.0108242034912,18.0112323760986,18.0116386413574,18.0120391845703,18.0124397277832,18.0128479003906,18.0132465362549,18.0136585235596,18.0140609741211,18.0144672393799,18.0148735046387,18.0152797698975,18.015682220459,18.0160846710205,18.0164928436279,18.0168972015381,18.0173015594482,18.0177097320557,18.0181121826172,18.0185222625732,18.0189170837402,18.0193271636963,18.0197296142578,18.0201396942139,18.0205421447754,18.0209503173828,18.021354675293,18.0217609405518,18.022159576416,18.0225658416748,18.0229759216309,18.0233783721924,18.0237865447998,18.0241889953613,18.0245971679688,18.0249996185303,18.0254001617432,18.0258102416992,18.0262126922607,18.0266208648682,18.0270309448242,18.0274314880371,18.0278396606445,18.0282421112061,18.0286483764648,18.0290508270264,18.0294609069824,18.0298671722412,18.0302696228027,18.0306777954102,18.031078338623,18.0314865112305,18.0318946838379,18.0322971343994,18.0327014923096,18.033109664917,18.0335178375244,18.0339202880859,18.0343284606934,18.0347290039062,18.0351371765137,18.0355453491211,18.0359516143799,18.0363597869873,18.0367641448975,18.037166595459,18.0375747680664,18.0379810333252,18.0383815765381,18.0387859344482,18.0391960144043,18.0396041870117,18.0400085449219,18.0404090881348,18.0408172607422,18.041223526001,18.0416297912598,18.0420379638672,18.042444229126,18.0428504943848,18.0432567596436,18.043664932251,18.0440711975098,18.0444755554199,18.044885635376,18.0452919006348,18.0456962585449,18.0461025238037,18.046501159668,18.0469093322754,18.0473136901855,18.0477275848389,18.0481338500977,18.0485401153564,18.0489463806152,18.049352645874,18.0497570037842,18.050163269043,18.0505695343018,18.0509757995605,18.0513820648193,18.0517921447754,18.0522022247314,18.0525989532471,18.0530109405518,18.0534133911133,18.0538177490234,18.0542316436768,18.0546360015869,18.0550422668457,18.0554447174072,18.055850982666,18.0562572479248,18.0566692352295,18.0570735931396,18.0574798583984,18.0578918457031,18.0582962036133,18.0587005615234,18.0591049194336,18.0595169067383,18.0599231719971,18.0603275299072,18.0607376098633,18.0611400604248,18.0615539550781,18.0619583129883,18.0623626708984,18.0627727508545,18.0631790161133,18.0635833740234,18.0639953613281,18.0644035339355,18.0648078918457,18.0652141571045,18.065616607666,18.0660285949707,18.0664386749268,18.0668430328369,18.0672550201416,18.0676574707031,18.0680599212646,18.0684719085693,18.0688762664795,18.0692863464355,18.069694519043,18.0700988769531,18.0705108642578,18.0709209442139,18.0713214874268,18.0717277526855,18.072135925293,18.0725479125977,18.0729579925537,18.0733604431152,18.0737705230713,18.074182510376,18.0745849609375,18.0749931335449,18.0753955841064,18.0758056640625,18.0762138366699,18.076623916626,18.077033996582,18.0774383544922,18.077844619751,18.0782508850098,18.0786590576172,18.0790672302246,18.0794773101807,18.0798873901367,18.0802974700928,18.0806980133057,18.0811061859131,18.0815162658691,18.0819244384766,18.0823345184326,18.08274269104,18.0831508636475,18.083553314209,18.083963394165,18.0843715667725,18.0847797393799,18.0851879119873,18.0855979919434,18.0860061645508,18.0864124298096,18.0868148803711,0,0,0,0,0,0,0,0,0,0,0,0,0,0,0,0,0,0,0,0,0,0,0,0,0,0,0,0,0,0,0,0,0,0,0,0,0,0,0,0,0,0,0,0,0,0,0,0,0,0,0,0,0,0,0,0,0,0,0,0,0,0,0,0,0,0,0,0,0,0,0,0,0,0,0,0,0,0,0,0,0,0,0,0,0,0,0,0,0,0,0,0,0,0,0,0,0,0,0,0,0,0,0,0,0,0,0,0,0,0,0,0,0,0,0,0,0,0,0,0,0,0,0,0,0,0
17.7348327636719,17.7352237701416,17.7356204986572,17.7360076904297,17.7364025115967,17.7367973327637,17.7371826171875,17.7375755310059,17.7379703521729,17.7383651733398,17.7387599945068,17.7391471862793,17.7395401000977,17.739933013916,17.7403297424316,17.7407207489014,17.7411136627197,17.7415084838867,17.7418975830078,17.7422866821289,17.7426853179932,17.7430782318115,17.7434673309326,17.7438621520996,17.744255065918,17.7446479797363,17.7450351715088,17.7454299926758,17.7458209991455,17.7462139129639,17.7466125488281,17.7470092773438,17.7473983764648,17.7477893829346,17.7481784820557,17.748571395874,17.7489681243896,17.7493648529053,17.7497577667236,17.750150680542,17.7505397796631,17.7509365081787,17.7513294219971,17.7517223358154,17.7521095275879,17.7525062561035,17.7529048919678,17.7532958984375,17.7536888122559,17.7540817260742,17.7544708251953,17.7548637390137,17.755256652832,17.7556571960449,17.7560482025146,17.7564392089844,17.7568321228027,17.7572250366211,17.7576141357422,17.7580127716064,17.7584056854248,17.7587985992432,17.7591953277588,17.7595882415771,17.7599830627441,17.7603702545166,17.7607707977295,17.761157989502,17.7615585327148,17.7619495391846,17.7623424530029,17.762731552124,17.7631282806396,17.763521194458,17.7639217376709,17.7643089294434,17.7646999359131,17.7650985717773,17.7654895782471,17.7658786773682,17.7662792205811,17.7666683197021,17.7670650482178,17.7674579620361,17.7678527832031,17.7682476043701,17.7686424255371,17.7690334320068,17.7694282531738,17.7698173522949,17.7702140808105,17.7706146240234,17.7710075378418,17.7714042663574,17.7717933654785,17.7721881866455,17.7725791931152,17.7729740142822,17.7733707427979,17.7737617492676,17.7741603851318,17.7745552062988,17.7749443054199,17.7753353118896,17.775728225708,17.7761268615723,17.7765235900879,17.776912689209,17.7773056030273,17.7776985168457,17.7780933380127,17.7784881591797,17.7788848876953,17.7792835235596,17.7796726226807,17.7800693511963,17.7804641723633,17.7808513641357,17.78125,17.781644821167,17.7820415496826,17.7824382781982,17.7828311920166,17.7832279205322,17.7836227416992,17.7840118408203,17.7844047546387,17.7848052978516,17.7852001190186,17.7855911254883,17.7859897613525,17.7863826751709,17.7867755889893,17.787166595459,17.7875633239746,17.787956237793,17.7883567810059,17.788745880127,17.7891426086426,17.7895412445068,17.7899341583252,17.7903289794922,17.7907257080078,17.7911186218262,17.7915096282959,17.7919063568115,17.7923011779785,17.7926979064941,17.7930908203125,17.7934837341309,17.7938785552979,17.7942752838135,17.7946739196777,17.7950687408447,17.7954635620117,17.7958583831787,17.7962551116943,17.7966480255127,17.7970409393311,17.7974395751953,17.7978363037109,17.7982273101807,17.7986221313477,17.7990169525146,17.7994117736816,17.7998046875,17.8002033233643,17.8005981445312,17.8009948730469,17.8013916015625,17.8017826080322,17.8021831512451,17.8025722503662,17.8029766082764,17.8033676147461,17.8037605285645,17.8041610717773,17.8045539855957,17.8049488067627,17.8053417205811,17.8057441711426,17.8061332702637,17.8065319061279,17.8069286346436,17.8073234558105,17.807710647583,17.8081150054932,17.8085060119629,17.8089065551758,17.8093013763428,17.8096961975098,17.810094833374,17.8104877471924,17.8108806610107,17.8112831115723,17.8116817474365,17.8120727539062,17.8124732971191,17.8128604888916,17.8132629394531,17.8136558532715,17.8140544891357,17.8144474029541,17.8148441314697,17.8152370452881,17.8156356811523,17.8160305023193,17.8164234161377,17.816822052002,17.8172149658203,17.8176136016846,17.8180122375488,17.8184013366699,17.8187999725342,17.8191986083984,17.8195972442627,17.8199882507324,17.820384979248,17.8207778930664,17.8211784362793,17.8215732574463,17.8219738006592,17.8223705291748,17.8227634429932,17.8231601715088,17.8235511779785,17.8239498138428,17.8243465423584,17.824743270874,17.8251419067383,17.8255405426025,17.8259334564209,17.8263282775879,17.8267269134521,17.8271236419678,17.8275203704834,17.8279190063477,17.8283176422119,17.8287048339844,17.8291034698486,17.8295021057129,17.8298969268799,17.8302936553955,17.8306922912598,17.8310871124268,17.831485748291,17.8318824768066,17.8322792053223,17.8326759338379,17.8330726623535,17.8334712982178,17.8338661193848,17.8342628479004,17.834659576416,17.8350582122803,17.8354530334473,17.8358497619629,17.8362445831299,17.8366394042969,17.8370399475098,17.8374423980713,17.8378295898438,17.838228225708,17.8386306762695,17.8390274047852,17.8394241333008,17.8398189544678,17.8402156829834,17.8406200408936,17.841007232666,17.8414096832275,17.8418025970459,17.8422031402588,17.8425979614258,17.8429985046387,17.8433952331543,17.8437881469727,17.8441848754883,17.8445816040039,17.8449840545654,17.8453769683838,17.8457736968994,17.8461761474609,17.8465709686279,17.8469676971436,17.8473606109619,17.8477630615234,17.8481597900391,17.8485584259033,17.8489551544189,17.8493576049805,17.8497467041016,17.8501472473145,17.8505401611328,17.8509426116943,17.8513374328613,17.8517379760742,17.8521347045898,17.8525352478027,17.8529300689697,17.8533267974854,17.8537254333496,17.8541278839111,17.8545207977295,17.854923248291,17.855318069458,17.8557167053223,17.8561058044434,17.8565044403076,17.8569049835205,17.8573055267334,17.8576984405518,17.8580989837646,17.8585014343262,17.8588924407959,17.8592891693115,17.8596897125244,17.8600902557373,17.8604888916016,17.8608818054199,17.8612842559814,17.8616828918457,17.8620796203613,17.8624782562256,17.8628711700439,17.8632717132568,17.8636703491211,17.8640727996826,17.8644695281982,17.8648643493652,17.8652648925781,17.8656578063965,17.8660583496094,17.866455078125,17.8668556213379,17.8672561645508,17.8676586151123,17.8680477142334,17.8684463500977,17.8688468933105,17.8692493438721,17.8696460723877,17.870044708252,17.8704433441162,17.8708438873291,17.8712368011475,17.8716354370117,17.872034072876,17.8724327087402,17.8728332519531,17.873233795166,17.8736305236816,17.8740234375,17.8744220733643,17.8748226165771,17.8752193450928,17.8756198883057,17.8760223388672,17.8764228820801,17.8768215179443,17.8772125244141,17.8776111602783,17.8780097961426,17.87841796875,17.878812789917,17.8792114257812,17.8796100616455,17.8800106048584,17.880407333374,17.8808059692383,17.8812046051025,17.8815994262695,17.8820037841797,17.8824043273926,17.8828029632568,17.8831977844238,17.8835983276367,17.883996963501,17.8843936920166,17.8847961425781,17.8851928710938,17.885591506958,17.8859977722168,17.8863868713379,17.886791229248,17.8871917724609,17.8875942230225,17.8879890441895,17.8883876800537,17.8887901306152,17.8891830444336,17.8895874023438,17.8899822235107,0,0,0,0,0,0,0,0,0,0,0,0,0,0,0,0,0,0,0,0,0,0,0,0,0,0,0,0,0,0,0,0,0,0,0,0,0,0,0,0,0,0,0,0,0,0,0,0,0,0,0,0,0,0,0,0,0,0,0,0,0,0,0,0,0,0,0,0,0,0,0,0,0,0,0,0,0,0,0,0,0,0,0,0,0,0,0,0,0,0,0,0,0,0,0,0,0,0,0,0,0,0,0,0,0,0,0,0,0,0,0,0,0,0,0,0,0,0,0,0
17.5432415008545,17.5436210632324,17.5440101623535,17.5443916320801,17.5447769165039,17.5451622009277,17.5455417633057,17.5459251403809,17.5463085174561,17.5466957092285,17.5470790863037,17.5474681854248,17.5478496551514,17.5482349395752,17.548620223999,17.5490016937256,17.549388885498,17.5497665405273,17.5501575469971,17.550537109375,17.5509262084961,17.5513095855713,17.5516948699951,17.5520725250244,17.5524578094482,17.5528411865234,17.5532321929932,17.5536117553711,17.5540027618408,17.5543842315674,17.554759979248,17.5551509857178,17.5555362701416,17.5559158325195,17.5563049316406,17.5566883087158,17.5570735931396,17.5574588775635,17.5578422546387,17.5582294464111,17.5586128234863,17.5589923858643,17.5593795776367,17.5597686767578,17.560152053833,17.5605373382568,17.5609149932861,17.5612983703613,17.5616874694824,17.5620708465576,17.5624561309814,17.562837600708,17.5632266998291,17.5636043548584,17.5639934539795,17.5643787384033,17.5647678375244,17.5651512145996,17.5655345916748,17.5659255981445,17.5663070678711,17.5666885375977,17.5670776367188,17.5674629211426,17.567850112915,17.5682315826416,17.5686130523682,17.568998336792,17.5693836212158,17.5697689056396,17.5701560974121,17.5705413818359,17.5709247589111,17.5713119506836,17.5716972351074,17.5720825195312,17.5724658966064,17.5728511810303,17.5732307434082,17.5736198425293,17.5740051269531,17.5743961334229,17.5747814178467,17.5751609802246,17.5755443572998,17.5759296417236,17.5763149261475,17.5767078399658,17.5770931243896,17.5774784088135,17.5778617858887,17.5782489776611,17.5786304473877,17.5790176391602,17.579402923584,17.5797958374023,17.5801753997803,17.5805625915527,17.5809478759766,17.5813331604004,17.5817165374756,17.5820980072021,17.5824928283691,17.5828742980957,17.5832576751709,17.583646774292,17.5840263366699,17.5844173431396,17.5848007202148,17.5851879119873,17.5855751037598,17.585958480835,17.5863437652588,17.5867328643799,17.5871124267578,17.5875015258789,17.5878868103027,17.5882778167725,17.5886631011963,17.5890445709229,17.5894336700439,17.5898170471191,17.590202331543,17.5905895233154,17.5909767150879,17.5913619995117,17.5917472839355,17.5921306610107,17.5925197601318,17.5929069519043,17.5932865142822,17.593677520752,17.5940628051758,17.5944519042969,17.5948352813721,17.5952224731445,17.5956077575684,17.5959949493408,17.596378326416,17.5967693328857,17.5971546173096,17.597541809082,17.5979290008545,17.5983123779297,17.5986976623535,17.5990829467773,17.5994720458984,17.599853515625,17.6002445220947,17.6006374359131,17.601016998291,17.6014060974121,17.6017875671387,17.602180480957,17.6025676727295,17.6029472351074,17.6033363342285,17.6037273406982,17.6041145324707,17.6044940948486,17.6048831939697,17.6052646636963,17.6056575775146,17.6060447692871,17.6064319610596,17.6068210601807,17.6072044372559,17.6075916290283,17.6079711914062,17.6083602905273,17.6087493896484,17.6091346740723,17.6095275878906,17.6099147796631,17.6102981567383,17.6106834411621,17.6110687255859,17.6114616394043,17.6118450164795,17.6122341156006,17.612621307373,17.6130123138428,17.6133918762207,17.6137771606445,17.6141681671143,17.6145534515381,17.6149406433105,17.6153297424316,17.6157188415527,17.6161060333252,17.616491317749,17.6168785095215,17.6172695159912,17.617654800415,17.6180400848389,17.6184272766113,17.6188144683838,17.6191997528076,17.6195907592773,17.6199760437012,17.6203651428223,17.6207485198975,17.6211395263672,17.6215324401855,17.621919631958,17.6222953796387,17.6226863861084,17.6230735778809,17.6234607696533,17.6238460540771,17.6242351531982,17.624626159668,17.6250076293945,17.6253986358643,17.6257877349854,17.6261711120605,17.6265602111816,17.6269512176514,17.6273384094238,17.6277256011963,17.6281089782715,17.6284961700439,17.6288890838623,17.6292743682861,17.6296577453613,17.630054473877,17.6304397583008,17.630823135376,17.6312084197998,17.6316013336182,17.6319885253906,17.6323795318604,17.6327648162842,17.6331520080566,17.633544921875,17.6339282989502,17.634313583374,17.6347064971924,17.6350917816162,17.6354846954346,17.6358699798584,17.6362609863281,17.636646270752,17.6370334625244,17.6374225616455,17.6378078460693,17.6381988525391,17.6385822296143,17.6389770507812,17.6393623352051,17.6397476196289,17.6401386260986,17.6405277252197,17.6409149169922,17.6413040161133,17.6416893005371,17.6420783996582,17.6424732208252,17.642858505249,17.6432399749756,17.6436309814453,17.644021987915,17.6444091796875,17.6447982788086,17.6451873779297,17.6455726623535,17.6459636688232,17.6463470458984,17.6467380523682,17.6471290588379,17.6475200653076,17.6479110717773,17.6482944488525,17.6486778259277,17.6490669250488,17.6494598388672,17.6498508453369,17.650239944458,17.6506290435791,17.6510124206543,17.651403427124,17.6517944335938,17.6521778106689,17.65256690979,17.6529579162598,17.6533470153809,17.6537380218506,17.654125213623,17.6545104980469,17.654899597168,17.6552906036377,17.6556797027588,17.6560688018799,17.6564598083496,17.6568489074707,17.6572380065918,17.6576194763184,17.6580085754395,17.6583995819092,17.6587886810303,17.6591777801514,17.6595668792725,17.6599636077881,17.6603450775146,17.6607360839844,17.6611232757568,17.6615142822266,17.6619033813477,17.6622886657715,17.6626853942871,17.6630744934082,17.6634540557861,17.6638450622559,17.664234161377,17.6646270751953,17.6650161743164,17.6654071807861,17.6657962799072,17.6661834716797,17.6665687561035,17.6669616699219,17.6673488616943,17.6677417755127,17.6681308746338,17.6685199737549,17.6689109802246,17.6692962646484,17.6696853637695,17.6700782775879,17.670467376709,17.6708564758301,17.6712512969971,17.6716384887695,17.672025680542,17.6724147796631,17.6728019714355,17.6731948852539,17.673583984375,17.6739730834961,17.6743659973145,17.6747531890869,17.6751403808594,17.6755294799805,17.6759243011475,17.6763114929199,17.6767044067383,17.6770935058594,17.6774864196777,17.6778736114502,17.6782608032227,17.6786479949951,17.6790390014648,17.6794300079346,17.6798210144043,17.6802101135254,17.6806030273438,17.6809883117676,17.6813793182373,17.681770324707,17.6821632385254,17.6825504302979,17.6829452514648,17.6833305358887,17.6837215423584,17.6841087341309,17.6845035552979,17.6848926544189,17.6852836608887,17.6856746673584,17.6860618591309,17.6864566802979,17.6868476867676,17.6872367858887,17.6876201629639,17.6880130767822,17.6884078979492,17.688793182373,17.6891860961914,17.6895790100098,17.6899662017822,17.690357208252,17.6907501220703,17.6911334991455,17.6915264129639,17.6919212341309,17.692310333252,17.6927051544189,17.6930885314941,17.6934852600098,17.693868637085,17.6942615509033,17.694652557373,17.6950435638428,17.6954383850098,17.695821762085,17.6962146759033,17.696605682373,17.6969985961914,17.6973896026611,17.6977806091309,0,0,0,0,0,0,0,0,0,0,0,0,0,0,0,0,0,0,0,0,0,0,0,0,0,0,0,0,0,0,0,0,0,0,0,0,0,0,0,0,0,0,0,0,0,0,0,0,0,0,0,0,0,0,0,0,0,0,0,0,0,0,0,0,0,0,0,0,0,0,0,0,0,0,0,0,0,0,0,0,0,0,0,0,0,0,0,0,0,0,0,0,0,0,0,0,0,0,0,0,0,0,0,0,0,0,0,0,0,0,0,0,0
17.3557453155518,17.3561210632324,17.3564949035645,17.3568687438965,17.3572444915771,17.3576221466064,17.3579998016357,17.3583736419678,17.3587474822998,17.3591232299805,17.3595008850098,17.3598804473877,17.3602485656738,17.3606224060059,17.3610057830811,17.3613834381104,17.3617572784424,17.3621311187744,17.362512588501,17.3628826141357,17.3632564544678,17.3636360168457,17.3640098571777,17.3643856048584,17.3647708892822,17.3651428222656,17.3655166625977,17.3658924102783,17.366268157959,17.3666400909424,17.3670272827148,17.3674011230469,17.3677787780762,17.3681545257568,17.3685283660889,17.3689022064209,17.3692760467529,17.3696594238281,17.3700294494629,17.3704147338867,17.3707904815674,17.3711585998535,17.3715343475342,17.3719158172607,17.3722877502441,17.3726692199707,17.3730449676514,17.3734226226807,17.37380027771,17.3741798400879,17.3745517730713,17.3749256134033,17.3753051757812,17.3756790161133,17.3760585784912,17.3764343261719,17.3768119812012,17.3771858215332,17.3775577545166,17.3779392242432,17.3783226013184,17.3786945343018,17.3790740966797,17.3794460296631,17.3798274993896,17.380199432373,17.3805770874023,17.3809509277344,17.3813323974609,17.3817138671875,17.3820858001709,17.3824634552002,17.3828372955322,17.3832187652588,17.3835964202881,17.3839683532715,17.3843460083008,17.3847274780273,17.3851051330566,17.3854808807373,17.3858528137207,17.3862323760986,17.3866081237793,17.3869915008545,17.3873691558838,17.3877410888672,17.3881206512451,17.3884983062744,17.3888683319092,17.3892459869385,17.3896255493164,17.390007019043,17.3903846740723,17.3907623291016,17.3911399841309,17.3915119171143,17.3918933868408,17.3922710418701,17.392650604248,17.3930282592773,17.3933963775635,17.3937797546387,17.3941555023193,17.3945350646973,17.3949089050293,17.3952903747559,17.3956661224365,17.3960437774658,17.3964233398438,17.3967971801758,17.3971729278564,17.3975505828857,17.397928237915,17.3983020782471,17.398681640625,17.3990612030029,17.3994369506836,17.3998222351074,17.4001941680908,17.4005718231201,17.4009475708008,17.4013252258301,17.4017105102539,17.4020843505859,17.4024620056152,17.4028339385986,17.4032173156738,17.4035968780518,17.4039745330811,17.4043502807617,17.404727935791,17.4051132202148,17.4054870605469,17.4058570861816,17.4062404632568,17.4066181182861,17.4069976806641,17.4073734283447,17.4077568054199,17.4081325531006,17.4085102081299,17.4088859558105,17.4092617034912,17.4096374511719,17.4100227355957,17.410400390625,17.4107761383057,17.4111595153809,17.4115352630615,17.4119091033936,17.4122886657715,17.4126720428467,17.4130458831787,17.4134254455566,17.4138050079346,17.4141845703125,17.4145603179932,17.4149379730225,17.4153156280518,17.4156894683838,17.4160785675049,17.4164543151855,17.4168319702148,17.4172096252441,17.4175834655762,17.4179668426514,17.4183444976807,17.41872215271,17.4190998077393,17.4194831848145,17.4198589324951,17.4202365875244,17.4206142425537,17.4209880828857,17.4213714599609,17.4217548370361,17.4221305847168,17.4225120544434,17.422887802124,17.4232616424561,17.4236450195312,17.4240245819092,17.4243984222412,17.4247798919678,17.425163269043,17.4255409240723,17.4259128570557,17.4262962341309,17.4266757965088,17.4270610809326,17.427433013916,17.4278106689453,17.4281940460205,17.4285697937012,17.4289474487305,17.4293251037598,17.4297065734863,17.4300899505615,17.4304676055908,17.4308433532715,17.4312229156494,17.4315986633301,17.4319801330566,17.4323577880859,17.4327373504639,17.4331188201904,17.433500289917,17.4338779449463,17.434253692627,17.4346332550049,17.4350147247314,17.4353885650635,17.4357681274414,17.4361476898193,17.4365291595459,17.4369087219238,17.4372901916504,17.4376640319824,17.4380416870117,17.4384250640869,17.4388027191162,17.4391822814941,17.4395618438721,17.4399433135986,17.4403247833252,17.4407043457031,17.4410839080811,17.4414615631104,17.4418411254883,17.4422225952148,17.4426002502441,17.4429817199707,17.4433612823486,17.4437408447266,17.4441204071045,17.4444999694824,17.4448795318604,17.4452590942383,17.4456386566162,17.4460163116455,17.4463958740234,17.4467754364014,17.4471549987793,17.4475326538086,17.4479198455811,17.448299407959,17.4486770629883,17.4490547180176,17.4494342803955,17.4498157501221,17.4501914978027,17.4505805969238,17.4509563446045,17.4513359069824,17.4517135620117,17.4520950317383,17.4524726867676,17.4528579711914,17.4532337188721,17.45361328125,17.4539985656738,17.4543781280518,17.4547576904297,17.4551334381104,17.4555130004883,17.4558963775635,17.4562759399414,17.4566535949707,17.4570369720459,17.4574184417725,17.4577922821045,17.4581737518311,17.4585552215576,17.4589366912842,17.4593200683594,17.4596977233887,17.4600811004639,17.4604587554932,17.4608364105225,17.4612159729004,17.461597442627,17.4619750976562,17.4623622894287,17.4627456665039,17.4631214141846,17.4635009765625,17.4638824462891,17.464262008667,17.4646472930908,17.4650230407715,17.465404510498,17.465784072876,17.4661617279053,17.4665431976318,17.4669284820557,17.4673042297363,17.4676895141602,17.4680728912354,17.468448638916,17.4688320159912,17.4692096710205,17.4695911407471,17.4699687957764,17.4703540802002,17.4707355499268,17.4711132049561,17.4714946746826,17.4718780517578,17.4722537994385,17.472635269165,17.4730129241943,17.4733943939209,17.4737758636475,17.4741611480713,17.4745426177979,17.4749202728271,17.4753036499023,17.4756774902344,17.4760589599609,17.4764442443848,17.47682762146,17.4772071838379,17.4775905609131,17.4779682159424,17.4783515930176,17.4787330627441,17.4791145324707,17.4794902801514,17.4798736572266,17.4802570343018,17.4806365966797,17.4810180664062,17.4814033508301,17.4817771911621,17.4821586608887,17.4825401306152,17.4829216003418,17.483304977417,17.4836864471436,17.4840679168701,17.4844493865967,17.4848308563232,17.4852123260498,17.4855937957764,17.4859752655029,17.4863567352295,17.4867343902588,17.4871215820312,17.4875030517578,17.4878845214844,17.4882659912109,17.4886474609375,17.4890289306641,17.489408493042,17.4897899627686,17.4901733398438,17.4905548095703,17.4909343719482,17.4913158416748,17.4917030334473,17.4920845031738,17.4924583435059,17.4928455352783,17.4932270050049,17.4936065673828,17.4939880371094,17.4943675994873,17.4947547912598,17.4951305389404,17.4955177307129,17.4958972930908,17.4962768554688,17.4966659545898,17.4970474243164,17.4974250793457,17.4978046417236,17.4981842041016,17.4985752105713,17.4989547729492,17.4993324279785,17.499719619751,17.5000991821289,17.5004806518555,17.5008678436279,17.5012474060059,17.5016288757324,17.5020065307617,17.5023937225342,17.5027713775635,17.5031585693359,17.5035381317139,17.5039176940918,17.5043048858643,17.5046863555908,17.5050716400146,17.5054492950439,17.5058364868164,17.5062160491943,17.5066032409668,17.5069808959961,17.5073623657227,17.5077476501465,17.5081253051758,17.5085105895996,17.5088958740234,17.5092792510986,0,0,0,0,0,0,0,0,0,0,0,0,0,0,0,0,0,0,0,0,0,0,0,0,0,0,0,0,0,0,0,0,0,0,0,0,0,0,0,0,0,0,0,0,0,0,0,0,0,0,0,0,0,0,0,0,0,0,0,0,0,0,0,0,0,0,0,0,0,0,0,0,0,0,0,0,0,0,0,0,0,0,0,0,0,0,0,0,0,0,0,0,0,0,0,0,0,0,0,0,0,0,0,0,0,0,0
17.1722106933594,17.1725807189941,17.1729507446289,17.1733112335205,17.1736793518066,17.1740493774414,17.1744174957275,17.174783706665,17.1751556396484,17.1755237579346,17.1758880615234,17.1762580871582,17.1766262054443,17.1769981384277,17.1773662567139,17.1777305603027,17.1781005859375,17.178466796875,17.1788349151611,17.1792049407959,17.179573059082,17.1799392700195,17.180305480957,17.1806735992432,17.1810436248779,17.1814136505127,17.1817798614502,17.1821460723877,17.1825218200684,17.1828899383545,17.183256149292,17.1836261749268,17.1839942932129,17.184362411499,17.1847267150879,17.1850967407227,17.1854705810547,17.1858386993408,17.1862010955811,17.1865711212158,17.1869373321533,17.1873035430908,17.1876792907715,17.1880474090576,17.1884117126465,17.1887836456299,17.1891460418701,17.1895198822021,17.1898899078369,17.1902542114258,17.1906261444092,17.1909942626953,17.1913623809814,17.1917343139648,17.1921043395996,17.1924610137939,17.1928291320801,17.1932029724121,17.193567276001,17.193941116333,17.1943073272705,17.194673538208,17.1950435638428,17.1954154968262,17.1957817077637,17.1961536407471,17.1965179443359,17.196891784668,17.1972599029541,17.1976261138916,17.1979999542236,17.1983623504639,17.1987400054932,17.199104309082,17.1994781494141,17.1998386383057,17.2002143859863,17.2005786895752,17.2009525299072,17.2013187408447,17.2016887664795,17.2020568847656,17.202428817749,17.2028007507324,17.2031688690186,17.2035312652588,17.2039070129395,17.2042789459229,17.2046394348145,17.2050132751465,17.2053852081299,17.205753326416,17.2061195373535,17.2064876556396,17.206859588623,17.2072315216064,17.2075977325439,17.2079696655273,17.2083415985107,17.2087059020996,17.2090759277344,17.2094459533691,17.2098121643066,17.2101821899414,17.2105579376221,17.2109279632568,17.2112941741943,17.2116603851318,17.2120304107666,17.2123985290527,17.2127685546875,17.2131366729736,17.213508605957,17.2138786315918,17.2142486572266,17.2146129608154,17.2149848937988,17.2153549194336,17.2157287597656,17.2160987854004,17.2164707183838,17.2168388366699,17.2172069549561,17.2175769805908,17.2179470062256,17.2183132171631,17.2186851501465,17.2190551757812,17.219425201416,17.2197971343994,17.2201633453369,17.220531463623,17.2208995819092,17.2212696075439,17.2216491699219,17.2220153808594,17.22239112854,17.2227535247803,17.223123550415,17.2234897613525,17.2238636016846,17.2242374420166,17.2246074676514,17.2249794006348,17.2253456115723,17.2257194519043,17.2260894775391,17.2264575958252,17.2268257141113,17.2271976470947,17.2275657653809,17.2279415130615,17.2283115386963,17.2286720275879,17.2290515899658,17.229419708252,17.2297897338867,17.2301597595215,17.2305355072021,17.2309017181396,17.2312717437744,17.2316398620605,17.2320117950439,17.2323799133301,17.2327537536621,17.2331237792969,17.233491897583,17.233865737915,17.2342319488525,17.2346076965332,17.2349758148193,17.2353420257568,17.2357215881348,17.2360877990723,17.2364635467529,17.2368259429932,17.2371997833252,17.2375679016113,17.2379417419434,17.2383098602295,17.2386798858643,17.2390537261963,17.2394256591797,17.2397937774658,17.2401638031006,17.240535736084,17.240909576416,17.2412757873535,17.2416515350342,17.2420196533203,17.2423877716064,17.2427654266357,17.2431335449219,17.2435035705566,17.2438735961914,17.2442474365234,17.2446136474609,17.244987487793,17.2453575134277,17.2457294464111,17.2461013793945,17.2464733123779,17.2468376159668,17.2472152709961,17.2475872039795,17.2479591369629,17.2483196258545,17.2486972808838,17.2490692138672,17.2494354248047,17.2498073577881,17.2501831054688,17.2505550384521,17.2509231567383,17.251293182373,17.2516651153564,17.2520370483398,17.2524127960205,17.252779006958,17.25315284729,17.2535247802734,17.2538928985596,17.254264831543,17.254638671875,17.2550067901611,17.2553787231445,17.2557525634766,17.25612449646,17.2564926147461,17.2568626403809,17.2572383880615,17.2576103210449,17.257984161377,17.2583503723145,17.2587223052979,17.2590961456299,17.2594680786133,17.2598419189453,17.2602081298828,17.2605800628662,17.2609519958496,17.261323928833,17.261697769165,17.2620697021484,17.2624435424805,17.2628135681152,17.2631874084473,17.263557434082,17.2639312744141,17.2643032073975,17.2646770477295,17.2650413513184,17.2654132843018,17.2657871246338,17.2661571502686,17.266529083252,17.2669010162354,17.2672748565674,17.2676448822021,17.2680168151855,17.2683906555176,17.2687606811523,17.2691345214844,17.2695045471191,17.2698822021484,17.2702541351318,17.2706203460693,17.2709922790527,17.271369934082,17.2717399597168,17.2721138000488,17.2724838256836,17.2728538513184,17.2732315063477,17.2735977172852,17.2739696502686,17.2743473052979,17.2747173309326,17.2750873565674,17.2754592895508,17.2758369445801,17.2762107849121,17.2765789031982,17.2769508361816,17.2773189544678,17.2776985168457,17.2780723571777,17.2784404754639,17.2788181304932,17.279182434082,17.2795581817627,17.2799282073975,17.2803058624268,17.2806777954102,17.2810497283936,17.2814254760742,17.281795501709,17.2821655273438,17.2825355529785,17.2829132080078,17.2832832336426,17.2836608886719,17.284029006958,17.2844085693359,17.2847709655762,17.2851467132568,17.2855167388916,17.2858924865723,17.286262512207,17.2866401672363,17.2870101928711,17.2873840332031,17.2877540588379,17.2881298065186,17.2884979248047,17.288875579834,17.2892436981201,17.289623260498,17.2899894714355,17.2903594970703,17.2907371520996,17.2911128997803,17.2914810180664,17.2918567657471,17.2922344207764,17.2926025390625,17.2929801940918,17.2933483123779,17.2937240600586,17.2940902709961,17.2944679260254,17.2948455810547,17.2952136993408,17.2955875396729,17.2959632873535,17.2963333129883,17.2967090606689,17.2970848083496,17.2974510192871,17.2978286743164,17.2982025146484,17.2985763549805,17.2989444732666,17.2993202209473,17.299690246582,17.3000659942627,17.3004379272461,17.3008155822754,17.3011894226074,17.3015651702881,17.3019313812256,17.3023090362549,17.3026828765869,17.3030586242676,17.3034248352051,17.3037986755371,17.3041744232178,17.3045501708984,17.3049259185791,17.305290222168,17.3056659698486,17.3060398101807,17.30641746521,17.3067893981934,17.307165145874,17.3075370788574,17.3079109191895,17.3082866668701,17.3086605072021,17.3090343475342,17.3094100952148,17.3097820281982,17.3101577758789,17.3105239868164,17.3108978271484,17.3112716674805,17.311653137207,17.3120269775391,17.3124008178711,17.3127727508545,17.3131408691406,17.3135204315186,17.3138942718506,17.314266204834,17.314640045166,17.3150157928467,17.3153896331787,17.3157615661621,17.3161354064941,17.3165111541748,17.3168830871582,17.3172626495361,17.3176364898682,17.3180084228516,17.318380355835,17.3187561035156,17.3191261291504,17.3195056915283,17.319881439209,17.3202533721924,17.3206253051758,17.3210048675537,17.3213768005371,17.3217525482178,17.3221244812012,17.3224945068359,17.3228740692139,17.3232479095459,17.3236198425293,17.3239994049072,17.3243713378906,17.324743270874,0,0,0,0,0,0,0,0,0,0,0,0,0,0,0,0,0,0,0,0,0,0,0,0,0,0,0,0,0,0,0,0,0,0,0,0,0,0,0,0,0,0,0,0,0,0,0,0,0,0,0,0,0,0,0,0,0,0,0,0,0,0,0,0,0,0,0,0,0,0,0,0,0,0,0,0,0,0,0,0,0,0,0,0,0,0,0,0,0,0,0,0,0,0,0,0,0,0,0,0,0
16.9925136566162,16.9928760528564,16.9932403564453,16.9936008453369,16.9939613342285,16.9943161010742,16.9946746826172,16.9950389862061,16.995397567749,16.9957599639893,16.9961223602295,16.9964790344238,16.9968433380127,16.9972038269043,16.9975643157959,16.9979267120361,16.9982852935791,16.9986438751221,16.9990043640137,16.9993648529053,16.9997272491455,17.0000858306885,17.0004501342773,17.0008106231689,17.0011672973633,17.0015277862549,17.0018882751465,17.0022468566895,17.0026073455811,17.0029697418213,17.0033321380615,17.0036907196045,17.004056930542,17.0044174194336,17.0047779083252,17.0051364898682,17.0054950714111,17.0058536529541,17.0062160491943,17.0065841674805,17.0069408416748,17.0073013305664,17.007661819458,17.008020401001,17.0083789825439,17.0087471008301,17.009105682373,17.0094661712646,17.009822845459,17.0101909637451,17.0105495452881,17.0109081268311,17.0112686157227,17.0116367340088,17.0119934082031,17.0123519897461,17.012716293335,17.0130786895752,17.0134353637695,17.0137977600098,17.0141620635986,17.0145225524902,17.0148773193359,17.0152454376221,17.0156021118164,17.0159683227539,17.0163288116455,17.0166893005371,17.0170516967773,17.0174083709717,17.0177745819092,17.0181350708008,17.0184955596924,17.0188522338867,17.0192165374756,17.0195827484131,17.0199375152588,17.0203056335449,17.0206604003906,17.0210247039795,17.0213851928711,17.0217456817627,17.0221080780029,17.0224647521973,17.0228309631348,17.0231952667236,17.0235557556152,17.0239181518555,17.0242748260498,17.0246410369873,17.0249996185303,17.0253620147705,17.0257244110107,17.0260848999023,17.0264492034912,17.0268154144287,17.0271682739258,17.027530670166,17.0278911590576,17.0282554626465,17.028621673584,17.0289783477783,17.0293426513672,17.0297050476074,17.0300636291504,17.030424118042,17.0307922363281,17.0311508178711,17.0315093994141,17.0318756103516,17.0322360992432,17.0325927734375,17.0329570770264,17.0333213806152,17.0336799621582,17.0340423583984,17.0344047546387,17.0347690582275,17.0351333618164,17.0354881286621,17.0358505249023,17.0362129211426,17.0365772247314,17.0369415283203,17.0373039245605,17.0376663208008,17.0380229949951,17.038387298584,17.0387516021729,17.0391139984131,17.0394763946533,17.0398387908936,17.0402030944824,17.040563583374,17.0409240722656,17.0412864685059,17.0416450500488,17.0420093536377,17.0423698425293,17.0427360534668,17.043098449707,17.04345703125,17.0438213348389,17.0441837310791,17.0445442199707,17.0449085235596,17.0452709197998,17.04563331604,17.0459995269775,17.0463600158691,17.0467224121094,17.0470809936523,17.0474472045898,17.047815322876,17.0481777191162,17.0485343933105,17.0488986968994,17.0492610931396,17.0496215820312,17.0499820709229,17.0503463745117,17.0507125854492,17.0510787963867,17.0514392852783,17.0518016815186,17.0521602630615,17.052526473999,17.0528869628906,17.0532550811768,17.0536117553711,17.05397605896,17.0543422698975,17.0546970367432,17.0550651550293,17.0554275512695,17.0557880401611,17.0561599731445,17.0565204620361,17.0568771362305,17.0572471618652,17.0575981140137,17.0579719543457,17.0583267211914,17.0586948394775,17.059061050415,17.059419631958,17.0597858428955,17.0601463317871,17.0605087280273,17.0608749389648,17.0612335205078,17.0615940093994,17.0619621276855,17.0623245239258,17.0626907348633,17.0630493164062,17.0634098052979,17.0637798309326,17.064136505127,17.0645084381104,17.0648670196533,17.0652294158936,17.0655918121338,17.0659561157227,17.0663204193115,17.0666885375977,17.0670509338379,17.0674133300781,17.0677719116211,17.0681419372559,17.0684967041016,17.0688629150391,17.0692234039307,17.0695915222168,17.0699558258057,17.0703144073486,17.0706844329834,17.0710468292236,17.0714092254639,17.0717678070068,17.0721321105957,17.0724983215332,17.0728664398193,17.0732231140137,17.0735912322998,17.0739498138428,17.0743160247803,17.0746822357178,17.0750408172607,17.0754051208496,17.0757751464844,17.0761375427246,17.0765056610107,17.0768623352051,17.0772304534912,17.0775871276855,17.077953338623,17.0783195495605,17.0786838531494,17.0790500640869,17.0794086456299,17.0797729492188,17.0801391601562,17.0805053710938,17.0808696746826,17.0812282562256,17.0815925598145,17.081958770752,17.0823230743408,17.0826892852783,17.0830459594727,17.0834121704102,17.083776473999,17.0841426849365,17.0845050811768,17.0848712921143,17.0852375030518,17.085599899292,17.0859642028809,17.0863304138184,17.0866928100586,17.0870590209961,17.087423324585,17.0877799987793,17.0881443023682,17.0885105133057,17.0888729095459,17.0892429351807,17.0896072387695,17.089973449707,17.0903377532959,17.0906944274902,17.0910587310791,17.0914268493652,17.0917949676514,17.0921573638916,17.0925216674805,17.092887878418,17.0932483673096,17.0936145782471,17.0939788818359,17.0943412780762,17.0947093963623,17.0950775146484,17.09543800354,17.0958023071289,17.0961666107178,17.096529006958,17.0968933105469,17.0972633361816,17.0976276397705,17.0979900360107,17.0983543395996,17.0987148284912,17.0990810394287,17.0994491577148,17.0998115539551,17.1001777648926,17.1005458831787,17.1009101867676,17.1012725830078,17.101634979248,17.1020050048828,17.1023693084717,17.1027317047119,17.1030979156494,17.1034641265869,17.1038265228271,17.1041946411133,17.1045570373535,17.1049213409424,17.1052913665771,17.1056499481201,17.1060123443604,17.1063804626465,17.1067447662354,17.1071071624756,17.1074752807617,17.1078357696533,17.1082057952881,17.1085681915283,17.1089382171631,17.1092987060547,17.1096687316895,17.1100292205811,17.1103935241699,17.1107597351074,17.1111297607422,17.1114921569824,17.1118602752686,17.1122226715088,17.112585067749,17.1129531860352,17.1133232116699,17.1136837005615,17.1140518188477,17.1144123077393,17.1147804260254,17.1151485443115,17.1155109405518,17.1158790588379,17.1162395477295,17.1166076660156,17.1169757843018,17.1173362731934,17.1177062988281,17.1180725097656,17.1184349060059,17.118803024292,17.1191654205322,17.1195316314697,17.1198997497559,17.120267868042,17.1206283569336,17.1209964752197,17.1213550567627,17.1217250823975,17.122091293335,17.1224575042725,17.1228256225586,17.1231937408447,17.1235542297363,17.1239223480225,17.12428855896,17.1246490478516,17.1250171661377,17.1253833770752,17.1257514953613,17.1261157989502,17.1264781951904,17.1268463134766,17.1272125244141,17.1275787353516,17.1279449462891,17.1283130645752,17.1286792755127,17.1290473937988,17.1294078826904,17.1297702789307,17.1301403045654,17.1305046081543,17.1308727264404,17.1312389373779,17.1316070556641,17.1319713592529,17.1323375701904,17.1327037811279,17.1330699920654,17.1334381103516,17.1338043212891,17.1341686248779,17.1345348358154,17.1349029541016,17.1352672576904,17.1356334686279,17.1359996795654,17.1363658905029,17.1367321014404,17.1371059417725,17.1374683380127,17.1378288269043,17.1382026672363,17.1385669708252,17.1389331817627,17.1392974853516,17.1396713256836,17.1400375366211,17.14040184021,17.1407680511475,17.1411323547363,17.1414985656738,17.1418647766113,17.1422367095947,17.1426029205322,17.1429672241211,17.14333152771,17.1436939239502,17.1440658569336,0,0,0,0,0,0,0,0,0,0,0,0,0,0,0,0,0,0,0,0,0,0,0,0,0,0,0,0,0,0,0,0,0,0,0,0,0,0,0,0,0,0,0,0,0,0,0,0,0,0,0,0,0,0,0,0,0,0,0,0,0,0,0,0,0,0,0,0,0,0,0,0,0,0,0,0,0,0,0,0,0,0,0,0,0,0,0,0,0,0,0,0,0,0,0
16.8165550231934,16.8169059753418,16.8172512054443,16.8176040649414,16.817964553833,16.8183193206787,16.8186702728271,16.8190231323242,16.8193759918213,16.8197231292725,16.8200855255127,16.8204364776611,16.8207874298096,16.8211421966553,16.8214950561523,16.8218460083008,16.8221969604492,16.8225479125977,16.8229026794434,16.8232555389404,16.8236064910889,16.8239669799805,16.8243198394775,16.8246726989746,16.8250217437744,16.8253784179688,16.8257274627686,16.8260803222656,16.8264408111572,16.826789855957,16.8271446228027,16.8275032043457,16.8278484344482,16.8282032012939,16.828556060791,16.8289070129395,16.8292598724365,16.8296165466309,16.8299713134766,16.8303203582764,16.8306751251221,16.831033706665,16.8313846588135,16.8317337036133,16.8320941925049,16.8324451446533,16.8327960968018,16.8331489562988,16.8335018157959,16.8338565826416,16.83420753479,16.8345642089844,16.8349170684814,16.8352718353271,16.8356285095215,16.8359775543213,16.8363361358643,16.8366870880127,16.8370380401611,16.8373870849609,16.8377437591553,16.8380947113037,16.8384475708008,16.8388023376465,16.8391590118408,16.8395156860352,16.839864730835,16.8402194976807,16.8405723571777,16.8409290313721,16.8412799835205,16.8416328430176,16.841983795166,16.8423461914062,16.8426952362061,16.8430519104004,16.8434028625488,16.8437576293945,16.844108581543,16.8444671630859,16.8448123931885,16.8451709747314,16.845531463623,16.8458805084229,16.8462352752686,16.846586227417,16.84694480896,16.8472995758057,16.8476467132568,16.8480033874512,16.8483600616455,16.8487205505371,16.8490676879883,16.849422454834,16.8497714996338,16.8501281738281,16.8504886627197,16.8508434295654,16.8511924743652,16.8515472412109,16.8519058227539,16.8522510528564,16.852611541748,16.8529663085938,16.8533229827881,16.8536758422852,16.8540344238281,16.8543815612793,16.8547382354736,16.855094909668,16.8554401397705,16.8557987213135,16.8561534881592,16.8565082550049,16.8568649291992,16.8572177886963,16.8575706481934,16.8579254150391,16.8582801818848,16.8586368560791,16.8589897155762,16.8593425750732,16.8597030639648,16.8600482940674,16.8604030609131,16.8607616424561,16.8611145019531,16.8614692687988,16.8618259429932,16.8621788024902,16.8625411987305,16.8628883361816,16.863245010376,16.8635997772217,16.8639526367188,16.8643093109131,16.8646640777588,16.8650188446045,16.8653755187988,16.8657264709473,16.8660831451416,16.8664379119873,16.8668003082275,16.867151260376,16.8675079345703,16.8678607940674,16.8682155609131,16.8685703277588,16.8689250946045,16.8692779541016,16.8696327209473,16.8699932098389,16.8703460693359,16.8706970214844,16.8710556030273,16.8714084625244,16.8717632293701,16.8721179962158,16.8724765777588,16.8728332519531,16.8731861114502,16.8735408782959,16.8738956451416,16.8742523193359,16.8746070861816,16.8749599456787,16.8753204345703,16.875675201416,16.8760280609131,16.8763847351074,16.8767375946045,16.8770942687988,16.8774490356445,16.877799987793,16.8781585693359,16.8785133361816,16.8788661956787,16.879222869873,16.879581451416,16.8799343109131,16.8802928924561,16.8806476593018,16.8810062408447,16.8813629150391,16.8817157745361,16.8820705413818,16.8824234008789,16.8827800750732,16.8831386566162,16.8834915161133,16.8838520050049,16.8842010498047,16.884557723999,16.8849143981934,16.885274887085,16.8856239318848,16.885986328125,16.8863372802734,16.8866958618164,16.8870468139648,16.8874015808105,16.8877582550049,16.8881206512451,16.8884716033936,16.8888320922852,16.8891887664795,16.8895435333252,16.889892578125,16.890251159668,16.8906135559082,16.890962600708,16.891321182251,16.8916759490967,16.8920269012451,16.8923816680908,16.8927402496338,16.8930950164795,16.8934574127197,16.8938064575195,16.8941669464111,16.8945255279541,16.8948822021484,16.8952331542969,16.8955917358398,16.8959426879883,16.8963012695312,16.8966579437256,16.8970184326172,16.8973770141602,16.89772605896,16.8980846405029,16.8984336853027,16.8987941741943,16.89914894104,16.899507522583,16.8998680114746,16.9002246856689,16.9005756378174,16.9009323120117,16.9012908935547,16.9016456604004,16.9020042419434,16.9023628234863,16.902717590332,16.9030685424805,16.9034290313721,16.9037857055664,16.9041423797607,16.9044990539551,16.904857635498,16.9052143096924,16.9055709838867,16.9059219360352,16.9062767028809,16.9066352844238,16.9069919586182,16.9073505401611,16.9077053070068,16.9080619812012,16.9084205627441,16.9087753295898,16.9091339111328,16.9094886779785,16.9098472595215,16.9102039337158,16.9105606079102,16.9109153747559,16.9112720489502,16.9116306304932,16.9119853973389,16.9123420715332,16.9126968383789,16.9130592346191,16.9134197235107,16.9137744903564,16.9141292572021,16.9144859313965,16.9148406982422,16.9151992797852,16.9155540466309,16.9159164428711,16.9162712097168,16.9166297912598,16.9169845581055,16.9173393249512,16.9176959991455,16.9180583953857,16.9184150695801,16.9187698364258,16.9191265106201,16.9194793701172,16.9198360443115,16.9201984405518,16.9205551147461,16.9209079742432,16.921272277832,16.9216289520264,16.9219818115234,16.9223365783691,16.922700881958,16.9230575561523,16.9234104156494,16.923770904541,16.9241275787354,16.9244899749756,16.9248390197754,16.925199508667,16.9255542755127,16.9259166717529,16.9262714385986,16.9266338348389,16.9269866943359,16.9273471832275,16.9277019500732,16.9280567169189,16.9284172058105,16.9287700653076,16.9291324615479,16.9294891357422,16.9298496246338,16.9302024841309,16.9305572509766,16.9309196472168,16.9312725067139,16.9316349029541,16.9319896697998,16.9323482513428,16.932710647583,16.9330635070801,16.9334182739258,16.9337787628174,16.934139251709,16.9344959259033,16.9348545074463,16.9352073669434,16.935567855835,16.9359226226807,16.9362831115723,16.9366436004639,16.9369983673096,16.9373588562012,16.9377193450928,16.9380702972412,16.9384250640869,16.9387855529785,16.9391460418701,16.9395065307617,16.9398593902588,16.940221786499,16.940580368042,16.940938949585,16.9412937164307,16.9416542053223,16.9420108795166,16.9423656463623,16.9427261352539,16.9430866241455,16.9434452056885,16.9437961578369,16.9441585540771,16.9445190429688,16.9448776245117,16.9452362060547,16.9455909729004,16.945951461792,16.946310043335,16.9466686248779,16.947021484375,16.9473819732666,16.9477386474609,16.9480991363525,16.9484577178955,16.9488201141357,16.9491767883301,16.9495277404785,16.9498882293701,16.9502468109131,16.9506053924561,16.9509658813477,16.9513263702393,16.951681137085,16.9520435333252,16.9524021148682,16.9527606964111,16.9531173706055,16.9534759521484,16.95383644104,16.9541931152344,16.954553604126,16.9549102783203,16.9552726745605,16.9556293487549,16.9559860229492,16.9563446044922,16.9567012786865,16.9570617675781,16.9574203491211,16.9577789306641,16.9581356048584,16.9585018157959,16.9588603973389,16.9592170715332,16.9595756530762,16.9599323272705,16.9602928161621,16.9606494903564,16.9610080718994,16.9613723754883,16.9617290496826,16.9620895385742,16.9624443054199,16.9628028869629,16.9631595611572,16.9635257720947,16.9638824462891,16.9642429351807,16.9645938873291,16.964958190918,16.9653167724609,16.9656734466553,16.9660320281982,16.9663944244385,16.9667549133301,16.9671096801758,0,0,0,0,0,0,0,0,0,0,0,0,0,0,0,0,0,0,0,0,0,0,0,0,0,0,0,0,0,0,0,0,0,0,0,0,0,0,0,0,0,0,0,0,0,0,0,0,0,0,0,0,0,0,0,0,0,0,0,0,0,0,0,0,0,0,0,0,0,0,0,0,0,0,0,0,0,0,0,0,0,0,0,0,0,0,0,0,0
16.6441860198975,16.6445369720459,16.6448783874512,16.6452236175537,16.6455726623535,16.6459217071533,16.6462650299072,16.6466045379639,16.646951675415,16.6473007202148,16.647647857666,16.6479873657227,16.6483402252197,16.6486854553223,16.6490287780762,16.6493701934814,16.649715423584,16.6500663757324,16.6504135131836,16.6507549285889,16.6511039733887,16.6514472961426,16.6517925262451,16.6521339416504,16.6524829864502,16.65283203125,16.6531753540039,16.6535224914551,16.6538734436035,16.6542148590088,16.6545581817627,16.6549091339111,16.6552543640137,16.6556015014648,16.6559448242188,16.6562919616699,16.6566371917725,16.6569805145264,16.6573295593262,16.6576747894287,16.6580238342285,16.6583633422852,16.6587142944336,16.6590690612793,16.6594085693359,16.6597537994385,16.6601028442383,16.6604423522949,16.660795211792,16.6611423492432,16.6614856719971,16.661828994751,16.6621761322021,16.6625270843506,16.6628684997559,16.6632175445557,16.6635627746582,16.6639080047607,16.6642551422119,16.6645965576172,16.664945602417,16.6652946472168,16.665641784668,16.6659870147705,16.6663360595703,16.6666831970215,16.667028427124,16.6673755645752,16.6677207946777,16.6680679321289,16.6684169769287,16.6687622070312,16.6691074371338,16.6694526672363,16.6697998046875,16.6701431274414,16.6704940795898,16.6708393096924,16.6711864471436,16.6715393066406,16.6718826293945,16.6722278594971,16.672571182251,16.672924041748,16.6732711791992,16.6736106872559,16.6739597320557,16.6743106842041,16.6746559143066,16.6750030517578,16.6753540039062,16.6756935119629,16.6760368347168,16.6763896942139,16.676736831665,16.6770820617676,16.6774311065674,16.6777763366699,16.678129196167,16.6784725189209,16.6788196563721,16.6791706085205,16.679515838623,16.6798629760742,16.6802101135254,16.6805515289307,16.6808967590332,16.681245803833,16.6816005706787,16.6819477081299,16.6822929382324,16.6826419830322,16.6829814910889,16.6833267211914,16.6836814880371,16.6840305328369,16.6843738555908,16.6847190856934,16.6850662231445,16.6854133605957,16.6857624053955,16.686107635498,16.6864585876465,16.6868057250977,16.6871528625488,16.6875,16.6878471374512,16.6881980895996,16.6885433197021,16.6888847351074,16.6892356872559,16.6895866394043,16.6899356842041,16.6902770996094,16.6906242370605,16.690975189209,16.6913185119629,16.6916694641113,16.6920166015625,16.6923599243164,16.6927146911621,16.693058013916,16.6934032440186,16.6937484741211,16.6940975189209,16.6944484710693,16.6947975158691,16.6951484680176,16.6954936981201,16.695837020874,16.6961860656738,16.6965370178223,16.6968822479248,16.697229385376,16.6975841522217,16.697925567627,16.6982765197754,16.6986217498779,16.6989688873291,16.6993160247803,16.6996650695801,16.700008392334,16.7003631591797,16.7007083892822,16.7010631561279,16.7014045715332,16.7017498016357,16.7021007537842,16.7024478912354,16.7027969360352,16.7031440734863,16.7034969329834,16.7038497924805,16.7041893005371,16.7045345306396,16.7048854827881,16.7052307128906,16.7055835723877,16.7059288024902,16.7062759399414,16.7066326141357,16.7069759368896,16.7073211669922,16.7076683044434,16.7080230712891,16.708366394043,16.7087173461914,16.7090702056885,16.7094135284424,16.7097644805908,16.7101078033447,16.7104568481445,16.7108097076416,16.7111549377441,16.7115058898926,16.7118549346924,16.7121982574463,16.7125492095947,16.7128925323486,16.7132453918457,16.7135944366455,16.7139453887939,16.7142963409424,16.7146396636963,16.7149868011475,16.7153358459473,16.7156810760498,16.7160339355469,16.7163867950439,16.7167339324951,16.7170848846436,16.7174282073975,16.7177791595459,16.7181262969971,16.7184753417969,16.7188262939453,16.719165802002,16.7195205688477,16.7198677062988,16.7202186584473,16.7205677032471,16.7209167480469,16.7212619781494,16.7216091156006,16.721960067749,16.7223091125488,16.7226581573486,16.7230072021484,16.7233581542969,16.7237071990967,16.7240581512451,16.7244071960449,16.7247562408447,16.7251033782959,16.7254486083984,16.7257976531982,16.726146697998,16.7264957427979,16.726842880249,16.7271957397461,16.7275485992432,16.7278919219971,16.7282409667969,16.728588104248,16.7289390563965,16.7292881011963,16.729642868042,16.7299900054932,16.7303409576416,16.7306804656982,16.7310371398926,16.7313842773438,16.7317333221436,16.7320823669434,16.7324314117432,16.732780456543,16.7331275939941,16.7334785461426,16.7338333129883,16.7341823577881,16.7345275878906,16.7348747253418,16.7352256774902,16.7355804443359,16.7359218597412,16.7362747192383,16.7366256713867,16.7369728088379,16.7373294830322,16.7376766204834,16.7380218505859,16.7383728027344,16.7387180328369,16.7390727996826,16.7394218444824,16.7397708892822,16.7401256561279,16.7404708862305,16.7408180236816,16.7411670684814,16.7415218353271,16.741870880127,16.7422161102295,16.7425708770752,16.742919921875,16.7432708740234,16.7436180114746,16.7439670562744,16.744312286377,16.7446689605713,16.7450160980225,16.7453689575195,16.7457160949707,16.7460689544678,16.7464179992676,16.7467670440674,16.7471179962158,16.7474632263184,16.7478199005127,16.7481651306152,16.7485198974609,16.7488651275635,16.7492122650146,16.7495670318604,16.7499122619629,16.7502670288086,16.7506122589111,16.7509670257568,16.7513179779053,16.7516670227051,16.752010345459,16.7523651123047,16.7527179718018,16.7530651092529,16.75341796875,16.7537651062012,16.7541160583496,16.7544631958008,16.7548141479492,16.7551670074463,16.7555122375488,16.7558650970459,16.756217956543,16.7565631866455,16.7569160461426,16.7572631835938,16.7576160430908,16.7579669952393,16.7583198547363,16.7586650848389,16.7590179443359,16.759370803833,16.7597160339355,16.7600688934326,16.7604236602783,16.7607669830322,16.7611198425293,16.7614707946777,16.7618217468262,16.7621765136719,16.7625198364258,16.7628726959229,16.7632236480713,16.7635765075684,16.7639236450195,16.764274597168,16.7646236419678,16.7649784088135,16.7653312683105,16.7656745910645,16.7660255432129,16.76637840271,16.766731262207,16.7670841217041,16.7674331665039,16.767786026001,16.7681293487549,16.768482208252,16.7688312530518,16.7691822052002,16.7695331573486,16.7698879241943,16.7702388763428,16.7705879211426,16.770938873291,16.7712898254395,16.7716426849365,16.7719917297363,16.7723445892334,16.7726936340332,16.7730464935303,16.7733974456787,16.7737483978271,16.774097442627,16.7744483947754,16.7748031616211,16.7751502990723,16.7755031585693,16.7758522033691,16.7762031555176,16.7765560150146,16.7769050598145,16.7772617340088,16.7776107788086,16.777961730957,16.7783145904541,16.7786636352539,16.7790145874023,16.7793636322021,16.7797145843506,16.7800712585449,16.7804222106934,16.7807731628418,16.7811222076416,16.7814712524414,16.7818222045898,16.7821788787842,16.782527923584,16.7828788757324,16.7832279205322,16.7835845947266,16.783935546875,16.7842845916748,16.7846336364746,16.7849922180176,16.7853412628174,16.7856884002686,16.7860450744629,16.7863903045654,16.7867469787598,16.7870960235596,16.7874526977539,16.7877998352051,16.7881507873535,16.7885055541992,16.788854598999,16.7892074584961,16.7895545959473,16.7899074554443,16.7902545928955,16.7906131744385,16.7909603118896,16.791316986084,16.7916660308838,16.7920150756836,16.7923698425293,16.7927207946777,16.7930736541748,16.7934226989746,16.7937793731689,0,0,0,0,0,0,0,0,0,0,0,0,0,0,0,0,0,0,0,0,0,0,0,0,0,0,0,0,0,0,0,0,0,0,0,0,0,0,0,0,0,0,0,0,0,0,0,0,0,0,0,0,0,0,0,0,0,0,0,0,0,0,0,0,0,0,0,0,0,0,0,0,0,0,0,0,0,0,0,0,0,0,0
