0,0,0,0,0,0,0,0,0,0,0,0,0,0,0,0,0,0,0,0,0,0,0,0,0,0,0,0,0,0,0,0,0,0,0,0,0,0,0,0,0,0,0,0,0,0,0,0,0,0,0,0,0,0,0,0,0,0,0,0,0,0,0,0,0,0,0,0,0,0,0,0,0,0,0,0,0,0,0,0,0,0,0,0,0,0,0,0,0,0,0,0,0,0,0,0,0,0,0,0,0,0,0,0,0,0,0,0,0,0,0,0,0,0,0,0,0,0,0,0,0,0,0,0,0,0,0,0,0,0,0,0,0,0,0,0,0,0,0,0,0,0,0,0,0,0,0,0,0,0,0,0,0,0,0,0,0,0,0,0,0,0,0,0,0,0,0,0,0,0,0,0,0,0,0,0,0,0,0,0,0,0,0,0,0,0,0,0,0,0,0,0,0,0,0,0,0,0,0,0,0,0,0,0,0,0,0,0,0,0,0,0,0,0,0,0,0,0,0,0,0,0,0,0,0,0,0,0,0,0,0,0,0,0,0,0,0,0,0,0,0,0,0,0,0,0,0,0,0,0,0,0,0,0,0,0,0,0,0,0,0,0,0,0,0,0,0,0,0,0,0,0,0,0,0,0,0,0,0,0,0,0,0,0,0,0,0,0,0,0,0,0,0,0,0,0,0,0,0,0,0,0,0,0,0,0,0,0,0,0,0,0,0,0,0,0,0,0,0,0,0,0,0,0,0,0,0,0,0,0,0,0,0,0,0,0,0,0,0,0,0,0,0,0,0,0,0,0,0,0,0,0,0,0,0,0,0,0,0,0,0,0,0,0,0,0,0,0,0,0,0,0,0,0,0,0,0,0,0,0,0,0,0,0,0,0,0,0,0,0,0,0,0,0,0,0,0,0,0,0,0,0,0,0,0,0,0,0,0,0,0,0,0,0,0,0,0,0,0,0,0,0,0,0,0,0,0,0,0,0,0,0,0,0,0,0,0,0,0
0,0,0,0,0,0,0,0,0,0,0,0,0,0,0,0,0,0,0,0,0,0,0,0,0,0,0,0,0,0,0,0,0,0,0,0,0,0,0,0,0,0,0,0,0,0,0,0,0,0,0,0,0,0,0,0,0,0,0,0,0,0,0,0,0,0,0,0,0,0,0,0,0,0,0,0,0,0,0,0,0,0,0,0,0,0,0,0,0,0,0,0,0,0,0,0,0,0,0,0,0,0,0,0,0,0,0,0,0,0,0,0,0,0,0,0,0,0,0,0,0,0,0,0,0,0,0,0,0,0,0,0,0,0,0,0,0,0,0,0,0,0,0,0,0,0,0,0,0,0,0,0,0,0,0,0,0,0,0,0,0,0,0,0,0,0,0,0,0,0,0,0,0,0,0,0,0,0,0,0,0,0,0,0,0,0,0,0,0,0,0,0,0,0,0,0,0,0,0,0,0,0,0,0,0,0,0,0,0,0,0,0,0,0,0,0,0,0,0,0,0,0,0,0,0,0,0,0,0,0,0,0,0,0,0,0,0,0,0,0,0,0,0,0,0,0,0,0,0,0,0,0,0,0,0,0,0,0,0,0,0,0,0,0,0,0,0,0,0,0,0,0,0,0,0,0,0,0,0,0,0,0,0,0,0,0,0,0,0,0,0,0,0,0,0,0,0,0,0,0,0,0,0,0,0,0,0,0,0,0,0,0,0,0,0,0,0,0,0,0,0,0,0,0,0,0,0,0,0,0,0,0,0,0,0,0,0,0,0,0,0,0,0,0,0,0,0,0,0,0,0,0,0,0,0,0,0,0,0,0,0,0,0,0,0,0,0,0,0,0,0,0,0,0,0,0,0,0,0,0,0,0,0,0,0,0,0,0,0,0,0,0,0,0,0,0,0,0,0,0,0,0,0,0,0,0,0,0,0,0,0,0,0,0,0,0,0,0,0,0,0,0,0,0,0,0,0,0,0,0,0,0,0,0,0,0,0,0,0
0,0,0,0,0,0,0,0,0,0,0,0,0,0,0,0,0,0,0,0,0,0,0,0,0,0,0,0,0,0,0,0,0,0,0,0,0,0,0,0,0,0,0,0,0,0,0,0,0,0,0,0,0,0,0,0,0,0,0,0,0,0,0,0,0,0,0,0,0,0,0,0,0,0,0,0,0,0,0,0,0,0,0,0,0,0,0,0,0,0,0,0,0,0,0,0,0,0,0,0,0,0,0,0,0,0,0,0,0,0,0,0,0,0,0,0,0,0,0,0,0,0,0,0,0,0,0,0,0,0,0,0,0,0,0,0,0,0,0,0,0,0,0,0,0,0,0,0,0,0,0,0,0,0,0,0,0,0,0,0,0,0,0,0,0,0,0,0,0,0,0,0,0,0,0,0,0,0,0,0,0,0,0,0,0,0,0,0,0,0,0,0,0,0,0,0,0,0,0,0,0,0,0,0,0,0,0,0,0,0,0,0,0,0,0,0,0,0,0,0,0,0,0,0,0,0,0,0,0,0,0,0,0,0,0,0,0,0,0,0,0,0,0,0,0,0,0,0,0,0,0,0,0,0,0,0,0,0,0,0,0,0,0,0,0,0,0,0,0,0,0,0,0,0,0,0,0,0,0,0,0,0,0,0,0,0,0,0,0,0,0,0,0,0,0,0,0,0,0,0,0,0,0,0,0,0,0,0,0,0,0,0,0,0,0,0,0,0,0,0,0,0,0,0,0,0,0,0,0,0,0,0,0,0,0,0,0,0,0,0,0,0,0,0,0,0,0,0,0,0,0,0,0,0,0,0,0,0,0,0,0,0,0,0,0,0,0,0,0,0,0,0,0,0,0,0,0,0,0,0,0,0,0,0,0,0,0,0,0,0,0,0,0,0,0,0,0,0,0,0,0,0,0,0,0,0,0,0,0,0,0,0,0,0,0,0,0,0,0,0,0,0,0,0,0,0,0,0,0,0,0,0,0,0,0,0,0,0,0
0,0,0,0,0,0,0,0,0,0,0,0,0,0,0,0,0,0,0,0,0,0,0,0,0,0,0,0,0,0,0,0,0,0,0,0,0,0,0,0,0,0,0,0,0,0,0,0,0,0,0,0,0,0,0,0,0,0,0,0,0,0,0,0,0,0,0,0,0,0,0,0,0,0,0,0,0,0,0,0,0,0,0,0,0,0,0,0,0,0,0,0,0,0,0,0,0,0,0,0,0,0,0,0,0,0,0,0,0,0,0,0,0,0,0,0,0,0,0,0,0,0,0,0,0,0,0,0,0,0,0,0,0,0,0,0,0,0,0,0,0,0,0,0,0,0,0,0,0,0,0,0,0,0,0,0,0,0,0,0,0,0,0,0,0,0,0,0,0,0,0,0,0,0,0,0,0,0,0,0,0,0,0,0,0,0,0,0,0,0,0,0,0,0,0,0,0,0,0,0,0,0,0,0,0,0,0,0,0,0,0,0,0,0,0,0,0,0,0,0,0,0,0,0,0,0,0,0,0,0,0,0,0,0,0,0,0,0,0,0,0,0,0,0,0,0,0,0,0,0,0,0,0,0,0,0,0,0,0,0,0,0,0,0,0,0,0,0,0,0,0,0,0,0,0,0,0,0,0,0,0,0,0,0,0,0,0,0,0,0,0,0,0,0,0,0,0,0,0,0,0,0,0,0,0,0,0,0,0,0,0,0,0,0,0,0,0,0,0,0,0,0,0,0,0,0,0,0,0,0,0,0,0,0,0,0,0,0,0,0,0,0,0,0,0,0,0,0,0,0,0,0,0,0,0,0,0,0,0,0,0,0,0,0,0,0,0,0,0,0,0,0,0,0,0,0,0,0,0,0,0,0,0,0,0,0,0,0,0,0,0,0,0,0,0,0,0,0,0,0,0,0,0,0,0,0,0,0,0,0,0,0,0,0,0,0,0,0,0,0,0,0,0,0,0,0,0,0,0,0,0,0,0,0,0,0,0,0,0
0,0,0,0,0,0,0,0,0,0,0,0,0,0,0,0,0,0,0,0,0,0,0,0,0,0,0,0,0,0,0,0,0,0,0,0,0,0,0,0,0,0,0,0,0,0,0,0,0,0,0,0,0,0,0,0,0,0,0,0,0,0,0,0,0,0,0,0,0,0,0,0,0,0,0,0,0,0,0,0,0,0,0,0,0,0,0,0,0,0,0,0,0,0,0,0,0,0,0,0,0,0,0,0,0,0,0,0,0,0,0,0,0,0,0,0,0,0,0,0,0,0,0,0,0,0,0,0,0,0,0,0,0,0,0,0,0,0,0,0,0,0,0,0,0,0,0,0,0,0,0,0,0,0,0,0,0,0,0,0,0,0,0,0,0,0,0,0,0,0,0,0,0,0,0,0,0,0,0,0,0,0,0,0,0,0,0,0,0,0,0,0,0,0,0,0,0,0,0,0,0,0,0,0,0,0,0,0,0,0,0,0,0,0,0,0,0,0,0,0,0,0,0,0,0,0,0,0,0,0,0,0,0,0,0,0,0,0,0,0,0,0,0,0,0,0,0,0,0,0,0,0,0,0,0,0,0,0,0,0,0,0,0,0,0,0,0,0,0,0,0,0,0,0,0,0,0,0,0,0,0,0,0,0,0,0,0,0,0,0,0,0,0,0,0,0,0,0,0,0,0,0,0,0,0,0,0,0,0,0,0,0,0,0,0,0,0,0,0,0,0,0,0,0,0,0,0,0,0,0,0,0,0,0,0,0,0,0,0,0,0,0,0,0,0,0,0,0,0,0,0,0,0,0,0,0,0,0,0,0,0,0,0,0,0,0,0,0,0,0,0,0,0,0,0,0,0,0,0,0,0,0,0,0,0,0,0,0,0,0,0,0,0,0,0,0,0,0,0,0,0,0,0,0,0,0,0,0,0,0,0,0,0,0,0,0,0,0,0,0,0,0,0,0,0,0,0,0,0,0,0,0,0,0,0,0,0,0,0
0,0,0,0,0,0,0,0,0,0,0,0,0,0,0,0,0,0,0,0,0,0,0,0,0,0,0,0,0,0,0,0,0,0,0,0,0,0,0,0,0,0,0,0,0,0,0,0,0,0,0,0,0,0,0,0,0,0,0,0,0,0,0,0,0,0,0,0,0,0,0,0,0,0,0,0,0,0,0,0,0,0,0,0,0,0,0,0,0,0,0,0,0,0,0,0,0,0,0,0,0,0,0,0,0,0,0,0,0,0,0,0,0,0,0,0,0,0,0,0,0,0,0,0,0,0,0,0,0,0,0,0,0,0,0,0,0,0,0,0,0,0,0,0,0,0,0,0,0,0,0,0,0,0,0,0,0,0,0,0,0,0,0,0,0,0,0,0,0,0,0,0,0,0,0,0,0,0,0,0,0,0,0,0,0,0,0,0,0,0,0,0,0,0,0,0,0,0,0,0,0,0,0,0,0,0,0,0,0,0,0,0,0,0,0,0,0,0,0,0,0,0,0,0,0,0,0,0,0,0,0,0,0,0,0,0,0,0,0,0,0,0,0,0,0,0,0,0,0,0,0,0,0,0,0,0,0,0,0,0,0,0,0,0,0,0,0,0,0,0,0,0,0,0,0,0,0,0,0,0,0,0,0,0,0,0,0,0,0,0,0,0,0,0,0,0,0,0,0,0,0,0,0,0,0,0,0,0,0,0,0,0,0,0,0,0,0,0,0,0,0,0,0,0,0,0,0,0,0,0,0,0,0,0,0,0,0,0,0,0,0,0,0,0,0,0,0,0,0,0,0,0,0,0,0,0,0,0,0,0,0,0,0,0,0,0,0,0,0,0,0,0,0,0,0,0,0,0,0,0,0,0,0,0,0,0,0,0,0,0,0,0,0,0,0,0,0,0,0,0,0,0,0,0,0,0,0,0,0,0,0,0,0,0,0,0,0,0,0,0,0,0,0,0,0,0,0,0,0,0,0,0,0,0,0,0,0,0,0
0,0,0,0,0,0,0,0,0,0,0,0,0,0,0,0,0,0,0,0,0,0,0,0,0,0,0,0,0,0,0,0,0,0,0,0,0,0,0,0,0,0,0,0,0,0,0,0,0,0,0,0,0,0,0,0,0,0,0,0,0,0,0,0,0,0,0,0,0,0,0,0,0,0,0,0,0,0,0,0,0,0,0,0,0,0,0,0,0,0,0,0,0,0,0,0,0,0,0,0,0,0,0,0,0,0,0,0,0,0,0,0,0,0,0,0,0,0,0,0,0,0,0,0,0,0,0,0,0,0,0,0,0,0,0,0,0,0,0,0,0,0,0,0,0,0,0,0,0,0,0,0,0,0,0,0,0,0,0,0,0,0,0,0,0,0,0,0,0,0,0,0,0,0,0,0,0,0,0,0,0,0,0,0,0,0,0,0,0,0,0,0,0,0,0,0,0,0,0,0,0,0,0,0,0,0,0,0,0,0,0,0,0,0,0,0,0,0,0,0,0,0,0,0,0,0,0,0,0,0,0,0,0,0,0,0,0,0,0,0,0,0,0,0,0,0,0,0,0,0,0,0,0,0,0,0,0,0,0,0,0,0,0,0,0,0,0,0,0,0,0,0,0,0,0,0,0,0,0,0,0,0,0,0,0,0,0,0,0,0,0,0,0,0,0,0,0,0,0,0,0,0,0,0,0,0,0,0,0,0,0,0,0,0,0,0,0,0,0,0,0,0,0,0,0,0,0,0,0,0,0,0,0,0,0,0,0,0,0,0,0,0,0,0,0,0,0,0,0,0,0,0,0,0,0,0,0,0,0,0,0,0,0,0,0,0,0,0,0,0,0,0,0,0,0,0,0,0,0,0,0,0,0,0,0,0,0,0,0,0,0,0,0,0,0,0,0,0,0,0,0,0,0,0,0,0,0,0,0,0,0,0,0,0,0,0,0,0,0,0,0,0,0,0,0,0,0,0,0,0,0,0,0,0,0,0,0,0,0
19.6982593536377,19.7017002105713,19.7051334381104,19.7085628509521,19.7120037078857,19.715446472168,19.7188701629639,19.7223205566406,19.725757598877,19.7291965484619,19.7326412200928,19.7360858917236,19.7395305633545,19.742977142334,19.7464237213135,19.7498664855957,19.7533206939697,19.7567768096924,19.760217666626,19.7636756896973,19.7671318054199,19.7705879211426,19.7740478515625,19.7775058746338,19.7809658050537,19.7844181060791,19.7878856658936,19.7913475036621,19.7948150634766,19.7982788085938,19.8017463684082,19.805212020874,19.8086776733398,19.8121547698975,19.8156280517578,19.8191051483154,19.822566986084,19.8260536193848,19.8295288085938,19.8330059051514,19.836483001709,19.8399658203125,19.8434429168701,19.8469295501709,19.8504161834717,19.8538951873779,19.8573894500732,19.8608779907227,19.8643550872803,19.8678493499756,19.8713417053223,19.8748340606689,19.8783321380615,19.8818244934082,19.8853187561035,19.8888206481934,19.8923149108887,19.8958129882812,19.8993167877197,19.9028205871582,19.9063205718994,19.9098262786865,19.9133338928223,19.9168376922607,19.9203453063965,19.9238624572754,19.9273662567139,19.9308795928955,19.9343910217285,19.9379119873047,19.9414291381836,19.9449481964111,19.9484596252441,19.951976776123,19.9555015563965,19.9590225219727,19.9625549316406,19.9660778045654,19.9695987701416,19.973123550415,19.9766540527344,19.9801864624023,19.983715057373,19.987247467041,19.9907779693604,19.994312286377,19.9978504180908,0,0,0,0,0,0,0,0,0,0,0,0,0,0,0,0,0,0,0,0,0,0,0,0,0,0,0,0,0,0,0,0,0,0,0,0,0,0,0,0,0,0,0,0,0,0,0,0,0,0,0,0,0,0,0,0,0,0,0,0,0,0,0,0,0,0,0,0,0,0,0,0,0,0,0,0,0,0,0,0,0,0,0,0,0,0,0,0,0,0,0,0,0,0,0,0,0,0,0,0,0,0,0,0,0,0,0,0,0,0,0,0,0,0,0,0,0,0,0,0,0,0,0,0,0,0,0,0,0,0,0,0,0,0,0,0,0,0,0,0,0,0,0,0,0,0,0,0,0,0,0,0,0,0,0,0,0,0,0,0,0,0,0,0,0,0,0,0,0,0,0,0,0,0,0,0,0,0,0,0,0,0,0,0,0,0,0,0,0,0,0,0,0,0,0,0,0,0,0,0,0,0,0,0,0,0,0,0,0,0,0,0,0,0,0,0,0,0,0,0,0,0,0,0,0,0,0,0,0,0,0,0,0,0,0,0,0,0,0,0,0,0,0,0,0,0,0,0,0,0,0,0,0,0,0,0,0,0,0,0,0,0,0,0,0,0,0,0,0,0,0,0,0,0,0,0,0,0,0,0,0,0,0,0,0,0,0,0,0,0,0,0,0,0,0,0,0,0,0,0,0,0,0,0,0,0,0,0,0,0,0,0,0,0,0,0,0,0,0,0,0,0,0,0,0,0,0,0,0,0,0,0,0,0,0,0,0,0,0,0,0,0,0,0,0,0,0,0,0,0,0,0
19.3834362030029,19.3867588043213,19.3900852203369,19.3934059143066,19.3967342376709,19.4000625610352,19.4033908843994,19.4067192077637,19.4100551605225,19.4133815765381,19.4167175292969,19.420051574707,19.4233818054199,19.4267292022705,19.4300651550293,19.4333992004395,19.4367351531982,19.4400825500488,19.4434261322021,19.4467678070068,19.4501171112061,19.4534606933594,19.45680809021,19.4601516723633,19.4635009765625,19.4668521881104,19.47021484375,19.4735584259033,19.4769153594971,19.4802722930908,19.4836235046387,19.4869861602783,19.4903392791748,19.4937019348145,19.4970664978027,19.5004253387451,19.5037899017334,19.5071506500244,19.5105152130127,19.5138816833496,19.5172538757324,19.5206146240234,19.5239944458008,19.5273609161377,19.5307350158691,19.5341091156006,19.537483215332,19.540864944458,19.5442409515381,19.5476150512695,19.5509986877441,19.5543804168701,19.5577564239502,19.5611419677734,19.5645313262939,19.5679149627686,19.5713062286377,19.5746917724609,19.5780773162842,19.5814685821533,19.5848560333252,19.5882549285889,19.5916423797607,19.595043182373,19.5984325408936,19.6018390655518,19.6052284240723,19.6086368560791,19.6120338439941,19.6154384613037,19.6188335418701,19.6222381591797,19.6256484985352,19.6290550231934,19.6324653625488,19.6358680725098,19.6392803192139,19.6426887512207,19.6461029052734,19.6495227813721,19.6529331207275,19.6563491821289,19.6597595214844,19.6631889343262,19.6666069030762,19.6700267791748,19.6734523773193,19.676872253418,19.6802978515625,19.6837196350098,19.6871528625488,19.6905746459961,19.6940059661865,19.6974411010742,19.7008647918701,19.7042961120605,19.7077350616455,19.7111740112305,19.7146072387695,19.7180480957031,19.7214832305908,19.7249164581299,19.7283668518066,19.7318096160889,19.7352542877197,19.7386932373047,19.7421455383301,19.745584487915,19.7490310668945,19.7524871826172,19.7559356689453,19.7593898773193,19.7628402709961,19.7662963867188,19.7697505950928,19.77321434021,19.776668548584,19.7801303863525,19.7835845947266,19.7870464324951,19.7905101776123,19.7939739227295,19.7974376678467,19.800910949707,19.8043766021729,19.8078441619873,19.8113136291504,19.8147888183594,19.8182601928711,19.8217372894287,19.8252086639404,19.8286895751953,19.8321628570557,19.835636138916,19.8391265869141,19.8426036834717,19.8460807800293,19.8495674133301,19.8530578613281,19.856538772583,19.8600273132324,19.8635234832764,19.8670063018799,19.8704967498779,19.8739891052246,19.8774833679199,19.8809776306152,19.8844776153564,19.8879680633545,19.8914642333984,19.8949680328369,19.8984718322754,19.9019718170166,19.9054794311523,19.9089832305908,19.9124851226807,19.9159965515137,19.9195022583008,19.9230117797852,19.9265251159668,19.9300327301025,19.9335460662842,19.9370574951172,19.9405822753906,19.9440956115723,19.9476108551025,19.9511280059814,19.9546527862549,19.958179473877,19.9616966247559,19.9652252197266,19.9687461853027,19.9722728729248,19.9758014678955,19.9793281555176,19.9828624725342,19.9863929748535,19.9899272918701,19.9934597015381,19.9969997406006,0,0,0,0,0,0,0,0,0,0,0,0,0,0,0,0,0,0,0,0,0,0,0,0,0,0,0,0,0,0,0,0,0,0,0,0,0,0,0,0,0,0,0,0,0,0,0,0,0,0,0,0,0,0,0,0,0,0,0,0,0,0,0,0,0,0,0,0,0,0,0,0,0,0,0,0,0,0,0,0,0,0,0,0,0,0,0,0,0,0,0,0,0,0,0,0,0,0,0,0,0,0,0,0,0,0,0,0,0,0,0,0,0,0,0,0,0,0,0,0,0,0,0,0,0,0,0,0,0,0,0,0,0,0,0,0,0,0,0,0,0,0,0,0,0,0,0,0,0,0,0,0,0,0,0,0,0,0,0,0,0,0,0,0,0,0,0,0,0,0,0,0,0,0,0,0,0,0,0,0,0,0,0,0,0,0,0,0,0,0,0,0,0,0,0,0,0,0,0,0,0,0,0,0,0,0,0,0,0,0,0,0,0,0,0,0,0,0,0,0,0,0,0,0,0,0,0,0,0,0,0,0,0,0,0,0,0,0,0,0,0,0,0,0,0,0,0,0,0,0,0,0,0,0,0,0,0,0,0
19.0785045623779,19.0817222595215,19.0849456787109,19.0881690979004,19.0913963317871,19.0946140289307,19.0978355407715,19.1010684967041,19.1042900085449,19.1075172424316,19.1107444763184,19.1139831542969,19.117208480835,19.1204471588135,19.1236801147461,19.1269111633301,19.1301498413086,19.1333885192871,19.1366233825684,19.1398601531982,19.1431045532227,19.1463413238525,19.1495838165283,19.15283203125,19.1560745239258,19.1593151092529,19.1625652313232,19.1658115386963,19.169059753418,19.1723136901855,19.1755676269531,19.1788139343262,19.1820678710938,19.1853199005127,19.1885795593262,19.1918392181396,19.1950988769531,19.1983509063721,19.2016105651855,19.2048740386963,19.2081394195557,19.211404800415,19.2146625518799,19.2179336547852,19.22119140625,19.2244682312012,19.2277336120605,19.2309970855713,19.2342739105225,19.2375373840332,19.2408142089844,19.2440910339355,19.2473735809326,19.2506465911865,19.2539215087891,19.2571983337402,19.2604827880859,19.2637634277344,19.2670459747314,19.2703285217285,19.2736186981201,19.2768993377686,19.2801837921143,19.2834739685059,19.2867622375488,19.2900524139404,19.2933464050293,19.296630859375,19.2999267578125,19.30322265625,19.306526184082,19.309814453125,19.3131103515625,19.31640625,19.319709777832,19.3230133056641,19.3263149261475,19.3296184539795,19.3329277038574,19.3362255096436,19.3395328521729,19.3428440093994,19.346155166626,19.3494644165039,19.3527755737305,19.356086730957,19.3594036102295,19.3627147674561,19.3660316467285,19.3693542480469,19.372673034668,19.3759918212891,19.3793106079102,19.3826274871826,19.3859558105469,19.3892726898193,19.3926067352295,19.395923614502,19.3992576599121,19.4025821685791,19.4059162139893,19.4092445373535,19.412576675415,19.4159107208252,19.4192371368408,19.4225788116455,19.4259204864502,19.429256439209,19.4325923919678,19.4359321594238,19.4392757415771,19.4426174163818,19.4459609985352,19.4493045806885,19.4526481628418,19.4559936523438,19.459342956543,19.4626941680908,19.4660472869873,19.4693984985352,19.4727516174316,19.4760971069336,19.4794578552246,19.4828128814697,19.4861717224121,19.4895343780518,19.4928874969482,19.4962501525879,19.4996109008789,19.5029754638672,19.5063400268555,19.5097026824951,19.5130729675293,19.5164375305176,19.5198020935059,19.5231742858887,19.5265502929688,19.5299205780029,19.5332946777344,19.5366687774658,19.5400447845459,19.5434265136719,19.5468006134033,19.5501861572266,19.5535621643066,19.5569381713867,19.5603218078613,19.5637111663818,19.5670948028564,19.5704803466797,19.5738697052002,19.5772571563721,19.5806446075439,19.5840377807617,19.5874309539795,19.5908241271973,19.5942211151123,19.5976085662842,19.6010131835938,19.6044120788574,19.6078128814697,19.611213684082,19.6146125793457,19.6180152893066,19.6214179992676,19.6248207092285,19.628231048584,19.6316375732422,19.6350479125977,19.6384525299072,19.64186668396,19.6452827453613,19.6486911773682,19.6521053314209,19.6555233001709,19.6589393615723,19.6623554229736,19.6657752990723,19.6692008972168,19.6726226806641,19.6760501861572,19.6794662475586,19.6828880310059,19.6863193511963,19.6897487640381,19.6931762695312,19.6966075897217,19.7000350952148,19.7034702301025,19.7069110870361,19.7103404998779,19.7137775421143,19.7172107696533,19.7206497192383,19.7240867614746,19.7275295257568,19.730978012085,19.7344188690186,19.7378711700439,19.7413082122803,19.7447528839111,19.7482051849365,19.7516479492188,19.7551078796387,19.7585582733154,19.7620105743408,19.7654590606689,19.7689189910889,19.7723693847656,19.7758274078369,19.7792892456055,19.782751083374,19.7862091064453,19.7896747589111,19.7931385040283,19.7966022491455,19.8000774383545,19.803539276123,19.8070011138916,19.810474395752,19.8139476776123,19.8174209594727,19.8208961486816,19.8243713378906,19.8278408050537,19.83131980896,19.8348007202148,19.8382797241211,19.8417625427246,19.8452472686768,19.8487281799316,19.8522071838379,19.8556995391846,19.8591823577881,19.8626708984375,19.8661670684814,19.8696460723877,19.8731441497803,19.8766384124756,19.8801345825195,19.8836307525635,19.8871269226074,19.8906192779541,19.8941211700439,19.8976230621338,19.9011249542236,19.9046306610107,19.9081344604492,19.9116325378418,19.9151420593262,19.9186515808105,19.9221611022949,19.9256725311279,19.9291877746582,19.9326934814453,19.9362106323242,19.9397277832031,19.9432468414307,19.9467601776123,19.9502830505371,19.953800201416,19.9573173522949,19.9608421325684,19.9643707275391,19.9678936004639,19.9714221954346,19.9749393463135,19.9784812927246,19.9820022583008,19.9855365753174,19.9890689849854,19.9926071166992,19.9961338043213,19.9996757507324,0,0,0,0,0,0,0,0,0,0,0,0,0,0,0,0,0,0,0,0,0,0,0,0,0,0,0,0,0,0,0,0,0,0,0,0,0,0,0,0,0,0,0,0,0,0,0,0,0,0,0,0,0,0,0,0,0,0,0,0,0,0,0,0,0,0,0,0,0,0,0,0,0,0,0,0,0,0,0,0,0,0,0,0,0,0,0,0,0,0,0,0,0,0,0,0,0,0,0,0,0,0,0,0,0,0,0,0,0,0,0,0,0,0,0,0,0,0,0,0,0,0,0,0,0,0,0,0,0,0,0,0,0,0,0,0,0,0,0,0,0,0,0,0,0,0,0,0,0,0,0,0,0,0,0,0,0,0,0,0,0,0,0,0,0
18.7830238342285,18.7861442565918,18.7892646789551,18.7923889160156,18.7955112457275,18.7986354827881,18.8017578125,18.8048858642578,18.8080139160156,18.8111476898193,18.8142719268799,18.817403793335,18.82053565979,18.823673248291,18.8268089294434,18.8299446105957,18.8330726623535,18.8362121582031,18.8393535614014,18.8424968719482,18.845630645752,18.8487739562988,18.8519096374512,18.8550605773926,18.8582019805908,18.8613510131836,18.8644981384277,18.8676433563232,18.8707847595215,18.8739433288574,18.8770942687988,18.8802394866943,18.883394241333,18.8865509033203,18.8896999359131,18.8928546905518,18.8960151672363,18.8991756439209,18.9023361206055,18.9055004119873,18.9086532592773,18.9118175506592,18.914981842041,18.9181461334229,18.9213085174561,18.9244842529297,18.9276447296143,18.9308128356934,18.9339866638184,18.9371547698975,18.9403266906738,18.9434986114502,18.9466705322266,18.9498481750488,18.9530258178711,18.9562034606934,18.959379196167,18.9625625610352,18.9657382965088,18.9689197540283,18.9721050262451,18.9752883911133,18.9784755706787,18.9816570281982,18.984842300415,18.9880332946777,18.9912185668945,18.9944095611572,18.9976081848145,19.0007972717285,19.0039882659912,19.0071830749512,19.0103740692139,19.0135746002197,19.016773223877,19.0199718475342,19.0231685638428,19.0263671875,19.0295753479004,19.0327758789062,19.035982131958,19.0391826629639,19.0423889160156,19.0455932617188,19.0487995147705,19.0520172119141,19.0552272796631,19.0584449768066,19.0616436004639,19.0648593902588,19.0680770874023,19.0712928771973,19.0745143890381,19.0777263641357,19.0809478759766,19.084171295166,19.0873908996582,19.0906066894531,19.0938339233398,19.0970630645752,19.100284576416,19.1035118103027,19.1067390441895,19.1099720001221,19.1132011413574,19.11643409729,19.1196594238281,19.1228942871094,19.1261329650879,19.1293601989746,19.1325988769531,19.1358394622803,19.1390762329102,19.1423149108887,19.1455554962158,19.1487998962402,19.1520462036133,19.1552906036377,19.1585292816162,19.1617813110352,19.1650257110596,19.1682777404785,19.1715297698975,19.1747741699219,19.1780261993408,19.181282043457,19.1845417022705,19.1877937316895,19.1910495758057,19.1943092346191,19.197566986084,19.2008247375488,19.2040824890137,19.207347869873,19.2106113433838,19.2138767242432,19.2171401977539,19.2204055786133,19.2236709594727,19.226936340332,19.2302074432373,19.2334785461426,19.2367515563965,19.2400226593018,19.2432994842529,19.2465724945068,19.2498531341553,19.2531318664551,19.2564029693604,19.2596912384033,19.2629680633545,19.2662544250488,19.2695331573486,19.272819519043,19.2761001586914,19.2793865203857,19.2826805114746,19.285961151123,19.2892551422119,19.2925491333008,19.2958374023438,19.2991313934326,19.3024253845215,19.305721282959,19.3090152740479,19.3123168945312,19.315616607666,19.3189086914062,19.3222122192383,19.3255138397217,19.3288192749023,19.3321285247803,19.3354320526123,19.3387317657471,19.3420486450195,19.3453540802002,19.3486633300781,19.3519706726074,19.3552894592285,19.3586006164551,19.3619155883789,19.3652286529541,19.3685436248779,19.3718681335449,19.3751850128174,19.3785057067871,19.3818264007568,19.3851509094238,19.3884735107422,19.3917961120605,19.3951282501221,19.3984508514404,19.4017810821533,19.4051113128662,19.4084453582764,19.4117698669434,19.4151020050049,19.4184379577637,19.4217700958252,19.4251098632812,19.4284515380859,19.4317874908447,19.4351234436035,19.4384651184082,19.4418029785156,19.4451465606689,19.4484977722168,19.4518413543701,19.4551944732666,19.4585342407227,19.4618854522705,19.4652347564697,19.4685878753662,19.4719429016113,19.4752902984619,19.4786434173584,19.4820041656494,19.4853610992432,19.4887218475342,19.4920787811279,19.4954376220703,19.4987983703613,19.5021591186523,19.5055255889893,19.5088920593262,19.5122566223145,19.5156269073486,19.5189876556396,19.5223598480225,19.5257301330566,19.5291042327881,19.5324764251709,19.5358581542969,19.5392246246338,19.5426006317139,19.5459823608398,19.5493602752686,19.5527458190918,19.5561294555664,19.5595016479492,19.562894821167,19.566276550293,19.5696640014648,19.5730514526367,19.5764427185059,19.5798263549805,19.5832176208496,19.5866146087646,19.5900020599365,19.5933952331543,19.5967979431152,19.600191116333,19.6035900115967,19.6069869995117,19.6103916168213,19.6137886047363,19.6171970367432,19.6205902099609,19.6239967346191,19.6274032592773,19.6308174133301,19.6342220306396,19.6376323699951,19.6410388946533,19.6444473266602,19.6478672027588,19.6512794494629,19.6547012329102,19.6581172943115,19.6615295410156,19.6649513244629,19.6683692932129,19.6717910766602,19.6752166748047,19.6786422729492,19.6820621490479,19.6854934692383,19.6889190673828,19.6923484802246,19.6957778930664,19.6992111206055,19.7026405334473,19.7060718536377,19.709508895874,19.712947845459,19.7163867950439,19.719820022583,19.7232570648193,19.7266998291016,19.7301425933838,19.733585357666,19.7370319366455,19.7404727935791,19.7439193725586,19.7473697662354,19.7508163452148,19.754264831543,19.7577228546143,19.7611713409424,19.7646236419678,19.7680816650391,19.7715358734131,19.774995803833,19.7784481048584,19.7819194793701,19.7853736877441,19.7888355255127,19.7922973632812,19.795768737793,19.7992324829102,19.8026962280273,19.8061656951904,19.8096313476562,19.8131084442139,19.8165836334229,19.8200569152832,19.8235301971436,19.8269996643066,19.8304786682129,19.8339557647705,19.8374366760254,19.8409175872803,19.8444042205811,19.8478851318359,19.8513679504395,19.8548526763916,19.858341217041,19.8618316650391,19.8653163909912,19.8688087463379,19.8723011016846,19.8757934570312,19.8792877197266,19.8827877044678,19.8862800598145,19.8897724151611,19.893274307251,19.8967742919922,19.9002799987793,19.9037837982178,19.9072875976562,19.9107856750488,19.9142913818359,19.9178009033203,19.9213104248047,19.9248275756836,19.9283351898193,19.9318447113037,19.9353561401367,19.9388751983643,19.9423923492432,19.9459056854248,19.9494285583496,19.9529495239258,19.9564723968506,19.9599876403809,19.9635181427002,19.9670391082764,19.9705696105957,19.9740982055664,19.9776210784912,19.9811515808105,19.9846801757812,19.9882221221924,19.9917488098145,19.9952907562256,19.9988174438477,0,0,0,0,0,0,0,0,0,0,0,0,0,0,0,0,0,0,0,0,0,0,0,0,0,0,0,0,0,0,0,0,0,0,0,0,0,0,0,0,0,0,0,0,0,0,0,0,0,0,0,0,0,0,0,0,0,0,0,0,0,0,0,0,0,0,0,0,0,0,0,0
18.4965572357178,18.4995803833008,18.5026073455811,18.50563621521,18.5086669921875,18.5117034912109,18.5147266387939,18.5177555084229,18.5207901000977,18.5238285064697,18.5268592834473,18.5298957824707,18.5329322814941,18.5359630584717,18.5390071868896,18.5420532226562,18.5450897216797,18.5481281280518,18.5511817932129,18.5542182922363,18.5572643280029,18.5603046417236,18.5633602142334,18.5664043426514,18.5694599151611,18.5725002288818,18.5755558013916,18.5786075592041,18.5816650390625,18.584716796875,18.5877647399902,18.5908203125,18.593879699707,18.5969390869141,18.5999984741211,18.6030540466309,18.6061172485352,18.6091747283936,18.6122417449951,18.6153011322021,18.6183738708496,18.6214389801025,18.6245079040527,18.627571105957,18.6306400299072,18.6337127685547,18.6367797851562,18.6398582458496,18.6429309844971,18.6459999084473,18.6490688323975,18.6521511077881,18.6552314758301,18.6583061218262,18.6613903045654,18.6644630432129,18.6675472259521,18.6706295013428,18.6737174987793,18.6767997741699,18.6798858642578,18.6829662322998,18.6860580444336,18.6891422271729,18.6922340393066,18.6953277587891,18.6984157562256,18.7015113830566,18.7046051025391,18.707691192627,18.7107906341553,18.713888168335,18.7169914245605,18.7200813293457,18.7231826782227,18.7262840270996,18.7293910980225,18.7324924468994,18.7355899810791,18.7386951446533,18.7418060302734,18.7449150085449,18.7480182647705,18.751127243042,18.7542419433594,18.7573490142822,18.760461807251,18.7635688781738,18.7666854858398,18.7698040008545,18.7729206085205,18.776029586792,18.7791519165039,18.7822742462158,18.7853832244873,18.7885093688965,18.7916355133057,18.7947559356689,18.7978801727295,18.80100440979,18.8041286468506,18.8072643280029,18.8103866577148,18.8135108947754,18.816650390625,18.8197803497314,18.8229122161865,18.8260517120361,18.8291835784912,18.8323154449463,18.8354473114014,18.8385925292969,18.8417339324951,18.8448715209961,18.8480129241943,18.8511562347412,18.8542976379395,18.8574447631836,18.8605861663818,18.863733291626,18.8668842315674,18.870023727417,18.8731746673584,18.8763256072998,18.8794841766357,18.8826351165771,18.8857841491699,18.8889408111572,18.8920955657959,18.8952522277832,18.8984127044678,18.9015674591064,18.904727935791,18.9078941345215,18.9110546112061,18.914213180542,18.9173793792725,18.9205455780029,18.9237155914307,18.9268798828125,18.9300441741943,18.9332160949707,18.9363918304443,18.9395618438721,18.9427318572998,18.9459075927734,18.9490756988525,18.9522571563721,18.9554328918457,18.9586124420166,18.9617881774902,18.9649677276611,18.9681491851807,18.9713287353516,18.9745140075684,18.9777030944824,18.9808864593506,18.984073638916,18.9872627258301,18.9904441833496,18.9936370849609,18.9968318939209,19.0000247955322,19.0032215118408,19.0064067840576,19.0096015930176,19.0128002166748,19.0159969329834,19.019193649292,19.0223979949951,19.0255928039551,19.0287952423096,19.0320053100586,19.0352077484131,19.0384082794189,19.0416164398193,19.0448207855225,19.0480289459229,19.0512371063232,19.0544528961182,19.0576667785645,19.0608749389648,19.0640830993652,19.0672988891602,19.0705127716064,19.0737323760986,19.0769557952881,19.080171585083,19.0833835601807,19.0866050720215,19.0898323059082,19.0930595397949,19.0962810516357,19.0995025634766,19.1027278900146,19.1059627532959,19.1091918945312,19.112419128418,19.1156463623047,19.1188869476318,19.1221141815186,19.1253490447998,19.1285820007324,19.1318206787109,19.1350574493408,19.1382923126221,19.1415328979492,19.1447772979736,19.1480121612549,19.1512660980225,19.1545028686523,19.157751083374,19.1609916687012,19.1642398834229,19.1674880981445,19.1707439422607,19.1739921569824,19.1772441864014,19.180492401123,19.1837482452393,19.1870040893555,19.1902618408203,19.1935176849365,19.1967754364014,19.2000350952148,19.2032947540283,19.2065525054932,19.2098197937012,19.2130832672119,19.2163486480713,19.219612121582,19.2228832244873,19.2261505126953,19.2294158935547,19.2326965332031,19.2359619140625,19.2392292022705,19.2425079345703,19.2457828521729,19.2490577697754,19.2523326873779,19.2556133270264,19.2588958740234,19.2621765136719,19.2654590606689,19.2687435150146,19.2720260620117,19.2753086090088,19.2785930633545,19.2818775177002,19.2851696014404,19.2884616851807,19.2917537689209,19.2950401306152,19.2983322143555,19.3016242980957,19.3049201965332,19.308219909668,19.3115158081055,19.3148231506348,19.3181114196777,19.3214130401611,19.3247184753418,19.3280200958252,19.3313255310059,19.3346309661865,19.3379344940186,19.3412399291992,19.3445529937744,19.3478584289551,19.3511791229248,19.3544864654541,19.3578033447266,19.3611106872559,19.364429473877,19.3677501678467,19.3710613250732,19.3743877410889,19.3777027130127,19.3810253143311,19.3843479156494,19.3876705169678,19.390998840332,19.3943195343018,19.3976459503174,19.400972366333,19.4043006896973,19.4076366424561,19.4109649658203,19.4143028259277,19.4176273345947,19.420970916748,19.4243030548096,19.4276371002197,19.430980682373,19.4343204498291,19.4376525878906,19.4409999847412,19.4443397521973,19.4476852416992,19.4510345458984,19.4543762207031,19.4577236175537,19.4610767364502,19.4644260406494,19.4677753448486,19.4711322784424,19.4744834899902,19.4778308868408,19.4811878204346,19.4845447540283,19.487907409668,19.4912643432617,19.4946269989014,19.4979858398438,19.5013465881348,19.5047092437744,19.5080718994141,19.5114421844482,19.5148105621338,19.5181827545166,19.5215454101562,19.5249156951904,19.5282878875732,19.5316638946533,19.5350399017334,19.5384159088135,19.5417881011963,19.5451641082764,19.548547744751,19.5519275665283,19.5553073883057,19.5586891174316,19.5620727539062,19.5654544830322,19.5688457489014,19.5722274780273,19.5756206512451,19.5790061950684,19.5823955535889,19.5857830047607,19.5891799926758,19.5925769805908,19.5959739685059,19.5993709564209,19.6027679443359,19.606164932251,19.6095657348633,19.6129703521729,19.6163711547852,19.6197719573975,19.623176574707,19.626579284668,19.6299877166748,19.6333980560303,19.6368064880371,19.6402187347412,19.6436309814453,19.6470394134521,19.6504535675049,19.6538715362549,19.6572895050049,19.6607055664062,19.6641178131104,19.6675472259521,19.6709632873535,19.6743907928467,19.6778125762939,19.6812438964844,19.6846599578857,19.6880855560303,19.6915187835693,19.6949481964111,19.6983814239502,19.7018089294434,19.7052440643311,19.7086811065674,19.7121143341064,19.7155494689941,19.7189846038818,19.7224311828613,19.725866317749,19.7293090820312,19.7327499389648,19.7361965179443,19.7396450042725,19.743091583252,19.7465362548828,19.7499809265137,19.7534351348877,19.7568836212158,19.7603359222412,19.7637920379639,19.7672462463379,19.7707004547119,19.7741584777832,19.7776203155518,19.781078338623,19.7845363616943,19.7879981994629,19.7914638519287,19.7949256896973,19.7983951568604,19.8018608093262,19.8053302764893,19.8087921142578,19.8122673034668,19.8157405853271,19.8192100524902,19.8226909637451,19.8261642456055,19.8296337127686,19.8331184387207,19.8365955352783,19.8400783538818,19.8435611724854,19.8470478057861,19.8505268096924,19.8540096282959,19.8574981689453,19.8609867095947,19.8644752502441,19.8679637908936,19.8714580535889,19.8749465942383,19.8784446716309,19.8819313049316,19.8854351043701,19.88893699646,19.8924236297607,19.8959274291992,19.8994312286377,19.9029312133789,19.9064350128174,19.9099445343018,19.9134483337402,19.9169540405273,19.9204635620117,19.9239768981934
18.2186908721924,18.2216281890869,18.2245635986328,18.227502822876,18.2304420471191,18.2333850860596,18.2363224029541,18.2392635345459,18.2422142028809,18.2451515197754,18.2480888366699,18.2510356903076,18.2539882659912,18.2569274902344,18.2598838806152,18.2628307342529,18.2657718658447,18.2687301635742,18.2716808319092,18.2746410369873,18.2775840759277,18.2805423736572,18.2835006713867,18.2864570617676,18.2894115447998,18.2923717498779,18.295337677002,18.2982940673828,18.3012504577637,18.3042163848877,18.3071823120117,18.3101406097412,18.3131103515625,18.3160800933838,18.319034576416,18.3220119476318,18.3249759674072,18.327953338623,18.3309230804443,18.3338947296143,18.3368663787842,18.3398323059082,18.3428134918213,18.3457889556885,18.3487682342529,18.3517532348633,18.3547248840332,18.3577003479004,18.3606815338135,18.3636627197266,18.3666477203369,18.3696384429932,18.372615814209,18.375602722168,18.378589630127,18.3815822601318,18.3845729827881,18.3875560760498,18.3905391693115,18.3935375213623,18.3965301513672,18.3995208740234,18.4025192260742,18.4055137634277,18.4085083007812,18.4115009307861,18.4144992828369,18.4175033569336,18.4205055236816,18.4235076904297,18.4265060424805,18.4295082092285,18.4325180053711,18.4355163574219,18.4385242462158,18.4415321350098,18.4445381164551,18.4475440979004,18.450553894043,18.4535713195801,18.456579208374,18.4595947265625,18.4626007080078,18.4656200408936,18.468635559082,18.4716529846191,18.4746742248535,18.4776878356934,18.4807090759277,18.4837265014648,18.4867458343506,18.4897727966309,18.4928016662598,18.4958305358887,18.498851776123,18.5018825531006,18.5049018859863,18.5079307556152,18.5109672546387,18.5139961242676,18.5170288085938,18.520055770874,18.5230941772461,18.526123046875,18.5291614532471,18.5321979522705,18.5352363586426,18.5382766723633,18.5413093566895,18.544361114502,18.5473918914795,18.5504417419434,18.5534896850586,18.5565242767334,18.5595722198486,18.5626239776611,18.5656700134277,18.5687198638916,18.5717697143555,18.5748195648193,18.5778675079346,18.5809211730957,18.5839748382568,18.5870323181152,18.5900840759277,18.5931396484375,18.5961952209473,18.5992584228516,18.6023139953613,18.6053810119629,18.6084384918213,18.6115036010742,18.6145687103271,18.6176319122314,18.6206951141357,18.6237640380859,18.626838684082,18.6298980712891,18.6329708099365,18.636043548584,18.6391067504883,18.6421852111816,18.6452560424805,18.6483364105225,18.6514053344727,18.6544876098633,18.6575603485107,18.6606407165527,18.6637268066406,18.6667976379395,18.6698799133301,18.6729717254639,18.6760540008545,18.6791362762451,18.6822242736816,18.6853084564209,18.6883907318115,18.6914882659912,18.6945743560791,18.6976718902588,18.7007617950439,18.7038516998291,18.7069492340088,18.7100448608398,18.7131385803223,18.7162342071533,18.7193393707275,18.7224311828613,18.7255306243896,18.7286357879639,18.7317333221436,18.7348365783691,18.7379474639893,18.7410507202148,18.7441596984863,18.7472686767578,18.7503757476807,18.7534809112549,18.7565956115723,18.7597026824951,18.7628192901611,18.7659320831299,18.7690505981445,18.7721691131592,18.7752838134766,18.7783946990967,18.7815170288086,18.7846374511719,18.7877521514893,18.7908802032471,18.7939949035645,18.7971210479736,18.8002433776855,18.8033809661865,18.8064994812012,18.8096256256104,18.8127632141113,18.8158893585205,18.8190231323242,18.8221549987793,18.8252906799316,18.8284282684326,18.8315658569336,18.8346977233887,18.837833404541,18.8409748077393,18.8441162109375,18.8472576141357,18.8503971099854,18.853536605835,18.8566761016846,18.8598213195801,18.8629741668701,18.8661193847656,18.8692722320557,18.8724136352539,18.8755664825439,18.8787174224854,18.8818740844727,18.8850250244141,18.8881759643555,18.8913307189941,18.8944873809814,18.8976516723633,18.900806427002,18.9039669036865,18.9071292877197,18.910285949707,18.9134464263916,18.9166126251221,18.9197826385498,18.9229507446289,18.9261150360107,18.9292831420898,18.9324493408203,18.9356250762939,18.9387893676758,18.9419708251953,18.9451370239258,18.9483165740967,18.9514904022217,18.9546661376953,18.9578399658203,18.9610195159912,18.9641990661621,18.9673767089844,18.9705619812012,18.9737491607666,18.9769325256348,18.9801120758057,18.9833030700684,18.9864826202393,18.989673614502,18.9928646087646,18.996057510376,18.9992542266846,19.0024471282959,19.0056381225586,19.0088291168213,19.0120296478271,19.0152263641357,19.018424987793,19.0216217041016,19.0248126983643,19.0280265808105,19.0312252044678,19.0344276428223,19.037633895874,19.0408325195312,19.0440425872803,19.047248840332,19.0504608154297,19.053674697876,19.056884765625,19.0600929260254,19.0633106231689,19.0665225982666,19.0697383880615,19.0729541778564,19.076171875,19.0793933868408,19.0826148986816,19.0858325958252,19.0890483856201,19.0922737121582,19.0954990386963,19.0987205505371,19.1019535064697,19.1051731109619,19.1084079742432,19.1116313934326,19.1148662567139,19.1181030273438,19.1213321685791,19.1245670318604,19.127799987793,19.1310386657715,19.1342735290527,19.1375141143799,19.1407527923584,19.1439895629883,19.1472320556641,19.1504707336426,19.1537189483643,19.1569671630859,19.1602115631104,19.1634540557861,19.1667022705078,19.1699523925781,19.1732025146484,19.1764583587646,19.1797065734863,19.1829662322998,19.1862163543701,19.189474105835,19.1927299499512,19.1959896087646,19.1992492675781,19.2025051116943,19.2057704925537,19.2090282440186,19.2122974395752,19.2155590057373,19.2188320159912,19.2220916748047,19.2253551483154,19.2286281585693,19.231897354126,19.2351722717285,19.2384414672852,19.2417182922363,19.2449913024902,19.2482662200928,19.2515468597412,19.2548217773438,19.2581043243408,19.261381149292,19.2646675109863,19.2679462432861,19.2712268829346,19.2745170593262,19.2778053283691,19.2810840606689,19.2843723297119,19.2876682281494,19.2909526824951,19.2942485809326,19.2975387573242,19.3008346557617,19.3041248321533,19.3074207305908,19.3107204437256,19.3140163421631,19.3173179626465,19.3206157684326,19.3239192962646,19.3272228240967,19.3305244445801,19.3338317871094,19.3371334075928,19.3404426574707,19.3437557220459,19.3470649719238,19.3503742218018,19.353687286377,19.3570003509521,19.3603057861328,19.3636245727539,19.3669414520264,19.3702640533447,19.3735809326172,19.3769035339355,19.3802185058594,19.3835411071777,19.3868656158447,19.3901901245117,19.3935165405273,19.396842956543,19.4001712799072,19.4034938812256,19.4068260192871,19.4101600646973,19.4134902954102,19.4168281555176,19.4201583862305,19.4234962463379,19.4268283843994,19.4301681518555,19.4335098266602,19.4368572235107,19.4401893615723,19.4435348510742,19.4468784332275,19.4502239227295,19.4535694122314,19.4569187164307,19.4602642059326,19.4636116027832,19.4669647216797,19.4703216552734,19.4736709594727,19.4770240783691,19.4803771972656,19.483736038208,19.4870910644531,19.4904537200928,19.4938144683838,19.4971714019775,19.5005302429199,19.5038986206055,19.5072612762451,19.5106220245361,19.5139980316162,19.5173645019531,19.5207290649414,19.5241012573242,19.5274772644043,19.5308456420898,19.5342178344727,19.5376014709473,19.5409679412842,19.5443496704102,19.5477256774902,19.5511035919189,19.5544891357422,19.5578670501709,19.5612564086914,19.5646362304688,19.568021774292,19.5714111328125,19.5747966766357,19.5781860351562,19.5815715789795,19.5849666595459,19.5883598327637,19.5917587280273,19.5951557159424,19.5985527038574,19.6019420623779
17.9490623474121,17.951904296875,17.9547519683838,17.9576110839844,17.9604587554932,17.9633083343506,17.9661674499512,17.9690246582031,17.9718799591064,17.9747333526611,17.9775905609131,17.9804534912109,17.9833106994629,17.9861698150635,17.9890327453613,17.9919013977051,17.9947566986084,17.9976196289062,18.0004901885986,18.0033512115479,18.006217956543,18.0090827941895,18.0119571685791,18.0148258209229,18.0176982879639,18.0205688476562,18.0234432220459,18.026309967041,18.029182434082,18.0320587158203,18.03493309021,18.0378074645996,18.0406913757324,18.0435657501221,18.0464477539062,18.0493259429932,18.0522117614746,18.0550880432129,18.0579681396484,18.0608596801758,18.0637435913086,18.0666332244873,18.0695190429688,18.0724048614502,18.0752964019775,18.0781841278076,18.081075668335,18.0839672088623,18.0868587493896,18.0897464752197,18.0926475524902,18.0955448150635,18.0984420776367,18.1013374328613,18.1042366027832,18.1071300506592,18.1100330352783,18.1129341125488,18.1158351898193,18.1187343597412,18.1216430664062,18.1245517730713,18.1274471282959,18.1303520202637,18.1332683563232,18.1361770629883,18.1390838623047,18.141996383667,18.1448955535889,18.1478099822998,18.1507301330566,18.1536426544189,18.1565608978271,18.1594715118408,18.1623859405518,18.1653060913086,18.1682243347168,18.1711483001709,18.1740627288818,18.1769905090332,18.1799030303955,18.1828269958496,18.185754776001,18.188684463501,18.1916046142578,18.1945343017578,18.1974563598633,18.2003860473633,18.2033195495605,18.2062530517578,18.2091827392578,18.2121181488037,18.2150459289551,18.217981338501,18.2209186553955,18.22385597229,18.2267971038818,18.2297325134277,18.2326717376709,18.2356109619141,18.2385520935059,18.2415008544922,18.2444400787354,18.2473812103271,18.2503242492676,18.253267288208,18.2562236785889,18.2591705322266,18.2621173858643,18.2650661468506,18.2680168151855,18.2709655761719,18.2739181518555,18.2768783569336,18.2798347473145,18.2827854156494,18.285737991333,18.2887001037598,18.2916584014893,18.2946166992188,18.2975807189941,18.3005409240723,18.303503036499,18.3064613342285,18.3094253540039,18.3123912811279,18.3153591156006,18.3183269500732,18.3212871551514,18.3242588043213,18.3272304534912,18.3302059173584,18.3331737518311,18.3361473083496,18.3391151428223,18.342098236084,18.3450698852539,18.348051071167,18.3510246276855,18.3540096282959,18.3569774627686,18.3599624633789,18.362943649292,18.3659286499023,18.3689155578613,18.3718948364258,18.3748798370361,18.3778705596924,18.380859375,18.3838481903076,18.3868312835693,18.3898296356201,18.3928070068359,18.3958053588867,18.3988037109375,18.4017906188965,18.4047908782959,18.407787322998,18.4107780456543,18.4137744903564,18.4167804718018,18.4197826385498,18.4227809906006,18.4257831573486,18.428783416748,18.4317874908447,18.4347858428955,18.4377956390381,18.440803527832,18.4438171386719,18.4468173980713,18.4498310089111,18.4528350830078,18.4558506011963,18.4588680267334,18.461877822876,18.4648914337158,18.467903137207,18.4709243774414,18.4739418029785,18.4769649505615,18.4799823760986,18.4829978942871,18.4860172271729,18.4890460968018,18.4920654296875,18.4950904846191,18.4981212615967,18.5011463165283,18.5041732788086,18.5072021484375,18.5102291107178,18.5132617950439,18.5162963867188,18.5193195343018,18.5223579406738,18.5253944396973,18.5284290313721,18.5314655303955,18.5345058441162,18.5375328063965,18.5405769348145,18.5436172485352,18.5466613769531,18.5497035980225,18.552755355835,18.5557899475098,18.5588321685791,18.5618801116943,18.5649318695068,18.5679759979248,18.5710277557373,18.5740795135498,18.5771293640137,18.5801792144775,18.5832366943359,18.5862903594971,18.5893516540527,18.5924034118652,18.5954627990723,18.5985145568848,18.6015739440918,18.6046371459961,18.6076946258545,18.6107559204102,18.6138172149658,18.616886138916,18.6199550628662,18.6230278015137,18.6260890960693,18.6291542053223,18.6322250366211,18.6352882385254,18.6383724212646,18.6414432525635,18.6445121765137,18.6475887298584,18.6506614685059,18.653736114502,18.6568183898926,18.6598968505859,18.6629772186279,18.6660537719727,18.6691341400146,18.6722240447998,18.6753082275391,18.6783924102783,18.6814746856689,18.6845645904541,18.687650680542,18.6907329559326,18.6938343048096,18.6969203948975,18.7000160217285,18.7031078338623,18.7061920166016,18.7092895507812,18.7123832702637,18.7154865264893,18.7185840606689,18.7216892242432,18.7247772216797,18.7278861999512,18.7309894561768,18.7340927124023,18.7371997833252,18.7403011322021,18.743408203125,18.7465133666992,18.749626159668,18.7527351379395,18.7558422088623,18.7589530944824,18.7620658874512,18.7651767730713,18.7682952880859,18.7714138031006,18.7745304107666,18.777645111084,18.7807636260986,18.7838745117188,18.7870063781738,18.7901210784912,18.7932434082031,18.7963695526123,18.7994918823242,18.8026180267334,18.8057460784912,18.8088760375977,18.8120079040527,18.8151378631592,18.818265914917,18.8213977813721,18.8245315551758,18.8276653289795,18.8308010101318,18.8339405059814,18.8370723724365,18.8402156829834,18.8433570861816,18.8464908599854,18.8496417999268,18.8527793884277,18.8559226989746,18.8590660095215,18.8622093200684,18.8653602600098,18.8685092926025,18.8716640472412,18.8747997283936,18.8779602050781,18.8811073303223,18.8842582702637,18.887414932251,18.8905735015869,18.893726348877,18.8968811035156,18.9000415802002,18.9032039642334,18.906364440918,18.9095268249512,18.9126815795898,18.9158496856689,18.9190120697021,18.9221782684326,18.925350189209,18.9285202026367,18.9316844940186,18.9348526000977,18.9380226135254,18.9412002563477,18.9443683624268,18.9475479125977,18.950719833374,18.9538917541504,18.9570789337158,18.9602546691895,18.9634304046631,18.9666137695312,18.9697895050049,18.9729747772217,18.9761562347412,18.9793453216553,18.9825325012207,18.9857196807861,18.9889049530029,18.992094039917,18.9952869415283,18.9984741210938,19.0016746520996,19.004861831665,19.0080604553223,19.0112495422363,19.0144462585449,19.017650604248,19.020845413208,19.0240497589111,19.0272464752197,19.0304508209229,19.0336494445801,19.0368576049805,19.0400638580322,19.0432682037354,19.0464744567871,19.0496788024902,19.0528984069824,19.0561065673828,19.0593204498291,19.0625343322754,19.0657386779785,19.0689601898193,19.0721740722656,19.0753955841064,19.0786151885986,19.0818367004395,19.0850448608398,19.0882759094238,19.0914936065674,19.0947189331055,19.0979480743408,19.1011714935303,19.1043949127197,19.1076240539551,19.1108551025391,19.1140880584717,19.117317199707,19.1205520629883,19.1237831115723,19.1270179748535,19.1302490234375,19.1334857940674,19.1367282867432,19.1399669647217,19.1432075500488,19.1464443206787,19.1496887207031,19.1529331207275,19.1561813354492,19.1594276428223,19.1626739501953,19.1659126281738,19.1691665649414,19.172420501709,19.1756706237793,19.1789264678955,19.1821708679199,19.1854267120361,19.1886787414551,19.1919441223145,19.1951999664307,19.1984577178955,19.2017154693604,19.2049770355225,19.2082424163818,19.2115058898926,19.2147693634033,19.2180404663086,19.2213001251221,19.2245693206787,19.2278366088867,19.2311058044434,19.234375,19.2376518249512,19.2409229278564,19.2442016601562,19.2474746704102,19.2507495880127,19.2540321350098,19.2573089599609,19.2605876922607,19.2638702392578,19.2671546936035,19.270435333252,19.2737236022949,19.2770080566406,19.280294418335,19.2835788726807,19.2868690490723,19.2901611328125
17.6872787475586,17.6900444030762,17.6928215026855,17.6955871582031,17.6983585357666,17.7011203765869,17.703893661499,17.706672668457,17.7094421386719,17.712215423584,17.7149925231934,17.7177734375,17.7205486297607,17.7233257293701,17.7261085510254,17.7288818359375,17.7316589355469,17.7344417572021,17.7372283935547,17.7399997711182,17.7427883148193,17.7455768585205,17.7483539581299,17.7511425018311,17.7539367675781,17.756721496582,17.7595119476318,17.7622985839844,17.7650890350342,17.767879486084,17.7706680297852,17.7734661102295,17.7762622833252,17.7790508270264,17.7818489074707,17.7846450805664,17.7874393463135,17.7902393341064,17.7930374145508,17.7958450317383,17.7986392974854,17.8014430999756,17.8042449951172,17.8070507049561,17.8098564147949,17.8126659393311,17.815465927124,17.8182735443115,17.821081161499,17.8238964080811,17.8267021179199,17.8295135498047,17.8323287963867,17.8351345062256,17.8379516601562,17.8407611846924,17.8435821533203,17.8463935852051,17.8492107391357,17.8520259857178,17.8548488616943,17.8576679229736,17.8604831695557,17.8633155822754,17.8661346435547,17.8689498901367,17.8717784881592,17.8746032714844,17.8774337768555,17.880256652832,17.8830814361572,17.885913848877,17.8887367248535,17.8915691375732,17.8944091796875,17.89723777771,17.9000682830811,17.9029064178467,17.9057388305664,17.9085731506348,17.9114093780518,17.9142475128174,17.917085647583,17.9199256896973,17.9227600097656,17.9256057739258,17.9284477233887,17.9312953948975,17.9341373443604,17.9369792938232,17.9398288726807,17.9426689147949,17.945520401001,17.948371887207,17.9512214660645,17.9540672302246,17.9569129943848,17.9597702026367,17.96262550354,17.9654769897461,17.9683361053467,17.9711837768555,17.9740447998047,17.9768981933594,17.9797630310059,17.9826183319092,17.9854869842529,17.988338470459,17.9912033081055,17.9940662384033,17.9969272613525,17.999792098999,18.0026626586914,18.0055236816406,18.0083923339844,18.0112628936768,18.0141277313232,18.0170040130615,18.0198707580566,18.0227375030518,18.02561378479,18.0284843444824,18.031364440918,18.034236907959,18.0371208190918,18.0399894714355,18.0428695678711,18.0457496643066,18.0486297607422,18.0515174865723,18.0543975830078,18.0572776794434,18.0601615905762,18.0630512237549,18.0659351348877,18.0688209533691,18.0717067718506,18.0745906829834,18.0774841308594,18.080379486084,18.0832710266113,18.0861549377441,18.0890522003174,18.0919456481934,18.0948390960693,18.0977344512939,18.1006336212158,18.1035346984863,18.1064357757568,18.1093273162842,18.1122303009033,18.1151313781738,18.1180324554443,18.1209411621094,18.1238441467285,18.1267471313477,18.1296577453613,18.1325569152832,18.1354694366455,18.1383819580078,18.1412963867188,18.1441974639893,18.1471099853516,18.1500244140625,18.1529350280762,18.155855178833,18.1587715148926,18.1616821289062,18.1646003723145,18.1675186157227,18.1704425811768,18.173360824585,18.1762809753418,18.17919921875,18.1821231842041,18.1850509643555,18.1879711151123,18.1908988952637,18.1938247680664,18.1967525482178,18.1996822357178,18.2026100158691,18.2055358886719,18.2084732055664,18.2114067077637,18.214334487915,18.2172756195068,18.2202091217041,18.2231407165527,18.2260856628418,18.2290229797363,18.2319564819336,18.2349033355713,18.2378425598145,18.2407875061035,18.2437324523926,18.2466659545898,18.2496128082275,18.2525615692139,18.2555046081543,18.2584495544434,18.2614002227783,18.2643547058105,18.2672958374023,18.2702560424805,18.2732067108154,18.2761573791504,18.2791118621826,18.2820739746094,18.2850284576416,18.2879810333252,18.2909450531006,18.2938957214355,18.2968578338623,18.2998275756836,18.3027858734131,18.3057460784912,18.3087158203125,18.311674118042,18.3146381378174,18.3176116943359,18.3205795288086,18.3235454559326,18.3265151977539,18.3294868469238,18.3324565887451,18.3354320526123,18.3384056091309,18.3413734436035,18.344352722168,18.3473224639893,18.3503112792969,18.3532829284668,18.3562641143799,18.3592376708984,18.3622188568115,18.3652095794678,18.3681869506836,18.3711795806885,18.3741607666016,18.3771457672119,18.3801288604736,18.3831214904785,18.3861122131348,18.389102935791,18.3920955657959,18.3950843811035,18.3980712890625,18.4010715484619,18.4040660858154,18.4070644378662,18.4100570678711,18.4130535125732,18.4160480499268,18.4190502166748,18.4220523834229,18.4250526428223,18.4280605316162,18.4310569763184,18.4340629577637,18.4370670318604,18.4400825500488,18.4430847167969,18.4460983276367,18.4491004943848,18.452112197876,18.4551200866699,18.458137512207,18.4611530303955,18.4641647338867,18.4671783447266,18.4701881408691,18.4732074737549,18.4762306213379,18.479248046875,18.4822750091553,18.4852886199951,18.4883155822754,18.4913349151611,18.4943656921387,18.4973888397217,18.5004177093506,18.5034370422363,18.5064659118652,18.5094966888428,18.5125255584717,18.5155563354492,18.518590927124,18.5216236114502,18.524658203125,18.5276947021484,18.5307292938232,18.5337696075439,18.5368118286133,18.5398445129395,18.5428867340088,18.5459251403809,18.5489692687988,18.5520133972168,18.5550556182861,18.5581016540527,18.5611438751221,18.5641937255859,18.5672416687012,18.5702953338623,18.5733413696289,18.5763931274414,18.5794429779053,18.5824928283691,18.5855541229248,18.5886039733887,18.5916690826416,18.5947170257568,18.5977821350098,18.6008415222168,18.6038951873779,18.6069583892822,18.6100234985352,18.6130809783936,18.6161479949951,18.619213104248,18.6222820281982,18.6253509521484,18.62841796875,18.6314811706543,18.6345539093018,18.637622833252,18.640697479248,18.6437759399414,18.6468505859375,18.6499156951904,18.6529922485352,18.6560764312744,18.6591529846191,18.6622352600098,18.6653156280518,18.6683921813965,18.6714763641357,18.6745643615723,18.6776447296143,18.6807308197021,18.68381690979,18.6869010925293,18.6899948120117,18.6930828094482,18.696174621582,18.6992626190186,18.7023620605469,18.7054481506348,18.7085456848145,18.7116394042969,18.7147388458252,18.7178401947021,18.7209377288818,18.7240314483643,18.7271347045898,18.7302379608154,18.7333431243896,18.736442565918,18.7395515441895,18.7426528930664,18.7457599639893,18.7488708496094,18.7519817352295,18.7550945281982,18.7582035064697,18.7613143920898,18.7644233703613,18.7675399780273,18.7706508636475,18.7737712860107,18.7768898010254,18.7800025939941,18.7831287384033,18.7862453460693,18.789363861084,18.7924938201904,18.7956142425537,18.798734664917,18.8018646240234,18.804988861084,18.8081150054932,18.8112487792969,18.814380645752,18.8175086975098,18.8206386566162,18.8237762451172,18.8269081115723,18.8300457000732,18.833179473877,18.836311340332,18.8394584655762,18.8425941467285,18.8457336425781,18.8488750457764,18.8520240783691,18.8551635742188,18.8583030700684,18.8614482879639,18.864595413208,18.8677444458008,18.8708934783936,18.8740482330322,18.8771915435791,18.8803462982178,18.8834991455078,18.8866481781006,18.8898105621338,18.8929615020752,18.8961181640625,18.8992767333984,18.902437210083,18.9055957794189,18.9087581634521,18.9119243621826,18.9150829315186,18.918249130249,18.9214172363281,18.92458152771,18.9277477264404,18.9309177398682,18.9340877532959,18.9372539520264,18.9404277801514,18.9436016082764,18.9467792510986,18.9499530792236,18.9531326293945,18.9563083648682,18.9594821929932,18.9626636505127,18.9658393859863,18.969030380249,18.9722080230713,18.9753913879395,18.9785785675049,18.9817638397217,18.9849491119385,18.9881343841553
17.4330406188965,17.4357261657715,17.4384136199951,17.441104888916,17.4437942504883,17.4464874267578,17.4491767883301,17.4518718719482,17.4545593261719,17.4572601318359,17.4599552154541,17.462646484375,17.4653472900391,17.4680480957031,17.4707450866699,17.473445892334,17.4761447906494,17.4788475036621,17.4815464019775,17.4842510223389,17.4869518280029,17.4896583557129,17.4923629760742,17.4950752258301,17.4977798461914,17.5004901885986,17.5031909942627,17.5059089660645,17.5086212158203,17.511323928833,17.5140380859375,17.5167598724365,17.5194644927979,17.5221748352051,17.5248947143555,17.5276126861572,17.5303287506104,17.5330486297607,17.5357646942139,17.5384864807129,17.5412063598633,17.5439300537109,17.5466499328613,17.5493755340576,17.5520935058594,17.5548191070557,17.5575504302979,17.5602741241455,17.5629997253418,17.565731048584,17.5684547424316,17.5711860656738,17.5739231109619,17.5766506195068,17.5793838500977,17.5821208953857,17.5848484039307,17.5875873565674,17.5903186798096,17.5930576324463,17.5958042144775,17.5985336303711,17.6012687683105,17.6040134429932,17.6067562103271,17.6094913482666,17.6122417449951,17.6149845123291,17.6177177429199,17.6204700469971,17.6232242584229,17.6259708404541,17.6287155151367,17.6314640045166,17.6342124938965,17.6369571685791,17.639705657959,17.6424655914307,17.6452236175537,17.6479740142822,17.6507263183594,17.6534786224365,17.6562461853027,17.658992767334,17.6617527008057,17.664514541626,17.6672687530518,17.6700325012207,17.6727962493896,17.6755561828613,17.6783199310303,17.6810836791992,17.6838531494141,17.6866111755371,17.689380645752,17.6921539306641,17.6949195861816,17.6976852416992,17.7004585266113,17.7032299041748,17.7059955596924,17.7087707519531,17.7115497589111,17.7143211364746,17.7170963287354,17.7198753356934,17.7226543426514,17.7254295349121,17.7282047271729,17.7309894561768,17.7337665557861,17.7365531921387,17.7393321990967,17.7421169281006,17.7449035644531,17.7476844787598,17.7504692077637,17.7532520294189,17.7560443878174,17.7588367462158,17.761625289917,17.7644119262695,17.767204284668,17.7699966430664,17.7727909088135,17.7755832672119,17.7783813476562,17.7811717987061,17.7839641571045,17.7867679595947,17.7895660400391,17.7923603057861,17.7951602935791,17.7979640960693,17.800760269165,17.8035659790039,17.8063716888428,17.8091735839844,17.8119831085205,17.8147945404053,17.8175926208496,17.8204021453857,17.8232154846191,17.8260269165039,17.8288307189941,17.8316459655762,17.834451675415,17.8372669219971,17.8400859832764,17.8429012298584,17.8457126617432,17.8485298156738,17.8513507843018,17.8541698455811,17.8569869995117,17.859806060791,17.8626270294189,17.8654460906982,17.8682689666748,17.8710994720459,17.8739204406738,17.876745223999,17.8795700073242,17.8824062347412,17.8852272033691,17.8880596160889,17.8908882141113,17.8937168121338,17.896556854248,17.8993835449219,17.9022178649902,17.9050540924072,17.9078884124756,17.9107189178467,17.9135608673096,17.9164028167725,17.9192428588867,17.9220752716064,17.9249172210693,17.9277648925781,17.9306049346924,17.9334449768066,17.9362926483154,17.939136505127,17.941987991333,17.9448261260986,17.9476833343506,17.9505310058594,17.9533786773682,17.9562282562256,17.9590797424316,17.961935043335,17.964786529541,17.9676456451416,17.9704971313477,17.9733505249023,17.9762134552002,17.9790649414062,17.9819221496582,17.9847850799561,17.9876518249512,17.9905109405518,17.9933757781982,17.9962329864502,17.9990997314453,18.0019664764404,18.0048313140869,18.0076942443848,18.0105648040771,18.0134353637695,18.0163059234619,18.0191802978516,18.0220489501953,18.0249156951904,18.0277900695801,18.0306625366211,18.0335445404053,18.0364208221436,18.0393009185791,18.0421733856201,18.0450572967529,18.0479354858398,18.0508136749268,18.0536937713623,18.0565814971924,18.0594635009766,18.0623474121094,18.0652351379395,18.0681209564209,18.0710048675537,18.073902130127,18.0767841339111,18.0796718597412,18.0825634002686,18.0854644775391,18.0883522033691,18.0912532806396,18.0941410064697,18.0970344543457,18.0999317169189,18.1028270721436,18.1057319641113,18.1086311340332,18.1115283966064,18.1144351959229,18.1173305511475,18.1202335357666,18.123140335083,18.1260471343994,18.1289443969727,18.1318550109863,18.134765625,18.1376781463623,18.1405849456787,18.143497467041,18.1464080810547,18.1493167877197,18.1522312164307,18.1551532745361,18.1580657958984,18.1609764099121,18.163890838623,18.1668148040771,18.1697368621826,18.1726551055908,18.1755752563477,18.1784992218018,18.1814136505127,18.1843414306641,18.1872634887695,18.1901893615723,18.1931209564209,18.1960506439209,18.1989727020264,18.2019004821777,18.2048358917236,18.2077655792236,18.2106990814209,18.2136287689209,18.2165622711182,18.2194995880127,18.22243309021,18.2253723144531,18.2283115386963,18.2312488555908,18.2341842651367,18.2371273040771,18.2400741577148,18.2430095672607,18.245964050293,18.2489070892334,18.2518444061279,18.2547912597656,18.2577457427979,18.2606925964355,18.2636394500732,18.2665939331055,18.2695407867432,18.2724876403809,18.275447845459,18.2784023284912,18.2813568115234,18.2843112945557,18.2872695922852,18.290225982666,18.2931842803955,18.2961444854736,18.2991046905518,18.3020668029785,18.3050289154053,18.3079948425293,18.3109550476074,18.3139228820801,18.3168869018555,18.3198585510254,18.3228206634521,18.3257942199707,18.328763961792,18.3317337036133,18.3347091674805,18.3376846313477,18.3406581878662,18.3436317443848,18.346607208252,18.3495845794678,18.3525695800781,18.3555469512939,18.3585186004639,18.361499786377,18.3644847869873,18.3674716949463,18.3704566955566,18.3734436035156,18.3764190673828,18.3794078826904,18.3823986053467,18.3853855133057,18.3883819580078,18.3913688659668,18.3943538665771,18.3973484039307,18.4003448486328,18.4033374786377,18.4063320159912,18.4093341827393,18.4123249053955,18.4153232574463,18.4183254241943,18.4213275909424,18.4243278503418,18.4273338317871,18.4303302764893,18.4333343505859,18.4363422393799,18.4393463134766,18.4423580169678,18.445369720459,18.4483757019043,18.4513854980469,18.4543876647949,18.4574069976807,18.4604225158691,18.4634342193604,18.4664497375488,18.4694652557373,18.4724826812744,18.4755001068115,18.4785175323486,18.4815425872803,18.4845657348633,18.4875831604004,18.4906063079834,18.4936275482178,18.496654510498,18.4996814727783,18.50270652771,18.5057334899902,18.5087604522705,18.5117969512939,18.5148239135742,18.5178604125977,18.5208911895752,18.5239219665527,18.5269565582275,18.5299911499023,18.5330371856689,18.536075592041,18.5391139984131,18.5421447753906,18.5451946258545,18.5482273101807,18.5512771606445,18.5543212890625,18.5573616027832,18.5604095458984,18.5634517669678,18.5665073394775,18.5695533752441,18.572603225708,18.5756587982178,18.5787010192871,18.5817584991455,18.5848083496094,18.587869644165,18.5909214019775,18.5939826965332,18.5970401763916,18.6001014709473,18.6031551361084,18.6062183380127,18.6092796325684,18.612340927124,18.6154041290283,18.6184749603271,18.6215419769287,18.6246032714844,18.6276760101318,18.6307468414307,18.633810043335,18.6368827819824,18.6399555206299,18.6430282592773,18.6461029052734,18.6491794586182,18.652250289917,18.6553287506104,18.6584091186523,18.6614856719971,18.6645698547363,18.667652130127,18.6707305908203,18.6738147735596,18.6768970489502,18.679988861084,18.6830730438232,18.6861610412598,18.6892414093018,18.6923351287842,18.6954231262207
17.1859931945801,17.1886100769043,17.1912250518799,17.1938438415527,17.1964530944824,17.1990604400635,17.2016830444336,17.2042922973633,17.2069149017334,17.2095375061035,17.2121620178223,17.214771270752,17.2173957824707,17.2200202941895,17.2226409912109,17.2252655029297,17.2278938293457,17.2305107116699,17.2331352233887,17.2357616424561,17.238395690918,17.2410182952881,17.2436561584473,17.2462844848633,17.248908996582,17.2515392303467,17.2541732788086,17.256814956665,17.2594509124756,17.2620754241943,17.2647171020508,17.2673511505127,17.2699871063232,17.2726268768311,17.2752647399902,17.2779064178467,17.28053855896,17.2831878662109,17.2858295440674,17.2884674072266,17.2911148071289,17.293758392334,17.296407699585,17.2990493774414,17.3016986846924,17.3043460845947,17.3069915771484,17.3096351623535,17.312292098999,17.3149375915527,17.3175926208496,17.3202495574951,17.3229064941406,17.3255519866943,17.3282089233398,17.3308639526367,17.3335208892822,17.3361778259277,17.3388366699219,17.3414936065674,17.3441543579102,17.3468151092529,17.3494777679443,17.3521423339844,17.3548011779785,17.3574676513672,17.3601341247559,17.3627948760986,17.36545753479,17.3681354522705,17.3708019256592,17.373462677002,17.3761329650879,17.3788051605225,17.3814830780029,17.384147644043,17.3868198394775,17.3894958496094,17.3921661376953,17.3948440551758,17.3975257873535,17.4001998901367,17.4028778076172,17.4055519104004,17.4082317352295,17.4109230041504,17.4135913848877,17.4162826538086,17.4189643859863,17.4216403961182,17.4243240356445,17.4270114898682,17.4297046661377,17.4323902130127,17.4350776672363,17.4377613067627,17.4404525756836,17.4431457519531,17.4458389282227,17.4485321044922,17.4512195587158,17.4539108276367,17.4566040039062,17.4592990875244,17.4619941711426,17.4646968841553,17.467399597168,17.470085144043,17.472785949707,17.4754905700684,17.4781875610352,17.4808921813965,17.4835987091064,17.4862995147705,17.4890003204346,17.4917106628418,17.4944133758545,17.4971313476562,17.499828338623,17.5025367736816,17.5052490234375,17.5079593658447,17.5106754302979,17.5133800506592,17.5160961151123,17.5188102722168,17.5215225219727,17.5242385864258,17.5269527435303,17.529670715332,17.5323925018311,17.5351085662842,17.5378246307373,17.540548324585,17.5432739257812,17.545991897583,17.5487155914307,17.5514354705811,17.5541610717773,17.5568904876709,17.5596103668213,17.5623416900635,17.5650691986084,17.5677967071533,17.5705280303955,17.5732517242432,17.5759925842285,17.5787239074707,17.5814590454102,17.5841941833496,17.5869235992432,17.5896549224854,17.5923938751221,17.5951309204102,17.5978698730469,17.6006107330322,17.6033477783203,17.6060886383057,17.6088333129883,17.6115779876709,17.6143207550049,17.6170635223389,17.6198101043701,17.6225528717041,17.6253070831299,17.6280479431152,17.6307983398438,17.6335468292236,17.6362934112549,17.6390514373779,17.6417999267578,17.6445560455322,17.6473083496094,17.6500625610352,17.6528148651123,17.6555690765381,17.658332824707,17.6610870361328,17.6638469696045,17.6666049957275,17.6693649291992,17.6721267700195,17.6748905181885,17.6776542663574,17.6804141998291,17.6831874847412,17.6859436035156,17.6887168884277,17.6914844512939,17.6942501068115,17.6970176696777,17.6997909545898,17.702564239502,17.7053279876709,17.7081050872803,17.7108783721924,17.7136573791504,17.7164325714111,17.7192058563232,17.7219829559326,17.7247543334961,17.7275352478027,17.7303142547607,17.733097076416,17.7358722686768,17.7386589050293,17.7414455413818,17.7442321777344,17.7470149993896,17.7498016357422,17.7525844573975,17.7553653717041,17.7581596374512,17.7609519958496,17.7637424468994,17.7665309906006,17.7693176269531,17.7721080780029,17.7749042510986,17.7776985168457,17.7804985046387,17.7832946777344,17.7860889434814,17.788890838623,17.791690826416,17.7944793701172,17.797290802002,17.8000888824463,17.8028869628906,17.8056888580322,17.8084964752197,17.8113059997559,17.8141098022461,17.8169193267822,17.8197193145752,17.82253074646,17.8253364562988,17.8281536102295,17.8309669494629,17.8337783813477,17.8365917205811,17.8394012451172,17.8422203063965,17.8450317382812,17.8478507995605,17.8506660461426,17.8534812927246,17.8563003540039,17.8591251373291,17.861946105957,17.8647689819336,17.8675937652588,17.8704128265381,17.8732395172119,17.8760623931885,17.8788871765137,17.8817119598389,17.88454246521,17.8873710632324,17.8902034759521,17.8930339813232,17.895866394043,17.8987007141113,17.9015331268311,17.9043655395508,17.9072036743164,17.9100379943848,17.9128723144531,17.9157123565674,17.9185562133789,17.9213905334473,17.9242324829102,17.9270782470703,17.9299163818359,17.9327602386475,17.935604095459,17.9384441375732,17.9412937164307,17.9441413879395,17.9469947814941,17.9498386383057,17.9526958465576,17.9555416107178,17.9583930969238,17.9612407684326,17.9640960693359,17.9669513702393,17.9698085784912,17.9726619720459,17.9755191802979,17.9783763885498,17.9812335968018,17.984094619751,17.9869556427002,17.9898166656494,17.9926795959473,17.9955444335938,17.9984073638916,18.0012702941895,18.0041427612305,18.0069980621338,18.0098705291748,18.0127391815186,18.0156154632568,18.018482208252,18.0213565826416,18.0242233276367,18.0270977020264,18.0299739837646,18.0328464508057,18.0357227325439,18.0386028289795,18.0414772033691,18.044361114502,18.0472373962402,18.0501174926758,18.0530014038086,18.0558834075928,18.058765411377,18.0616512298584,18.0645351409912,18.0674228668213,18.0703086853027,18.0731964111328,18.0760879516602,18.0789756774902,18.0818729400635,18.0847606658936,18.0876560211182,18.0905494689941,18.0934467315674,18.0963344573975,18.0992336273193,18.1021327972412,18.1050338745117,18.107931137085,18.1108303070068,18.113733291626,18.1166286468506,18.1195278167725,18.1224403381348,18.1253414154053,18.1282539367676,18.1311550140381,18.1340618133545,18.1369686126709,18.1398792266846,18.1427917480469,18.1457004547119,18.1486167907715,18.1515274047852,18.1544437408447,18.1573543548584,18.1602725982666,18.1631927490234,18.1661052703857,18.1690216064453,18.1719455718994,18.1748714447021,18.177791595459,18.1807136535645,18.1836318969727,18.1865539550781,18.1894817352295,18.1924133300781,18.1953353881836,18.1982688903809,18.2011947631836,18.204122543335,18.2070579528809,18.2099857330322,18.2129192352295,18.2158508300781,18.2187881469727,18.2217273712158,18.2246627807617,18.2276000976562,18.230541229248,18.2334804534912,18.2364158630371,18.2393608093262,18.242301940918,18.2452487945557,18.2481899261475,18.2511405944824,18.2540836334229,18.2570285797119,18.2599754333496,18.2629299163818,18.2658767700195,18.2688293457031,18.2717761993408,18.2747287750244,18.2776851654053,18.2806377410889,18.2835960388184,18.2865581512451,18.2895107269287,18.2924690246582,18.2954330444336,18.2983894348145,18.3013553619385,18.3043174743652,18.3072738647461,18.3102378845215,18.3132057189941,18.3161697387695,18.3191394805908,18.3221092224121,18.3250770568848,18.3280487060547,18.3310203552246,18.3339900970459,18.3369674682617,18.3399353027344,18.3429088592529,18.345890045166,18.3488693237305,18.351842880249,18.3548259735107,18.3578033447266,18.3607769012451,18.3637676239014,18.3667488098145,18.3697319030762,18.3727169036865,18.3757095336914,18.3786869049072,18.3816719055176,18.3846645355225,18.3876495361328,18.3906421661377,18.3936347961426,18.3966255187988,18.3996200561523,18.4026145935059,18.4056091308594,18.4086055755615,18.4116077423096
16.9458618164062,16.9483966827393,16.9509391784668,16.9534740447998,16.956018447876,16.9585666656494,16.9611110687256,16.9636516571045,16.9661979675293,16.9687442779541,16.971284866333,16.9738388061523,16.976390838623,16.978946685791,16.9814853668213,16.9840354919434,16.9865875244141,16.9891376495361,16.9916973114014,16.9942531585693,16.9968013763428,16.9993515014648,17.0019130706787,17.0044708251953,17.0070266723633,17.0095844268799,17.0121440887451,17.0147037506104,17.0172653198242,17.0198249816895,17.0223865509033,17.0249538421631,17.0275096893311,17.0300769805908,17.0326480865479,17.0352020263672,17.0377731323242,17.0403480529785,17.042911529541,17.0454750061035,17.0480518341064,17.0506210327148,17.0531959533691,17.0557651519775,17.0583381652832,17.0609092712402,17.0634822845459,17.0660591125488,17.0686416625977,17.0712146759033,17.0737895965576,17.0763702392578,17.078950881958,17.0815315246582,17.0841083526611,17.0866889953613,17.0892715454102,17.091854095459,17.0944404602051,17.0970287322998,17.0996074676514,17.1021919250488,17.1047840118408,17.1073741912842,17.1099548339844,17.1125469207764,17.115140914917,17.1177272796631,17.1203155517578,17.1229152679443,17.1255054473877,17.1280937194824,17.1306972503662,17.1332931518555,17.1358776092529,17.1384811401367,17.1410846710205,17.1436824798584,17.146276473999,17.1488800048828,17.151481628418,17.1540813446045,17.1566829681396,17.1592826843262,17.1618995666504,17.1644992828369,17.1670989990234,17.1697082519531,17.1723194122314,17.1749286651611,17.1775360107422,17.1801452636719,17.182746887207,17.185359954834,17.1879806518555,17.1905937194824,17.1932029724121,17.1958179473877,17.1984348297119,17.2010517120361,17.2036685943604,17.2062854766846,17.2089042663574,17.2115173339844,17.2141437530518,17.2167625427246,17.2193870544434,17.2220115661621,17.224630355835,17.2272567749023,17.2298755645752,17.2325038909912,17.2351303100586,17.2377605438232,17.2403888702393,17.243013381958,17.2456493377686,17.2482757568359,17.2509136199951,17.2535457611084,17.2561779022217,17.2588081359863,17.2614421844482,17.2640781402588,17.2667121887207,17.2693462371826,17.2719879150391,17.2746334075928,17.2772674560547,17.279899597168,17.2825469970703,17.2851829528809,17.2878360748291,17.2904796600342,17.2931213378906,17.2957553863525,17.298412322998,17.3010578155518,17.3036956787109,17.3063526153564,17.3090038299561,17.3116493225098,17.3142967224121,17.3169574737549,17.3196048736572,17.3222522735596,17.3249111175537,17.3275661468506,17.3302192687988,17.3328742980957,17.3355369567871,17.3381938934326,17.3408508300781,17.3435115814209,17.346170425415,17.3488330841064,17.3514919281006,17.3541641235352,17.3568248748779,17.3594837188721,17.3621520996094,17.3648147583008,17.3674850463867,17.370153427124,17.3728199005127,17.3754920959473,17.3781604766846,17.3808345794678,17.3835048675537,17.3861770629883,17.3888492584229,17.3915214538574,17.394193649292,17.396879196167,17.3995552062988,17.402229309082,17.4049072265625,17.4075908660889,17.4102687835693,17.4129524230957,17.4156284332275,17.4183139801025,17.4209938049316,17.4236793518066,17.4263668060303,17.4290504455566,17.4317378997803,17.4344234466553,17.4371204376221,17.4398002624512,17.4424991607666,17.445182800293,17.4478778839111,17.4505748748779,17.4532642364502,17.4559593200684,17.4586505889893,17.4613437652588,17.4640407562256,17.4667453765869,17.4694423675537,17.4721393585205,17.4748401641846,17.4775352478027,17.4802417755127,17.482946395874,17.4856491088867,17.4883480072021,17.491060256958,17.4937572479248,17.496467590332,17.499174118042,17.5018844604492,17.5045986175537,17.5073013305664,17.5100193023682,17.5127277374268,17.5154457092285,17.5181560516357,17.5208625793457,17.5235805511475,17.5262985229492,17.5290126800537,17.5317325592041,17.5344486236572,17.5371685028076,17.539888381958,17.5426120758057,17.5453338623047,17.5480556488037,17.5507774353027,17.5534992218018,17.5562267303467,17.558952331543,17.5616798400879,17.5644073486328,17.567138671875,17.5698680877686,17.5725955963135,17.5753231048584,17.5780658721924,17.5807952880859,17.5835266113281,17.5862579345703,17.5890007019043,17.5917320251465,17.5944671630859,17.5972080230713,17.5999488830566,17.6026859283447,17.6054306030273,17.6081714630127,17.610912322998,17.6136512756348,17.616397857666,17.6191444396973,17.6218891143799,17.6246337890625,17.6273860931396,17.6301326751709,17.6328792572021,17.6356334686279,17.6383800506592,17.6411380767822,17.6438884735107,17.6466426849365,17.6493949890137,17.6521530151367,17.6549072265625,17.6576595306396,17.6604194641113,17.6631736755371,17.6659355163574,17.6686935424805,17.671459197998,17.6742210388184,17.6769771575928,17.6797466278076,17.6825141906738,17.6852741241455,17.6880397796631,17.6908130645752,17.6935787200928,17.6963481903076,17.6991176605225,17.70188331604,17.7046604156494,17.7074317932129,17.710205078125,17.7129802703857,17.7157573699951,17.7185325622559,17.7213077545166,17.7240867614746,17.7268657684326,17.7296447753906,17.7324256896973,17.7352066040039,17.7379856109619,17.7407684326172,17.7435550689697,17.7463397979736,17.7491226196289,17.7519092559814,17.7546939849854,17.7574863433838,17.760274887085,17.7630653381348,17.7658576965332,17.768648147583,17.7714328765869,17.7742328643799,17.7770252227783,17.7798252105713,17.7826194763184,17.7854194641113,17.7882080078125,17.7910079956055,17.7938137054443,17.79660987854,17.7994155883789,17.8022155761719,17.8050155639648,17.8078193664551,17.8106269836426,17.8134326934814,17.8162403106689,17.8190498352051,17.8218479156494,17.8246612548828,17.8274726867676,17.8302879333496,17.8330993652344,17.8359107971191,17.838716506958,17.84153175354,17.844352722168,17.84716796875,17.8499870300293,17.8528022766113,17.8556213378906,17.8584365844727,17.8612594604492,17.864086151123,17.866907119751,17.8697299957275,17.8725509643555,17.8753814697266,17.8782081604004,17.8810329437256,17.8838653564453,17.8866920471191,17.8895168304443,17.8923492431641,17.8951854705811,17.8980140686035,17.9008464813232,17.903678894043,17.9065132141113,17.9093494415283,17.9121913909912,17.9150314331055,17.9178657531738,17.920711517334,17.9235458374023,17.9263858795166,17.9292316436768,17.9320697784424,17.9349231719971,17.9377613067627,17.9406108856201,17.9434490203857,17.9463043212891,17.9491519927979,17.951997756958,17.9548568725586,17.9576988220215,17.9605579376221,17.9634094238281,17.9662628173828,17.9691162109375,17.9719734191895,17.9748229980469,17.9776859283447,17.9805469512939,17.9834041595459,17.9862689971924,17.989128112793,17.9919891357422,17.9948482513428,17.9977130889893,18.000581741333,18.0034484863281,18.0063152313232,18.0091819763184,18.0120506286621,18.01491355896,18.0177898406982,18.0206642150879,18.0235347747803,18.0263996124268,18.029275894165,18.0321559906006,18.0350303649902,18.0379066467285,18.0407848358154,18.0436611175537,18.046537399292,18.0494232177734,18.0523071289062,18.0551872253418,18.0580749511719,18.0609493255615,18.0638370513916,18.0667209625244,18.0696105957031,18.0725002288818,18.0753898620605,18.078275680542,18.0811672210693,18.0840606689453,18.0869560241699,18.0898475646973,18.0927467346191,18.0956325531006,18.0985355377197,18.1014308929443,18.1043281555176,18.1072273254395,18.1101341247559,18.1130275726318,18.1159248352051,18.1188297271729,18.1217365264893,18.1246433258057,18.1275482177734,18.1304492950439,18.1333599090576,18.1362686157227
16.7123394012451,16.7148094177246,16.7172832489014,16.7197532653809,16.7222347259521,16.724702835083,16.7271709442139,16.7296543121338,16.732120513916,16.7346076965332,16.7370758056641,16.7395515441895,16.7420310974121,16.7445068359375,16.7469863891602,16.7494735717773,16.7519588470459,16.7544345855713,16.7569198608398,16.759407043457,16.7618808746338,16.764368057251,16.7668590545654,16.7693462371826,16.7718257904053,16.7743148803711,16.7768058776855,16.7792987823486,16.7817840576172,16.7842788696289,16.7867698669434,16.7892589569092,16.7917556762695,16.7942562103271,16.796745300293,16.7992343902588,16.8017330169678,16.8042335510254,16.8067264556885,16.809232711792,16.8117294311523,16.8142242431641,16.816722869873,16.8192310333252,16.8217353820801,16.8242301940918,16.8267345428467,16.8292427062988,16.8317451477051,16.83424949646,16.8367538452148,16.8392677307129,16.8417739868164,16.8442802429199,16.846794128418,16.849308013916,16.851806640625,16.8543224334717,16.8568344116211,16.8593559265137,16.8618621826172,16.8643760681152,16.8668956756592,16.8694133758545,16.8719253540039,16.8744411468506,16.8769607543945,16.8794784545898,16.8819980621338,16.8845272064209,16.8870410919189,16.8895721435547,16.8920917510986,16.8946151733398,16.8971366882324,16.8996620178223,16.9021892547607,16.9047145843506,16.9072437286377,16.9097671508789,16.912296295166,16.9148292541504,16.9173641204834,16.9198970794678,16.9224185943604,16.9249534606934,16.9274883270264,16.9300270080566,16.9325542449951,16.9350986480713,16.937629699707,16.9401702880859,16.9427089691162,16.9452514648438,16.9477825164795,16.950325012207,16.9528636932373,16.9554061889648,16.9579524993896,16.9604969024658,16.9630432128906,16.9655857086182,16.9681224822998,16.9706707000732,16.9732265472412,16.9757709503174,16.9783134460449,16.9808712005615,16.9834213256836,16.985969543457,16.988525390625,16.9910774230957,16.9936351776123,16.9961833953857,16.9987354278564,17.0012950897217,17.0038471221924,17.006404876709,17.0089683532715,17.0115261077881,17.0140800476074,17.0166435241699,17.0192050933838,17.0217685699463,17.0243320465088,17.0268955230713,17.0294589996338,17.0320243835449,17.0345878601074,17.0371627807617,17.0397262573242,17.0422878265381,17.0448532104492,17.0474338531494,17.0499954223633,17.0525703430176,17.0551433563232,17.0577201843262,17.0602874755859,17.0628604888916,17.0654411315918,17.0680084228516,17.0705909729004,17.0731716156006,17.0757484436035,17.0783233642578,17.0809001922607,17.0834827423096,17.086067199707,17.0886478424072,17.0912265777588,17.0938167572021,17.0963916778564,17.0989780426025,17.1015663146973,17.1041660308838,17.1067428588867,17.1093311309814,17.1119155883789,17.1145114898682,17.1171035766602,17.1196918487549,17.1222801208496,17.1248779296875,17.1274662017822,17.130069732666,17.1326675415039,17.1352596282959,17.1378517150879,17.1404514312744,17.1430568695068,17.1456470489502,17.1482524871826,17.1508502960205,17.153450012207,17.1560554504395,17.1586570739746,17.1612644195557,17.1638660430908,17.1664733886719,17.169075012207,17.1716804504395,17.1742935180664,17.1769046783447,17.1795120239258,17.1821250915527,17.1847305297852,17.1873474121094,17.189962387085,17.192569732666,17.1951904296875,17.1978054046631,17.2004127502441,17.2030353546143,17.2056503295898,17.2082691192627,17.2108840942383,17.2135124206543,17.2161312103271,17.2187461853027,17.2213706970215,17.2239952087402,17.2266216278076,17.2292461395264,17.2318687438965,17.2344951629639,17.2371253967285,17.2397537231445,17.2423801422119,17.2450141906738,17.2476348876953,17.2502727508545,17.2529029846191,17.2555351257324,17.2581729888916,17.2608013153076,17.2634334564209,17.2660675048828,17.2687168121338,17.2713470458984,17.2739887237549,17.2766284942627,17.2792720794678,17.2819061279297,17.2845458984375,17.2871971130371,17.289831161499,17.2924823760986,17.2951183319092,17.2977714538574,17.3004169464111,17.3030624389648,17.3057117462158,17.3083610534668,17.3110084533691,17.3136558532715,17.3163108825684,17.3189601898193,17.3216190338135,17.3242683410645,17.3269214630127,17.3295783996582,17.3322353363037,17.3348941802979,17.3375453948975,17.3402080535889,17.342866897583,17.3455238342285,17.3481845855713,17.3508529663086,17.353515625,17.3561820983887,17.3588428497314,17.3615055084229,17.3641719818115,17.3668384552002,17.3695087432861,17.3721752166748,17.374849319458,17.3775119781494,17.3801803588867,17.3828563690186,17.3855266571045,17.3882007598877,17.3908786773682,17.3935489654541,17.3962287902832,17.3989067077637,17.4015827178955,17.4042644500732,17.4069404602051,17.4096183776855,17.4122982025146,17.4149837493896,17.4176616668701,17.4203472137451,17.4230289459229,17.4257106781006,17.4284019470215,17.4310874938965,17.4337749481201,17.436466217041,17.4391574859619,17.441837310791,17.4445304870605,17.4472217559814,17.4499168395996,17.4526100158691,17.4553050994873,17.4579982757568,17.4606990814209,17.4633903503418,17.4660911560059,17.468786239624,17.4714908599854,17.4741897583008,17.4768886566162,17.479585647583,17.482292175293,17.4849910736084,17.487699508667,17.4904041290283,17.4931049346924,17.4958114624023,17.4985218048096,17.5012302398682,17.5039348602295,17.5066509246826,17.5093593597412,17.5120735168457,17.5147838592529,17.5175037384033,17.5202159881592,17.5229187011719,17.5256385803223,17.5283603668213,17.531078338623,17.5337963104248,17.5365123748779,17.5392303466797,17.5419521331787,17.5446796417236,17.5473976135254,17.5501232147217,17.5528430938721,17.5555725097656,17.5582942962646,17.5610198974609,17.5637550354004,17.5664768218994,17.5692081451416,17.5719337463379,17.5746688842773,17.5773963928223,17.5801334381104,17.5828723907471,17.585599899292,17.5883369445801,17.5910682678223,17.5938091278076,17.5965480804443,17.5992870330811,17.6020240783691,17.6047649383545,17.6075096130371,17.6102466583252,17.6129951477051,17.6157341003418,17.6184844970703,17.6212215423584,17.6239719390869,17.6267223358154,17.629467010498,17.6322193145752,17.6349620819092,17.6377143859863,17.6404685974121,17.6432228088379,17.6459693908691,17.6487293243408,17.6514854431152,17.6542339324951,17.6569976806641,17.6597480773926,17.6625156402588,17.6652679443359,17.6680278778076,17.6707859039307,17.6735553741455,17.6763134002686,17.6790771484375,17.681848526001,17.6846084594727,17.6873722076416,17.6901416778564,17.6929092407227,17.6956806182861,17.6984462738037,17.7012233734131,17.703987121582,17.7067642211914,17.7095355987549,17.7123107910156,17.7150859832764,17.7178611755371,17.720630645752,17.7234134674072,17.726188659668,17.7289714813232,17.7317504882812,17.7345390319824,17.7373104095459,17.7400932312012,17.7428798675537,17.7456665039062,17.7484493255615,17.7512397766113,17.7540225982666,17.7568092346191,17.7596015930176,17.7623901367188,17.7651767730713,17.767972946167,17.7707595825195,17.7735557556152,17.7763519287109,17.7791423797607,17.7819423675537,17.7847366333008,17.7875385284424,17.7903327941895,17.7931327819824,17.795934677124,17.7987308502197,17.8015365600586,17.8043308258057,17.8071384429932,17.8099460601807,17.8127517700195,17.8155612945557,17.8183689117432,17.8211727142334,17.8239784240723,17.826789855957,17.8296031951904,17.8324146270752,17.8352298736572,17.8380355834961,17.8408546447754,17.8436679840088,17.8464889526367,17.8493061065674,17.852123260498,17.8549404144287,17.8577575683594,17.8605823516846,17.8633995056152,17.8662223815918,17.8690452575684
16.4851722717285,16.4875793457031,16.4899711608887,16.4923839569092,16.4947929382324,16.4971981048584,16.4996013641357,16.5020122528076,16.5044193267822,16.5068244934082,16.5092391967773,16.5116481781006,16.5140609741211,16.516471862793,16.5188903808594,16.5212993621826,16.5237102508545,16.5261249542236,16.52854347229,16.5309619903564,16.5333728790283,16.5357933044434,16.538215637207,16.5406284332275,16.5430507659912,16.5454769134521,16.5478973388672,16.5503158569336,16.5527362823486,16.5551586151123,16.5575847625732,16.5600109100342,16.5624313354492,16.5648593902588,16.5672855377197,16.5697135925293,16.5721454620361,16.5745735168457,16.576997756958,16.5794315338135,16.5818634033203,16.5842914581299,16.586727142334,16.5891609191895,16.5915966033936,16.5940227508545,16.5964603424072,16.5989036560059,16.6013336181641,16.6037788391113,16.6062145233154,16.6086521148682,16.6110935211182,16.6135311126709,16.6159782409668,16.6184177398682,16.6208572387695,16.6233062744141,16.6257457733154,16.6281890869141,16.63063621521,16.6330852508545,16.6355381011963,16.6379737854004,16.6404323577881,16.6428813934326,16.645320892334,16.6477756500244,16.6502285003662,16.6526756286621,16.6551284790039,16.6575889587402,16.6600399017334,16.6624889373779,16.6649513244629,16.6674003601074,16.6698684692383,16.6723175048828,16.6747741699219,16.6772422790527,16.6796989440918,16.6821517944336,16.6846218109131,16.6870880126953,16.6895446777344,16.6920127868652,16.6944751739502,16.6969413757324,16.699405670166,16.7018718719482,16.7043342590332,16.7068004608154,16.7092781066895,16.711742401123,16.7142124176025,16.7166862487793,16.7191619873047,16.7216339111328,16.7241039276123,16.7265720367432,16.7290534973145,16.7315330505371,16.734001159668,16.7364749908447,16.7389583587646,16.7414302825928,16.7439136505127,16.7463912963867,16.7488765716553,16.7513484954834,16.7538394927979,16.7563171386719,16.7587947845459,16.7612800598145,16.7637691497803,16.7662563323975,16.768741607666,16.7712287902832,16.773717880249,16.7762107849121,16.778694152832,16.7811813354492,16.7836780548096,16.7861614227295,16.7886581420898,16.7911510467529,16.7936477661133,16.7961368560791,16.7986335754395,16.8011341094971,16.8036270141602,16.8061218261719,16.8086261749268,16.8111209869385,16.8136215209961,16.8161163330078,16.8186206817627,16.821117401123,16.8236236572266,16.8261318206787,16.8286380767822,16.8311367034912,16.8336410522461,16.8361587524414,16.838659286499,16.8411655426025,16.843677520752,16.8461799621582,16.8486976623535,16.8512077331543,16.8537216186523,16.8562335968018,16.8587436676025,16.861255645752,16.8637638092041,16.8662796020508,16.8687934875488,16.8713207244873,16.873836517334,16.876350402832,16.8788738250732,16.8813953399658,16.8839149475098,16.8864288330078,16.8889617919922,16.8914775848389,16.8939971923828,16.8965244293213,16.8990573883057,16.9015769958496,16.9041042327881,16.9066257476807,16.9091606140137,16.9116859436035,16.9142150878906,16.9167518615723,16.9192810058594,16.9218082427979,16.9243431091309,16.9268779754639,16.9294147491455,16.9319477081299,16.9344787597656,16.9370155334473,16.9395542144775,16.9420948028564,16.9446296691895,16.947172164917,16.9497108459473,16.9522495269775,16.9547958374023,16.9573402404785,16.9598751068115,16.9624214172363,16.9649639129639,16.9675102233887,16.9700622558594,16.9726066589355,16.9751586914062,16.9776992797852,16.9802589416504,16.9828014373779,16.9853477478027,16.9879055023193,16.99045753479,16.9930152893066,16.9955635070801,16.9981212615967,17.0006713867188,17.0032291412354,17.0057888031006,17.0083484649658,17.0109062194824,17.0134620666504,17.016019821167,17.0185832977295,17.0211486816406,17.0237121582031,17.0262756347656,17.0288372039795,17.031400680542,17.0339736938477,17.0365295410156,17.0391025543213,17.0416736602783,17.0442409515381,17.0468082427979,17.0493793487549,17.0519504547119,17.0545215606689,17.0570945739746,17.0596675872803,17.0622406005859,17.0648155212402,17.0673923492432,17.0699672698975,17.072546005249,17.0751190185547,17.0776996612549,17.0802764892578,17.082857131958,17.08544921875,17.0880241394043,17.0906028747559,17.0931854248047,17.0957660675049,17.0983581542969,17.1009387969971,17.1035327911377,17.1061153411865,17.1087036132812,17.1112937927246,17.113883972168,17.11647605896,17.1190662384033,17.1216621398926,17.1242523193359,17.1268463134766,17.1294422149658,17.1320381164551,17.1346321105957,17.1372241973877,17.1398277282715,17.1424198150635,17.1450233459473,17.1476211547852,17.1502265930176,17.1528282165527,17.1554222106934,17.1580276489258,17.1606292724609,17.163236618042,17.1658401489258,17.1684551239014,17.1710529327393,17.1736583709717,17.1762714385986,17.1788787841797,17.1814918518066,17.1841068267822,17.1867179870605,17.189323425293,17.1919441223145,17.1945533752441,17.1971664428711,17.1997871398926,17.2023963928223,17.2050170898438,17.207633972168,17.2102565765381,17.2128791809082,17.2154941558838,17.2181167602539,17.2207412719727,17.2233619689941,17.2259826660156,17.2286148071289,17.231237411499,17.2338581085205,17.2364902496338,17.2391204833984,17.2417469024658,17.2443714141846,17.2470054626465,17.2496318817139,17.2522678375244,17.2548980712891,17.2575302124023,17.2601661682129,17.2628021240234,17.2654361724854,17.2680759429932,17.2707080841064,17.2733516693115,17.2759895324707,17.2786273956299,17.2812614440918,17.2839069366455,17.2865543365479,17.2891941070557,17.2918434143066,17.2944850921631,17.2971267700195,17.2997722625732,17.3024215698242,17.3050670623779,17.3077182769775,17.3103675842285,17.3130168914795,17.3156642913818,17.3183250427246,17.3209781646729,17.3236274719238,17.326286315918,17.3289337158203,17.3315944671631,17.33424949646,17.3369064331055,17.339563369751,17.3422260284424,17.3448848724365,17.3475437164307,17.3502063751221,17.3528671264648,17.3555393218994,17.3582000732422,17.3608589172363,17.3635292053223,17.3661918640137,17.3688640594482,17.3715324401855,17.3742008209229,17.3768615722656,17.3795413970947,17.3822078704834,17.3848896026611,17.3875560760498,17.3902263641357,17.3929023742676,17.3955783843994,17.3982543945312,17.4009342193604,17.4036140441895,17.4062957763672,17.4089660644531,17.4116535186768,17.4143314361572,17.417013168335,17.41969871521,17.422384262085,17.4250621795654,17.4277496337891,17.43044090271,17.4331283569336,17.4358139038086,17.4385051727295,17.4411888122559,17.4438800811768,17.4465732574463,17.4492683410645,17.4519596099854,17.4546527862549,17.4573421478271,17.4600429534912,17.4627418518066,17.4654388427734,17.468132019043,17.4708347320557,17.4735279083252,17.4762287139893,17.478931427002,17.4816341400146,17.4843368530273,17.4870414733887,17.4897499084473,17.4924507141113,17.4951591491699,17.4978694915771,17.5005702972412,17.5032863616943,17.505989074707,17.5087013244629,17.511417388916,17.5141296386719,17.5168437957764,17.5195503234863,17.522274017334,17.5249824523926,17.5276985168457,17.5304183959961,17.5331363677979,17.5358581542969,17.5385799407959,17.5412979125977,17.544017791748,17.5467395782471,17.5494632720947,17.552188873291,17.5549144744873,17.5576343536377,17.5603656768799,17.5630893707275,17.5658187866211,17.568546295166,17.5712776184082,17.5740070343018,17.5767383575439,17.5794734954834,17.5822067260742,17.5849437713623,17.5876789093018,17.5904083251953,17.5931415557861,17.595890045166,17.5986270904541,17.6013660430908,17.6041049957275,17.6068420410156,17.6095886230469
